-1.680699999999999861e+01 1.042600000000000016e+01 2.306800000000000139e+01 -7.779614983664864813e-02
-1.671399999999999864e+01 1.900100000000000122e+01 3.384100000000000108e+01 -1.615443073200108770e-01
-1.660000000000000142e+01 1.136299999999999955e+01 2.704100000000000037e+01 9.134978167908053281e-02
-1.658699999999999974e+01 1.389700000000000024e+01 2.901200000000000045e+01 -5.261465295099090195e-02
-1.649899999999999878e+01 2.028399999999999892e+01 3.358599999999999852e+01 -1.377824388927461896e-01
-1.632600000000000051e+01 1.186100000000000065e+01 3.204800000000000182e+01 -1.700815644103468860e-01
-1.619500000000000028e+01 1.058600000000000030e+01 3.285799999999999699e+01 -2.599600164227155452e-01
-1.616700000000000159e+01 1.547199999999999953e+01 1.999500000000000099e+01 -2.002323778234920693e-01
-1.616000000000000014e+01 2.159700000000000131e+01 3.571699999999999875e+01 -8.656177951803775694e-02
-1.614900000000000091e+01 1.579700000000000060e+01 1.881200000000000117e+01 -1.867178661672648232e-01
-1.613899999999999935e+01 1.542300000000000004e+01 2.253399999999999892e+01 -1.947997029868881458e-01
-1.598900000000000077e+01 1.276099999999999923e+01 2.699299999999999855e+01 1.779520705227871993e-02
-1.584699999999999953e+01 1.247499999999999964e+01 2.219699999999999918e+01 -2.468852316884729281e-01
-1.578200000000000003e+01 1.136299999999999955e+01 2.303800000000000026e+01 -2.579641519099988844e-01
-1.572899999999999920e+01 1.734400000000000119e+01 3.187500000000000000e+01 -2.580376198216229877e-01
-1.556400000000000006e+01 2.379799999999999827e+01 3.159900000000000020e+01 -1.470797584742175590e-01
-1.547600000000000087e+01 2.099200000000000088e+01 3.447899999999999920e+01 -1.154735916358918396e-01
-1.537100000000000044e+01 1.812000000000000099e+01 3.667399999999999949e+01 -2.394951857605007173e-01
-1.530499999999999972e+01 7.974999999999999645e+00 2.915200000000000102e+01 6.689987658821704326e-03
-1.513599999999999923e+01 7.193999999999999950e+00 2.674200000000000088e+01 -1.314873450655203446e-01
-1.508999999999999986e+01 1.782600000000000051e+01 2.547500000000000142e+01 -3.025436324986899850e-01
-1.508300000000000018e+01 1.390799999999999947e+01 3.127199999999999847e+01 2.132624716373090340e-02
-1.503100000000000058e+01 1.633899999999999864e+01 3.108999999999999986e+01 1.509267362237181054e-01
-1.499600000000000044e+01 1.657600000000000051e+01 2.610099999999999909e+01 -3.138701302724297149e-01
-1.494200000000000017e+01 1.260100000000000087e+01 3.192000000000000171e+01 -6.135133218850933462e-02
-1.490900000000000070e+01 1.473399999999999999e+01 2.294300000000000139e+01 -2.165135884620782991e-01
-1.490499999999999936e+01 8.182000000000000384e+00 2.769800000000000040e+01 -9.080130402105970888e-02
-1.487500000000000000e+01 1.633399999999999963e+01 1.817399999999999949e+01 -3.189171039487971315e-01
-1.485999999999999943e+01 2.203000000000000114e+01 3.366100000000000136e+01 -1.284013383457408841e-01
-1.482000000000000028e+01 1.505700000000000038e+01 3.189999999999999858e+01 7.527212376474062827e-02
-1.480000000000000071e+01 1.898400000000000176e+01 2.614799999999999969e+01 -3.127487418194847546e-01
-1.477399999999999913e+01 7.371000000000000441e+00 2.540099999999999980e+01 -1.455335513097360534e-01
-1.472100000000000009e+01 1.344999999999999929e+01 2.213899999999999935e+01 -2.441870453600103463e-01
-1.463499999999999979e+01 1.271199999999999974e+01 2.752499999999999858e+01 1.110463605914390611e-01
-1.460200000000000031e+01 1.646499999999999986e+01 2.743199999999999861e+01 -5.886193354221528479e-02
-1.444200000000000017e+01 1.511500000000000021e+01 3.307099999999999795e+01 7.329961753107695765e-02
-1.440700000000000003e+01 1.887300000000000111e+01 2.748799999999999955e+01 -3.828698189716209788e-01
-1.438799999999999990e+01 2.333599999999999852e+01 3.094099999999999895e+01 -3.176749383558639672e-01
-1.430199999999999960e+01 1.763200000000000145e+01 2.814399999999999835e+01 -4.162201971016132873e-01
-1.429700000000000060e+01 9.355999999999999872e+00 2.728300000000000125e+01 9.950859200892742812e-03
-1.422100000000000009e+01 5.217999999999999972e+00 2.938500000000000156e+01 -1.225652743306504533e-01
-1.418299999999999983e+01 8.545999999999999375e+00 2.502100000000000080e+01 -1.291225366253372087e-01
-1.415099999999999980e+01 1.807600000000000051e+01 3.692300000000000182e+01 -2.224841724160046275e-01
-1.413899999999999935e+01 7.524000000000000021e+00 3.003800000000000026e+01 -6.762221450556996083e-02
-1.408900000000000041e+01 1.700100000000000122e+01 1.919600000000000151e+01 -3.117748028302738672e-01
-1.407099999999999973e+01 1.984299999999999997e+01 2.839199999999999946e+01 -1.919821350438324636e-01
-1.405499999999999972e+01 1.526600000000000001e+01 1.744000000000000128e+01 -2.150340131528334364e-01
-1.401699999999999946e+01 1.142200000000000060e+01 3.001300000000000168e+01 1.427055517181080313e-01
-1.393699999999999939e+01 1.167300000000000004e+01 3.122100000000000009e+01 5.409760258102891406e-02
-1.393500000000000050e+01 9.542999999999999261e+00 2.594900000000000162e+01 -4.614968358933795034e-02
-1.389499999999999957e+01 2.171900000000000119e+01 3.280400000000000205e+01 -3.164432914495174942e-01
-1.389100000000000001e+01 1.789600000000000080e+01 2.948799999999999955e+01 -1.842922495809858341e-01
-1.387299999999999933e+01 8.750999999999999446e+00 2.370799999999999841e+01 4.888771603546125666e-02
-1.378299999999999947e+01 2.129599999999999937e+01 2.289600000000000080e+01 -3.976225922841537530e-01
-1.375900000000000034e+01 1.924099999999999966e+01 2.958699999999999974e+01 -1.900308609873731236e-01
-1.370299999999999940e+01 1.689699999999999847e+01 3.057400000000000162e+01 9.264436021831248813e-02
-1.363899999999999935e+01 1.552500000000000036e+01 2.274399999999999977e+01 -2.432093816438477274e-01
-1.363700000000000045e+01 1.660000000000000142e+01 2.215899999999999892e+01 -3.270330595065576995e-01
-1.361999999999999922e+01 1.312299999999999933e+01 1.871900000000000119e+01 -2.419878059680579674e-01
-1.358000000000000007e+01 1.322199999999999953e+01 2.559400000000000119e+01 -1.288665537953459783e-01
-1.357199999999999918e+01 1.975600000000000023e+01 2.086299999999999955e+01 -2.960055161048597561e-01
-1.356700000000000017e+01 6.261999999999999567e+00 2.940200000000000102e+01 -1.100253936871763843e-01
-1.355100000000000016e+01 1.290499999999999936e+01 2.678399999999999892e+01 -1.421301056164045451e-01
-1.348099999999999987e+01 1.910000000000000142e+01 3.718699999999999761e+01 -3.911460432626262529e-01
-1.345199999999999996e+01 1.672500000000000142e+01 3.692999999999999972e+01 -1.127295519313072925e-01
-1.344500000000000028e+01 1.813100000000000023e+01 1.893400000000000105e+01 -2.899898476276691062e-01
-1.343399999999999928e+01 2.058099999999999952e+01 3.272200000000000131e+01 -2.956590433653918382e-01
-1.334399999999999942e+01 1.859199999999999875e+01 1.779500000000000171e+01 -2.856992808448661769e-01
-1.332799999999999940e+01 2.286299999999999955e+01 3.195200000000000173e+01 -3.329964339448686084e-01
-1.325500000000000078e+01 8.675000000000000711e+00 3.025100000000000122e+01 3.834491286346431577e-02
-1.321400000000000041e+01 4.309999999999999609e+00 3.325500000000000256e+01 3.737112812714177279e-02
-1.318099999999999916e+01 1.439000000000000057e+01 1.831400000000000006e+01 -2.387254581034257972e-01
-1.301200000000000045e+01 8.342000000000000526e+00 3.246699999999999875e+01 2.332465767179089100e-01
-1.299799999999999933e+01 2.252400000000000091e+01 2.338599999999999923e+01 -3.946972356426015072e-01
-1.294800000000000040e+01 1.122600000000000087e+01 3.198900000000000077e+01 1.340161865777445560e-01
-1.289400000000000013e+01 2.032700000000000173e+01 2.211899999999999977e+01 -3.937816557620532620e-01
-1.283900000000000041e+01 1.232499999999999929e+01 1.954299999999999926e+01 -2.215207074225962747e-01
-1.277899999999999991e+01 8.999000000000000554e+00 3.144999999999999929e+01 4.027138792134309087e-02
-1.269100000000000072e+01 1.876000000000000156e+01 2.009600000000000009e+01 -2.638150893125743579e-01
-1.254299999999999926e+01 1.490799999999999947e+01 2.316100000000000136e+01 -2.232392302291685005e-01
-1.241200000000000081e+01 1.662900000000000134e+01 3.804500000000000171e+01 -2.675753171623001525e-01
-1.235800000000000054e+01 6.344000000000000306e+00 2.887399999999999878e+01 -1.322129643486874007e-01
-1.231199999999999939e+01 4.144999999999999574e+00 2.584900000000000020e+01 1.847690912398177177e-01
-1.229199999999999982e+01 5.347999999999999865e+00 2.671699999999999875e+01 1.756169932085755447e-01
-1.224000000000000021e+01 1.277899999999999991e+01 2.753900000000000148e+01 3.824849521472578617e-01
-1.221499999999999986e+01 4.748999999999999666e+00 2.413299999999999912e+01 1.481356794921983577e-01
-1.220899999999999963e+01 1.932999999999999829e+01 3.999799999999999756e+01 -2.751380456355919657e-01
-1.211700000000000088e+01 2.241100000000000136e+01 3.126200000000000045e+01 -1.633937427169490642e-01
-1.194999999999999929e+01 1.028599999999999959e+01 3.151599999999999824e+01 2.284782822146529946e-01
-1.192399999999999949e+01 1.482900000000000063e+01 1.875300000000000011e+01 -3.097571430808642168e-01
-1.189100000000000001e+01 1.170800000000000018e+01 4.005199999999999960e+01 -1.931720450896051156e-01
-1.189100000000000001e+01 1.422899999999999920e+01 3.812599999999999767e+01 -1.535703870006792648e-01
-1.181600000000000072e+01 5.203999999999999737e+00 2.815700000000000003e+01 1.841827295376226581e-01
-1.179599999999999937e+01 2.220700000000000074e+01 2.422500000000000142e+01 -2.720929689823173847e-01
-1.178899999999999970e+01 1.415499999999999936e+01 2.799800000000000111e+01 -2.117426957429571210e-01
-1.175200000000000067e+01 4.583999999999999631e+00 3.345700000000000074e+01 -2.240683919690952541e-01
-1.169500000000000028e+01 1.182099999999999973e+01 3.853199999999999648e+01 -8.224628590613140833e-02
-1.163899999999999935e+01 1.033999999999999986e+01 3.608899999999999864e+01 -1.000165916244430131e-01
-1.160299999999999976e+01 1.277899999999999991e+01 1.996199999999999974e+01 -2.026900507301065135e-01
-1.158099999999999952e+01 5.589000000000000412e+00 3.461099999999999710e+01 -2.755435444309012327e-01
-1.149499999999999922e+01 1.939900000000000091e+01 1.958500000000000085e+01 -2.306777134473760871e-01
-1.135599999999999987e+01 1.556099999999999994e+01 3.784899999999999665e+01 -1.297323849079847213e-01
-1.126099999999999923e+01 1.692800000000000082e+01 3.405899999999999750e+01 -2.784487746619518367e-01
-1.121799999999999997e+01 1.015799999999999947e+01 2.808899999999999864e+01 1.519178275885051110e-01
-1.120700000000000074e+01 1.545700000000000074e+01 2.302199999999999847e+01 -2.723697815885389173e-01
-1.114499999999999957e+01 1.208099999999999952e+01 2.685600000000000165e+01 1.094060125085844631e-01
-1.114000000000000057e+01 5.089000000000000412e+00 3.214399999999999835e+01 1.606537529016920651e-01
-1.113400000000000034e+01 1.402999999999999936e+01 1.957100000000000151e+01 -1.782116310680849636e-01
-1.111500000000000021e+01 1.687900000000000134e+01 2.360099999999999909e+01 -2.575494369023180741e-01
-1.107000000000000028e+01 1.317600000000000016e+01 3.821300000000000097e+01 -1.890260190108968286e-01
-1.102599999999999980e+01 1.368999999999999950e+01 3.031500000000000128e+01 8.712640226754576889e-02
-1.102500000000000036e+01 2.209900000000000020e+01 3.195400000000000063e+01 -2.825940544619016115e-01
-1.099699999999999989e+01 1.976599999999999824e+01 3.966799999999999926e+01 -2.636265461722155368e-01
-1.098099999999999987e+01 2.214199999999999946e+01 3.318399999999999750e+01 -2.810112789113595189e-01
-1.091900000000000048e+01 1.698999999999999844e+01 2.508099999999999952e+01 5.300337627023460341e-02
-1.084999999999999964e+01 1.450900000000000034e+01 3.460000000000000142e+01 -1.761200779818387907e-01
-1.083799999999999919e+01 1.196299999999999919e+01 2.075700000000000145e+01 -1.859020243247218596e-01
-1.083500000000000085e+01 1.018399999999999928e+01 3.256099999999999994e+01 2.405822256339685272e-01
-1.072700000000000031e+01 1.022700000000000031e+01 3.691299999999999670e+01 -1.447559403992209337e-01
-1.072400000000000020e+01 1.409800000000000075e+01 2.902400000000000091e+01 -2.382136540448577533e-01
-1.071599999999999930e+01 1.084999999999999964e+01 2.718799999999999883e+01 1.110473921740080527e-01
-1.071199999999999974e+01 3.911000000000000032e+00 2.361199999999999832e+01 1.170806370901910087e-01
-1.071199999999999974e+01 1.083799999999999919e+01 3.809400000000000119e+01 -1.043568798220892296e-01
-1.069599999999999973e+01 1.366399999999999970e+01 2.451800000000000068e+01 -1.501879800511448093e-01
-1.067900000000000027e+01 1.969999999999999929e+01 2.640500000000000114e+01 -2.690878627976346915e-01
-1.066799999999999926e+01 1.185100000000000087e+01 4.078600000000000136e+01 -1.804234663993884158e-01
-1.064499999999999957e+01 1.982600000000000051e+01 3.838199999999999790e+01 -2.441607279368998018e-01
-1.061200000000000010e+01 1.812699999999999889e+01 3.389300000000000068e+01 -2.717621574723211308e-01
-1.053800000000000026e+01 1.730300000000000082e+01 3.076999999999999957e+01 -1.201621296070816587e-02
-1.047700000000000031e+01 1.580799999999999983e+01 3.437500000000000000e+01 -3.032322676484552337e-01
-1.043200000000000038e+01 1.949399999999999977e+01 2.980999999999999872e+01 -1.166443396841027463e-01
-1.042999999999999972e+01 1.865299999999999869e+01 1.934199999999999875e+01 -2.561522777308577470e-01
-1.040799999999999947e+01 1.744200000000000017e+01 1.957799999999999940e+01 -2.746879013409898596e-01
-1.030799999999999983e+01 5.240000000000000213e+00 2.818400000000000105e+01 3.659764656494016721e-01
-1.030000000000000071e+01 1.572400000000000020e+01 4.004999999999999716e+01 -1.804845324502223625e-01
-1.026099999999999923e+01 1.449300000000000033e+01 2.371699999999999875e+01 -8.753518942618607190e-02
-1.025900000000000034e+01 6.658000000000000362e+00 3.723299999999999699e+01 6.973025226246065689e-02
-1.015900000000000070e+01 1.441000000000000014e+01 4.255599999999999739e+01 -1.950408816713658788e-01
-1.015099999999999980e+01 2.016700000000000159e+01 4.062299999999999756e+01 -2.737347010419011739e-01
-1.014899999999999913e+01 1.586400000000000077e+01 3.873899999999999721e+01 -3.077741234512073598e-01
-1.012500000000000000e+01 5.945999999999999730e+00 3.495199999999999818e+01 -3.561806405021844014e-03
-1.009200000000000053e+01 1.805000000000000071e+01 2.976999999999999957e+01 9.642155981630044087e-03
-1.004499999999999993e+01 6.980000000000000426e+00 3.606499999999999773e+01 2.878917150102271866e-02
-1.003599999999999959e+01 1.354199999999999982e+01 3.126399999999999935e+01 -8.806252546272740067e-02
-9.974999999999999645e+00 9.018000000000000682e+00 2.561799999999999855e+01 3.994128716600232193e-02
-9.926999999999999602e+00 2.008299999999999841e+01 3.107199999999999918e+01 1.771726052729878931e-01
-9.836000000000000298e+00 1.325900000000000034e+01 3.805199999999999960e+01 -1.821136938662711036e-01
-9.823999999999999844e+00 2.160399999999999920e+01 3.116900000000000048e+01 -2.467904498169672389e-01
-9.720000000000000639e+00 8.214000000000000412e+00 3.570700000000000074e+01 2.972967926431752811e-02
-9.717000000000000526e+00 1.375699999999999967e+01 3.487599999999999767e+01 2.425795055357429786e-02
-9.704000000000000625e+00 4.067000000000000171e+00 2.805099999999999838e+01 3.487578400498533293e-01
-9.701999999999999957e+00 9.289999999999999147e+00 3.217099999999999937e+01 2.325476955782190824e-01
-9.701000000000000512e+00 6.302999999999999936e+00 2.835999999999999943e+01 3.536596466980254094e-01
-9.632999999999999119e+00 1.979400000000000048e+01 2.559199999999999875e+01 -2.867011929932901104e-01
-9.602999999999999758e+00 1.570899999999999963e+01 4.241499999999999915e+01 -2.006898332078540792e-01
-9.557999999999999829e+00 9.272000000000000242e+00 3.668999999999999773e+01 1.697942697555250291e-01
-9.555999999999999162e+00 1.030000000000000071e+01 2.634400000000000119e+01 3.371825053698123686e-01
-9.506999999999999673e+00 8.848000000000000753e+00 3.087699999999999889e+01 2.867295220685008861e-01
-9.457000000000000739e+00 1.732600000000000051e+01 2.542000000000000171e+01 4.272993275278756664e-02
-9.406000000000000583e+00 1.437199999999999989e+01 2.868900000000000006e+01 4.132768372783188204e-03
-9.393000000000000682e+00 1.760600000000000165e+01 2.888299999999999912e+01 -1.575745002083228374e-01
-9.387999999999999901e+00 4.783999999999999808e+00 3.545100000000000051e+01 8.608949419205516596e-02
-9.380000000000000782e+00 9.169000000000000483e+00 2.317299999999999827e+01 4.336433215933831881e-02
-9.353999999999999204e+00 2.032400000000000162e+01 3.790400000000000347e+01 -2.441587412110156063e-01
-9.278999999999999915e+00 1.937999999999999901e+01 1.725600000000000023e+01 -2.543706408104866590e-01
-9.244999999999999218e+00 9.314000000000000057e+00 4.046399999999999864e+01 -4.734951625915348461e-02
-9.204000000000000625e+00 1.823300000000000054e+01 3.403399999999999892e+01 2.330031950889741368e-02
-9.199999999999999289e+00 1.935399999999999920e+01 1.878600000000000136e+01 -2.649002109946724248e-01
-9.191000000000000725e+00 1.599300000000000033e+01 4.096699999999999875e+01 -3.759033147686022813e-01
-9.128000000000000114e+00 2.098900000000000077e+01 2.532400000000000162e+01 -3.214509137847674225e-01
-9.067000000000000171e+00 1.610999999999999943e+01 3.824600000000000222e+01 -2.017116822646340957e-01
-9.057999999999999829e+00 1.587800000000000011e+01 3.452199999999999847e+01 3.920397263747575634e-02
-9.048000000000000043e+00 1.869999999999999929e+01 2.510900000000000176e+01 -1.683598259866180002e-01
-9.023999999999999133e+00 7.054000000000000270e+00 2.443599999999999994e+01 -1.349920628484145915e-03
-9.019000000000000128e+00 1.445700000000000074e+01 2.326000000000000156e+01 -2.615078772414382025e-01
-9.010999999999999233e+00 8.557999999999999829e+00 2.451599999999999824e+01 3.370298656641400603e-01
-8.728999999999999204e+00 8.714000000000000412e+00 3.291599999999999682e+01 1.592786867379525628e-01
-8.714999999999999858e+00 1.381199999999999939e+01 3.092800000000000082e+01 1.803678433889744914e-01
-8.634000000000000341e+00 2.187500000000000000e+01 3.196499999999999986e+01 -8.230073253899329588e-03
-8.592999999999999972e+00 1.454700000000000060e+01 3.482600000000000051e+01 -8.416481341376771952e-02
-8.560000000000000497e+00 5.285000000000000142e+00 3.966199999999999903e+01 1.656786836609804303e-01
-8.523999999999999133e+00 1.926599999999999824e+01 3.718900000000000006e+01 -2.527899316456262424e-01
-8.467999999999999972e+00 8.031000000000000583e+00 3.084700000000000131e+01 2.586023974565295758e-01
-8.422000000000000597e+00 1.711299999999999955e+01 3.434700000000000131e+01 -5.160561787929000138e-02
-8.400000000000000355e+00 1.423099999999999987e+01 2.963299999999999912e+01 3.724325790860417151e-01
-8.353999999999999204e+00 1.006300000000000061e+01 2.712900000000000134e+01 3.330604796964902747e-01
-8.335000000000000853e+00 1.923000000000000043e+00 2.677599999999999980e+01 -1.579420371527237854e-01
-8.323000000000000398e+00 1.597600000000000087e+01 2.046300000000000097e+01 -2.819273253715653405e-01
-8.285000000000000142e+00 1.005700000000000038e+01 3.638600000000000279e+01 -1.852635710009874759e-01
-8.255000000000000782e+00 1.272899999999999920e+01 2.064399999999999835e+01 -1.372645087627923366e-01
-8.249000000000000554e+00 3.967000000000000082e+00 2.799800000000000111e+01 -6.055298661119813686e-02
-8.195000000000000284e+00 1.925900000000000034e+01 2.135900000000000176e+01 -3.414887474834830128e-01
-8.189000000000000057e+00 4.299000000000000377e+00 3.886599999999999966e+01 1.942715583248415812e-01
-8.080999999999999517e+00 1.854299999999999926e+01 1.922500000000000142e+01 -3.093892726785650860e-01
-8.069000000000000838e+00 4.660000000000000142e+00 3.527600000000000335e+01 1.438644989741247326e-01
-8.069000000000000838e+00 9.632999999999999119e+00 4.077700000000000102e+01 -2.286241061614900996e-02
-8.061999999999999389e+00 1.401999999999999957e+01 4.007999999999999829e+01 -1.614321327073011958e-01
-8.025999999999999801e+00 2.076899999999999835e+01 1.577599999999999980e+01 -2.651427637149342820e-01
-8.019000000000000128e+00 4.065999999999999837e+00 3.054100000000000037e+01 3.097679674101938563e-01
-8.015000000000000568e+00 1.360399999999999920e+01 2.388100000000000023e+01 -8.049841216693970347e-02
-7.977999999999999758e+00 7.932000000000000384e+00 3.207099999999999795e+01 1.394077666079963918e-01
-7.977999999999999758e+00 1.982799999999999940e+01 1.660000000000000142e+01 -2.690933599279188848e-01
-7.913000000000000256e+00 1.523300000000000054e+01 4.061999999999999744e+01 -3.606944501712489037e-01
-7.878999999999999559e+00 3.067000000000000171e+00 2.683999999999999986e+01 3.308377370737564105e-02
-7.788999999999999702e+00 6.979999999999999538e-01 3.550900000000000034e+01 5.395371603509099140e-02
-7.772000000000000242e+00 6.318999999999999950e+00 3.943599999999999994e+01 -1.436634243308871073e-01
-7.738000000000000433e+00 1.231400000000000006e+01 2.308200000000000074e+01 3.007557433146333947e-01
-7.735999999999999766e+00 1.110200000000000031e+01 4.092099999999999937e+01 -1.140052147760575590e-01
-7.693999999999999950e+00 1.853200000000000003e+01 2.049500000000000099e+01 -3.715920181009903511e-01
-7.623000000000000220e+00 1.285100000000000087e+01 1.949099999999999966e+01 -1.483696180180911761e-01
-7.591999999999999638e+00 3.331999999999999851e+00 2.926899999999999835e+01 -5.777558842661663363e-02
-7.421999999999999709e+00 2.199800000000000111e+01 3.142599999999999838e+01 -2.435366641287302694e-02
-7.418000000000000149e+00 3.419000000000000039e+00 3.589999999999999858e+01 7.396636383756467759e-02
-7.394000000000000128e+00 5.490999999999999659e+00 3.466199999999999903e+01 1.243271949343554006e-01
-7.378999999999999559e+00 1.199799999999999933e+01 2.655399999999999849e+01 3.948569950181944344e-01
-7.363000000000000433e+00 1.094599999999999973e+01 2.718100000000000094e+01 3.333732873082931314e-01
-7.355999999999999872e+00 1.876599999999999824e+01 3.802400000000000091e+01 -1.206905500224352557e-01
-7.336999999999999744e+00 1.253599999999999959e+01 2.165399999999999991e+01 1.255302507442068172e-01
-7.310999999999999943e+00 -1.026000000000000023e+00 3.258500000000000085e+01 1.141103042340350926e-02
-7.296999999999999709e+00 1.172000000000000064e+01 3.960499999999999687e+01 4.728024368433220853e-02
-7.261000000000000121e+00 3.665999999999999925e+00 3.176200000000000045e+01 2.348245374631102167e-01
-7.198999999999999844e+00 2.202899999999999991e+01 3.020700000000000074e+01 -2.936613316865228571e-02
-7.166999999999999815e+00 1.406900000000000084e+01 3.488600000000000279e+01 2.406579050935741260e-01
-7.144999999999999574e+00 8.804000000000000270e+00 4.097500000000000142e+01 -3.818313528324560058e-02
-7.134000000000000341e+00 3.605999999999999872e+00 2.587999999999999901e+01 1.143260292632612279e-01
-7.123999999999999666e+00 4.708999999999999631e+00 3.809300000000000352e+01 8.347773998697191611e-02
-7.016000000000000014e+00 9.233000000000000540e+00 3.656900000000000261e+01 -2.507659083139665013e-01
-6.948000000000000398e+00 1.391600000000000037e+01 3.738300000000000267e+01 -1.637773211066523293e-01
-6.945999999999999730e+00 1.613500000000000156e+01 2.073300000000000054e+01 -2.956760370216470202e-01
-6.913999999999999702e+00 1.922599999999999909e+01 1.688400000000000034e+01 -1.484811159885601195e-01
-6.910000000000000142e+00 1.318500000000000050e+01 3.971399999999999864e+01 -1.258351562700692761e-01
-6.894000000000000128e+00 -1.705000000000000071e+00 2.832100000000000151e+01 6.747813238448323314e-02
-6.878999999999999559e+00 1.272999999999999909e+00 3.490800000000000125e+01 -3.167066095666423164e-01
-6.863000000000000433e+00 5.985000000000000320e+00 3.846200000000000330e+01 -4.265266804087407271e-02
-6.809000000000000163e+00 1.576099999999999923e+01 4.080700000000000216e+01 -2.929203412513665672e-01
-6.764000000000000234e+00 1.444100000000000072e+01 2.414799999999999969e+01 8.651289416489356399e-03
-6.751999999999999780e+00 1.778000000000000025e+00 2.168400000000000105e+01 -2.703460600365453215e-01
-6.673000000000000043e+00 2.778999999999999915e+00 2.477700000000000102e+01 -2.250377389499182840e-02
-6.663000000000000256e+00 2.580000000000000071e+00 3.499600000000000222e+01 -1.824687050317117809e-01
-6.618000000000000327e+00 1.662199999999999989e+01 3.700500000000000256e+01 3.011308894909122541e-02
-6.522000000000000242e+00 1.760600000000000165e+01 2.080399999999999849e+01 -3.130491838920997916e-01
-6.500000000000000000e+00 1.543500000000000050e+01 2.347700000000000031e+01 3.025282590329059912e-02
-6.480999999999999872e+00 3.827999999999999847e+00 3.706199999999999761e+01 -1.373434442053347859e-01
-6.455000000000000071e+00 3.597999999999999865e+00 2.350900000000000034e+01 -2.576480761060274682e-01
-6.435999999999999943e+00 1.630799999999999983e+01 2.694699999999999918e+01 -1.517160926238662610e-01
-6.426999999999999602e+00 1.979100000000000037e+01 3.383100000000000307e+01 -6.201009188613694489e-02
-6.402999999999999581e+00 1.763200000000000145e+01 3.138700000000000045e+01 -1.033638868590996268e-01
-6.368999999999999773e+00 -9.260000000000000453e-01 3.376899999999999835e+01 -3.295664263056682364e-01
-6.325000000000000178e+00 1.274900000000000055e+01 1.971799999999999997e+01 1.007092595155651121e-03
-6.320999999999999730e+00 1.436899999999999977e+01 3.613799999999999812e+01 -1.566165245933306624e-02
-6.304999999999999716e+00 2.217899999999999849e+01 3.242300000000000182e+01 -4.797707327517105463e-02
-6.286999999999999922e+00 1.802799999999999869e+01 3.721000000000000085e+01 4.230484376665415158e-02
-6.195999999999999730e+00 1.360899999999999999e+01 3.844299999999999784e+01 -1.458225824600758169e-01
-6.155000000000000249e+00 1.058200000000000074e+01 2.805099999999999838e+01 4.111012331907603068e-01
-6.118999999999999773e+00 1.255300000000000082e+01 2.106200000000000117e+01 9.101510958131189127e-03
-6.078999999999999737e+00 2.762000000000000011e+00 2.232799999999999940e+01 -2.612652961080369485e-01
-6.065000000000000391e+00 3.407999999999999918e+00 2.912800000000000011e+01 -1.367642379836739308e-01
-6.035000000000000142e+00 1.407000000000000028e+01 2.518499999999999872e+01 1.417158043654498101e-01
-6.017000000000000348e+00 1.159900000000000020e+01 2.921099999999999852e+01 3.458118457067707596e-01
-5.929999999999999716e+00 5.240000000000000213e-01 3.397800000000000153e+01 -3.313910252056201933e-01
-5.894000000000000128e+00 9.872999999999999332e+00 3.432200000000000273e+01 8.481757280600643600e-02
-5.892000000000000348e+00 1.582799999999999940e+01 3.621200000000000330e+01 2.761614918080273484e-01
-5.891000000000000014e+00 1.786799999999999855e+01 2.208200000000000074e+01 -1.213675392007297349e-01
-5.889999999999999680e+00 1.237000000000000099e+00 2.075799999999999912e+01 -2.768603455893351994e-01
-5.818999999999999950e+00 -1.171999999999999931e+00 2.867999999999999972e+01 9.268456400562245789e-02
-5.753000000000000114e+00 -3.009999999999999898e-01 2.957100000000000151e+01 6.315234875446135154e-02
-5.615000000000000213e+00 1.980999999999999872e+01 2.677299999999999969e+01 -5.729045725223711610e-02
-5.578000000000000291e+00 2.350700000000000145e+01 3.221500000000000341e+01 1.594778992434844611e-01
-5.565999999999999837e+00 1.003200000000000003e+01 3.592600000000000193e+01 9.032519661803420363e-02
-5.554000000000000270e+00 1.992500000000000071e+01 3.296000000000000085e+01 -7.890747886104962361e-02
-5.405999999999999694e+00 2.104700000000000060e+01 3.225699999999999790e+01 1.540739734004311669e-02
-5.363999999999999879e+00 9.429999999999999494e-01 2.570700000000000074e+01 -2.545954528685189233e-01
-5.352999999999999758e+00 2.209999999999999964e+00 2.530000000000000071e+01 -2.594999914126507323e-01
-5.301999999999999602e+00 1.745200000000000173e+01 3.242600000000000193e+01 -1.711035887922321766e-02
-5.277999999999999581e+00 1.985600000000000165e+01 2.814099999999999824e+01 3.082929188108686769e-01
-5.217999999999999972e+00 -1.723999999999999977e+00 3.348599999999999710e+01 -3.180622708250381292e-01
-5.168000000000000149e+00 1.544400000000000084e+01 2.701899999999999835e+01 1.495939212513873184e-01
-5.141000000000000014e+00 1.894300000000000139e+01 2.229299999999999926e+01 -1.159286613669426869e-01
-5.107999999999999652e+00 2.031899999999999906e+01 2.434700000000000131e+01 -1.089268279814023799e-01
-5.076999999999999957e+00 1.236999999999999922e+01 3.141300000000000026e+01 2.031913058167155450e-01
-5.067999999999999616e+00 8.333000000000000185e+00 2.687099999999999866e+01 3.964353057397370650e-01
-4.982999999999999652e+00 9.929000000000000270e+00 3.077799999999999869e+01 1.261995552222000549e-01
-4.975999999999999979e+00 1.805300000000000082e+01 3.796500000000000341e+01 -2.593423703810372460e-01
-4.964999999999999858e+00 1.362400000000000055e+01 3.841799999999999926e+01 -8.471274796377506466e-02
-4.959999999999999964e+00 1.055899999999999928e+01 2.719999999999999929e+01 4.211700213852273000e-01
-4.929999999999999716e+00 1.981400000000000006e+01 2.144200000000000017e+01 -1.155448995415534752e-01
-4.924999999999999822e+00 1.136700000000000088e+01 3.026599999999999824e+01 3.965126961928144289e-01
-4.892999999999999794e+00 1.621099999999999852e+01 3.560499999999999687e+01 2.302298484204500506e-01
-4.868999999999999773e+00 1.481900000000000084e+01 2.560399999999999920e+01 -3.325566669823303012e-02
-4.825000000000000178e+00 2.806000000000000050e+00 2.175499999999999901e+01 -2.658520675649537202e-01
-4.785999999999999588e+00 2.040299999999999869e+01 2.580999999999999872e+01 4.107396806707520609e-01
-4.780999999999999694e+00 1.705699999999999861e+01 3.882300000000000040e+01 -8.637460227410913294e-02
-4.753000000000000114e+00 9.929000000000000270e+00 2.367500000000000071e+01 3.354387574504115455e-02
-4.735000000000000320e+00 1.875000000000000000e+00 2.082199999999999918e+01 -2.767850833880252659e-01
-4.620000000000000107e+00 5.689999999999999503e-01 3.461500000000000199e+01 -2.136113679996806403e-01
-4.556000000000000050e+00 1.906200000000000117e+01 2.367500000000000071e+01 -1.097760410748094273e-01
-4.540000000000000036e+00 1.880099999999999838e+01 3.265899999999999892e+01 -1.697982723202315636e-01
-4.538000000000000256e+00 -1.606999999999999984e+00 2.800400000000000134e+01 9.815635497254668329e-02
-4.533999999999999808e+00 9.429999999999999716e+00 2.664699999999999847e+01 3.933501650116525417e-01
-4.480999999999999872e+00 -1.205999999999999961e+00 2.652899999999999991e+01 -2.558274855815702575e-01
-4.363000000000000433e+00 2.919000000000000039e+00 2.536499999999999844e+01 -2.692899711087941572e-01
-4.355999999999999872e+00 2.600100000000000122e+01 3.267799999999999727e+01 1.116958123605507475e-01
-4.341000000000000192e+00 2.363800000000000168e+01 3.309799999999999898e+01 1.424969430237005841e-01
-4.307000000000000384e+00 1.632199999999999918e+01 3.203300000000000125e+01 2.264100310423770579e-01
-4.192999999999999616e+00 2.780000000000000249e-01 2.628000000000000114e+01 -2.578575437715377450e-01
-4.161999999999999922e+00 1.894999999999999929e+01 3.777199999999999847e+01 -2.876202064726084418e-01
-4.110000000000000320e+00 2.050199999999999889e+01 2.852899999999999991e+01 3.044717945997214570e-01
-3.986000000000000210e+00 1.626099999999999923e+01 2.755300000000000082e+01 2.245912886997151470e-01
-3.951000000000000068e+00 2.506500000000000128e+01 3.338199999999999790e+01 1.195352172813529956e-01
-3.878000000000000114e+00 -1.809999999999999942e-01 2.329700000000000060e+01 -2.980524124064946601e-01
-3.791999999999999815e+00 8.952999999999999403e+00 2.435200000000000031e+01 -2.791537222417272979e-01
-3.770999999999999908e+00 1.279899999999999949e+01 2.623699999999999832e+01 3.149271289447291289e-01
-3.730999999999999872e+00 1.598999999999999977e+00 3.284300000000000352e+01 -1.848485765525195168e-01
-3.724000000000000199e+00 2.055900000000000105e+01 2.984600000000000009e+01 -3.127344649725714854e-02
-3.682999999999999829e+00 1.578700000000000081e+01 4.060399999999999920e+01 9.352521131184618475e-02
-3.680000000000000160e+00 1.387500000000000000e+01 2.565599999999999881e+01 3.214817710195835287e-01
-3.680000000000000160e+00 1.770200000000000173e+01 1.781299999999999883e+01 -1.957214865202530629e-01
-3.630999999999999783e+00 2.104200000000000159e+01 2.624099999999999966e+01 9.760749060431497814e-02
-3.613999999999999879e+00 1.159000000000000030e+00 3.398799999999999955e+01 -1.820028314816762305e-01
-3.552000000000000046e+00 1.693400000000000105e+01 3.959700000000000131e+01 -1.022526366738120418e-01
-3.528999999999999915e+00 1.864499999999999957e+01 3.369800000000000040e+01 3.016422903647367759e-01
-3.309000000000000163e+00 9.528000000000000469e+00 2.572700000000000031e+01 8.283319892825372066e-02
-3.290999999999999925e+00 2.109499999999999886e+01 2.758599999999999852e+01 -2.910420845817537905e-02
-3.206999999999999851e+00 1.254800000000000004e+01 3.503699999999999903e+01 3.145177458321797292e-01
-3.184000000000000163e+00 1.667399999999999949e+01 1.992899999999999849e+01 3.144312184718893455e-02
-3.168000000000000149e+00 2.524699999999999989e+01 3.443800000000000239e+01 9.886405024121999729e-02
-3.109999999999999876e+00 1.911899999999999977e+01 2.354299999999999926e+01 -1.060588714438127911e-01
-3.068000000000000060e+00 3.931000000000000050e+00 3.496300000000000097e+01 -1.397459135987914013e-02
-3.065999999999999837e+00 -8.850000000000000089e-01 2.224899999999999878e+01 -3.059774876909001073e-01
-3.059000000000000163e+00 5.551999999999999602e+00 2.043400000000000105e+01 7.103354410775600258e-03
-2.910000000000000142e+00 4.230999999999999872e+00 3.811699999999999733e+01 3.754476093372915296e-02
-2.879000000000000004e+00 7.644000000000000128e+00 3.391400000000000148e+01 1.055432648417232305e-01
-2.871999999999999886e+00 1.758599999999999852e+01 1.892599999999999838e+01 -2.116383264424369359e-01
-2.854000000000000092e+00 4.099999999999999756e-01 2.556500000000000128e+01 -2.853318045619941401e-01
-2.834999999999999964e+00 2.969999999999999862e-01 2.422599999999999909e+01 -3.073921800196178222e-01
-2.799999999999999822e+00 1.699599999999999866e+01 2.421199999999999974e+01 6.348096948817250063e-02
-2.670999999999999819e+00 1.960500000000000043e+01 3.402400000000000091e+01 -5.194740599330636283e-02
-2.657000000000000028e+00 2.070299999999999940e+01 3.348599999999999710e+01 3.017959940553621712e-03
-2.642999999999999794e+00 5.551000000000000156e+00 3.879699999999999704e+01 2.277984578272262799e-03
-2.623000000000000220e+00 8.624000000000000554e+00 2.342699999999999960e+01 -1.842334210472901523e-01
-2.585999999999999854e+00 1.606299999999999883e+01 3.753300000000000125e+01 -3.523701288863645420e-02
-2.579000000000000181e+00 5.573999999999999844e+00 2.542699999999999960e+01 1.495546165055062701e-02
-2.579000000000000181e+00 1.426099999999999923e+01 2.501800000000000068e+01 9.052483054438778542e-02
-2.496999999999999886e+00 6.467999999999999972e+00 3.763000000000000256e+01 -5.531587075492723493e-02
-2.479999999999999982e+00 1.333200000000000074e+01 3.610999999999999943e+01 8.858387325268125834e-02
-2.391999999999999904e+00 1.552100000000000080e+01 4.136399999999999721e+01 -5.157696912960875457e-02
-2.369000000000000217e+00 1.658800000000000097e+01 2.106099999999999994e+01 2.277028266058517963e-02
-2.345000000000000195e+00 1.806599999999999895e+01 2.381500000000000128e+01 1.052380028064313876e-02
-2.338999999999999968e+00 1.669999999999999929e+01 3.867699999999999960e+01 4.883431745671376611e-02
-2.333000000000000185e+00 3.407000000000000028e+00 3.580299999999999727e+01 1.606338306941814190e-02
-2.261000000000000121e+00 8.721000000000000085e+00 2.635399999999999920e+01 -8.424717174222579041e-02
-2.254000000000000004e+00 1.189000000000000057e+00 3.468200000000000216e+01 -1.521439969613059273e-01
-2.156000000000000139e+00 1.629700000000000060e+01 4.242000000000000171e+01 7.106404886370130958e-02
-2.052999999999999936e+00 1.469599999999999973e+01 3.554500000000000171e+01 -1.649685837250529086e-01
-1.979000000000000092e+00 1.805900000000000105e+01 3.583500000000000085e+01 3.173656260290904085e-01
-1.975999999999999979e+00 2.120999999999999996e+00 3.578099999999999881e+01 -1.734751807474526897e-01
-1.899999999999999911e+00 5.899999999999999689e-02 2.208299999999999841e+01 -3.156590978520437685e-01
-1.860000000000000098e+00 9.817999999999999616e+00 2.293299999999999983e+01 6.387028428890524634e-02
-1.858000000000000096e+00 4.214000000000000412e+00 3.701800000000000068e+01 -3.611016684732332171e-02
-1.856000000000000094e+00 -2.280000000000000082e-01 3.508100000000000307e+01 -1.562621958419078694e-01
-1.826000000000000068e+00 5.386999999999999567e+00 2.052899999999999991e+01 -2.584961114432694496e-01
-1.822999999999999954e+00 5.590000000000000524e-01 2.621499999999999986e+01 -2.160305272389482223e-01
-1.758999999999999897e+00 1.839699999999999847e+01 1.904799999999999827e+01 3.110090961363097192e-02
-1.721999999999999975e+00 6.655000000000000249e+00 2.937300000000000111e+01 4.380124139920512499e-02
-1.713999999999999968e+00 5.645999999999999908e+00 3.668500000000000227e+01 -9.321810410077729925e-02
-1.683000000000000052e+00 1.312100000000000044e+01 2.246399999999999864e+01 1.754378729259303549e-01
-1.677000000000000046e+00 1.928699999999999903e+01 3.512299999999999756e+01 3.642672658820837461e-01
-1.673999999999999932e+00 4.745000000000000107e+00 2.545899999999999963e+01 -2.853051097523409685e-01
-1.655999999999999917e+00 4.722000000000000419e+00 2.792899999999999849e+01 -3.240622983005183033e-01
-1.612000000000000099e+00 2.827999999999999847e+00 2.402100000000000080e+01 -2.845139333127001957e-01
-1.608999999999999986e+00 1.463299999999999912e+01 4.099900000000000233e+01 -8.270262871446655562e-02
-1.552000000000000046e+00 1.576299999999999990e+01 3.653300000000000125e+01 -1.232345054625225977e-01
-1.548999999999999932e+00 -1.159999999999999920e+00 3.391100000000000136e+01 -1.565845613049642870e-01
-1.544999999999999929e+00 5.086000000000000298e+00 2.301300000000000168e+01 1.343566679533857444e-01
-1.540000000000000036e+00 4.219999999999999862e-01 2.353500000000000014e+01 -3.250254599857041460e-01
-1.409000000000000030e+00 8.038000000000000256e+00 3.408100000000000307e+01 5.571200330300405540e-02
-1.389000000000000012e+00 1.399600000000000044e+01 3.012300000000000111e+01 4.243637634648106394e-01
-1.377999999999999892e+00 1.342399999999999949e+01 2.500499999999999901e+01 3.684506635651173534e-01
-1.372000000000000108e+00 1.816000000000000014e+01 2.833299999999999841e+01 2.103175147623879138e-01
-1.320000000000000062e+00 6.179000000000000270e+00 2.831299999999999883e+01 7.098296703562394228e-02
-1.298999999999999932e+00 4.514999999999999680e+00 2.163500000000000156e+01 -2.584851029456119442e-01
-1.264999999999999902e+00 1.253700000000000081e+01 3.664600000000000080e+01 3.975570470930142597e-01
-1.252999999999999892e+00 9.262000000000000455e+00 2.703600000000000136e+01 2.397457223136857107e-01
-1.243999999999999995e+00 1.740500000000000114e+01 2.120599999999999952e+01 2.522820680968405546e-02
-1.227000000000000091e+00 9.529999999999999361e+00 3.378900000000000148e+01 3.127574457152606513e-01
-1.211000000000000076e+00 1.708899999999999864e+01 3.900900000000000034e+01 4.535409628939868903e-02
-1.177000000000000046e+00 4.270999999999999908e+00 2.661299999999999955e+01 -3.089226575506013317e-01
-1.153999999999999915e+00 1.702100000000000080e+01 3.575000000000000000e+01 -9.351256093425205917e-02
-1.094999999999999973e+00 4.189000000000000057e+00 2.417399999999999949e+01 -1.946261129155078817e-01
-1.088999999999999968e+00 1.047400000000000020e+01 2.710900000000000176e+01 2.007585309952819030e-01
-1.046000000000000041e+00 1.166200000000000081e+01 3.098000000000000043e+01 3.338459582261052438e-01
-1.024999999999999911e+00 3.704000000000000181e+00 2.887999999999999901e+01 -3.496830802018949247e-01
-1.000999999999999890e+00 5.897999999999999687e+00 1.974599999999999866e+01 5.108185968445333458e-02
-9.529999999999999583e-01 1.830499999999999972e+01 2.018199999999999861e+01 2.680268302788983356e-02
-9.330000000000000515e-01 1.257900000000000063e+01 2.977100000000000080e+01 4.111126538014694409e-01
-9.080000000000000293e-01 7.684999999999999609e+00 3.551500000000000057e+01 1.640229489768600390e-01
-9.070000000000000284e-01 6.163000000000000256e+00 3.571200000000000330e+01 2.495427733557414596e-01
-8.679999999999999938e-01 1.225699999999999967e+01 2.109199999999999875e+01 1.702955455230352466e-01
-8.469999999999999751e-01 1.823799999999999955e+01 2.361100000000000065e+01 9.332928253982082645e-02
-8.459999999999999742e-01 1.804000000000000048e+00 2.364999999999999858e+01 -3.018170678859191103e-01
-8.359999999999999654e-01 1.350000000000000000e+01 1.980499999999999972e+01 -1.353481756856554363e-01
-7.189999999999999725e-01 1.341000000000000014e+01 2.361799999999999855e+01 1.534441906789692223e-01
-6.039999999999999813e-01 6.886000000000000121e+00 2.744200000000000017e+01 8.601200189875238267e-02
-5.050000000000000044e-01 1.989699999999999847e+01 2.578399999999999892e+01 -1.473230032299412563e-03
-4.010000000000000231e-01 1.390700000000000003e+01 2.605499999999999972e+01 3.505620314851174979e-01
-3.800000000000000044e-01 1.733899999999999864e+01 2.245899999999999963e+01 2.655766894414840484e-01
-3.180000000000000049e-01 3.469999999999999751e-01 3.226299999999999812e+01 -1.518015998972415681e-01
-2.479999999999999982e-01 8.284000000000000696e+00 2.769699999999999918e+01 7.216801090586735801e-02
-2.129999999999999949e-01 -8.279999999999999583e-01 3.323700000000000188e+01 -1.538076160029074879e-01
-1.539999999999999980e-01 8.817999999999999616e+00 3.784499999999999886e+01 1.600687566036781695e-01
-1.529999999999999971e-01 3.218999999999999861e+00 2.675799999999999912e+01 -2.367364019285631560e-01
-1.380000000000000115e-01 5.461000000000000298e+00 3.504699999999999704e+01 -1.518383252384676030e-01
-1.209999999999999964e-01 1.705000000000000071e+01 3.507600000000000051e+01 2.897627476105683608e-01
-1.120000000000000023e-01 1.790700000000000003e+01 2.482199999999999918e+01 1.538049114719348132e-01
-1.499999999999999944e-02 1.507699999999999996e+01 2.608099999999999952e+01 3.513807788318932257e-01
7.000000000000000146e-03 1.877700000000000102e+01 2.581899999999999906e+01 -2.703451670239582702e-02
2.100000000000000130e-02 1.298600000000000065e+01 2.690399999999999991e+01 -7.884666878251313932e-03
7.699999999999999900e-02 1.862099999999999866e+01 2.838700000000000045e+01 -2.034452382382878066e-01
1.400000000000000133e-01 1.812300000000000111e+01 3.088899999999999935e+01 2.672891860985374679e-01
2.700000000000000178e-01 3.370000000000000107e+00 2.819800000000000040e+01 -3.126549438053481955e-01
3.549999999999999822e-01 1.927999999999999936e+00 2.338899999999999935e+01 -2.186429454431575992e-01
4.219999999999999862e-01 8.214999999999999858e+00 3.577400000000000091e+01 2.943382051680635270e-01
5.170000000000000151e-01 1.253500000000000014e+01 2.925799999999999912e+01 1.865182276477815315e-01
6.909999999999999476e-01 8.740000000000000213e+00 3.696600000000000108e+01 1.270816359961782771e-01
7.690000000000000169e-01 1.789900000000000091e+01 2.955099999999999838e+01 8.307273931174344317e-02
8.239999999999999547e-01 1.830300000000000082e+01 2.703099999999999881e+01 -1.645416496161924702e-01
9.360000000000000542e-01 1.330100000000000016e+01 2.798900000000000077e+01 7.943502093881987802e-02
9.569999999999999618e-01 6.290000000000000036e-01 3.154700000000000060e+01 -2.919186424852049933e-01
1.133000000000000007e+00 7.399000000000000021e+00 2.490899999999999892e+01 -2.627816844289224685e-01
1.197000000000000064e+00 8.560000000000000497e+00 2.723100000000000165e+01 4.954321879606773948e-02
1.348000000000000087e+00 7.857999999999999652e+00 2.363200000000000145e+01 -4.379184432975056140e-04
1.372000000000000108e+00 1.434099999999999930e+01 3.365299999999999869e+01 3.918201004008269317e-01
1.383999999999999897e+00 8.429000000000000270e+00 2.575300000000000011e+01 1.070829840876773575e-01
1.731000000000000094e+00 9.121000000000000441e+00 2.369000000000000128e+01 1.957923048997435578e-01
1.766999999999999904e+00 9.487999999999999545e+00 2.496000000000000085e+01 1.943679641334924990e-01
1.808000000000000052e+00 2.078999999999999915e+01 2.798199999999999932e+01 -7.376605306548797425e-02
2.036999999999999922e+00 1.076600000000000001e+01 3.756799999999999784e+01 4.320445586623961054e-01
2.097999999999999865e+00 9.273999999999999133e+00 3.721300000000000097e+01 2.832802418107092240e-02
2.190999999999999837e+00 1.130199999999999960e+01 3.425099999999999767e+01 3.362685017327532999e-01
2.221999999999999975e+00 1.877400000000000091e+01 2.703099999999999881e+01 -9.086825270420464951e-02
2.407000000000000028e+00 1.300600000000000023e+01 2.770700000000000074e+01 -1.190972055609063746e-01
2.415999999999999925e+00 7.740000000000000213e+00 3.324499999999999744e+01 7.902159507972114638e-02
2.599000000000000199e+00 1.996699999999999875e+01 2.750199999999999889e+01 -6.032284875222619636e-02
2.625000000000000000e+00 1.411899999999999977e+01 3.284700000000000131e+01 5.303351937109680725e-02
2.725999999999999979e+00 1.201200000000000045e+01 2.704799999999999827e+01 -7.020723283271392001e-02
2.762999999999999901e+00 9.753999999999999559e+00 3.202600000000000335e+01 4.352793804167881531e-02
2.950000000000000178e+00 1.518099999999999916e+01 2.878800000000000026e+01 3.144168886757872095e-01
2.960999999999999854e+00 1.175000000000000000e+01 3.340699999999999648e+01 3.354115123293802125e-01
2.984999999999999876e+00 9.048000000000000043e+00 3.607699999999999818e+01 9.197262618865479147e-03
3.068000000000000060e+00 1.290300000000000047e+01 3.829999999999999716e+01 4.056556903588434126e-01
3.103000000000000203e+00 9.317000000000000171e+00 3.062199999999999989e+01 2.923037913911682301e-02
3.156000000000000139e+00 8.696999999999999176e+00 3.304699999999999704e+01 1.250012760488510843e-01
3.188000000000000167e+00 1.140499999999999936e+01 3.835300000000000153e+01 5.202624566239257703e-02
3.302999999999999936e+00 1.108000000000000007e+01 3.230700000000000216e+01 -1.914234365310915967e-02
3.318999999999999950e+00 1.387199999999999989e+01 2.821999999999999886e+01 -1.007935086126434954e-01
3.334000000000000075e+00 1.544200000000000017e+01 3.253399999999999892e+01 -1.368183349864363074e-01
3.564999999999999947e+00 1.313199999999999967e+01 3.358800000000000097e+01 -4.751913279261423678e-02
3.843999999999999861e+00 8.031000000000000583e+00 3.603600000000000136e+01 9.393553851328086124e-02
3.923000000000000043e+00 1.612900000000000134e+01 3.371999999999999886e+01 -1.094759231017536222e-01
3.963000000000000078e+00 7.222000000000000419e+00 3.695900000000000318e+01 8.510086374785161278e-02
4.092999999999999972e+00 2.030699999999999861e+01 2.742999999999999972e+01 2.969289757947017258e-02
4.149000000000000021e+00 1.602400000000000091e+01 2.843799999999999883e+01 5.018838350271671855e-02
4.278999999999999915e+00 8.891000000000000014e+00 3.374099999999999966e+01 1.618268645167713071e-01
4.472999999999999865e+00 1.208799999999999919e+01 2.973300000000000054e+01 -1.027104236646199376e-01
4.528999999999999915e+00 1.099099999999999966e+01 3.782099999999999795e+01 1.016564089054577541e-01
4.591999999999999638e+00 2.079100000000000037e+01 2.875000000000000000e+01 2.664067832197994368e-02
4.716999999999999638e+00 7.929999999999999716e+00 3.477100000000000080e+01 2.100426627027664472e-01
4.783999999999999808e+00 1.377899999999999991e+01 2.809199999999999875e+01 9.092479237955315707e-03
4.910000000000000142e+00 1.909900000000000020e+01 2.697899999999999920e+01 1.092952327258277789e-01
4.929999999999999716e+00 1.318299999999999983e+01 3.307800000000000296e+01 7.110487311077817729e-02
5.232000000000000206e+00 1.258099999999999952e+01 2.891300000000000026e+01 -3.258819029331852524e-01
5.272999999999999687e+00 1.508200000000000074e+01 2.872299999999999898e+01 -3.429875705536348240e-01
5.698999999999999844e+00 5.793000000000000149e+00 3.125000000000000000e+01 -2.057502458981253779e-01
