2.061700000000000088e+01 -1.050600000000000023e+01 2.129200000000000159e+01 2.992035611985999211e-01
2.144999999999999929e+01 -1.217999999999999972e+01 2.288500000000000156e+01 3.913125578337735555e-01
2.153600000000000136e+01 -1.171499999999999986e+01 2.150300000000000011e+01 3.090883355032845725e-01
2.154599999999999937e+01 -4.288999999999999702e+00 1.861700000000000088e+01 1.837459900708953153e-01
2.156400000000000006e+01 -6.450999999999999623e+00 1.474499999999999922e+01 1.938750330138618860e-01
2.156400000000000006e+01 -3.355999999999999872e+00 1.977700000000000102e+01 1.650368598800726061e-01
2.268199999999999861e+01 -2.408999999999999808e+00 1.941300000000000026e+01 1.676205559058980277e-01
2.273100000000000165e+01 -6.399000000000000021e+00 1.435999999999999943e+01 1.767758446836220076e-01
2.283599999999999852e+01 -7.304999999999999716e+00 3.504599999999999937e+01 -2.091549433241638167e-01
2.296999999999999886e+01 -1.135999999999999943e+01 2.110999999999999943e+01 2.973091736169227173e-01
2.302599999999999980e+01 -4.583000000000000185e+00 1.840700000000000003e+01 1.930861520282527999e-01
2.308099999999999952e+01 -8.987000000000000099e+00 1.583500000000000085e+01 1.067384679576576234e-01
2.313500000000000156e+01 -1.096000000000000085e+01 1.985099999999999909e+01 2.724556600210093493e-01
2.317800000000000082e+01 -5.025999999999999801e+00 2.295700000000000074e+01 8.618612434386760390e-02
2.329500000000000171e+01 -6.581999999999999851e+00 2.973499999999999943e+01 -1.982276945103684240e-01
2.332000000000000028e+01 -4.934999999999999609e+00 1.694399999999999906e+01 1.914181409842386494e-01
2.333299999999999841e+01 -4.059000000000000163e+00 1.607199999999999918e+01 1.837220667484625314e-01
2.335300000000000153e+01 -6.397999999999999687e+00 2.279899999999999949e+01 6.859883774798762601e-02
2.356200000000000117e+01 -6.214999999999999858e+00 1.667999999999999972e+01 1.683010825213244188e-01
2.357700000000000173e+01 -8.384999999999999787e+00 1.887699999999999889e+01 3.606114183527998618e-01
2.366199999999999903e+01 -3.313000000000000167e+00 1.878399999999999892e+01 1.802608890615149395e-01
2.374200000000000088e+01 -6.190000000000000391e+00 3.452300000000000324e+01 -2.301475658649800859e-01
2.387500000000000000e+01 -6.663999999999999702e+00 1.532900000000000063e+01 1.752041828641492383e-01
2.389399999999999835e+01 -1.144100000000000072e+01 2.193100000000000094e+01 -1.894700944192517778e-02
2.402700000000000102e+01 -4.147999999999999687e+00 2.229599999999999937e+01 8.311894352262806651e-02
2.420200000000000173e+01 -4.652999999999999581e+00 3.226599999999999824e+01 -6.233817294478216642e-02
2.423400000000000176e+01 -8.157999999999999474e+00 1.530499999999999972e+01 4.044223960394559003e-01
2.435399999999999920e+01 -5.498000000000000220e+00 3.673599999999999710e+01 -1.676967112342481470e-01
2.438299999999999912e+01 -6.884000000000000341e+00 2.198300000000000054e+01 1.176492158355260526e-01
2.442099999999999937e+01 -6.623000000000000220e+00 3.330899999999999750e+01 -2.133409518956758677e-01
2.443499999999999872e+01 -1.058900000000000041e+01 1.930900000000000105e+01 2.480744259480012759e-01
2.456500000000000128e+01 -9.073999999999999844e+00 1.914799999999999969e+01 2.430030516257584150e-01
2.459100000000000108e+01 -5.815999999999999837e+00 3.227100000000000080e+01 -2.178469412376371483e-01
2.459900000000000020e+01 -8.576999999999999957e+00 1.389100000000000001e+01 4.038929811567455452e-01
2.461400000000000077e+01 -6.073000000000000398e+00 2.976399999999999935e+01 -2.118737363773473825e-01
2.466199999999999903e+01 -1.127500000000000036e+01 1.795599999999999952e+01 3.165349598541052356e-01
2.474099999999999966e+01 -5.788000000000000256e+00 3.560499999999999687e+01 -1.950483554836574818e-01
2.478699999999999903e+01 -3.459999999999999964e+00 2.595599999999999952e+01 -8.263127924905536159e-02
2.485900000000000176e+01 -2.972999999999999865e+00 2.724099999999999966e+01 -8.257322474296462100e-02
2.497899999999999920e+01 -3.105999999999999872e+00 1.862199999999999989e+01 1.237176423184459806e-01
2.504899999999999949e+01 -4.644999999999999574e+00 2.148499999999999943e+01 5.877322419970958112e-02
2.524099999999999966e+01 -6.011000000000000121e+00 2.132700000000000173e+01 3.121821925679985760e-02
2.526000000000000156e+01 -7.229999999999999760e-01 1.796699999999999875e+01 1.652224241525407922e-01
2.533200000000000074e+01 -6.411999999999999922e+00 3.107499999999999929e+01 -1.928501113572935188e-01
2.548400000000000176e+01 -7.855999999999999872e+00 3.122899999999999920e+01 -1.525406382857855958e-01
2.554400000000000048e+01 -1.754000000000000004e+00 1.903399999999999892e+01 1.488107386863132819e-01
2.564699999999999847e+01 -1.164899999999999913e+01 2.709100000000000108e+01 6.409714023064208566e-02
2.572700000000000031e+01 -3.988999999999999879e+00 1.822200000000000131e+01 1.537825944071308237e-01
2.573400000000000176e+01 -4.363000000000000433e+00 2.546000000000000085e+01 5.410386484127617523e-02
2.577899999999999991e+01 -8.564000000000000057e+00 1.935300000000000153e+01 3.736259782791530037e-01
2.578999999999999915e+01 -9.039999999999999147e+00 3.356000000000000227e+01 -1.362573777331432257e-01
2.586599999999999966e+01 1.554000000000000048e+00 3.147899999999999920e+01 -1.096697733475918285e-01
2.590899999999999892e+01 -3.410000000000000142e+00 2.802899999999999991e+01 -8.193247483776741613e-02
2.602700000000000102e+01 -5.817000000000000171e+00 3.526599999999999824e+01 -1.518893350101132023e-01
2.608099999999999952e+01 -7.144999999999999574e+00 1.921600000000000108e+01 3.783884443930125019e-01
2.608599999999999852e+01 -9.054000000000000270e+00 2.583599999999999852e+01 1.586597675179624578e-01
2.622800000000000153e+01 -8.143000000000000682e+00 2.460399999999999920e+01 1.368521474381323155e-01
2.623199999999999932e+01 -3.100999999999999979e+00 2.932400000000000162e+01 -6.491939149023244482e-02
2.636100000000000065e+01 -8.278999999999999915e+00 2.712800000000000011e+01 1.148323044015190156e-02
2.642399999999999949e+01 -6.525999999999999801e+00 2.056099999999999994e+01 2.780265189032652962e-01
2.656599999999999895e+01 -8.506999999999999673e+00 3.081200000000000117e+01 1.018228605515125312e-01
2.658999999999999986e+01 -1.000399999999999956e+01 3.107000000000000028e+01 6.162428776569423006e-02
2.677400000000000091e+01 -4.796000000000000263e+00 2.624500000000000099e+01 1.357532489391242159e-01
2.678300000000000125e+01 -1.127200000000000024e+01 2.683099999999999952e+01 4.706595745454882074e-02
2.686799999999999855e+01 3.188000000000000167e+00 3.255199999999999960e+01 -1.119580617109259685e-01
2.687399999999999878e+01 -4.317999999999999616e+00 2.755699999999999861e+01 -8.106652305095699007e-02
2.690200000000000102e+01 2.130999999999999783e+00 3.188800000000000168e+01 -9.916568578321113825e-02
2.692299999999999827e+01 -9.528000000000000469e+00 3.354200000000000159e+01 -1.182443947742363860e-01
2.692699999999999960e+01 -2.286999999999999922e+00 3.246000000000000085e+01 -1.693185005490735751e-01
2.696699999999999875e+01 -1.456300000000000061e+01 2.335600000000000165e+01 -3.482932347987408028e-02
2.698000000000000043e+01 -1.088100000000000023e+01 2.439199999999999946e+01 1.614229240662343190e-01
2.698400000000000176e+01 -1.911000000000000032e+00 1.921499999999999986e+01 3.787719158406810949e-01
2.701399999999999935e+01 -1.006999999999999895e+00 2.128300000000000125e+01 1.059575871027836208e-01
2.704500000000000171e+01 -1.026699999999999946e+01 2.571499999999999986e+01 4.594054175255217476e-02
2.704599999999999937e+01 -1.275900000000000034e+01 3.087099999999999866e+01 -2.215266680352500628e-01
2.707799999999999940e+01 -5.435999999999999943e+00 3.620300000000000296e+01 -1.153008158905110270e-01
2.709799999999999898e+01 -1.072499999999999964e+01 2.990099999999999980e+01 -1.765666783654795124e-01
2.710300000000000153e+01 -4.405000000000000249e+00 1.518699999999999939e+01 3.255078103067230999e-01
2.714600000000000080e+01 -3.343999999999999861e+00 3.496300000000000097e+01 -1.634392913110303269e-01
2.716499999999999915e+01 -1.608399999999999963e+01 2.519800000000000040e+01 -1.131016799999132461e-01
2.724299999999999855e+01 -3.908999999999999808e+00 3.616599999999999682e+01 -1.319611743245343305e-01
2.725700000000000145e+01 -1.204599999999999937e+01 2.988599999999999923e+01 -2.664769902729155482e-01
2.728800000000000026e+01 -1.907999999999999918e+00 3.478999999999999915e+01 -3.173630771126161321e-01
2.728999999999999915e+01 -7.035999999999999588e+00 1.830799999999999983e+01 3.616896018176075644e-01
2.737000000000000099e+01 -3.786000000000000032e+00 2.967099999999999937e+01 -6.392846482888592252e-02
2.740899999999999892e+01 -1.546000000000000041e+00 3.332300000000000040e+01 -3.173794499102443600e-01
2.744000000000000128e+01 -1.027100000000000080e+01 3.231300000000000239e+01 -5.019885095065981101e-02
2.745899999999999963e+01 -3.263999999999999790e+00 3.719899999999999807e+01 -1.329548214269756778e-01
2.750000000000000000e+01 -5.849999999999999645e+00 1.774800000000000111e+01 2.651881583845765444e-01
2.750499999999999901e+01 -1.580599999999999916e+01 2.404500000000000171e+01 -5.609702909660485570e-02
2.750900000000000034e+01 -7.956999999999999851e+00 3.024500000000000099e+01 -2.504243241812071918e-01
2.760000000000000142e+01 -1.554000000000000048e+00 2.033999999999999986e+01 3.530827031205907574e-01
2.760800000000000054e+01 -1.059800000000000075e+01 2.035399999999999920e+01 7.961713070197799780e-02
2.765700000000000003e+01 -7.684000000000000163e+00 2.428099999999999881e+01 1.626954800524125777e-01
2.775300000000000011e+01 -9.435000000000000497e+00 3.457399999999999807e+01 -2.404654352750521529e-01
2.776500000000000057e+01 -1.265799999999999947e+01 2.857700000000000173e+01 4.977342793753461447e-02
2.779400000000000048e+01 -4.546000000000000263e+00 2.861799999999999855e+01 -8.045744597649420737e-02
2.781299999999999883e+01 -1.227399999999999913e+01 2.258399999999999963e+01 -8.956698523353567865e-02
2.785300000000000153e+01 -1.169299999999999962e+01 2.749099999999999966e+01 3.060798969966820327e-01
2.788299999999999912e+01 1.990000000000000102e-01 1.627599999999999980e+01 2.221709045256136383e-01
2.788700000000000045e+01 2.105999999999999872e+00 1.787699999999999889e+01 1.029826645307761329e-01
2.789399999999999835e+01 -8.289999999999999591e-01 2.710699999999999932e+01 -2.140095776499704727e-01
2.793299999999999983e+01 3.830000000000000071e-01 2.784100000000000108e+01 -1.800583176564596599e-01
2.793599999999999994e+01 -1.170700000000000074e+01 2.398799999999999955e+01 1.464040931082862540e-01
2.803500000000000014e+01 -7.998999999999999666e+00 1.815299999999999869e+01 1.068272211117961279e-01
2.805000000000000071e+01 -1.378500000000000014e+01 2.261799999999999855e+01 8.460499162403396084e-03
2.809199999999999875e+01 -4.430000000000000049e-01 3.302700000000000102e+01 -2.820064333424933678e-01
2.811799999999999855e+01 -5.532000000000000028e+00 1.537299999999999933e+01 1.068754844033825702e-01
2.819900000000000162e+01 -3.639999999999999902e-01 2.386700000000000088e+01 -1.272607512380044027e-02
2.825100000000000122e+01 -4.000000000000000083e-03 3.164600000000000080e+01 -9.759849150147262287e-02
2.826500000000000057e+01 1.520000000000000018e+00 3.157000000000000028e+01 -8.184724326861933519e-02
2.835699999999999932e+01 -1.655699999999999861e+01 2.334499999999999886e+01 -2.526339707041056620e-02
2.840299999999999869e+01 -6.108999999999999986e+00 3.582000000000000028e+01 -8.741716624216663845e-02
2.860999999999999943e+01 -5.581999999999999851e+00 1.684199999999999875e+01 2.014249158071139689e-01
2.870599999999999952e+01 9.759999999999999787e-01 1.727299999999999969e+01 7.826455560347923834e-02
2.870700000000000074e+01 6.700000000000000400e-02 2.489999999999999858e+01 6.398562883294836579e-02
2.870799999999999841e+01 -1.081700000000000017e+01 2.084900000000000020e+01 -1.945502266058871665e-01
2.870799999999999841e+01 -3.351999999999999869e+00 1.779599999999999937e+01 2.399883043516083669e-01
2.883399999999999963e+01 2.342000000000000082e+00 2.400100000000000122e+01 -1.413442835447371038e-01
2.889999999999999858e+01 -1.160200000000000031e+01 2.189900000000000091e+01 -1.754729508609988442e-01
2.891799999999999926e+01 -1.198600000000000065e+01 2.468799999999999883e+01 1.458358885203882571e-01
2.895400000000000063e+01 3.766000000000000014e+00 2.457000000000000028e+01 -1.312926833064309573e-01
2.895700000000000074e+01 -5.464000000000000412e+00 2.856800000000000139e+01 5.391803484954673514e-02
2.897299999999999898e+01 -3.181000000000000050e+00 2.253900000000000148e+01 1.594115967214610463e-01
2.900900000000000034e+01 -8.810000000000000053e-01 2.606299999999999883e+01 -1.212271365267022782e-01
2.909199999999999875e+01 1.334999999999999964e+00 2.503699999999999903e+01 -1.877816462937712816e-01
2.910500000000000043e+01 -1.816999999999999948e+00 2.040500000000000114e+01 2.001565781685973600e-01
2.912199999999999989e+01 -1.333600000000000030e+01 2.878699999999999903e+01 -1.547946785283424095e-02
2.928800000000000026e+01 -5.384999999999999787e+00 1.441900000000000048e+01 1.580899560781437174e-01
2.931800000000000139e+01 -4.266000000000000014e+00 1.722700000000000031e+01 2.204660546220053585e-01
2.935099999999999909e+01 -3.202999999999999847e+00 2.105600000000000094e+01 2.052259182026817952e-01
2.941700000000000159e+01 -6.280000000000000027e-01 3.087699999999999889e+01 -1.257490336274087184e-01
2.951999999999999957e+01 -5.908000000000000362e+00 3.684899999999999665e+01 -8.666823601976848812e-02
2.955399999999999849e+01 -4.349999999999999978e-01 2.967000000000000171e+01 -1.552006095785576634e-01
2.955399999999999849e+01 3.087000000000000188e+00 2.185099999999999909e+01 7.474343034323689683e-02
2.965800000000000125e+01 2.236000000000000210e+00 2.273000000000000043e+01 -1.471932888268331907e-01
2.973300000000000054e+01 -9.566000000000000725e+00 2.842599999999999838e+01 1.603562325397241417e-01
2.975100000000000122e+01 5.729000000000000092e+00 1.796999999999999886e+01 3.394799389076853802e-02
2.978500000000000014e+01 -9.759000000000000341e+00 1.890399999999999991e+01 -2.166675082065597224e-01
2.980099999999999838e+01 -7.720000000000000195e-01 2.113899999999999935e+01 -1.483331063233836178e-01
2.985699999999999932e+01 -1.044100000000000072e+01 1.578999999999999915e+01 2.258863943872993774e-01
2.994500000000000028e+01 -5.360999999999999766e+00 2.972100000000000009e+01 4.910827236703565329e-02
2.994800000000000040e+01 -1.014199999999999946e+01 2.030499999999999972e+01 -2.526590077418038871e-01
2.995799999999999841e+01 1.524000000000000021e+00 1.658800000000000097e+01 7.308907397783312443e-02
3.020899999999999963e+01 -8.894999999999999574e+00 2.119000000000000128e+01 1.470424442367610461e-02
3.027899999999999991e+01 -1.346999999999999975e+00 3.157999999999999829e+01 -1.501330543966875042e-01
3.029799999999999827e+01 -6.450000000000000178e-01 2.668900000000000006e+01 -2.384801106659757974e-01
3.036199999999999832e+01 4.108999999999999986e+00 2.505099999999999838e+01 -1.349863923161301327e-01
3.044300000000000139e+01 4.966999999999999638e+00 2.605699999999999861e+01 -1.509594407498446866e-01
3.046799999999999997e+01 -4.000000000000000000e+00 2.982000000000000028e+01 1.078779327008759503e-01
3.051999999999999957e+01 -9.333999999999999631e+00 1.662099999999999866e+01 -7.617925901192039440e-02
3.052100000000000080e+01 1.233000000000000096e+00 2.264900000000000091e+01 3.862653568380654961e-02
3.061100000000000065e+01 -4.187000000000000277e+00 1.692000000000000171e+01 1.406708787563286100e-01
3.067500000000000071e+01 -7.653999999999999915e+00 2.996199999999999974e+01 -2.583381938148215928e-01
3.069300000000000139e+01 1.899999999999999953e-02 2.055699999999999861e+01 2.198379832173907311e-01
3.079799999999999827e+01 -9.813000000000000611e+00 1.804599999999999937e+01 -1.517308830262453778e-01
3.080300000000000082e+01 -3.605999999999999872e+00 2.088700000000000045e+01 2.704207430827559322e-01
3.086199999999999832e+01 -9.273999999999999133e+00 2.537600000000000122e+01 7.820251100709640912e-02
3.087399999999999878e+01 5.010000000000000009e-01 1.591699999999999982e+01 6.593932189239233577e-02
3.092099999999999937e+01 -5.982000000000000206e+00 3.624900000000000233e+01 -1.269142341570582977e-01
3.092500000000000071e+01 -3.508999999999999897e+00 3.096499999999999986e+01 -7.110430126347652702e-02
3.092599999999999838e+01 -4.147999999999999687e+00 3.202600000000000335e+01 -8.700658886568306272e-02
3.093100000000000094e+01 5.017999999999999794e+00 1.786199999999999832e+01 4.576205692313634055e-02
3.094999999999999929e+01 -9.432999999999999829e+00 2.851800000000000068e+01 2.185990173234033662e-01
3.097700000000000031e+01 -5.000000000000000278e-02 1.936199999999999832e+01 2.007431403212160126e-01
3.097800000000000153e+01 -6.445000000000000284e+00 2.949200000000000088e+01 -1.681110224079546411e-01
3.101099999999999923e+01 -6.909999999999999476e-01 1.675000000000000000e+01 6.824971496915029079e-02
3.120400000000000063e+01 -5.222000000000000419e+00 3.529399999999999693e+01 -1.369484200643171223e-01
3.126000000000000156e+01 -1.037100000000000044e+01 2.633200000000000074e+01 1.174907877418909646e-01
3.126800000000000068e+01 4.078999999999999737e+00 1.882799999999999940e+01 6.676259423484752487e-02
3.128600000000000136e+01 -5.490000000000000213e+00 2.448400000000000176e+01 1.686727981758709138e-01
3.130300000000000082e+01 -1.883999999999999897e+00 1.624099999999999966e+01 3.735248718944586543e-01
3.132000000000000028e+01 -1.393299999999999983e+01 1.722100000000000009e+01 -1.276631165156292824e-01
3.134400000000000119e+01 1.050000000000000044e+00 2.145899999999999963e+01 4.722183871701310549e-03
3.135399999999999920e+01 -6.999999999999999556e-01 2.470899999999999963e+01 -2.199775130829505210e-01
3.135500000000000043e+01 3.607000000000000206e+00 2.453200000000000003e+01 -1.798236077778430642e-01
3.137999999999999901e+01 -2.053999999999999826e+00 3.093199999999999861e+01 -1.663689837092141854e-01
3.138599999999999923e+01 -5.610000000000000542e-01 2.594000000000000128e+01 1.607680219753720996e-01
3.143199999999999861e+01 -3.023000000000000131e+00 1.723999999999999844e+01 3.809705096970112392e-01
3.146600000000000108e+01 -9.782999999999999474e+00 3.092999999999999972e+01 -2.607300156226713961e-01
3.148699999999999832e+01 -2.080999999999999961e+00 1.504100000000000037e+01 1.697732568995883318e-01
3.149200000000000088e+01 -8.189000000000000057e+00 2.088599999999999923e+01 -3.195367238742015115e-01
3.149599999999999866e+01 -7.051000000000000156e+00 2.009199999999999875e+01 -2.627718429098299668e-01
3.155099999999999838e+01 -8.804000000000000270e+00 2.975799999999999912e+01 -9.696514432530582359e-03
3.157600000000000051e+01 -6.753999999999999559e+00 1.660399999999999920e+01 -2.480245336014849367e-01
3.174699999999999989e+01 -6.780999999999999694e+00 3.674799999999999756e+01 -1.353524377689489799e-01
3.176099999999999923e+01 -1.246599999999999930e+01 2.182499999999999929e+01 -2.819720285834304702e-02
3.177700000000000102e+01 -8.913999999999999702e+00 1.600199999999999889e+01 -4.347833440524022375e-02
3.177799999999999869e+01 -9.779999999999999361e+00 2.754799999999999827e+01 -8.982206283605236041e-02
3.177799999999999869e+01 5.246000000000000441e+00 1.678500000000000014e+01 4.596922239524490333e-02
3.178000000000000114e+01 -6.841999999999999638e+00 1.335500000000000043e+01 -3.167091318968887070e-01
3.182300000000000040e+01 -1.206499999999999950e+01 2.469000000000000128e+01 -2.487917388411497177e-01
3.191199999999999903e+01 -1.025200000000000067e+01 1.835200000000000031e+01 -1.559955487399252438e-01
3.200800000000000267e+01 -6.198000000000000398e+00 2.886899999999999977e+01 -7.947890777941064855e-03
3.206300000000000239e+01 -5.201999999999999957e+00 2.572599999999999909e+01 -5.224059079608869144e-02
3.220400000000000063e+01 -1.443399999999999928e+01 2.405900000000000105e+01 -1.010117849131561829e-01
3.221300000000000097e+01 -7.661999999999999922e+00 1.607199999999999918e+01 -2.319307676433414456e-01
3.225000000000000000e+01 1.125999999999999890e+00 1.570299999999999940e+01 1.366323543009651253e-01
3.226400000000000290e+01 -2.744000000000000217e+00 2.791100000000000136e+01 3.083340593828649140e-02
3.227600000000000335e+01 -1.129700000000000060e+01 2.568199999999999861e+01 -1.776718665188335711e-01
3.231400000000000006e+01 -1.742699999999999960e+01 2.457300000000000040e+01 -2.529473218126981893e-01
3.246099999999999852e+01 -4.586000000000000298e+00 1.304899999999999949e+01 -1.054544619183097331e-01
3.246099999999999852e+01 3.366999999999999993e+00 1.870700000000000074e+01 1.033929986656349359e-01
3.248100000000000165e+01 -1.685200000000000031e+01 2.323999999999999844e+01 -2.534264315698687153e-01
3.250000000000000000e+01 1.774999999999999911e+00 1.468500000000000050e+01 -7.570771192856511067e-02
3.253199999999999648e+01 -5.942000000000000171e+00 1.371799999999999997e+01 -7.205714406302832220e-02
3.257800000000000296e+01 1.405000000000000027e+00 1.139199999999999946e+01 4.581919253532582351e-03
3.259300000000000352e+01 -1.422700000000000031e+01 1.802199999999999847e+01 -4.444592159359004452e-02
3.267900000000000205e+01 -1.875999999999999890e+00 3.171000000000000085e+01 -2.201593556754003200e-01
3.268500000000000227e+01 -6.440000000000000391e+00 1.974299999999999855e+01 -2.089186007951286395e-01
3.270000000000000284e+01 -1.298099999999999987e+01 2.396600000000000108e+01 -3.750211878068514249e-02
3.270400000000000063e+01 -8.702999999999999403e+00 2.133899999999999864e+01 -1.562230017995549780e-01
3.270400000000000063e+01 2.552000000000000046e+00 1.044400000000000084e+01 -5.313111393231542516e-03
3.271900000000000119e+01 -3.330000000000000182e-01 2.665500000000000114e+01 1.483343493063311869e-01
3.275399999999999778e+01 5.879999999999999671e-01 2.183899999999999864e+01 -2.406008732275518869e-01
3.278300000000000125e+01 -1.258699999999999974e+01 2.250600000000000023e+01 -3.775102547041896128e-02
3.288600000000000279e+01 -3.443000000000000060e+00 1.735500000000000043e+01 -1.418864382491347442e-01
3.291299999999999670e+01 -1.311700000000000088e+01 1.890599999999999881e+01 -1.465680644063635518e-01
3.296900000000000119e+01 4.524000000000000021e+00 1.667399999999999949e+01 6.453684028818633400e-02
3.299499999999999744e+01 -7.083000000000000185e+00 3.348299999999999699e+01 -3.049558854504197947e-01
3.308200000000000074e+01 -1.544800000000000040e+01 2.328200000000000003e+01 -2.276618571693174720e-01
3.313700000000000045e+01 9.350000000000000533e-01 1.667399999999999949e+01 1.691101793718435831e-01
3.315999999999999659e+01 -2.693999999999999950e+00 2.704400000000000048e+01 9.358945043589458890e-03
3.321500000000000341e+01 -3.537999999999999812e+00 1.370599999999999952e+01 -8.104751289719235030e-02
3.332500000000000284e+01 3.572999999999999954e+00 1.762900000000000134e+01 1.032426545872879159e-01
3.335600000000000165e+01 5.969999999999999751e-01 3.176200000000000045e+01 -2.267116096517466095e-01
3.338700000000000045e+01 -6.383000000000000007e+00 3.235000000000000142e+01 -1.959940741698075473e-01
3.341899999999999693e+01 -6.100999999999999979e+00 1.469200000000000017e+01 -3.385526642611789289e-02
3.343200000000000216e+01 -4.578000000000000291e+00 2.544500000000000028e+01 1.706422699214489025e-01
3.344200000000000017e+01 -1.133500000000000085e+01 2.609600000000000009e+01 -7.370305168265413494e-03
3.347800000000000153e+01 -6.760000000000000453e-01 3.129100000000000037e+01 -2.467746166986812817e-01
3.348199999999999932e+01 -1.552000000000000046e+00 2.639900000000000091e+01 8.427601946217577744e-02
3.351599999999999824e+01 2.798999999999999932e+00 2.282900000000000063e+01 -2.336845054113762532e-01
3.352499999999999858e+01 -8.635999999999999233e+00 3.523199999999999932e+01 -2.925192510003609692e-01
3.353699999999999903e+01 -7.370000000000000107e+00 1.538899999999999935e+01 -2.564446718592295893e-01
3.354599999999999937e+01 7.479999999999999982e-01 2.593700000000000117e+01 -2.346130890842129113e-01
3.376800000000000068e+01 1.705999999999999961e+00 2.199899999999999878e+01 -1.437657587211529087e-01
3.378699999999999903e+01 -1.438199999999999967e+01 1.707799999999999940e+01 -1.901017092465750319e-02
3.381499999999999773e+01 -3.499999999999999778e-01 1.267099999999999937e+01 3.893865077552904896e-02
3.389000000000000057e+01 -7.937999999999999723e+00 3.410199999999999676e+01 -3.059144595975350489e-01
3.389200000000000301e+01 -6.969999999999999751e+00 2.019699999999999918e+01 7.180190119138324389e-02
3.389699999999999847e+01 -8.103999999999999204e+00 2.100100000000000122e+01 -9.325549525876714041e-02
3.390200000000000102e+01 -1.322400000000000020e+01 1.978500000000000014e+01 -1.249867081627816373e-01
3.394400000000000261e+01 8.559999999999999831e-01 1.176600000000000001e+01 4.889926560116183291e-02
3.398499999999999943e+01 -4.846000000000000085e+00 2.782900000000000063e+01 -1.294202065014486355e-02
3.399399999999999977e+01 -3.926000000000000156e+00 2.671699999999999875e+01 -5.353363169746498673e-02
3.399900000000000233e+01 -1.236599999999999966e+01 2.203099999999999881e+01 -3.251336002528203428e-01
3.412599999999999767e+01 -1.483900000000000041e+01 2.697200000000000131e+01 -3.257458823664284298e-01
3.420300000000000296e+01 -1.200999999999999979e+01 2.064099999999999824e+01 -4.523732104685905531e-02
3.425000000000000000e+01 -1.548600000000000065e+01 1.680699999999999861e+01 1.799792225539048607e-02
3.429099999999999682e+01 1.399999999999999911e+00 3.117399999999999949e+01 -2.307558180325609831e-01
3.432900000000000063e+01 -1.134699999999999953e+01 1.485200000000000031e+01 4.100448099258913182e-03
3.436399999999999721e+01 -1.325399999999999956e+01 1.669099999999999895e+01 3.906314892600937227e-02
3.441799999999999926e+01 -5.583000000000000185e+00 2.490099999999999980e+01 2.014801546685321409e-01
3.442600000000000193e+01 -3.213999999999999968e+00 1.327599999999999980e+01 -2.795810637323600106e-02
3.446200000000000330e+01 -1.324999999999999956e+00 2.532100000000000151e+01 6.874424994617109319e-02
3.446600000000000108e+01 3.799999999999999822e+00 2.300900000000000034e+01 -2.278218622904995549e-01
3.448599999999999710e+01 1.487999999999999989e+00 1.661100000000000065e+01 -4.053854231771541160e-03
3.450000000000000000e+01 -8.676999999999999602e+00 2.770400000000000063e+01 -9.638711318473122680e-02
3.454699999999999704e+01 -1.425999999999999979e+01 1.994099999999999895e+01 9.541192328327377514e-02
3.455499999999999972e+01 -6.560000000000000275e-01 3.034400000000000119e+01 1.498258228722192942e-01
3.460099999999999909e+01 2.754999999999999893e+00 1.748499999999999943e+01 -2.225813604595320849e-01
3.465100000000000335e+01 -7.293000000000000149e+00 1.642200000000000060e+01 -2.273281437862566534e-01
3.466599999999999682e+01 -6.525999999999999801e+00 3.182300000000000040e+01 -1.947778046481287995e-01
3.485000000000000142e+01 8.300000000000000433e-02 2.556200000000000117e+01 -1.350609946856781429e-01
3.488199999999999790e+01 -6.498000000000000220e+00 2.932000000000000028e+01 1.488520911402962943e-01
3.495100000000000051e+01 -8.596999999999999531e+00 1.711700000000000088e+01 -2.370768074973673145e-01
3.496600000000000108e+01 -5.889999999999999680e-01 1.767500000000000071e+01 -8.109740234626361399e-02
3.499099999999999966e+01 -3.789000000000000146e+00 1.234600000000000009e+01 -2.628213214091845717e-01
3.500200000000000244e+01 1.647999999999999909e+00 2.134299999999999997e+01 -1.300000000000000044e-01
3.501899999999999835e+01 -2.616000000000000103e+00 2.150000000000000000e+01 -3.212931167084840528e-02
3.503999999999999915e+01 -5.583000000000000185e+00 2.812699999999999889e+01 6.693368042715472366e-02
3.504099999999999682e+01 6.570000000000000284e-01 3.029899999999999949e+01 1.460678439712714827e-01
3.504999999999999716e+01 -1.388599999999999923e+01 2.767500000000000071e+01 -1.832515146442491583e-01
3.509599999999999653e+01 -5.740999999999999659e+00 3.061799999999999855e+01 -1.832643727570657244e-01
3.511200000000000188e+01 -2.089999999999999858e+00 1.401299999999999990e+01 -1.339169626482776022e-02
3.515699999999999648e+01 -1.629999999999999893e+00 2.952899999999999991e+01 1.130019953360780482e-01
3.516299999999999670e+01 -8.096000000000000085e+00 3.359400000000000119e+01 -1.842130975902440959e-01
3.517999999999999972e+01 -8.669999999999999929e-01 1.309900000000000020e+01 -2.105004028147607897e-01
3.532800000000000296e+01 -2.458000000000000185e+00 2.014000000000000057e+01 -1.378371171916943361e-01
3.538000000000000256e+01 -9.275000000000000355e+00 2.393700000000000117e+01 1.491898109300295316e-01
3.541799999999999926e+01 -3.769000000000000128e+00 2.216600000000000037e+01 1.902234870334157391e-01
3.542000000000000171e+01 4.329999999999999960e-01 1.717299999999999827e+01 -2.967718208089902832e-01
3.548599999999999710e+01 -1.325200000000000067e+01 1.577299999999999969e+01 1.086764383242079662e-01
3.552400000000000091e+01 -8.624000000000000554e+00 2.839999999999999858e+01 1.279249709846274619e-01
3.554399999999999693e+01 -7.392000000000000348e+00 3.245700000000000074e+01 -1.902610125875813796e-01
3.563600000000000279e+01 -1.186999999999999922e+01 1.513299999999999912e+01 -5.743117445603928162e-04
3.564800000000000324e+01 -1.159200000000000053e+01 2.039300000000000068e+01 -1.946213326752622430e-01
3.568099999999999739e+01 -4.115000000000000213e+00 1.578500000000000014e+01 -2.327577243197399282e-01
3.568599999999999994e+01 3.717999999999999972e+00 2.235300000000000153e+01 -1.300000000000000044e-01
3.570000000000000284e+01 -1.311200000000000010e+01 2.393599999999999994e+01 -2.818966414535110099e-01
3.578399999999999892e+01 -7.623999999999999666e+00 2.923199999999999932e+01 -2.065001926433104040e-01
3.580199999999999960e+01 -1.301999999999999957e+01 2.666100000000000136e+01 -1.771185022341974780e-01
3.592099999999999937e+01 -1.083799999999999919e+01 2.763400000000000034e+01 6.248302249624855531e-02
3.593200000000000216e+01 -1.155700000000000038e+01 1.900000000000000000e+01 -7.214839875337779318e-02
3.596099999999999852e+01 2.648000000000000131e+00 2.151500000000000057e+01 -1.299999999999999767e-01
3.598700000000000188e+01 -1.461899999999999977e+01 2.847400000000000020e+01 -1.757745951094155379e-01
3.603000000000000114e+01 -3.458000000000000185e+00 1.946199999999999974e+01 -2.766112705717663767e-01
3.607900000000000063e+01 -5.562999999999999723e+00 2.747400000000000020e+01 1.529266455948845582e-01
3.610399999999999920e+01 1.030000000000000027e+00 2.947299999999999898e+01 -1.310140225019826854e-01
3.612199999999999989e+01 -4.761000000000000121e+00 2.147200000000000131e+01 1.725880288300056797e-01
3.621300000000000097e+01 -1.256000000000000005e+00 2.870499999999999829e+01 1.031213610196547448e-01
3.633800000000000097e+01 -1.671000000000000085e+01 2.083999999999999986e+01 -1.968601325771303090e-01
3.636699999999999733e+01 -8.628000000000000114e+00 1.765299999999999869e+01 -1.281048308496534061e-01
3.641199999999999903e+01 -1.196199999999999974e+01 1.383099999999999952e+01 7.551270419396380155e-03
3.642699999999999960e+01 -4.615000000000000213e+00 2.012099999999999866e+01 -1.820363322553646968e-01
3.644400000000000261e+01 -2.491999999999999993e+00 1.443999999999999950e+01 -3.516941722668381343e-01
3.652700000000000102e+01 -9.752000000000000668e+00 2.836599999999999966e+01 1.437799925003515056e-01
3.656700000000000017e+01 -9.064000000000000057e+00 1.880499999999999972e+01 -1.469546306168622585e-01
3.657200000000000273e+01 -1.196700000000000053e+01 2.742800000000000082e+01 -2.013826781111262287e-01
3.658800000000000097e+01 -1.375099999999999945e+01 2.450499999999999901e+01 -9.271427447163277380e-02
3.661899999999999977e+01 -3.479999999999999982e+00 1.530700000000000038e+01 -3.573818822279674068e-01
3.664800000000000324e+01 4.681000000000000050e+00 2.255999999999999872e+01 -1.299999999999999767e-01
3.667300000000000182e+01 6.300000000000000044e-02 2.868599999999999994e+01 -1.292714344418030570e-01
3.668200000000000216e+01 -1.573199999999999932e+01 1.982999999999999829e+01 -6.816469966972683869e-02
3.669500000000000028e+01 -1.379599999999999937e+01 2.582499999999999929e+01 -3.536311533723216494e-01
3.671999999999999886e+01 6.700000000000000400e-01 1.707199999999999918e+01 -2.817524973129179044e-01
3.682900000000000063e+01 -1.371899999999999942e+01 1.634100000000000108e+01 1.430206295111676462e-01
3.685199999999999676e+01 -1.422300000000000075e+01 1.757499999999999929e+01 -7.455013510781167974e-02
3.686899999999999977e+01 -8.955000000000000071e+00 2.400499999999999901e+01 2.860217133111891269e-03
3.695900000000000318e+01 -1.508900000000000041e+01 2.248900000000000077e+01 -1.207645379284258552e-01
3.705299999999999727e+01 -1.635999999999999943e+01 2.212199999999999989e+01 -1.680238771086651206e-01
3.707200000000000273e+01 -7.878999999999999559e+00 2.505600000000000094e+01 -3.167475771686917296e-02
3.710499999999999687e+01 8.519999999999999796e-01 1.967800000000000082e+01 -1.851587189894492447e-01
3.710799999999999699e+01 -5.714999999999999858e+00 1.938400000000000034e+01 -1.342630560741762680e-01
3.728900000000000148e+01 -8.201999999999999957e+00 1.691900000000000048e+01 -2.273521084765348643e-01
3.759000000000000341e+01 -1.458799999999999919e+01 2.369999999999999929e+01 -8.362440632802210783e-02
3.766199999999999903e+01 -1.018999999999999950e+01 2.439499999999999957e+01 -5.739420455421716250e-02
3.768800000000000239e+01 -1.720499999999999829e+01 2.275799999999999912e+01 -1.578559061929578067e-01
3.769599999999999795e+01 -2.590000000000000080e-01 1.762399999999999878e+01 -6.090841633546251188e-02
3.771500000000000341e+01 -1.217900000000000027e+01 2.784199999999999875e+01 -1.868700475964624741e-01
3.779200000000000159e+01 -6.000000000000000125e-03 1.912600000000000122e+01 -1.442263087696401234e-02
3.784199999999999875e+01 -1.579899999999999949e+01 1.919500000000000028e+01 -6.685782857855732120e-02
3.784899999999999665e+01 -1.359500000000000064e+01 1.566300000000000026e+01 1.521107194533459217e-01
3.791199999999999903e+01 -1.324000000000000066e+00 2.208699999999999974e+01 3.512429050087366444e-02
3.796800000000000352e+01 -5.301000000000000156e+00 2.395299999999999940e+01 1.950188919981159230e-01
3.802799999999999869e+01 -4.690000000000000391e+00 1.686199999999999832e+01 -1.377662863922119174e-01
3.805499999999999972e+01 -3.798999999999999932e+00 1.571100000000000030e+01 -7.062198125363880474e-02
3.810199999999999676e+01 -1.471700000000000053e+01 1.817200000000000060e+01 -5.656819986541168632e-02
3.818699999999999761e+01 -1.314799999999999969e+01 2.005600000000000094e+01 -1.904054676018629988e-01
3.819599999999999795e+01 -6.939999999999999503e-01 1.492300000000000004e+01 -3.558235411963034944e-01
3.820400000000000063e+01 -1.131999999999999895e+00 2.355199999999999960e+01 7.576236803143401866e-02
3.824000000000000199e+01 -8.340999999999999304e+00 3.099599999999999866e+01 -2.643210767845444731e-01
3.834100000000000108e+01 -2.221000000000000085e+00 2.439999999999999858e+01 2.695630551849986095e-02
3.838000000000000256e+01 -6.663999999999999702e+00 2.665200000000000102e+01 -3.218719836899266301e-02
3.838600000000000279e+01 1.439999999999999891e-01 2.408500000000000085e+01 -2.411987906217497035e-01
3.838700000000000045e+01 -5.017999999999999794e+00 3.116700000000000159e+01 -2.676400630682930215e-01
3.842699999999999960e+01 -7.217999999999999972e+00 2.531500000000000128e+01 -1.477759405485341015e-01
3.859000000000000341e+01 -5.455000000000000071e+00 1.907799999999999940e+01 -9.723763454262419892e-02
3.865299999999999869e+01 -7.710000000000000187e-01 1.977899999999999991e+01 -4.481182729022179650e-02
3.865400000000000347e+01 -2.048999999999999932e+00 2.574800000000000111e+01 -1.138240767787900565e-01
3.869800000000000040e+01 -1.663899999999999935e+01 1.945200000000000173e+01 -2.036555622805654997e-01
3.870100000000000051e+01 3.250000000000000111e-01 2.543599999999999994e+01 -1.756689809519625806e-02
3.872999999999999687e+01 -4.445000000000000284e+00 1.796300000000000097e+01 -1.771484017441971592e-01
3.874499999999999744e+01 -6.211000000000000298e+00 2.421399999999999864e+01 2.040413524255320632e-01
3.881300000000000239e+01 -1.374499999999999922e+01 2.332600000000000051e+01 -1.061256074176658154e-01
3.882999999999999829e+01 -7.770000000000000240e-01 2.625700000000000145e+01 -3.315195877940693703e-02
3.883700000000000330e+01 -4.429000000000000270e+00 1.456000000000000050e+01 -4.460385489905606404e-02
3.885999999999999943e+01 -7.003000000000000114e+00 2.133599999999999852e+01 2.355929036986068037e-01
3.892099999999999937e+01 -1.362400000000000055e+01 1.891499999999999915e+01 -6.162097918660550816e-02
3.892600000000000193e+01 -6.179999999999999938e-01 2.120299999999999940e+01 -5.931073778230159382e-02
3.900500000000000256e+01 -6.560999999999999943e+00 2.898300000000000054e+01 -2.069048453640454921e-01
3.908899999999999864e+01 -6.000000000000000125e-03 1.703399999999999892e+01 -2.519233620282206390e-02
3.910300000000000153e+01 -4.424000000000000377e+00 3.032799999999999940e+01 -1.383944932024781249e-01
3.911299999999999955e+01 -6.239999999999999991e-01 2.758500000000000085e+01 -1.121480001483203537e-01
3.912899999999999778e+01 -1.160000000000000059e-01 1.551699999999999946e+01 -3.583132926036610710e-01
3.916400000000000148e+01 -7.139999999999999680e+00 2.760200000000000031e+01 3.565086731860758057e-02
3.928499999999999659e+01 -1.247000000000000064e+01 1.799299999999999855e+01 -7.438459292174473547e-02
3.933800000000000097e+01 -5.089999999999999858e+00 2.027199999999999847e+01 -1.109033152256160976e-01
3.942099999999999937e+01 -5.094000000000000306e+00 2.901099999999999923e+01 2.813584700732238431e-02
3.942600000000000193e+01 -5.913999999999999702e+00 2.130699999999999861e+01 2.687509652973340546e-01
3.943200000000000216e+01 -8.240000000000000213e+00 3.069500000000000028e+01 -3.499999999999999778e-01
3.950300000000000011e+01 -3.501999999999999780e+00 1.807100000000000151e+01 -1.424874539338673585e-01
3.957600000000000051e+01 -3.290999999999999925e+00 3.053099999999999881e+01 8.149489262174851312e-02
3.988900000000000290e+01 -7.381000000000000227e+00 2.979299999999999926e+01 -3.499999999999999778e-01
3.990800000000000125e+01 -6.344000000000000306e+00 2.359400000000000119e+01 2.562266210062291716e-01
4.005599999999999739e+01 -7.950999999999999623e+00 2.737900000000000134e+01 -9.934493168680452735e-02
4.011299999999999955e+01 3.770000000000000018e-01 1.491200000000000081e+01 -3.577473423761469706e-01
4.025699999999999790e+01 -5.455000000000000071e+00 2.249399999999999977e+01 3.056610941236640455e-01
4.030299999999999727e+01 -1.205000000000000071e+00 2.140500000000000114e+01 -3.235656071768888004e-02
4.031400000000000006e+01 -4.511999999999999567e+00 1.481000000000000050e+01 -4.286790909861328686e-02
4.048400000000000176e+01 -9.050000000000000711e+00 3.141900000000000048e+01 -3.499999999999999778e-01
4.052199999999999847e+01 -8.676000000000000156e+00 3.288499999999999801e+01 -3.500000000000000333e-01
4.075900000000000034e+01 -2.003000000000000114e+00 2.059400000000000119e+01 -1.852065524785674044e-01
4.096399999999999864e+01 -8.259999999999999565e-01 2.248499999999999943e+01 -4.642909249148668288e-02
4.100500000000000256e+01 -5.706000000000000405e+00 1.483099999999999952e+01 -7.604664089124613113e-02
4.123299999999999699e+01 -3.544000000000000039e+00 1.504899999999999949e+01 -4.486487253676119114e-02
4.130899999999999750e+01 -1.067800000000000082e+01 3.384100000000000108e+01 -2.190283365298991147e-01
4.140400000000000347e+01 -1.026099999999999923e+01 2.910000000000000142e+01 -3.500000000000000333e-01
4.154599999999999937e+01 -9.471000000000000085e+00 3.362700000000000244e+01 -2.201652514608069544e-01
4.167999999999999972e+01 -4.203000000000000291e+00 2.652299999999999969e+01 -1.357709012723927189e-01
4.173899999999999721e+01 -5.581999999999999851e+00 2.213899999999999935e+01 -9.282816138221686164e-02
4.181099999999999994e+01 -8.890000000000000568e+00 3.083699999999999974e+01 -2.149952232656395235e-01
4.216899999999999693e+01 -9.519999999999999574e+00 2.972100000000000009e+01 -2.099843053624686762e-01
4.226299999999999812e+01 -2.662999999999999812e+00 2.472500000000000142e+01 -1.512508157779082485e-01
4.228000000000000114e+01 -2.858999999999999986e+00 2.616600000000000037e+01 7.641423658463306068e-02
4.228399999999999892e+01 -5.472000000000000419e+00 1.507099999999999973e+01 -8.235371316344876347e-02
4.231300000000000239e+01 -1.290000000000000036e+00 2.274099999999999966e+01 -3.415221395853929032e-02
4.237599999999999767e+01 -1.441999999999999948e+00 2.422899999999999920e+01 -8.934474439260252365e-02
4.244800000000000040e+01 -4.166999999999999815e+00 1.520800000000000018e+01 -6.924536075594815709e-02
4.248400000000000176e+01 -4.480000000000000093e-01 2.493499999999999872e+01 -9.244355802497437880e-02
4.250800000000000267e+01 -4.894999999999999574e+00 3.156899999999999906e+01 3.363038617125934521e-02
4.257500000000000284e+01 -5.113999999999999879e+00 2.317999999999999972e+01 -1.054813406585318053e-01
4.261699999999999733e+01 -8.913999999999999702e+00 3.393800000000000239e+01 -2.369736698845232303e-01
4.299499999999999744e+01 -6.655000000000000249e+00 2.851699999999999946e+01 -2.832194134754698056e-01
4.327300000000000324e+01 -1.900000000000000022e-01 2.229400000000000048e+01 -1.001243073563558468e-02
4.359300000000000352e+01 -9.262999999999999901e+00 2.921300000000000097e+01 -2.295085973961528136e-01
4.365299999999999869e+01 -6.924000000000000377e+00 3.214300000000000068e+01 -2.895694811790586187e-01
4.366499999999999915e+01 -2.685000000000000053e+00 2.679299999999999926e+01 2.239859618499350641e-02
4.368200000000000216e+01 -2.391000000000000014e+00 2.808800000000000097e+01 1.240414528873060307e-01
4.378799999999999670e+01 -6.863000000000000433e+00 2.943499999999999872e+01 -3.050783118515049130e-01
4.383400000000000318e+01 -5.615000000000000213e+00 3.159600000000000009e+01 2.836317512819688802e-02
4.387199999999999989e+01 -2.220000000000000029e-01 3.201599999999999824e+01 1.319640005445204545e-01
4.395300000000000296e+01 -1.306999999999999940e+00 3.099099999999999966e+01 1.106578670815812904e-01
4.414000000000000057e+01 -8.074999999999999289e+00 2.983500000000000085e+01 -2.724647540261814216e-01
4.430199999999999960e+01 2.139999999999999958e-01 2.907499999999999929e+01 1.037962963171111391e-01
4.432500000000000284e+01 -4.469000000000000306e+00 2.944900000000000162e+01 2.140348353678027671e-01
4.444200000000000017e+01 -5.721000000000000085e+00 3.018100000000000094e+01 3.566920881682855704e-02
4.446000000000000085e+01 -6.610000000000000320e-01 2.150499999999999901e+01 -2.735621278228360723e-02
4.450200000000000244e+01 -1.046000000000000085e+01 2.950199999999999889e+01 -2.320514356811210210e-01
4.468599999999999994e+01 -2.744000000000000217e+00 2.610500000000000043e+01 7.654507749547642681e-02
4.484700000000000131e+01 -9.869999999999999885e-01 2.979500000000000171e+01 7.991881413155885183e-02
4.492499999999999716e+01 -2.206999999999999851e+00 2.882600000000000051e+01 9.801481760999769532e-02
4.517499999999999716e+01 -3.470000000000000195e+00 2.964900000000000091e+01 1.532987311703606914e-01
4.565899999999999892e+01 -9.070000000000000284e-01 2.236599999999999966e+01 -4.820567351808179024e-02
4.568399999999999750e+01 -1.943000000000000060e+00 2.306200000000000117e+01 -4.169579353575863373e-02
4.608500000000000085e+01 -3.524999999999999911e+00 3.048300000000000054e+01 1.623801277315012892e-01
4.657099999999999795e+01 -5.399999999999999939e-02 2.234600000000000009e+01 -5.826347675276344340e-02
