-2.004200000000000159e+01 2.255099999999999838e+01 3.371099999999999852e+01 -1.341434778946540285e-01
-2.004100000000000037e+01 3.547299999999999898e+01 3.554899999999999949e+01 9.442921009804597365e-02
-2.003600000000000136e+01 3.599499999999999744e+01 4.072200000000000131e+01 -1.620541159194054948e-01
-1.997599999999999909e+01 3.371000000000000085e+01 4.485199999999999676e+01 -1.979837734764418322e-01
-1.996199999999999974e+01 3.444100000000000250e+01 4.806700000000000017e+01 -1.125344358447454007e-01
-1.992999999999999972e+01 2.574500000000000099e+01 4.408800000000000097e+01 -2.645821048743787207e-01
-1.991900000000000048e+01 4.114800000000000324e+01 3.562400000000000233e+01 3.109749843947641826e-02
-1.991199999999999903e+01 3.517799999999999727e+01 4.167000000000000171e+01 -1.488635300754552471e-01
-1.978999999999999915e+01 3.534599999999999653e+01 3.418299999999999983e+01 2.466351407404748508e-01
-1.969200000000000017e+01 3.869400000000000261e+01 2.901300000000000168e+01 2.733432732162405232e-02
-1.967699999999999960e+01 3.368699999999999761e+01 2.697599999999999909e+01 8.328300644133002084e-02
-1.962999999999999901e+01 3.084700000000000131e+01 4.439200000000000301e+01 -3.172169077010549287e-01
-1.959199999999999875e+01 3.078200000000000003e+01 4.308100000000000307e+01 -2.960670841241144213e-01
-1.957700000000000173e+01 3.452799999999999869e+01 3.647200000000000131e+01 1.133517776502898922e-01
-1.957000000000000028e+01 2.444500000000000028e+01 3.204200000000000159e+01 -2.442955216297831578e-01
-1.944200000000000017e+01 4.300099999999999767e+01 3.785099999999999909e+01 3.207351034599156825e-01
-1.943299999999999983e+01 2.589699999999999847e+01 3.529800000000000182e+01 -3.043209642997320441e-01
-1.943199999999999861e+01 3.788100000000000023e+01 3.842000000000000171e+01 4.856375721507392995e-02
-1.937900000000000134e+01 3.522800000000000153e+01 4.925200000000000244e+01 -1.425947430606767097e-01
-1.932900000000000063e+01 2.604100000000000037e+01 3.396699999999999875e+01 -2.997954720000641782e-01
-1.928399999999999892e+01 3.808700000000000330e+01 2.612199999999999989e+01 -5.713060795468636113e-03
-1.925400000000000134e+01 3.350699999999999790e+01 4.585199999999999676e+01 -1.594984865041891298e-01
-1.925400000000000134e+01 3.599099999999999966e+01 4.637199999999999989e+01 -1.451063199305172857e-01
-1.919699999999999918e+01 2.826899999999999835e+01 3.616400000000000148e+01 9.127293152150649236e-02
-1.917000000000000171e+01 3.950500000000000256e+01 2.552899999999999991e+01 -2.496654212618687821e-02
-1.915899999999999892e+01 4.090200000000000102e+01 2.896099999999999852e+01 2.620675756443368101e-02
-1.907000000000000028e+01 3.698899999999999721e+01 2.506099999999999994e+01 2.172556796695130910e-01
-1.906500000000000128e+01 3.427900000000000347e+01 3.365699999999999648e+01 2.075946586738353639e-01
-1.906200000000000117e+01 2.940399999999999991e+01 3.103300000000000125e+01 -1.584855850837718905e-01
-1.904500000000000171e+01 3.462800000000000011e+01 4.686099999999999710e+01 -1.503456451503444313e-01
-1.903099999999999881e+01 3.489300000000000068e+01 2.973499999999999943e+01 2.546581961849604392e-01
-1.902299999999999969e+01 4.307099999999999795e+01 3.478999999999999915e+01 -6.054025120939642013e-02
-1.902199999999999847e+01 2.492599999999999838e+01 3.598499999999999943e+01 -3.060821066824058745e-01
-1.900799999999999912e+01 2.872100000000000009e+01 4.130899999999999750e+01 -2.579183911608172175e-01
-1.900400000000000134e+01 3.974600000000000222e+01 2.942800000000000082e+01 1.616637263651478015e-02
-1.895400000000000063e+01 3.609700000000000131e+01 2.938200000000000145e+01 2.205286938126755081e-01
-1.893900000000000006e+01 4.202400000000000091e+01 3.548100000000000165e+01 -7.658202654785846442e-02
-1.885099999999999909e+01 3.346800000000000352e+01 3.594800000000000040e+01 2.722244318478469483e-01
-1.884700000000000131e+01 3.835699999999999932e+01 4.626500000000000057e+01 -3.239099858199801507e-01
-1.878099999999999881e+01 2.631099999999999994e+01 4.377100000000000080e+01 -2.714977084325721490e-01
-1.862199999999999989e+01 2.514600000000000080e+01 3.301899999999999835e+01 -1.390641946310812449e-01
-1.859799999999999898e+01 3.334799999999999898e+01 3.456900000000000261e+01 9.839240474933240443e-02
-1.857199999999999918e+01 3.447800000000000153e+01 4.185699999999999932e+01 -1.209705646062915613e-01
-1.857100000000000151e+01 3.156599999999999895e+01 3.072500000000000142e+01 5.345357454482373150e-02
-1.856500000000000128e+01 3.239399999999999835e+01 4.605299999999999727e+01 -3.241335547013237117e-01
-1.840800000000000125e+01 3.695300000000000296e+01 4.666199999999999903e+01 -3.225910219880360197e-01
-1.835699999999999932e+01 3.136700000000000088e+01 4.502799999999999869e+01 -3.348634496484469980e-01
-1.832300000000000040e+01 3.207699999999999818e+01 3.809599999999999653e+01 -2.187181366202763100e-01
-1.825700000000000145e+01 3.236099999999999710e+01 3.657699999999999818e+01 2.822808508384664350e-01
-1.820799999999999841e+01 3.037199999999999989e+01 3.088400000000000034e+01 -5.246119743229789995e-02
-1.807999999999999829e+01 3.852600000000000335e+01 3.260699999999999932e+01 2.359522023950381409e-01
-1.804299999999999926e+01 2.690599999999999881e+01 3.151899999999999835e+01 -1.788987421598841054e-01
-1.803300000000000125e+01 4.294400000000000261e+01 3.758599999999999852e+01 -2.176676583544293331e-01
-1.801999999999999957e+01 3.814300000000000068e+01 3.817499999999999716e+01 6.409632260796802039e-02
-1.799699999999999989e+01 3.420100000000000051e+01 3.011400000000000077e+01 -3.886515474579250139e-03
-1.794699999999999918e+01 3.979800000000000182e+01 3.174200000000000088e+01 -1.697925609047301609e-02
-1.794099999999999895e+01 3.407699999999999818e+01 4.058400000000000318e+01 -1.440383631967847022e-01
-1.791700000000000159e+01 3.229899999999999949e+01 3.435199999999999676e+01 1.156225458877899737e-01
-1.790500000000000114e+01 2.793199999999999861e+01 3.691700000000000159e+01 -2.354090416095018790e-01
-1.785500000000000043e+01 2.810500000000000043e+01 3.827900000000000347e+01 -2.101922772397886996e-01
-1.782499999999999929e+01 4.186500000000000199e+01 3.651899999999999835e+01 -2.184816863652071783e-01
-1.780900000000000105e+01 3.202000000000000313e+01 4.728000000000000114e+01 -1.584111098416589591e-01
-1.775499999999999901e+01 3.945400000000000063e+01 3.024599999999999866e+01 2.834844431993336911e-01
-1.768599999999999994e+01 3.164999999999999858e+01 3.558299999999999841e+01 -1.025407757082363452e-01
-1.767800000000000082e+01 3.543599999999999994e+01 4.265599999999999881e+01 -7.167559816685110941e-02
-1.764000000000000057e+01 2.591600000000000037e+01 3.215800000000000125e+01 -1.596782632485208298e-01
-1.756599999999999895e+01 3.019900000000000162e+01 4.565599999999999881e+01 -3.298703763858442661e-01
-1.749099999999999966e+01 3.193499999999999872e+01 4.121399999999999864e+01 -2.541342914136112130e-01
-1.748999999999999844e+01 3.285300000000000153e+01 4.035000000000000142e+01 -2.691238754689301294e-01
-1.740500000000000114e+01 3.867399999999999949e+01 3.946600000000000108e+01 -3.956519991357352467e-02
-1.737500000000000000e+01 3.678699999999999903e+01 4.735699999999999932e+01 -2.958751834036159600e-01
-1.719500000000000028e+01 3.692199999999999704e+01 3.779999999999999716e+01 3.508009797185777934e-02
-1.718700000000000117e+01 3.062300000000000111e+01 4.707600000000000051e+01 -3.232343072693587560e-01
-1.708599999999999852e+01 3.256700000000000017e+01 3.889699999999999847e+01 -2.944261127509005815e-01
-1.703399999999999892e+01 3.601599999999999824e+01 3.865299999999999869e+01 4.438272549910080023e-02
-1.681200000000000117e+01 3.246300000000000097e+01 2.521699999999999875e+01 1.009451784494289628e-01
-1.680600000000000094e+01 3.332500000000000284e+01 2.413100000000000023e+01 7.053455584141303525e-02
-1.680199999999999960e+01 2.746300000000000097e+01 3.623700000000000188e+01 -2.177896193166756755e-01
-1.679400000000000048e+01 4.051899999999999835e+01 3.220100000000000051e+01 -1.817346265118807147e-01
-1.675300000000000011e+01 2.994699999999999918e+01 3.066799999999999926e+01 7.838123666673149637e-02
-1.673199999999999932e+01 3.491799999999999926e+01 2.998300000000000054e+01 -4.770520413069639920e-02
-1.670599999999999952e+01 2.780099999999999838e+01 3.897899999999999920e+01 -3.110578207782223603e-01
-1.661499999999999844e+01 4.018599999999999994e+01 2.971499999999999986e+01 1.024612733360108913e-01
-1.643900000000000006e+01 4.191299999999999670e+01 3.603699999999999903e+01 -1.727791697859771547e-01
-1.642899999999999849e+01 3.704399999999999693e+01 3.673899999999999721e+01 -1.247654845176771575e-02
-1.639900000000000091e+01 2.551999999999999957e+01 3.221200000000000330e+01 -1.838470777220755914e-01
-1.632400000000000162e+01 3.480400000000000205e+01 4.297200000000000131e+01 -1.286975921373004206e-01
-1.624699999999999989e+01 3.026099999999999923e+01 2.630900000000000105e+01 1.173346279368884942e-01
-1.620499999999999829e+01 3.123100000000000165e+01 2.511599999999999966e+01 3.584699027850135611e-01
-1.618900000000000006e+01 3.052499999999999858e+01 2.945499999999999829e+01 3.222743910548041268e-02
-1.618400000000000105e+01 3.383500000000000085e+01 2.181599999999999895e+01 2.046043562810525296e-01
-1.618199999999999861e+01 3.294100000000000250e+01 2.294500000000000028e+01 2.309517143226519909e-01
-1.612800000000000011e+01 3.563900000000000290e+01 3.120700000000000074e+01 1.154952871824851818e-01
-1.608999999999999986e+01 3.694599999999999795e+01 4.398499999999999943e+01 -1.255365159024227073e-01
-1.607300000000000040e+01 2.601899999999999835e+01 2.668199999999999861e+01 -1.075380657156535663e-01
-1.604799999999999827e+01 2.949500000000000099e+01 3.299699999999999989e+01 -9.862692451482640843e-02
-1.603300000000000125e+01 3.967699999999999960e+01 3.612800000000000011e+01 -7.388000459256702235e-02
-1.600199999999999889e+01 3.880899999999999750e+01 3.923499999999999943e+01 -4.640228538313725254e-02
-1.597499999999999964e+01 3.160399999999999920e+01 3.875699999999999790e+01 -1.825177366839398629e-01
-1.583900000000000041e+01 3.033699999999999974e+01 3.185500000000000043e+01 6.652817137515955326e-02
-1.573099999999999987e+01 3.830700000000000216e+01 2.884600000000000009e+01 2.032290269831724117e-01
-1.571799999999999997e+01 3.439000000000000057e+01 2.898999999999999844e+01 1.471490109319941175e-01
-1.570100000000000051e+01 3.954800000000000182e+01 2.905600000000000094e+01 1.189574543872570639e-01
-1.567300000000000004e+01 4.085300000000000153e+01 3.588499999999999801e+01 -1.576300660347381699e-01
-1.564799999999999969e+01 2.714699999999999847e+01 3.692499999999999716e+01 -1.953393341007266248e-01
-1.560800000000000054e+01 2.732100000000000151e+01 3.829999999999999716e+01 4.775815737931700389e-02
-1.557900000000000063e+01 3.085399999999999920e+01 2.394399999999999906e+01 2.773364864055785639e-01
-1.556400000000000006e+01 3.534400000000000119e+01 3.503900000000000148e+01 -3.498770172971708142e-02
-1.556000000000000050e+01 3.170599999999999952e+01 2.285200000000000031e+01 2.457263479863776579e-01
-1.553100000000000058e+01 3.584400000000000119e+01 4.374199999999999733e+01 -1.146640870421619385e-01
-1.549600000000000044e+01 2.981800000000000139e+01 2.860900000000000176e+01 8.416548337406830338e-02
-1.546400000000000041e+01 3.528399999999999892e+01 2.805000000000000071e+01 9.494132410271652334e-02
-1.541300000000000026e+01 3.601599999999999824e+01 3.643999999999999773e+01 -4.743887991818114547e-02
-1.529299999999999926e+01 2.613400000000000034e+01 3.147100000000000009e+01 -7.486203646061354022e-02
-1.526200000000000045e+01 2.859100000000000108e+01 2.869099999999999895e+01 -7.317233994246871709e-02
-1.519400000000000084e+01 3.325900000000000034e+01 2.917200000000000060e+01 1.771522768584870566e-01
-1.512800000000000011e+01 3.053099999999999881e+01 2.733500000000000085e+01 7.953642681362090017e-02
-1.486700000000000088e+01 3.473499999999999943e+01 3.211099999999999710e+01 1.059861773117681399e-01
-1.483799999999999919e+01 2.521900000000000119e+01 3.033999999999999986e+01 -1.187278367114022737e-01
-1.480100000000000016e+01 3.194099999999999895e+01 3.829099999999999682e+01 -1.507966413394224992e-01
-1.478599999999999959e+01 3.611299999999999955e+01 2.586299999999999955e+01 8.407498103006899592e-02
-1.472000000000000064e+01 2.578999999999999915e+01 2.915500000000000114e+01 -1.171880128150746270e-01
-1.469999999999999929e+01 4.076400000000000290e+01 2.712099999999999866e+01 1.146856227692014396e-01
-1.468599999999999994e+01 3.619299999999999784e+01 2.332700000000000173e+01 -2.608512702307167613e-02
-1.458200000000000074e+01 2.562699999999999889e+01 2.666400000000000148e+01 -1.047628742473723229e-01
-1.457300000000000040e+01 2.400499999999999901e+01 3.057300000000000040e+01 -1.120799683160963039e-01
-1.450500000000000078e+01 3.310600000000000165e+01 3.795199999999999818e+01 -4.364039861057268654e-02
-1.450500000000000078e+01 4.038499999999999801e+01 2.861899999999999977e+01 1.073063109960506190e-01
-1.444100000000000072e+01 3.516899999999999693e+01 2.703300000000000125e+01 3.463888359213332935e-01
-1.442800000000000082e+01 3.587700000000000244e+01 3.372899999999999920e+01 9.810798224023015157e-02
-1.441699999999999982e+01 2.699200000000000088e+01 3.902199999999999847e+01 4.212432039411768969e-02
-1.439000000000000057e+01 2.730399999999999849e+01 3.344400000000000261e+01 1.253145238714827581e-01
-1.427200000000000024e+01 3.576200000000000045e+01 4.377700000000000102e+01 -1.278767207829512587e-01
-1.424499999999999922e+01 4.449600000000000222e+01 3.053399999999999892e+01 -1.801087794048665258e-01
-1.420500000000000007e+01 4.115100000000000335e+01 3.561699999999999733e+01 -2.446272809804560799e-01
-1.413000000000000078e+01 2.506800000000000139e+01 2.802899999999999991e+01 -1.083454289693449174e-01
-1.409500000000000064e+01 4.289200000000000301e+01 3.239000000000000057e+01 7.992508602469657053e-02
-1.408600000000000030e+01 2.635500000000000043e+01 3.240899999999999892e+01 -7.468289065349931199e-02
-1.397499999999999964e+01 3.637899999999999778e+01 3.682300000000000040e+01 -2.859676547745491557e-02
-1.396499999999999986e+01 3.831700000000000017e+01 4.174399999999999977e+01 -2.486621764471463325e-01
-1.389100000000000001e+01 3.591599999999999682e+01 2.461100000000000065e+01 1.812017636298694223e-01
-1.386700000000000088e+01 4.100300000000000011e+01 3.411699999999999733e+01 2.681986553420304675e-01
-1.385200000000000031e+01 3.001300000000000168e+01 2.689399999999999835e+01 3.294039332152536026e-02
-1.374399999999999977e+01 2.671199999999999974e+01 2.623000000000000043e+01 8.909005562849188486e-02
-1.373499999999999943e+01 3.085699999999999932e+01 3.827300000000000324e+01 7.185472642358531337e-02
-1.356900000000000084e+01 3.755700000000000216e+01 3.667999999999999972e+01 -1.211450774072013459e-01
-1.342099999999999937e+01 4.407600000000000051e+01 3.167500000000000071e+01 1.450168877305577607e-02
-1.339400000000000013e+01 4.113300000000000267e+01 2.640399999999999991e+01 3.685488056659946277e-01
-1.335899999999999999e+01 3.549900000000000233e+01 3.758599999999999852e+01 -1.362860793196065123e-01
-1.331600000000000072e+01 4.033500000000000085e+01 3.645600000000000307e+01 -1.137223341073344829e-01
-1.326900000000000013e+01 3.590400000000000347e+01 4.045000000000000284e+01 -2.942168464046422960e-01
-1.323900000000000077e+01 3.966400000000000148e+01 2.888400000000000034e+01 2.687878509653846004e-01
-1.321000000000000085e+01 4.227499999999999858e+01 3.350900000000000034e+01 8.497319805623103350e-02
-1.315399999999999991e+01 3.913700000000000045e+01 4.124799999999999756e+01 -1.292949466228722477e-01
-1.313700000000000045e+01 3.075900000000000034e+01 3.968399999999999750e+01 1.477480467008594756e-01
-1.311400000000000077e+01 3.559400000000000119e+01 2.763500000000000156e+01 3.332381740469962383e-01
-1.309800000000000075e+01 3.925300000000000011e+01 3.973899999999999721e+01 -1.104853637707350067e-01
-1.298700000000000010e+01 3.677300000000000324e+01 2.806200000000000117e+01 4.106002520809848844e-01
-1.292999999999999972e+01 3.189300000000000068e+01 3.412100000000000222e+01 1.417559907642763628e-01
-1.289499999999999957e+01 4.241400000000000148e+01 2.645899999999999963e+01 6.357568628239508232e-03
-1.283000000000000007e+01 2.281500000000000128e+01 2.728600000000000136e+01 -8.545333374984785679e-02
-1.280899999999999928e+01 2.677400000000000091e+01 3.166400000000000148e+01 1.535532561409082564e-01
-1.280300000000000082e+01 3.074699999999999989e+01 2.661599999999999966e+01 2.268588945567674986e-01
-1.273600000000000065e+01 3.200200000000000244e+01 2.660800000000000054e+01 2.155572316357817209e-01
-1.269999999999999929e+01 4.014699999999999847e+01 2.574699999999999989e+01 -2.863134374022135997e-02
-1.266999999999999993e+01 3.118400000000000105e+01 3.732399999999999807e+01 1.114478544123599169e-03
-1.261500000000000021e+01 2.508500000000000085e+01 2.811899999999999977e+01 -9.608469512469977603e-02
-1.258900000000000041e+01 3.674199999999999733e+01 2.460300000000000153e+01 -1.191704610156164301e-01
-1.251900000000000013e+01 3.037900000000000134e+01 2.171199999999999974e+01 1.834909426183886361e-01
-1.243800000000000061e+01 4.106099999999999994e+01 3.051699999999999946e+01 -1.128905565231426433e-01
-1.234500000000000064e+01 4.003000000000000114e+01 2.980099999999999838e+01 -1.698258130350844275e-01
-1.229199999999999982e+01 4.081099999999999994e+01 3.714200000000000301e+01 -2.440948256844483188e-01
-1.227699999999999925e+01 2.949599999999999866e+01 3.982999999999999829e+01 9.350256900228187673e-02
-1.217600000000000016e+01 3.527400000000000091e+01 3.974799999999999756e+01 -3.196114938517192750e-01
-1.216900000000000048e+01 3.466599999999999682e+01 2.763500000000000156e+01 3.881079152580680369e-01
-1.216300000000000026e+01 3.820600000000000307e+01 3.220000000000000284e+01 2.616308042406479545e-02
-1.215300000000000047e+01 2.906800000000000139e+01 3.669400000000000261e+01 6.613338359823391077e-02
-1.207199999999999918e+01 2.401399999999999935e+01 2.766400000000000148e+01 -1.329703716689550064e-01
-1.206700000000000017e+01 3.570400000000000063e+01 3.826700000000000301e+01 3.084294506026150073e-01
-1.203700000000000081e+01 3.953399999999999892e+01 4.183200000000000074e+01 -1.510734597439233606e-01
-1.201399999999999935e+01 3.031200000000000117e+01 3.658500000000000085e+01 4.992670843427376298e-02
-1.199399999999999977e+01 2.607499999999999929e+01 2.858200000000000074e+01 -9.951449260695728605e-02
-1.197400000000000020e+01 2.970400000000000063e+01 2.062800000000000011e+01 4.826657745532560162e-02
-1.184299999999999997e+01 4.197999999999999687e+01 3.704800000000000182e+01 -2.495543840235842636e-01
-1.182699999999999996e+01 2.179100000000000037e+01 2.674899999999999878e+01 -1.257763782767714333e-01
-1.177999999999999936e+01 3.028500000000000014e+01 2.976699999999999946e+01 1.904338088732813739e-01
-1.175999999999999979e+01 3.987800000000000011e+01 3.940299999999999869e+01 -8.748464149096332743e-02
-1.172799999999999976e+01 3.093100000000000094e+01 3.417399999999999949e+01 3.171256916892580824e-01
-1.169699999999999918e+01 3.114900000000000091e+01 2.253500000000000014e+01 1.531549594643269729e-01
-1.167500000000000071e+01 4.271200000000000330e+01 2.585900000000000176e+01 3.186314653856305718e-02
-1.156300000000000061e+01 2.992099999999999937e+01 2.635399999999999920e+01 1.037121552503485755e-01
-1.148900000000000077e+01 4.042799999999999727e+01 2.514999999999999858e+01 -3.195054961855953723e-01
-1.148600000000000065e+01 3.977900000000000347e+01 3.790999999999999659e+01 -1.187322433152003393e-01
-1.132300000000000040e+01 3.415100000000000335e+01 3.044099999999999895e+01 3.355682451092635299e-01
-1.125900000000000034e+01 2.969999999999999929e+01 4.093999999999999773e+01 8.441787818840783275e-02
-1.117099999999999937e+01 2.900900000000000034e+01 2.756400000000000006e+01 -6.455607458193841908e-02
-1.116799999999999926e+01 3.906900000000000261e+01 2.997200000000000131e+01 -1.963675339353545268e-01
-1.115799999999999947e+01 3.084100000000000108e+01 4.146600000000000108e+01 -7.044177713767074515e-03
-1.103500000000000014e+01 3.088599999999999923e+01 3.555700000000000216e+01 -6.167497607096291551e-02
-1.100399999999999956e+01 3.358599999999999852e+01 3.787500000000000000e+01 5.485795242414154629e-03
-1.098799999999999955e+01 3.482500000000000284e+01 3.765100000000000335e+01 2.513019165570076208e-01
-1.097400000000000020e+01 4.170900000000000318e+01 2.520599999999999952e+01 -3.162669135950660904e-01
-1.091399999999999970e+01 3.875800000000000267e+01 3.146999999999999886e+01 5.625592076030287020e-02
-1.089100000000000001e+01 3.710600000000000165e+01 4.192900000000000205e+01 -1.856473430483077669e-01
-1.077200000000000024e+01 3.492000000000000171e+01 2.803699999999999903e+01 3.830413895308280026e-01
-1.071799999999999997e+01 3.117800000000000082e+01 3.303399999999999892e+01 3.272594777353420858e-01
-1.071499999999999986e+01 2.547800000000000153e+01 2.564900000000000091e+01 -1.227355179370806376e-01
-1.066300000000000026e+01 2.969099999999999895e+01 2.886899999999999977e+01 1.884784933726632583e-01
-1.063599999999999923e+01 2.384499999999999886e+01 2.744000000000000128e+01 -1.179049395955204665e-01
-1.061299999999999955e+01 2.979899999999999949e+01 2.036799999999999855e+01 6.515506565418872909e-02
-1.058799999999999919e+01 3.508299999999999841e+01 3.385799999999999699e+01 3.500217060132199687e-01
-1.049099999999999966e+01 3.070100000000000051e+01 2.575700000000000145e+01 3.666080676551639606e-01
-1.044899999999999984e+01 2.246000000000000085e+01 2.679400000000000048e+01 -1.176784722451013482e-01
-1.040700000000000003e+01 2.686199999999999832e+01 2.171000000000000085e+01 8.223167155703695053e-02
-1.034699999999999953e+01 3.405199999999999960e+01 2.925400000000000134e+01 3.837477403278640176e-01
-1.034099999999999930e+01 3.123199999999999932e+01 2.228000000000000114e+01 3.901293179485084694e-01
-1.025900000000000034e+01 2.893499999999999872e+01 4.094500000000000028e+01 -1.561104255928123796e-01
-1.017399999999999949e+01 3.542099999999999937e+01 3.679599999999999937e+01 2.806313233468487461e-02
-1.007699999999999996e+01 2.445200000000000173e+01 2.242200000000000060e+01 -4.276777205701919049e-02
-1.007399999999999984e+01 4.000699999999999790e+01 3.778399999999999892e+01 -1.737493957062051231e-01
-1.006600000000000072e+01 3.798400000000000176e+01 2.765099999999999980e+01 1.849962854483490904e-01
-1.003299999999999947e+01 2.492999999999999972e+01 2.655300000000000082e+01 -1.153142251077236280e-01
-9.949999999999999289e+00 3.349799999999999756e+01 2.630199999999999960e+01 6.222468664690221363e-02
-9.938000000000000611e+00 3.950999999999999801e+01 2.930999999999999872e+01 -9.575914286582389023e-02
-9.864000000000000767e+00 3.461999999999999744e+01 2.685000000000000142e+01 7.899576091533888622e-02
-9.836000000000000298e+00 3.004700000000000060e+01 3.542199999999999704e+01 -6.300197094040468904e-02
-9.817000000000000171e+00 4.027499999999999858e+01 2.118799999999999883e+01 -2.753909200741464502e-01
-9.800000000000000711e+00 3.056400000000000006e+01 2.119900000000000162e+01 6.260697914757089311e-02
-9.798000000000000043e+00 2.871000000000000085e+01 2.966700000000000159e+01 1.972975004084509543e-01
-9.704000000000000625e+00 3.782399999999999807e+01 3.166000000000000014e+01 4.200000000000000400e-01
-9.704000000000000625e+00 4.197800000000000153e+01 2.459900000000000020e+01 -2.933051788827911732e-01
-9.688000000000000611e+00 3.811200000000000188e+01 2.246399999999999864e+01 -2.158741271125516614e-01
-9.602999999999999758e+00 3.782200000000000273e+01 3.796699999999999875e+01 -1.761486083283586024e-01
-9.596999999999999531e+00 3.015899999999999892e+01 2.498000000000000043e+01 3.755423689916083108e-01
-9.500000000000000000e+00 3.894500000000000028e+01 2.822299999999999898e+01 -1.421250375393807996e-02
-9.465999999999999304e+00 2.892800000000000082e+01 2.476200000000000045e+01 3.679495607582993211e-01
-9.462999999999999190e+00 3.713499999999999801e+01 4.174300000000000210e+01 -1.950824412500807570e-01
-9.445999999999999730e+00 2.567899999999999849e+01 2.171600000000000108e+01 9.573812019091945680e-02
-9.429999999999999716e+00 3.202100000000000080e+01 2.324399999999999977e+01 3.370632709585031500e-02
-9.301000000000000156e+00 3.961200000000000188e+01 2.240200000000000102e+01 -2.632774507846034062e-01
-9.244999999999999218e+00 3.560900000000000176e+01 2.625799999999999912e+01 -1.547561184764324194e-01
-9.243000000000000327e+00 3.902400000000000091e+01 3.785499999999999687e+01 -2.036002111831700101e-01
-9.240999999999999659e+00 3.593299999999999983e+01 2.378200000000000003e+01 1.245712652601096149e-01
-9.205999999999999517e+00 3.747299999999999898e+01 2.378500000000000014e+01 -1.949790901889683903e-01
-9.185000000000000497e+00 3.519100000000000250e+01 3.450600000000000023e+01 -2.948331619219441563e-02
-9.170999999999999375e+00 3.469100000000000250e+01 3.598499999999999943e+01 8.901618032364076727e-02
-9.150000000000000355e+00 2.817599999999999838e+01 4.334899999999999665e+01 -4.011205336773118191e-01
-8.923999999999999488e+00 3.439500000000000313e+01 2.971300000000000097e+01 1.733008415650781342e-01
-8.833999999999999631e+00 2.531299999999999883e+01 2.687399999999999878e+01 1.499047050255271074e-01
-8.785999999999999588e+00 3.834499999999999886e+01 4.179500000000000171e+01 -1.896296250300525954e-01
-8.768000000000000682e+00 3.595600000000000307e+01 4.146600000000000108e+01 -8.546335678407583625e-02
-8.679999999999999716e+00 3.114799999999999969e+01 2.429400000000000048e+01 3.175645814999673577e-01
-8.663999999999999702e+00 3.028200000000000003e+01 3.595700000000000074e+01 2.730359902367811009e-01
-8.528000000000000469e+00 3.532000000000000028e+01 2.501200000000000045e+01 6.659681226645006169e-02
-8.398999999999999133e+00 3.124500000000000099e+01 3.671500000000000341e+01 2.868227983244737156e-01
-8.307999999999999829e+00 3.967300000000000182e+01 2.621300000000000097e+01 -2.478124115803460037e-01
-8.300000000000000711e+00 2.646900000000000119e+01 2.373100000000000165e+01 1.633585092139146766e-01
-8.257999999999999119e+00 3.232500000000000284e+01 1.711899999999999977e+01 -2.638701713078259736e-01
-8.146000000000000796e+00 3.942099999999999937e+01 2.772200000000000131e+01 7.886049410897896794e-02
-8.102000000000000313e+00 2.605099999999999838e+01 2.234900000000000020e+01 1.469376917143524197e-01
-8.092000000000000526e+00 2.629299999999999926e+01 2.610300000000000153e+01 9.274203532606034583e-02
-8.090999999999999304e+00 3.455799999999999983e+01 3.360999999999999943e+01 2.234022816874276229e-01
-8.064000000000000057e+00 4.118299999999999983e+01 3.584300000000000352e+01 -2.077404657941860078e-01
-8.002000000000000668e+00 2.474399999999999977e+01 2.793700000000000117e+01 -1.176604836996184289e-01
-7.924000000000000377e+00 3.381700000000000017e+01 1.863899999999999935e+01 -2.474130052249340073e-01
-7.902999999999999581e+00 2.571399999999999864e+01 2.471900000000000119e+01 1.845697225952603118e-02
-7.780000000000000249e+00 3.942999999999999972e+01 3.774000000000000199e+01 -2.412973863073344383e-01
-7.761000000000000121e+00 3.472800000000000153e+01 3.657699999999999818e+01 1.023026535826985634e-01
-7.722000000000000419e+00 2.836299999999999955e+01 4.306700000000000017e+01 -1.747299894280739396e-01
-7.639999999999999680e+00 2.917200000000000060e+01 3.578699999999999903e+01 4.126740687092757542e-01
-7.570000000000000284e+00 3.977400000000000091e+01 3.624399999999999977e+01 1.233161519956659929e-01
-7.556000000000000050e+00 3.275900000000000034e+01 1.806700000000000017e+01 -2.493513659379226755e-01
-7.519000000000000128e+00 2.452299999999999969e+01 2.460300000000000153e+01 3.534065180030248471e-02
-7.480999999999999872e+00 3.049500000000000099e+01 2.380699999999999861e+01 3.371989409235036650e-01
-7.437999999999999723e+00 3.214099999999999824e+01 1.363199999999999967e+01 -3.033255814113070548e-01
-7.416000000000000369e+00 3.837800000000000011e+01 4.155400000000000205e+01 -2.120244427215495775e-01
-7.407000000000000028e+00 2.830000000000000071e+01 2.184799999999999898e+01 3.132492143229584358e-01
-7.397000000000000242e+00 3.600600000000000023e+01 4.122099999999999653e+01 2.968673496910772050e-02
-7.352999999999999758e+00 2.708699999999999974e+01 2.152400000000000091e+01 3.411130969197579410e-01
-7.283000000000000362e+00 2.517699999999999960e+01 4.492699999999999960e+01 -3.921384337878200399e-01
-7.277000000000000135e+00 3.580199999999999960e+01 3.701299999999999812e+01 1.496837401309515370e-01
-7.270999999999999908e+00 2.748499999999999943e+01 4.188100000000000023e+01 -4.157877069567968431e-01
-7.266000000000000014e+00 3.186299999999999955e+01 4.057000000000000028e+01 -3.685794065963400590e-02
-7.209999999999999964e+00 3.204399999999999693e+01 2.759499999999999886e+01 3.705174240427125953e-01
-7.190000000000000391e+00 4.231199999999999761e+01 2.613800000000000168e+01 -2.730338198298178920e-01
-7.137999999999999901e+00 3.357099999999999795e+01 3.663499999999999801e+01 2.549805080501933441e-01
-7.137999999999999901e+00 3.838799999999999812e+01 2.794300000000000139e+01 -3.099481247025082098e-01
-7.084999999999999964e+00 2.305999999999999872e+01 4.249499999999999744e+01 -3.748372286782467588e-01
-7.075000000000000178e+00 2.887399999999999878e+01 3.717699999999999960e+01 -8.511944925993500388e-02
-7.051999999999999602e+00 3.570199999999999818e+01 2.503200000000000003e+01 2.033728683464732997e-02
-7.001000000000000334e+00 3.999799999999999756e+01 2.546600000000000108e+01 -2.124259232627661587e-01
-6.916000000000000369e+00 3.070200000000000173e+01 2.773300000000000054e+01 3.844912225113562010e-01
-6.902000000000000135e+00 3.206600000000000250e+01 3.120200000000000173e+01 3.755220853851399254e-01
-6.850999999999999979e+00 3.836800000000000210e+01 3.823700000000000188e+01 1.677814349266927296e-01
-6.746999999999999886e+00 2.923699999999999832e+01 3.132700000000000173e+01 9.384684296173229079e-02
-6.730000000000000426e+00 3.721500000000000341e+01 4.125699999999999790e+01 5.939576241238456872e-02
-6.721000000000000085e+00 2.766100000000000136e+01 1.798600000000000065e+01 1.465406374583518578e-01
-6.719999999999999751e+00 3.177100000000000080e+01 1.886299999999999955e+01 -1.065474871226041592e-01
-6.697000000000000064e+00 2.645299999999999940e+01 2.673499999999999943e+01 6.562697376093835910e-02
-6.642000000000000348e+00 -6.942999999999999616e+00 3.888799999999999812e+01 -1.337730192772469962e-01
-6.633000000000000007e+00 3.653000000000000114e+01 2.587900000000000134e+01 -2.742112676674209881e-01
-6.628000000000000114e+00 2.544399999999999906e+01 2.788100000000000023e+01 -1.285021093132337477e-01
-6.608999999999999986e+00 3.310199999999999676e+01 3.945300000000000296e+01 5.232879790431075456e-02
-6.552999999999999936e+00 3.047700000000000031e+01 1.806299999999999883e+01 1.032130976867112471e-01
-6.551000000000000156e+00 2.955600000000000094e+01 3.489399999999999835e+01 2.630155369840125323e-01
-6.467999999999999972e+00 2.344000000000000128e+01 4.121000000000000085e+01 -3.736083007442866366e-01
-6.416000000000000369e+00 2.660699999999999932e+01 2.073799999999999955e+01 3.442729269240235035e-01
-6.386000000000000121e+00 4.125600000000000023e+01 2.606500000000000128e+01 -2.840583253165868127e-01
-6.363999999999999879e+00 3.112900000000000134e+01 2.389600000000000080e+01 2.799999999999999711e-01
-6.341999999999999638e+00 3.525500000000000256e+01 2.401899999999999835e+01 -2.989114686546975701e-03
-6.339000000000000412e+00 3.561999999999999833e+00 4.157399999999999807e+01 -3.144829148360515081e-01
-6.259000000000000341e+00 3.233700000000000330e+01 2.421600000000000108e+01 1.712195347238008314e-01
-6.193999999999999950e+00 3.298700000000000188e+01 2.760699999999999932e+01 2.052274275081348021e-01
-6.189000000000000057e+00 2.748499999999999943e+01 3.407600000000000051e+01 8.716514504839485700e-02
-6.182999999999999829e+00 3.963499999999999801e+01 3.588600000000000279e+01 5.609067419036892904e-02
-6.181000000000000050e+00 3.276800000000000068e+01 1.393299999999999983e+01 -3.186256893689459746e-01
-6.174000000000000377e+00 3.843200000000000216e+01 2.883200000000000074e+01 -3.125417699852865439e-01
-6.113000000000000433e+00 -4.697000000000000064e+00 3.811899999999999977e+01 -1.323619946440473538e-01
-6.078000000000000291e+00 -5.844000000000000306e+00 3.544100000000000250e+01 -1.192981442475953974e-01
-6.070000000000000284e+00 3.146900000000000119e+01 3.233899999999999864e+01 1.730361248941527513e-02
-6.062000000000000277e+00 2.825300000000000011e+01 1.886799999999999855e+01 1.513014517866698161e-01
-6.057000000000000384e+00 3.139300000000000068e+01 1.592500000000000071e+01 -3.000736433255702940e-01
-6.011999999999999567e+00 2.953300000000000125e+01 1.900100000000000122e+01 -3.034651568092397965e-03
-5.974000000000000199e+00 2.507499999999999929e+01 4.505799999999999983e+01 -3.903088409429266714e-01
-5.935999999999999943e+00 2.871699999999999875e+01 3.408899999999999864e+01 2.321071742498427848e-01
-5.907000000000000028e+00 2.240000000000000213e+00 4.122800000000000153e+01 -3.315092529039001534e-01
-5.899000000000000021e+00 3.941799999999999926e+01 2.956700000000000017e+01 -3.039625593738429776e-01
-5.884999999999999787e+00 1.848000000000000087e+00 3.990200000000000102e+01 -3.358188847530498844e-01
-5.866999999999999993e+00 3.616799999999999926e+01 2.982100000000000151e+01 -5.975088454646345498e-02
-5.831000000000000405e+00 -3.846999999999999975e+00 3.928799999999999670e+01 -1.561367129926368724e-01
-5.825999999999999623e+00 3.075799999999999912e+01 4.056199999999999761e+01 1.158756597204619807e-02
-5.815000000000000391e+00 -6.171999999999999709e+00 3.833899999999999864e+01 -1.206112872286119186e-01
-5.796999999999999709e+00 3.247200000000000131e+01 3.832600000000000051e+01 3.092682029699159729e-01
-5.775000000000000355e+00 3.340599999999999881e+01 3.713600000000000279e+01 2.805868238193259812e-01
-5.753000000000000114e+00 2.761700000000000088e+01 4.168500000000000227e+01 -4.014877561195966393e-01
-5.645999999999999908e+00 3.854299999999999926e+01 3.877100000000000080e+01 1.254423872234155801e-01
-5.620000000000000107e+00 -4.685999999999999943e+00 3.561299999999999955e+01 -1.140773390577092261e-01
-5.612000000000000099e+00 3.005600000000000094e+01 3.196699999999999875e+01 -4.179908599955804022e-02
-5.596000000000000085e+00 3.030600000000000094e+01 2.786499999999999844e+01 1.376301533417144118e-01
-5.572000000000000064e+00 3.071199999999999974e+01 1.692000000000000171e+01 1.079263199554131303e-01
-5.509999999999999787e+00 1.354999999999999982e+00 4.221600000000000108e+01 -3.447028394127514273e-01
-5.503000000000000114e+00 2.754200000000000159e+01 2.008800000000000097e+01 3.529876904383449920e-01
-5.469999999999999751e+00 2.234299999999999997e+01 4.077199999999999847e+01 -3.740086098564412986e-01
-5.456000000000000405e+00 5.719999999999999529e-01 3.956900000000000261e+01 -3.543886302416958678e-01
-5.434999999999999609e+00 -3.823999999999999844e+00 3.462899999999999778e+01 -1.309287612058578909e-01
-5.402000000000000135e+00 2.387699999999999889e+01 4.500600000000000023e+01 -3.921299277387783055e-01
-5.304000000000000270e+00 3.180000000000000071e+01 1.474699999999999989e+01 -3.390488647300543557e-01
-5.283999999999999808e+00 3.719200000000000017e+01 2.882799999999999940e+01 -3.318166334049585386e-01
-5.264999999999999680e+00 2.608699999999999974e+01 4.553499999999999659e+01 -3.858441684894985402e-01
-5.232999999999999652e+00 3.727799999999999869e+01 4.090500000000000114e+01 -1.987342446032202281e-01
-5.219999999999999751e+00 3.683899999999999864e+01 3.463300000000000267e+01 2.233086777034227755e-01
-5.209999999999999964e+00 4.121500000000000341e+01 2.651399999999999935e+01 -2.721101509780157746e-01
-5.179000000000000270e+00 -4.201999999999999957e+00 3.699199999999999733e+01 -1.058942745265287477e-01
-5.171000000000000263e+00 2.677400000000000091e+01 4.054399999999999693e+01 -3.718478672382894978e-01
-5.142000000000000348e+00 -4.092999999999999972e+00 4.039900000000000091e+01 -1.702867975544362922e-01
-5.128000000000000114e+00 3.032999999999999829e+01 2.355099999999999838e+01 1.413725757609789468e-01
-5.091999999999999638e+00 3.965999999999999659e+01 3.892499999999999716e+01 9.928052931728345576e-02
-5.084999999999999964e+00 8.000000000000000167e-02 4.186999999999999744e+01 -3.729882911372250920e-01
-5.081000000000000405e+00 -3.063000000000000167e+00 4.401800000000000068e+01 -2.837335175288227540e-01
-5.057999999999999829e+00 5.591999999999999638e+00 3.990599999999999881e+01 -2.882619075389799002e-01
-5.054999999999999716e+00 -3.069999999999999951e-01 4.054899999999999949e+01 -3.848792780475265296e-01
-5.001000000000000334e+00 3.729800000000000182e+01 3.937700000000000244e+01 1.126666054857428934e-01
-4.987000000000000099e+00 3.574199999999999733e+01 2.373900000000000077e+01 -2.102113669838620302e-01
-4.918999999999999595e+00 3.159700000000000131e+01 3.581499999999999773e+01 2.899860897902654111e-01
-4.905999999999999694e+00 2.930999999999999872e+01 3.311899999999999977e+01 -3.899559695977521112e-02
-4.886000000000000121e+00 -2.814000000000000057e+00 4.118900000000000006e+01 -3.095288384917006530e-01
-4.881999999999999673e+00 3.259199999999999875e+01 2.773400000000000176e+01 -7.622944372715871608e-02
-4.812999999999999723e+00 3.280299999999999727e+01 3.613300000000000267e+01 -1.259731246997902211e-02
-4.799999999999999822e+00 3.593699999999999761e+01 3.089600000000000080e+01 -3.065891026212660408e-01
-4.758000000000000007e+00 2.938599999999999923e+01 2.471799999999999997e+01 1.039391684248993919e-01
-4.597999999999999865e+00 -6.464000000000000412e+00 3.798100000000000165e+01 -1.458444767677401777e-01
-4.591000000000000192e+00 -1.719000000000000083e+00 4.014200000000000301e+01 -1.932561743152937939e-01
-4.589999999999999858e+00 2.276000000000000156e+01 3.957300000000000040e+01 -2.691598806828250368e-01
-4.583000000000000185e+00 3.125400000000000134e+01 2.786499999999999844e+01 1.224003162942561007e-01
-4.564000000000000057e+00 -5.163000000000000256e+00 4.072500000000000142e+01 -1.585883549506331147e-01
-4.544999999999999929e+00 3.237700000000000244e+01 4.369299999999999784e+01 -3.135711609717808240e-02
-4.530000000000000249e+00 2.705000000000000071e+01 2.380399999999999849e+01 1.605778451045358213e-01
-4.504999999999999893e+00 3.354899999999999949e+01 4.231600000000000250e+01 7.289105217610818144e-02
-4.407000000000000028e+00 3.023900000000000077e+01 1.695299999999999940e+01 3.867648780653319684e-02
-4.355999999999999872e+00 3.886200000000000188e+01 3.335199999999999676e+01 -1.178120520164313845e-01
-4.325000000000000178e+00 4.152000000000000135e+00 4.352499999999999858e+01 -2.875154043278074223e-01
-4.200000000000000178e+00 2.717200000000000060e+01 2.972500000000000142e+01 3.137366987674090890e-02
-4.171999999999999709e+00 3.332399999999999807e+01 1.618499999999999872e+01 -2.777773437228490683e-01
-4.089000000000000412e+00 -8.567000000000000171e+00 3.686699999999999733e+01 -1.786728647260642511e-01
-4.072000000000000064e+00 3.446900000000000119e+01 2.554100000000000037e+01 2.786267393461414055e-02
-4.062999999999999723e+00 2.829299999999999926e+01 3.251100000000000279e+01 -5.400767926201806290e-02
-4.060999999999999943e+00 3.052499999999999858e+01 2.095599999999999952e+01 6.396972970443115525e-02
-4.041000000000000369e+00 3.123699999999999832e+01 2.314000000000000057e+01 1.836886592145096087e-01
-4.030999999999999694e+00 2.710699999999999932e+01 1.994000000000000128e+01 3.598510079955959950e-01
-4.030999999999999694e+00 3.252400000000000091e+01 1.515700000000000003e+01 -3.072123251741892824e-01
-3.988999999999999879e+00 3.766899999999999693e+01 3.425000000000000000e+01 6.559690380339180948e-02
-3.980999999999999872e+00 3.558599999999999852e+01 2.487699999999999889e+01 6.889234862366357126e-02
-3.954000000000000181e+00 -2.982000000000000206e+00 4.346600000000000108e+01 -2.824653122738579047e-01
-3.910000000000000142e+00 2.820200000000000173e+01 2.422500000000000142e+01 -9.140978278683992153e-02
-3.899000000000000021e+00 -7.733999999999999986e+00 3.814399999999999835e+01 -1.861178150408079324e-01
-3.896999999999999797e+00 2.585399999999999920e+01 4.600500000000000256e+01 -3.793315822784294467e-01
-3.886000000000000121e+00 3.746900000000000119e+01 2.922800000000000153e+01 -3.242897294704395472e-01
-3.874000000000000110e+00 6.105999999999999872e+00 3.963499999999999801e+01 -6.582738012936693861e-02
-3.871999999999999886e+00 3.361899999999999977e+01 3.573299999999999699e+01 1.317562771220762985e-01
-3.819999999999999840e+00 2.592999999999999972e+01 1.896699999999999875e+01 3.543980419107798929e-01
-3.789000000000000146e+00 2.732000000000000028e+01 4.012199999999999989e+01 -2.861752513413168275e-01
-3.783999999999999808e+00 2.598900000000000077e+01 2.330499999999999972e+01 1.347496596205389752e-01
-3.778000000000000025e+00 -2.883000000000000007e+00 4.215999999999999659e+01 -1.756169031453913565e-01
-3.771999999999999797e+00 3.365599999999999881e+01 2.787399999999999878e+01 -3.887680918012804965e-02
-3.758000000000000007e+00 7.389000000000000234e+00 3.935799999999999699e+01 1.959683284381267265e-01
-3.745000000000000107e+00 2.449800000000000111e+01 4.292199999999999704e+01 -4.047261879195008238e-01
-3.678999999999999826e+00 3.479500000000000171e+01 1.807000000000000028e+01 -9.359556532658480643e-02
-3.653999999999999915e+00 -7.793999999999999595e+00 3.574099999999999966e+01 -1.749318399754696829e-01
-3.613999999999999879e+00 3.125400000000000134e+01 2.187699999999999889e+01 7.120980495083104045e-02
-3.572000000000000064e+00 3.677900000000000347e+01 3.049800000000000111e+01 -3.020302872101953140e-01
-3.549999999999999822e+00 3.725300000000000011e+01 3.917000000000000171e+01 -9.850689037737636947e-03
-3.475999999999999979e+00 3.504200000000000159e+01 3.867499999999999716e+01 -8.618250567476093416e-02
-3.415000000000000036e+00 3.365299999999999869e+01 2.161799999999999855e+01 -4.577075687735335935e-02
-3.379999999999999893e+00 2.512900000000000134e+01 3.534499999999999886e+01 -3.344557074608303648e-01
-3.373000000000000220e+00 2.660200000000000031e+01 3.891700000000000159e+01 -3.344833101487347804e-01
-3.315999999999999837e+00 2.190599999999999881e+01 3.957099999999999795e+01 -2.666360402740383106e-01
-3.294999999999999929e+00 3.874600000000000222e+01 2.742800000000000082e+01 -1.564469248389438738e-01
-3.283999999999999808e+00 4.255700000000000216e+01 3.018400000000000105e+01 -2.775627816594868347e-01
-3.278000000000000025e+00 3.361999999999999744e+01 3.334400000000000119e+01 3.302762282350004130e-01
-3.202999999999999847e+00 3.812500000000000000e+01 3.548599999999999710e+01 7.119175004763342307e-02
-3.180000000000000160e+00 2.471300000000000097e+01 1.966799999999999926e+01 3.572494124369830493e-01
-3.153000000000000025e+00 2.394900000000000162e+01 3.630700000000000216e+01 -3.295058547709118213e-01
-3.150999999999999801e+00 2.244699999999999918e+01 4.331199999999999761e+01 -4.048969826964696206e-01
-3.113999999999999879e+00 3.414500000000000313e+01 1.678999999999999915e+01 -9.909943265566956150e-02
-3.097999999999999865e+00 3.409100000000000108e+01 2.655799999999999983e+01 -2.725504212200786230e-02
-3.053999999999999826e+00 3.642099999999999937e+01 2.503600000000000136e+01 -5.475846584556324365e-02
-3.045999999999999819e+00 2.633299999999999841e+01 1.768799999999999883e+01 -1.030234220039447646e-01
-3.035000000000000142e+00 3.819400000000000261e+01 2.852299999999999969e+01 -1.404903975876549138e-01
-3.023000000000000131e+00 3.147400000000000020e+01 4.333899999999999864e+01 3.734042923936556520e-03
-3.016000000000000014e+00 4.201999999999999957e+00 4.367600000000000193e+01 -2.715549373944460276e-01
-2.982000000000000206e+00 2.733999999999999986e+01 2.945400000000000063e+01 -2.142738422582714242e-01
-2.978000000000000203e+00 3.846000000000000085e+00 3.972399999999999665e+01 -2.601143147475551975e-01
-2.954000000000000181e+00 2.696199999999999974e+01 4.554299999999999926e+01 -1.060553214922411724e-01
-2.947000000000000064e+00 3.225300000000000011e+01 1.458999999999999986e+01 -1.590178114658188369e-01
-2.910000000000000142e+00 3.640699999999999648e+01 1.967500000000000071e+01 -1.212178923004254144e-01
-2.904999999999999805e+00 3.614300000000000068e+01 3.886999999999999744e+01 9.346250258889850920e-03
-2.874000000000000110e+00 7.073000000000000398e+00 5.151800000000000068e+01 -3.843143828782398796e-01
-2.843999999999999861e+00 5.294999999999999929e+00 3.951800000000000068e+01 -4.259273930526562280e-02
-2.830999999999999961e+00 2.364300000000000068e+01 4.307399999999999807e+01 -4.087379165877731424e-01
-2.814999999999999947e+00 3.326599999999999824e+01 3.478699999999999903e+01 1.945222588009163645e-01
-2.794000000000000039e+00 2.843799999999999883e+01 3.241299999999999670e+01 3.256143129898548400e-02
-2.793000000000000149e+00 2.717399999999999949e+01 4.127300000000000324e+01 -2.746459926021075360e-01
-2.774000000000000021e+00 -4.552999999999999936e+00 4.820199999999999818e+01 -2.578234362929285317e-01
-2.750999999999999890e+00 3.591599999999999682e+01 1.852799999999999869e+01 -9.874719711329435490e-02
-2.749000000000000110e+00 -3.673000000000000043e+00 4.553900000000000148e+01 -2.487129023984925025e-01
-2.714999999999999858e+00 -2.729000000000000092e+00 4.432099999999999795e+01 -2.586284667077288768e-01
-2.642999999999999794e+00 3.235499999999999687e+01 2.149500000000000099e+01 1.367039930842194884e-01
-2.625999999999999890e+00 -1.330000000000000071e+00 4.477799999999999869e+01 -2.530351759405192191e-01
-2.608999999999999986e+00 4.025900000000000034e+01 3.039799999999999969e+01 -1.465272583800715858e-02
-2.608000000000000096e+00 2.633099999999999952e+01 3.590599999999999881e+01 -3.473345010027909519e-01
-2.561999999999999833e+00 2.609700000000000131e+01 2.734600000000000009e+01 -4.419142036696818709e-02
-2.557999999999999829e+00 5.402999999999999581e+00 5.304099999999999682e+01 -3.697962137259445115e-01
-2.544999999999999929e+00 2.748100000000000165e+01 2.799899999999999878e+01 -2.430159995037181608e-01
-2.544000000000000039e+00 2.831599999999999895e+01 2.413500000000000156e+01 -2.488862752440456835e-02
-2.503000000000000114e+00 2.816199999999999903e+01 4.199099999999999966e+01 -1.719695740726706334e-01
-2.467000000000000082e+00 4.174600000000000222e+01 3.069000000000000128e+01 3.927387525075427821e-02
-2.440999999999999837e+00 3.468099999999999739e+01 2.165299999999999869e+01 -1.731793750568899615e-01
-2.436999999999999833e+00 3.270999999999999908e+00 4.473799999999999955e+01 -4.388525649389052319e-01
-2.416999999999999815e+00 -7.429000000000000270e+00 3.830299999999999727e+01 -2.123837167815469384e-01
-2.407999999999999918e+00 2.610000000000000142e+01 2.321900000000000119e+01 1.742414345078900362e-01
-2.394000000000000128e+00 4.268500000000000227e+01 3.801899999999999835e+01 -1.216337128386509384e-02
-2.376999999999999780e+00 1.830999999999999961e+00 4.418900000000000006e+01 -2.826009103205603945e-01
-2.373000000000000220e+00 3.064000000000000057e+01 4.446600000000000108e+01 -2.332274268710309850e-01
-2.298999999999999932e+00 2.443299999999999983e+01 3.740599999999999881e+01 -2.367750794947690030e-01
-2.297000000000000153e+00 2.225199999999999889e+01 3.848100000000000165e+01 -2.072747708507001740e-01
-2.289000000000000146e+00 3.232999999999999829e+01 2.510200000000000031e+01 1.534093947199927643e-01
-2.253000000000000114e+00 2.597200000000000131e+01 4.136999999999999744e+01 -3.818069125864271274e-01
-2.245999999999999996e+00 4.823999999999999844e+00 4.290100000000000335e+01 -2.082216205143463950e-02
-2.230999999999999872e+00 3.329699999999999704e+01 3.225200000000000244e+01 -1.056953896837455609e-01
-2.213999999999999968e+00 2.677899999999999991e+01 3.832800000000000296e+01 -2.184370531706318896e-01
-2.205000000000000071e+00 3.221800000000000352e+01 2.010999999999999943e+01 -2.139465990605596557e-01
-2.196000000000000174e+00 3.052499999999999858e+01 4.916499999999999915e+01 2.701116637113468721e-01
