1.560500000000000043e+01 -5.724000000000000199e+00 1.072899999999999920e+01 1.912556878581220254e-01
1.562599999999999945e+01 -1.342200000000000060e+01 1.417699999999999960e+01 -5.788037302513335952e-02
1.564799999999999969e+01 -6.113999999999999879e+00 4.506999999999999673e+00 1.019085370132917223e-01
1.568999999999999950e+01 -5.687999999999999723e+00 1.729400000000000048e+01 9.925910633410504891e-02
1.571899999999999942e+01 1.173099999999999987e+01 -8.870000000000000107e-01 -1.293515952184872142e-01
1.580499999999999972e+01 4.596000000000000085e+00 1.923000000000000043e+00 2.102840434500858335e-01
1.581099999999999994e+01 -9.891000000000000014e+00 7.041999999999999815e+00 2.482792163869901314e-02
1.582600000000000051e+01 1.596000000000000085e+00 1.607199999999999918e+01 -1.349414185614917772e-01
1.582699999999999996e+01 1.532499999999999929e+01 -4.637999999999999901e+00 -7.071887466203598260e-02
1.585599999999999987e+01 -4.184999999999999609e+00 6.625000000000000000e+00 1.808470073250066090e-01
1.586800000000000033e+01 8.493000000000000327e+00 2.116999999999999993e+00 2.083983905070881659e-01
1.587500000000000000e+01 8.189999999999999503e+00 -1.483099999999999952e+01 -1.899487143711099946e-01
1.588100000000000023e+01 4.304999999999999716e+00 -1.091600000000000037e+01 1.116682287209629781e-01
1.588700000000000045e+01 -7.937000000000000277e+00 -3.067000000000000171e+00 -2.432708881611292673e-01
1.592399999999999949e+01 5.729000000000000092e+00 -6.491999999999999993e+00 6.816261713612025808e-05
1.595100000000000051e+01 1.123300000000000054e+01 2.443999999999999950e+00 3.658796618860477023e-01
1.595199999999999996e+01 7.064000000000000057e+00 1.574000000000000066e+00 8.133201795551975311e-02
1.609199999999999875e+01 7.650000000000000133e-01 -6.761999999999999567e+00 3.579158066779730696e-01
1.610900000000000176e+01 -1.067600000000000016e+01 2.089900000000000091e+01 -3.236678669759623372e-01
1.611400000000000077e+01 1.260200000000000031e+01 1.080000000000000071e+01 2.341611013488889559e-02
1.612099999999999866e+01 -1.993000000000000105e+00 5.488999999999999879e+00 3.800000000000000044e-01
1.613400000000000034e+01 -5.184000000000000163e+00 9.869999999999999885e-01 -2.142251015328994757e-01
1.614799999999999969e+01 -9.955000000000000071e+00 -6.687999999999999723e+00 -1.772925670133010112e-01
1.614999999999999858e+01 4.642000000000000348e+00 2.151999999999999957e+01 6.799083947995544774e-02
1.617899999999999849e+01 9.744999999999999218e+00 -9.397999999999999687e+00 -5.387487309349658915e-02
1.618199999999999861e+01 6.216999999999999638e+00 6.788999999999999702e+00 2.921839081567122465e-01
1.619000000000000128e+01 1.991999999999999993e+00 -6.844999999999999751e+00 3.057755302279057674e-01
1.624500000000000099e+01 7.269000000000000128e+00 7.900999999999999801e+00 1.946938672847020046e-01
1.625000000000000000e+01 5.040000000000000036e+00 -5.160999999999999588e+00 -1.364601480958929983e-02
1.626599999999999824e+01 -1.352699999999999925e+01 1.533000000000000007e+01 -1.712912385346704036e-01
1.627700000000000102e+01 9.454000000000000625e+00 1.102999999999999980e+00 2.379434660354288467e-01
1.628600000000000136e+01 -1.278200000000000003e+01 1.305700000000000038e+01 2.956189555287938031e-01
1.628999999999999915e+01 8.509999999999999787e+00 4.479000000000000092e+00 2.333198181652207936e-01
1.629299999999999926e+01 1.075900000000000034e+01 1.354999999999999982e+00 2.607898482166793319e-01
1.630300000000000082e+01 5.964000000000000412e+00 2.150600000000000023e+01 7.677080493550329787e-02
1.630600000000000094e+01 -8.573999999999999844e+00 -6.565999999999999837e+00 -1.741272797762990487e-01
1.630600000000000094e+01 1.233500000000000085e+01 7.323000000000000398e+00 3.767647568812505093e-02
1.631200000000000117e+01 -1.342600000000000016e+01 1.979999999999999982e+00 -2.056425701874739151e-02
1.631299999999999883e+01 3.084000000000000075e+00 1.953500000000000014e+01 -7.907992464995145659e-03
1.633500000000000085e+01 8.441000000000000725e+00 -1.008099999999999952e+01 -2.389641653799793874e-01
1.633699999999999974e+01 -1.616700000000000159e+01 1.770499999999999829e+01 -1.903053149208773775e-01
1.634600000000000009e+01 -7.318999999999999950e+00 1.868400000000000105e+01 -3.531487956774256309e-01
1.636400000000000077e+01 2.088999999999999968e+00 1.733399999999999963e+01 -4.299399224945169018e-02
1.637300000000000111e+01 -1.325500000000000078e+01 1.068800000000000061e+01 1.585350955004182633e-02
1.639799999999999969e+01 6.380000000000000115e-01 1.383000000000000007e+01 3.099014489903124669e-01
1.641700000000000159e+01 -1.375699999999999967e+01 1.191000000000000014e+01 -2.648263421902091741e-02
1.642399999999999949e+01 -1.414700000000000024e+01 9.550000000000000711e+00 1.123827609314217851e-01
1.644699999999999918e+01 1.207799999999999940e+01 6.129999999999999893e+00 2.410680599064371210e-01
1.650199999999999889e+01 1.128800000000000026e+01 1.141900000000000048e+01 1.225621214785804769e-01
1.651500000000000057e+01 -6.854000000000000092e+00 1.118200000000000038e+01 2.983744681863523818e-01
1.652400000000000091e+01 -1.236800000000000033e+01 7.953000000000000291e+00 1.847186117538443528e-01
1.653300000000000125e+01 -1.494200000000000017e+01 1.723400000000000176e+01 -1.615150117967283916e-01
1.653600000000000136e+01 -9.022999999999999687e+00 3.819999999999999840e+00 2.069354013059430952e-01
1.653699999999999903e+01 1.794999999999999929e+00 8.118999999999999773e+00 3.575636919414047488e-01
1.653900000000000148e+01 -9.489000000000000767e+00 2.435999999999999943e+00 -5.979600523492652198e-02
1.655900000000000105e+01 -6.238000000000000433e+00 1.813700000000000045e+01 -1.632039793863047580e-02
1.657600000000000051e+01 3.931000000000000050e+00 2.243700000000000117e+01 4.231235968840129508e-02
1.660000000000000142e+01 -1.494800000000000040e+01 1.212199999999999989e+01 -2.718599225194189700e-02
1.660099999999999909e+01 -5.113000000000000433e+00 -4.306000000000000050e+00 -2.724129467137276772e-01
1.663299999999999912e+01 -6.812999999999999723e+00 1.271700000000000053e+01 2.997988386051345655e-01
1.664900000000000091e+01 5.413000000000000256e+00 1.807300000000000040e+01 1.071517567213880855e-02
1.666000000000000014e+01 -6.121999999999999886e+00 -1.620000000000000107e+00 -9.865305831134849046e-02
1.672899999999999920e+01 8.875999999999999446e+00 -4.100999999999999979e+00 2.932146119839933451e-01
1.675300000000000011e+01 -1.201699999999999946e+01 -7.740999999999999659e+00 -2.799292164377296110e-01
1.676099999999999923e+01 -9.153000000000000469e+00 6.232999999999999652e+00 7.191169553254939117e-02
1.676399999999999935e+01 8.618000000000000327e+00 3.349000000000000199e+00 2.231330467500070858e-01
1.676800000000000068e+01 1.166399999999999970e+01 2.069999999999999896e-01 -4.293563973202194767e-02
1.677499999999999858e+01 2.166999999999999815e+00 9.445999999999999730e+00 3.606754671560917780e-01
1.680499999999999972e+01 -3.306000000000000050e+00 5.807999999999999829e+00 3.800000000000000044e-01
1.680600000000000094e+01 -9.813000000000000611e+00 4.858999999999999986e+00 1.295304006681141651e-01
1.683200000000000074e+01 9.016999999999999460e+00 -1.719999999999999973e+00 3.363748620661873717e-02
1.688800000000000168e+01 1.471400000000000041e+01 5.269999999999999574e+00 2.173125605827136708e-01
1.690500000000000114e+01 -1.065700000000000003e+01 -7.621000000000000441e+00 -1.863389013536459471e-01
1.693199999999999861e+01 -1.348399999999999999e+01 8.279999999999999361e+00 3.407014828527332034e-02
1.693599999999999994e+01 -1.205000000000000071e+01 1.489999999999999936e-01 -3.499999999999999778e-01
1.696600000000000108e+01 1.221000000000000085e+00 1.511200000000000010e+01 9.360338529703764177e-02
1.699299999999999855e+01 -6.926999999999999602e+00 -2.785000000000000142e+00 -2.588356596868771620e-01
1.699599999999999866e+01 1.561700000000000088e+01 -4.309999999999999609e+00 1.288339580767271786e-01
1.703900000000000148e+01 -1.445299999999999940e+01 2.858999999999999986e+00 -7.405299040739518612e-02
1.704700000000000060e+01 -7.299999999999999545e-02 -7.147000000000000242e+00 -8.245290964454757981e-03
1.706099999999999994e+01 -1.101099999999999923e+01 4.753999999999999559e+00 1.010635591979927722e-01
1.709299999999999997e+01 -4.483999999999999986e+00 1.300000000000000044e-01 -2.761453153148644701e-01
1.721300000000000097e+01 -7.881000000000000227e+00 -7.363999999999999879e+00 -2.021207730412972747e-01
1.722299999999999898e+01 6.344999999999999751e+00 -6.980999999999999872e+00 5.709524381197818993e-02
1.723600000000000065e+01 -6.126999999999999780e+00 -4.064000000000000057e+00 -2.786600059172047450e-01
1.725499999999999901e+01 -1.246700000000000053e+01 1.280000000000000027e+00 -3.499999999999999778e-01
1.727499999999999858e+01 1.356400000000000006e+01 1.086800000000000033e+01 9.477141966471629153e-02
1.728300000000000125e+01 8.506999999999999673e+00 -2.744000000000000217e+00 1.242570349036733468e-01
1.730699999999999861e+01 7.546999999999999709e+00 -7.232999999999999652e+00 3.712341913164629581e-02
1.731700000000000017e+01 -1.816499999999999915e+01 -2.099999999999999922e-01 -3.500000000000000888e-01
1.740099999999999980e+01 -1.309600000000000009e+01 1.549799999999999933e+01 -5.902974123372027593e-02
1.741700000000000159e+01 -3.443999999999999950e+00 1.953600000000000136e+01 -6.758024223560035737e-02
1.742200000000000060e+01 -6.392000000000000348e+00 -7.193999999999999950e+00 -1.811990688188062359e-01
1.743299999999999983e+01 -1.896600000000000108e+01 -4.073000000000000398e+00 8.709896883201388718e-03
1.744500000000000028e+01 -1.622599999999999909e+01 1.272999999999999909e+00 1.181236518026316726e-02
1.746099999999999852e+01 6.062999999999999723e+00 1.168399999999999928e+01 3.431308158226947236e-01
1.747200000000000131e+01 1.360000000000000098e-01 -1.143999999999999950e+01 1.522172936049384362e-01
1.748000000000000043e+01 1.274099999999999966e+01 -8.070999999999999730e+00 -1.020736078509591332e-01
1.749800000000000111e+01 -1.675300000000000011e+01 1.848799999999999955e+01 -2.372940306857099224e-01
1.750499999999999901e+01 2.642999999999999794e+00 -2.333000000000000185e+00 2.881579180150225516e-01
1.751699999999999946e+01 5.500000000000000000e+00 6.690999999999999837e+00 2.657159032224593043e-01
1.752899999999999991e+01 -5.256999999999999673e+00 -1.112000000000000099e+00 -1.967281668138977924e-01
1.753600000000000136e+01 -1.127999999999999892e+00 -4.373000000000000220e+00 1.618783793902714707e-01
1.754400000000000048e+01 -2.476999999999999869e+00 -2.568000000000000060e+00 2.011795442667053124e-01
1.754899999999999949e+01 -1.408300000000000018e+01 -4.238000000000000433e+00 -3.499999999999999778e-01
1.758500000000000085e+01 3.734999999999999876e+00 1.922599999999999909e+01 1.622958254818081605e-02
1.759299999999999997e+01 -3.250000000000000111e-01 -1.001099999999999923e+01 1.174360186677111811e-01
1.759900000000000020e+01 1.701999999999999957e+00 7.224000000000000199e+00 3.740675370516034492e-01
1.760399999999999920e+01 -7.557000000000000384e+00 1.475999999999999979e+00 1.483956881402094252e-01
1.761499999999999844e+01 -1.378400000000000070e+01 4.016000000000000014e+00 2.253041123692283987e-01
1.762000000000000099e+01 -1.567200000000000060e+01 5.222000000000000419e+00 -1.781486428165748592e-01
1.764000000000000057e+01 -1.450200000000000067e+01 2.006800000000000139e+01 -3.399664708437840632e-01
1.764099999999999824e+01 -8.778000000000000469e+00 1.653000000000000025e+00 1.838060748717233739e-01
1.764199999999999946e+01 4.860000000000000320e+00 1.852499999999999858e+01 3.407011434425673974e-02
1.766100000000000136e+01 1.361999999999999922e+01 4.544999999999999929e+00 1.987521520015842480e-01
1.773600000000000065e+01 -2.032900000000000063e+01 1.768000000000000016e+00 -3.320570961394406911e-02
1.777599999999999980e+01 1.235399999999999920e+01 5.429000000000000270e+00 2.098810324156810958e-01
1.780699999999999861e+01 -9.996000000000000441e+00 -8.423000000000000043e+00 -1.935569068758337952e-01
1.780699999999999861e+01 -1.893999999999999906e+00 1.874000000000000110e+00 3.800000000000000044e-01
1.781400000000000006e+01 9.320999999999999730e+00 -4.950999999999999623e+00 7.430896124908994982e-02
1.782300000000000040e+01 -1.417399999999999949e+01 7.570000000000000284e+00 1.706876652919214477e-01
1.783099999999999952e+01 -1.446000000000000085e+01 5.134000000000000341e+00 -2.196000183028722630e-01
1.783299999999999841e+01 2.451000000000000068e+00 1.483699999999999974e+01 2.397000253687987109e-02
1.786899999999999977e+01 -5.488000000000000433e+00 1.840800000000000125e+01 -5.754244310492471343e-02
1.787800000000000011e+01 -6.713000000000000078e+00 1.052399999999999913e+01 4.062216495608118594e-01
1.789600000000000080e+01 -4.852999999999999758e+00 1.980600000000000094e+01 -5.666107425831188454e-02
1.795700000000000074e+01 -3.791999999999999815e+00 -6.812000000000000277e+00 -2.720909094896976077e-01
1.795799999999999841e+01 -8.608000000000000540e+00 -8.292999999999999261e+00 -2.157743900425504457e-01
1.800199999999999889e+01 -1.948199999999999932e+01 -4.380000000000000004e-01 -2.719562337947682880e-03
1.800400000000000134e+01 1.112400000000000055e+01 -3.300000000000000155e-01 -3.734036740858442775e-03
1.800600000000000023e+01 -1.528299999999999947e+01 2.028000000000000025e+00 -2.524733294661057198e-02
1.805399999999999849e+01 8.862999999999999545e+00 3.128000000000000114e+00 2.459170189720417954e-01
1.807100000000000151e+01 -1.735099999999999909e+01 -5.410999999999999588e+00 -3.499999999999999778e-01
1.807499999999999929e+01 2.442000000000000171e+00 9.864000000000000767e+00 2.804398276916491017e-01
1.809799999999999898e+01 -3.069999999999999840e+00 6.567000000000000171e+00 3.800000000000000044e-01
1.809799999999999898e+01 8.125999999999999446e+00 1.290099999999999980e+01 1.046013712225699610e-01
1.811499999999999844e+01 -3.335999999999999854e+00 2.217000000000000082e+00 3.800000000000000044e-01
1.812199999999999989e+01 8.269999999999999574e-01 -9.150999999999999801e+00 9.516991872902816341e-02
1.813400000000000034e+01 -1.887000000000000011e+00 -3.605999999999999872e+00 2.092431537518102957e-01
1.814600000000000080e+01 -9.182999999999999829e+00 6.884000000000000341e+00 3.799999999999998934e-01
1.814799999999999969e+01 -3.072000000000000064e+00 1.825199999999999889e+01 -1.119134834564897707e-01
1.816400000000000148e+01 -6.620000000000000107e+00 -4.878000000000000114e+00 -1.696700697157946802e-01
1.818700000000000117e+01 1.121499999999999986e+01 4.626999999999999780e+00 2.472815093794447638e-01
1.819300000000000139e+01 1.246599999999999930e+01 -6.769000000000000128e+00 -1.755180248492551054e-01
1.821499999999999986e+01 -4.360999999999999766e+00 1.753099999999999881e+01 -1.114998905874859114e-01
1.822500000000000142e+01 -1.711400000000000077e+01 4.189999999999999836e-01 -1.035787720228353338e-02
1.822800000000000153e+01 5.474000000000000199e+00 -7.078999999999999737e+00 2.736132582167058458e-01
1.824899999999999878e+01 -1.240700000000000003e+01 -2.645000000000000018e+00 -2.162467630296079774e-02
1.828600000000000136e+01 7.633000000000000007e+00 -2.750999999999999890e+00 1.299996710852124315e-01
1.828900000000000148e+01 -1.584299999999999997e+01 -1.612000000000000099e+00 -9.731929666894321984e-02
1.829899999999999949e+01 -1.210999999999999943e+01 1.858999999999999986e+00 2.617144933674154239e-01
1.829899999999999949e+01 1.107799999999999940e+01 -3.621999999999999886e+00 6.095159330989204788e-02
1.830600000000000094e+01 4.069999999999999729e-01 -7.692999999999999616e+00 -1.572909826862949750e-02
1.832000000000000028e+01 -1.833699999999999974e+01 -4.687999999999999723e+00 -3.499999999999999778e-01
1.833800000000000097e+01 -4.142999999999999794e+00 9.419999999999999485e-01 3.800000000000000044e-01
1.835600000000000165e+01 1.393999999999999906e+00 -2.555000000000000160e+00 3.489670518967240287e-02
1.836100000000000065e+01 -5.562000000000000277e+00 1.563899999999999935e+01 1.612244222801487159e-01
1.838299999999999912e+01 -1.366399999999999970e+01 6.317000000000000171e+00 -2.654153871571360845e-01
1.840899999999999892e+01 1.310699999999999932e+01 9.976000000000000867e+00 1.668812971835690884e-01
1.845400000000000063e+01 -4.477999999999999758e+00 1.622299999999999898e+01 -1.600484274566789655e-01
1.849599999999999866e+01 6.711999999999999744e+00 1.257600000000000051e+01 2.503015936541926889e-01
1.849699999999999989e+01 -6.027999999999999581e+00 -6.160999999999999588e+00 -1.822511306749475535e-01
1.852799999999999869e+01 1.039199999999999946e+01 -4.620000000000000107e+00 2.439766935619350208e-02
1.852899999999999991e+01 -1.532999999999999918e+00 -9.913999999999999702e+00 -2.189402574621391595e-01
1.853600000000000136e+01 -1.313799999999999990e+01 -9.253000000000000114e+00 -1.321624512556223707e-01
1.854799999999999827e+01 -2.005300000000000082e+01 8.549999999999999822e-01 -3.520733936283577947e-02
1.857199999999999918e+01 -1.340499999999999936e+01 -3.732000000000000206e+00 -3.824628082240520005e-02
1.860600000000000165e+01 -1.477599999999999980e+01 1.934600000000000009e+01 -3.464422725236433465e-01
1.861100000000000065e+01 -9.544999999999999929e+00 1.169000000000000039e+00 -1.948092518909887993e-01
1.861400000000000077e+01 1.009800000000000075e+01 5.193999999999999950e+00 2.776278419243498052e-01
1.862699999999999889e+01 -1.583600000000000030e+01 1.853800000000000026e+01 -2.269804669516087559e-01
1.863899999999999935e+01 -5.056000000000000050e+00 -1.612999999999999989e+00 -1.715315971207053147e-01
1.867099999999999937e+01 5.947000000000000064e+00 1.389100000000000001e+01 7.631577659436145078e-02
1.867299999999999827e+01 -4.524000000000000021e+00 -6.126999999999999780e+00 -2.810959974940930861e-01
1.867899999999999849e+01 7.069999999999999618e-01 -1.229999999999999982e+00 3.562645863969434584e-02
1.869999999999999929e+01 9.955999999999999517e+00 6.419999999999999929e+00 3.661733199771433078e-01
1.875799999999999912e+01 -3.394000000000000128e+00 1.397100000000000009e+01 4.027311318046064015e-01
1.876000000000000156e+01 -9.420999999999999375e+00 -3.749000000000000110e+00 -2.496836274850953163e-01
1.881200000000000117e+01 -3.182999999999999829e+00 1.548199999999999932e+01 1.836607788738045810e-01
1.884400000000000119e+01 1.566999999999999948e+00 -6.871000000000000441e+00 3.235322196407534046e-01
1.889000000000000057e+01 1.977999999999999980e+00 7.655000000000000249e+00 3.967110729381557177e-01
1.891700000000000159e+01 6.125000000000000000e+00 -9.852000000000000313e+00 -1.074679479463980236e-01
1.892200000000000060e+01 -2.120000000000000107e+00 1.319400000000000084e+01 4.178324858440141121e-01
1.892599999999999838e+01 -1.631800000000000139e+01 -6.730000000000000426e-01 -1.031528300547257804e-01
1.894200000000000017e+01 7.174000000000000377e+00 -1.532000000000000028e+00 -6.341108769514995636e-02
1.896199999999999974e+01 -2.402000000000000135e+00 1.143900000000000006e+01 3.624926674465870358e-01
1.896499999999999986e+01 -7.075999999999999623e+00 5.855000000000000426e+00 3.800000000000000044e-01
1.897500000000000142e+01 6.076999999999999957e+00 1.696999999999999886e+01 -1.344857050634417073e-01
1.899699999999999989e+01 2.181999999999999940e+00 1.391399999999999970e+01 3.589068814058434809e-01
1.899899999999999878e+01 8.978999999999999204e+00 4.235000000000000320e+00 4.031479620311243517e-01
1.900400000000000134e+01 8.252000000000000668e+00 6.029999999999999805e-01 1.102270182812303545e-01
1.902100000000000080e+01 5.435999999999999943e+00 1.827199999999999847e+01 -2.758870968788019670e-02
1.903500000000000014e+01 1.119800000000000040e+01 -6.897000000000000242e+00 -1.367624203595246488e-02
1.905099999999999838e+01 1.306999999999999940e+00 -5.584999999999999964e+00 8.258526679956021410e-02
1.905900000000000105e+01 2.669000000000000039e+00 -7.384999999999999787e+00 2.122079934233561394e-01
1.906800000000000139e+01 1.409200000000000053e+01 4.160999999999999588e+00 2.233270802738048511e-01
1.908099999999999952e+01 1.523099999999999987e+01 3.202999999999999847e+00 1.326762346847234764e-01
1.909100000000000108e+01 1.363599999999999923e+01 -6.394000000000000128e+00 -9.475423908999959510e-02
1.912099999999999866e+01 1.109299999999999997e+01 3.940000000000000169e-01 3.405376680837283359e-04
1.912900000000000134e+01 -1.060800000000000054e+01 -1.270000000000000018e+00 -1.140636796185268836e-01
1.914300000000000068e+01 2.349000000000000199e+00 8.974000000000000199e+00 3.028874353473437475e-01
1.914600000000000080e+01 -7.500000000000000000e-01 1.084600000000000009e+01 3.095017925506605705e-01
1.919999999999999929e+01 1.152899999999999991e+01 1.546999999999999931e+00 1.111628726888563012e-01
1.922100000000000009e+01 -1.508500000000000085e+01 2.079000000000000181e+00 -6.482439083119388712e-02
1.923300000000000054e+01 3.150999999999999801e+00 3.724000000000000199e+00 3.149630730364276765e-01
1.923400000000000176e+01 -8.202999999999999403e+00 1.599099999999999966e+01 -4.604291666896268703e-02
1.928000000000000114e+01 -8.548000000000000043e+00 6.083999999999999631e+00 3.799999999999999489e-01
1.929299999999999926e+01 -1.410599999999999987e+01 -9.048000000000000043e+00 -2.096174170333919284e-01
1.930000000000000071e+01 8.311999999999999389e+00 -5.899999999999999689e-01 -6.150278762752847683e-02
1.931599999999999895e+01 -7.479999999999999982e-01 1.665899999999999892e+01 7.845103981622422729e-02
1.933800000000000097e+01 -3.447999999999999954e+00 3.096999999999999975e+00 3.800000000000000044e-01
1.933899999999999864e+01 -1.135599999999999987e+01 -2.486000000000000210e+00 1.237799312526036005e-01
1.934299999999999997e+01 8.035999999999999588e+00 -8.393000000000000682e+00 6.892931822823523957e-02
1.938700000000000045e+01 -1.047499999999999964e+01 -3.713000000000000078e+00 -2.553720404543068367e-01
1.939600000000000080e+01 -1.466200000000000081e+01 -7.652999999999999581e+00 -3.499999999999999778e-01
1.939699999999999847e+01 6.458999999999999631e+00 1.935800000000000054e+01 3.315206000571247619e-02
1.945200000000000173e+01 6.738000000000000433e+00 -5.238000000000000433e+00 -6.263707141389152078e-02
1.947899999999999920e+01 -1.265000000000000036e+01 1.845100000000000051e+01 -2.649014705519344703e-01
1.951500000000000057e+01 -1.076900000000000013e+01 1.063599999999999923e+01 1.997401550115067703e-01
1.952700000000000102e+01 -1.064499999999999957e+01 1.202699999999999925e+01 2.004052743102709422e-01
1.957300000000000040e+01 1.397899999999999920e+01 1.018299999999999983e+01 -1.148520652790528535e-01
1.957600000000000051e+01 2.318999999999999950e+00 -4.692000000000000171e+00 -1.621101293502204554e-01
1.957799999999999940e+01 -1.551500000000000057e+01 1.603699999999999903e+01 6.995906221604780706e-02
1.960399999999999920e+01 5.801000000000000156e+00 -7.437000000000000277e+00 3.035151898495131451e-01
1.960500000000000043e+01 -2.181999999999999940e+00 -3.810999999999999943e+00 3.627097973858662838e-01
1.963899999999999935e+01 -4.067000000000000171e+00 -5.342999999999999972e+00 -2.590404706234027410e-01
1.965299999999999869e+01 1.075099999999999945e+01 -5.578000000000000291e+00 -1.183015173878840531e-01
1.965700000000000003e+01 1.776999999999999913e+00 -3.261000000000000121e+00 -1.726327455015455037e-01
1.965700000000000003e+01 4.631000000000000227e+00 1.772000000000000020e+00 1.321538170689020020e-01
1.965800000000000125e+01 -1.201099999999999923e+01 1.005799999999999983e+01 1.973895753724299040e-01
1.968299999999999983e+01 -1.177999999999999936e+01 1.282699999999999996e+01 2.162032745482856400e-01
1.972899999999999920e+01 -8.978999999999999204e+00 4.289999999999999925e-01 -2.777812188343757871e-01
1.973799999999999955e+01 -1.357499999999999929e+01 -4.104000000000000092e+00 -5.360059689621433920e-02
1.974299999999999855e+01 6.692999999999999616e+00 -8.698999999999999844e+00 9.219255376622120801e-02
1.975900000000000034e+01 -1.879200000000000159e+01 -4.572000000000000064e+00 8.707687160920577841e-04
1.978600000000000136e+01 -2.021900000000000119e+01 9.629999999999999671e-01 -6.151071526891373903e-02
1.979400000000000048e+01 6.557999999999999829e+00 1.474399999999999977e+01 -3.072955102063078536e-01
1.981299999999999883e+01 -1.314199999999999946e+01 1.086299999999999955e+01 2.421146940877708098e-01
1.981299999999999883e+01 -1.040600000000000058e+01 1.757799999999999940e+01 -6.247759832274359104e-02
1.982900000000000063e+01 -1.303899999999999970e+01 1.224900000000000055e+01 2.254826045965158676e-01
1.983399999999999963e+01 -1.385899999999999999e+01 1.932100000000000151e+01 -1.580351485224253671e-01
1.990500000000000114e+01 -2.649000000000000021e+00 -5.229000000000000092e+00 5.732158314058889356e-03
1.990500000000000114e+01 5.248000000000000220e+00 -2.668000000000000149e+00 1.015433643832340527e-01
1.991000000000000014e+01 -1.375399999999999956e+01 6.320999999999999730e+00 4.916215045989318772e-02
1.992500000000000071e+01 5.841999999999999638e+00 1.607999999999999829e+01 2.093420500982471066e-01
1.994099999999999895e+01 9.349000000000000199e+00 -1.118000000000000105e+00 -6.098864266188188527e-02
1.997899999999999920e+01 -1.464300000000000068e+01 -9.944000000000000838e+00 -1.130435324127890551e-01
1.999699999999999989e+01 -1.426699999999999946e+01 1.309299999999999997e+01 -2.010345688472658932e-02
2.001099999999999923e+01 -9.698999999999999844e+00 -8.920000000000000151e-01 -1.948896882976907940e-01
2.013599999999999923e+01 -2.680000000000000160e+00 1.586899999999999977e+01 -1.757863023780678879e-01
2.013700000000000045e+01 8.948000000000000398e+00 2.072800000000000153e+01 -3.188004789613366891e-02
2.014300000000000068e+01 -1.091799999999999926e+01 -4.714000000000000412e+00 -3.734816625251797563e-03
2.014600000000000080e+01 6.565999999999999837e+00 -6.240000000000000213e+00 -1.568603376900590540e-01
2.020899999999999963e+01 6.384000000000000341e+00 -1.879000000000000004e+00 -4.567697140706499653e-02
2.024200000000000088e+01 -1.617999999999999972e+01 -5.280000000000000249e-01 -1.945084522899930557e-01
2.026000000000000156e+01 -8.119999999999999218e+00 1.682799999999999940e+01 -3.106896625208203644e-01
2.026300000000000168e+01 -1.017399999999999949e+01 -5.953000000000000291e+00 -2.183900850744736333e-01
2.027799999999999869e+01 -1.477999999999999980e+00 1.642699999999999960e+01 1.358294039473113002e-01
2.028099999999999881e+01 -1.181799999999999962e+01 4.809000000000000163e+00 8.104944741732451885e-02
2.029599999999999937e+01 3.782999999999999918e+00 2.838999999999999968e+00 2.060230763753569116e-01
2.033099999999999952e+01 1.048199999999999932e+01 -2.859999999999999765e-01 4.878109456481873052e-02
2.036499999999999844e+01 -1.143599999999999994e+01 1.853800000000000026e+01 1.323205999760241058e-01
2.040099999999999980e+01 9.204000000000000625e+00 3.705000000000000071e+00 7.375966604103698088e-02
2.045799999999999841e+01 -1.757100000000000151e+01 -6.950999999999999623e+00 -7.052838888602196155e-02
2.049500000000000099e+01 -1.676899999999999835e+01 -3.403999999999999915e+00 -1.018243199271501032e-01
2.053500000000000014e+01 -1.329800000000000004e+01 4.998999999999999666e+00 9.343878661643749417e-02
2.054100000000000037e+01 -1.527999999999999936e+01 1.529499999999999993e+01 2.496009901883586291e-01
2.054200000000000159e+01 2.623000000000000220e+00 9.435000000000000497e+00 3.017008357890268999e-01
2.054500000000000171e+01 7.391000000000000014e+00 1.895499999999999829e+01 -4.010028507724095609e-02
2.055699999999999861e+01 -9.156000000000000583e+00 1.759600000000000009e+01 1.315924991272933095e-02
2.056400000000000006e+01 9.628999999999999559e+00 -5.801000000000000156e+00 -3.406805351904910323e-02
2.059299999999999997e+01 -8.705000000000000071e+00 6.841999999999999638e+00 4.077372018897688077e-01
2.059799999999999898e+01 -1.400200000000000067e+01 1.447000000000000064e+01 1.851804370943697098e-01
2.068599999999999994e+01 -1.692099999999999937e+01 -5.929999999999999716e+00 -7.525990774934387950e-02
2.074599999999999866e+01 -1.762000000000000099e+01 -4.565999999999999837e+00 -3.569249181500476487e-02
2.075300000000000011e+01 4.035999999999999588e+00 9.980000000000000426e+00 8.354841353731172482e-02
2.076200000000000045e+01 9.048000000000000043e+00 -3.626999999999999780e+00 -1.324121537768137846e-01
2.084299999999999997e+01 -1.492200000000000060e+01 -7.243999999999999773e+00 -1.073889246699827604e-01
2.085000000000000142e+01 7.368000000000000327e+00 7.046000000000000263e+00 2.905735718778649779e-01
2.087999999999999901e+01 5.100999999999999979e+00 1.631099999999999994e+01 -1.762627549929046133e-01
2.088500000000000156e+01 -1.561200000000000010e+01 -5.966000000000000192e+00 -1.088889727576826394e-01
2.096600000000000108e+01 2.729999999999999982e+00 -5.155000000000000249e+00 5.022010080003987825e-02
2.096799999999999997e+01 -6.714999999999999858e+00 -2.214999999999999858e+00 2.285869074155498226e-01
2.098199999999999932e+01 -9.005000000000000782e+00 1.314000000000000057e+00 3.036565301894103563e-02
2.098699999999999832e+01 -7.014999999999999680e+00 1.689900000000000091e+01 -3.218767711038510448e-01
2.099699999999999989e+01 8.335000000000000853e+00 2.006400000000000006e+01 -4.276545071654059421e-02
2.100499999999999901e+01 -9.426000000000000156e+00 -1.570000000000000062e+00 -1.545732636006536265e-01
2.103099999999999881e+01 1.153800000000000026e+01 -1.127000000000000002e+00 3.567177439976627895e-02
2.104700000000000060e+01 8.877000000000000668e+00 -4.812000000000000277e+00 3.576347540630012839e-02
2.104899999999999949e+01 -7.969000000000000306e+00 2.430000000000000160e+00 3.800000000000000044e-01
2.106299999999999883e+01 -1.449499999999999922e+01 1.884299999999999997e+01 -2.038019558268429898e-01
2.106299999999999883e+01 6.474999999999999645e+00 1.403100000000000058e+01 -1.200589808274893366e-01
2.107900000000000063e+01 -1.543299999999999983e+01 -1.463999999999999968e+00 -2.695459848085335341e-01
2.108999999999999986e+01 6.724999999999999645e+00 1.024300000000000033e+01 5.112723441320378426e-02
2.111599999999999966e+01 -6.581000000000000405e+00 1.798000000000000043e+00 4.131134952130035565e-01
2.112399999999999878e+01 -1.750600000000000023e+01 1.820799999999999841e+01 -5.941814245187375387e-02
2.117200000000000060e+01 -8.175000000000000711e+00 -6.892999999999999794e+00 -1.928123969098706758e-01
2.119500000000000028e+01 -8.974999999999999645e+00 -5.956000000000000405e+00 -2.024492560537502206e-01
2.120400000000000063e+01 -1.260999999999999943e+01 -7.777999999999999581e+00 -1.485077744824808699e-02
2.121499999999999986e+01 4.040000000000000036e+00 5.996000000000000441e+00 3.265393708973712839e-01
2.122899999999999920e+01 4.650000000000000355e+00 3.673999999999999932e+00 3.255714083133840475e-01
2.123199999999999932e+01 -6.798000000000000043e+00 1.245800000000000018e+01 3.140430519908962159e-01
2.125600000000000023e+01 4.908999999999999808e+00 8.942000000000000171e+00 8.523299155367577984e-02
2.131400000000000006e+01 3.940999999999999837e+00 1.230599999999999916e+01 2.041375442766553694e-01
2.132400000000000162e+01 -2.286000000000000032e+00 -5.605999999999999872e+00 2.661290945405530434e-02
2.134600000000000009e+01 -6.270999999999999908e+00 9.455000000000000071e+00 3.967404487891755815e-01
2.135000000000000142e+01 3.894000000000000128e+00 -5.027000000000000135e+00 8.067239906959897122e-02
2.138400000000000034e+01 7.019999999999999574e+00 -6.333000000000000185e+00 -1.495875195556765624e-01
2.139300000000000068e+01 6.205000000000000071e+00 9.170999999999999375e+00 -4.718262441040799865e-02
2.142999999999999972e+01 -1.274200000000000088e+01 4.100000000000000172e-02 9.590179025027346926e-02
2.148799999999999955e+01 -1.627899999999999991e+01 -2.665999999999999925e+00 -1.902918419062790134e-01
2.154100000000000037e+01 -3.257000000000000117e+00 -5.560000000000000497e-01 1.111089947960541835e-01
2.156700000000000017e+01 -5.211000000000000298e+00 1.051200000000000045e+01 3.072680521699017175e-01
2.156899999999999906e+01 -1.610999999999999943e+01 1.514199999999999946e+01 6.603361384225917008e-02
2.162699999999999889e+01 -1.362100000000000044e+01 -7.224999999999999645e+00 -2.217207517389118560e-02
2.164300000000000068e+01 -1.539400000000000013e+01 2.082600000000000051e+01 -2.286897962885718338e-01
2.164300000000000068e+01 8.564999999999999503e+00 1.458600000000000030e+01 -1.602415979544129510e-01
2.166199999999999903e+01 -1.736299999999999955e+01 1.588100000000000023e+01 -5.443650059063898095e-02
2.168799999999999883e+01 -1.010999999999999899e+00 1.680499999999999972e+01 -1.404736570133326978e-01
2.169099999999999895e+01 -5.179999999999999716e+00 -3.682999999999999829e+00 -7.838490130293121472e-02
2.169900000000000162e+01 1.756000000000000005e+00 -5.693999999999999950e+00 -5.840202030539175249e-02
2.171199999999999974e+01 3.850000000000000089e+00 4.881000000000000227e+00 3.091704064219055192e-01
2.173000000000000043e+01 3.978000000000000203e+00 1.115399999999999991e+01 1.366005243552300685e-01
2.173600000000000065e+01 -1.139999999999999902e+00 -5.447000000000000064e+00 -2.392903180980926192e-01
2.174299999999999855e+01 -5.078000000000000291e+00 1.507399999999999984e+01 5.447132908278547181e-02
2.182799999999999940e+01 -6.264999999999999680e+00 -3.117999999999999883e+00 8.507484770238682437e-02
2.185600000000000165e+01 -1.702100000000000080e+01 1.734600000000000009e+01 -5.561046996375466900e-02
2.187699999999999889e+01 -1.519100000000000072e+01 1.963800000000000168e+01 -2.419126424199768421e-01
2.189499999999999957e+01 7.506000000000000227e+00 1.401399999999999935e+01 -4.100257206027450863e-02
2.194699999999999918e+01 7.035999999999999588e+00 8.018000000000000682e+00 -3.381699079658812002e-01
2.195899999999999963e+01 -1.348300000000000054e+01 1.433099999999999952e+01 1.475322189434583320e-01
2.198699999999999832e+01 7.753000000000000114e+00 -5.232999999999999652e+00 -1.191231125507414557e-01
2.201899999999999835e+01 -1.357600000000000051e+01 5.000000000000000000e+00 7.177473996736241646e-02
2.202100000000000080e+01 -8.833000000000000185e+00 -4.924999999999999822e+00 1.644547127059264868e-02
2.204500000000000171e+01 2.879999999999999782e-01 1.605499999999999972e+01 2.501465588222246961e-01
2.206299999999999883e+01 -3.263999999999999790e+00 -6.123000000000000220e+00 -1.892578100882883006e-03
2.206899999999999906e+01 -1.404199999999999982e+01 4.849999999999999867e-01 -2.491162507437403861e-01
2.208800000000000097e+01 1.093800000000000061e+01 -1.842999999999999972e+00 -1.613851457922723664e-01
2.211599999999999966e+01 -2.902000000000000135e+00 7.453999999999999737e+00 4.262167089643713602e-01
2.213599999999999923e+01 -5.735999999999999766e+00 1.183399999999999963e+01 3.156948956588787603e-01
2.217500000000000071e+01 -1.292399999999999949e+01 1.649699999999999989e+01 -7.858940472627404250e-02
2.221999999999999886e+01 8.477999999999999758e+00 2.026099999999999923e+01 -6.317717610698296571e-02
2.226500000000000057e+01 -8.221000000000000085e+00 3.314999999999999947e+00 3.959276479579116881e-01
2.229899999999999949e+01 -4.575000000000000178e+00 1.280100000000000016e+01 3.186386939446074207e-01
2.232700000000000173e+01 -1.492900000000000027e+01 -7.379999999999999893e-01 -3.154511466928574537e-01
2.235200000000000031e+01 5.102999999999999758e+00 2.882000000000000117e+00 2.396165039987644962e-01
2.235900000000000176e+01 -4.608999999999999986e+00 5.653999999999999915e+00 3.941500118137544750e-01
2.246999999999999886e+01 -2.830000000000000071e+00 -1.667999999999999927e+00 2.635357066634192585e-02
2.256099999999999994e+01 4.674999999999999822e+00 -1.099999999999999936e-02 1.322125454014124180e-01
2.257100000000000151e+01 -1.965000000000000080e+00 -8.632999999999999119e+00 -2.737379178779100058e-02
2.257499999999999929e+01 -5.149000000000000021e+00 1.417099999999999937e+01 4.048837586651070353e-02
2.262900000000000134e+01 -1.296799999999999997e+01 1.535800000000000054e+01 -2.979623429742323665e-02
2.267099999999999937e+01 2.950000000000000178e+00 4.673000000000000043e+00 3.057403202870065950e-01
2.267800000000000082e+01 -1.646999999999999886e+01 -2.927000000000000046e+00 4.893169651349733168e-02
2.271199999999999974e+01 -1.856599999999999895e+01 1.403400000000000070e+01 -2.740337650481826023e-02
2.275300000000000011e+01 -1.211000000000000076e+00 -1.087400000000000055e+01 2.453715025007990533e-02
2.278999999999999915e+01 -1.367099999999999937e+01 -6.591000000000000192e+00 -9.247284013494169730e-02
2.278999999999999915e+01 -8.860000000000000098e-01 -9.669999999999999929e+00 5.265315591994151889e-02
2.280900000000000105e+01 1.929999999999999938e+00 -2.500000000000000000e-01 9.160123168301445573e-02
2.281899999999999906e+01 -1.919999999999999929e+00 1.669000000000000128e+01 -1.534011715647982076e-02
2.284299999999999997e+01 -1.617099999999999937e+01 1.762000000000000099e+01 1.954937387223330270e-01
2.285600000000000165e+01 -1.819099999999999895e+01 1.539700000000000024e+01 -1.985579464455537457e-01
2.289199999999999946e+01 -1.123600000000000065e+01 8.673000000000000043e+00 3.463977644818410084e-01
2.290500000000000114e+01 -2.217000000000000082e+00 1.402599999999999980e+01 1.339017089882247047e-01
2.292399999999999949e+01 4.208999999999999631e+00 -1.096000000000000085e+00 1.579006389852052328e-01
2.294300000000000139e+01 -7.703999999999999737e+00 -4.865999999999999659e+00 2.076866525625883086e-01
2.298699999999999832e+01 2.829999999999999738e-01 -9.282000000000000028e+00 4.770746750633432509e-02
2.298799999999999955e+01 6.264000000000000234e+00 7.352999999999999758e+00 1.466405287890881204e-01
2.299299999999999855e+01 -4.016000000000000014e+00 6.894999999999999574e+00 4.295061561746192913e-01
2.300400000000000134e+01 -7.160999999999999588e+00 -3.438000000000000167e+00 1.474903870333837963e-01
2.301899999999999835e+01 5.000000000000000000e-01 -7.670000000000000151e-01 2.054602802581165233e-01
2.302799999999999869e+01 3.979000000000000092e+00 1.086100000000000065e+01 1.726324119536298551e-01
2.303699999999999903e+01 -1.079999999999999988e-01 1.168699999999999939e+01 -1.246801537389756742e-01
2.305600000000000094e+01 2.903000000000000025e+00 -1.312000000000000055e+00 -1.196397853672695119e-02
2.307799999999999940e+01 1.905999999999999917e+00 -6.177999999999999936e+00 -8.799738595115139117e-02
2.308899999999999864e+01 -1.009600000000000009e+01 1.516799999999999926e+01 -2.539731901251850443e-01
2.312699999999999889e+01 -1.577899999999999991e+01 1.898999999999999844e+01 2.048005845382677437e-01
2.315899999999999892e+01 1.080000000000000071e+00 1.674200000000000088e+01 1.949337582835319535e-02
2.316000000000000014e+01 -1.604400000000000048e+01 1.266699999999999982e+01 -5.457012416735056159e-02
2.316000000000000014e+01 -1.232600000000000051e+01 -3.291999999999999815e+00 3.998432815384879435e-02
2.316600000000000037e+01 -1.913000000000000034e+00 1.891100000000000136e+01 -3.609855741907460613e-01
2.316600000000000037e+01 2.184000000000000163e+00 5.807999999999999829e+00 2.931388247754060372e-01
2.317000000000000171e+01 6.458999999999999631e+00 4.488000000000000433e+00 4.449281103004178173e-02
2.319500000000000028e+01 -6.812999999999999723e+00 -1.138599999999999923e+01 -3.865866328192436585e-01
2.320299999999999940e+01 7.331000000000000405e+00 1.325000000000000000e+01 6.550495779637771632e-02
2.323000000000000043e+01 5.121000000000000441e+00 -2.266999999999999904e+00 -7.283086955652237626e-02
2.323999999999999844e+01 5.964000000000000412e+00 3.362000000000000099e+00 2.714988820969762573e-01
2.329799999999999827e+01 -1.282300000000000040e+01 1.138700000000000045e+01 3.784887553716623776e-01
2.331500000000000128e+01 6.133000000000000007e+00 1.243200000000000038e+01 6.294184079452783132e-02
2.333399999999999963e+01 8.332000000000000739e+00 -5.668999999999999595e+00 -2.725210738380675624e-01
2.335300000000000153e+01 2.005999999999999783e+00 2.085999999999999854e+00 2.834149305485486048e-01
2.336100000000000065e+01 3.314999999999999947e+00 -6.682999999999999829e+00 2.371525207375244637e-01
2.336899999999999977e+01 -1.375999999999999979e+01 1.221999999999999975e+00 1.289225122436712112e-01
2.338700000000000045e+01 -3.690999999999999837e+00 1.240399999999999991e+01 1.836972398478681212e-01
2.342899999999999849e+01 8.563000000000000611e+00 1.239700000000000024e+01 3.035285187506406301e-02
2.345499999999999829e+01 -3.068999999999999950e+00 -6.525000000000000355e+00 -5.118917870729402381e-02
2.349200000000000088e+01 -1.801999999999999957e+01 3.673999999999999932e+00 -9.910918011786444548e-02
2.350100000000000122e+01 -2.266999999999999904e+00 1.777799999999999869e+01 -3.615635078119162626e-01
2.351699999999999946e+01 3.024999999999999911e+00 8.016000000000000014e+00 3.817404800819843014e-02
2.357400000000000162e+01 -1.901999999999999913e+00 -7.506000000000000227e+00 -2.672655998287072343e-01
2.360000000000000142e+01 -2.561999999999999833e+00 1.306799999999999962e+01 1.955771480177878052e-01
2.362600000000000122e+01 -1.648000000000000043e+01 8.156000000000000583e+00 2.743311045675111276e-02
2.363100000000000023e+01 1.766000000000000014e+00 -3.849000000000000199e+00 2.368078972118927567e-02
2.365099999999999980e+01 -1.748699999999999832e+01 5.902999999999999581e+00 -6.905634136563616743e-02
2.366799999999999926e+01 -1.251900000000000013e+01 -6.471000000000000085e+00 -1.572440546844785514e-01
2.368100000000000094e+01 9.299999999999999933e-02 4.498999999999999666e+00 2.270885987368081727e-01
2.373799999999999955e+01 2.196000000000000174e+00 9.350000000000000533e-01 7.187954602209870036e-02
2.375300000000000011e+01 3.153999999999999915e+00 6.823999999999999844e+00 1.887034164923643426e-02
2.376500000000000057e+01 -1.536500000000000021e+01 1.045400000000000063e+01 1.710400777630342872e-01
2.376800000000000068e+01 -5.717999999999999972e+00 1.429800000000000004e+01 2.308138443296463005e-01
2.378699999999999903e+01 -3.608000000000000096e+00 -1.711000000000000076e+00 -3.044327560730669680e-01
2.384400000000000119e+01 4.126999999999999780e+00 -5.626000000000000334e+00 4.271360438212355032e-02
2.386100000000000065e+01 7.253999999999999559e+00 1.330999999999999961e+00 9.370676510957175187e-02
2.387999999999999901e+01 -5.706999999999999851e+00 1.780999999999999872e+01 3.576779059403940864e-02
2.388700000000000045e+01 -3.338999999999999968e+00 -4.165000000000000036e+00 -1.941190353683530101e-01
2.392800000000000082e+01 -1.106000000000000050e+01 1.433699999999999974e+01 2.891712931138190916e-04
2.395400000000000063e+01 5.049000000000000377e+00 1.286599999999999966e+01 4.630419728844983873e-02
2.401099999999999923e+01 1.860000000000000098e+00 1.577399999999999913e+01 7.478819525239840948e-02
2.401399999999999935e+01 1.612999999999999989e+00 -5.009000000000000341e+00 -1.461569862786080698e-01
2.401699999999999946e+01 3.874000000000000110e+00 1.191399999999999970e+01 -8.709501499934244051e-02
2.403099999999999881e+01 -1.244599999999999973e+01 1.506099999999999994e+01 7.097651514877215476e-03
2.405600000000000094e+01 -1.563100000000000023e+01 1.192399999999999949e+01 -9.439998041625859149e-02
2.410800000000000054e+01 5.945999999999999730e+00 7.991999999999999993e+00 -5.305854231879379712e-02
2.411199999999999832e+01 8.592000000000000526e+00 -3.205000000000000071e+00 -2.558164578161027936e-01
2.413400000000000034e+01 -1.811700000000000088e+01 4.830000000000000071e+00 -1.003719428994745283e-01
2.416799999999999926e+01 -1.298399999999999999e+01 1.052500000000000036e+01 7.311643807436432607e-02
2.417500000000000071e+01 8.830999999999999517e+00 -4.536999999999999922e+00 -2.351714514771885978e-01
2.417999999999999972e+01 -1.655300000000000082e+01 9.589000000000000412e+00 5.604855141749900613e-03
2.420200000000000173e+01 -4.072000000000000064e+00 9.702999999999999403e+00 4.221169232459874854e-01
2.422400000000000020e+01 -1.091499999999999915e+01 -2.922000000000000153e+00 7.123401963921138780e-03
2.423900000000000077e+01 -6.325000000000000178e+00 1.552500000000000036e+01 -2.899591013165919717e-02
2.425700000000000145e+01 -5.346000000000000085e+00 1.670499999999999829e+01 3.793870455467771019e-02
2.426099999999999923e+01 1.163000000000000034e+00 5.419999999999999929e+00 3.169255543906076555e-01
2.426300000000000168e+01 -1.750900000000000034e+01 7.227000000000000313e+00 3.165083565826387006e-03
2.426500000000000057e+01 -1.210100000000000087e+01 -7.815000000000000391e+00 -2.381299464664582144e-01
2.428300000000000125e+01 -1.475300000000000011e+01 1.905099999999999838e+01 1.538613116316290275e-01
2.430300000000000082e+01 -8.840000000000000080e-01 1.135500000000000043e+01 1.815336397880487063e-01
2.431299999999999883e+01 -2.798000000000000043e+00 -5.299000000000000377e+00 -1.443959635078553017e-01
2.433299999999999841e+01 -1.341300000000000026e+01 -4.150000000000000355e+00 3.051265353605637221e-01
2.433800000000000097e+01 6.298000000000000043e+00 9.153000000000000469e+00 -6.161913644888677988e-02
2.433899999999999864e+01 -6.796999999999999709e+00 -1.088799999999999990e+01 -3.839696005491660125e-01
2.434600000000000009e+01 -8.035000000000000142e+00 -5.376000000000000334e+00 -2.733574698873142417e-01
2.436799999999999855e+01 6.322000000000000064e+00 2.411999999999999922e+00 3.072360235195191747e-01
2.438200000000000145e+01 -3.468999999999999861e+00 6.557000000000000384e+00 1.829302023602507599e-01
2.442000000000000171e+01 -1.133500000000000085e+01 8.625999999999999446e+00 -4.727268835209517614e-03
2.442699999999999960e+01 -1.080100000000000016e+01 -7.995000000000000107e+00 -5.626466676611648760e-02
2.446600000000000108e+01 -1.417200000000000060e+01 1.001699999999999946e+01 -1.783429602482390075e-01
2.446600000000000108e+01 4.966000000000000192e+00 1.398000000000000043e+01 2.708251626076408486e-02
2.447100000000000009e+01 4.761000000000000121e+00 -2.918000000000000149e+00 -2.249934534545395270e-01
2.449200000000000088e+01 -8.849999999999999645e+00 -9.439999999999999503e+00 -2.365604278502848601e-01
2.450300000000000011e+01 4.136000000000000121e+00 6.339000000000000412e+00 9.595472218489718708e-02
2.456599999999999895e+01 -1.292999999999999972e+01 -8.669000000000000483e+00 -2.117144078905016102e-01
2.458500000000000085e+01 -3.400999999999999801e+00 -4.229999999999999871e-01 -1.095860931347247824e-02
2.462199999999999989e+01 -3.152000000000000135e+00 -2.924999999999999822e+00 -2.729149832274925802e-01
2.462300000000000111e+01 -9.178000000000000824e+00 -5.738999999999999879e+00 -5.475357729494337994e-02
2.463400000000000034e+01 -1.443099999999999916e+01 2.049800000000000111e+01 1.391555199712174451e-01
2.467399999999999949e+01 -4.105999999999999872e+00 1.648100000000000165e+01 -3.696214572450117752e-01
2.469000000000000128e+01 -1.504400000000000048e+01 1.582199999999999918e+01 2.115239860392555821e-02
2.473000000000000043e+01 -3.149999999999999911e+00 1.758399999999999963e+01 -3.675825655475417619e-01
2.473699999999999832e+01 -1.342699999999999960e+01 1.424600000000000044e+01 1.124281838589813037e-01
2.476099999999999923e+01 -1.689999999999999947e+00 1.259099999999999930e+01 2.322614470779385820e-01
2.477499999999999858e+01 8.596000000000000085e+00 1.172799999999999976e+01 1.725205117543147926e-02
2.479400000000000048e+01 -9.601000000000000867e+00 3.140000000000000013e-01 4.480850217631805049e-02
2.480099999999999838e+01 -1.283999999999999986e+01 -5.490000000000000213e+00 1.262396891276034439e-01
2.482400000000000162e+01 5.020000000000000018e-01 6.687999999999999723e+00 2.035574539661536286e-01
2.482900000000000063e+01 -9.573000000000000398e+00 6.844000000000000306e+00 4.271906232377332135e-01
2.484299999999999997e+01 -8.487000000000000099e+00 -5.110000000000000098e-01 7.871538017341617177e-02
2.485800000000000054e+01 5.091999999999999638e+00 1.806999999999999940e+00 6.892811451353428320e-02
2.491900000000000048e+01 -5.740999999999999659e+00 -1.056700000000000017e+01 -3.796554918578823878e-01
2.495299999999999940e+01 2.653000000000000025e+00 6.470000000000000195e-01 7.471811263920964674e-02
2.498499999999999943e+01 -1.181300000000000061e+01 9.987000000000000099e+00 8.470288602831614611e-02
2.500400000000000134e+01 -1.465199999999999925e+01 1.469400000000000084e+01 1.656691371049218153e-02
2.501800000000000068e+01 -1.026800000000000068e+01 -9.208999999999999631e+00 -1.917791065603303979e-01
