8.082000000000000739e+00 7.045600000000000307e+01 5.793500000000000227e+01 2.534941542089536037e-01
8.083000000000000185e+00 6.996899999999999409e+01 6.992900000000000205e+01 2.276060493854845102e-01
8.103999999999999204e+00 5.847899999999999920e+01 6.460800000000000409e+01 6.590963609423786118e-02
8.105999999999999872e+00 6.344299999999999784e+01 5.014300000000000068e+01 -3.900000000000000133e-01
8.117000000000000881e+00 7.789300000000000068e+01 5.432200000000000273e+01 -5.581686277211933556e-02
8.135999999999999233e+00 6.207200000000000273e+01 4.729099999999999682e+01 -2.843275726164511963e-01
8.227999999999999758e+00 7.226800000000000068e+01 6.936799999999999500e+01 2.714124655779727169e-01
8.250999999999999446e+00 7.894499999999999318e+01 5.493900000000000006e+01 -9.005628591755240886e-02
8.317999999999999616e+00 6.118800000000000239e+01 6.165899999999999892e+01 -1.983033939099338727e-01
8.321999999999999176e+00 6.531100000000000705e+01 6.143800000000000239e+01 1.060629050701915876e-01
8.330000000000000071e+00 6.831699999999999307e+01 6.539300000000000068e+01 -4.336346371932610355e-02
8.332000000000000739e+00 7.484699999999999420e+01 5.214399999999999835e+01 -2.330872115790554866e-01
8.339000000000000412e+00 7.395499999999999829e+01 5.128999999999999915e+01 -2.616700695393805454e-01
8.346999999999999531e+00 5.517399999999999949e+01 6.850400000000000489e+01 -1.563626519370723833e-01
8.362000000000000099e+00 6.141299999999999670e+01 5.436200000000000188e+01 -2.212743455291985017e-01
8.400999999999999801e+00 7.396899999999999409e+01 6.536799999999999500e+01 -2.928118841957337848e-01
8.425000000000000711e+00 6.364699999999999847e+01 6.609300000000000352e+01 -2.855176705331087250e-01
8.426000000000000156e+00 7.327599999999999625e+01 6.666100000000000136e+01 -1.956102494403375303e-01
8.430999999999999162e+00 6.601600000000000534e+01 6.639000000000000057e+01 -1.755118642797965159e-02
8.461999999999999744e+00 7.549299999999999500e+01 6.543399999999999750e+01 -2.603832947036293644e-01
8.462999999999999190e+00 5.367000000000000171e+01 6.857800000000000296e+01 -2.273204426246581422e-01
8.489000000000000767e+00 6.666800000000000637e+01 5.704299999999999926e+01 -2.246326605991085246e-01
8.545999999999999375e+00 5.845100000000000051e+01 7.557399999999999807e+01 -3.598635453030926135e-01
8.558999999999999275e+00 7.440999999999999659e+01 5.917199999999999704e+01 6.605854675818582933e-02
8.614000000000000767e+00 6.215999999999999659e+01 5.550900000000000034e+01 4.394044370885301365e-02
8.618000000000000327e+00 5.824000000000000199e+01 6.350800000000000267e+01 8.580584490071269110e-02
8.637000000000000455e+00 5.582500000000000284e+01 6.983499999999999375e+01 -1.786447795052065191e-01
8.640000000000000568e+00 5.879099999999999682e+01 5.887700000000000244e+01 -1.229556086348454758e-01
8.650999999999999801e+00 6.726500000000000057e+01 5.576100000000000279e+01 -2.918959189752204919e-01
8.714999999999999858e+00 7.180100000000000193e+01 5.743200000000000216e+01 1.540746784519448909e-01
8.762999999999999901e+00 6.061299999999999955e+01 6.300200000000000244e+01 -2.189645785071096251e-01
8.782999999999999474e+00 7.560399999999999920e+01 5.993399999999999750e+01 -2.343706471076514690e-03
8.830000000000000071e+00 6.250600000000000023e+01 6.540099999999999625e+01 -2.961721558558503276e-01
8.839999999999999858e+00 6.848499999999999943e+01 6.324799999999999756e+01 -6.411808320841383413e-02
8.845000000000000639e+00 6.010199999999999676e+01 5.427100000000000080e+01 -2.283671315258157808e-01
8.856999999999999318e+00 5.679200000000000159e+01 6.305700000000000216e+01 -4.699404802174795420e-02
8.862000000000000099e+00 5.588499999999999801e+01 6.421099999999999852e+01 8.227859534472140718e-03
8.869999999999999218e+00 6.330199999999999960e+01 7.787199999999999989e+01 -9.286501682629663690e-02
8.875999999999999446e+00 6.490200000000000102e+01 6.568200000000000216e+01 1.084763202247370634e-02
8.976000000000000867e+00 7.131199999999999761e+01 5.038000000000000256e+01 -3.193483983310947960e-01
8.993999999999999773e+00 6.881699999999999307e+01 6.445999999999999375e+01 2.865755831010705634e-01
9.005000000000000782e+00 5.920499999999999829e+01 6.268200000000000216e+01 -2.370503175076775493e-01
9.015000000000000568e+00 6.101599999999999824e+01 6.067099999999999937e+01 -4.517789126328752153e-02
9.083999999999999631e+00 6.186500000000000199e+01 4.847999999999999687e+01 -3.900000000000000133e-01
9.105000000000000426e+00 7.175900000000000034e+01 5.600300000000000011e+01 4.232748229562300485e-02
9.198000000000000398e+00 8.124399999999999977e+01 6.160600000000000165e+01 -3.890078088356804797e-02
9.201000000000000512e+00 7.913400000000000034e+01 5.583599999999999852e+01 -4.042750416585473572e-02
9.256999999999999673e+00 6.214600000000000080e+01 7.971099999999999852e+01 -7.031278588904182891e-02
9.308999999999999275e+00 5.579699999999999704e+01 6.746999999999999886e+01 -2.160738830725476567e-01
9.348000000000000753e+00 6.308899999999999864e+01 4.935799999999999699e+01 -3.900000000000000133e-01
9.353999999999999204e+00 6.158800000000000097e+01 5.657200000000000273e+01 -2.522245990781614156e-01
9.397999999999999687e+00 5.999799999999999756e+01 6.754200000000000159e+01 2.380130887494338182e-02
9.445000000000000284e+00 6.575400000000000489e+01 5.750200000000000244e+01 1.388181715027166085e-01
9.451999999999999957e+00 7.607899999999999352e+01 6.474699999999999989e+01 1.629059982470617007e-01
9.542999999999999261e+00 7.928600000000000136e+01 6.305799999999999983e+01 -1.416450468136177254e-01
9.554999999999999716e+00 7.212199999999999989e+01 6.856699999999999307e+01 2.815285258476519781e-01
9.569000000000000838e+00 7.509999999999999432e+01 5.302000000000000313e+01 -9.968565892367164949e-03
9.573000000000000398e+00 7.294799999999999329e+01 6.725900000000000034e+01 1.646472572215770813e-01
9.580000000000000071e+00 5.954500000000000171e+01 5.533599999999999852e+01 -2.765381574215924898e-01
9.618000000000000327e+00 6.261099999999999710e+01 7.859799999999999898e+01 -6.991584517556226341e-02
9.657000000000000028e+00 7.752800000000000580e+01 6.473000000000000398e+01 1.742711150767924377e-01
9.683999999999999275e+00 6.257999999999999829e+01 6.429500000000000171e+01 -3.080560432613498323e-01
9.731999999999999318e+00 6.501600000000000534e+01 6.458899999999999864e+01 -2.951196694142822485e-01
9.750999999999999446e+00 6.695099999999999341e+01 5.495100000000000051e+01 -3.741637472411014631e-01
9.779999999999999361e+00 5.887400000000000233e+01 7.629900000000000659e+01 -3.583971409399123731e-01
9.810999999999999943e+00 7.984099999999999397e+01 6.174199999999999733e+01 -1.478959647474517927e-02
9.836999999999999744e+00 6.028499999999999659e+01 5.649399999999999977e+01 -3.231277439245751060e-01
9.875000000000000000e+00 7.390999999999999659e+01 5.375699999999999790e+01 -2.946942287923685067e-01
9.875999999999999446e+00 7.802200000000000557e+01 6.330700000000000216e+01 -8.432692684534123795e-02
9.882999999999999119e+00 6.756600000000000250e+01 5.356199999999999761e+01 -1.605673761162623170e-01
9.893000000000000682e+00 7.814400000000000546e+01 6.784199999999999875e+01 2.626392887429985779e-01
9.900999999999999801e+00 5.597899999999999920e+01 6.505200000000000671e+01 -1.505008275347633484e-01
9.907000000000000028e+00 5.506099999999999994e+01 6.627200000000000557e+01 -2.032310739855593129e-01
9.907000000000000028e+00 5.842099999999999937e+01 5.825399999999999778e+01 8.004061144076184131e-02
9.983000000000000540e+00 7.875100000000000477e+01 5.843599999999999994e+01 6.764028190965305776e-02
9.983999999999999986e+00 7.486299999999999955e+01 5.580499999999999972e+01 -3.050596848195581343e-02
1.001600000000000001e+01 7.778400000000000603e+01 6.925100000000000477e+01 -1.756357681392194670e-01
1.003299999999999947e+01 7.471699999999999875e+01 6.943600000000000705e+01 -2.488713145539233618e-01
1.004199999999999982e+01 6.988299999999999557e+01 6.484199999999999875e+01 1.239618834697139294e-01
1.004700000000000060e+01 6.131600000000000250e+01 6.352000000000000313e+01 -2.227627436518061221e-01
1.006300000000000061e+01 7.387999999999999545e+01 5.506400000000000006e+01 -3.030849098901315375e-01
1.006799999999999962e+01 7.781900000000000261e+01 5.763900000000000290e+01 -8.898993477876937508e-02
1.008500000000000085e+01 7.654000000000000625e+01 5.802799999999999869e+01 8.677505825036510578e-02
1.008999999999999986e+01 7.624800000000000466e+01 5.945499999999999829e+01 3.747891624996190774e-01
1.013799999999999990e+01 6.384599999999999653e+01 6.389600000000000080e+01 -2.948111799590452109e-01
1.014100000000000001e+01 6.093999999999999773e+01 6.809900000000000375e+01 -2.619307657074512741e-01
1.014799999999999969e+01 7.809699999999999420e+01 5.615999999999999659e+01 -1.324502521300030822e-01
1.016900000000000048e+01 5.927400000000000091e+01 6.675100000000000477e+01 2.715988591566375655e-03
1.032499999999999929e+01 7.073399999999999466e+01 5.031900000000000261e+01 -3.521501075734867481e-01
1.035399999999999920e+01 7.726900000000000546e+01 6.244599999999999795e+01 2.108110771498046265e-01
1.037899999999999956e+01 6.278000000000000114e+01 5.035300000000000153e+01 -3.724278148876246086e-01
1.040399999999999991e+01 7.250700000000000500e+01 5.556400000000000006e+01 -1.671326420233298637e-01
1.042800000000000082e+01 7.121200000000000330e+01 5.266199999999999903e+01 -3.058885981837617882e-02
1.047499999999999964e+01 7.076099999999999568e+01 6.367399999999999949e+01 3.578281139053226534e-01
1.054100000000000037e+01 6.544199999999999307e+01 5.670100000000000051e+01 -2.270035239254622819e-02
1.056199999999999939e+01 7.037099999999999511e+01 5.178399999999999892e+01 -3.112876736144598588e-02
1.056600000000000072e+01 6.849800000000000466e+01 7.201000000000000512e+01 7.322448278770185559e-02
1.058000000000000007e+01 7.675499999999999545e+01 5.127499999999999858e+01 1.842480059256765626e-02
1.058699999999999974e+01 5.786699999999999733e+01 6.047899999999999920e+01 1.786361918211117616e-01
1.060399999999999920e+01 5.966599999999999682e+01 5.764600000000000080e+01 5.117686522506979807e-02
1.064899999999999913e+01 6.807999999999999829e+01 6.834099999999999397e+01 -7.119455557225103093e-02
1.065900000000000070e+01 5.770300000000000296e+01 7.671699999999999875e+01 -3.566299738612014880e-01
1.067200000000000060e+01 7.327500000000000568e+01 6.680299999999999727e+01 1.268402613984022653e-01
1.068599999999999994e+01 7.256799999999999784e+01 6.937300000000000466e+01 -2.895349010992683339e-02
1.068900000000000006e+01 6.604600000000000648e+01 5.542699999999999960e+01 -3.077127218813886095e-02
1.069400000000000084e+01 6.729099999999999682e+01 7.270999999999999375e+01 3.220368299543902024e-01
1.076999999999999957e+01 7.546800000000000352e+01 5.212199999999999989e+01 1.489522403160419284e-01
1.080100000000000016e+01 7.840500000000000114e+01 7.012800000000000011e+01 8.500334638986647984e-02
1.082000000000000028e+01 5.778499999999999659e+01 5.927199999999999847e+01 1.270396394781979355e-01
1.082799999999999940e+01 5.675900000000000034e+01 6.484300000000000352e+01 -1.562789149689332302e-02
1.083600000000000030e+01 6.493200000000000216e+01 5.085699999999999932e+01 -1.292903423278032038e-01
1.085200000000000031e+01 7.384900000000000375e+01 6.969799999999999329e+01 -9.749720339994667750e-02
1.085899999999999999e+01 7.797199999999999420e+01 7.138599999999999568e+01 1.165489635492557019e-01
1.089499999999999957e+01 5.249199999999999733e+01 6.599599999999999511e+01 -7.806188506183750486e-02
1.091399999999999970e+01 6.837900000000000489e+01 5.934300000000000352e+01 6.764115506751803078e-03
1.091499999999999915e+01 6.911700000000000443e+01 5.203399999999999892e+01 -8.002967951784274725e-02
1.091799999999999926e+01 7.794199999999999307e+01 6.553400000000000603e+01 2.479196677388515457e-01
1.099000000000000021e+01 7.223199999999999932e+01 4.854599999999999937e+01 -3.174339317768427593e-01
1.099300000000000033e+01 7.749200000000000443e+01 6.699899999999999523e+01 2.875969417462563293e-01
1.103500000000000014e+01 6.371900000000000119e+01 5.103099999999999881e+01 -3.749163125447459999e-01
1.104199999999999982e+01 6.232099999999999795e+01 7.811599999999999966e+01 -4.802832412878019208e-02
1.104400000000000048e+01 6.857399999999999807e+01 5.338600000000000279e+01 1.483279072373561713e-01
1.119299999999999962e+01 7.526200000000000045e+01 5.979099999999999682e+01 3.431696755987369563e-01
1.124200000000000088e+01 5.462599999999999767e+01 6.661499999999999488e+01 -2.227716756742041393e-01
1.133399999999999963e+01 7.991800000000000637e+01 6.164999999999999858e+01 2.824094928698251891e-02
1.135500000000000043e+01 7.176099999999999568e+01 4.984700000000000131e+01 -3.416050489832023196e-01
1.138799999999999990e+01 7.255299999999999727e+01 5.662199999999999989e+01 -1.930367858897165667e-01
1.143399999999999928e+01 6.312500000000000000e+01 5.344800000000000040e+01 2.083170930227516704e-01
1.144100000000000072e+01 6.081799999999999784e+01 6.765200000000000102e+01 -2.508192216112791750e-01
1.145199999999999996e+01 5.976599999999999824e+01 6.680299999999999727e+01 -2.539046730643125249e-01
1.154199999999999982e+01 7.944700000000000273e+01 6.975600000000000023e+01 8.402822796185252519e-02
1.154599999999999937e+01 7.180400000000000205e+01 6.406199999999999761e+01 5.492040667978353996e-02
1.157499999999999929e+01 6.945900000000000318e+01 7.207099999999999795e+01 5.416605001446054418e-02
1.157900000000000063e+01 7.855299999999999727e+01 5.580100000000000193e+01 -4.338337534954263275e-02
1.160599999999999987e+01 7.526099999999999568e+01 6.105199999999999960e+01 3.295033278670896071e-02
1.163100000000000023e+01 5.336500000000000199e+01 6.647100000000000364e+01 -7.026555012621302221e-02
1.164899999999999913e+01 7.451999999999999602e+01 5.893299999999999983e+01 8.348921086952407200e-02
1.166000000000000014e+01 7.881499999999999773e+01 5.428600000000000136e+01 -2.308735681323582367e-01
1.168099999999999916e+01 6.703199999999999648e+01 6.883799999999999386e+01 2.840234767945278294e-01
1.170700000000000074e+01 6.843899999999999295e+01 6.067799999999999727e+01 -1.789457871155184648e-02
1.171499999999999986e+01 7.451800000000000068e+01 6.374199999999999733e+01 1.041776990517951224e-01
1.176200000000000045e+01 7.847899999999999920e+01 4.988300000000000267e+01 -3.169984693434518830e-02
1.177800000000000047e+01 6.704399999999999693e+01 6.132800000000000296e+01 2.038696336953252364e-02
1.181600000000000072e+01 5.819500000000000028e+01 7.756300000000000239e+01 -2.562874514153053451e-01
1.182000000000000028e+01 6.084499999999999886e+01 7.355299999999999727e+01 -1.257652419202935912e-01
1.183399999999999963e+01 6.705299999999999727e+01 7.346899999999999409e+01 3.289010057486761451e-01
1.184099999999999930e+01 7.993099999999999739e+01 6.042999999999999972e+01 2.957280495711934187e-01
1.184900000000000020e+01 7.710099999999999909e+01 5.051400000000000290e+01 -1.820101440764592890e-02
1.186299999999999955e+01 5.714300000000000068e+01 5.877199999999999847e+01 3.562638803220933292e-01
1.187100000000000044e+01 6.595300000000000296e+01 6.773999999999999488e+01 3.482818285124822943e-01
1.202100000000000080e+01 6.281000000000000227e+01 7.911700000000000443e+01 -7.712898899912193351e-02
1.204199999999999982e+01 7.995799999999999841e+01 6.267600000000000193e+01 -1.123234331931024788e-01
1.204499999999999993e+01 7.246099999999999852e+01 6.287100000000000222e+01 1.764885085365695550e-01
1.208200000000000074e+01 6.323499999999999943e+01 5.205499999999999972e+01 -5.357221660596615115e-02
1.208500000000000085e+01 7.378199999999999648e+01 6.281000000000000227e+01 -1.036053861304637447e-01
1.213799999999999990e+01 7.421500000000000341e+01 7.043699999999999761e+01 -1.727104430342723818e-01
1.222199999999999953e+01 6.385199999999999676e+01 7.035999999999999943e+01 9.324285949110321103e-02
1.231400000000000006e+01 7.603499999999999659e+01 7.458299999999999841e+01 1.608006310770581926e-01
1.231900000000000084e+01 7.161400000000000432e+01 5.668900000000000006e+01 -1.167742848043361488e-02
1.236100000000000065e+01 7.067199999999999704e+01 5.591799999999999926e+01 -8.732909067553701332e-02
1.238899999999999935e+01 5.669299999999999784e+01 7.063899999999999579e+01 -2.876820683921335782e-03
1.239700000000000024e+01 7.253499999999999659e+01 7.264600000000000080e+01 3.400908032001785930e-01
1.240300000000000047e+01 6.790500000000000114e+01 5.358899999999999864e+01 -9.582002827188922447e-03
1.241099999999999959e+01 6.284100000000000108e+01 5.457999999999999829e+01 1.997731161613117701e-01
1.244899999999999984e+01 5.462400000000000233e+01 5.802700000000000102e+01 1.253194998098089083e-02
1.245400000000000063e+01 5.459400000000000119e+01 7.177100000000000080e+01 -3.646934171872391328e-01
1.253299999999999947e+01 6.172200000000000131e+01 6.811700000000000443e+01 5.331637152578287860e-03
1.254899999999999949e+01 5.700800000000000267e+01 6.771299999999999386e+01 1.871293143450755399e-03
1.255899999999999928e+01 7.036299999999999955e+01 6.872299999999999898e+01 2.451193615981182850e-01
1.257199999999999918e+01 7.750300000000000011e+01 5.623299999999999699e+01 1.657759341728001767e-02
1.257799999999999940e+01 6.345199999999999818e+01 6.019800000000000040e+01 -1.366403208817411619e-01
1.258600000000000030e+01 7.132099999999999795e+01 6.044899999999999807e+01 8.062253951093124871e-02
1.261599999999999966e+01 7.434600000000000364e+01 6.150500000000000256e+01 -1.624535524811748233e-01
1.268500000000000050e+01 6.236699999999999733e+01 5.883700000000000330e+01 -2.581904698713894872e-02
1.269299999999999962e+01 7.110399999999999920e+01 6.474200000000000443e+01 6.812110602542410798e-02
1.271599999999999930e+01 8.084600000000000364e+01 5.810000000000000142e+01 1.328834694154788776e-01
1.273099999999999987e+01 6.923699999999999477e+01 7.282800000000000296e+01 3.289180153583736166e-01
1.275200000000000067e+01 7.112000000000000455e+01 4.974900000000000233e+01 -6.618395240823739256e-02
1.277899999999999991e+01 6.702599999999999625e+01 5.281199999999999761e+01 4.941162844523526443e-02
1.283500000000000085e+01 5.650000000000000000e+01 5.962599999999999767e+01 3.368193388029723234e-01
1.283699999999999974e+01 7.533599999999999852e+01 6.964499999999999602e+01 -5.414416761307786624e-02
1.285200000000000031e+01 6.803499999999999659e+01 7.352400000000000091e+01 3.309465718917371513e-01
1.285699999999999932e+01 7.129699999999999704e+01 6.604800000000000182e+01 8.976800247852259607e-02
1.289000000000000057e+01 5.524199999999999733e+01 7.080500000000000682e+01 -2.783554581545412132e-01
1.289199999999999946e+01 5.899000000000000199e+01 6.986700000000000443e+01 -3.419917535135737485e-01
1.298499999999999943e+01 6.076200000000000045e+01 7.398699999999999477e+01 -9.609031132991004143e-02
1.298499999999999943e+01 6.140599999999999881e+01 6.953300000000000125e+01 -1.131616730645076396e-01
1.301200000000000045e+01 7.938599999999999568e+01 5.378999999999999915e+01 -1.608869099247291490e-01
1.301500000000000057e+01 7.305599999999999739e+01 7.055299999999999727e+01 1.306242864539215731e-01
1.302200000000000024e+01 7.036899999999999977e+01 5.977499999999999858e+01 3.023541161444281977e-01
1.303999999999999915e+01 5.212599999999999767e+01 6.815200000000000102e+01 -2.620188580780493659e-01
1.304100000000000037e+01 7.871899999999999409e+01 4.916299999999999670e+01 -3.609650933279331397e-01
1.305499999999999972e+01 6.775600000000000023e+01 4.811800000000000210e+01 1.165654641192765198e-02
1.306099999999999994e+01 5.377799999999999869e+01 5.694599999999999795e+01 6.014448519013131100e-02
1.306499999999999950e+01 7.231000000000000227e+01 7.165200000000000102e+01 3.466974072474086066e-01
1.307099999999999973e+01 6.148499999999999943e+01 5.440500000000000114e+01 1.392929518824459478e-01
1.307499999999999929e+01 5.304299999999999926e+01 6.692499999999999716e+01 3.415726832081482367e-02
1.308900000000000041e+01 6.770900000000000318e+01 6.917499999999999716e+01 2.793297679606261408e-01
1.311400000000000077e+01 6.428300000000000125e+01 5.202499999999999858e+01 -4.885128962001588498e-02
1.313100000000000023e+01 6.831600000000000250e+01 5.462500000000000000e+01 1.042460606684908198e-01
1.314799999999999969e+01 5.825200000000000244e+01 7.681900000000000261e+01 -2.645083211852677363e-01
1.315600000000000058e+01 6.897799999999999443e+01 6.039399999999999835e+01 -7.730675766432519580e-02
1.326900000000000013e+01 8.001600000000000534e+01 6.027499999999999858e+01 1.920298732933654329e-01
1.329899999999999949e+01 6.978499999999999659e+01 6.793000000000000682e+01 2.574274335019188231e-01
1.334600000000000009e+01 7.174800000000000466e+01 5.779599999999999937e+01 2.816622090048522820e-01
1.338799999999999990e+01 5.760199999999999676e+01 6.988100000000000023e+01 -2.533018005413453233e-01
1.338799999999999990e+01 6.147099999999999653e+01 7.493099999999999739e+01 -1.280406957310844807e-01
1.338799999999999990e+01 7.048099999999999454e+01 5.850000000000000000e+01 1.402205223349639041e-01
1.341600000000000037e+01 6.358800000000000097e+01 7.043800000000000239e+01 8.833124792920303558e-02
1.344100000000000072e+01 7.038400000000000034e+01 6.406999999999999318e+01 -5.500657526626116095e-02
1.347799999999999976e+01 5.528900000000000148e+01 5.892699999999999960e+01 3.527990479784157835e-02
1.350399999999999956e+01 6.248499999999999943e+01 7.890200000000000102e+01 -1.351385881781297926e-01
1.352200000000000024e+01 5.447999999999999687e+01 7.554000000000000625e+01 -2.882880517086647831e-01
1.353200000000000003e+01 5.711500000000000199e+01 6.844299999999999784e+01 -2.748246032444919273e-01
1.356000000000000050e+01 8.078199999999999648e+01 5.900000000000000000e+01 1.986120593433318982e-01
1.361800000000000033e+01 6.849599999999999511e+01 6.805200000000000671e+01 2.636694110764349341e-01
1.363299999999999912e+01 6.031700000000000017e+01 7.989199999999999591e+01 -8.786779387183173140e-02
1.365700000000000003e+01 6.003600000000000136e+01 6.951000000000000512e+01 -3.435042714568829481e-01
1.370299999999999940e+01 5.474699999999999989e+01 6.998699999999999477e+01 -2.829886598433790090e-01
1.371299999999999919e+01 6.096500000000000341e+01 7.885999999999999943e+01 -9.582815096489563644e-02
1.374099999999999966e+01 6.587699999999999534e+01 7.064900000000000091e+01 3.167404258698601760e-01
1.379100000000000037e+01 5.427900000000000347e+01 6.725000000000000000e+01 -3.076654448618638127e-01
1.383799999999999919e+01 7.027299999999999613e+01 7.290099999999999625e+01 2.059082617078215327e-01
1.385999999999999943e+01 7.858299999999999841e+01 6.021200000000000330e+01 1.189025527018327810e-01
1.387400000000000055e+01 7.620699999999999363e+01 7.484900000000000375e+01 1.610296593238514096e-01
1.388599999999999923e+01 6.241599999999999682e+01 7.003900000000000148e+01 -1.808095653354023225e-01
1.390199999999999925e+01 7.056000000000000227e+01 6.674899999999999523e+01 2.149669149329171483e-02
1.392399999999999949e+01 5.975999999999999801e+01 7.333799999999999386e+01 -3.657832534998780583e-01
1.394200000000000017e+01 6.114800000000000324e+01 5.560900000000000176e+01 7.848125115855268674e-02
1.395299999999999940e+01 6.806100000000000705e+01 5.724600000000000222e+01 2.963437207039399390e-01
1.395599999999999952e+01 7.505800000000000693e+01 6.175500000000000256e+01 -3.919135620721535956e-02
1.395800000000000018e+01 5.749799999999999756e+01 5.992199999999999704e+01 3.725012014425090057e-02
1.395899999999999963e+01 6.910500000000000398e+01 6.161399999999999721e+01 -3.486752827501328478e-02
1.396499999999999986e+01 5.427199999999999847e+01 5.996900000000000119e+01 7.355229259915921358e-02
1.398799999999999955e+01 7.326200000000000045e+01 5.266799999999999926e+01 -1.998389697084385352e-01
1.399600000000000044e+01 6.038499999999999801e+01 7.770199999999999818e+01 -9.630831920393430334e-02
1.400000000000000000e+01 7.627700000000000102e+01 7.067600000000000193e+01 3.314124252614824018e-01
1.401500000000000057e+01 7.113200000000000500e+01 7.162800000000000011e+01 1.252606562157257131e-01
1.401800000000000068e+01 6.624599999999999511e+01 4.972800000000000153e+01 -9.949250719122064435e-02
1.402100000000000080e+01 6.324300000000000210e+01 7.777800000000000580e+01 -2.114264895142090039e-01
1.402299999999999969e+01 6.501000000000000512e+01 6.409499999999999886e+01 3.343280513531680098e-01
1.403599999999999959e+01 6.655599999999999739e+01 6.953799999999999670e+01 3.675022452396285999e-01
1.404599999999999937e+01 6.704000000000000625e+01 4.841400000000000148e+01 2.505805939429373019e-02
1.413400000000000034e+01 7.272400000000000375e+01 5.396699999999999875e+01 6.636893770797047676e-02
1.415300000000000047e+01 6.439000000000000057e+01 5.982399999999999807e+01 2.094782204871392106e-01
1.415499999999999936e+01 6.488100000000000023e+01 5.835799999999999699e+01 3.282534361746660689e-01
1.422899999999999920e+01 5.465400000000000347e+01 6.509600000000000364e+01 -1.641315943379508674e-02
1.423600000000000065e+01 5.894299999999999784e+01 7.765600000000000591e+01 -2.841868732989610291e-01
1.428200000000000003e+01 7.462000000000000455e+01 5.240800000000000125e+01 -1.794951275738651542e-01
1.428500000000000014e+01 5.833800000000000097e+01 5.907500000000000284e+01 8.916787423236474663e-02
1.430000000000000071e+01 5.500900000000000034e+01 6.626999999999999602e+01 -3.320501210377809209e-01
1.435599999999999987e+01 5.135199999999999676e+01 6.831799999999999784e+01 -2.755294347903533003e-01
1.438199999999999967e+01 6.402100000000000080e+01 5.169400000000000261e+01 -4.858684057358907127e-02
1.441399999999999970e+01 6.462699999999999534e+01 7.102100000000000080e+01 -2.665293525960008621e-03
1.443200000000000038e+01 7.265800000000000125e+01 6.794899999999999807e+01 -1.128330734515217426e-01
1.443500000000000050e+01 6.436499999999999488e+01 7.253700000000000614e+01 -1.060849705188495265e-02
1.444599999999999973e+01 6.773000000000000398e+01 5.491199999999999903e+01 2.402297659889444381e-01
1.446599999999999930e+01 6.073599999999999710e+01 6.246000000000000085e+01 1.187794943118948565e-01
1.447300000000000075e+01 5.070900000000000318e+01 6.970699999999999363e+01 -2.768158759366635691e-01
1.449200000000000088e+01 5.951899999999999835e+01 6.336899999999999977e+01 -5.200560322639128513e-02
1.450099999999999945e+01 7.379300000000000637e+01 7.538800000000000523e+01 1.616963374856560942e-01
1.451200000000000045e+01 6.735200000000000387e+01 5.637599999999999767e+01 2.519687222900285350e-01
1.453299999999999947e+01 5.740999999999999659e+01 6.111800000000000210e+01 3.605303782269117518e-02
1.454299999999999926e+01 5.976899999999999835e+01 5.557800000000000296e+01 1.463003336744206628e-01
1.456799999999999962e+01 5.178399999999999892e+01 7.079600000000000648e+01 -3.581866857763241763e-01
1.457300000000000040e+01 7.356100000000000705e+01 5.499699999999999989e+01 2.410938112548683121e-01
1.466200000000000081e+01 5.991299999999999670e+01 6.482999999999999829e+01 -8.935512371134803067e-02
1.468200000000000038e+01 5.506199999999999761e+01 7.524500000000000455e+01 -2.927994639608876293e-01
1.469200000000000017e+01 5.120799999999999841e+01 7.216899999999999693e+01 -3.607659295391344445e-01
1.471199999999999974e+01 7.545399999999999352e+01 5.340999999999999659e+01 -2.999372061031868597e-01
1.472499999999999964e+01 7.205800000000000693e+01 5.719299999999999784e+01 2.739379653069679565e-01
1.472899999999999920e+01 6.483499999999999375e+01 6.543399999999999750e+01 3.098312789098163211e-01
1.475000000000000000e+01 8.136700000000000443e+01 5.892399999999999949e+01 9.645963216175486299e-02
1.476099999999999923e+01 5.679699999999999704e+01 6.801399999999999579e+01 -3.028916063584480289e-01
1.476299999999999990e+01 7.500300000000000011e+01 7.442600000000000193e+01 1.165205286663660023e-01
1.477200000000000024e+01 8.435899999999999466e+01 5.879699999999999704e+01 8.254109871569853540e-02
1.478899999999999970e+01 6.289699999999999847e+01 5.146399999999999864e+01 -3.792854344989466386e-01
1.478899999999999970e+01 8.022299999999999898e+01 5.081099999999999994e+01 -3.677357632800032361e-01
1.483500000000000085e+01 7.336799999999999500e+01 5.639500000000000313e+01 2.327701868259773321e-01
1.484699999999999953e+01 5.993599999999999994e+01 6.916299999999999670e+01 -8.923861939103119867e-02
1.485599999999999987e+01 7.491200000000000614e+01 5.470100000000000051e+01 2.821459136449900318e-01
1.486700000000000088e+01 6.335799999999999699e+01 6.583400000000000318e+01 5.718796137528028151e-02
1.496899999999999942e+01 6.850900000000000034e+01 7.678900000000000148e+01 2.664210412829569607e-01
1.499099999999999966e+01 5.633100000000000307e+01 6.664600000000000080e+01 -3.566668720951721716e-01
1.499600000000000044e+01 6.630700000000000216e+01 6.882899999999999352e+01 3.589009610839642983e-01
1.500600000000000023e+01 7.409600000000000364e+01 6.232099999999999795e+01 -2.245890887980537057e-02
1.501399999999999935e+01 6.832399999999999807e+01 6.182600000000000051e+01 3.896459666107423003e-01
1.502500000000000036e+01 7.150600000000000023e+01 6.730599999999999739e+01 2.958282790232572568e-01
1.504899999999999949e+01 6.695000000000000284e+01 4.767999999999999972e+01 1.701819019588885970e-02
1.511999999999999922e+01 5.500800000000000267e+01 7.376000000000000512e+01 -2.645388799228923782e-01
1.514899999999999913e+01 8.206799999999999784e+01 5.770700000000000074e+01 8.848088800394612874e-02
1.519899999999999984e+01 6.625499999999999545e+01 5.667199999999999704e+01 2.223596493253210404e-01
1.522600000000000087e+01 7.858400000000000318e+01 5.982600000000000051e+01 4.489091081075699541e-02
1.524300000000000033e+01 7.457999999999999829e+01 5.686899999999999977e+01 2.469489514152275189e-01
1.526099999999999923e+01 7.551000000000000512e+01 5.586299999999999955e+01 2.634693850686985472e-01
1.528100000000000058e+01 6.586100000000000421e+01 5.805499999999999972e+01 2.136297380621712261e-01
1.530899999999999928e+01 6.033299999999999841e+01 7.295300000000000296e+01 3.095040231864386593e-01
1.533600000000000030e+01 6.329500000000000171e+01 7.768600000000000705e+01 1.087287664373608465e-01
1.533900000000000041e+01 6.962500000000000000e+01 5.229200000000000159e+01 -1.414805351026038882e-01
1.534900000000000020e+01 6.520699999999999363e+01 5.162100000000000222e+01 -1.164568918342764742e-01
1.535399999999999920e+01 6.745000000000000284e+01 6.103399999999999892e+01 3.020530921041225114e-01
1.537100000000000044e+01 5.561899999999999977e+01 7.610099999999999909e+01 -3.081541776027490465e-01
1.538700000000000045e+01 6.571500000000000341e+01 5.017300000000000182e+01 -9.992222195799518869e-02
1.540300000000000047e+01 7.308899999999999864e+01 6.126500000000000057e+01 3.149079678010586192e-01
1.540799999999999947e+01 7.162199999999999989e+01 7.157200000000000273e+01 1.443598291548153500e-01
1.551999999999999957e+01 7.942400000000000659e+01 5.140800000000000125e+01 -6.147247478842680218e-02
1.556400000000000006e+01 6.539199999999999591e+01 7.352299999999999613e+01 2.499999999999999445e-01
1.559600000000000009e+01 6.872199999999999420e+01 5.464999999999999858e+01 6.962172705857340438e-02
1.561299999999999955e+01 5.872099999999999653e+01 7.705599999999999739e+01 -3.118434615950932964e-01
1.564400000000000013e+01 7.823099999999999454e+01 5.103900000000000148e+01 -3.686474596787795988e-01
1.564700000000000024e+01 5.862400000000000233e+01 6.294700000000000273e+01 -9.387712076593386634e-02
1.565499999999999936e+01 6.953400000000000603e+01 7.609000000000000341e+01 7.958501108892028497e-02
1.566999999999999993e+01 6.595799999999999841e+01 7.852599999999999625e+01 1.628834735938499700e-01
1.569299999999999962e+01 5.823499999999999943e+01 6.147099999999999653e+01 7.530508392694931774e-02
1.571400000000000041e+01 7.981300000000000239e+01 7.383499999999999375e+01 2.791272022117990970e-01
1.572400000000000020e+01 7.517900000000000205e+01 7.054099999999999682e+01 3.278533263482729110e-01
1.576500000000000057e+01 6.783700000000000330e+01 6.575400000000000489e+01 1.325591509802613865e-01
1.576800000000000068e+01 8.345799999999999841e+01 5.800399999999999778e+01 8.298214904161901884e-02
1.577299999999999969e+01 6.975100000000000477e+01 5.094700000000000273e+01 -8.638625631619342715e-02
1.580300000000000082e+01 6.854999999999999716e+01 6.311999999999999744e+01 3.999453937453374963e-01
1.594299999999999962e+01 5.928999999999999915e+01 7.602899999999999636e+01 -3.031493784839744965e-01
1.594400000000000084e+01 7.196299999999999386e+01 6.613899999999999579e+01 1.964132411073283430e-02
1.595800000000000018e+01 6.411299999999999955e+01 7.654800000000000182e+01 3.194191049573115448e-02
1.598399999999999999e+01 5.704699999999999704e+01 7.883799999999999386e+01 -3.299201864614468294e-01
1.598900000000000077e+01 6.695600000000000307e+01 6.493200000000000216e+01 2.582745978763255623e-01
1.600400000000000134e+01 5.675699999999999790e+01 6.880700000000000216e+01 4.991591559988178134e-02
1.603600000000000136e+01 6.882999999999999829e+01 5.319299999999999784e+01 -4.894553028718874599e-02
1.603800000000000026e+01 7.807899999999999352e+01 5.525200000000000244e+01 1.481132921638407263e-01
1.605199999999999960e+01 6.269500000000000028e+01 7.848399999999999466e+01 9.463497460050884769e-02
1.607300000000000040e+01 6.478100000000000591e+01 5.421800000000000352e+01 -1.665773722451878436e-01
1.607900000000000063e+01 6.991700000000000159e+01 7.024500000000000455e+01 -6.128955254311992812e-02
1.610600000000000165e+01 6.721299999999999386e+01 6.363100000000000023e+01 2.895655259695818495e-01
1.615899999999999892e+01 6.550499999999999545e+01 6.538899999999999579e+01 2.313048442722617781e-01
1.620700000000000074e+01 8.121599999999999397e+01 5.698599999999999710e+01 3.570396574804322876e-02
1.622100000000000009e+01 5.928199999999999648e+01 7.227299999999999613e+01 -3.216048271158725158e-02
1.624599999999999866e+01 7.490000000000000568e+01 6.275600000000000023e+01 2.293029428488284685e-02
1.627199999999999847e+01 7.994299999999999784e+01 5.264000000000000057e+01 -7.971908446264798498e-02
1.630099999999999838e+01 7.541599999999999682e+01 7.449299999999999500e+01 -1.081922032102160085e-02
1.634400000000000119e+01 7.093600000000000705e+01 7.090699999999999648e+01 1.026166572390641851e-01
1.643700000000000117e+01 5.787400000000000233e+01 7.769799999999999329e+01 -3.388472452747547381e-01
1.648900000000000077e+01 6.316799999999999926e+01 7.546999999999999886e+01 1.113835560980886395e-02
1.650799999999999912e+01 8.003300000000000125e+01 5.751400000000000290e+01 2.095628297340467339e-03
1.652100000000000080e+01 5.628399999999999892e+01 6.654999999999999716e+01 -7.563041056665600545e-03
1.655999999999999872e+01 7.596699999999999875e+01 6.912600000000000477e+01 -1.719610945389297152e-01
1.657400000000000162e+01 5.824799999999999756e+01 7.323699999999999477e+01 -2.607412987707983798e-01
1.660000000000000142e+01 7.649699999999999989e+01 7.356499999999999773e+01 2.124477091467564249e-01
1.662699999999999889e+01 6.521899999999999409e+01 5.840800000000000125e+01 2.087281971663622060e-01
1.662800000000000011e+01 5.478499999999999659e+01 7.354699999999999704e+01 -2.728549435828030445e-01
1.668900000000000006e+01 6.488800000000000523e+01 5.207600000000000051e+01 -1.278039794300948051e-01
1.670799999999999841e+01 6.269200000000000017e+01 6.962000000000000455e+01 2.925102486597833673e-01
1.674500000000000099e+01 8.162699999999999534e+01 5.596900000000000119e+01 -8.466806334467696926e-02
1.677899999999999991e+01 6.543099999999999739e+01 6.669700000000000273e+01 3.716024692618791758e-01
1.680799999999999983e+01 6.581199999999999761e+01 7.805899999999999750e+01 1.514198634027484613e-01
1.681299999999999883e+01 7.991100000000000136e+01 6.818500000000000227e+01 -4.313477373473505183e-02
1.685699999999999932e+01 5.581400000000000006e+01 7.869599999999999795e+01 -3.385576668802958156e-01
1.687600000000000122e+01 7.745499999999999829e+01 6.939799999999999613e+01 -5.257091088241270388e-02
1.688400000000000034e+01 5.729099999999999682e+01 6.121399999999999864e+01 1.662377352021740529e-01
1.690399999999999991e+01 6.907099999999999795e+01 5.050800000000000267e+01 9.213107319772333159e-02
1.692399999999999949e+01 5.594500000000000028e+01 6.792400000000000659e+01 -3.384537701654902753e-01
1.694500000000000028e+01 8.328100000000000591e+01 5.879200000000000159e+01 6.765102834880451499e-02
1.694600000000000151e+01 6.471299999999999386e+01 5.335999999999999943e+01 -1.285455209663583231e-01
1.695899999999999963e+01 7.343099999999999739e+01 7.328300000000000125e+01 -3.617305181479973236e-02
1.696600000000000108e+01 7.835399999999999920e+01 7.168600000000000705e+01 2.833074096056460434e-01
1.703900000000000148e+01 6.530100000000000193e+01 5.965899999999999892e+01 1.963445756523984342e-01
1.704200000000000159e+01 7.878900000000000148e+01 5.544400000000000261e+01 -1.277061087413524643e-01
1.704500000000000171e+01 6.981900000000000261e+01 7.669899999999999807e+01 1.843302181691582053e-01
1.705199999999999960e+01 6.493699999999999761e+01 7.708899999999999864e+01 1.621993452351443432e-01
1.708099999999999952e+01 6.405200000000000671e+01 7.399200000000000443e+01 1.201371589182347391e-02
1.710000000000000142e+01 7.781100000000000705e+01 6.526999999999999602e+01 -4.994836276110742670e-03
1.710800000000000054e+01 6.937500000000000000e+01 6.281400000000000006e+01 -1.564328914880353666e-02
1.712099999999999866e+01 7.990900000000000603e+01 7.358700000000000330e+01 3.045826264807703909e-01
1.713800000000000168e+01 7.416800000000000637e+01 7.427599999999999625e+01 -1.006598270170115661e-01
1.714300000000000068e+01 5.713799999999999812e+01 7.279300000000000637e+01 -2.654362012020516914e-01
1.717299999999999827e+01 6.814700000000000557e+01 5.274199999999999733e+01 -1.525770501825021198e-02
1.718900000000000006e+01 5.704699999999999704e+01 5.994200000000000017e+01 2.478790633390984266e-01
1.723300000000000054e+01 5.647399999999999665e+01 7.518999999999999773e+01 -2.988096508155267950e-01
1.727700000000000102e+01 6.984900000000000375e+01 5.902700000000000102e+01 2.831464138145278753e-01
1.728699999999999903e+01 6.466400000000000148e+01 5.755299999999999727e+01 -1.062596844578640905e-02
1.732199999999999918e+01 5.857800000000000296e+01 5.746000000000000085e+01 -1.015882737777677389e-02
1.734100000000000108e+01 6.486799999999999500e+01 6.220700000000000074e+01 9.539484164941172684e-02
1.736199999999999832e+01 7.749200000000000443e+01 7.398300000000000409e+01 2.769174540130429074e-01
1.737900000000000134e+01 6.040299999999999869e+01 7.043300000000000693e+01 6.556341925167850915e-02
1.739600000000000080e+01 5.697299999999999898e+01 7.160299999999999443e+01 -5.033079918689047083e-02
1.743299999999999983e+01 6.889000000000000057e+01 6.783599999999999852e+01 -6.994974156406918823e-03
1.746300000000000097e+01 7.904699999999999704e+01 5.303699999999999903e+01 -9.747758891930452529e-02
1.747599999999999909e+01 5.604099999999999682e+01 7.382899999999999352e+01 -2.783707312066415751e-01
1.747800000000000153e+01 5.994599999999999795e+01 7.167900000000000205e+01 -1.510304049025051332e-01
1.747899999999999920e+01 7.912600000000000477e+01 5.687700000000000244e+01 -1.816553347574491328e-01
1.750400000000000134e+01 6.801000000000000512e+01 7.821999999999999886e+01 2.125084593833755642e-01
1.751300000000000168e+01 5.679099999999999682e+01 6.215299999999999869e+01 -1.753808643825855995e-01
1.758500000000000085e+01 7.764499999999999602e+01 7.074599999999999511e+01 2.511779047873226034e-01
1.759100000000000108e+01 7.782399999999999807e+01 5.766700000000000159e+01 1.068176086073044928e-01
1.760900000000000176e+01 6.826099999999999568e+01 5.142000000000000171e+01 3.503551140449469303e-02
1.762300000000000111e+01 7.860599999999999454e+01 7.298600000000000421e+01 3.228585387976789511e-01
1.764099999999999824e+01 6.855100000000000193e+01 5.792699999999999960e+01 2.502663515790085613e-01
1.770100000000000051e+01 7.915399999999999636e+01 6.786100000000000421e+01 -3.550208649454297122e-02
1.770100000000000051e+01 8.110299999999999443e+01 4.890699999999999648e+01 -3.499999999999999778e-01
1.772200000000000131e+01 6.851200000000000045e+01 7.700799999999999557e+01 3.446189139748989105e-01
1.775300000000000011e+01 7.070099999999999341e+01 7.580200000000000671e+01 8.878713523306813737e-02
1.776699999999999946e+01 6.458599999999999852e+01 6.695199999999999818e+01 3.900444074425545860e-01
1.778999999999999915e+01 7.928199999999999648e+01 5.444899999999999807e+01 -1.913061566685501924e-01
1.781200000000000117e+01 7.145199999999999818e+01 7.096500000000000341e+01 -1.260601549220941864e-01
1.781400000000000006e+01 7.794299999999999784e+01 6.837999999999999545e+01 -1.109182424616889096e-01
1.781800000000000139e+01 5.752400000000000091e+01 7.731399999999999295e+01 -3.603576084226993159e-01
1.784900000000000020e+01 7.751800000000000068e+01 7.512199999999999989e+01 1.024364222444335837e-01
1.787300000000000111e+01 6.019299999999999784e+01 6.748099999999999454e+01 2.478300181935739199e-01
1.790399999999999991e+01 6.243999999999999773e+01 6.938299999999999557e+01 2.794654152885350240e-01
1.793599999999999994e+01 6.992600000000000193e+01 7.323900000000000432e+01 -1.202078300166130320e-01
1.797800000000000153e+01 6.668000000000000682e+01 7.859699999999999420e+01 1.395550399610152592e-01
1.803399999999999892e+01 6.650400000000000489e+01 8.012500000000000000e+01 1.083738804250877347e-01
1.803600000000000136e+01 7.906600000000000250e+01 4.805199999999999960e+01 -3.500000000000000333e-01
1.806500000000000128e+01 7.393099999999999739e+01 7.519899999999999807e+01 -5.968508062184957330e-02
1.809499999999999886e+01 6.161299999999999955e+01 6.364200000000000301e+01 -1.472279715354962368e-02
1.812399999999999878e+01 8.066800000000000637e+01 6.593899999999999295e+01 7.816827354459815469e-02
1.813500000000000156e+01 6.424699999999999989e+01 6.149000000000000199e+01 1.122333204203763979e-01
1.814099999999999824e+01 7.224899999999999523e+01 7.738500000000000512e+01 1.718401451273532388e-01
1.815899999999999892e+01 5.712700000000000244e+01 7.587300000000000466e+01 -3.169530774778319682e-01
1.816000000000000014e+01 5.806799999999999784e+01 5.667600000000000193e+01 -3.680037270303931907e-01
1.817800000000000082e+01 7.217499999999999716e+01 6.966800000000000637e+01 -7.019063861943443394e-02
1.819600000000000151e+01 5.643200000000000216e+01 7.832599999999999341e+01 -3.507974326086391592e-01
1.820799999999999841e+01 7.186499999999999488e+01 7.620900000000000318e+01 1.920541107696306649e-01
1.823799999999999955e+01 6.382900000000000063e+01 6.610899999999999466e+01 1.819881579672130989e-01
1.825000000000000000e+01 6.717799999999999727e+01 7.163700000000000045e+01 2.500000000000000555e-01
1.825499999999999901e+01 5.584000000000000341e+01 5.802300000000000324e+01 5.799532663974671723e-03
1.827599999999999980e+01 6.462199999999999989e+01 6.003199999999999648e+01 7.344861331704274909e-02
1.828000000000000114e+01 5.611200000000000188e+01 5.954899999999999949e+01 -2.777392399482527668e-02
1.830399999999999849e+01 6.462300000000000466e+01 6.836400000000000432e+01 4.087724528616346054e-01
1.831500000000000128e+01 7.759600000000000364e+01 6.538200000000000500e+01 1.109336797594977914e-02
1.832499999999999929e+01 5.848499999999999943e+01 5.550000000000000000e+01 -3.641784336916442655e-01
1.837300000000000111e+01 7.162600000000000477e+01 5.438199999999999790e+01 2.452460666873409190e-01
1.840399999999999991e+01 6.442400000000000659e+01 5.373899999999999721e+01 1.415620308720268450e-01
1.840899999999999892e+01 7.261400000000000432e+01 5.536599999999999966e+01 1.189865878865463411e-01
1.841799999999999926e+01 8.011400000000000432e+01 4.874699999999999989e+01 -3.499999999999999223e-01
1.842899999999999849e+01 6.797400000000000375e+01 7.617900000000000205e+01 3.127877557018968191e-01
1.843499999999999872e+01 6.504000000000000625e+01 8.046399999999999864e+01 1.016271539120467693e-01
1.847599999999999909e+01 6.109599999999999653e+01 6.979000000000000625e+01 -4.215665758601284258e-02
1.852100000000000080e+01 6.001899999999999835e+01 7.233799999999999386e+01 -1.279604569965708261e-01
1.852499999999999858e+01 6.953600000000000136e+01 7.223000000000000398e+01 -1.334125786268990088e-01
1.857100000000000151e+01 7.022599999999999909e+01 7.109699999999999420e+01 -1.934620984128939125e-01
1.859299999999999997e+01 6.292699999999999960e+01 5.403199999999999648e+01 -1.163087825862348934e-01
1.860600000000000165e+01 7.654099999999999682e+01 5.686399999999999721e+01 -5.839693289879308892e-03
1.861499999999999844e+01 6.051200000000000045e+01 6.292799999999999727e+01 7.910930768981843525e-03
1.865800000000000125e+01 7.935599999999999454e+01 5.210699999999999932e+01 -3.499999999999999778e-01
1.869099999999999895e+01 7.318600000000000705e+01 5.938100000000000023e+01 3.500841125673475052e-01
1.869399999999999906e+01 7.715800000000000125e+01 7.093699999999999761e+01 -1.662905380106517728e-01
1.869699999999999918e+01 6.523099999999999454e+01 5.494299999999999784e+01 1.111269431472749619e-01
1.872700000000000031e+01 7.517300000000000182e+01 6.569100000000000250e+01 -3.327782417391992459e-02
1.873799999999999955e+01 6.329899999999999949e+01 6.878100000000000591e+01 3.017273672108344296e-01
1.874099999999999966e+01 8.156300000000000239e+01 6.377300000000000324e+01 -2.194633940975843078e-02
1.874299999999999855e+01 7.957699999999999818e+01 6.682099999999999795e+01 5.358130798124226268e-02
1.875199999999999889e+01 6.907699999999999818e+01 6.765300000000000580e+01 -1.093762608844161266e-01
1.883599999999999852e+01 7.271599999999999397e+01 7.512500000000000000e+01 1.674903055943654795e-01
1.887199999999999989e+01 6.323199999999999932e+01 6.193399999999999750e+01 -1.239402620327100524e-01
1.887399999999999878e+01 6.549200000000000443e+01 7.142900000000000205e+01 -2.684344764956158712e-03
1.887800000000000011e+01 7.852400000000000091e+01 5.108899999999999864e+01 -3.499999999999999778e-01
1.888500000000000156e+01 6.290699999999999648e+01 6.335900000000000176e+01 2.169590915488967542e-01
1.892800000000000082e+01 7.635800000000000409e+01 6.473300000000000409e+01 -7.395373739946643765e-02
1.893199999999999861e+01 6.764900000000000091e+01 8.225900000000000034e+01 -1.588981202140283405e-02
1.898799999999999955e+01 6.032200000000000273e+01 6.854200000000000159e+01 2.696041761541581039e-01
1.899500000000000099e+01 6.754300000000000637e+01 8.071899999999999409e+01 2.091234721438113842e-01
1.902599999999999980e+01 5.689399999999999835e+01 5.716700000000000159e+01 6.064098094548166923e-02
1.913599999999999923e+01 7.552200000000000557e+01 6.701999999999999602e+01 -5.342387598111304758e-02
1.914300000000000068e+01 8.129999999999999716e+01 6.500400000000000489e+01 6.341389107189955923e-03
1.916100000000000136e+01 7.839900000000000091e+01 6.604399999999999693e+01 3.371792330336782773e-02
1.920599999999999952e+01 6.007500000000000284e+01 6.044899999999999807e+01 -2.471471624873418926e-01
1.921999999999999886e+01 6.912399999999999523e+01 5.717000000000000171e+01 3.415143700761377743e-01
1.923600000000000065e+01 6.821099999999999852e+01 7.222299999999999898e+01 1.058419521213623676e-02
1.926099999999999923e+01 5.742000000000000171e+01 7.538500000000000512e+01 -3.066677708813052572e-01
1.927299999999999969e+01 6.878199999999999648e+01 6.625199999999999534e+01 1.852736903290465587e-01
1.937000000000000099e+01 8.034399999999999409e+01 5.231400000000000006e+01 -3.499999999999999778e-01
1.938100000000000023e+01 6.718300000000000693e+01 6.069599999999999795e+01 2.200470775355430619e-01
1.947299999999999898e+01 6.563200000000000500e+01 6.840600000000000591e+01 -1.255091776499546105e-02
1.947800000000000153e+01 5.893299999999999983e+01 6.899699999999999989e+01 1.191058935237641753e-01
1.950900000000000034e+01 6.945499999999999829e+01 6.856799999999999784e+01 -1.086016005423420250e-01
1.951899999999999835e+01 6.555700000000000216e+01 5.985699999999999932e+01 2.239432759632843106e-01
1.953800000000000026e+01 7.130100000000000193e+01 5.367000000000000171e+01 2.436109536524770081e-01
1.954700000000000060e+01 6.834199999999999875e+01 5.592199999999999704e+01 2.718577842273327549e-01
