-6.714000000000000412e+00 -5.023700000000000188e+01 3.187199999999999989e+01 2.675516919487148232e-02
-6.637999999999999901e+00 -5.087400000000000233e+01 5.711399999999999721e+01 -3.876697738014526357e-02
-6.605999999999999872e+00 -2.122899999999999920e+01 3.521800000000000352e+01 3.323886129079619001e-01
-6.575000000000000178e+00 -3.723400000000000176e+01 4.556799999999999784e+01 -1.877864039907617966e-01
-6.498000000000000220e+00 -2.686700000000000088e+01 3.211099999999999710e+01 -3.377437478336692833e-01
-6.491999999999999993e+00 -4.567900000000000205e+01 4.927900000000000347e+01 -3.369760583805359033e-01
-6.471000000000000085e+00 -4.536999999999999744e+01 5.707200000000000273e+01 -2.128217812345934434e-01
-6.453999999999999737e+00 -3.507699999999999818e+01 4.666799999999999926e+01 -9.685307182275017246e-02
-6.445000000000000284e+00 -2.890800000000000125e+01 5.149600000000000222e+01 1.660529335257170391e-01
-6.427999999999999936e+00 -3.973799999999999955e+01 4.717600000000000193e+01 5.109203674944603341e-02
-6.427999999999999936e+00 -3.006899999999999906e+01 4.312400000000000233e+01 -1.939470206335314195e-01
-6.421999999999999709e+00 -5.238300000000000267e+01 3.365400000000000347e+01 3.758848915279667247e-01
-6.421000000000000263e+00 -4.351200000000000045e+01 5.324699999999999989e+01 1.313287608422232799e-01
-6.416000000000000369e+00 -3.985199999999999676e+01 6.289099999999999824e+01 1.312981899861341006e-01
-6.411999999999999922e+00 -3.528999999999999915e+01 5.741700000000000159e+01 -2.811552282133274790e-03
-6.402999999999999581e+00 -2.376599999999999824e+01 3.306499999999999773e+01 -1.276792718115411507e-01
-6.379999999999999893e+00 -2.130300000000000082e+01 3.145799999999999841e+01 1.775026211823614586e-01
-6.346000000000000085e+00 -3.114600000000000080e+01 4.873400000000000176e+01 3.800000000000000044e-01
-6.344000000000000306e+00 -1.734799999999999898e+01 4.718399999999999750e+01 2.064929782633413979e-01
-6.341999999999999638e+00 -5.254200000000000159e+01 3.242600000000000193e+01 -1.766358442338430632e-02
-6.336000000000000298e+00 -2.394500000000000028e+01 5.563799999999999812e+01 -2.006581826686507364e-01
-6.302999999999999936e+00 -1.656299999999999883e+01 3.764099999999999824e+01 -2.195100734090642547e-01
-6.298000000000000043e+00 -4.215200000000000102e+01 5.257600000000000051e+01 7.005400356694614639e-02
-6.272999999999999687e+00 -4.179999999999999716e+01 4.808899999999999864e+01 3.511338140283452175e-02
-6.224999999999999645e+00 -4.265800000000000125e+01 4.475399999999999778e+01 -1.226145241352060850e-01
-6.166000000000000369e+00 -1.978000000000000114e+01 5.789900000000000091e+01 -5.668142938491745747e-02
-6.128000000000000114e+00 -1.507900000000000063e+01 4.083299999999999841e+01 -7.599779174245011037e-02
-6.125000000000000000e+00 -4.134899999999999665e+01 6.033700000000000330e+01 1.697749989738738530e-01
-6.113000000000000433e+00 -3.297699999999999676e+01 4.042199999999999704e+01 -2.347717337534290516e-01
-6.110999999999999766e+00 -3.896399999999999864e+01 5.500500000000000256e+01 7.087902653331111524e-02
-6.092999999999999972e+00 -1.523300000000000054e+01 3.691899999999999693e+01 -1.908159871548195108e-01
-6.078999999999999737e+00 -1.961799999999999855e+01 5.665500000000000114e+01 -3.429579092517340971e-02
-6.073000000000000398e+00 -1.673900000000000077e+01 4.615299999999999869e+01 3.487790571126282019e-02
-6.062000000000000277e+00 -2.806800000000000139e+01 3.249300000000000210e+01 -3.383142957683072938e-01
-6.060999999999999943e+00 -2.248100000000000165e+01 5.064500000000000313e+01 1.528998553693366458e-01
-6.032000000000000028e+00 -4.526100000000000279e+01 5.159899999999999665e+01 -2.782646374627954500e-01
-6.027000000000000135e+00 -2.115099999999999980e+01 3.029299999999999926e+01 1.623727631190109988e-01
-6.014999999999999680e+00 -2.870799999999999841e+01 4.140100000000000335e+01 1.696061340138118878e-01
-6.011999999999999567e+00 -3.784000000000000341e+01 5.599499999999999744e+01 2.026685762028087867e-01
-5.974999999999999645e+00 -1.801699999999999946e+01 4.953699999999999903e+01 -1.527564227031067215e-02
-5.959999999999999964e+00 -4.028600000000000136e+01 5.572099999999999653e+01 -1.694313275819000764e-01
-5.937000000000000277e+00 -2.393100000000000094e+01 2.701699999999999946e+01 -4.162036555755166400e-02
-5.891000000000000014e+00 -4.354699999999999704e+01 6.081300000000000239e+01 1.108752919673408749e-01
-5.878000000000000114e+00 -5.135600000000000165e+01 3.431799999999999784e+01 -9.015744821536068876e-02
-5.878000000000000114e+00 -4.951800000000000068e+01 2.852199999999999847e+01 9.956606217800603731e-02
-5.871999999999999886e+00 -1.017300000000000004e+01 3.769400000000000261e+01 -6.721791261431574183e-02
-5.858999999999999986e+00 -4.484300000000000352e+01 5.036500000000000199e+01 4.471785830026685227e-02
-5.783000000000000362e+00 -4.533100000000000307e+01 4.529899999999999949e+01 -1.002545007815448946e-01
-5.729000000000000092e+00 -2.400100000000000122e+01 5.346500000000000341e+01 -1.728365634422702026e-03
-5.725999999999999979e+00 -2.739699999999999847e+01 4.651700000000000301e+01 3.436259480930239918e-01
-5.684999999999999609e+00 -2.785600000000000165e+01 4.507300000000000040e+01 4.359439133522989562e-02
-5.580000000000000071e+00 -4.973100000000000165e+01 3.234000000000000341e+01 -6.155188166272641814e-02
-5.572000000000000064e+00 -4.838000000000000256e+01 2.897100000000000009e+01 7.670204783945337723e-02
-5.540000000000000036e+00 -3.544599999999999795e+01 4.740400000000000347e+01 -5.725150785948647514e-02
-5.540000000000000036e+00 -2.784400000000000119e+01 5.208700000000000330e+01 5.483624389098260693e-02
-5.520999999999999908e+00 -4.991400000000000148e+01 2.737800000000000011e+01 8.029519408222483834e-02
-5.493999999999999773e+00 -4.251899999999999835e+01 6.025300000000000011e+01 1.494908022095398081e-01
-5.490999999999999659e+00 -3.404200000000000159e+01 4.060000000000000142e+01 -2.679591725085449516e-01
-5.490999999999999659e+00 -2.487699999999999889e+01 3.325500000000000256e+01 2.624369461471820486e-01
-5.485999999999999766e+00 -2.504500000000000171e+01 2.736599999999999966e+01 -9.872204296985577499e-03
-5.467999999999999972e+00 -2.577499999999999858e+01 3.203000000000000114e+01 -3.499999999999999778e-01
-5.439000000000000057e+00 -4.453699999999999903e+01 5.268099999999999739e+01 -2.325933973791091403e-01
-5.435999999999999943e+00 -2.406599999999999895e+01 5.466100000000000136e+01 1.884995704307065034e-01
-5.432000000000000384e+00 -1.726800000000000068e+01 4.840699999999999648e+01 2.626958987720166561e-01
-5.408999999999999808e+00 -1.427299999999999969e+01 3.777199999999999847e+01 -1.081815559816450278e-01
-5.399000000000000021e+00 -2.268499999999999872e+01 2.766900000000000048e+01 -4.640880862667027401e-02
-5.355999999999999872e+00 -4.852400000000000091e+01 6.130199999999999960e+01 2.881228248230367078e-02
-5.307000000000000384e+00 -2.686799999999999855e+01 3.779399999999999693e+01 1.259668697209245791e-01
-5.306000000000000050e+00 -1.874699999999999989e+01 3.837299999999999756e+01 1.890973460857184318e-01
-5.301999999999999602e+00 -3.450699999999999790e+01 4.202300000000000324e+01 -2.796827936551137817e-01
-5.269000000000000128e+00 -4.140999999999999659e+01 5.294400000000000261e+01 -1.055919826822682844e-01
-5.261999999999999567e+00 -4.301599999999999824e+01 4.569100000000000250e+01 -1.709072979473525988e-01
-5.251000000000000334e+00 -4.585099999999999909e+01 5.725800000000000267e+01 -1.254528751245834184e-01
-5.232000000000000206e+00 -4.382999999999999829e+01 5.010399999999999920e+01 1.184942829198866107e-02
-5.224000000000000199e+00 -5.079599999999999937e+01 5.772599999999999909e+01 -3.672637616325528653e-01
-5.176000000000000156e+00 -3.479699999999999704e+01 5.734799999999999898e+01 4.644999000147699564e-02
-5.116999999999999993e+00 -1.041399999999999970e+01 3.562899999999999778e+01 3.023307234906138369e-02
-5.102999999999999758e+00 -3.722899999999999920e+01 4.519899999999999807e+01 -2.996819979782415766e-01
-5.076999999999999957e+00 -2.995400000000000063e+01 4.361599999999999966e+01 -2.684300158641811929e-01
-5.070999999999999730e+00 -5.029699999999999704e+01 3.368500000000000227e+01 -1.650334526384254763e-01
-5.062999999999999723e+00 -2.926000000000000156e+01 4.497699999999999676e+01 2.685964262789753559e-02
-5.049999999999999822e+00 -1.991600000000000037e+01 5.598400000000000176e+01 -2.097101211932857201e-02
-5.049000000000000377e+00 -4.435600000000000165e+01 4.595799999999999841e+01 -1.569924556729501430e-01
-5.019000000000000128e+00 -3.184700000000000131e+01 3.867499999999999716e+01 -2.871055383308003250e-01
-5.017000000000000348e+00 -3.472699999999999676e+01 3.966400000000000148e+01 -2.651404954994047714e-01
-5.011000000000000121e+00 -4.555100000000000193e+01 5.373700000000000188e+01 -3.500000000000000333e-01
-5.011000000000000121e+00 -1.737399999999999878e+01 3.779999999999999716e+01 -8.191891454834128450e-02
-4.995000000000000107e+00 -2.695100000000000051e+01 5.098700000000000188e+01 3.421249087896593433e-01
-4.979000000000000092e+00 -1.051900000000000013e+01 3.687599999999999767e+01 4.384106948119563529e-02
-4.953999999999999737e+00 -4.884700000000000131e+01 3.173900000000000077e+01 -3.221678106323487556e-02
-4.940000000000000391e+00 -2.178300000000000125e+01 5.048799999999999955e+01 2.642944729312058372e-01
-4.886000000000000121e+00 -2.355399999999999849e+01 4.681700000000000017e+01 1.764439410200124014e-01
-4.881999999999999673e+00 -2.687199999999999989e+01 4.425200000000000244e+01 3.800000000000000044e-01
-4.870000000000000107e+00 -2.746699999999999875e+01 3.889000000000000057e+01 -7.181825964975596666e-02
-4.868000000000000327e+00 -4.675300000000000011e+01 5.344299999999999784e+01 -3.499999999999999778e-01
-4.866999999999999993e+00 -2.073000000000000043e+01 4.984899999999999665e+01 3.060767599493978072e-02
-4.863999999999999879e+00 -3.774499999999999744e+01 4.927700000000000102e+01 -6.164995695407708698e-02
-4.863999999999999879e+00 -3.376299999999999812e+01 5.674000000000000199e+01 6.497280965525745189e-02
-4.847999999999999865e+00 -3.221900000000000119e+01 4.278199999999999648e+01 -1.034291140839099787e-01
-4.831999999999999851e+00 -4.192399999999999949e+01 4.790200000000000102e+01 8.212574784111852100e-03
-4.828000000000000291e+00 -4.619700000000000273e+01 5.836200000000000188e+01 -1.058701727841008661e-01
-4.815999999999999837e+00 -2.291600000000000037e+01 2.904599999999999937e+01 1.557834951830305327e-02
-4.796999999999999709e+00 -4.507000000000000028e+01 5.496000000000000085e+01 -7.275206672589655185e-03
-4.748000000000000220e+00 -4.121600000000000108e+01 4.167600000000000193e+01 -2.370809031683797276e-03
-4.722999999999999865e+00 -2.697400000000000020e+01 5.522099999999999653e+01 1.271440716983353592e-01
-4.676999999999999602e+00 -4.284499999999999886e+01 5.665200000000000102e+01 -2.646241736676184161e-02
-4.652999999999999581e+00 -2.160699999999999932e+01 2.981299999999999883e+01 2.190449884448054940e-01
-4.628000000000000114e+00 -3.943900000000000006e+01 3.905799999999999983e+01 -3.690992513015450283e-01
-4.594000000000000306e+00 -2.614699999999999847e+01 3.710699999999999932e+01 8.749213811301094490e-02
-4.554999999999999716e+00 -3.620000000000000284e+01 4.477900000000000347e+01 -2.839178529732125922e-01
-4.543000000000000149e+00 -4.047899999999999920e+01 5.622399999999999665e+01 -1.649298290132824307e-01
-4.516000000000000014e+00 -1.344400000000000084e+01 3.724600000000000222e+01 -2.031231916266065460e-02
-4.508000000000000007e+00 -3.135399999999999920e+01 4.373100000000000165e+01 -1.934056231932950176e-01
-4.504999999999999893e+00 -4.171099999999999852e+01 5.711599999999999966e+01 -8.817394131774106136e-02
-4.498999999999999666e+00 -4.197699999999999676e+01 4.642000000000000171e+01 -1.353200696517079527e-01
-4.488999999999999879e+00 -3.714300000000000068e+01 3.904200000000000159e+01 -3.617611176247151339e-01
-4.472000000000000419e+00 -3.839000000000000057e+01 4.535499999999999687e+01 -2.707403036633551641e-01
-4.466000000000000192e+00 -3.988199999999999790e+01 4.185000000000000142e+01 -2.747355346932045528e-01
-4.418000000000000149e+00 -4.869500000000000028e+01 6.249499999999999744e+01 -2.250373809228076727e-01
-4.410000000000000142e+00 -2.854100000000000037e+01 5.285199999999999676e+01 -2.117826787495349361e-01
-4.363999999999999879e+00 -3.359899999999999665e+01 4.280100000000000193e+01 -2.731933550650001430e-01
-4.363000000000000433e+00 -4.593900000000000006e+01 5.603699999999999903e+01 -3.690889183913225596e-02
-4.336999999999999744e+00 -1.751399999999999935e+01 3.644100000000000250e+01 -1.200889144837934408e-01
-4.299999999999999822e+00 -3.328099999999999881e+01 5.164000000000000057e+01 3.800000000000000600e-01
-4.296000000000000263e+00 -4.147099999999999653e+01 5.840699999999999648e+01 8.035293741232416020e-02
-4.238999999999999879e+00 -4.253799999999999670e+01 5.939500000000000313e+01 1.457667153595121889e-01
-4.214000000000000412e+00 -2.436299999999999955e+01 4.770900000000000318e+01 1.783796396892716740e-01
-4.198999999999999844e+00 -1.914999999999999858e+01 4.752799999999999869e+01 1.204313556509590405e-01
-4.193999999999999950e+00 -1.348700000000000010e+01 3.605499999999999972e+01 -9.979938552747523450e-02
-4.184999999999999609e+00 -2.290299999999999869e+01 4.582699999999999818e+01 1.748231414939601380e-01
-4.147999999999999687e+00 -3.561599999999999966e+01 5.810300000000000153e+01 1.147472562098651380e-02
-4.139000000000000234e+00 -3.768200000000000216e+01 5.027499999999999858e+01 -4.761553992360087473e-02
-4.118999999999999773e+00 -4.191199999999999903e+01 4.260600000000000165e+01 -2.059125000518174237e-02
-4.094000000000000306e+00 -1.473700000000000010e+01 2.944200000000000017e+01 5.881289250101059268e-02
-4.076999999999999957e+00 -1.886700000000000088e+01 4.418500000000000227e+01 2.213882827472929971e-01
-4.072000000000000064e+00 -2.449899999999999878e+01 3.359799999999999898e+01 1.148257952087472500e-01
-4.051000000000000156e+00 -1.780799999999999983e+01 4.800200000000000244e+01 3.287800104233710302e-02
-4.033000000000000362e+00 -5.089099999999999824e+01 5.674499999999999744e+01 -3.500000000000000333e-01
-4.017999999999999794e+00 -3.885799999999999699e+01 5.122699999999999676e+01 3.176591439528479444e-01
-3.998000000000000220e+00 -4.085099999999999909e+01 4.856700000000000017e+01 -3.464640213078946929e-02
-3.983999999999999986e+00 -2.431099999999999994e+01 5.507399999999999807e+01 2.834965029762236965e-01
-3.963000000000000078e+00 -4.089399999999999835e+01 4.988799999999999812e+01 -9.503570687694518071e-02
-3.903000000000000025e+00 -2.456299999999999883e+01 4.204899999999999949e+01 3.800000000000000044e-01
-3.892999999999999794e+00 -2.664399999999999835e+01 5.437599999999999767e+01 1.629212946301283882e-01
-3.892999999999999794e+00 -1.242300000000000004e+01 3.819700000000000273e+01 5.615586446115890251e-02
-3.891999999999999904e+00 -3.832999999999999829e+01 3.911500000000000199e+01 -3.632455324080897108e-01
-3.839999999999999858e+00 -1.566799999999999926e+01 3.171199999999999974e+01 1.793627937506621015e-02
-3.838999999999999968e+00 -3.496200000000000330e+01 5.942600000000000193e+01 2.097617816193963342e-02
-3.771999999999999797e+00 -3.165099999999999980e+01 4.466100000000000136e+01 7.236653382693050696e-02
-3.765000000000000124e+00 -2.510800000000000054e+01 4.065599999999999881e+01 3.234385856984469676e-01
-3.758000000000000007e+00 -2.059100000000000108e+01 5.285900000000000176e+01 -5.640979092917521032e-02
-3.744000000000000217e+00 -2.176599999999999824e+01 3.093199999999999861e+01 -1.950976596023536458e-01
-3.737999999999999989e+00 -1.991900000000000048e+01 4.191400000000000148e+01 2.053090616633940491e-01
-3.721999999999999975e+00 -2.235999999999999943e+01 5.117900000000000205e+01 -4.916307128491525374e-02
-3.697999999999999954e+00 -3.194500000000000028e+01 3.819500000000000028e+01 -3.129064559899488729e-01
-3.685000000000000053e+00 -2.985000000000000142e+01 3.239000000000000057e+01 -3.362704626979996503e-01
-3.670999999999999819e+00 -1.110299999999999976e+01 3.743399999999999750e+01 8.079768110276372428e-02
-3.634999999999999787e+00 -3.978499999999999659e+01 4.291199999999999903e+01 -2.727415025817391259e-01
-3.619000000000000217e+00 -4.050200000000000244e+01 5.509400000000000119e+01 -2.642813347805539892e-01
-3.613999999999999879e+00 -2.773199999999999932e+01 3.300099999999999767e+01 -6.454491547292326437e-02
-3.612000000000000099e+00 -2.494900000000000162e+01 3.475999999999999801e+01 -2.296386200098647079e-01
-3.581999999999999851e+00 -5.077000000000000313e+01 3.352499999999999858e+01 -1.554392288300129599e-01
-3.495000000000000107e+00 -2.728699999999999903e+01 3.933299999999999841e+01 1.303103425120794301e-01
-3.478000000000000203e+00 -3.374499999999999744e+01 4.653499999999999659e+01 1.258395134300071758e-02
-3.467000000000000082e+00 -2.659499999999999886e+01 4.069200000000000017e+01 1.625031734317254339e-01
-3.459000000000000075e+00 -2.539300000000000068e+01 5.424000000000000199e+01 -7.074148823005875844e-03
-3.454000000000000181e+00 -2.895400000000000063e+01 3.324600000000000222e+01 -5.966415570471719082e-02
-3.443999999999999950e+00 -4.107099999999999795e+01 4.336800000000000210e+01 1.108270225970787656e-02
-3.407000000000000028e+00 -4.000300000000000011e+01 4.790599999999999881e+01 -1.202198211288015850e-01
-3.407000000000000028e+00 -2.382000000000000028e+01 3.282800000000000296e+01 7.273595531315953100e-02
-3.403999999999999915e+00 -3.660499999999999687e+01 5.056400000000000006e+01 -1.105467268702193112e-01
-3.359999999999999876e+00 -2.963700000000000045e+01 3.882699999999999818e+01 -6.050132383777719752e-02
-3.297000000000000153e+00 -2.767699999999999960e+01 5.343500000000000227e+01 -2.870092283800674826e-01
-3.238999999999999879e+00 -4.958100000000000307e+01 5.666799999999999926e+01 -3.499999999999999778e-01
-3.162999999999999812e+00 -3.997299999999999898e+01 5.065100000000000335e+01 -3.945318529412280562e-01
-3.160000000000000142e+00 -2.302499999999999858e+01 5.487599999999999767e+01 1.443682092125382066e-01
-3.152000000000000135e+00 -1.543900000000000006e+01 3.419899999999999807e+01 1.261713626580517923e-02
-3.138999999999999790e+00 -1.491300000000000026e+01 3.058699999999999974e+01 3.006737753869914709e-02
-3.104999999999999982e+00 -4.902600000000000335e+01 5.545199999999999818e+01 -3.499999999999999778e-01
-3.093999999999999861e+00 -1.780699999999999861e+01 4.918500000000000227e+01 2.898843292412934744e-02
-3.092000000000000082e+00 -1.915399999999999991e+01 4.305400000000000205e+01 -4.522496889068919335e-02
-3.083000000000000185e+00 -1.961199999999999832e+01 3.085399999999999920e+01 -2.112282875969869189e-01
-3.076999999999999957e+00 -3.855899999999999750e+01 4.501400000000000290e+01 -2.390147729289074374e-01
-3.052000000000000046e+00 -5.125099999999999767e+01 3.487199999999999989e+01 -1.079847347357948684e-01
-3.040999999999999925e+00 -2.231400000000000006e+01 3.659599999999999653e+01 3.252675804881665078e-01
-3.031000000000000139e+00 -2.073199999999999932e+01 3.136700000000000088e+01 -2.473445185607571761e-01
-3.025999999999999801e+00 -4.237100000000000222e+01 6.028999999999999915e+01 -2.087319393970859527e-01
-3.013999999999999790e+00 -1.501699999999999946e+01 3.867399999999999949e+01 -4.509656548014916166e-02
-3.008000000000000007e+00 -4.909799999999999898e+01 6.208100000000000307e+01 -3.584195884484646100e-01
-2.991999999999999993e+00 -1.586800000000000033e+01 3.292600000000000193e+01 2.643434867398219285e-02
-2.975000000000000089e+00 -3.376599999999999824e+01 4.221500000000000341e+01 -9.018256432455087901e-02
-2.952999999999999847e+00 -2.123600000000000065e+01 5.187800000000000011e+01 -6.922079359765359249e-03
-2.951000000000000068e+00 -2.935300000000000153e+01 3.463799999999999812e+01 4.351985389578143931e-02
-2.943999999999999950e+00 -2.110000000000000142e+01 3.382699999999999818e+01 3.451953865533888832e-01
-2.943000000000000060e+00 -3.861699999999999733e+01 4.351599999999999824e+01 -2.678683302926912480e-01
-2.936999999999999833e+00 -3.486899999999999977e+01 5.299399999999999977e+01 -1.822604494997293323e-01
-2.930000000000000160e+00 -4.560799999999999699e+01 5.643399999999999750e+01 -2.181849743053068669e-01
-2.911000000000000032e+00 -3.361299999999999955e+01 5.213100000000000023e+01 5.300703882697101188e-02
-2.900999999999999801e+00 -3.580599999999999739e+01 5.739500000000000313e+01 4.198217577482580426e-02
-2.867999999999999883e+00 -2.306400000000000006e+01 5.023100000000000165e+01 -1.260659714250557950e-01
-2.843999999999999861e+00 -2.454700000000000060e+01 4.761599999999999966e+01 1.852793499014984691e-01
-2.805000000000000160e+00 -2.307499999999999929e+01 4.572099999999999653e+01 1.601619400137537230e-01
-2.801000000000000156e+00 -3.096499999999999986e+01 3.892900000000000205e+01 -3.356873790962880411e-01
-2.794000000000000039e+00 -2.862000000000000099e+01 3.945400000000000063e+01 -1.082044611737399825e-01
-2.759999999999999787e+00 -4.907300000000000040e+01 5.769400000000000261e+01 -3.674527232156389878e-01
-2.714999999999999858e+00 -4.097899999999999920e+01 6.039999999999999858e+01 1.316503619173770567e-01
-2.709999999999999964e+00 -4.963799999999999812e+01 3.299900000000000233e+01 -1.060027910753308378e-01
-2.677000000000000046e+00 -1.281799999999999962e+01 3.889999999999999858e+01 5.042929727207575569e-02
-2.645999999999999908e+00 -2.442299999999999827e+01 3.991499999999999915e+01 3.360010911611874262e-01
-2.642999999999999794e+00 -3.422099999999999653e+01 5.926599999999999824e+01 6.071524692933831513e-02
-2.641000000000000014e+00 -3.794800000000000040e+01 5.809000000000000341e+01 1.343896006535197363e-02
-2.611000000000000210e+00 -3.311999999999999744e+01 4.123400000000000176e+01 -2.798938791606701559e-01
-2.569999999999999840e+00 -3.841199999999999903e+01 3.926299999999999812e+01 -3.593609510194246681e-01
-2.499000000000000110e+00 -2.990800000000000125e+01 4.774600000000000222e+01 3.266806130146540088e-01
-2.455000000000000071e+00 -4.075300000000000011e+01 5.174399999999999977e+01 -3.829908249819732324e-01
-2.357000000000000206e+00 -3.247200000000000131e+01 5.293900000000000006e+01 2.061592072557211497e-01
-2.354999999999999982e+00 -1.408500000000000085e+01 3.910399999999999920e+01 1.640120022459797683e-02
-2.342000000000000082e+00 -4.085499999999999687e+01 5.521099999999999852e+01 -1.726931926576902865e-01
-2.317000000000000171e+00 -2.851899999999999835e+01 5.409799999999999898e+01 -2.036874448705156271e-01
-2.289000000000000146e+00 -3.750000000000000000e+01 5.434300000000000352e+01 -1.653325859312306523e-01
-2.248000000000000220e+00 -2.469900000000000162e+01 3.522399999999999665e+01 -3.097553769996843620e-01
-2.237999999999999989e+00 -3.695600000000000307e+01 5.746399999999999864e+01 6.491291821486508407e-02
-2.237000000000000099e+00 -2.392699999999999960e+01 3.652600000000000335e+01 3.062791771639968297e-01
-2.228000000000000203e+00 -3.408599999999999852e+01 4.685300000000000153e+01 1.964888286810673179e-01
-2.213999999999999968e+00 -4.012400000000000233e+01 5.287800000000000011e+01 -6.834705762808974960e-02
-2.212000000000000188e+00 -3.466499999999999915e+01 4.282300000000000040e+01 -1.137208014256080313e-01
-2.206999999999999851e+00 -2.707499999999999929e+01 3.489399999999999835e+01 -1.744386980311701807e-01
-2.192000000000000171e+00 -3.731499999999999773e+01 4.686299999999999955e+01 -3.382652157173208218e-01
-2.153000000000000025e+00 -3.750500000000000256e+01 4.555499999999999972e+01 -2.246252054955148458e-01
-2.144000000000000128e+00 -2.388899999999999935e+01 4.662199999999999989e+01 1.758212429814079714e-01
-2.141999999999999904e+00 -2.544399999999999906e+01 4.855799999999999983e+01 -3.204180761880658784e-02
-2.120000000000000107e+00 -4.192699999999999960e+01 5.156199999999999761e+01 -3.788958668976341038e-01
-2.120000000000000107e+00 -2.099500000000000099e+01 3.254699999999999704e+01 3.360424059339648384e-01
-2.104000000000000092e+00 -1.594100000000000072e+01 3.492799999999999727e+01 5.564339745218834302e-03
-2.100000000000000089e+00 -4.920700000000000074e+01 6.327100000000000080e+01 -2.452107865998552350e-01
-2.073999999999999844e+00 -2.406200000000000117e+01 5.061800000000000210e+01 -1.086891501206937172e-01
-2.064000000000000057e+00 -3.511699999999999733e+01 4.797500000000000142e+01 3.187691877760115977e-01
-1.983999999999999986e+00 -2.444699999999999918e+01 5.179099999999999682e+01 -3.941993814928555773e-02
-1.967000000000000082e+00 -2.285500000000000043e+01 5.583500000000000085e+01 1.102768173344771119e-01
-1.957999999999999963e+00 -2.113200000000000145e+01 3.535300000000000153e+01 3.350592856094877225e-01
-1.937000000000000055e+00 -1.996199999999999974e+01 4.361200000000000188e+01 4.584069622677421074e-02
-1.909999999999999920e+00 -3.648100000000000165e+01 4.064800000000000324e+01 -3.371362522097535175e-01
-1.903999999999999915e+00 -4.589999999999999858e+01 5.537299999999999756e+01 -3.942363015420034533e-01
-1.844000000000000083e+00 -4.310300000000000153e+01 5.971399999999999864e+01 4.658531758655279353e-02
-1.836999999999999966e+00 -1.661700000000000088e+01 3.291199999999999903e+01 6.843726245353440318e-03
-1.828000000000000069e+00 -4.120400000000000063e+01 5.626800000000000068e+01 -1.475561048044959633e-01
-1.814999999999999947e+00 -1.562199999999999989e+01 3.022100000000000009e+01 3.490466105127473795e-02
-1.808000000000000052e+00 -2.845700000000000074e+01 3.511200000000000188e+01 1.663100618403838202e-02
-1.784000000000000030e+00 -1.652199999999999847e+01 2.937399999999999878e+01 -7.575669274080360990e-03
-1.752000000000000002e+00 -2.872500000000000142e+01 4.009799999999999898e+01 -5.719985574700318931e-02
-1.679000000000000048e+00 -3.725999999999999801e+01 3.936299999999999955e+01 -3.508166118854096904e-01
-1.659999999999999920e+00 -2.605699999999999861e+01 3.553499999999999659e+01 -2.919643191943694926e-01
-1.633999999999999897e+00 -3.645400000000000063e+01 5.443399999999999750e+01 -7.760250566874425660e-02
-1.586000000000000076e+00 -1.672899999999999920e+01 4.104999999999999716e+01 4.923538945879586681e-02
-1.558999999999999941e+00 -3.545000000000000284e+01 5.327400000000000091e+01 -1.537800472438881072e-01
-1.522000000000000020e+00 -4.082300000000000040e+01 5.393699999999999761e+01 -7.175616567629919396e-02
-1.429999999999999938e+00 -3.686500000000000199e+01 4.480599999999999739e+01 -3.805678886889725110e-01
-1.368999999999999995e+00 -3.114399999999999835e+01 3.843900000000000006e+01 -3.046483073005402664e-01
-1.324000000000000066e+00 -1.664699999999999847e+01 3.413000000000000256e+01 4.315642537844695259e-02
-1.310000000000000053e+00 -3.636699999999999733e+01 4.751500000000000057e+01 -3.500000000000000333e-01
-1.245000000000000107e+00 -3.360799999999999699e+01 4.628099999999999881e+01 1.446564704309580285e-01
-1.239999999999999991e+00 -2.472800000000000153e+01 4.953900000000000148e+01 -7.387232600409511692e-03
-1.114000000000000101e+00 -2.874099999999999966e+01 5.357000000000000028e+01 -1.436061896164738186e-02
-1.114000000000000101e+00 -1.995100000000000051e+01 3.268699999999999761e+01 2.290107591364660272e-02
-1.098000000000000087e+00 -2.622100000000000009e+01 3.122500000000000142e+01 -3.808266867414909496e-01
-1.082000000000000073e+00 -1.433099999999999952e+01 3.988900000000000290e+01 -2.551553660035371096e-01
-1.062000000000000055e+00 -3.037199999999999989e+01 4.782399999999999807e+01 3.318385964785089959e-01
-9.989999999999999991e-01 -3.599000000000000199e+01 5.203900000000000148e+01 -2.065097452726008531e-01
-9.609999999999999654e-01 -3.612100000000000222e+01 5.553199999999999648e+01 1.123553668744851387e-03
-9.519999999999999574e-01 -3.501299999999999812e+01 3.462500000000000000e+01 -2.487814495631104350e-01
-9.280000000000000471e-01 -3.698799999999999955e+01 5.671000000000000085e+01 8.299984278125241421e-02
-8.950000000000000178e-01 -3.537199999999999989e+01 4.090500000000000114e+01 -3.648364966007703325e-01
-8.659999999999999920e-01 -3.496200000000000330e+01 4.238100000000000023e+01 -1.403860410591181718e-01
-8.629999999999999893e-01 -3.122599999999999909e+01 4.907600000000000051e+01 -1.566882789070254967e-02
-8.459999999999999742e-01 -3.832399999999999807e+01 4.881499999999999773e+01 -3.499999999999999778e-01
-8.339999999999999636e-01 -3.033299999999999841e+01 3.767300000000000182e+01 -2.848285068154147726e-01
-8.309999999999999609e-01 -4.483500000000000085e+01 5.535099999999999909e+01 -3.825561415580827629e-01
-8.060000000000000497e-01 -3.030799999999999983e+01 4.249799999999999756e+01 -1.064428090819929673e-01
-7.740000000000000213e-01 -2.032300000000000040e+01 4.269800000000000040e+01 6.427779205750651370e-02
-7.720000000000000195e-01 -1.672100000000000009e+01 4.012599999999999767e+01 1.073906554513575501e-01
-7.540000000000000036e-01 -2.618100000000000094e+01 3.635000000000000142e+01 -2.561993206803433454e-01
-7.530000000000000027e-01 -3.222599999999999909e+01 3.890400000000000347e+01 -2.778898981615117170e-01
-7.459999999999999964e-01 -2.827400000000000091e+01 5.248899999999999721e+01 -2.273360956401821592e-02
-7.389999999999999902e-01 -2.035399999999999920e+01 3.975500000000000256e+01 1.840707617532825191e-01
-7.109999999999999654e-01 -1.522799999999999976e+01 3.087800000000000011e+01 1.548208966612179549e-01
-6.790000000000000480e-01 -3.710600000000000165e+01 4.868900000000000006e+01 -3.499999999999999778e-01
-6.790000000000000480e-01 -1.417699999999999960e+01 3.190700000000000003e+01 1.401610874638575810e-01
-6.440000000000000169e-01 -3.390500000000000114e+01 3.673100000000000165e+01 -2.561837989612848476e-01
-6.320000000000000062e-01 -2.257199999999999918e+01 5.511999999999999744e+01 9.397440930695979966e-02
-5.849999999999999645e-01 -2.188599999999999923e+01 5.407699999999999818e+01 -1.291462366021644548e-01
-5.829999999999999627e-01 -1.846999999999999886e+01 3.831700000000000017e+01 9.430181591915914874e-02
-5.330000000000000293e-01 -4.432699999999999818e+01 5.424399999999999977e+01 -3.747335711778933542e-01
-5.100000000000000089e-01 -2.401800000000000068e+01 3.141600000000000037e+01 4.236982501464144069e-02
-4.949999999999999956e-01 -2.891100000000000136e+01 3.446600000000000108e+01 -4.062942619296411872e-01
-4.680000000000000271e-01 -1.914499999999999957e+01 4.055499999999999972e+01 1.990325291665838714e-01
-4.369999999999999996e-01 -1.558500000000000085e+01 3.948599999999999710e+01 1.495741743078762009e-01
-3.960000000000000187e-01 -2.526999999999999957e+01 3.182300000000000040e+01 -1.480955184062198171e-01
-3.739999999999999991e-01 -2.570700000000000074e+01 5.017199999999999704e+01 2.473514805947108486e-01
-3.439999999999999725e-01 -3.500900000000000034e+01 3.572800000000000153e+01 -4.089910273683267095e-01
-3.320000000000000173e-01 -1.909799999999999898e+01 4.188900000000000290e+01 1.269647275296650890e-01
-2.999999999999999889e-01 -1.993900000000000006e+01 3.835600000000000165e+01 4.989721003678924960e-02
-2.889999999999999791e-01 -4.450000000000000000e+01 5.643900000000000006e+01 -2.596665309339910022e-01
-1.990000000000000102e-01 -2.656899999999999906e+01 4.422599999999999909e+01 3.301065736479578683e-01
-1.890000000000000013e-01 -2.963899999999999935e+01 5.436899999999999977e+01 8.909820362688961048e-02
-1.650000000000000078e-01 -4.015800000000000125e+01 5.417600000000000193e+01 -3.658013311003256995e-01
-1.280000000000000027e-01 -2.917099999999999937e+01 4.785999999999999943e+01 2.041164389615464647e-01
-1.189999999999999947e-01 -2.846600000000000108e+01 3.337299999999999756e+01 -4.009884300315704198e-01
-8.899999999999999578e-02 -1.801999999999999957e+01 3.968399999999999750e+01 9.782297351505854499e-02
-8.100000000000000255e-02 -3.073199999999999932e+01 4.410000000000000142e+01 3.664342653728945853e-01
-4.800000000000000100e-02 -3.314600000000000080e+01 4.376899999999999835e+01 -2.556021304524547233e-01
-1.799999999999999864e-02 -1.328200000000000003e+01 3.959599999999999653e+01 -2.428208907320999477e-01
4.100000000000000172e-02 -3.376400000000000290e+01 4.259400000000000119e+01 -2.353117800710713414e-01
5.700000000000000205e-02 -3.638499999999999801e+01 4.952799999999999869e+01 -1.601566497686851206e-02
1.380000000000000115e-01 -2.018400000000000105e+01 3.231600000000000250e+01 8.128359509275544237e-02
1.409999999999999865e-01 -1.811799999999999855e+01 4.244299999999999784e+01 1.270846631187845799e-01
1.529999999999999971e-01 -2.676999999999999957e+01 3.897399999999999665e+01 1.819919308876206676e-01
1.819999999999999951e-01 -3.654699999999999704e+01 5.766199999999999903e+01 1.596872413872821306e-01
1.940000000000000058e-01 -2.979899999999999949e+01 3.517600000000000193e+01 -3.617107298340145327e-01
2.250000000000000056e-01 -2.098000000000000043e+01 4.351299999999999812e+01 6.396388045412228218e-02
2.449999999999999956e-01 -3.646099999999999852e+01 5.199600000000000222e+01 1.265821941831076977e-03
3.850000000000000089e-01 -3.363499999999999801e+01 5.053999999999999915e+01 2.304788014994292866e-01
4.139999999999999791e-01 -2.557499999999999929e+01 3.282999999999999829e+01 -1.205846908751238289e-01
4.650000000000000244e-01 -2.308699999999999974e+01 5.569599999999999795e+01 -2.577334451977200125e-01
4.680000000000000271e-01 -3.055799999999999983e+01 5.346500000000000341e+01 7.394291488573399851e-02
4.959999999999999964e-01 -3.588499999999999801e+01 3.604599999999999937e+01 -4.060665075097854571e-01
4.979999999999999982e-01 -2.126000000000000156e+01 3.184700000000000131e+01 -3.780897348984217643e-02
5.540000000000000480e-01 -3.302499999999999858e+01 3.703600000000000136e+01 -2.300070425617152525e-01
5.919999999999999707e-01 -3.258700000000000330e+01 3.850399999999999778e+01 -2.425541213908104510e-01
5.929999999999999716e-01 -1.450799999999999912e+01 3.265100000000000335e+01 7.749728692619170523e-02
6.079999999999999849e-01 -3.157400000000000162e+01 4.929999999999999716e+01 -1.628203768409727248e-01
6.390000000000000124e-01 -1.575699999999999967e+01 3.067899999999999849e+01 8.776706775480397349e-02
7.339999999999999858e-01 -2.612099999999999866e+01 4.957600000000000051e+01 2.724170584381777616e-01
7.349999999999999867e-01 -3.699600000000000222e+01 5.065999999999999659e+01 -2.869331377253109272e-02
7.660000000000000142e-01 -3.246099999999999852e+01 5.053600000000000136e+01 2.460946955131876057e-01
7.740000000000000213e-01 -1.769600000000000151e+01 3.217199999999999704e+01 -8.645976724799797619e-02
7.830000000000000293e-01 -3.198199999999999932e+01 4.402900000000000347e+01 4.878151726298080720e-02
8.249999999999999556e-01 -3.340599999999999881e+01 4.171300000000000097e+01 -2.271399632709108773e-01
8.249999999999999556e-01 -3.210000000000000142e+01 5.504899999999999949e+01 5.970416910438271219e-02
8.559999999999999831e-01 -2.880799999999999983e+01 5.512299999999999756e+01 -9.246701663296866269e-02
8.679999999999999938e-01 -1.529299999999999926e+01 3.887700000000000244e+01 1.327081136003774309e-01
8.729999999999999982e-01 -2.403900000000000148e+01 3.776599999999999824e+01 -1.111122648112662994e-02
9.270000000000000462e-01 -3.172500000000000142e+01 5.388900000000000290e+01 6.667428190437454938e-02
9.739999999999999769e-01 -1.722500000000000142e+01 3.094600000000000151e+01 -2.237686935728027890e-02
9.799999999999999822e-01 -4.077199999999999847e+01 5.337100000000000222e+01 -3.610317634111660512e-01
9.839999999999999858e-01 -3.648799999999999955e+01 5.298199999999999932e+01 9.771185856491362148e-03
1.024999999999999911e+00 -4.305100000000000193e+01 5.126899999999999835e+01 -3.686811112178847161e-01
1.058000000000000052e+00 -3.151000000000000156e+01 3.368599999999999994e+01 -3.554470481949646432e-01
1.122000000000000108e+00 -2.567099999999999937e+01 4.849699999999999989e+01 2.403559796740739052e-01
1.145999999999999908e+00 -1.906899999999999906e+01 3.251200000000000045e+01 8.487916359409053424e-02
1.153999999999999915e+00 -3.219299999999999784e+01 4.810699999999999932e+01 4.662536598013357347e-02
1.217999999999999972e+00 -2.460600000000000165e+01 3.356099999999999994e+01 -1.370016590535159673e-01
1.237000000000000099e+00 -2.707100000000000151e+01 4.411899999999999977e+01 6.080646874124149247e-03
1.272000000000000020e+00 -1.406900000000000084e+01 3.964900000000000091e+01 -2.527834970347918042e-01
1.324000000000000066e+00 -2.739799999999999969e+01 3.880100000000000193e+01 2.531353606444229354e-01
1.368000000000000105e+00 -4.213000000000000256e+01 5.396200000000000330e+01 -3.602324973939506902e-01
1.370000000000000107e+00 -3.189099999999999824e+01 5.157200000000000273e+01 -7.297951542527007784e-02
1.429000000000000048e+00 -1.792000000000000171e+01 3.004299999999999926e+01 -4.949752230172296125e-02
1.429999999999999938e+00 -3.046099999999999852e+01 3.942999999999999972e+01 -2.310193603899033943e-01
1.435999999999999943e+00 -3.040800000000000125e+01 3.471600000000000108e+01 -3.565436808636729960e-01
1.435999999999999943e+00 -2.127199999999999847e+01 4.307500000000000284e+01 8.182818939404902514e-02
1.437999999999999945e+00 -2.950300000000000011e+01 5.636899999999999977e+01 -9.692781927291911626e-02
1.493999999999999995e+00 -1.482699999999999996e+01 3.153800000000000026e+01 5.369598621355699264e-02
1.544000000000000039e+00 -2.715800000000000125e+01 5.032999999999999829e+01 3.469850330423803753e-01
1.572000000000000064e+00 -3.667600000000000193e+01 5.707500000000000284e+01 -1.006689551701065721e-01
1.582999999999999963e+00 -3.258800000000000097e+01 5.282999999999999829e+01 7.737105372930158306e-03
1.651999999999999913e+00 -1.915899999999999892e+01 3.396699999999999875e+01 8.048572660928951517e-02
1.673000000000000043e+00 -3.207600000000000051e+01 4.525399999999999778e+01 9.851509829388699346e-02
1.707999999999999963e+00 -3.155499999999999972e+01 3.872699999999999676e+01 -3.678964210133091051e-01
1.830000000000000071e+00 -2.097400000000000020e+01 4.195499999999999829e+01 1.154536371736921002e-01
1.838999999999999968e+00 -2.718100000000000094e+01 4.552199999999999847e+01 1.077887928070498241e-01
1.877999999999999892e+00 -3.329800000000000182e+01 4.573100000000000165e+01 1.673438541600338891e-01
1.895000000000000018e+00 -2.809600000000000009e+01 4.001299999999999812e+01 3.152637344801516028e-01
1.929999999999999938e+00 -2.740299999999999869e+01 3.772299999999999898e+01 -1.516067564351752384e-01
2.053999999999999826e+00 -2.612699999999999889e+01 4.326299999999999812e+01 1.295713639552503738e-01
2.079000000000000181e+00 -2.057900000000000063e+01 3.429099999999999682e+01 -3.550566917312613507e-02
2.165999999999999925e+00 -2.532300000000000040e+01 3.448100000000000165e+01 2.323670909154365583e-01
2.176000000000000156e+00 -4.327700000000000102e+01 5.190699999999999648e+01 -3.685409866386907818e-01
2.176000000000000156e+00 -3.106099999999999994e+01 4.574799999999999756e+01 8.587156434561696305e-02
2.190999999999999837e+00 -3.223299999999999699e+01 3.294700000000000273e+01 -3.545503690670160912e-01
2.248000000000000220e+00 -3.677000000000000313e+01 5.054200000000000159e+01 -2.220180506507694607e-01
2.255999999999999783e+00 -3.292799999999999727e+01 4.816899999999999693e+01 -2.587880909040173733e-02
2.329000000000000181e+00 -2.200900000000000034e+01 4.406300000000000239e+01 1.823336792747875523e-01
2.334000000000000075e+00 -2.639300000000000068e+01 5.138400000000000034e+01 1.707015470944442392e-02
2.359999999999999876e+00 -4.285600000000000165e+01 5.316400000000000148e+01 -3.662374175357631101e-01
2.379000000000000004e+00 -2.401599999999999824e+01 3.780899999999999750e+01 -1.864040963621826225e-02
2.415000000000000036e+00 -2.788200000000000145e+01 4.940500000000000114e+01 3.080527888750386190e-01
2.476999999999999869e+00 -2.947200000000000131e+01 3.969100000000000250e+01 3.181756229311065165e-01
2.544000000000000039e+00 -2.945700000000000074e+01 3.419100000000000250e+01 -3.919112264860852846e-01
2.567000000000000171e+00 -3.951800000000000068e+01 5.095700000000000074e+01 -3.832117234728070199e-01
2.653999999999999915e+00 -2.826200000000000045e+01 3.477499999999999858e+01 -3.884857870113468947e-01
2.657000000000000028e+00 -3.625099999999999767e+01 5.804899999999999949e+01 -1.166848248684516920e-01
2.686999999999999833e+00 -2.968799999999999883e+01 5.071399999999999864e+01 9.136768446878158756e-02
2.742999999999999883e+00 -3.353199999999999648e+01 4.687599999999999767e+01 2.333594238211144367e-01
2.805000000000000160e+00 -3.684599999999999653e+01 5.912299999999999756e+01 -1.201994305058515095e-01
2.822000000000000064e+00 -3.422599999999999909e+01 3.439800000000000324e+01 -3.574989592141378236e-01
2.822999999999999954e+00 -1.819800000000000040e+01 3.416700000000000159e+01 1.329083362129163115e-01
2.825000000000000178e+00 -3.175600000000000023e+01 3.825800000000000267e+01 -3.654880935199856795e-01
2.846999999999999975e+00 -2.429700000000000060e+01 3.923199999999999932e+01 -1.686655190102787361e-01
2.870999999999999996e+00 -3.313199999999999790e+01 4.921200000000000330e+01 -1.736258913044683508e-02
2.875000000000000000e+00 -2.267399999999999949e+01 3.733700000000000330e+01 9.230678729301551588e-02
2.887999999999999901e+00 -2.905799999999999983e+01 5.666400000000000148e+01 -1.206446538154987841e-01
2.919000000000000039e+00 -2.908399999999999963e+01 4.967499999999999716e+01 8.070095023195605899e-02
2.946000000000000174e+00 -2.104200000000000159e+01 4.504599999999999937e+01 1.806899708857220843e-01
2.955999999999999961e+00 -3.764000000000000057e+01 4.948799999999999955e+01 -3.499999999999999778e-01
3.027000000000000135e+00 -3.912199999999999989e+01 4.988100000000000023e+01 -3.889909124359037795e-01
3.077999999999999847e+00 -3.105900000000000105e+01 4.138499999999999801e+01 1.128220574899165551e-01
3.096000000000000085e+00 -3.276100000000000279e+01 5.314500000000000313e+01 2.755932174172637944e-02
3.099000000000000199e+00 -3.088599999999999923e+01 5.846500000000000341e+01 -2.610862141524509239e-01
3.121999999999999886e+00 -2.611599999999999966e+01 3.366199999999999903e+01 -1.345559507352881747e-02
3.123000000000000220e+00 -2.733999999999999986e+01 5.227199999999999847e+01 -1.861303952671386486e-01
3.150999999999999801e+00 -4.393599999999999994e+01 5.128300000000000125e+01 -3.727799934752926703e-01
3.217000000000000082e+00 -2.548000000000000043e+01 5.072299999999999898e+01 9.095171455855141640e-02
3.221999999999999975e+00 -3.285399999999999920e+01 3.388000000000000256e+01 -3.548600359547265937e-01
3.250999999999999890e+00 -2.992899999999999849e+01 4.090800000000000125e+01 1.559073978489247392e-01
3.305000000000000160e+00 -2.980600000000000094e+01 3.327900000000000347e+01 -3.936013090551644944e-01
3.337000000000000188e+00 -2.944800000000000040e+01 5.809000000000000341e+01 -2.621170378639723908e-01
3.338999999999999968e+00 -2.746900000000000119e+01 4.558899999999999864e+01 -5.521282045750587619e-02
3.369000000000000217e+00 -2.274399999999999977e+01 4.337100000000000222e+01 2.182178962973189695e-01
3.423000000000000043e+00 -3.521500000000000341e+01 5.768200000000000216e+01 -2.667256290646770611e-01
3.508999999999999897e+00 -2.917899999999999849e+01 4.729399999999999693e+01 4.922595331726491164e-02
3.605999999999999872e+00 -3.994599999999999795e+01 4.900399999999999778e+01 -3.875112239940431413e-01
3.701000000000000068e+00 -2.846699999999999875e+01 4.458100000000000307e+01 3.210767177429810770e-01
3.709000000000000075e+00 -2.789900000000000091e+01 4.700500000000000256e+01 1.212870914566760265e-02
3.714999999999999858e+00 -2.733599999999999852e+01 3.435399999999999920e+01 -3.895052746671898158e-01
3.744000000000000217e+00 -3.371600000000000108e+01 5.215200000000000102e+01 -2.013382245948339144e-01
3.753000000000000114e+00 -3.148900000000000077e+01 5.308100000000000307e+01 -2.133717226250399501e-01
3.809000000000000163e+00 -1.817699999999999960e+01 3.300200000000000244e+01 1.507435213927383333e-01
3.810999999999999943e+00 -2.970599999999999952e+01 4.860999999999999943e+01 1.030730904551241806e-01
3.825000000000000178e+00 -3.477499999999999858e+01 3.537800000000000011e+01 -3.595663747532076293e-01
3.825000000000000178e+00 -2.409900000000000020e+01 4.512100000000000222e+01 1.891208962285848005e-01
4.027000000000000135e+00 -2.373600000000000065e+01 4.396000000000000085e+01 2.289066189457723000e-01
4.097000000000000419e+00 -2.903600000000000136e+01 4.141299999999999670e+01 1.586863547079210846e-01
4.139000000000000234e+00 -3.300600000000000023e+01 4.658500000000000085e+01 3.793990595436948221e-02
4.163000000000000256e+00 -2.708800000000000097e+01 4.782200000000000273e+01 4.213631779602478034e-02
4.283999999999999808e+00 -2.474500000000000099e+01 3.939000000000000057e+01 -1.554575556486960108e-01
4.357999999999999652e+00 -2.632900000000000063e+01 4.121600000000000108e+01 2.238852432614515942e-01
4.501999999999999780e+00 -2.515299999999999869e+01 4.085199999999999676e+01 2.424980472731004255e-01
4.588000000000000078e+00 -2.580600000000000094e+01 3.841499999999999915e+01 -2.113661121724554059e-01
4.599000000000000199e+00 -2.819900000000000162e+01 4.362800000000000011e+01 1.744451538823664771e-01
4.673000000000000043e+00 -2.690200000000000102e+01 3.547200000000000131e+01 -7.402325394177730611e-02
4.682999999999999829e+00 -3.565899999999999892e+01 4.673199999999999932e+01 -2.562704294016047157e-01
4.785000000000000142e+00 -3.367900000000000205e+01 4.540100000000000335e+01 1.171369343288173465e-02
4.855000000000000426e+00 -2.417200000000000060e+01 4.168599999999999994e+01 1.977306834537024272e-01
4.879999999999999893e+00 -2.930900000000000105e+01 4.261399999999999721e+01 5.470605374906082480e-02
4.974000000000000199e+00 -3.515899999999999892e+01 4.561699999999999733e+01 9.259231719364862528e-03
4.977000000000000313e+00 -2.784600000000000009e+01 3.635399999999999920e+01 -4.877512207201057520e-02
5.084999999999999964e+00 -2.440899999999999892e+01 4.311899999999999977e+01 2.594009672658922905e-01
5.121000000000000441e+00 -2.576899999999999835e+01 3.552100000000000080e+01 -1.052408034341946186e-01
5.184000000000000163e+00 -2.711400000000000077e+01 4.353900000000000148e+01 2.239620841310578092e-01
5.286999999999999922e+00 -2.946499999999999986e+01 4.894299999999999784e+01 1.265476263701024728e-01
5.421999999999999709e+00 -3.582099999999999795e+01 4.466100000000000136e+01 -1.733334456557302991e-02
5.647999999999999687e+00 -2.660800000000000054e+01 3.854800000000000182e+01 -1.294310600623698460e-01
5.878000000000000114e+00 -2.768199999999999861e+01 3.749000000000000199e+01 -4.714977289851048081e-02
6.211999999999999744e+00 -3.035200000000000031e+01 4.814800000000000324e+01 3.838082301457484968e-02
6.371999999999999886e+00 -2.934400000000000119e+01 4.229500000000000171e+01 3.713837825559980488e-02
6.437999999999999723e+00 -2.652799999999999869e+01 3.949799999999999756e+01 1.569806268502310920e-01
6.440000000000000391e+00 -2.386199999999999832e+01 4.362299999999999756e+01 2.568390260403338177e-01
6.591999999999999638e+00 -3.001200000000000045e+01 4.685199999999999676e+01 -6.480399520489314377e-03
6.605999999999999872e+00 -3.159299999999999997e+01 4.865200000000000102e+01 -1.767591722722818282e-01
6.783000000000000362e+00 -2.269099999999999895e+01 4.288199999999999790e+01 2.328770266335317696e-01
6.799999999999999822e+00 -3.048499999999999943e+01 4.138400000000000034e+01 -2.550540285881021663e-01
6.902000000000000135e+00 -2.999399999999999977e+01 3.996399999999999864e+01 -1.968918846151099522e-01
7.081000000000000405e+00 -2.930699999999999861e+01 3.398299999999999699e+01 -4.075550652348732816e-01
7.318999999999999950e+00 -2.755699999999999861e+01 3.701100000000000279e+01 3.299220040344025273e-01
7.330000000000000071e+00 -3.089499999999999957e+01 4.606700000000000017e+01 -2.354836784630247315e-02
7.339000000000000412e+00 -3.248499999999999943e+01 4.788199999999999790e+01 6.033741372644966378e-02
7.533999999999999808e+00 -2.491100000000000136e+01 4.351200000000000045e+01 3.026449211872568879e-01
7.693999999999999950e+00 -3.213799999999999812e+01 4.658500000000000085e+01 1.828256259074053855e-02
7.703999999999999737e+00 -2.841700000000000159e+01 3.474799999999999756e+01 -4.104443524640208341e-01
