6.273899999999999721e+01 3.010200000000000031e+01 1.237669999999999959e+02 -3.561112966840537797e-02
6.274199999999999733e+01 1.236400000000000077e+01 1.550989999999999895e+02 -3.338609872973678505e-01
6.275500000000000256e+01 2.189600000000000080e+01 1.241119999999999948e+02 -4.654960171821322101e-02
6.276899999999999835e+01 1.246700000000000053e+01 1.260469999999999970e+02 -3.791408809799990953e-01
6.278000000000000114e+01 1.727999999999999980e+00 1.408000000000000114e+02 -2.008238621391897349e-01
6.278099999999999881e+01 3.520600000000000307e+01 1.326810000000000116e+02 3.650647903419836082e-02
6.279599999999999937e+01 2.592999999999999972e+00 1.143110000000000070e+02 -1.417894762739532466e-01
6.279899999999999949e+01 1.210100000000000087e+01 1.096580000000000013e+02 -1.075888599310557102e-02
6.283100000000000307e+01 1.357300000000000040e+01 1.556699999999999875e+02 5.259098605314941471e-02
6.283800000000000097e+01 1.965099999999999980e+01 1.577019999999999982e+02 -3.442602478835033453e-01
6.284599999999999653e+01 5.179000000000000270e+00 1.515809999999999889e+02 -9.321271491965170408e-02
6.285099999999999909e+01 2.937300000000000111e+01 1.334029999999999916e+02 -1.872553633275064189e-01
6.286399999999999721e+01 1.491799999999999926e+01 1.213029999999999973e+02 5.768145748149132446e-02
6.287500000000000000e+01 8.933999999999999275e+00 1.271550000000000011e+02 -2.870963411315037295e-01
6.288300000000000267e+01 3.644800000000000040e+01 1.334540000000000077e+02 1.156305416159861821e-01
6.290599999999999881e+01 2.641600000000000037e+01 1.250490000000000066e+02 1.080373369891625551e-01
6.291199999999999903e+01 1.625000000000000000e+01 1.555860000000000127e+02 1.844441458912412721e-02
6.291899999999999693e+01 2.743100000000000094e+01 1.272309999999999945e+02 -1.655622389734417721e-01
6.293500000000000227e+01 3.265000000000000124e+00 1.458410000000000082e+02 5.989786905109164249e-03
6.294200000000000017e+01 1.739799999999999969e+01 1.482400000000000091e+02 3.227638009586176332e-02
6.294700000000000273e+01 5.719999999999999751e+00 1.401610000000000014e+02 -7.557996878578132627e-02
6.297200000000000131e+01 2.608599999999999852e+01 1.227139999999999986e+02 1.556730769895325883e-01
6.297299999999999898e+01 1.546100000000000030e+01 1.346059999999999945e+02 -1.022593835771473392e-01
6.297800000000000153e+01 6.027000000000000135e+00 1.456930000000000121e+02 -3.761896687819627633e-02
6.297999999999999687e+01 2.294200000000000017e+01 1.544420000000000073e+02 -1.161131314812396675e-01
6.299199999999999733e+01 -2.603000000000000203e+00 1.255529999999999973e+02 -2.197008455332466192e-01
6.300200000000000244e+01 1.218699999999999939e+01 1.320989999999999895e+02 -1.357325871048851440e-01
6.303900000000000148e+01 -2.580999999999999961e+00 1.346299999999999955e+02 2.743318532432830192e-01
6.307600000000000051e+01 8.041000000000000369e+00 1.280029999999999859e+02 -1.308948558157610464e-01
6.307600000000000051e+01 1.341799999999999926e+01 1.102219999999999942e+02 -3.927621075721495214e-01
6.310099999999999909e+01 1.191999999999999948e+00 1.103499999999999943e+02 -1.191565062492730559e-01
6.312500000000000000e+01 1.542900000000000027e+01 1.322150000000000034e+02 -1.038858671688558805e-01
6.312700000000000244e+01 7.576999999999999957e+00 1.506639999999999873e+02 -2.018192717943381731e-01
6.313700000000000045e+01 3.212000000000000188e+00 1.366539999999999964e+02 -8.898868635830894935e-02
6.314099999999999824e+01 1.124699999999999989e+01 1.145330000000000013e+02 -1.885456319158685112e-01
6.315100000000000335e+01 1.659999999999999920e+00 1.522510000000000048e+02 -1.856818712209233613e-01
6.315299999999999869e+01 -5.637999999999999901e+00 1.326109999999999900e+02 2.464876686804329253e-01
6.316100000000000136e+01 4.099999999999999756e-01 1.141550000000000011e+02 -1.249784140517195830e-01
6.317499999999999716e+01 2.700499999999999901e+01 1.177360000000000042e+02 -1.336408024916291848e-01
6.318699999999999761e+01 -3.958000000000000185e+00 1.234989999999999952e+02 -6.986699994578068895e-02
6.319299999999999784e+01 2.062099999999999866e+01 1.514209999999999923e+02 -1.770176812697772384e-01
6.320100000000000051e+01 1.349300000000000033e+01 1.147229999999999990e+02 -2.086803614388133832e-01
6.320700000000000074e+01 2.501000000000000156e+01 1.269680000000000035e+02 1.438356140043584586e-01
6.322399999999999665e+01 2.032700000000000173e+01 1.171170000000000044e+02 -2.294229284599487717e-01
6.324900000000000233e+01 7.189000000000000057e+00 1.454650000000000034e+02 -2.909333295982947654e-01
6.327700000000000102e+01 1.424300000000000033e+01 1.433000000000000114e+02 1.072853521840601704e-01
6.329099999999999682e+01 5.371999999999999886e+00 1.061979999999999933e+02 9.172751921022872373e-03
6.329299999999999926e+01 3.272999999999999687e+01 1.356519999999999868e+02 3.235509278522376297e-02
6.332900000000000063e+01 8.839999999999999858e+00 1.371179999999999950e+02 -1.094506219739889152e-01
6.333299999999999841e+01 -2.170999999999999819e+00 1.470459999999999923e+02 -3.470189365495683353e-01
6.333700000000000330e+01 1.063899999999999935e+01 1.355500000000000114e+02 -1.086257969952809654e-01
6.334499999999999886e+01 2.068100000000000094e+01 1.234599999999999937e+02 1.688954943198543446e-01
6.336800000000000210e+01 -3.390000000000000124e+00 1.471510000000000105e+02 -3.215224578254526899e-01
6.338600000000000279e+01 1.790399999999999991e+01 1.399060000000000059e+02 1.749408120154374857e-01
6.339099999999999824e+01 2.944099999999999895e+01 1.426200000000000045e+02 -9.584021046117277565e-02
6.339999999999999858e+01 2.092599999999999838e+01 1.220529999999999973e+02 -6.600940986249159703e-02
6.340800000000000125e+01 2.912999999999999812e+00 1.114009999999999962e+02 -1.177564860261887808e-01
6.340899999999999892e+01 -2.419999999999999929e+00 1.361020000000000039e+02 3.904250723515120813e-02
6.344700000000000273e+01 3.375399999999999778e+01 1.378009999999999877e+02 -2.919970116331184196e-01
6.345100000000000051e+01 2.800400000000000134e+01 1.333379999999999939e+02 -1.613500741194041077e-01
6.345600000000000307e+01 1.463599999999999923e+01 1.259669999999999987e+02 9.261094464423216127e-03
6.346200000000000330e+01 1.537500000000000000e+01 1.272710000000000008e+02 -1.202693833056886208e-01
6.347599999999999909e+01 1.331900000000000084e+01 1.425279999999999916e+02 1.935923544477125002e-02
6.348400000000000176e+01 2.837099999999999866e+01 1.196899999999999977e+02 9.194661432053827244e-02
6.349099999999999966e+01 2.153399999999999892e+01 1.504430000000000121e+02 -2.003642873096140031e-01
6.349499999999999744e+01 -3.059999999999999942e-01 1.291100000000000136e+02 -1.931478072395695356e-01
6.350300000000000011e+01 2.443999999999999950e+00 1.343739999999999952e+02 2.287090093290778670e-01
6.351599999999999824e+01 8.853999999999999204e+00 1.257669999999999959e+02 -2.653265949987519412e-01
6.352499999999999858e+01 1.573000000000000043e+01 1.466349999999999909e+02 2.292909733322449628e-01
6.353099999999999881e+01 1.566000000000000059e+00 1.140000000000000000e+02 -1.145787639353771786e-01
6.353099999999999881e+01 2.011599999999999966e+01 1.157950000000000017e+02 -3.260090996353893766e-01
6.353399999999999892e+01 2.528999999999999915e+01 1.509459999999999980e+02 9.156158350983757688e-02
6.354099999999999682e+01 2.827299999999999969e+01 1.497649999999999864e+02 1.776300553205118204e-01
6.356400000000000006e+01 8.493999999999999773e+00 1.528209999999999980e+02 1.669198712413368785e-02
6.358599999999999852e+01 5.557999999999999829e+00 1.134290000000000020e+02 -1.590294596149177953e-01
6.361999999999999744e+01 -1.875999999999999890e+00 1.338120000000000118e+02 2.905532626459780832e-01
6.363400000000000034e+01 1.208399999999999963e+01 1.351959999999999980e+02 1.212563284813764353e-01
6.363600000000000279e+01 4.862000000000000099e+00 1.295740000000000123e+02 7.627512411948628168e-02
6.364600000000000080e+01 1.105000000000000071e+01 1.298180000000000121e+02 -6.022731430735796948e-02
6.366299999999999670e+01 4.052999999999999936e+00 1.186830000000000069e+02 -5.751900334527441927e-02
6.367000000000000171e+01 1.011400000000000077e+01 1.367810000000000059e+02 -1.080644352336781466e-01
6.368800000000000239e+01 -6.508000000000000007e+00 1.394430000000000121e+02 2.016223083086852649e-02
6.369400000000000261e+01 1.036100000000000065e+01 1.083010000000000019e+02 -7.406285933055886672e-02
6.370300000000000296e+01 2.746499999999999986e+01 1.488619999999999948e+02 1.517122295641341878e-01
6.370499999999999829e+01 3.241000000000000103e+00 1.228379999999999939e+02 -5.956397430861640890e-02
6.373400000000000176e+01 1.238000000000000078e+01 1.148599999999999994e+02 -3.668106563667925535e-01
6.377000000000000313e+01 7.104000000000000092e+00 1.494519999999999982e+02 -1.951868260077169182e-01
6.377499999999999858e+01 1.933999999999999986e+01 1.322410000000000139e+02 7.248523522450858736e-02
6.377700000000000102e+01 -4.876000000000000334e+00 1.411519999999999868e+02 -2.666099886335598912e-01
6.377799999999999869e+01 5.070999999999999730e+00 1.085130000000000052e+02 4.366104199204650510e-02
6.379500000000000171e+01 3.372899999999999920e+01 1.364710000000000036e+02 -1.569477262141298068e-01
6.380599999999999739e+01 -5.879999999999999671e-01 1.305010000000000048e+02 2.113049139065396598e-01
6.381700000000000017e+01 2.148600000000000065e+01 1.454770000000000039e+02 6.017840054021997981e-02
6.385000000000000142e+01 1.800999999999999934e+00 1.112210000000000036e+02 -1.015055349581217153e-01
6.385399999999999920e+01 1.150200000000000067e+01 1.087450000000000045e+02 -4.178778319055484469e-02
6.386699999999999733e+01 1.882799999999999940e+01 1.527750000000000057e+02 -4.287266702187682993e-02
6.389500000000000313e+01 1.028299999999999947e+01 1.550380000000000109e+02 5.672839773022740270e-03
6.389500000000000313e+01 2.180499999999999972e+01 1.360260000000000105e+02 1.351186158037543106e-01
6.390299999999999869e+01 2.818400000000000105e+01 1.379139999999999873e+02 2.549863164022369080e-02
6.391400000000000148e+01 2.775900000000000034e+01 1.183659999999999997e+02 1.027517514503100970e-01
6.392999999999999972e+01 9.058999999999999275e+00 1.178259999999999934e+02 -8.414848444235781266e-02
6.396500000000000341e+01 5.168999999999999595e+00 1.409939999999999998e+02 -2.287949800697063052e-01
6.396699999999999875e+01 1.772599999999999909e+01 1.256089999999999947e+02 2.595880773497503263e-02
6.397899999999999920e+01 1.913999999999999924e+00 1.263870000000000005e+02 -3.173675778755159493e-01
6.398100000000000165e+01 1.513199999999999967e+01 1.116479999999999961e+02 -2.232635324599733795e-01
6.398899999999999721e+01 2.701200000000000045e+01 1.386250000000000000e+02 7.771220331045053040e-03
6.399000000000000199e+01 1.369299999999999962e+01 1.111449999999999960e+02 -2.228423384173122135e-01
6.399699999999999989e+01 1.699800000000000111e+01 1.490130000000000052e+02 5.568847155167189894e-03
6.399799999999999756e+01 2.330000000000000071e+00 1.411879999999999882e+02 -1.865445080780554765e-01
6.401000000000000512e+01 8.800000000000000044e-01 1.325310000000000059e+02 2.680169821046225476e-01
6.401200000000000045e+01 1.199499999999999922e+01 1.287920000000000016e+02 -3.180566279291071607e-01
6.401900000000000546e+01 3.411999999999999922e+00 1.354550000000000125e+02 1.033233199877845940e-02
6.402800000000000580e+01 2.545999999999999819e+00 1.460709999999999980e+02 -8.703331778863461488e-02
6.403900000000000148e+01 1.707100000000000151e+01 1.409180000000000064e+02 1.137706065696554025e-01
6.404200000000000159e+01 7.945999999999999730e+00 1.462019999999999982e+02 -2.312338192928459768e-01
6.404200000000000159e+01 8.032999999999999474e+00 1.517880000000000109e+02 -2.358509223905618235e-01
6.404300000000000637e+01 9.179999999999999716e+00 1.485949999999999989e+02 -1.040209714922412376e-01
6.404300000000000637e+01 3.819800000000000040e+01 1.364070000000000107e+02 -2.469546289545124229e-01
6.404900000000000659e+01 2.003200000000000003e+01 1.444790000000000134e+02 2.127169874730112653e-01
6.405599999999999739e+01 8.260999999999999233e+00 1.564919999999999902e+02 -9.489022226962770534e-02
6.405599999999999739e+01 1.169599999999999973e+01 1.547930000000000064e+02 -3.443266246782833440e-02
6.405899999999999750e+01 5.113000000000000433e+00 1.518640000000000043e+02 -2.433949348063012830e-01
6.407099999999999795e+01 4.860999999999999766e+00 1.349739999999999895e+02 9.277761715718738089e-02
6.407299999999999329e+01 2.082999999999999829e+01 1.277480000000000047e+02 2.963904575030737454e-02
6.408499999999999375e+01 3.059100000000000108e+01 1.418890000000000100e+02 -4.254242734136566562e-02
6.410099999999999909e+01 -6.413000000000000256e+00 1.448230000000000075e+02 -1.941895594638752276e-01
6.410399999999999920e+01 -7.027000000000000135e+00 1.461829999999999927e+02 -2.899137305811129162e-01
6.412199999999999989e+01 2.776300000000000168e+01 1.271929999999999978e+02 2.569696979489237143e-01
6.413200000000000500e+01 -2.170999999999999819e+00 1.254699999999999989e+02 -2.149272460618353864e-01
6.414000000000000057e+01 1.938299999999999912e+01 1.571920000000000073e+02 -3.228676261199742714e-01
6.414600000000000080e+01 1.619900000000000162e+01 1.346899999999999977e+02 1.719859928496964840e-01
6.415399999999999636e+01 1.177200000000000024e+01 1.320860000000000127e+02 2.112336973313690830e-02
6.415600000000000591e+01 7.953000000000000291e+00 1.485180000000000007e+02 -8.532228349778700482e-02
6.415900000000000603e+01 6.094000000000000306e+00 1.301299999999999955e+02 -6.033367982550661562e-02
6.416100000000000136e+01 3.464200000000000301e+01 1.323760000000000048e+02 -3.172529116776995339e-01
6.417300000000000182e+01 9.769999999999999574e+00 1.562259999999999991e+02 -1.656079454738648982e-01
6.417300000000000182e+01 1.976699999999999946e+01 1.518259999999999934e+02 -2.129564867316271481e-01
6.417499999999999716e+01 1.322999999999999954e+00 1.459530000000000030e+02 -1.193868919236396320e-01
6.418899999999999295e+01 1.422000000000000064e+01 1.524559999999999889e+02 3.900957278098520636e-02
6.419100000000000250e+01 6.770000000000000462e-01 1.312400000000000091e+02 1.290971352090928559e-01
6.419499999999999318e+01 5.360999999999999766e+00 1.072199999999999989e+02 7.734703487760438700e-03
6.425199999999999534e+01 2.843299999999999983e+01 1.433930000000000007e+02 2.693347263530240232e-01
6.425499999999999545e+01 7.866999999999999993e+00 1.170750000000000028e+02 -7.800489147991293559e-02
6.425700000000000500e+01 3.347599999999999909e+01 1.317210000000000036e+02 -1.294743101564874502e-02
6.426099999999999568e+01 2.109700000000000131e+01 1.392230000000000132e+02 1.269814489761800780e-01
6.426399999999999579e+01 1.745299999999999940e+01 1.282390000000000043e+02 -6.565480149350180934e-03
6.426900000000000546e+01 2.497400000000000020e+01 1.426769999999999925e+02 8.101315266592616637e-02
6.427400000000000091e+01 2.933099999999999952e+01 1.462810000000000059e+02 1.917328663373610020e-01
6.427599999999999625e+01 4.860000000000000320e+00 1.176910000000000025e+02 -5.741335991017783302e-02
6.427899999999999636e+01 -5.092999999999999972e+00 1.317450000000000045e+02 2.637322427933033175e-01
6.428199999999999648e+01 1.616199999999999903e+01 1.323079999999999927e+02 -1.036671601545997995e-01
6.432500000000000284e+01 -5.945000000000000284e+00 1.405120000000000005e+02 -2.516584492968110820e-01
6.435699999999999932e+01 1.508200000000000074e+01 1.214479999999999933e+02 -2.017941827696818295e-03
6.438100000000000023e+01 -1.368999999999999995e+00 1.363400000000000034e+02 8.282091135656174941e-02
6.438299999999999557e+01 2.141999999999999904e+00 1.331599999999999966e+02 3.350109087284666165e-01
6.440999999999999659e+01 -1.413000000000000034e+00 1.470840000000000032e+02 -1.538467245700932129e-01
6.440999999999999659e+01 1.200799999999999912e+01 1.533480000000000132e+02 -2.088719464553145388e-01
6.441200000000000614e+01 1.998199999999999932e+01 1.177229999999999990e+02 -3.788918654001277586e-01
6.443200000000000216e+01 2.297500000000000142e+01 1.539490000000000123e+02 -1.103012696118388647e-01
6.443899999999999295e+01 4.570999999999999730e+00 1.283029999999999973e+02 1.440057000915095364e-01
6.445699999999999363e+01 2.770999999999999908e+00 1.187590000000000003e+02 -1.867429472701667981e-01
6.449099999999999966e+01 1.262500000000000000e+01 1.426009999999999991e+02 -9.971477901832736385e-03
6.451000000000000512e+01 7.782000000000000028e+00 1.259030000000000058e+02 -3.204949052409499788e-01
6.451300000000000523e+01 2.287800000000000011e+01 1.351260000000000048e+02 2.247751427618133735e-01
6.451900000000000546e+01 5.410000000000000142e+00 1.273960000000000008e+02 5.750253434977649347e-02
6.452400000000000091e+01 2.121600000000000108e+01 1.199110000000000014e+02 -1.926468213932048257e-01
6.453100000000000591e+01 3.109299999999999997e+01 1.302419999999999902e+02 -4.965095236364135134e-02
6.455700000000000216e+01 1.055599999999999916e+01 1.570929999999999893e+02 -1.300546005346405187e-01
6.456600000000000250e+01 2.101699999999999946e+01 1.214170000000000016e+02 -2.000532327479830064e-01
6.457200000000000273e+01 2.394800000000000040e+01 1.200729999999999933e+02 -1.372938270274424444e-01
6.458199999999999363e+01 1.532699999999999996e+01 1.474209999999999923e+02 -1.164693303901013915e-01
6.459799999999999898e+01 6.158000000000000362e+00 1.130139999999999958e+02 -1.827584111892306962e-01
6.460099999999999909e+01 3.340299999999999869e+01 1.416399999999999864e+02 -2.673428617333530391e-02
6.461100000000000421e+01 1.631500000000000128e+01 1.273970000000000056e+02 2.667248323818582900e-01
6.464199999999999591e+01 2.885500000000000043e+01 1.204210000000000065e+02 -9.304074033335978794e-03
6.464900000000000091e+01 2.266199999999999903e+01 1.337669999999999959e+02 3.023763830732505431e-01
6.466100000000000136e+01 2.081999999999999851e+00 1.226760000000000019e+02 1.165069234147277505e-01
6.467799999999999727e+01 1.562999999999999945e+00 1.305709999999999980e+02 1.626080728694913324e-01
6.468699999999999761e+01 1.115499999999999936e+01 1.308100000000000023e+02 6.390846069067192443e-03
6.469400000000000261e+01 1.992399999999999949e+01 1.192169999999999987e+02 -2.030407763196735438e-01
6.469499999999999318e+01 1.940800000000000125e+01 1.297210000000000036e+02 -6.913618075968570864e-02
6.470199999999999818e+01 1.615599999999999881e+01 1.223919999999999959e+02 6.590808721948204774e-02
6.470300000000000296e+01 3.007199999999999918e+01 1.406570000000000107e+02 2.401779877288457744e-03
6.470699999999999363e+01 8.880000000000000782e+00 1.106869999999999976e+02 -1.045233374697040613e-01
6.473099999999999454e+01 2.184499999999999886e+01 1.298789999999999907e+02 1.537101244752831497e-01
6.474399999999999977e+01 2.157999999999999829e+01 1.498950000000000102e+02 -2.059583343058903060e-01
6.475400000000000489e+01 2.753600000000000136e+01 1.480879999999999939e+02 2.919220280815743029e-01
6.477700000000000102e+01 1.800300000000000011e+01 1.418849999999999909e+02 2.382404705248432342e-01
6.478400000000000603e+01 7.953000000000000291e+00 1.158719999999999999e+02 -7.559273930807255959e-02
6.479000000000000625e+01 1.654400000000000048e+01 1.335289999999999964e+02 1.866444159771706857e-01
6.480800000000000693e+01 1.598000000000000043e+01 1.486119999999999948e+02 3.339161582747668389e-02
6.480899999999999750e+01 1.970200000000000173e+01 1.156659999999999968e+02 -3.435215412702191662e-01
6.481399999999999295e+01 1.253500000000000014e+01 1.343640000000000043e+02 7.054329629792080447e-02
6.481799999999999784e+01 7.437000000000000277e+00 1.472880000000000109e+02 -1.501963529135099118e-01
6.481900000000000261e+01 -5.142999999999999794e+00 1.447539999999999907e+02 -4.124123055707912822e-01
6.482899999999999352e+01 1.347499999999999964e+01 1.531920000000000073e+02 -2.377484573653894095e-01
6.483299999999999841e+01 1.696399999999999864e+01 1.260580000000000069e+02 2.304093020844913686e-01
6.483799999999999386e+01 3.499000000000000110e+00 1.563820000000000050e+02 -1.436396862846937017e-01
6.483799999999999386e+01 8.785000000000000142e+00 1.190370000000000061e+02 -8.334090315653309988e-02
6.484600000000000364e+01 2.079100000000000037e+01 1.366049999999999898e+02 1.304517129859347757e-01
6.484999999999999432e+01 9.060999999999999943e+00 1.153169999999999931e+02 -6.437272404935807935e-02
6.485899999999999466e+01 1.289000000000000057e+01 1.115100000000000051e+02 4.246564499682151800e-02
6.486100000000000421e+01 1.301900000000000013e+01 1.295200000000000102e+02 -2.145595033413130182e-01
6.486100000000000421e+01 3.169600000000000151e+01 1.439379999999999882e+02 -1.116573502462126360e-01
6.486299999999999955e+01 6.402000000000000135e+00 1.115330000000000013e+02 -6.474457238287478766e-02
6.486700000000000443e+01 -2.213000000000000078e+00 1.382889999999999873e+02 -7.163907839410582623e-02
6.487800000000000011e+01 1.913000000000000034e+00 1.134050000000000011e+02 -9.740492274684223184e-02
6.490600000000000591e+01 3.396999999999999797e+00 1.579029999999999916e+02 -1.486322577424276925e-01
6.491299999999999670e+01 1.223900000000000077e+01 1.084339999999999975e+02 -2.745498830155524567e-02
6.491500000000000625e+01 1.537599999999999945e+01 1.200849999999999937e+02 1.136898970366418682e-01
6.492400000000000659e+01 5.169999999999999929e+00 1.092369999999999948e+02 2.969814303465669394e-02
6.492600000000000193e+01 1.197000000000000064e+00 1.239279999999999973e+02 -1.076800968413436366e-01
6.494499999999999318e+01 2.406200000000000117e+01 1.356610000000000014e+02 7.727107679925143691e-02
6.495199999999999818e+01 -1.518000000000000016e+00 1.305780000000000030e+02 1.722513283790707006e-01
6.497299999999999898e+01 1.651099999999999923e+01 1.195840000000000032e+02 -7.244628467469464705e-02
6.497499999999999432e+01 1.252000000000000002e+00 1.120409999999999968e+02 -1.122604482626175654e-01
6.498399999999999466e+01 2.069399999999999906e+01 1.289710000000000036e+02 1.614178633110972538e-01
6.498900000000000432e+01 7.759000000000000341e+00 1.575109999999999957e+02 -2.051498317526502801e-01
6.499500000000000455e+01 5.075999999999999623e+00 1.107639999999999958e+02 4.559824212040955449e-02
6.500499999999999545e+01 1.920299999999999940e+01 1.321409999999999911e+02 2.099998622028000361e-01
6.500600000000000023e+01 1.183200000000000074e+01 1.331179999999999950e+02 -1.375516014826782263e-01
6.500700000000000500e+01 3.475000000000000089e+00 1.467489999999999952e+02 -2.662796454652753275e-01
6.502400000000000091e+01 1.907900000000000063e+01 1.451049999999999898e+02 -2.379100499782333122e-01
6.502800000000000580e+01 2.257900000000000063e+01 1.487920000000000016e+02 7.460779983941970284e-02
6.505100000000000193e+01 2.855900000000000105e+01 1.372680000000000007e+02 2.982385636568980064e-02
6.506199999999999761e+01 7.607999999999999652e+00 1.194020000000000010e+02 -7.329959453201032038e-02
6.506799999999999784e+01 3.454599999999999937e+01 1.461620000000000061e+02 3.866320143624975281e-02
6.507099999999999795e+01 1.613899999999999935e+01 1.403420000000000130e+02 1.838713190163331623e-01
6.507399999999999807e+01 3.726400000000000290e+01 1.369989999999999952e+02 -2.332452129712550837e-01
6.507999999999999829e+01 1.937500000000000000e+01 1.346200000000000045e+02 3.430343152354151104e-02
6.508199999999999363e+01 6.128999999999999559e+00 1.310759999999999934e+02 3.934787708886456348e-01
6.508199999999999363e+01 2.967899999999999849e+01 1.471659999999999968e+02 2.111932520476433039e-01
6.509099999999999397e+01 1.914900000000000091e+01 1.415349999999999966e+02 2.359464005443370205e-01
6.509600000000000364e+01 3.197400000000000020e+01 1.463050000000000068e+02 3.216101321687132031e-01
6.509799999999999898e+01 3.403999999999999915e+00 1.282829999999999870e+02 1.979036877662028460e-01
6.512399999999999523e+01 1.758800000000000097e+01 1.431009999999999991e+02 2.469579622000304953e-01
6.512399999999999523e+01 2.810399999999999920e+01 1.178810000000000002e+02 5.199966485284338719e-02
6.513700000000000045e+01 1.819999999999999929e+01 1.289149999999999920e+02 -1.323257620725731554e-01
6.514799999999999613e+01 2.197999999999999954e+00 1.261520000000000010e+02 -3.588581864210188543e-01
6.514799999999999613e+01 1.220299999999999940e+01 1.153700000000000045e+02 -1.941565302516076730e-01
6.515699999999999648e+01 -6.330000000000000071e-01 1.224350000000000023e+02 -1.411891980202411578e-01
6.515999999999999659e+01 -1.401000000000000023e+00 1.374120000000000061e+02 1.658681504683503505e-01
6.517100000000000648e+01 2.626899999999999835e+01 1.386769999999999925e+02 7.834143135423205645e-03
6.517300000000000182e+01 2.965899999999999892e+01 1.365250000000000057e+02 2.215051790309961743e-02
6.517799999999999727e+01 7.812999999999999723e+00 1.237729999999999961e+02 -2.255107639959856025e-01
6.518099999999999739e+01 1.536999999999999922e+01 1.125750000000000028e+02 2.297942116735662010e-01
6.518399999999999750e+01 3.525999999999999801e+01 1.327259999999999991e+02 -3.017834553440382761e-01
6.518500000000000227e+01 1.653399999999999892e+01 1.135259999999999962e+02 -2.760360042074752052e-01
6.518699999999999761e+01 2.381700000000000017e+01 1.429219999999999970e+02 6.918432024819325121e-02
6.522400000000000375e+01 3.324300000000000210e+01 1.481800000000000068e+02 2.964845122857315274e-01
6.523399999999999466e+01 2.358099999999999952e+01 1.329439999999999884e+02 3.045576302830974025e-01
6.525499999999999545e+01 3.133200000000000074e+01 1.425939999999999941e+02 -1.568127605358632937e-01
6.531499999999999773e+01 2.273999999999999844e+01 1.551539999999999964e+02 -1.362286527323138263e-01
6.531900000000000261e+01 7.408999999999999808e+00 1.249320000000000022e+02 -9.524189179761196125e-03
6.533799999999999386e+01 1.426099999999999923e+01 1.194980000000000047e+02 -3.316340964310660056e-02
6.535500000000000398e+01 -7.791000000000000369e+00 1.465269999999999868e+02 -2.652205066950280576e-01
6.535599999999999454e+01 7.852000000000000313e+00 1.516250000000000000e+02 -2.673393519006377894e-01
6.537199999999999989e+01 6.690000000000000391e+00 1.152519999999999953e+02 -7.495313971651920704e-02
6.538200000000000500e+01 1.961199999999999832e+01 1.168259999999999934e+02 -3.463265747676511630e-01
6.539000000000000057e+01 2.145400000000000063e+01 1.388420000000000130e+02 2.751329758848389817e-01
6.539400000000000546e+01 3.196000000000000085e+01 1.301930000000000121e+02 -1.229199646905364540e-01
6.540900000000000603e+01 3.733100000000000307e+01 1.382620000000000005e+02 -1.017329110266389225e-01
6.541200000000000614e+01 2.767500000000000071e+01 1.239110000000000014e+02 2.218453788807284166e-01
6.543099999999999739e+01 7.676000000000000156e+00 1.603750000000000000e+02 -1.504713312166414685e-01
6.543800000000000239e+01 -8.102000000000000313e+00 1.479979999999999905e+02 -2.700934055205687079e-01
6.544299999999999784e+01 1.980499999999999972e+01 1.512880000000000109e+02 -2.267981164476689793e-01
6.545600000000000307e+01 4.626000000000000334e+00 1.490809999999999889e+02 -2.680200533411354336e-01
6.546299999999999386e+01 2.341100000000000136e+01 1.194170000000000016e+02 -1.374572776242369565e-01
6.547199999999999420e+01 3.095400000000000063e+01 1.472820000000000107e+02 2.989553679574524780e-01
6.548000000000000398e+01 5.128000000000000114e+00 1.316709999999999923e+02 3.703112584583065359e-01
6.548799999999999955e+01 6.722000000000000419e+00 1.138190000000000026e+02 8.915344535583656638e-02
6.549599999999999511e+01 2.683599999999999852e+01 1.207720000000000056e+02 -1.397014480115628121e-01
6.550000000000000000e+01 1.333000000000000007e+01 1.162049999999999983e+02 -3.361897777999400816e-01
6.550600000000000023e+01 9.781000000000000583e+00 1.196089999999999947e+02 -8.245879441404058152e-02
6.551800000000000068e+01 5.562999999999999723e+00 1.072069999999999936e+02 -1.762921898852471900e-02
6.552700000000000102e+01 2.496300000000000097e+01 1.348259999999999934e+02 9.645281898444242608e-02
6.553700000000000614e+01 3.292000000000000171e+01 1.313569999999999993e+02 -1.074926670148630831e-01
6.554099999999999682e+01 1.931299999999999883e+01 1.309130000000000109e+02 2.150429610034206573e-01
6.554600000000000648e+01 2.209299999999999997e+01 1.194050000000000011e+02 -1.562175898992223533e-01
6.555400000000000205e+01 3.268599999999999994e+01 1.419339999999999975e+02 -4.483973291905655328e-02
6.555700000000000216e+01 2.805399999999999849e+01 1.209369999999999976e+02 1.317878612864567811e-01
6.556499999999999773e+01 7.179000000000000270e+00 1.424099999999999966e+02 -7.155310553211835511e-02
6.557699999999999818e+01 3.338000000000000078e+00 1.155799999999999983e+02 -1.799460867013170096e-01
6.559600000000000364e+01 -6.600000000000000311e-02 1.234429999999999978e+02 -1.424535530805879635e-01
6.560399999999999920e+01 1.297199999999999953e+01 1.389430000000000121e+02 -8.508995116422733707e-02
6.561299999999999955e+01 3.315200000000000102e+01 1.267169999999999987e+02 -3.065657145712831211e-01
6.561400000000000432e+01 3.329399999999999693e+01 1.468100000000000023e+02 3.141708808392767449e-01
6.562199999999999989e+01 7.461999999999999744e+00 1.314739999999999895e+02 1.058587634951270867e-01
6.562999999999999545e+01 2.866600000000000037e+01 1.481759999999999877e+02 1.613605351940693433e-01
6.564700000000000557e+01 3.644800000000000040e+01 1.362880000000000109e+02 -1.268227076752129479e-01
6.565399999999999636e+01 1.183200000000000074e+01 1.209489999999999981e+02 4.051429846051969597e-02
6.565900000000000603e+01 2.098799999999999955e+01 1.220019999999999953e+02 7.497860492908589580e-02
6.566599999999999682e+01 2.473699999999999832e+01 1.334840000000000089e+02 8.821544355046298524e-02
6.567000000000000171e+01 2.019000000000000128e+01 1.354840000000000089e+02 -2.314307464198207820e-02
6.567100000000000648e+01 1.200300000000000011e+01 1.179399999999999977e+02 -6.474916789811936690e-02
6.568699999999999761e+01 1.010999999999999899e+00 1.502870000000000061e+02 -2.125798186400727485e-01
6.568800000000000239e+01 3.162099999999999866e+01 1.449670000000000130e+02 2.580509027807447731e-01
6.569100000000000250e+01 1.893999999999999906e+00 1.249620000000000033e+02 -1.369842704173481751e-01
6.571099999999999852e+01 2.745299999999999940e+01 1.167169999999999987e+02 -3.243345476549627238e-01
6.572799999999999443e+01 2.072299999999999898e+01 1.503100000000000023e+02 -2.403462882407324253e-01
6.573099999999999454e+01 2.234400000000000119e+01 1.410380000000000109e+02 2.312729294244770806e-01
6.573399999999999466e+01 1.199300000000000033e+01 1.301409999999999911e+02 2.580879911544354810e-01
6.573600000000000421e+01 4.272999999999999687e+00 1.457119999999999891e+02 -2.157671159000682515e-01
6.573900000000000432e+01 2.140200000000000102e+01 1.375610000000000070e+02 2.721554142646571695e-01
6.574299999999999500e+01 1.011100000000000065e+01 1.421179999999999950e+02 -6.093275820476266175e-02
6.574399999999999977e+01 1.313100000000000023e+01 1.174719999999999942e+02 -1.800029671672857545e-01
6.576600000000000534e+01 -1.887999999999999901e+00 1.473600000000000136e+02 -1.277061943668487687e-01
6.579699999999999704e+01 1.890299999999999869e+01 1.334370000000000118e+02 2.371287839559762245e-01
6.580700000000000216e+01 -2.311999999999999833e+00 1.487959999999999923e+02 -1.214270575645381156e-01
6.582999999999999829e+01 2.052000000000000046e+00 1.336119999999999948e+02 3.110246355482470526e-01
6.584199999999999875e+01 8.410999999999999588e+00 1.107120000000000033e+02 -1.790048861597846319e-01
6.584499999999999886e+01 1.403899999999999970e+01 1.538739999999999952e+02 -2.516302678068182419e-01
6.585200000000000387e+01 2.518799999999999883e+01 1.473950000000000102e+02 1.525702576382985121e-01
6.589000000000000057e+01 1.842000000000000171e+01 1.440289999999999964e+02 -2.912551347569482599e-02
6.590500000000000114e+01 1.628999999999999915e+01 1.229759999999999991e+02 7.715970992001894291e-02
6.591400000000000148e+01 1.050799999999999912e+01 1.250550000000000068e+02 -2.935287519721029303e-01
6.591700000000000159e+01 1.672299999999999898e+01 1.253539999999999992e+02 -7.482197056187410433e-02
6.592100000000000648e+01 1.518000000000000016e+00 1.142909999999999968e+02 -1.307863674002920917e-01
6.595699999999999363e+01 2.899999999999999911e+00 1.272249999999999943e+02 2.539850324716462215e-01
6.595900000000000318e+01 9.469999999999999529e-01 1.379389999999999930e+02 2.375487445474329107e-01
6.596599999999999397e+01 2.939999999999999947e+00 1.476769999999999925e+02 -3.095995374698312652e-01
6.597299999999999898e+01 1.566799999999999926e+01 1.495120000000000005e+02 -2.215998625410271483e-01
6.598000000000000398e+01 3.644700000000000273e+01 1.431250000000000000e+02 -1.191500635990893758e-01
6.598499999999999943e+01 2.349299999999999855e+01 1.416639999999999873e+02 2.406597688570068228e-01
6.599699999999999989e+01 -4.988000000000000433e+00 1.441490000000000009e+02 -4.092175279971562718e-01
6.600100000000000477e+01 5.445999999999999730e+00 1.084380000000000024e+02 -1.711609089273381790e-02
6.600100000000000477e+01 1.174900000000000055e+01 1.076080000000000041e+02 -3.324697018841549223e-02
6.600600000000000023e+01 4.269999999999999574e+00 1.557800000000000011e+02 5.888653660857571387e-02
6.602400000000000091e+01 1.237400000000000055e+01 1.352259999999999991e+02 1.484779775033274671e-02
6.603000000000000114e+01 2.732300000000000040e+01 1.304790000000000134e+02 1.006570242611442706e-01
6.603799999999999670e+01 7.209999999999999964e+00 1.112090000000000032e+02 3.615447994444714874e-02
6.605599999999999739e+01 1.736599999999999966e+01 1.335740000000000123e+02 1.187557286918407701e-01
6.605700000000000216e+01 1.272400000000000020e+01 1.240079999999999956e+02 -1.162140081962239196e-01
6.607500000000000284e+01 3.567000000000000171e+00 1.488520000000000039e+02 -3.422199534290751299e-01
6.608199999999999363e+01 1.296199999999999974e+01 1.364110000000000014e+02 -1.373873214299713499e-02
6.608799999999999386e+01 2.422400000000000020e+01 1.439530000000000030e+02 -1.954039204042062605e-01
6.609300000000000352e+01 2.553500000000000014e+01 1.183730000000000047e+02 1.022969810257082363e-01
6.609699999999999420e+01 3.122899999999999920e+01 1.279779999999999944e+02 3.624781759168427958e-02
6.610399999999999920e+01 2.673999999999999932e+00 1.583449999999999989e+02 -1.177113933218324054e-01
6.610599999999999454e+01 1.431400000000000006e+01 1.182939999999999969e+02 7.954129245677367399e-02
6.611499999999999488e+01 1.735300000000000153e+01 1.240390000000000015e+02 9.711964193767702591e-02
6.612600000000000477e+01 1.292000000000000037e+00 1.345380000000000109e+02 1.138303748637670976e-01
6.614499999999999602e+01 3.220600000000000307e+01 1.325519999999999925e+02 6.051445495697911625e-02
6.614799999999999613e+01 1.179599999999999937e+01 1.252030000000000030e+02 -2.323276318053798806e-01
6.615900000000000603e+01 1.047000000000000064e+01 1.408240000000000123e+02 2.827635678654360496e-01
6.616700000000000159e+01 2.279999999999999805e+00 1.153490000000000038e+02 -1.600962859243759140e-01
6.617799999999999727e+01 3.798000000000000043e+00 1.543379999999999939e+02 -7.621356082795599507e-02
6.618800000000000239e+01 -5.749999999999999556e-01 1.167579999999999956e+02 -1.458872429542741878e-01
6.619799999999999329e+01 3.208299999999999841e+01 1.291399999999999864e+02 1.045857693375981806e-01
6.621599999999999397e+01 2.431200000000000117e+01 1.500629999999999882e+02 6.985462341592761464e-03
6.621899999999999409e+01 1.737500000000000000e+01 1.384869999999999948e+02 3.241048776371484030e-01
6.622499999999999432e+01 -2.697000000000000064e+00 1.451579999999999870e+02 -4.235248822794744905e-01
6.622499999999999432e+01 7.980999999999999872e+00 1.471759999999999877e+02 -3.882392151259271285e-01
6.624099999999999966e+01 2.784400000000000119e+01 1.372990000000000066e+02 4.387050651990001549e-02
6.624899999999999523e+01 4.714999999999999858e+00 1.433060000000000116e+02 1.731703526801642995e-02
6.625400000000000489e+01 3.681999999999999940e+00 1.444199999999999875e+02 -2.165479538420156391e-01
6.628499999999999659e+01 -3.000999999999999890e+00 1.464550000000000125e+02 -4.337015182974315874e-01
6.628799999999999670e+01 9.599999999999999645e+00 1.208160000000000025e+02 -2.071421842272261615e-01
6.628900000000000148e+01 1.683099999999999952e+01 1.397580000000000098e+02 3.257197403914419143e-01
6.629800000000000182e+01 2.157199999999999918e+01 1.550500000000000114e+02 -1.536315139645460792e-01
6.630700000000000216e+01 2.609600000000000009e+01 1.171530000000000058e+02 -3.001150942920406406e-01
6.630800000000000693e+01 7.865000000000000213e+00 1.573470000000000084e+02 -1.340294788559108219e-01
6.631199999999999761e+01 2.341400000000000148e+01 1.489470000000000027e+02 3.590360841192222208e-02
6.631300000000000239e+01 3.126399999999999935e+01 1.254560000000000031e+02 3.336614150150579716e-01
6.632099999999999795e+01 2.668100000000000094e+01 1.380109999999999957e+02 5.074595080268395897e-02
6.634199999999999875e+01 1.793400000000000105e+01 1.289209999999999923e+02 4.321431591104062941e-01
6.634699999999999420e+01 8.253000000000000114e+00 1.526100000000000136e+02 -3.070519813761479755e-01
6.635999999999999943e+01 2.971000000000000085e+01 1.158349999999999937e+02 1.508226294222015859e-02
6.636199999999999477e+01 -4.929999999999999938e-01 1.376450000000000102e+02 2.470739988356681072e-01
6.639900000000000091e+01 2.971600000000000108e+01 1.360569999999999879e+02 -1.971967242556320887e-01
6.640500000000000114e+01 7.253000000000000114e+00 1.326810000000000116e+02 1.691910892672978672e-01
6.640500000000000114e+01 1.097300000000000075e+01 1.214219999999999970e+02 -1.663738479441028983e-01
6.642199999999999704e+01 2.197200000000000131e+01 1.398309999999999889e+02 2.204896347682785973e-01
6.643000000000000682e+01 7.934999999999999609e+00 1.303110000000000070e+02 1.309961023865287288e-01
6.643699999999999761e+01 1.662900000000000134e+01 1.143299999999999983e+02 -2.577321280825862759e-01
6.644599999999999795e+01 8.169000000000000483e+00 1.357959999999999923e+02 2.154599824795788016e-02
6.645600000000000307e+01 6.477999999999999758e+00 1.253149999999999977e+02 1.322656438266896495e-01
6.648300000000000409e+01 1.152100000000000080e+01 1.490809999999999889e+02 -1.816010987715910852e-01
6.648399999999999466e+01 2.489699999999999847e+01 1.244639999999999986e+02 2.412406633699298586e-01
6.648600000000000421e+01 2.689600000000000080e+01 1.513460000000000036e+02 1.207853608798797884e-01
6.648699999999999477e+01 3.203000000000000114e+01 1.267469999999999999e+02 3.406195808981121037e-02
6.648999999999999488e+01 1.032099999999999973e+01 1.094770000000000039e+02 -2.462132654920435315e-01
6.649800000000000466e+01 1.219100000000000072e+01 1.262980000000000018e+02 -2.439122887486816216e-01
6.650499999999999545e+01 5.857000000000000206e+00 1.531469999999999914e+02 -2.933944210604236824e-01
6.650499999999999545e+01 9.423000000000000043e+00 1.329900000000000091e+02 -5.243555895934659539e-02
6.653199999999999648e+01 2.419999999999999929e+01 1.476610000000000014e+02 1.350955512134481007e-01
6.654600000000000648e+01 1.638599999999999923e+01 1.450190000000000055e+02 -1.197864783905357722e-01
6.655400000000000205e+01 2.418599999999999994e+01 1.187049999999999983e+02 -1.073649431346774125e-01
6.655800000000000693e+01 2.725199999999999889e+01 1.236989999999999981e+02 1.787705128409330935e-01
6.656100000000000705e+01 2.887399999999999878e+01 1.280670000000000073e+02 2.866820953957494034e-01
6.656300000000000239e+01 -5.966000000000000192e+00 1.436610000000000014e+02 -4.052016566732531966e-01
6.657099999999999795e+01 1.578599999999999959e+01 1.152249999999999943e+02 -2.582425257445836175e-01
6.658100000000000307e+01 8.138999999999999346e+00 1.605560000000000116e+02 2.913178675444776933e-01
6.658799999999999386e+01 3.616999999999999993e+00 1.512319999999999993e+02 -1.778618975957194370e-01
6.659699999999999420e+01 -3.572999999999999954e+00 1.440349999999999966e+02 -4.123999856958288635e-01
6.662300000000000466e+01 6.431000000000000050e+00 1.376479999999999961e+02 -1.089986574742971837e-01
6.662999999999999545e+01 2.665700000000000003e+01 1.292119999999999891e+02 1.692097311996081932e-01
6.663599999999999568e+01 1.546499999999999986e+01 1.035999999999999943e+02 -3.583354860592909974e-01
6.664199999999999591e+01 -8.891999999999999460e+00 1.481459999999999866e+02 -2.766239622992649472e-01
6.665399999999999636e+01 7.080000000000000071e+00 1.431800000000000068e+02 -4.264579963174301713e-02
6.665500000000000114e+01 5.206999999999999851e+00 1.208190000000000026e+02 1.371528400728509733e-02
6.668099999999999739e+01 -4.899999999999999911e-01 1.240649999999999977e+02 -1.762470756488490053e-01
6.670199999999999818e+01 2.867200000000000060e+01 1.217199999999999989e+02 2.938454107652816588e-02
6.671299999999999386e+01 1.054299999999999926e+01 1.081790000000000020e+02 -1.499663104613964404e-01
6.671899999999999409e+01 6.501999999999999780e+00 1.158640000000000043e+02 -7.777582634241389514e-02
6.673600000000000421e+01 2.845000000000000195e+00 1.330680000000000121e+02 2.967030194669544874e-01
6.675300000000000011e+01 2.681299999999999883e+01 1.259909999999999997e+02 1.792188496436391276e-01
6.675499999999999545e+01 1.264700000000000024e+01 1.386500000000000057e+02 -2.205551085905171904e-02
6.675700000000000500e+01 8.288000000000000256e+00 1.334070000000000107e+02 -4.974279412155488411e-02
6.675900000000000034e+01 -4.056000000000000050e+00 1.468499999999999943e+02 -4.310635232602109679e-01
6.676000000000000512e+01 1.134800000000000075e+01 1.504159999999999968e+02 -1.598323562678299892e-01
6.676600000000000534e+01 3.319599999999999795e+01 1.417290000000000134e+02 4.607862267517669197e-02
6.680700000000000216e+01 8.471000000000000085e+00 1.564000000000000057e+02 1.307781355326205833e-02
6.681600000000000250e+01 2.430900000000000105e+01 1.412230000000000132e+02 2.356793736155075591e-01
6.683100000000000307e+01 1.553400000000000070e+01 1.227349999999999994e+02 2.328731401887458863e-01
6.685099999999999909e+01 3.119200000000000017e+01 1.448909999999999911e+02 2.447750503926583165e-01
6.685999999999999943e+01 7.719000000000000306e+00 1.371920000000000073e+02 -1.043438607164268311e-01
6.686100000000000421e+01 1.754200000000000159e+01 1.447560000000000002e+02 -1.341926700341420919e-01
6.686499999999999488e+01 2.050400000000000134e+01 1.353739999999999952e+02 1.213870856928450370e-01
6.686899999999999977e+01 2.442000000000000171e+01 1.231149999999999949e+02 -6.647629429734666640e-02
6.687300000000000466e+01 2.571099999999999852e+01 1.546779999999999973e+02 -1.769013734257671167e-01
6.687399999999999523e+01 2.830999999999999872e+01 1.160120000000000005e+02 -3.254623221751594686e-01
6.691100000000000136e+01 2.557700000000000173e+01 1.519339999999999975e+02 -5.673753157431088434e-02
6.691599999999999682e+01 1.957999999999999963e+00 1.278629999999999995e+02 2.729671477229935195e-01
6.693200000000000216e+01 2.803800000000000026e+01 1.315120000000000005e+02 6.429285759772962461e-02
6.695199999999999818e+01 3.446600000000000108e+01 1.410240000000000009e+02 1.444473501079078792e-01
6.696099999999999852e+01 2.391199999999999903e+01 1.254689999999999941e+02 2.315223126290914535e-01
6.697299999999999898e+01 1.289600000000000080e+01 1.074080000000000013e+02 -1.265264674966149697e-03
6.697499999999999432e+01 2.342699999999999960e+01 1.445339999999999918e+02 3.623659335470386707e-03
6.697899999999999920e+01 1.173499999999999943e+01 1.408369999999999891e+02 3.003186453212676188e-01
6.698499999999999943e+01 1.174799999999999933e+01 1.347969999999999970e+02 1.934223692350443835e-01
6.700199999999999534e+01 8.505000000000000782e+00 1.616579999999999870e+02 2.544017282438431060e-01
6.701000000000000512e+01 3.079000000000000181e+00 1.499410000000000025e+02 -3.367553322956066131e-01
6.701900000000000546e+01 2.830399999999999849e+01 1.477709999999999866e+02 1.077916909890617586e-01
6.702400000000000091e+01 1.056600000000000072e+01 1.123919999999999959e+02 2.370832536867822221e-02
6.703600000000000136e+01 1.576999999999999957e+00 1.500780000000000030e+02 -3.381991537007480453e-01
6.703900000000000148e+01 9.214999999999999858e+00 1.102330000000000041e+02 -1.980725894402229348e-01
6.704399999999999693e+01 5.894000000000000128e+00 1.436189999999999998e+02 -3.555206603477953919e-01
6.704500000000000171e+01 2.861499999999999844e+01 1.365269999999999868e+02 5.399446605342948097e-02
6.704600000000000648e+01 2.012000000000000099e+01 1.250960000000000036e+02 2.118917501207485399e-01
6.705500000000000682e+01 -2.641999999999999904e+00 1.336779999999999973e+02 2.486373880263618441e-01
6.706499999999999773e+01 3.008999999999999986e+01 1.282069999999999936e+02 -4.073430412348059970e-02
6.707399999999999807e+01 1.939999999999999947e+00 1.380699999999999932e+02 -9.823232375563933916e-02
6.708499999999999375e+01 1.671499999999999986e+01 1.492760000000000105e+02 -1.999320579021559297e-01
6.710899999999999466e+01 2.561199999999999832e+01 1.163569999999999993e+02 9.073039254442789858e-02
6.711299999999999955e+01 -5.130000000000000115e-01 1.364269999999999925e+02 1.657492105974211483e-01
6.712099999999999511e+01 2.625300000000000011e+01 1.246910000000000025e+02 4.149201178373777554e-01
6.713200000000000500e+01 2.221099999999999852e+01 1.442940000000000111e+02 -5.200508355103183877e-02
6.713599999999999568e+01 6.033999999999999808e+00 1.388540000000000134e+02 -9.016782051786861873e-02
6.713800000000000523e+01 -4.088000000000000078e+00 1.496719999999999970e+02 -2.835622177310958558e-01
6.714199999999999591e+01 3.580899999999999750e+01 1.431670000000000016e+02 -1.116319629989404733e-01
6.714300000000000068e+01 -2.814999999999999947e+00 1.493129999999999882e+02 -2.980838679834250105e-01
6.715200000000000102e+01 4.616999999999999993e+00 1.534960000000000093e+02 -1.180557973876206201e-01
6.715500000000000114e+01 7.017999999999999794e+00 1.530149999999999864e+02 -3.395340579237696721e-01
6.717900000000000205e+01 -5.480000000000000426e-01 1.160180000000000007e+02 -1.263202172700810810e-01
6.719299999999999784e+01 -5.067000000000000171e+00 1.159440000000000026e+02 -2.345317890001271943e-01
6.720699999999999363e+01 7.211000000000000298e+00 1.480370000000000061e+02 -3.926664176809840923e-01
6.721800000000000352e+01 2.704299999999999926e+01 1.429590000000000032e+02 -1.562057635068158645e-01
6.722899999999999920e+01 1.308300000000000018e+01 1.059140000000000015e+02 2.724155543403516261e-02
6.724500000000000455e+01 2.460099999999999909e+01 1.508300000000000125e+02 -2.089911787922769104e-01
6.724800000000000466e+01 1.126900000000000013e+01 1.224060000000000059e+02 -1.326180079070025664e-01
6.725000000000000000e+01 -1.764999999999999902e+00 1.237039999999999935e+02 -2.087543687367689471e-01
6.725000000000000000e+01 7.080000000000000071e+00 1.264929999999999950e+02 1.420528574756085294e-01
6.725300000000000011e+01 1.255700000000000038e+01 1.230720000000000027e+02 -1.215523886575580470e-01
6.725600000000000023e+01 7.269000000000000128e+00 1.583379999999999939e+02 -8.189633910934822347e-02
6.725700000000000500e+01 1.852000000000000091e+00 1.162560000000000002e+02 -1.975626556210793028e-01
6.726699999999999591e+01 6.407000000000000028e+00 1.241230000000000047e+02 6.909855746749798966e-02
6.727500000000000568e+01 1.293999999999999950e+01 1.372520000000000095e+02 -6.995383894836974814e-02
6.728900000000000148e+01 2.771799999999999997e+01 1.226599999999999966e+02 2.047411609133821878e-02
6.729000000000000625e+01 1.231199999999999939e+01 1.483019999999999925e+02 1.853536947250813624e-02
6.730100000000000193e+01 1.747200000000000131e+01 1.140580000000000069e+02 -5.888902074052439206e-02
6.733599999999999852e+01 1.794600000000000151e+01 1.379159999999999968e+02 3.239776228951914971e-01
6.735999999999999943e+01 2.768799999999999883e+01 1.282920000000000016e+02 2.079161717153191480e-01
6.736100000000000421e+01 8.163000000000000256e+00 1.434610000000000127e+02 -2.973932456082226117e-01
6.738700000000000045e+01 2.205499999999999972e+01 1.541529999999999916e+02 -1.116609802567627811e-02
6.744299999999999784e+01 2.799500000000000099e+01 1.419149999999999920e+02 2.577730308805283310e-01
