6.825999999999999623e+00 6.861100000000000421e+01 7.998000000000000398e+01 1.343610862069107535e-02
6.846000000000000085e+00 5.760399999999999920e+01 9.186299999999999955e+01 -1.384477899004518675e-01
6.849000000000000199e+00 8.535099999999999909e+01 8.870300000000000296e+01 -2.689277529437838002e-02
6.865000000000000213e+00 7.176800000000000068e+01 8.343999999999999773e+01 -7.777921712924425190e-02
6.865999999999999659e+00 7.978900000000000148e+01 8.636100000000000421e+01 8.902257235493681031e-02
6.876999999999999780e+00 6.363400000000000034e+01 1.049849999999999994e+02 4.107347696306425100e-02
6.929000000000000270e+00 6.743300000000000693e+01 7.901099999999999568e+01 1.212080297479728452e-02
6.934999999999999609e+00 7.174800000000000466e+01 9.755599999999999739e+01 4.960784143358169807e-02
6.971000000000000085e+00 7.998199999999999932e+01 9.963400000000000034e+01 -3.037557024283932816e-01
6.974000000000000199e+00 8.015200000000000102e+01 9.082699999999999818e+01 1.259363501665325402e-01
6.979000000000000092e+00 6.176200000000000045e+01 9.056699999999999307e+01 -2.239796785575679794e-01
6.987000000000000099e+00 8.312900000000000489e+01 8.764000000000000057e+01 1.571372168623671739e-01
7.003999999999999559e+00 6.803199999999999648e+01 8.726999999999999602e+01 2.514349411625750319e-01
7.044999999999999929e+00 6.447599999999999909e+01 9.811700000000000443e+01 -1.027689309162126696e-01
7.068999999999999950e+00 6.276200000000000045e+01 1.041410000000000053e+02 -9.086920865875211528e-02
7.086000000000000298e+00 6.168800000000000239e+01 8.924399999999999977e+01 -1.204305214966312487e-01
7.097999999999999865e+00 6.787099999999999511e+01 9.257399999999999807e+01 3.323191786026217370e-02
7.139999999999999680e+00 8.454800000000000182e+01 9.950600000000000023e+01 -1.353187981466934808e-01
7.182000000000000384e+00 8.306699999999999307e+01 9.491100000000000136e+01 -3.810299656454597117e-01
7.185999999999999943e+00 7.492199999999999704e+01 1.069350000000000023e+02 -1.763003526696550194e-01
7.235000000000000320e+00 7.220000000000000284e+01 1.028379999999999939e+02 -1.057394212208008152e-02
7.267999999999999794e+00 8.389199999999999591e+01 8.892199999999999704e+01 -5.856569820044717906e-02
7.275999999999999801e+00 6.337100000000000222e+01 1.074669999999999987e+02 -2.233928338452730311e-01
7.288000000000000256e+00 6.840999999999999659e+01 1.043340000000000032e+02 -3.203439522658443339e-01
7.318999999999999950e+00 6.546299999999999386e+01 1.013439999999999941e+02 2.437526180016789668e-01
7.375000000000000000e+00 7.980400000000000205e+01 8.492100000000000648e+01 -1.456183172057467501e-01
7.416000000000000369e+00 8.308299999999999841e+01 9.340500000000000114e+01 -2.999251490406734666e-01
7.453999999999999737e+00 7.937000000000000455e+01 9.178400000000000603e+01 1.766554110627633067e-01
7.472000000000000419e+00 6.636400000000000432e+01 8.776500000000000057e+01 2.671694236995444394e-01
7.535999999999999588e+00 7.163200000000000500e+01 8.871999999999999886e+01 -7.985179361493531525e-02
7.570999999999999730e+00 7.515600000000000591e+01 8.920999999999999375e+01 -2.228392732991379410e-01
7.618999999999999773e+00 7.895699999999999363e+01 9.430200000000000671e+01 3.692963743872316185e-01
7.631000000000000227e+00 8.704800000000000182e+01 9.015900000000000603e+01 -2.818787778606955952e-01
7.666999999999999815e+00 7.119700000000000273e+01 9.191299999999999670e+01 6.532112421041673389e-02
7.709999999999999964e+00 7.885200000000000387e+01 9.679500000000000171e+01 -1.829077354578013404e-01
7.724000000000000199e+00 6.693200000000000216e+01 1.012069999999999936e+02 1.163425406175674359e-01
7.727999999999999758e+00 7.524200000000000443e+01 1.000379999999999967e+02 2.041076456484080259e-01
7.738999999999999879e+00 6.437000000000000455e+01 9.380500000000000682e+01 -1.819323471783305946e-02
7.774000000000000021e+00 7.787000000000000455e+01 1.041340000000000003e+02 -3.902106732083320852e-03
7.812999999999999723e+00 6.840699999999999648e+01 9.520000000000000284e+01 2.677756708665422064e-02
7.841999999999999638e+00 7.316800000000000637e+01 9.334900000000000375e+01 -6.368137921993229089e-02
7.852000000000000313e+00 6.826000000000000512e+01 1.056430000000000007e+02 9.160605121701132295e-03
7.865000000000000213e+00 8.295999999999999375e+01 8.679600000000000648e+01 -1.424073965212804271e-01
7.868999999999999773e+00 6.384300000000000352e+01 1.061260000000000048e+02 -2.318818311937401455e-01
7.876000000000000334e+00 8.235399999999999920e+01 9.562800000000000011e+01 -3.786927292352095242e-01
7.886000000000000121e+00 6.369299999999999784e+01 9.515800000000000125e+01 -1.196352621808084715e-01
7.951999999999999957e+00 6.167000000000000171e+01 9.132500000000000284e+01 -1.482306215289769247e-01
8.000000000000000000e+00 7.447799999999999443e+01 1.009590000000000032e+02 -1.504327459796455692e-02
8.044000000000000483e+00 6.575100000000000477e+01 8.420199999999999818e+01 2.028866686825696042e-01
8.064999999999999503e+00 7.786299999999999955e+01 9.742300000000000182e+01 1.854223286336013216e-02
8.080999999999999517e+00 8.008499999999999375e+01 9.712300000000000466e+01 -1.611532784440290467e-01
8.175000000000000711e+00 6.634099999999999397e+01 8.910699999999999932e+01 -1.900762978957074023e-01
8.178000000000000824e+00 6.141499999999999915e+01 8.706699999999999307e+01 -1.341628481073179613e-01
8.185999999999999943e+00 6.962099999999999511e+01 1.062249999999999943e+02 3.257332432381280368e-02
8.227000000000000313e+00 7.892900000000000205e+01 1.046170000000000044e+02 -1.105560136321727133e-03
8.275999999999999801e+00 6.858199999999999363e+01 9.282200000000000273e+01 -1.097837577959649841e-01
8.282999999999999474e+00 7.980500000000000682e+01 9.952200000000000557e+01 -1.234488138837903648e-01
8.288000000000000256e+00 6.523699999999999477e+01 1.062399999999999949e+02 -2.756261983256037551e-01
8.305999999999999162e+00 7.527899999999999636e+01 9.467700000000000671e+01 7.415823468557035392e-02
8.333000000000000185e+00 6.331400000000000006e+01 1.015150000000000006e+02 1.362739807879948251e-01
8.336000000000000298e+00 7.025199999999999534e+01 9.092499999999999716e+01 2.097392947310912914e-01
8.369999999999999218e+00 7.856999999999999318e+01 9.158799999999999386e+01 -1.485677756459861110e-01
8.374000000000000554e+00 6.153499999999999659e+01 8.858199999999999363e+01 -9.524334446692465928e-02
8.404999999999999361e+00 7.219299999999999784e+01 9.240300000000000580e+01 9.810850749489610431e-03
8.448000000000000398e+00 7.566899999999999693e+01 8.502100000000000080e+01 -2.551928782506935334e-01
8.512999999999999901e+00 6.856399999999999295e+01 8.642799999999999727e+01 1.037419085802161189e-01
8.519999999999999574e+00 6.451900000000000546e+01 1.013329999999999984e+02 1.760874015834049400e-01
8.535999999999999588e+00 6.391400000000000148e+01 8.898900000000000432e+01 3.732242404410410913e-02
8.621000000000000441e+00 6.883299999999999841e+01 9.414600000000000080e+01 1.473047694894277435e-03
8.627000000000000668e+00 7.563299999999999557e+01 9.913299999999999557e+01 4.757140890918930970e-02
8.650000000000000355e+00 8.534999999999999432e+01 9.334600000000000364e+01 -4.087333528017310647e-01
8.657000000000000028e+00 8.382599999999999341e+01 8.936100000000000421e+01 -3.875010059226253190e-01
8.708000000000000185e+00 8.385200000000000387e+01 9.308700000000000330e+01 -4.084784615975513011e-01
8.723000000000000753e+00 6.595900000000000318e+01 1.052099999999999937e+02 -3.045672687876365692e-01
8.736000000000000654e+00 7.163599999999999568e+01 8.899299999999999500e+01 -1.013326099466817787e-01
8.743000000000000327e+00 7.198999999999999488e+01 1.030789999999999935e+02 5.815984996222185732e-02
8.776999999999999247e+00 7.449299999999999500e+01 8.569499999999999318e+01 -2.674699483297441338e-01
8.781000000000000583e+00 7.997499999999999432e+01 1.036719999999999970e+02 2.587335873549327925e-01
8.782999999999999474e+00 6.473300000000000409e+01 9.163299999999999557e+01 9.783145940794575959e-03
8.794999999999999929e+00 6.962600000000000477e+01 1.026959999999999980e+02 -1.135706112026241971e-02
8.808999999999999275e+00 6.552500000000000568e+01 1.040490000000000066e+02 -4.873757558316237082e-02
8.858000000000000540e+00 6.531000000000000227e+01 8.183700000000000330e+01 -5.482872793099523301e-03
8.933999999999999275e+00 8.034799999999999898e+01 9.826600000000000534e+01 -1.769776552522954460e-01
8.944000000000000838e+00 7.411299999999999955e+01 9.392700000000000671e+01 -1.590896441995560406e-01
8.948999999999999844e+00 8.167400000000000659e+01 8.877700000000000102e+01 -7.501887548005313489e-02
8.951999999999999957e+00 7.924299999999999500e+01 1.003850000000000051e+02 -1.432113210455020491e-01
9.050000000000000711e+00 6.467100000000000648e+01 9.306799999999999784e+01 7.679543813592178136e-02
9.090999999999999304e+00 6.915500000000000114e+01 9.168500000000000227e+01 1.562163358119622036e-01
9.122999999999999332e+00 6.739100000000000534e+01 1.055619999999999976e+02 9.085638542909868498e-02
9.159000000000000696e+00 8.184999999999999432e+01 9.841400000000000148e+01 -1.183725898982169317e-01
9.169000000000000483e+00 6.518999999999999773e+01 8.929699999999999704e+01 -1.401718290172463965e-01
9.211999999999999744e+00 6.277000000000000313e+01 8.890399999999999636e+01 -1.563957875290417077e-01
9.215999999999999304e+00 7.073099999999999454e+01 1.023670000000000044e+02 -1.246744740498067529e-02
9.221999999999999531e+00 6.587000000000000455e+01 8.321299999999999386e+01 -5.812786512593602628e-02
9.224000000000000199e+00 7.099599999999999511e+01 9.004800000000000182e+01 1.994241041931619773e-01
9.266000000000000014e+00 7.616899999999999693e+01 8.398900000000000432e+01 -2.512425019316815167e-01
9.387999999999999901e+00 8.272100000000000364e+01 8.926300000000000523e+01 -3.903096435419010080e-01
9.423999999999999488e+00 6.100200000000000244e+01 8.631399999999999295e+01 1.187975469141964446e-01
9.506000000000000227e+00 7.312300000000000466e+01 1.025859999999999985e+02 -6.824257141739389909e-02
9.647000000000000242e+00 6.733100000000000307e+01 8.309799999999999898e+01 -1.789729597901883740e-01
9.653999999999999915e+00 6.519899999999999807e+01 9.073999999999999488e+01 -4.190311065509615823e-02
9.726000000000000867e+00 7.242100000000000648e+01 8.813100000000000023e+01 -2.088255291658169810e-01
9.739000000000000767e+00 6.502400000000000091e+01 1.011449999999999960e+02 -1.037147064014489056e-01
9.788999999999999702e+00 8.607899999999999352e+01 9.262699999999999534e+01 -3.627915617683680205e-01
9.835000000000000853e+00 8.581399999999999295e+01 9.118399999999999750e+01 -3.683693566895572813e-01
9.839999999999999858e+00 7.334799999999999898e+01 9.487300000000000466e+01 2.534052281451908972e-01
9.897000000000000242e+00 7.916100000000000136e+01 8.813100000000000023e+01 -9.904565841408757843e-02
9.923000000000000043e+00 7.443200000000000216e+01 8.997700000000000387e+01 3.867888547413917549e-02
9.929000000000000270e+00 8.062300000000000466e+01 1.042690000000000055e+02 3.069390570883361868e-01
9.944000000000000838e+00 7.380700000000000216e+01 8.532200000000000273e+01 -2.777092876563383439e-01
9.973000000000000753e+00 6.329299999999999926e+01 8.601600000000000534e+01 1.677699811649558392e-01
1.002699999999999925e+01 7.517600000000000193e+01 9.911899999999999977e+01 6.720160643734382488e-02
1.009099999999999930e+01 6.795399999999999352e+01 1.046370000000000005e+02 1.677912713230888045e-02
1.009699999999999953e+01 7.166700000000000159e+01 8.685800000000000409e+01 -2.612686582630739940e-01
1.010500000000000043e+01 6.362700000000000244e+01 9.342900000000000205e+01 7.747207811037057357e-02
1.010599999999999987e+01 7.090399999999999636e+01 1.013960000000000008e+02 1.166270162515345571e-01
1.021000000000000085e+01 7.679600000000000648e+01 1.016460000000000008e+02 1.757774015410660303e-03
1.022799999999999976e+01 6.260099999999999909e+01 9.259499999999999886e+01 -2.731976339431047007e-01
1.026600000000000001e+01 7.019700000000000273e+01 9.746500000000000341e+01 9.035146622117321002e-02
1.031099999999999994e+01 6.209799999999999898e+01 1.049899999999999949e+02 -5.535034929194548869e-02
1.034200000000000053e+01 7.750199999999999534e+01 8.964700000000000557e+01 2.334088209081958409e-01
1.037199999999999989e+01 8.663899999999999579e+01 9.029000000000000625e+01 -3.770586008436200287e-01
1.039799999999999969e+01 8.631799999999999784e+01 8.900799999999999557e+01 -3.846215918603257400e-01
1.041200000000000081e+01 7.551999999999999602e+01 8.360699999999999932e+01 -2.526289710813823253e-01
1.041699999999999982e+01 6.213499999999999801e+01 8.618000000000000682e+01 2.033410854275934376e-01
1.043099999999999916e+01 6.268800000000000239e+01 8.906499999999999773e+01 7.790993449249024316e-02
1.048199999999999932e+01 8.231799999999999784e+01 9.786599999999999966e+01 -1.129385045684918876e-01
1.048300000000000054e+01 7.364100000000000534e+01 1.033199999999999932e+02 -7.656550698479748507e-02
1.048399999999999999e+01 7.801000000000000512e+01 8.843000000000000682e+01 -7.329135058638847067e-02
1.048600000000000065e+01 8.382299999999999329e+01 9.764400000000000546e+01 -1.174188394731066898e-01
1.049300000000000033e+01 6.187800000000000011e+01 1.073640000000000043e+02 -2.639226050707682014e-01
1.058000000000000007e+01 7.259699999999999420e+01 8.577400000000000091e+01 -2.715199504248984597e-01
1.059399999999999942e+01 6.812699999999999534e+01 1.082169999999999987e+02 5.280348863722726660e-02
1.061899999999999977e+01 6.977599999999999625e+01 1.006410000000000053e+02 1.845701165210273179e-02
1.062199999999999989e+01 7.460899999999999466e+01 1.004030000000000058e+02 1.257805103390822743e-01
1.066399999999999970e+01 7.540200000000000102e+01 1.014920000000000044e+02 -2.041923450591602296e-01
1.069100000000000072e+01 6.137100000000000222e+01 1.062590000000000003e+02 2.604555509576948411e-02
1.074000000000000021e+01 7.433700000000000330e+01 8.428199999999999648e+01 -2.608143577512331834e-01
1.077100000000000080e+01 6.397899999999999920e+01 1.035030000000000001e+02 1.489917882806110483e-01
1.077299999999999969e+01 6.562199999999999989e+01 9.103100000000000591e+01 2.077130138563103579e-01
1.077599999999999980e+01 7.318699999999999761e+01 1.044270000000000067e+02 -4.727196598733893890e-02
1.078200000000000003e+01 6.373899999999999721e+01 9.445600000000000307e+01 4.963252562178036703e-02
1.083999999999999986e+01 8.282099999999999795e+01 8.978600000000000136e+01 -3.901648305198719968e-01
1.086200000000000010e+01 7.724099999999999966e+01 1.029159999999999968e+02 3.161788360449952623e-02
1.088700000000000045e+01 6.411700000000000443e+01 1.010769999999999982e+02 -3.226267817490641177e-01
1.088799999999999990e+01 8.112999999999999545e+01 1.022879999999999967e+02 -1.175316901058901936e-01
1.090099999999999980e+01 8.113599999999999568e+01 1.035229999999999961e+02 2.582289213042595066e-01
1.091099999999999959e+01 8.778400000000000603e+01 9.068000000000000682e+01 -3.770380047201783436e-01
1.092300000000000004e+01 7.374699999999999989e+01 8.973699999999999477e+01 -1.767282865749856408e-02
1.092699999999999960e+01 7.275900000000000034e+01 8.885500000000000398e+01 -4.428972548669558168e-02
1.092699999999999960e+01 7.628400000000000603e+01 9.859900000000000375e+01 4.948304097595964540e-02
1.096599999999999930e+01 8.221599999999999397e+01 9.256999999999999318e+01 -1.865603282952713049e-01
1.098099999999999987e+01 6.038300000000000267e+01 9.188100000000000023e+01 -2.709694670106970737e-01
1.107600000000000051e+01 7.346399999999999864e+01 1.004189999999999969e+02 1.392637522131844885e-01
1.108600000000000030e+01 6.340400000000000347e+01 1.048059999999999974e+02 2.262795872796806440e-01
1.108799999999999919e+01 7.810299999999999443e+01 9.549500000000000455e+01 4.006384784108094760e-02
1.111100000000000065e+01 7.106399999999999295e+01 9.839600000000000080e+01 2.577753540203256977e-01
1.116200000000000081e+01 7.061799999999999500e+01 1.102279999999999944e+02 8.790160279357288331e-02
1.120100000000000051e+01 6.154999999999999716e+01 9.284399999999999409e+01 -2.383152225324986287e-02
1.121400000000000041e+01 8.326099999999999568e+01 9.495300000000000296e+01 -1.352400433246805922e-01
1.122400000000000020e+01 6.446500000000000341e+01 9.754900000000000659e+01 -3.342567641856772874e-03
1.122799999999999976e+01 7.603900000000000148e+01 1.037159999999999940e+02 1.294840266652499405e-01
1.122799999999999976e+01 7.738500000000000512e+01 8.752100000000000080e+01 4.600668809976547757e-02
1.123799999999999955e+01 7.485500000000000398e+01 1.027360000000000042e+02 -1.374928717535081613e-01
1.124300000000000033e+01 6.017499999999999716e+01 1.061069999999999993e+02 -1.791234266310963441e-02
1.126999999999999957e+01 8.157800000000000296e+01 9.041800000000000637e+01 -1.529123986275999492e-01
1.127200000000000024e+01 6.345400000000000063e+01 1.023880000000000052e+02 1.028791672392514595e-01
1.127899999999999991e+01 6.488299999999999557e+01 1.094639999999999986e+02 -1.953579599498871666e-01
1.127899999999999991e+01 6.872199999999999420e+01 1.015220000000000056e+02 3.324876055512168138e-01
1.130199999999999960e+01 8.137300000000000466e+01 9.173099999999999454e+01 -2.277974624228561729e-01
1.132199999999999918e+01 7.248199999999999932e+01 9.253400000000000603e+01 2.275106993856984387e-03
1.133399999999999963e+01 6.749299999999999500e+01 1.046129999999999995e+02 -2.818251096627693089e-02
1.145500000000000007e+01 6.757699999999999818e+01 1.011119999999999948e+02 3.494610314648017302e-01
1.158600000000000030e+01 7.977100000000000080e+01 9.366299999999999670e+01 -3.540034889656657469e-01
1.158699999999999974e+01 6.550199999999999534e+01 1.081539999999999964e+02 -1.863354443465396748e-01
1.161400000000000077e+01 7.727599999999999625e+01 9.321200000000000330e+01 6.425523064324846489e-02
1.162100000000000044e+01 7.025600000000000023e+01 9.959000000000000341e+01 3.054302924531334673e-01
1.163700000000000045e+01 6.186999999999999744e+01 8.624399999999999977e+01 -1.505967543552994836e-01
1.164400000000000013e+01 6.909000000000000341e+01 1.027390000000000043e+02 1.850786648437339477e-01
1.170299999999999940e+01 7.245399999999999352e+01 8.501500000000000057e+01 -2.221323246782843097e-01
1.170400000000000063e+01 8.427200000000000557e+01 9.697899999999999920e+01 -1.511335936553853954e-01
1.170800000000000018e+01 6.658299999999999841e+01 1.053490000000000038e+02 1.855880008818407145e-02
1.175900000000000034e+01 6.579399999999999693e+01 9.899299999999999500e+01 3.042080235826547518e-01
1.179199999999999982e+01 6.802899999999999636e+01 1.085190000000000055e+02 6.116714049372486139e-02
1.179199999999999982e+01 8.316100000000000136e+01 8.862099999999999511e+01 -3.983521809575216732e-01
1.179400000000000048e+01 7.998799999999999955e+01 9.214799999999999613e+01 5.943813635353532160e-02
1.180700000000000038e+01 7.349299999999999500e+01 8.411599999999999966e+01 -2.557345097314320248e-01
1.190099999999999980e+01 7.836400000000000432e+01 9.423699999999999477e+01 2.988427844891934915e-01
1.190900000000000070e+01 7.038200000000000500e+01 1.115130000000000052e+02 -7.184294764959395230e-02
1.194200000000000017e+01 7.612699999999999534e+01 8.775600000000000023e+01 8.217853253362802923e-02
1.194299999999999962e+01 7.964799999999999613e+01 1.061629999999999967e+02 2.233207497029939259e-01
1.197400000000000020e+01 7.517799999999999727e+01 1.127729999999999961e+02 2.846149644790551547e-01
1.201099999999999923e+01 7.042499999999999716e+01 1.089639999999999986e+02 9.615868198110125165e-02
1.201399999999999935e+01 6.247599999999999909e+01 1.023889999999999958e+02 1.129952055154452434e-01
1.202299999999999969e+01 8.399399999999999977e+01 9.571500000000000341e+01 -4.108099090565119349e-01
1.204800000000000004e+01 8.177200000000000557e+01 1.043020000000000067e+02 1.957283794844528468e-01
1.210800000000000054e+01 6.482299999999999329e+01 1.004860000000000042e+02 3.118076855082063670e-01
1.221400000000000041e+01 7.143999999999999773e+01 1.123599999999999994e+02 5.484648995575509833e-02
1.224499999999999922e+01 7.400400000000000489e+01 9.043300000000000693e+01 -4.835915259669752719e-02
1.229899999999999949e+01 7.530299999999999727e+01 1.087229999999999990e+02 3.529237750009229790e-01
1.230000000000000071e+01 6.813800000000000523e+01 1.036140000000000043e+02 1.872522539222735427e-01
1.230199999999999960e+01 6.910599999999999454e+01 1.118820000000000050e+02 -4.158236118286474936e-02
1.231700000000000017e+01 7.209199999999999875e+01 9.193800000000000239e+01 -1.939506547961240002e-01
1.231799999999999962e+01 7.162099999999999511e+01 9.764900000000000091e+01 2.554704661240129182e-01
1.243599999999999994e+01 6.729300000000000637e+01 9.334499999999999886e+01 2.500000000000000000e-01
1.243699999999999939e+01 6.513599999999999568e+01 1.103799999999999955e+02 9.978940648024764437e-02
1.246299999999999919e+01 6.840999999999999659e+01 9.477400000000000091e+01 2.500000000000000000e-01
1.251999999999999957e+01 6.667400000000000659e+01 1.084809999999999945e+02 1.131031122816036627e-01
1.253800000000000026e+01 6.906799999999999784e+01 1.088900000000000006e+02 1.555038204739721784e-02
1.257600000000000051e+01 6.215100000000000335e+01 9.263700000000000045e+01 -5.861027669799051543e-02
1.258000000000000007e+01 6.927500000000000568e+01 9.010500000000000398e+01 1.778367185443117116e-01
1.258200000000000074e+01 6.312800000000000011e+01 1.049080000000000013e+02 1.817368092786070533e-01
1.262400000000000055e+01 8.295199999999999818e+01 1.035199999999999960e+02 1.854028833441062063e-01
1.272400000000000020e+01 7.612800000000000011e+01 8.906399999999999295e+01 4.128667468351756437e-02
1.277100000000000080e+01 6.272200000000000131e+01 9.145099999999999341e+01 -3.318264341614459711e-01
1.277899999999999991e+01 6.367499999999999716e+01 9.700900000000000034e+01 2.500000000000000000e-01
1.282600000000000051e+01 7.938400000000000034e+01 8.960399999999999920e+01 1.305369284716322298e-01
1.283500000000000085e+01 7.275300000000000011e+01 9.090600000000000591e+01 -1.325794034475454297e-01
1.290099999999999980e+01 7.904300000000000637e+01 1.001370000000000005e+02 -6.119330168000225445e-02
1.290199999999999925e+01 7.122400000000000375e+01 1.135540000000000020e+02 9.169809356562255709e-02
1.292800000000000082e+01 6.966800000000000637e+01 1.055070000000000050e+02 1.414874618687202434e-01
1.294699999999999918e+01 7.255100000000000193e+01 1.082870000000000061e+02 3.239446860641003179e-01
1.298499999999999943e+01 6.888700000000000045e+01 1.130679999999999978e+02 3.255133428246835547e-02
1.299799999999999933e+01 7.988800000000000523e+01 1.055580000000000069e+02 1.805594333885388314e-01
1.301399999999999935e+01 6.197699999999999676e+01 1.047909999999999968e+02 1.799544728866093735e-01
1.302399999999999913e+01 7.080200000000000671e+01 9.236100000000000421e+01 1.065026385962695166e-01
1.312400000000000055e+01 6.628900000000000148e+01 1.097639999999999958e+02 1.105720760308719353e-01
1.312700000000000067e+01 8.085800000000000409e+01 1.046550000000000011e+02 1.680243550731889135e-01
1.315399999999999991e+01 8.445199999999999818e+01 9.520499999999999829e+01 -4.156775690852951288e-01
1.315600000000000058e+01 7.142700000000000671e+01 1.089689999999999941e+02 1.153623089934786294e-01
1.318900000000000006e+01 7.472100000000000364e+01 8.945699999999999363e+01 2.842824781259113004e-02
1.320100000000000051e+01 7.978400000000000603e+01 9.179500000000000171e+01 4.689497996622143255e-02
1.321799999999999997e+01 8.728400000000000603e+01 9.217000000000000171e+01 -4.107848392284711991e-01
1.328400000000000070e+01 8.323099999999999454e+01 8.900199999999999534e+01 -2.479584061150057889e-02
1.328500000000000014e+01 6.994799999999999329e+01 1.139050000000000011e+02 -8.130297370779400457e-02
1.336400000000000077e+01 6.418699999999999761e+01 1.051149999999999949e+02 1.758010175662466090e-01
1.338700000000000045e+01 7.543300000000000693e+01 1.132740000000000009e+02 4.048843740630281990e-02
1.338799999999999990e+01 7.480899999999999750e+01 1.090109999999999957e+02 3.062294434848175650e-01
1.339600000000000080e+01 7.869599999999999795e+01 1.103050000000000068e+02 2.445418430911292518e-01
1.342200000000000060e+01 6.209499999999999886e+01 9.352299999999999613e+01 -2.620668272014296113e-02
1.347000000000000064e+01 6.880299999999999727e+01 1.043919999999999959e+02 1.730302877674780304e-01
1.348700000000000010e+01 8.386700000000000443e+01 1.057060000000000031e+02 1.740745641543890165e-01
1.349699999999999989e+01 6.514199999999999591e+01 9.514799999999999613e+01 2.119444716970155240e-01
1.351200000000000045e+01 6.541899999999999693e+01 9.220900000000000318e+01 -5.299813084944167418e-02
1.359900000000000020e+01 7.949699999999999989e+01 9.055599999999999739e+01 7.397448752610838452e-02
1.360599999999999987e+01 7.883499999999999375e+01 9.851099999999999568e+01 -1.391150529678066884e-02
1.367999999999999972e+01 7.099500000000000455e+01 9.372299999999999898e+01 3.056339868915042834e-01
1.368200000000000038e+01 7.637900000000000489e+01 1.108289999999999935e+02 1.082372930767556696e-01
1.371499999999999986e+01 6.968200000000000216e+01 9.033199999999999363e+01 1.964911938165561645e-01
1.373199999999999932e+01 6.650700000000000500e+01 9.314700000000000557e+01 9.269993343861401836e-02
1.378200000000000003e+01 8.368899999999999295e+01 1.042109999999999985e+02 1.801611889572354852e-01
1.382000000000000028e+01 6.405700000000000216e+01 8.969199999999999307e+01 1.195745906134338538e-01
1.383300000000000018e+01 8.287000000000000455e+01 8.667400000000000659e+01 -9.498208075514491533e-02
1.387899999999999956e+01 6.459900000000000375e+01 9.645799999999999841e+01 2.096519504352880592e-01
1.392999999999999972e+01 7.362900000000000489e+01 1.082090000000000032e+02 3.233923528281751336e-01
1.393900000000000006e+01 8.017400000000000659e+01 9.787000000000000455e+01 -3.642024583844471475e-01
1.394699999999999918e+01 7.807299999999999329e+01 1.010829999999999984e+02 3.338741759971801115e-01
1.401099999999999923e+01 6.337299999999999756e+01 9.104699999999999704e+01 -2.434976709916150672e-01
1.402500000000000036e+01 7.040399999999999636e+01 9.139400000000000546e+01 1.572760203816811475e-01
1.410899999999999999e+01 7.413299999999999557e+01 1.135240000000000009e+02 8.926284695150260573e-02
1.413299999999999912e+01 7.406300000000000239e+01 1.067590000000000003e+02 3.065162010069185650e-01
1.413599999999999923e+01 7.526200000000000045e+01 1.100120000000000005e+02 1.141287784838942027e-01
1.413700000000000045e+01 7.771899999999999409e+01 1.102750000000000057e+02 1.797013513652963301e-01
1.419299999999999962e+01 7.772700000000000387e+01 1.050780000000000030e+02 -8.859762936704360103e-02
1.419800000000000040e+01 6.692499999999999716e+01 1.102830000000000013e+02 8.186811546489727864e-02
1.419899999999999984e+01 6.944899999999999807e+01 9.452400000000000091e+01 3.045188040854535094e-01
1.420199999999999996e+01 7.623300000000000409e+01 1.122570000000000050e+02 1.122479766433065046e-01
1.420299999999999940e+01 7.117799999999999727e+01 1.095660000000000025e+02 1.615007630282758525e-02
1.422199999999999953e+01 7.442799999999999727e+01 9.533799999999999386e+01 3.320951998742768252e-01
1.423799999999999955e+01 8.293099999999999739e+01 8.783299999999999841e+01 -7.841500306587197155e-02
1.425600000000000023e+01 6.601800000000000068e+01 9.448699999999999477e+01 -7.142812750055244075e-02
1.426399999999999935e+01 7.906499999999999773e+01 1.058089999999999975e+02 1.770524557408838517e-01
1.434500000000000064e+01 6.963100000000000023e+01 1.034389999999999930e+02 3.872319884075713925e-01
1.434600000000000009e+01 8.661700000000000443e+01 9.235399999999999920e+01 -4.099420417579470732e-01
1.435200000000000031e+01 7.488700000000000045e+01 1.005100000000000051e+02 8.371418907102340379e-02
1.438000000000000078e+01 6.442700000000000671e+01 9.207399999999999807e+01 -3.497663689553899471e-03
1.443999999999999950e+01 6.332500000000000284e+01 8.850100000000000477e+01 -1.182289416593417519e-01
1.454100000000000037e+01 7.884600000000000364e+01 1.072249999999999943e+02 2.538630346962094664e-01
1.456900000000000084e+01 8.007800000000000296e+01 9.648499999999999943e+01 3.246651706737702092e-02
1.457300000000000040e+01 5.732200000000000273e+01 9.194899999999999807e+01 -2.481090210443148703e-01
1.457799999999999940e+01 8.342499999999999716e+01 9.847899999999999920e+01 -2.033033489544799066e-01
1.465199999999999925e+01 6.426399999999999579e+01 8.730899999999999750e+01 -2.539549150075670059e-01
1.473600000000000065e+01 6.787199999999999989e+01 1.097099999999999937e+02 5.034143629844832490e-02
1.474099999999999966e+01 6.644499999999999318e+01 1.116129999999999995e+02 -9.849944580949794581e-02
1.482399999999999984e+01 6.408199999999999363e+01 1.052159999999999940e+02 -3.514971029061813440e-02
1.485500000000000043e+01 7.570999999999999375e+01 9.480599999999999739e+01 2.977876509866717591e-01
1.485800000000000054e+01 6.935699999999999932e+01 8.939700000000000557e+01 -3.312816560989251952e-02
1.486599999999999966e+01 8.589400000000000546e+01 9.136799999999999500e+01 -4.126595390769162153e-01
1.495800000000000018e+01 8.667900000000000205e+01 9.353000000000000114e+01 -4.127705995079664625e-01
1.499499999999999922e+01 8.201000000000000512e+01 9.510599999999999454e+01 -2.062575493974389274e-01
1.501200000000000045e+01 6.610999999999999943e+01 1.064800000000000040e+02 9.849815232574302137e-02
1.507699999999999996e+01 8.290800000000000125e+01 1.040040000000000049e+02 1.675882478080135615e-02
1.510800000000000054e+01 7.929999999999999716e+01 9.036199999999999477e+01 3.637436423571063782e-02
1.518800000000000061e+01 6.380899999999999750e+01 9.639199999999999591e+01 -6.205318474854008837e-02
1.519800000000000040e+01 6.787500000000000000e+01 8.952899999999999636e+01 -3.589159339612803534e-01
1.520700000000000074e+01 7.211899999999999977e+01 8.889300000000000068e+01 -1.306976431088889036e-02
1.522600000000000087e+01 7.297799999999999443e+01 1.057990000000000066e+02 3.113930370099994849e-01
1.523499999999999943e+01 8.141100000000000136e+01 9.615399999999999636e+01 1.289732551945610428e-01
1.525600000000000023e+01 7.555599999999999739e+01 9.332800000000000296e+01 3.800000000000000044e-01
1.531099999999999994e+01 7.614900000000000091e+01 1.035079999999999956e+02 3.468248338588563184e-01
1.532799999999999940e+01 6.832899999999999352e+01 1.005999999999999943e+02 3.953527702002133104e-01
1.533200000000000074e+01 6.642600000000000193e+01 9.491200000000000614e+01 4.266474936212948446e-03
1.535299999999999976e+01 6.368900000000000006e+01 1.026299999999999955e+02 1.440098618388976383e-02
1.535500000000000043e+01 6.493200000000000216e+01 1.063679999999999950e+02 6.012698728592759390e-02
1.535899999999999999e+01 7.775400000000000489e+01 1.097609999999999957e+02 2.912696169381812639e-01
1.539600000000000080e+01 5.829200000000000159e+01 9.155899999999999750e+01 -2.240498042245082644e-01
1.541200000000000081e+01 6.434600000000000364e+01 9.272799999999999443e+01 -2.458710336763484661e-01
1.542999999999999972e+01 5.865500000000000114e+01 9.028100000000000591e+01 -2.153881705923278156e-01
1.544299999999999962e+01 7.780599999999999739e+01 9.028499999999999659e+01 4.782492242639900526e-03
1.548000000000000043e+01 6.059100000000000108e+01 1.001350000000000051e+02 1.656851120292519297e-01
1.548199999999999932e+01 7.895499999999999829e+01 9.644599999999999795e+01 -3.033482769227333758e-02
1.548499999999999943e+01 6.456399999999999295e+01 1.013900000000000006e+02 3.303896685177744597e-01
1.548600000000000065e+01 6.454600000000000648e+01 1.039039999999999964e+02 3.109425074855778348e-01
1.550699999999999967e+01 6.330299999999999727e+01 9.520000000000000284e+01 1.278772426563314080e-02
1.551299999999999990e+01 7.736899999999999977e+01 1.043910000000000053e+02 1.226523233644232630e-01
1.551500000000000057e+01 8.274599999999999511e+01 8.815200000000000102e+01 -1.054086709316980619e-01
1.562199999999999989e+01 8.349500000000000455e+01 9.915600000000000591e+01 -1.900958447329420820e-01
1.562899999999999956e+01 8.344899999999999807e+01 1.004050000000000011e+02 -1.810550654722656305e-01
1.564100000000000001e+01 7.275799999999999557e+01 1.005660000000000025e+02 2.553877044869466428e-01
1.564600000000000080e+01 7.898999999999999488e+01 9.420799999999999841e+01 3.090437905968109744e-01
1.565099999999999980e+01 6.376299999999999812e+01 8.636299999999999955e+01 -2.591058939062759192e-01
1.570199999999999996e+01 7.923199999999999932e+01 1.077409999999999997e+02 3.088319287058906570e-01
1.573000000000000043e+01 6.738899999999999579e+01 8.831199999999999761e+01 -3.269062591860457667e-01
1.573900000000000077e+01 7.426800000000000068e+01 1.007090000000000032e+02 2.378108980094001679e-01
1.580199999999999960e+01 7.989700000000000557e+01 9.148799999999999955e+01 -1.278003433044196946e-01
1.588199999999999967e+01 6.364999999999999858e+01 9.740300000000000580e+01 9.286138866831865346e-02
1.593200000000000038e+01 7.898199999999999932e+01 1.092319999999999993e+02 3.523070693960387301e-01
1.594699999999999918e+01 7.850000000000000000e+01 9.529500000000000171e+01 3.184166982308215266e-01
1.596799999999999997e+01 8.189900000000000091e+01 9.050100000000000477e+01 -1.344979221414037973e-01
1.598900000000000077e+01 6.707899999999999352e+01 1.119920000000000044e+02 -5.693689479621658750e-02
1.603999999999999915e+01 7.016599999999999682e+01 8.966700000000000159e+01 1.881398125969783314e-02
1.607000000000000028e+01 7.689199999999999591e+01 9.866899999999999693e+01 3.193048808546798956e-01
1.607199999999999918e+01 7.604600000000000648e+01 9.568000000000000682e+01 3.098625175260470987e-01
1.608699999999999974e+01 8.412399999999999523e+01 9.264900000000000091e+01 -2.066801100324841267e-01
1.610699999999999932e+01 8.512600000000000477e+01 9.147799999999999443e+01 -2.149044132458793332e-01
1.611100000000000065e+01 8.183299999999999841e+01 9.705400000000000205e+01 -2.822890808033116233e-02
1.612099999999999866e+01 7.146699999999999875e+01 8.939799999999999613e+01 2.794197340926947784e-02
1.617099999999999937e+01 8.116800000000000637e+01 9.146999999999999886e+01 -3.391343545566502526e-02
1.618900000000000006e+01 5.889099999999999824e+01 9.244199999999999307e+01 -2.005099590382620200e-01
1.619099999999999895e+01 6.433899999999999864e+01 1.072199999999999989e+02 1.363009561846665607e-01
1.623999999999999844e+01 7.228600000000000136e+01 9.217000000000000171e+01 6.910988159566865130e-02
1.628500000000000014e+01 6.850300000000000011e+01 9.944100000000000250e+01 3.929639644224834638e-02
1.642399999999999949e+01 6.260900000000000176e+01 1.026189999999999998e+02 9.651000329633617481e-02
1.651300000000000168e+01 6.546099999999999852e+01 1.134659999999999940e+02 7.466816491592324911e-02
1.656899999999999906e+01 6.919700000000000273e+01 1.069009999999999962e+02 3.458033751978178971e-02
1.657000000000000028e+01 7.978300000000000125e+01 1.070630000000000024e+02 2.889311558500637922e-01
1.657100000000000151e+01 6.713299999999999557e+01 9.882899999999999352e+01 -7.947683752173598237e-02
1.658200000000000074e+01 7.710699999999999932e+01 1.054380000000000024e+02 1.503533029670089394e-01
1.660500000000000043e+01 6.036099999999999710e+01 9.964100000000000534e+01 2.085613487069674643e-01
1.666799999999999926e+01 7.634600000000000364e+01 9.958799999999999386e+01 -6.774235408981785223e-02
1.668599999999999994e+01 7.730100000000000193e+01 8.953700000000000614e+01 -1.628064651541039076e-01
1.672700000000000031e+01 6.252300000000000324e+01 9.496500000000000341e+01 -1.645527572882585499e-01
1.673799999999999955e+01 6.196900000000000119e+01 9.353900000000000148e+01 -1.008171566098537975e-01
1.674399999999999977e+01 7.482099999999999795e+01 9.965500000000000114e+01 3.093529394177083613e-01
1.675700000000000145e+01 6.507899999999999352e+01 1.083419999999999987e+02 -3.559950939338905190e-02
1.677700000000000102e+01 6.652200000000000557e+01 1.129080000000000013e+02 -5.750356375482924831e-02
1.678699999999999903e+01 5.950800000000000267e+01 9.874500000000000455e+01 -1.420705385448902403e-01
1.679500000000000171e+01 8.311400000000000432e+01 9.697199999999999420e+01 3.663483760784386895e-02
1.685500000000000043e+01 6.988700000000000045e+01 1.091650000000000063e+02 -1.568957136739970448e-01
1.687500000000000000e+01 8.166899999999999693e+01 9.273099999999999454e+01 2.892907524290107626e-02
1.688599999999999923e+01 7.731300000000000239e+01 9.538899999999999579e+01 3.262079394157888501e-01
1.690200000000000102e+01 7.170999999999999375e+01 1.126949999999999932e+02 7.864321006826255345e-02
1.690599999999999881e+01 7.421299999999999386e+01 1.119969999999999999e+02 2.792395413547802407e-01
1.691799999999999926e+01 7.288700000000000045e+01 1.069180000000000064e+02 1.133657511949171248e-01
1.691799999999999926e+01 7.484099999999999397e+01 1.107759999999999962e+02 1.387230271762000533e-01
1.692099999999999937e+01 8.363700000000000045e+01 9.839499999999999602e+01 4.480276255285178116e-02
1.694000000000000128e+01 7.287900000000000489e+01 1.117600000000000051e+02 3.480722178764587005e-01
1.696399999999999864e+01 7.393000000000000682e+01 1.098229999999999933e+02 1.546574107299659162e-01
1.696999999999999886e+01 6.386699999999999733e+01 8.652500000000000568e+01 -3.105192674835827171e-01
1.697899999999999920e+01 7.273600000000000421e+01 1.103910000000000053e+02 2.362226653092294737e-01
1.713800000000000168e+01 5.995799999999999841e+01 9.211100000000000421e+01 -1.617344844411957583e-01
1.714699999999999847e+01 7.148999999999999488e+01 9.461199999999999477e+01 6.402875378302194664e-02
1.726399999999999935e+01 8.314300000000000068e+01 9.257899999999999352e+01 -1.079138034706155630e-01
1.728500000000000014e+01 7.702200000000000557e+01 1.005529999999999973e+02 1.953921387745503890e-02
1.729400000000000048e+01 7.166899999999999693e+01 9.210699999999999932e+01 9.512907824870431295e-02
1.730399999999999849e+01 7.848600000000000421e+01 1.005669999999999931e+02 1.314966344847921520e-01
1.730799999999999983e+01 7.204900000000000659e+01 9.703600000000000136e+01 3.218900210083400770e-01
1.732199999999999918e+01 7.615200000000000102e+01 9.033799999999999386e+01 1.049235004935346049e-01
1.743199999999999861e+01 7.900100000000000477e+01 1.095190000000000055e+02 3.360311860841677101e-01
1.744600000000000151e+01 7.212099999999999511e+01 8.975100000000000477e+01 1.051651965632601771e-01
1.746699999999999875e+01 7.998099999999999454e+01 9.869599999999999795e+01 -1.910293485576969597e-01
1.747599999999999909e+01 6.445399999999999352e+01 8.760500000000000398e+01 -2.659096943145009551e-01
1.756299999999999883e+01 6.958100000000000307e+01 1.079560000000000031e+02 5.056447639979113479e-02
1.757799999999999940e+01 6.917000000000000171e+01 9.989300000000000068e+01 1.210617733490129549e-01
1.759400000000000119e+01 6.073599999999999710e+01 9.334300000000000352e+01 -4.032954600736050610e-01
1.759400000000000119e+01 6.416500000000000625e+01 1.092240000000000038e+02 -1.689708020856382081e-02
1.760000000000000142e+01 6.623499999999999943e+01 1.078050000000000068e+02 -2.002115176646159650e-02
1.761199999999999832e+01 6.954699999999999704e+01 1.146790000000000020e+02 -1.267261356687695295e-01
1.768100000000000094e+01 7.919199999999999307e+01 1.109000000000000057e+02 3.054469716314288097e-01
1.768199999999999861e+01 7.843699999999999761e+01 8.932099999999999795e+01 -1.054148155025388389e-01
1.771300000000000097e+01 6.848699999999999477e+01 9.176399999999999579e+01 -2.514666424773707720e-01
1.778699999999999903e+01 6.337899999999999778e+01 8.559999999999999432e+01 -3.111626217375954573e-01
1.778699999999999903e+01 6.724800000000000466e+01 1.086299999999999955e+02 2.033713687306859530e-02
1.779200000000000159e+01 6.466700000000000159e+01 9.471800000000000352e+01 -1.495232513870898561e-01
1.779899999999999949e+01 6.115500000000000114e+01 1.001560000000000059e+02 2.239678322852458048e-01
1.784499999999999886e+01 7.756499999999999773e+01 9.646399999999999864e+01 3.155579110398323284e-01
1.788500000000000156e+01 7.101999999999999602e+01 9.335099999999999909e+01 -1.807189494219894332e-01
1.792899999999999849e+01 7.899699999999999989e+01 9.927800000000000580e+01 1.325447789813950505e-01
1.793599999999999994e+01 6.341899999999999693e+01 9.515000000000000568e+01 -1.486123000143707018e-01
1.794200000000000017e+01 6.633899999999999864e+01 9.696200000000000330e+01 8.538470643726378539e-02
1.796699999999999875e+01 7.153199999999999648e+01 9.097400000000000375e+01 3.391566747880988414e-02
1.796999999999999886e+01 8.050799999999999557e+01 1.020160000000000053e+02 -3.627757144370428177e-01
1.798799999999999955e+01 6.679600000000000648e+01 9.834799999999999898e+01 8.533807649786250005e-02
1.801500000000000057e+01 6.964300000000000068e+01 1.135160000000000053e+02 1.031395754228048717e-01
1.801999999999999957e+01 7.142000000000000171e+01 9.587300000000000466e+01 7.108789214281184543e-02
1.805499999999999972e+01 8.084199999999999875e+01 9.296899999999999409e+01 -1.901414621860022386e-02
1.806700000000000017e+01 6.621699999999999875e+01 1.066689999999999969e+02 9.108793016133118203e-02
1.806899999999999906e+01 6.724299999999999500e+01 1.132560000000000002e+02 -5.529354463829479205e-02
1.811299999999999955e+01 7.900700000000000500e+01 1.017609999999999957e+02 -1.940080780952408226e-02
1.811400000000000077e+01 7.443699999999999761e+01 9.997199999999999420e+01 2.726675158790870523e-01
1.811499999999999844e+01 7.553600000000000136e+01 1.031610000000000014e+02 8.134998824934444595e-02
1.811899999999999977e+01 8.325600000000000023e+01 9.623199999999999932e+01 -3.164841225177537076e-01
1.813100000000000023e+01 7.380899999999999750e+01 1.059200000000000017e+02 9.437122294120395272e-02
1.819399999999999906e+01 7.346599999999999397e+01 1.044240000000000066e+02 3.922413309548906934e-02
1.824399999999999977e+01 6.858799999999999386e+01 1.127409999999999997e+02 -1.475446623706734572e-01
1.825400000000000134e+01 7.101200000000000045e+01 1.128889999999999958e+02 1.067557924530609659e-01
1.835200000000000031e+01 6.996800000000000352e+01 9.618399999999999750e+01 9.448760457892074749e-02
1.840800000000000125e+01 6.205499999999999972e+01 9.908899999999999864e+01 2.557792761629815170e-01
1.841700000000000159e+01 8.432299999999999329e+01 9.570799999999999841e+01 -3.044849067442493284e-01
1.842399999999999949e+01 7.192600000000000193e+01 8.859499999999999886e+01 -2.259365000295587012e-01
1.852700000000000102e+01 6.448900000000000432e+01 9.884699999999999420e+01 1.007156253432692772e-01
1.853300000000000125e+01 6.842700000000000671e+01 1.082159999999999940e+02 1.596953805553721628e-01
1.854100000000000037e+01 6.761599999999999966e+01 9.149299999999999500e+01 -2.409876712278735678e-01
1.855399999999999849e+01 6.680400000000000205e+01 9.387699999999999534e+01 2.888140749830793164e-01
1.859100000000000108e+01 6.574399999999999977e+01 9.927500000000000568e+01 1.327606793876603408e-01
1.862199999999999989e+01 7.220600000000000307e+01 1.020160000000000053e+02 2.926451143779039699e-01
1.870799999999999841e+01 7.857999999999999829e+01 9.640500000000000114e+01 2.149026603270315916e-01
1.873000000000000043e+01 6.643200000000000216e+01 9.240600000000000591e+01 2.480332768835680768e-01
1.877599999999999980e+01 7.934699999999999420e+01 9.544199999999999307e+01 2.510120382702394348e-01
1.880000000000000071e+01 6.667199999999999704e+01 1.035430000000000064e+02 1.813071041612879797e-01
1.882799999999999940e+01 7.465800000000000125e+01 1.036670000000000016e+02 -1.386960755868770975e-02
1.885600000000000165e+01 6.564499999999999602e+01 9.481900000000000261e+01 1.922439454054798991e-01
1.888299999999999912e+01 7.488500000000000512e+01 9.789799999999999613e+01 3.808051314582235891e-01
1.893199999999999861e+01 8.221399999999999864e+01 9.620600000000000307e+01 9.025484346221933352e-02
1.893900000000000006e+01 7.221299999999999386e+01 1.042240000000000038e+02 -3.625483505714349741e-02
1.896399999999999864e+01 6.299600000000000222e+01 9.565999999999999659e+01 -3.829030836662403181e-01
1.897700000000000031e+01 7.831999999999999318e+01 9.882200000000000273e+01 5.642018510944189769e-02
1.899800000000000111e+01 7.096899999999999409e+01 1.116280000000000001e+02 2.839940354237869419e-02
1.904299999999999926e+01 6.335300000000000153e+01 9.960999999999999943e+01 1.819271639127673090e-01
1.904400000000000048e+01 6.613500000000000512e+01 9.625199999999999534e+01 1.141579513704022164e-01
1.904500000000000171e+01 8.077100000000000080e+01 9.208499999999999375e+01 -3.596166564589446668e-02
1.905399999999999849e+01 8.141299999999999670e+01 9.103600000000000136e+01 -2.280865885139037735e-02
1.908299999999999841e+01 6.606199999999999761e+01 1.003580000000000041e+02 1.134373042760903338e-01
1.908299999999999841e+01 7.451399999999999579e+01 9.906399999999999295e+01 4.068357534529577491e-01
1.910000000000000142e+01 7.169299999999999784e+01 1.030120000000000005e+02 -2.206502966661462450e-02
1.910099999999999909e+01 6.794299999999999784e+01 1.027199999999999989e+02 3.611717557282506097e-01
1.910999999999999943e+01 6.922700000000000387e+01 1.035469999999999970e+02 1.234919951493552021e-01
1.913800000000000168e+01 7.348499999999999943e+01 9.296800000000000352e+01 -8.093417463246313504e-02
1.917500000000000071e+01 8.106600000000000250e+01 1.027870000000000061e+02 -3.662392806545350932e-01
1.923900000000000077e+01 7.066299999999999670e+01 8.873300000000000409e+01 -2.342444690661053264e-01
1.930000000000000071e+01 7.129600000000000648e+01 9.350900000000000034e+01 -1.457563119844559330e-01
1.931200000000000117e+01 6.766700000000000159e+01 9.040500000000000114e+01 -2.430673716856229238e-01
1.932199999999999918e+01 6.549599999999999511e+01 1.028520000000000039e+02 2.091850551433036554e-01
1.934600000000000009e+01 6.411299999999999955e+01 1.047079999999999984e+02 4.210487200302786420e-02
1.939199999999999946e+01 6.993300000000000693e+01 8.772799999999999443e+01 -2.472867549932534492e-01
1.952299999999999969e+01 6.884499999999999886e+01 1.092980000000000018e+02 2.378954595712579612e-01
1.956899999999999906e+01 6.431399999999999295e+01 1.034159999999999968e+02 -1.193279047350224165e-01
1.964999999999999858e+01 7.873199999999999932e+01 9.759399999999999409e+01 -1.582147838394344919e-01
1.972700000000000031e+01 7.040300000000000580e+01 8.984999999999999432e+01 -4.365603454463273109e-02
1.980900000000000105e+01 7.250799999999999557e+01 9.332099999999999795e+01 -1.005232715670274085e-01
1.985399999999999920e+01 6.805200000000000671e+01 1.101830000000000069e+02 1.350472588103394378e-01
1.989600000000000080e+01 7.038800000000000523e+01 1.028919999999999959e+02 7.730684416740922493e-02
1.998799999999999955e+01 7.009600000000000364e+01 1.092139999999999986e+02 -5.511300921733468250e-02
2.000199999999999889e+01 8.242799999999999727e+01 1.005120000000000005e+02 -2.578254149947655227e-01
2.006599999999999895e+01 6.333400000000000318e+01 1.026770000000000067e+02 -1.022948365360744766e-01
2.013400000000000034e+01 7.304600000000000648e+01 1.098689999999999998e+02 -5.924033222148443467e-02
2.016199999999999903e+01 7.469100000000000250e+01 1.036099999999999994e+02 4.094287845023943800e-02
2.017299999999999827e+01 6.630899999999999750e+01 9.671099999999999852e+01 8.554066821889114158e-02
2.017899999999999849e+01 8.232599999999999341e+01 9.547199999999999420e+01 1.678439254917698520e-01
2.020400000000000063e+01 7.986100000000000421e+01 9.243500000000000227e+01 -1.796975529753973011e-01
2.028000000000000114e+01 7.061499999999999488e+01 1.115669999999999931e+02 -6.245295951678240393e-02
2.040299999999999869e+01 7.664499999999999602e+01 1.007489999999999952e+02 -2.163710969594865863e-01
2.042800000000000082e+01 8.082099999999999795e+01 1.020819999999999936e+02 1.795057371687544209e-04
2.047800000000000153e+01 7.409600000000000364e+01 9.952500000000000568e+01 5.447295620205151734e-02
2.048199999999999932e+01 7.612600000000000477e+01 8.968999999999999773e+01 -1.415171454041332100e-01
2.055199999999999960e+01 6.326800000000000068e+01 9.945499999999999829e+01 1.597373588807574352e-01
2.063899999999999935e+01 7.564900000000000091e+01 1.014279999999999973e+02 1.061876991258145775e-01
