-4.748000000000000220e+00 3.934599999999999653e+01 -1.241000000000000103e+00 -2.595038962460956555e-01
-4.745000000000000107e+00 3.975999999999999801e+01 1.828600000000000136e+01 1.105349112594986999e-01
-4.737000000000000099e+00 4.105799999999999983e+01 2.111000000000000210e+00 -1.788750613342953710e-01
-4.725999999999999979e+00 4.035099999999999909e+01 -5.503000000000000114e+00 -2.389385674326876818e-01
-4.724000000000000199e+00 3.263799999999999812e+01 1.381000000000000005e+00 -3.650159430773768782e-02
-4.717999999999999972e+00 3.008200000000000074e+01 6.652000000000000135e+00 -1.087542394625697628e-01
-4.674000000000000377e+00 3.815500000000000114e+01 -2.209999999999999964e+00 -3.500000000000000333e-01
-4.629999999999999893e+00 3.888499999999999801e+01 1.711799999999999855e+01 1.453193866650432167e-02
-4.578000000000000291e+00 3.831300000000000239e+01 1.003299999999999947e+01 1.250384648532213983e-01
-4.451999999999999957e+00 3.028200000000000003e+01 8.135999999999999233e+00 -4.834535146688266616e-02
-4.442999999999999616e+00 3.861699999999999733e+01 -3.664000000000000146e+00 -2.193085663971159893e-01
-4.403999999999999915e+00 3.095799999999999841e+01 5.860999999999999766e+00 3.800000000000000044e-01
-4.323000000000000398e+00 4.618500000000000227e+01 1.430700000000000038e+01 3.838608614845599731e-02
-4.274000000000000021e+00 4.249699999999999989e+01 7.176000000000000156e+00 2.337312432945977125e-01
-4.214999999999999858e+00 3.956700000000000017e+01 9.547000000000000597e+00 1.766028949894431210e-01
-4.181000000000000050e+00 3.561200000000000188e+01 8.226000000000000867e+00 3.030934844901574943e-01
-4.113999999999999879e+00 3.265999999999999659e+01 3.170000000000000040e-01 -1.356715363272729090e-02
-4.107999999999999652e+00 3.906700000000000017e+01 1.950900000000000034e+01 1.216069904382368339e-01
-4.097000000000000419e+00 4.217000000000000171e+01 5.711000000000000298e+00 -1.484101169854988300e-01
-4.089000000000000412e+00 4.114000000000000057e+01 1.805900000000000105e+01 1.070711675490755577e-01
-4.048000000000000043e+00 3.840599999999999881e+01 3.267999999999999794e+00 -1.815627005580497111e-01
-4.011000000000000121e+00 3.757800000000000296e+01 1.476399999999999935e+01 -1.533499899069849272e-02
-4.001000000000000334e+00 3.302400000000000091e+01 2.669999999999999929e+00 2.906598453163177220e-01
-3.931999999999999940e+00 4.192000000000000171e+01 1.900900000000000034e+01 -2.815180502660671324e-01
-3.930000000000000160e+00 3.695000000000000284e+01 2.092599999999999838e+01 1.044359116290483232e-02
-3.922000000000000153e+00 4.627000000000000313e+01 1.577599999999999980e+01 1.546771296629323444e-01
-3.867999999999999883e+00 4.824799999999999756e+01 1.801200000000000045e+01 -2.360850933858112399e-01
-3.818000000000000060e+00 3.769299999999999784e+01 1.100900000000000034e+01 3.203921832795152413e-01
-3.794000000000000039e+00 4.383200000000000074e+01 1.607600000000000051e+01 6.549299302881968210e-02
-3.770000000000000018e+00 3.991100000000000136e+01 -6.142999999999999794e+00 -2.341694252697554268e-01
-3.729000000000000092e+00 3.979099999999999682e+01 1.438100000000000023e+01 1.991354678038751991e-01
-3.722999999999999865e+00 4.144700000000000273e+01 1.681400000000000006e+01 7.385136211786615112e-02
-3.708000000000000185e+00 3.986800000000000210e+01 -8.329999999999999627e-01 -2.550936894628068607e-01
-3.616000000000000103e+00 4.565299999999999869e+01 1.202899999999999991e+01 -1.517095297292698208e-01
-3.544000000000000039e+00 3.317399999999999949e+01 1.111200000000000010e+01 2.693129611119030042e-01
-3.532000000000000028e+00 3.125100000000000122e+01 1.252699999999999925e+01 7.855534737958483338e-02
-3.500000000000000000e+00 3.793999999999999773e+01 2.146999999999999797e+00 -1.388416757281440428e-01
-3.411999999999999922e+00 3.864999999999999858e+01 4.283000000000000362e+00 6.050485805403737170e-03
-3.392999999999999794e+00 4.573599999999999710e+01 1.347100000000000009e+01 -5.011301861741179753e-02
-3.293000000000000149e+00 3.863700000000000045e+01 1.437800000000000011e+01 1.572670581166792370e-01
-3.262000000000000011e+00 4.504200000000000159e+01 1.623900000000000077e+01 1.368340155269227587e-01
-3.156000000000000139e+00 2.695899999999999963e+01 6.392000000000000348e+00 -4.739071783627944040e-02
-3.140000000000000124e+00 2.534600000000000009e+01 1.105700000000000038e+01 2.187177548512760084e-02
-3.093999999999999861e+00 4.019400000000000261e+01 1.003899999999999970e+01 3.343894470790083062e-01
-3.065999999999999837e+00 3.458200000000000074e+01 -1.538000000000000034e+00 1.135510053163430733e-01
-3.059000000000000163e+00 2.973999999999999844e+01 8.496999999999999886e+00 -1.532945222351502490e-01
-3.048999999999999932e+00 3.542699999999999960e+01 1.751399999999999935e+01 -5.673080538583220866e-02
-2.988999999999999879e+00 4.747699999999999676e+01 1.592399999999999949e+01 1.459460644232988269e-01
-2.935999999999999943e+00 4.265200000000000102e+01 1.652299999999999969e+01 -3.450893341807665937e-01
-2.838000000000000078e+00 4.794100000000000250e+01 1.735600000000000165e+01 -2.397523618586043792e-01
-2.835999999999999854e+00 3.230299999999999727e+01 1.193399999999999928e+01 8.861141267850211611e-02
-2.806999999999999940e+00 3.208700000000000330e+01 2.873000000000000220e+00 2.844457789520518087e-01
-2.744000000000000217e+00 4.468200000000000216e+01 9.842999999999999972e+00 1.939033767814262454e-01
-2.681999999999999940e+00 3.831199999999999761e+01 1.152500000000000036e+01 3.272111034521033024e-01
-2.612000000000000099e+00 4.223700000000000188e+01 5.317000000000000171e+00 -1.504534354841594312e-01
-2.600999999999999979e+00 3.476500000000000057e+01 1.419699999999999918e+01 6.783136348605259269e-02
-2.592999999999999972e+00 4.291299999999999670e+01 -1.326000000000000068e+00 -2.409613235382440932e-01
-2.467999999999999972e+00 4.197999999999999687e+01 1.423099999999999987e+01 2.856232194813314584e-01
-2.415000000000000036e+00 4.496300000000000097e+01 1.130499999999999972e+01 -1.755430174629984685e-01
-2.407000000000000028e+00 4.175000000000000000e+01 3.948999999999999844e+00 -4.250665342408159464e-02
-2.322000000000000064e+00 3.956099999999999994e+01 1.102399999999999913e+01 2.799999999999999711e-01
-2.282000000000000028e+00 3.340899999999999892e+01 1.649399999999999977e+01 1.305632719803192510e-01
-2.164000000000000146e+00 3.586500000000000199e+01 2.969999999999999862e-01 9.549179808528029945e-02
-2.157999999999999918e+00 3.547500000000000142e+01 -1.165999999999999925e+00 -6.097292912957101574e-02
-2.109999999999999876e+00 3.483899999999999864e+01 1.699599999999999866e+01 -3.672429595060117818e-02
-2.060000000000000053e+00 3.779800000000000182e+01 1.963999999999999968e+00 -2.436736788347811655e-01
-1.971999999999999975e+00 4.258200000000000074e+01 9.899999999999999911e-01 1.377099608403388464e-01
-1.965000000000000080e+00 2.572299999999999898e+01 1.082900000000000063e+01 -1.422841787646002831e-01
-1.874000000000000110e+00 4.234799999999999898e+01 1.546000000000000085e+01 3.596047362583412038e-02
-1.856999999999999984e+00 3.876800000000000068e+01 1.672800000000000153e+01 -2.990531965890700916e-01
-1.848999999999999977e+00 3.835199999999999676e+01 1.395400000000000063e+01 1.662129440095709287e-01
-1.842999999999999972e+00 3.032300000000000040e+01 7.751999999999999780e+00 -1.604062592373730889e-01
-1.840999999999999970e+00 3.763400000000000034e+01 1.259099999999999930e+01 3.223865363036374498e-01
-1.836999999999999966e+00 3.246099999999999852e+01 3.996999999999999886e+00 3.799999999999999489e-01
-1.794999999999999929e+00 2.676699999999999946e+01 6.272000000000000242e+00 -4.869602114614833555e-02
-1.792999999999999927e+00 4.018599999999999994e+01 1.612000000000000099e+00 -2.231376834172098533e-01
-1.770000000000000018e+00 4.145000000000000284e+01 6.318999999999999950e+00 1.272513569402414571e-02
-1.752000000000000002e+00 3.731400000000000006e+01 5.430000000000000382e-01 -2.100034240950509612e-01
-1.752000000000000002e+00 4.013799999999999812e+01 6.139000000000000234e+00 1.812841628459359589e-01
-1.745999999999999996e+00 3.239099999999999824e+01 1.751500000000000057e+01 -2.777587930879358291e-01
-1.737999999999999989e+00 3.182999999999999829e+01 7.918999999999999595e+00 9.816556212126394121e-02
-1.727999999999999980e+00 3.389600000000000080e+01 1.420100000000000051e+01 -1.139933388454598545e-01
-1.671999999999999931e+00 4.803499999999999659e+01 1.780399999999999849e+01 1.090915010948798891e-01
-1.641999999999999904e+00 4.251299999999999812e+01 -4.939999999999999947e-01 -2.301661874664215068e-01
-1.570000000000000062e+00 2.715200000000000102e+01 1.123799999999999955e+01 7.934852361131466969e-02
-1.489000000000000101e+00 3.313100000000000023e+01 1.527699999999999925e+01 -1.089953241243073884e-01
-1.435000000000000053e+00 3.391100000000000136e+01 3.902000000000000135e+00 9.149958483928920250e-02
-1.344999999999999973e+00 3.596300000000000097e+01 -1.953000000000000069e+00 -4.581949954499725530e-02
-1.344000000000000083e+00 3.245199999999999818e+01 1.214400000000000013e+01 -1.210839392022707156e-01
-1.342999999999999972e+00 3.910999999999999943e+01 2.246999999999999886e+00 -2.330256726162941994e-01
-1.286000000000000032e+00 3.780299999999999727e+01 6.660000000000000142e+00 2.030514309666984762e-01
-1.266999999999999904e+00 4.196099999999999852e+01 3.290000000000000036e+00 3.504870184001774441e-02
-1.256000000000000005e+00 3.778699999999999903e+01 1.627199999999999847e+01 -1.561940977584233003e-01
-1.229999999999999982e+00 4.152199999999999847e+01 1.826999999999999957e+00 1.341603165721709512e-01
-1.195999999999999952e+00 2.567599999999999838e+01 6.881000000000000227e+00 -5.235425454782125301e-03
-1.163000000000000034e+00 4.586500000000000199e+01 1.137800000000000011e+01 4.249042997396178245e-02
-1.153999999999999915e+00 4.201299999999999812e+01 7.233999999999999986e+00 5.441118520572248846e-02
-1.143999999999999906e+00 3.754800000000000182e+01 1.496299999999999919e+01 -1.221018681802397837e-01
-1.118999999999999995e+00 2.497500000000000142e+01 1.027999999999999936e+01 -1.577218736446843739e-01
-1.118999999999999995e+00 3.128099999999999881e+01 1.666000000000000014e+01 -2.357820550167892271e-01
-1.026999999999999913e+00 2.765700000000000003e+01 5.546000000000000263e+00 -5.762607653492015508e-02
-9.320000000000000506e-01 3.926599999999999824e+01 6.953000000000000291e+00 2.081655867596680365e-01
-9.230000000000000426e-01 3.539600000000000080e+01 1.680199999999999960e+01 -2.024214004451114213e-01
-9.040000000000000258e-01 3.026999999999999957e+01 8.899999999999999578e-02 -5.168150707438808056e-02
-8.659999999999999920e-01 3.367499999999999716e+01 1.295400000000000063e+01 -1.227732790065964447e-01
-8.389999999999999680e-01 2.949299999999999855e+01 -8.442000000000000171e+00 -3.593558400793046559e-01
-7.520000000000000018e-01 3.091300000000000026e+01 -7.961000000000000298e+00 -3.615116321901058472e-01
-6.550000000000000266e-01 2.776300000000000168e+01 -3.927999999999999936e+00 -2.592998693414184652e-01
-6.179999999999999938e-01 3.675900000000000034e+01 1.722100000000000009e+01 -3.224418050839121808e-01
-6.019999999999999796e-01 3.156899999999999906e+01 3.963000000000000078e+00 2.005203389073899056e-01
-5.629999999999999449e-01 2.968400000000000105e+01 8.220000000000000639e+00 -7.465472623992988610e-02
-5.450000000000000400e-01 4.213000000000000256e+01 -8.850000000000000089e-01 -3.499999999999999778e-01
-5.440000000000000391e-01 3.201599999999999824e+01 1.547000000000000064e+01 -2.442715029588227726e-01
-5.220000000000000195e-01 3.682999999999999829e+01 8.848000000000000753e+00 2.799999999999999711e-01
-5.100000000000000089e-01 2.927199999999999847e+01 1.362100000000000044e+01 -2.656087448916408245e-01
-4.979999999999999982e-01 3.679899999999999949e+01 7.466000000000000192e+00 1.362388617889817577e-01
-4.650000000000000244e-01 2.910099999999999909e+01 6.550000000000000266e-01 -2.974294664571141070e-02
-4.069999999999999729e-01 3.913900000000000290e+01 3.027000000000000135e+00 -2.379600505415871425e-01
-3.890000000000000124e-01 2.935000000000000142e+01 -9.904999999999999361e+00 -3.562151731852040704e-01
-2.800000000000000266e-01 4.249799999999999756e+01 3.799999999999999822e+00 2.478767131327226647e-02
-1.320000000000000062e-01 2.752499999999999858e+01 1.086200000000000010e+01 -1.203366094065692338e-01
-5.999999999999999778e-02 3.139000000000000057e+01 -2.500000000000000139e-02 2.661894412986948177e-01
1.739999999999999880e-01 2.795299999999999940e+01 -1.021899999999999942e+01 -3.716145875894364403e-01
1.789999999999999925e-01 2.548000000000000043e+01 6.762999999999999901e+00 -2.011681644217309939e-01
1.789999999999999925e-01 4.512500000000000000e+01 1.142900000000000027e+01 1.774735558605819163e-01
1.900000000000000022e-01 3.590100000000000335e+01 9.595000000000000639e+00 1.378894116942488979e-01
2.210000000000000020e-01 3.579800000000000182e+01 6.831999999999999851e+00 2.196768746465109223e-01
3.469999999999999751e-01 2.744800000000000040e+01 5.431000000000000050e+00 1.001766442278574643e-01
3.629999999999999893e-01 2.886299999999999955e+01 1.144200000000000017e+01 -1.387502710754619228e-01
4.109999999999999765e-01 2.879799999999999827e+01 1.296499999999999986e+01 -8.472622149605266162e-02
4.390000000000000013e-01 2.771099999999999852e+01 -3.306999999999999940e+00 -2.646131015381505969e-01
5.370000000000000329e-01 3.955100000000000193e+01 6.652999999999999581e+00 2.425001564576040672e-02
5.590000000000000524e-01 3.353000000000000114e+01 1.323199999999999932e+01 -1.305479278744791638e-01
6.640000000000000346e-01 4.492600000000000193e+01 5.193999999999999950e+00 1.368402932778007841e-01
8.199999999999999512e-01 3.560000000000000142e+01 1.404499999999999993e+01 -2.440791669450443901e-01
8.279999999999999583e-01 4.102600000000000335e+01 1.050300000000000011e+01 2.799999999999999156e-01
8.349999999999999645e-01 3.981900000000000261e+01 5.381999999999999673e+00 5.591797476794561905e-02
8.499999999999999778e-01 2.906099999999999994e+01 1.114000000000000101e+00 -5.453588048524291021e-03
8.990000000000000213e-01 4.160999999999999943e+01 1.295500000000000007e+01 1.203149352418453749e-01
9.010000000000000231e-01 3.692999999999999972e+01 1.729500000000000171e+01 -1.430248283769590956e-01
9.130000000000000338e-01 2.664399999999999835e+01 -2.846000000000000085e+00 -2.635945455048752661e-01
9.130000000000000338e-01 3.491299999999999670e+01 8.945000000000000284e+00 1.059020492288719195e-01
9.200000000000000400e-01 3.486399999999999721e+01 7.556000000000000050e+00 3.213320917197323157e-01
9.649999999999999689e-01 2.635900000000000176e+01 6.035999999999999588e+00 -2.265159829469836905e-01
9.759999999999999787e-01 4.459400000000000119e+01 6.527000000000000135e+00 1.672505590459544000e-01
1.026000000000000023e+00 4.064999999999999858e+01 1.195100000000000051e+01 3.299201140888847750e-01
1.098999999999999977e+00 4.128099999999999881e+01 1.429499999999999993e+01 1.429880099648030978e-01
1.197999999999999954e+00 2.801599999999999824e+01 -1.136100000000000065e+01 -2.202330191378953084e-01
1.243000000000000105e+00 2.899800000000000111e+01 -3.115000000000000213e+00 9.259357545042182225e-02
1.254000000000000004e+00 3.134700000000000131e+01 4.329999999999999960e-01 3.041085664869201399e-01
1.304999999999999938e+00 3.452799999999999869e+01 1.367600000000000016e+01 -2.720187397388901251e-01
1.366999999999999993e+00 3.935799999999999699e+01 1.230899999999999928e+01 3.246398086785159398e-01
1.370999999999999996e+00 3.953199999999999648e+01 7.549999999999999822e+00 2.328035167114135828e-01
1.383999999999999897e+00 3.757999999999999829e+01 1.857199999999999918e+01 -2.963495841676656584e-01
1.427000000000000046e+00 3.999600000000000222e+01 1.463499999999999979e+01 -2.343468159005753504e-01
1.471000000000000085e+00 2.820899999999999963e+01 1.351500000000000057e+01 -2.164322834210624380e-01
1.524999999999999911e+00 3.440599999999999881e+01 -2.212000000000000188e+00 -1.078032308113464621e-01
1.546999999999999931e+00 2.804200000000000159e+01 1.703999999999999959e+00 -2.068905724695445925e-01
1.560999999999999943e+00 3.902600000000000335e+01 1.363700000000000045e+01 5.289098288896663426e-03
1.568000000000000060e+00 2.798900000000000077e+01 1.496299999999999919e+01 -3.521608747318591970e-01
1.647000000000000020e+00 2.922800000000000153e+01 1.085800000000000054e+01 -2.135371811507159046e-01
1.665000000000000036e+00 4.238700000000000045e+01 8.589000000000000412e+00 7.100575475627632360e-02
1.677999999999999936e+00 2.937900000000000134e+01 1.690700000000000003e+01 -2.672701158988882719e-01
1.721000000000000085e+00 3.016799999999999926e+01 1.018000000000000016e+00 3.462418360359142966e-01
1.721999999999999975e+00 3.124599999999999866e+01 1.184800000000000075e+01 -1.124991717967414873e-01
1.727000000000000091e+00 3.604899999999999949e+01 3.483000000000000096e+00 7.621112057052047140e-02
1.846000000000000085e+00 2.953300000000000125e+01 -4.416000000000000369e+00 2.415674005656375523e-01
1.852999999999999980e+00 4.241100000000000136e+01 5.772999999999999687e+00 2.196442428303005678e-01
1.901999999999999913e+00 4.199000000000000199e+01 9.976000000000000867e+00 1.938407890271348633e-01
2.056000000000000050e+00 2.675799999999999912e+01 -1.153100000000000058e+01 -2.680664434431553889e-01
2.080000000000000071e+00 2.920700000000000074e+01 1.576200000000000045e+01 -3.541909309287680219e-01
2.142999999999999794e+00 4.361299999999999955e+01 6.557999999999999829e+00 -2.513279427510568542e-01
2.145999999999999908e+00 2.391499999999999915e+01 -2.866000000000000103e+00 -3.622492447680738525e-01
2.173999999999999932e+00 4.017199999999999704e+01 4.955000000000000071e+00 9.489327245335696381e-02
2.197999999999999954e+00 3.041600000000000037e+01 1.108200000000000074e+01 -1.243628273081306690e-01
2.346999999999999975e+00 2.758299999999999841e+01 8.922000000000000597e+00 6.755792852619828086e-03
2.404999999999999805e+00 2.672800000000000153e+01 1.526399999999999935e+01 -2.323517795542896780e-01
2.426000000000000156e+00 3.327100000000000080e+01 1.634700000000000131e+01 -2.981336687665721574e-01
2.443999999999999950e+00 2.613800000000000168e+01 5.897000000000000242e+00 -2.068719480956645873e-01
2.454000000000000181e+00 4.328000000000000114e+01 7.998000000000000220e+00 1.064516068496584589e-01
2.463000000000000078e+00 2.548499999999999943e+01 -1.869000000000000128e+01 -1.262460795467518770e-01
2.466000000000000192e+00 2.411100000000000065e+01 -5.283999999999999808e+00 -7.727524968010038298e-02
2.567000000000000171e+00 2.819600000000000151e+01 -7.373000000000000220e+00 -3.785560409971443496e-01
2.623000000000000220e+00 2.701000000000000156e+01 -1.384600000000000009e+01 -2.820271338280283535e-01
2.681000000000000050e+00 4.136899999999999977e+01 5.717999999999999972e+00 1.840296726068751387e-01
2.749000000000000110e+00 2.642899999999999849e+01 -1.027500000000000036e+01 -2.557244025858237402e-01
2.783999999999999808e+00 3.711200000000000188e+01 1.897299999999999898e+01 -2.463484971243777299e-01
2.822000000000000064e+00 2.848100000000000165e+01 1.981999999999999984e+00 -2.026214136699057422e-01
2.825000000000000178e+00 3.426599999999999824e+01 1.375399999999999956e+01 -3.923539430751762924e-01
2.826999999999999957e+00 3.458299999999999841e+01 -1.435999999999999943e+00 2.036871710997113782e-01
2.875000000000000000e+00 3.531400000000000006e+01 2.907000000000000028e+00 6.750582333149869607e-02
2.887000000000000011e+00 2.859499999999999886e+01 -5.043999999999999595e+00 -1.305738049272664458e-01
2.919999999999999929e+00 2.472899999999999920e+01 -7.636999999999999567e+00 -3.712524297737117562e-01
2.930000000000000160e+00 3.005300000000000082e+01 1.516600000000000037e+01 -2.240025456160430473e-01
2.975000000000000089e+00 2.977100000000000080e+01 1.574000000000000066e+00 1.216753741638896928e-02
2.975000000000000089e+00 3.255599999999999739e+01 1.550699999999999967e+01 -2.858184641602500298e-01
2.983999999999999986e+00 2.678600000000000136e+01 8.242000000000000881e+00 2.580568298622892831e-02
2.999000000000000110e+00 3.600999999999999801e+01 -9.609999999999999654e-01 9.706712047686413825e-02
3.036000000000000032e+00 2.696600000000000108e+01 -1.269500000000000028e+01 -2.879287257904732389e-01
3.043000000000000149e+00 2.426300000000000168e+01 -1.081700000000000017e+01 -2.716414506396285788e-01
3.067000000000000171e+00 2.285900000000000176e+01 9.573999999999999844e+00 2.347902549385857268e-02
3.075000000000000178e+00 2.891400000000000148e+01 -6.530000000000000249e+00 -3.667916776632176856e-01
3.129000000000000004e+00 3.096900000000000119e+01 5.636999999999999567e+00 1.700790189752634796e-01
3.129999999999999893e+00 3.291899999999999693e+01 1.423499999999999943e+01 -3.217979082629794929e-01
3.130999999999999783e+00 3.107900000000000063e+01 8.865999999999999659e+00 1.156681716670858034e-01
3.134999999999999787e+00 2.385099999999999909e+01 -3.955000000000000071e+00 -1.262368289771558516e-01
3.212000000000000188e+00 2.520299999999999940e+01 -1.003999999999999915e+01 -2.590485565799379719e-01
3.267999999999999794e+00 4.134000000000000341e+01 1.012599999999999945e+01 1.545993754275398480e-01
3.270000000000000018e+00 2.524299999999999855e+01 1.012800000000000011e+01 -2.311102816995786180e-01
3.278999999999999915e+00 2.706200000000000117e+01 6.766000000000000014e+00 1.156095045650705339e-01
3.291999999999999815e+00 2.658299999999999841e+01 1.211500000000000021e+01 -1.623636926929091645e-02
3.387000000000000011e+00 4.383500000000000085e+01 8.566000000000000725e+00 -1.909151690956698288e-01
3.440999999999999837e+00 2.400700000000000145e+01 -1.732900000000000063e+01 -1.198614545256408703e-01
3.451000000000000068e+00 2.564000000000000057e+01 8.727000000000000313e+00 -2.398938038070847489e-01
3.455000000000000071e+00 2.686499999999999844e+01 -7.530000000000000027e-01 -3.754793695929550118e-02
3.479000000000000092e+00 3.071900000000000119e+01 1.032300000000000040e+01 1.334232135365456817e-01
3.482000000000000206e+00 3.447099999999999653e+01 1.238700000000000045e+01 -7.584335551479977344e-02
3.483999999999999986e+00 2.411799999999999855e+01 -6.403999999999999915e+00 -6.380719034339457640e-02
3.486000000000000210e+00 2.488100000000000023e+01 -1.825499999999999901e+01 -1.152358860216197156e-01
3.549999999999999822e+00 3.118299999999999983e+01 1.589300000000000068e+01 -2.380488910911779388e-01
3.583000000000000185e+00 4.040899999999999892e+01 9.227999999999999758e+00 1.664368340670077939e-01
3.686999999999999833e+00 3.692999999999999972e+01 1.783699999999999974e+01 -2.555151413079267408e-01
3.725999999999999979e+00 3.244800000000000040e+01 6.464000000000000412e+00 8.356534876152629798e-02
3.757000000000000117e+00 2.337900000000000134e+01 1.184200000000000053e+01 1.486363613895796965e-02
3.785000000000000142e+00 4.133400000000000318e+01 6.267000000000000348e+00 1.288796378143989840e-01
3.806000000000000050e+00 2.998199999999999932e+01 -6.842999999999999972e+00 -1.236870404840428872e-01
3.823999999999999844e+00 2.379100000000000037e+01 1.036500000000000021e+01 -6.889956315975854020e-03
3.867999999999999883e+00 3.708299999999999841e+01 9.779999999999999361e+00 1.518960269004903385e-01
3.878000000000000114e+00 2.628200000000000003e+01 1.108000000000000007e+01 -3.552153645603690207e-02
3.892999999999999794e+00 2.469500000000000028e+01 -1.161000000000000032e+00 -1.198637576211998013e-01
3.952999999999999847e+00 2.567500000000000071e+01 -4.169999999999999818e-01 -6.167098916947133871e-03
3.954000000000000181e+00 2.498900000000000077e+01 -8.726000000000000867e+00 -2.852395684837130685e-01
3.986000000000000210e+00 2.062300000000000111e+01 6.088000000000000078e+00 7.263765052291361324e-02
3.996999999999999886e+00 3.752000000000000313e+01 8.335000000000000853e+00 1.574168903094422534e-01
4.011000000000000121e+00 3.412500000000000000e+01 -2.286999999999999922e+00 6.184203523919316881e-02
4.019000000000000128e+00 4.167999999999999972e+01 1.104100000000000037e+01 1.942553413001301688e-01
4.025000000000000355e+00 4.389399999999999835e+01 1.242500000000000071e+01 -7.137874927194015617e-02
4.089000000000000412e+00 3.033399999999999963e+01 -8.233999999999999986e+00 -3.670917880082325557e-01
4.126999999999999780e+00 1.891100000000000136e+01 -2.732000000000000206e+00 3.755164426007588652e-02
4.139999999999999680e+00 3.545100000000000051e+01 3.748000000000000220e+00 -2.920373106030865751e-01
4.155000000000000249e+00 2.862500000000000000e+01 -4.301000000000000156e+00 5.818760713022051723e-02
4.168000000000000149e+00 3.260399999999999920e+01 -2.323999999999999844e+00 7.664610838413866978e-02
4.208000000000000185e+00 3.061599999999999966e+01 1.691999999999999948e+00 3.236405137348875583e-01
4.214000000000000412e+00 3.471099999999999852e+01 1.828900000000000148e+01 -2.632129389381917539e-01
4.230999999999999872e+00 3.181800000000000139e+01 8.096999999999999531e+00 6.419090776908076279e-02
4.243000000000000327e+00 2.994300000000000139e+01 -1.552999999999999936e+00 2.014878085089504278e-01
4.325999999999999623e+00 2.710300000000000153e+01 -1.238499999999999979e+01 -3.160601412485864459e-01
4.339999999999999858e+00 3.580400000000000205e+01 1.754100000000000037e+01 -2.665167831241295748e-01
4.342999999999999972e+00 3.962199999999999989e+01 1.638100000000000023e+01 -1.173790937349509650e-01
4.355999999999999872e+00 2.955399999999999849e+01 1.039000000000000057e+01 1.126151346277263626e-01
4.360000000000000320e+00 3.635099999999999909e+01 7.432999999999999829e+00 3.686017792685630790e-01
4.503000000000000114e+00 2.107000000000000028e+01 -2.556999999999999940e+00 -2.470977091700851391e-01
4.560999999999999943e+00 1.763899999999999935e+01 -5.990999999999999659e+00 -2.301880680885131647e-01
4.580000000000000071e+00 3.187500000000000000e+01 -4.565999999999999837e+00 5.364051653872992965e-03
4.599000000000000199e+00 2.557600000000000051e+01 9.559999999999999609e-01 5.333218186992154386e-02
4.602000000000000313e+00 3.224499999999999744e+01 -1.069599999999999973e+01 -2.441754297263779017e-01
4.634000000000000341e+00 2.366300000000000026e+01 6.985999999999999766e+00 4.071289546575436458e-02
4.636000000000000121e+00 2.882799999999999940e+01 -1.002500000000000036e+01 -2.537549900316278806e-01
4.660000000000000142e+00 3.078800000000000026e+01 -7.680000000000000160e-01 2.014013380449919954e-01
4.663000000000000256e+00 3.209000000000000341e+01 -1.042000000000000037e+00 1.279146621769474135e-01
4.689000000000000057e+00 2.687500000000000000e+01 6.461999999999999744e+00 -8.538252986963992819e-02
4.735000000000000320e+00 1.988800000000000168e+01 -2.228000000000000203e+00 -2.556606784400800025e-01
4.735000000000000320e+00 2.113800000000000168e+01 4.857999999999999652e+00 -2.463471070826934312e-02
4.740000000000000213e+00 2.974899999999999878e+01 1.259500000000000064e+01 1.857053073380630914e-02
4.798000000000000043e+00 3.681300000000000239e+01 3.531000000000000139e+00 -8.278024377637735465e-02
4.820999999999999730e+00 3.167999999999999972e+01 -8.346999999999999531e+00 -1.525961518443676168e-01
4.830000000000000071e+00 2.266600000000000037e+01 4.812999999999999723e+00 1.121942972887490092e-02
4.830000000000000071e+00 2.611199999999999832e+01 -8.375000000000000000e+00 -2.879650357833970498e-01
4.839000000000000412e+00 3.821600000000000108e+01 1.474000000000000021e+01 -2.826053456749280102e-01
4.846000000000000085e+00 2.521399999999999864e+01 -1.888700000000000045e+01 -2.373620014628411157e-01
4.862000000000000099e+00 3.935499999999999687e+01 1.526900000000000013e+01 -1.302764031921131160e-01
4.873000000000000220e+00 4.494700000000000273e+01 1.200999999999999979e+01 -4.457278014679279948e-02
4.876000000000000334e+00 3.417600000000000193e+01 1.243299999999999983e+01 -6.789789476151282532e-02
4.878999999999999559e+00 2.913899999999999935e+01 1.154100000000000037e+01 1.016709068164558250e-01
4.879999999999999893e+00 3.974199999999999733e+01 9.281000000000000583e+00 -1.630111159195421142e-02
4.910999999999999588e+00 2.922500000000000142e+01 -8.885999999999999233e+00 -2.664149311599471881e-01
5.014000000000000234e+00 3.864900000000000091e+01 8.212999999999999190e+00 -2.370931664982826176e-02
5.022999999999999687e+00 2.684199999999999875e+01 1.070400000000000063e+01 1.736721611391766618e-01
5.070999999999999730e+00 3.402000000000000313e+01 1.022000000000000020e+00 9.570334699922604382e-02
5.072000000000000064e+00 3.219200000000000017e+01 -3.474000000000000199e+00 2.608042340609415533e-01
5.073000000000000398e+00 3.119399999999999906e+01 1.565499999999999936e+01 -2.457039170821440077e-01
5.105000000000000426e+00 3.431400000000000006e+01 3.419000000000000039e+00 -2.666119360397075644e-01
5.129999999999999893e+00 2.708599999999999852e+01 -5.613999999999999879e+00 -2.144873726619818677e-01
5.137999999999999901e+00 3.577199999999999847e+01 1.647899999999999920e+01 -2.872632865965176197e-01
5.184000000000000163e+00 2.786599999999999966e+01 -4.668000000000000149e+00 -9.882944830066440339e-03
5.187000000000000277e+00 2.497100000000000009e+01 -1.394299999999999962e+01 -1.591205702535656574e-01
5.232999999999999652e+00 3.037300000000000111e+01 5.859999999999999654e-01 2.289911497114345273e-01
5.296999999999999709e+00 2.527299999999999969e+01 4.198000000000000398e+00 -3.836040373848899343e-02
5.299000000000000377e+00 2.860399999999999920e+01 7.714999999999999858e+00 3.322229657688609561e-01
5.371000000000000441e+00 2.731500000000000128e+01 -1.338599999999999923e+01 -3.523126971608978031e-01
5.384000000000000341e+00 3.193100000000000094e+01 -9.753999999999999559e+00 -1.329186716748936292e-01
5.386999999999999567e+00 2.317800000000000082e+01 6.142000000000000348e+00 5.299348408709838448e-02
5.400000000000000355e+00 2.023300000000000054e+01 -1.008099999999999952e+01 -7.978483777690870138e-02
5.514999999999999680e+00 2.610099999999999909e+01 -1.431099999999999994e+01 9.480506560365126179e-02
5.525999999999999801e+00 4.051599999999999824e+01 1.452500000000000036e+01 5.233731474897340696e-02
5.559999999999999609e+00 3.212100000000000222e+01 1.780499999999999972e+01 -2.551213763438943127e-01
5.605000000000000426e+00 2.764499999999999957e+01 7.024000000000000021e+00 3.304984081073437108e-01
5.631999999999999673e+00 2.312600000000000122e+01 3.686999999999999833e+00 -1.259185013762317285e-01
5.653999999999999915e+00 3.451599999999999824e+01 2.001999999999999780e+00 1.284641164559327531e-01
5.703999999999999737e+00 2.785699999999999932e+01 1.150699999999999967e+01 1.118754567229276048e-01
5.780999999999999694e+00 2.599299999999999855e+01 -1.793900000000000006e+01 -1.040577977974164875e-01
5.790000000000000036e+00 1.952100000000000080e+01 -1.132699999999999996e+01 -8.435202466664569465e-02
5.793000000000000149e+00 1.963200000000000145e+01 -1.177000000000000046e+00 -2.330805375258200307e-01
5.799999999999999822e+00 2.442000000000000171e+01 3.471000000000000085e+00 -1.371713212959208006e-01
5.809000000000000163e+00 3.215699999999999648e+01 1.657999999999999829e+01 -2.593474475622532527e-01
5.809999999999999609e+00 4.175900000000000034e+01 8.298000000000000043e+00 3.578209409741501309e-03
5.841999999999999638e+00 2.469500000000000028e+01 9.659999999999999698e-01 -1.125554849747273101e-01
5.881999999999999673e+00 2.641900000000000048e+01 -9.124000000000000554e+00 -2.003615168322613882e-01
5.905999999999999694e+00 2.871199999999999974e+01 -8.160000000000000142e+00 -2.031035241533602279e-02
5.939000000000000057e+00 1.785800000000000054e+01 -5.360000000000000320e+00 -2.406204999217403662e-01
5.951999999999999957e+00 2.534700000000000131e+01 -1.656099999999999994e+01 -1.067740004414730326e-01
6.009999999999999787e+00 4.074099999999999966e+01 9.119999999999999218e+00 -6.977988672289323069e-02
6.019000000000000128e+00 2.634600000000000009e+01 -1.551399999999999935e+01 -1.391966018140932404e-01
6.081999999999999851e+00 4.376500000000000057e+01 1.020500000000000007e+01 -3.054935068125134157e-01
6.166000000000000369e+00 3.418999999999999773e+01 4.408000000000000362e+00 -1.682198135127487837e-01
6.182000000000000384e+00 2.577899999999999991e+01 -1.012899999999999956e+01 -2.212779513787501151e-01
6.200999999999999623e+00 2.153099999999999881e+01 -7.253999999999999559e+00 -2.235060226071878819e-01
6.232000000000000206e+00 4.444200000000000017e+01 1.149099999999999966e+01 -3.447011421782941731e-01
6.331000000000000405e+00 2.126200000000000045e+01 1.641000000000000014e+00 -3.651709386487741460e-01
6.375000000000000000e+00 2.724500000000000099e+01 -2.564000000000000057e+00 -4.699090049720777013e-02
6.383000000000000007e+00 3.217999999999999972e+01 -3.236000000000000210e+00 2.800344039771101579e-01
6.464000000000000412e+00 3.109700000000000131e+01 8.739999999999999991e-01 1.928961599829626672e-01
6.474999999999999645e+00 2.801899999999999835e+01 -3.875999999999999890e+00 -1.142667214713575935e-01
6.488000000000000433e+00 4.374199999999999733e+01 7.004999999999999893e+00 -1.187556975505150297e-01
6.501999999999999780e+00 2.091600000000000037e+01 -7.289999999999999813e-01 -3.499999999999999778e-01
6.522000000000000242e+00 2.050400000000000134e+01 -7.857000000000000206e+00 -8.708873205871550671e-02
6.535000000000000142e+00 1.923600000000000065e+01 -5.778999999999999915e+00 4.868046247114367342e-02
6.610999999999999766e+00 4.010399999999999920e+01 1.355000000000000071e+01 1.472162656000035874e-01
6.621999999999999886e+00 3.180799999999999983e+01 -9.917999999999999261e+00 -1.208977377120351929e-02
6.644999999999999574e+00 3.294800000000000040e+01 1.608699999999999974e+01 7.988417808003279996e-02
6.658000000000000362e+00 2.482100000000000151e+01 2.259999999999999787e+00 -1.817723261518000843e-01
6.660000000000000142e+00 2.886599999999999966e+01 -1.200600000000000023e+01 -1.957033364846313961e-01
6.703000000000000291e+00 2.307900000000000063e+01 6.314000000000000057e+00 9.499367365151076270e-02
6.703999999999999737e+00 1.934400000000000119e+01 -7.233999999999999986e+00 -9.631541679355488939e-02
6.724999999999999645e+00 2.762099999999999866e+01 -8.685000000000000497e+00 -1.791538922666793265e-01
6.725999999999999979e+00 2.055000000000000071e+01 -9.375999999999999446e+00 -7.572046329166211287e-02
6.730000000000000426e+00 2.761299999999999955e+01 -1.269999999999999929e+01 -2.277879554738575507e-01
6.764000000000000234e+00 3.523899999999999721e+01 1.881000000000000005e+00 -1.460693651615360411e-01
6.785999999999999588e+00 3.214900000000000091e+01 3.670999999999999819e+00 1.699550330991865255e-01
6.786999999999999922e+00 2.942399999999999949e+01 -3.629000000000000004e+00 2.510774180166727154e-01
6.823000000000000398e+00 1.679799999999999827e+01 -5.745000000000000107e+00 -1.085807417254150975e-01
6.836000000000000298e+00 4.223400000000000176e+01 1.232099999999999973e+01 -3.058193707990352062e-01
6.854000000000000092e+00 4.275399999999999778e+01 8.112999999999999545e+00 1.173444594322716333e-01
6.868000000000000327e+00 2.314699999999999847e+01 -1.679400000000000048e+01 -2.913920381911648816e-01
6.900000000000000355e+00 4.354699999999999704e+01 1.253800000000000026e+01 -3.327205760324415951e-01
6.942999999999999616e+00 3.310999999999999943e+01 4.432000000000000384e+00 -8.506757961753357022e-02
6.958999999999999631e+00 2.074200000000000088e+01 7.219999999999999751e-01 -1.252979399210440437e-01
6.964999999999999858e+00 1.869699999999999918e+01 -1.092699999999999960e+01 -8.718967657499347712e-02
7.057000000000000384e+00 4.058599999999999852e+01 9.724000000000000199e+00 -4.313449319007126720e-02
7.062000000000000277e+00 2.546999999999999886e+01 8.919000000000000483e+00 2.289264787788138078e-01
7.075999999999999623e+00 2.726599999999999824e+01 6.846000000000000085e+00 4.016624483894188913e-01
7.120000000000000107e+00 3.024399999999999977e+01 -4.623999999999999666e+00 -1.010144804092634185e-01
7.126000000000000334e+00 2.811700000000000088e+01 1.095899999999999963e+01 1.960742165696049144e-01
7.136000000000000121e+00 4.347899999999999920e+01 9.445000000000000284e+00 7.182514028046002585e-02
7.150000000000000355e+00 2.441499999999999915e+01 -1.651500000000000057e+01 -1.374943612781339142e-01
7.211999999999999744e+00 2.503300000000000125e+01 7.778999999999999915e+00 4.417269559348140778e-02
7.238000000000000433e+00 2.985800000000000054e+01 -5.790000000000000036e+00 -3.555174746058044344e-02
7.256999999999999673e+00 2.582300000000000040e+01 6.711999999999999744e+00 3.164314645151302535e-02
7.325000000000000178e+00 3.173499999999999943e+01 -4.270999999999999908e+00 3.095559572244917512e-01
7.325000000000000178e+00 3.547999999999999687e+01 5.580000000000000515e-01 2.942386484179899675e-01
7.344000000000000306e+00 3.701299999999999812e+01 1.080700000000000038e+01 -3.470851607013778622e-02
7.346000000000000085e+00 2.352499999999999858e+01 7.552999999999999936e+00 1.104195570989309483e-01
7.394000000000000128e+00 2.101000000000000156e+01 -1.782000000000000028e+01 -3.137001121437927309e-01
7.439000000000000057e+00 2.952700000000000102e+01 5.783000000000000362e+00 1.076945046860562638e-01
7.456000000000000405e+00 4.405100000000000193e+01 1.352200000000000024e+01 -2.231312771070446607e-02
7.490000000000000213e+00 3.109499999999999886e+01 3.599999999999999728e-02 2.853742409347005404e-01
7.509000000000000341e+00 3.044600000000000151e+01 -1.008000000000000007e+00 2.333049933825091793e-01
7.541999999999999815e+00 4.127100000000000080e+01 1.316399999999999970e+01 3.697756657632801647e-02
7.549000000000000377e+00 3.285900000000000176e+01 6.858999999999999986e+00 3.849783072277235957e-02
7.599999999999999645e+00 3.388499999999999801e+01 -1.197999999999999954e+00 8.974774854920457290e-02
7.607999999999999652e+00 2.127799999999999869e+01 -1.635999999999999899e+00 1.494022787206567837e-01
7.623999999999999666e+00 4.468399999999999750e+01 6.626999999999999780e+00 -2.412639254313420911e-01
7.647999999999999687e+00 1.955399999999999849e+01 -9.936999999999999389e+00 -8.426030783544416480e-02
7.737000000000000099e+00 2.803600000000000136e+01 5.690000000000000391e+00 7.104281455092269215e-02
7.743000000000000327e+00 2.716499999999999915e+01 -7.658999999999999808e+00 -7.842568888264248028e-02
7.753000000000000114e+00 3.682200000000000273e+01 4.177999999999999936e+00 -3.499999999999999778e-01
7.769000000000000128e+00 3.413900000000000290e+01 -1.400000000000000029e-02 1.985797742431466284e-01
7.806000000000000050e+00 3.972599999999999909e+01 5.480000000000000426e+00 -4.467493820817235173e-02
7.841000000000000192e+00 1.947299999999999898e+01 -5.004999999999999893e+00 -1.018498328379001672e-01
7.855999999999999872e+00 2.767099999999999937e+01 -1.370299999999999940e+01 2.976578237287469397e-01
7.875000000000000000e+00 2.209600000000000009e+01 -1.684799999999999898e+01 -3.304557771919069409e-01
7.876000000000000334e+00 2.402400000000000091e+01 2.196000000000000174e+00 -2.601766957497552712e-01
7.894000000000000128e+00 2.938700000000000045e+01 1.137599999999999945e+01 3.232790542162195524e-01
7.902000000000000135e+00 3.797800000000000153e+01 8.449999999999999734e-01 4.104792308473236874e-03
7.903999999999999915e+00 3.830499999999999972e+01 6.072000000000000064e+00 8.066817248747357172e-02
7.913999999999999702e+00 1.919399999999999906e+01 -3.802000000000000046e+00 -6.845117848708966168e-02
7.937999999999999723e+00 2.715899999999999892e+01 -1.647999999999999909e+00 1.635233876943481893e-02
8.016999999999999460e+00 2.949299999999999855e+01 1.287599999999999945e+01 -2.373543308398392004e-01
8.044000000000000483e+00 2.000100000000000122e+01 9.180000000000000382e-01 -1.206331154417125545e-01
8.070999999999999730e+00 3.309400000000000119e+01 5.442999999999999616e+00 5.788231476111414808e-02
8.109999999999999432e+00 2.467299999999999827e+01 -7.908999999999999808e+00 -2.566195693435872061e-01
8.153000000000000469e+00 3.617600000000000193e+01 7.839000000000000412e+00 -2.927099012943937817e-01
8.278000000000000469e+00 2.482400000000000162e+01 -1.621699999999999875e+01 4.813960691831712518e-03
8.278999999999999915e+00 3.327000000000000313e+01 8.449999999999999734e-01 1.594104386601196965e-01
8.288999999999999702e+00 4.374099999999999966e+01 9.788000000000000256e+00 1.394376124119048712e-03
8.349000000000000199e+00 2.290099999999999980e+01 -2.740000000000000213e-01 4.114368952096969512e-02
8.372999999999999332e+00 2.120299999999999940e+01 4.155999999999999694e+00 -2.141179445577530982e-01
8.435999999999999943e+00 2.011899999999999977e+01 -1.817399999999999949e+01 -3.066334294105205194e-01
8.445999999999999730e+00 2.226399999999999935e+01 -1.324999999999999956e+00 8.508494141320172011e-02
8.445999999999999730e+00 3.654399999999999693e+01 5.849999999999999645e-01 6.328576030888088781e-03
8.464000000000000412e+00 3.727900000000000347e+01 5.070000000000000284e+00 -2.297962563834944627e-01
8.476000000000000867e+00 3.283899999999999864e+01 9.105999999999999872e+00 -2.531168472695754512e-01
8.477999999999999758e+00 2.298100000000000165e+01 -2.081400000000000006e+01 -2.594057866752675912e-01
8.554000000000000270e+00 2.598499999999999943e+01 -8.121000000000000441e+00 -7.579589133017428093e-02
8.560999999999999943e+00 1.973300000000000054e+01 2.258999999999999897e+00 -1.374563349921503752e-01
8.570000000000000284e+00 2.429700000000000060e+01 -1.238299999999999912e+01 1.242551981175410609e-02
8.577999999999999403e+00 2.474200000000000088e+01 4.208999999999999631e+00 3.845989224042504206e-01
8.583999999999999631e+00 4.029399999999999693e+01 1.002999999999999892e+00 1.602698549417170409e-02
8.641000000000000014e+00 3.726700000000000301e+01 8.150999999999999801e+00 -3.086056962493055056e-01
8.653999999999999915e+00 3.831199999999999761e+01 7.325000000000000178e+00 -2.742610789563048601e-01
8.660999999999999588e+00 3.252100000000000080e+01 7.826999999999999957e+00 1.214596280158446867e-02
8.680999999999999162e+00 3.194000000000000128e+01 4.369999999999999996e-01 2.312905168646409854e-02
8.685000000000000497e+00 3.662100000000000222e+01 1.059299999999999997e+01 -1.456839544728464643e-02
8.746999999999999886e+00 2.404500000000000171e+01 3.201000000000000068e+00 7.325090479193950566e-02
8.756999999999999673e+00 3.200800000000000267e+01 -3.866000000000000103e+00 2.528061158143773413e-01
8.826000000000000512e+00 2.199599999999999866e+01 -1.331900000000000084e+01 2.235123484660021202e-03
8.833000000000000185e+00 4.072699999999999676e+01 1.253800000000000026e+01 -4.107952659081660907e-02
8.846000000000000085e+00 2.309499999999999886e+01 7.625000000000000000e+00 -4.875803203616460579e-02
8.846999999999999531e+00 2.101500000000000057e+01 3.032000000000000028e+00 -2.298123339718657066e-01
8.855000000000000426e+00 2.001000000000000156e+01 -5.684999999999999609e+00 2.950272188417405253e-03
8.858000000000000540e+00 3.431000000000000227e+01 5.392999999999999794e+00 -2.038940627422087815e-01
8.859999999999999432e+00 2.359100000000000108e+01 -8.337999999999999190e+00 2.235083289979486465e-02
8.948000000000000398e+00 1.951800000000000068e+01 -9.580999999999999517e+00 -9.573934858271518356e-02
8.948999999999999844e+00 2.158899999999999864e+01 7.926000000000000156e+00 2.346029402415597282e-03
8.980000000000000426e+00 3.909199999999999875e+01 1.008000000000000007e+00 -3.499999999999999778e-01
9.086000000000000298e+00 4.028900000000000148e+01 4.833999999999999631e+00 -3.673635584835346912e-01
9.230999999999999872e+00 2.388500000000000156e+01 -2.125199999999999889e+01 -2.472617751916080520e-01
9.237000000000000099e+00 2.423499999999999943e+01 -2.245100000000000051e+01 -2.468858431418872734e-01
9.239000000000000767e+00 1.708299999999999841e+01 -8.320000000000000284e+00 -1.083182541659733350e-01
9.247999999999999332e+00 2.263100000000000023e+01 -1.726399999999999935e+01 7.253258651831494264e-02
9.259000000000000341e+00 2.782300000000000040e+01 5.729000000000000092e+00 4.374668851309624351e-01
9.259000000000000341e+00 4.129999999999999716e+01 1.141999999999999993e+01 -9.763632756806570057e-02
9.266000000000000014e+00 2.335000000000000142e+01 -1.838599999999999923e+01 -2.834322846583320898e-01
9.285999999999999588e+00 2.944999999999999929e+01 1.071899999999999942e+01 1.460096496409583611e-01
9.326000000000000512e+00 2.875600000000000023e+01 1.901000000000000023e+00 3.073543767115143321e-01
9.340999999999999304e+00 3.745799999999999841e+01 9.496000000000000441e+00 -3.285394197418796680e-01
9.343999999999999417e+00 2.342000000000000171e+01 -1.334999999999999964e+01 1.976507305612753285e-01
9.387999999999999901e+00 1.704899999999999949e+01 -9.737999999999999545e+00 -1.057076159728100040e-01
9.397999999999999687e+00 3.886500000000000199e+01 9.897999999999999687e+00 -4.156787220741333527e-02
9.436999999999999389e+00 2.032499999999999929e+01 -8.778999999999999915e+00 3.994532149025734058e-02
9.441000000000000725e+00 3.981000000000000227e+01 1.307300000000000040e+01 -3.958794670760779760e-02
9.442999999999999616e+00 3.123300000000000054e+01 1.552999999999999936e+00 -5.703435432652845596e-03
9.522000000000000242e+00 2.182400000000000162e+01 -3.547000000000000153e+00 -4.215846098903798522e-02
9.573000000000000398e+00 3.461699999999999733e+01 4.320000000000000284e+00 -3.499999999999999778e-01
9.586000000000000298e+00 2.257900000000000063e+01 -2.294999999999999929e+00 -1.717966759653229147e-02
9.624000000000000554e+00 3.389999999999999858e+01 3.337000000000000188e+00 -3.499999999999999778e-01
9.628999999999999559e+00 2.189300000000000068e+01 2.426000000000000156e+00 -2.599565015414963542e-01
9.634999999999999787e+00 2.392999999999999972e+01 8.659000000000000696e+00 4.452747939006978517e-01
9.634999999999999787e+00 2.408399999999999963e+01 -2.581999999999999851e+00 2.533727363221294215e-01
9.689000000000000057e+00 3.199299999999999855e+01 7.418000000000000149e+00 -2.126217744396811243e-03
9.699999999999999289e+00 2.746499999999999986e+01 1.578000000000000069e+00 -2.194089086296716062e-02
9.720000000000000639e+00 3.687500000000000000e+01 5.253999999999999559e+00 -2.197543196999266202e-01
9.749000000000000554e+00 1.755300000000000082e+01 2.854999999999999982e+00 2.031346163090776841e-02
9.766000000000000014e+00 2.617299999999999827e+01 -8.778000000000000469e+00 -9.086917223798829379e-02
9.839000000000000412e+00 1.843100000000000094e+01 -1.021599999999999930e+01 -1.521173705322120262e-01
9.840999999999999304e+00 2.983399999999999963e+01 1.205999999999999961e+00 3.655113647082757766e-01
9.852999999999999758e+00 1.890899999999999892e+01 2.194999999999999840e+00 -1.157181961551263238e-01
9.928000000000000824e+00 2.824399999999999977e+01 7.046000000000000263e+00 1.119347232185368135e-01
9.973000000000000753e+00 4.113199999999999790e+01 5.764999999999999680e+00 -2.397772540153254028e-01
9.980000000000000426e+00 2.314499999999999957e+01 3.080000000000000071e+00 6.894278852433990967e-02
1.006700000000000017e+01 2.381200000000000117e+01 -8.990000000000000213e+00 1.828809755663299841e-01
1.007499999999999929e+01 3.054299999999999926e+01 -1.185800000000000054e+01 4.974093762673106878e-02
1.016600000000000037e+01 2.461599999999999966e+01 -2.028900000000000148e+01 1.193126293563896712e-01
1.016600000000000037e+01 4.077000000000000313e+01 6.948000000000000398e+00 -2.531642920228858729e-01
1.019500000000000028e+01 3.878900000000000148e+01 1.129999999999999893e+00 -3.500000000000000333e-01
1.020100000000000051e+01 2.011400000000000077e+01 -5.134999999999999787e+00 1.248565096752235759e-01
1.024200000000000088e+01 2.243599999999999994e+01 -1.655799999999999983e+01 5.651251119582185664e-03
1.025099999999999945e+01 2.072599999999999909e+01 -3.740000000000000213e+00 9.890478650672655803e-02
1.034099999999999930e+01 3.592000000000000171e+01 4.349000000000000199e+00 -3.500000000000000333e-01
1.041399999999999970e+01 1.598399999999999999e+01 -1.011400000000000077e+01 -1.441090302520191269e-01
1.047499999999999964e+01 2.958599999999999852e+01 -1.071799999999999997e+01 -1.411455271059853245e-01
1.048700000000000010e+01 4.087199999999999989e+01 1.075500000000000078e+01 -1.559636620629706871e-01
1.049799999999999933e+01 4.215899999999999892e+01 5.285999999999999588e+00 -8.211489502677316032e-02
1.050000000000000000e+01 2.379599999999999937e+01 -1.903699999999999903e+01 1.214230962765768113e-01
