1.993329999999999984e+02 -8.887000000000000455e+00 4.666400000000000148e+01 -1.100651738883405215e-02
1.993629999999999995e+02 1.120299999999999940e+01 6.394299999999999784e+01 2.076425916585966647e-01
1.993710000000000093e+02 -2.527000000000000135e+00 7.253199999999999648e+01 2.292350304778215941e-01
1.994010000000000105e+02 -4.405000000000000249e+00 5.063100000000000023e+01 1.012076698049660245e-01
1.994029999999999916e+02 6.692999999999999616e+00 7.100900000000000034e+01 -2.926145090916535962e-01
1.994370000000000118e+02 -8.272999999999999687e+00 6.288600000000000279e+01 1.904540383480745336e-01
1.994530000000000030e+02 6.129999999999999893e-01 5.553399999999999892e+01 -1.308255726036648414e-01
1.994540000000000077e+02 3.529999999999999805e-01 6.120100000000000051e+01 -5.855744396663969953e-02
1.994540000000000077e+02 1.293299999999999983e+01 7.287300000000000466e+01 -2.411724557847659545e-01
1.994629999999999939e+02 1.819999999999999951e-01 6.486499999999999488e+01 -4.000000000000000083e-02
1.994679999999999893e+02 -8.105999999999999872e+00 5.092499999999999716e+01 5.820051456812950358e-02
1.994689999999999941e+02 9.230000000000000426e-01 4.886099999999999710e+01 1.144450833672826240e-01
1.994759999999999991e+02 -1.019500000000000028e+01 4.691799999999999926e+01 -1.746983863366208811e-01
1.994879999999999995e+02 1.553999999999999915e+01 5.983200000000000074e+01 2.591624192859535158e-01
1.995260000000000105e+02 -5.240000000000000213e+00 6.650499999999999545e+01 2.914817653748026927e-01
1.995329999999999870e+02 -1.054199999999999982e+01 8.014000000000000057e+01 1.174147956373843282e-01
1.995449999999999875e+02 -3.190999999999999837e+00 7.489600000000000080e+01 -4.196824724442493881e-02
1.995560000000000116e+02 -7.184000000000000163e+00 6.184000000000000341e+01 2.552875809231095472e-01
1.995620000000000118e+02 8.449999999999999289e+00 6.226299999999999812e+01 2.557235785087240698e-01
1.995730000000000075e+02 -6.410999999999999588e+00 4.719800000000000040e+01 4.209835866447057123e-02
1.995869999999999891e+02 -6.740000000000000213e+00 7.785099999999999909e+01 1.823394277124083529e-01
1.995910000000000082e+02 1.271499999999999986e+01 6.395400000000000063e+01 2.185067961163258410e-01
1.995989999999999895e+02 1.636599999999999966e+01 6.846299999999999386e+01 -3.681082259696187298e-01
1.996049999999999898e+02 -1.375200000000000067e+01 7.142600000000000193e+01 3.877990162156091936e-01
1.996260000000000048e+02 -2.884999999999999787e+00 4.821600000000000108e+01 -1.670655565368561191e-01
1.996330000000000098e+02 -1.062999999999999945e+00 6.527899999999999636e+01 -4.000000000000000083e-02
1.996380000000000052e+02 -1.076299999999999990e+01 6.807200000000000273e+01 3.613956419026809197e-01
1.996630000000000109e+02 -1.819699999999999918e+01 6.387199999999999989e+01 -1.709582859021688273e-01
1.996639999999999873e+02 1.723000000000000043e+01 7.350100000000000477e+01 -1.326821036228426620e-01
1.997210000000000036e+02 1.540600000000000058e+01 5.853799999999999670e+01 -5.708268717548155291e-02
1.997400000000000091e+02 -2.258000000000000007e+00 4.952600000000000335e+01 -5.104243385590684357e-02
1.997580000000000098e+02 -1.465900000000000070e+01 7.017300000000000182e+01 3.839947490785101114e-01
1.997609999999999957e+02 -5.796000000000000263e+00 8.268200000000000216e+01 -1.913662736812075660e-01
1.998230000000000075e+02 7.948999999999999844e+00 7.096999999999999886e+01 -5.357349191807801378e-03
1.998249999999999886e+02 3.599999999999999867e-01 5.304399999999999693e+01 2.602616525777438072e-01
1.998449999999999989e+02 -1.837800000000000011e+01 6.519199999999999307e+01 -1.454428011359483741e-01
1.998449999999999989e+02 1.681599999999999895e+01 6.627500000000000568e+01 -3.477968372831381771e-02
1.999070000000000107e+02 -1.449000000000000066e+00 7.119700000000000273e+01 2.244373209590810325e-01
1.999130000000000109e+02 2.159999999999999976e-01 6.244700000000000273e+01 -8.271586795051066865e-02
1.999300000000000068e+02 -1.259399999999999942e+01 6.559300000000000352e+01 3.321397085140327943e-01
1.999399999999999977e+02 8.442999999999999616e+00 6.580700000000000216e+01 1.623511146485436818e-01
1.999559999999999889e+02 -3.875999999999999890e+00 4.354599999999999937e+01 -6.652632242913165961e-02
1.999590000000000032e+02 3.073999999999999844e+00 6.608700000000000330e+01 -1.425192114998052595e-01
1.999670000000000130e+02 -2.542299999999999827e+01 6.042199999999999704e+01 -2.896674739394711207e-01
1.999780000000000086e+02 1.081000000000000050e+01 5.683800000000000097e+01 2.811241845725674926e-01
1.999799999999999898e+02 -4.448999999999999844e+00 7.503600000000000136e+01 9.185663931924500925e-02
1.999840000000000089e+02 -5.616999999999999993e+00 8.151900000000000546e+01 6.693037364361564823e-02
1.999929999999999950e+02 3.750000000000000000e+00 6.711799999999999500e+01 -1.306116042629094642e-01
1.999939999999999998e+02 -7.839000000000000412e+00 4.742199999999999704e+01 1.685176726620635224e-02
2.000049999999999955e+02 1.304800000000000004e+01 7.529000000000000625e+01 -2.645511569244581307e-01
2.000089999999999861e+02 6.036999999999999922e+00 5.272699999999999676e+01 2.628032448156994438e-01
2.000380000000000109e+02 1.812699999999999889e+01 7.550799999999999557e+01 -1.940264262855681543e-01
2.000639999999999930e+02 -2.305499999999999972e+01 6.124499999999999744e+01 -1.099858118611797692e-01
2.000689999999999884e+02 -9.047000000000000597e+00 6.670099999999999341e+01 3.697365015959879209e-01
2.000709999999999980e+02 6.057999999999999829e+00 6.616700000000000159e+01 -8.290535026071846336e-02
2.000730000000000075e+02 1.937500000000000000e+01 6.815699999999999648e+01 -3.499999999999999778e-01
2.000769999999999982e+02 -3.366000000000000103e+00 5.055700000000000216e+01 1.098609169709885008e-01
2.000879999999999939e+02 5.407000000000000028e+00 5.411500000000000199e+01 3.037090003147749906e-01
2.001399999999999864e+02 -6.065000000000000391e+00 7.700300000000000011e+01 6.270415485470121064e-02
2.001750000000000114e+02 -1.256999999999999895e+00 6.667100000000000648e+01 -5.843840744837876938e-02
2.002019999999999982e+02 -2.351999999999999869e+00 7.381199999999999761e+01 -6.617261891750887692e-03
2.002520000000000095e+02 -1.062599999999999945e+01 4.791499999999999915e+01 -1.949304612207189980e-01
2.002810000000000059e+02 -6.900000000000000577e-02 6.008899999999999864e+01 1.699133090342446750e-01
2.003050000000000068e+02 -8.077999999999999403e+00 5.327400000000000091e+01 3.884683173796957267e-01
2.003139999999999930e+02 1.018000000000000016e+00 5.434100000000000108e+01 9.762208595612996073e-03
2.003290000000000077e+02 -9.689000000000000057e+00 6.770300000000000296e+01 1.105198442219933186e-01
2.003410000000000082e+02 8.900000000000000133e-01 6.779699999999999704e+01 1.861690675657503846e-01
2.004000000000000057e+02 1.647899999999999920e+01 6.061200000000000188e+01 1.966384317782443880e-01
2.004300000000000068e+02 -4.200999999999999623e+00 4.629299999999999926e+01 -4.980981843960562844e-02
2.004319999999999879e+02 1.576699999999999946e+01 7.095300000000000296e+01 -2.636908520968595515e-01
2.004660000000000082e+02 1.761299999999999955e+01 7.449599999999999511e+01 -1.685727790253881142e-01
2.005610000000000070e+02 1.601200000000000045e+01 6.199900000000000233e+01 1.161959682392291332e-01
2.005829999999999984e+02 1.850000000000000000e+01 6.930100000000000193e+01 -2.250070232024241057e-01
2.005929999999999893e+02 2.013599999999999923e+01 6.589900000000000091e+01 -2.910860180389317556e-02
2.005939999999999941e+02 -1.394800000000000040e+01 6.540999999999999659e+01 1.361870908880348785e-01
2.006080000000000041e+02 3.313000000000000167e+00 6.821699999999999875e+01 -1.623406442418276197e-01
2.006189999999999998e+02 -9.569000000000000838e+00 7.344599999999999795e+01 1.690016721665998090e-01
2.006560000000000059e+02 -5.676999999999999602e+00 4.647699999999999676e+01 2.810724678044514840e-02
2.006680000000000064e+02 -1.265399999999999991e+01 7.140999999999999659e+01 3.950944859332977677e-01
2.006810000000000116e+02 -3.439000000000000057e+00 4.760499999999999687e+01 -1.058950998344685424e-01
2.006999999999999886e+02 1.168200000000000038e+01 5.790200000000000102e+01 5.948685951049668963e-02
2.007009999999999934e+02 5.509000000000000341e+00 5.857300000000000040e+01 -1.471438782428594327e-01
2.007129999999999939e+02 -1.183600000000000030e+01 7.047799999999999443e+01 3.218079780641309173e-01
2.007150000000000034e+02 -6.966000000000000192e+00 5.366700000000000159e+01 1.557649292843829303e-01
2.007280000000000086e+02 -2.666600000000000037e+01 6.016499999999999915e+01 -2.934533808772964436e-01
2.007930000000000064e+02 -8.593999999999999417e+00 6.349699999999999989e+01 1.120569647635327459e-01
2.007940000000000111e+02 -2.439300000000000068e+01 6.115999999999999659e+01 -2.953554675385383077e-01
2.008199999999999932e+02 1.702100000000000080e+01 6.895000000000000284e+01 -2.378767875394941778e-01
2.008209999999999980e+02 2.188000000000000167e+00 5.951700000000000301e+01 3.019991383287928821e-01
2.008520000000000039e+02 -9.227000000000000313e+00 5.364300000000000068e+01 3.967508151638422104e-02
2.008650000000000091e+02 -8.439000000000000057e+00 6.980400000000000205e+01 7.561423880766424133e-02
2.008669999999999902e+02 1.312299999999999933e+01 6.387199999999999989e+01 2.178211107823188331e-01
2.008779999999999859e+02 -3.366000000000000103e+00 5.855799999999999983e+01 3.798366217000025222e-03
2.008870000000000005e+02 8.694000000000000838e+00 5.613300000000000267e+01 3.143286143148416034e-01
2.009240000000000066e+02 -1.239999999999999991e-01 6.714799999999999613e+01 1.671418848969146165e-01
2.009269999999999925e+02 -5.312999999999999723e+00 6.717300000000000182e+01 1.391234754140474594e-01
2.009660000000000082e+02 9.935000000000000497e+00 5.608200000000000074e+01 2.281961924020411148e-01
2.009720000000000084e+02 -5.785000000000000142e+00 5.911800000000000210e+01 2.246437082703405808e-01
2.010010000000000048e+02 5.937000000000000277e+00 5.721200000000000330e+01 -7.409785996654325024e-02
2.010579999999999927e+02 1.950700000000000145e+01 6.697599999999999909e+01 -7.300413665114991249e-03
2.010769999999999982e+02 -4.800000000000000100e-02 6.269599999999999795e+01 -8.696880401837285557e-02
2.011109999999999900e+02 -3.920999999999999819e+00 4.397999999999999687e+01 -2.210673974802388475e-01
2.011260000000000048e+02 -4.520999999999999908e+00 6.821200000000000330e+01 -6.607175332509654213e-03
2.011599999999999966e+02 -3.145000000000000018e+00 5.129200000000000159e+01 1.697042390351647667e-01
2.011630000000000109e+02 -1.524099999999999966e+01 7.012800000000000011e+01 1.158474703484274893e-01
2.011829999999999927e+02 1.018000000000000016e+00 5.953099999999999881e+01 9.935791360327581034e-02
2.012129999999999939e+02 1.489700000000000024e+01 6.232000000000000028e+01 5.394730915860355275e-02
2.012220000000000084e+02 -3.499000000000000110e+00 8.140099999999999625e+01 9.101104280361074772e-02
2.012280000000000086e+02 -4.783999999999999808e+00 7.102299999999999613e+01 1.126087672653706129e-01
2.012659999999999911e+02 1.989999999999999991e+00 6.820000000000000284e+01 1.705041832905326848e-01
2.012690000000000055e+02 1.452899999999999991e+01 6.380299999999999727e+01 2.434454835022469565e-01
2.012709999999999866e+02 8.137999999999999901e+00 7.136700000000000443e+01 3.220009220237637221e-02
2.012829999999999870e+02 1.623999999999999844e+01 7.018300000000000693e+01 -2.711777577460682820e-01
2.012860000000000014e+02 -4.985000000000000320e+00 8.110599999999999454e+01 5.883725751704538265e-02
2.012870000000000061e+02 -1.853900000000000148e+01 6.570600000000000307e+01 -1.160399019948240573e-01
2.013060000000000116e+02 -1.051200000000000045e+01 7.443099999999999739e+01 1.928145134272471750e-01
2.013319999999999936e+02 5.081000000000000405e+00 5.624300000000000210e+01 2.237023432069719375e-01
2.013590000000000089e+02 -1.073900000000000077e+01 5.630400000000000205e+01 3.248388942796117673e-01
2.013830000000000098e+02 1.275600000000000023e+01 5.725099999999999767e+01 1.398120127135617785e-01
2.013839999999999861e+02 8.776999999999999247e+00 7.275199999999999534e+01 -1.117276215465885097e-01
2.013859999999999957e+02 -3.833000000000000185e+00 4.526899999999999835e+01 -2.022543750848919686e-01
2.014050000000000011e+02 5.665000000000000036e+00 5.484100000000000108e+01 2.360918601620816126e-01
2.014149999999999920e+02 -5.064000000000000057e+00 5.676299999999999812e+01 1.989457725523552378e-01
2.014319999999999879e+02 7.616999999999999993e+00 6.866800000000000637e+01 -2.050013111810477517e-01
2.014350000000000023e+02 -1.215600000000000058e+01 5.685999999999999943e+01 4.351302134408421840e-01
2.014459999999999980e+02 -9.253999999999999559e+00 6.863500000000000512e+01 3.957766716352361103e-01
2.014569999999999936e+02 -5.847000000000000419e+00 7.697499999999999432e+01 5.178885361656798691e-02
2.014950000000000045e+02 -9.807999999999999829e+00 7.577899999999999636e+01 1.880915713103924469e-01
2.015169999999999959e+02 -1.263299999999999912e+01 7.242700000000000671e+01 4.017053118319200422e-01
2.015449999999999875e+02 3.906000000000000139e+00 5.644299999999999784e+01 1.864335177559090229e-01
2.015660000000000025e+02 -4.682000000000000384e+00 5.825000000000000000e+01 2.534069407833735021e-01
2.015989999999999895e+02 -1.986799999999999855e+01 6.140999999999999659e+01 -2.031623181258370714e-01
2.016140000000000043e+02 1.000300000000000011e+01 5.250999999999999801e+01 -9.340083161693754632e-02
2.016150000000000091e+02 -2.710999999999999854e+00 7.355100000000000193e+01 4.190239822241158957e-02
2.016279999999999859e+02 -5.238000000000000433e+00 7.970600000000000307e+01 -4.269139167905872112e-02
2.016310000000000002e+02 -1.651500000000000057e+01 6.217199999999999704e+01 5.638264398904777736e-02
2.016690000000000111e+02 1.084800000000000075e+01 5.876299999999999812e+01 1.429594975546340241e-01
2.017520000000000095e+02 -9.730000000000000426e+00 5.734100000000000108e+01 4.084347297842559898e-01
2.017529999999999859e+02 -9.223000000000000753e+00 6.249099999999999966e+01 4.500000000000000111e-01
2.017570000000000050e+02 -1.730699999999999861e+01 6.644299999999999784e+01 -1.093487724952431073e-01
2.017779999999999916e+02 -2.107199999999999918e+01 6.485099999999999909e+01 -3.006493520435795652e-01
2.017779999999999916e+02 1.415399999999999991e+01 6.149300000000000210e+01 9.425974951140422831e-02
2.017839999999999918e+02 5.953000000000000291e+00 5.955899999999999750e+01 -2.845885239524162391e-02
2.018019999999999925e+02 6.610000000000000320e-01 5.459899999999999665e+01 3.254857938409410623e-01
2.018189999999999884e+02 -6.024000000000000021e+00 6.669299999999999784e+01 1.149539838303343525e-01
2.018199999999999932e+02 -4.173000000000000043e+00 5.207800000000000296e+01 1.666286045551866324e-01
2.018309999999999889e+02 -3.355999999999999872e+00 4.804500000000000171e+01 -1.255413462334658559e-01
2.018540000000000134e+02 -1.374900000000000055e+01 6.063100000000000023e+01 1.934568263171689839e-01
2.018770000000000095e+02 1.060599999999999987e+01 5.538799999999999812e+01 3.003193027791361547e-01
2.019130000000000109e+02 -4.504999999999999893e+00 5.444899999999999807e+01 1.653667531995411943e-01
2.019339999999999975e+02 1.629000000000000004e+00 6.951900000000000546e+01 1.535490728178397213e-01
2.019519999999999982e+02 8.971999999999999531e+00 7.036299999999999955e+01 -2.263345432774554467e-01
2.019739999999999895e+02 8.624000000000000554e+00 6.908599999999999852e+01 -2.635755732997613898e-01
2.019879999999999995e+02 1.740899999999999892e+01 7.433700000000000330e+01 -2.183972141946674272e-01
2.020600000000000023e+02 -6.434000000000000163e+00 7.931100000000000705e+01 -1.183509836466311027e-01
2.020809999999999889e+02 1.447799999999999976e+01 6.681300000000000239e+01 8.817594528518299390e-02
2.021119999999999948e+02 7.445999999999999730e+00 5.937800000000000011e+01 2.389228441439947004e-01
2.021200000000000045e+02 -3.644000000000000128e+00 5.345499999999999829e+01 2.466716777963900431e-01
2.021370000000000005e+02 -9.313000000000000611e+00 5.429099999999999682e+01 5.256696676052530215e-02
2.021959999999999980e+02 -7.373000000000000220e+00 8.007299999999999329e+01 -9.314628797383031622e-02
2.022100000000000080e+02 1.905399999999999849e+01 6.702899999999999636e+01 8.273181963615663936e-02
2.022150000000000034e+02 1.099200000000000088e+01 6.826200000000000045e+01 -1.495902718620980565e-01
2.022160000000000082e+02 -4.184000000000000163e+00 5.580700000000000216e+01 -1.179990622249501089e-02
2.022419999999999902e+02 -5.014000000000000234e+00 7.035099999999999909e+01 -4.226050315946015129e-02
2.022510000000000048e+02 -1.891499999999999915e+01 6.467100000000000648e+01 -1.376821352937936949e-01
2.022549999999999955e+02 -1.062199999999999989e+01 5.507600000000000051e+01 4.578314032144296941e-02
2.022889999999999873e+02 1.284000000000000030e+00 5.582800000000000296e+01 3.223759570585002510e-01
2.023189999999999884e+02 -4.017999999999999794e+00 4.304999999999999716e+01 -3.756366509827927525e-01
2.023259999999999934e+02 5.759999999999999565e-01 5.901700000000000301e+01 3.685051112041660970e-02
2.023600000000000136e+02 -2.173999999999999932e+00 7.559499999999999886e+01 2.116849010368287431e-01
2.023890000000000100e+02 -6.607999999999999652e+00 7.782200000000000273e+01 -1.380776305340242482e-01
2.023930000000000007e+02 -4.423000000000000043e+00 6.895499999999999829e+01 -1.954248047805568766e-01
2.024060000000000059e+02 3.133000000000000007e+00 6.362899999999999778e+01 -8.303294895136562048e-02
2.024070000000000107e+02 1.693400000000000105e+01 7.301500000000000057e+01 -2.233708253905131724e-01
2.024410000000000025e+02 -2.018599999999999994e+01 6.435500000000000398e+01 -1.577713846491967942e-01
2.024869999999999948e+02 -8.480000000000000426e+00 6.792499999999999716e+01 1.316621356358151640e-01
2.024960000000000093e+02 1.481000000000000050e+01 7.365999999999999659e+01 -2.246887217219138422e-01
2.025089999999999861e+02 5.059000000000000163e+00 5.412199999999999989e+01 1.746563445797940928e-01
2.025240000000000009e+02 -5.514999999999999680e+00 7.422499999999999432e+01 1.923461302470676482e-01
2.025300000000000011e+02 1.965700000000000003e+01 7.360999999999999943e+01 -2.025161797241337713e-01
2.025469999999999970e+02 -2.490000000000000213e+00 5.361500000000000199e+01 2.418939190854899335e-01
2.025589999999999975e+02 -2.640000000000000124e+00 7.449399999999999977e+01 -2.716572493444091574e-02
2.025720000000000027e+02 9.076000000000000512e+00 6.676600000000000534e+01 -1.512629490135235233e-01
2.025749999999999886e+02 -1.580999999999999961e+00 8.102200000000000557e+01 -4.459266178055247554e-02
2.025800000000000125e+02 -1.164600000000000080e+01 7.248699999999999477e+01 1.886957365636061923e-01
2.025819999999999936e+02 -2.806000000000000050e+00 8.125000000000000000e+01 -5.868363780421649578e-02
2.026080000000000041e+02 1.609799999999999898e+01 7.035399999999999920e+01 -1.675502564019780705e-01
2.026140000000000043e+02 1.171999999999999931e+00 5.342699999999999960e+01 2.807270464915349040e-01
2.026459999999999866e+02 -1.923600000000000065e+01 6.140400000000000347e+01 -1.809274329218941990e-01
2.026539999999999964e+02 -1.103100000000000058e+01 7.388299999999999557e+01 2.230123272714013560e-01
2.026649999999999920e+02 2.369000000000000217e+00 5.318399999999999750e+01 2.918596309395885546e-01
2.026730000000000018e+02 1.565799999999999947e+01 7.279699999999999704e+01 -2.229567539873327786e-01
2.026899999999999977e+02 8.435999999999999943e+00 7.346099999999999852e+01 -1.300572846076579192e-01
2.027119999999999891e+02 1.480100000000000016e+01 6.433599999999999852e+01 -1.457323379173620648e-01
2.027249999999999943e+02 9.555999999999999162e+00 6.814100000000000534e+01 -1.890591101489874915e-01
2.027259999999999991e+02 1.873000000000000043e+01 7.467600000000000193e+01 -2.168500952768798729e-01
2.027369999999999948e+02 1.379800000000000004e+01 5.921699999999999875e+01 -5.879095051589792315e-02
2.027489999999999952e+02 -1.620400000000000063e+01 6.175399999999999778e+01 -1.393865752082067977e-01
2.027529999999999859e+02 -1.827199999999999847e+01 6.853000000000000114e+01 -1.188087938914978159e-01
2.027669999999999959e+02 1.117500000000000071e+01 6.313199999999999790e+01 4.144953006544781215e-02
2.028120000000000118e+02 -2.971999999999999975e+00 6.905299999999999727e+01 -1.469064851972597952e-01
2.028300000000000125e+02 -5.033000000000000362e+00 5.004599999999999937e+01 -6.020061500305905200e-02
2.028530000000000086e+02 -2.718999999999999861e+00 6.476300000000000523e+01 5.468450662760872272e-02
2.028820000000000050e+02 -1.817399999999999949e+01 6.032699999999999818e+01 3.738082946902514248e-02
2.028859999999999957e+02 1.193200000000000038e+01 6.968800000000000239e+01 2.934832483205711967e-02
2.029019999999999868e+02 -1.757499999999999929e+01 6.735299999999999443e+01 -1.082161940501438491e-01
2.029060000000000059e+02 1.046599999999999930e+01 5.317099999999999937e+01 2.059945608289035501e-01
2.029290000000000020e+02 9.955000000000000071e+00 5.461899999999999977e+01 2.098739262740175471e-01
2.029590000000000032e+02 6.250000000000000000e-01 5.676500000000000057e+01 1.964289040977675593e-01
2.029619999999999891e+02 2.591000000000000192e+00 6.491800000000000637e+01 -9.367901675148202628e-03
2.030000000000000000e+02 8.003999999999999559e+00 6.049000000000000199e+01 -6.372954662462912423e-02
2.030020000000000095e+02 1.411800000000000033e+01 6.570999999999999375e+01 3.647967389040061154e-02
2.030020000000000095e+02 1.629599999999999937e+01 6.444299999999999784e+01 -8.311291297161582659e-02
2.030180000000000007e+02 -9.757999999999999119e+00 5.210300000000000153e+01 1.336171536317016517e-01
2.030320000000000107e+02 -6.536999999999999922e+00 4.393599999999999994e+01 -3.040437728747732993e-01
2.030660000000000025e+02 5.112000000000000099e+00 5.937500000000000000e+01 1.425381711955452657e-01
2.030949999999999989e+02 3.899999999999999994e-02 4.551299999999999812e+01 1.429561622930484444e-01
2.031299999999999955e+02 1.346999999999999975e+00 5.809100000000000108e+01 -3.586304598304555086e-02
2.031349999999999909e+02 -4.586000000000000298e+00 5.138000000000000256e+01 2.759012706120558267e-01
2.031579999999999870e+02 2.317000000000000171e+00 6.965500000000000114e+01 1.260594586462306377e-01
2.031829999999999927e+02 -5.314000000000000057e+00 7.321099999999999852e+01 -6.995824814271635328e-02
2.031939999999999884e+02 8.755000000000000782e+00 6.443300000000000693e+01 -2.618042646974866328e-02
2.032050000000000125e+02 1.528800000000000026e+01 7.143200000000000216e+01 -2.081570951836106964e-01
2.032259999999999991e+02 2.640000000000000124e-01 5.267699999999999960e+01 1.354322690913125071e-01
2.032299999999999898e+02 -6.378999999999999559e+00 7.209399999999999409e+01 -1.231297467757230119e-01
2.032319999999999993e+02 -1.326999999999999957e+00 5.046699999999999875e+01 5.927720999920269018e-03
2.032369999999999948e+02 -9.288999999999999702e+00 5.321300000000000097e+01 1.345867867789020678e-01
2.032400000000000091e+02 -5.785999999999999588e+00 7.077200000000000557e+01 -1.350701384116499426e-01
2.032800000000000011e+02 -2.003900000000000148e+01 5.857200000000000273e+01 -1.571498841223279430e-01
2.032870000000000061e+02 -1.383099999999999952e+01 6.119299999999999784e+01 1.588744106490744268e-01
2.032949999999999875e+02 -4.157000000000000028e+00 6.275300000000000011e+01 3.039321537106437487e-02
2.033060000000000116e+02 7.230999999999999872e+00 6.435200000000000387e+01 -3.117721076023560189e-01
2.033460000000000036e+02 7.229999999999999760e-01 4.674000000000000199e+01 1.858053486278128941e-01
2.033549999999999898e+02 -1.250799999999999912e+01 6.744199999999999307e+01 2.013124430426461442e-01
2.034110000000000014e+02 -5.220000000000000195e-01 5.662500000000000000e+01 2.360337267202043121e-01
2.034139999999999873e+02 -1.492600000000000016e+01 6.226299999999999812e+01 -3.815725945458200291e-02
2.034139999999999873e+02 3.738999999999999879e+00 6.581699999999999307e+01 -9.895179555933981963e-02
2.034230000000000018e+02 -1.693100000000000094e+01 6.085799999999999699e+01 -5.912170439556596602e-02
2.034710000000000036e+02 -2.051500000000000057e+01 6.326100000000000279e+01 -3.630301140309003527e-01
2.035010000000000048e+02 9.298000000000000043e+00 6.583700000000000330e+01 -8.565590412169121759e-02
2.035039999999999907e+02 -2.700000000000000178e-01 4.789300000000000068e+01 2.893012614299618201e-01
2.035120000000000005e+02 -1.800999999999999934e+00 5.997200000000000131e+01 3.377259176000894647e-01
2.035279999999999916e+02 -5.514999999999999680e+00 6.337400000000000233e+01 4.500000000000000666e-01
2.036100000000000136e+02 -1.944999999999999929e+01 6.228799999999999670e+01 -3.188907105147459342e-01
2.036100000000000136e+02 -1.236299999999999955e+01 6.606000000000000227e+01 2.091094996157973340e-01
2.036320000000000050e+02 -4.408000000000000362e+00 4.360999999999999943e+01 3.745022854510508814e-02
2.036339999999999861e+02 -3.483999999999999986e+00 8.131199999999999761e+01 -8.769083627308889295e-02
2.036349999999999909e+02 -1.729999999999999871e-01 5.031400000000000006e+01 -1.714610663996953693e-02
2.036450000000000102e+02 5.708999999999999631e+00 5.387199999999999989e+01 1.178592818678180221e-01
2.037160000000000082e+02 4.199999999999999845e-01 6.391299999999999670e+01 2.260623339607517046e-01
2.037299999999999898e+02 -1.249000000000000021e+01 6.175200000000000244e+01 2.001764265749287064e-01
2.037350000000000136e+02 -4.314000000000000057e+00 5.603499999999999659e+01 2.204988668920663045e-02
2.037439999999999998e+02 4.149999999999999800e-01 4.913100000000000023e+01 1.542510374307914378e-01
2.037560000000000002e+02 -8.493000000000000327e+00 6.828499999999999659e+01 1.045885440967864455e-01
2.037860000000000014e+02 -1.873900000000000077e+01 5.919200000000000017e+01 -1.516657662234361381e-01
2.038139999999999930e+02 3.290000000000000147e-01 6.670799999999999841e+01 4.029192606983192371e-02
2.038160000000000025e+02 -3.004999999999999893e+00 6.362299999999999756e+01 -2.264976369419016353e-02
2.038609999999999900e+02 1.060899999999999999e+01 6.302199999999999847e+01 1.361055789819216599e-01
2.038689999999999998e+02 -5.668000000000000149e+00 5.211999999999999744e+01 7.068108471641717898e-03
2.038689999999999998e+02 6.860000000000000320e+00 5.422999999999999687e+01 3.796539110874613820e-01
2.038700000000000045e+02 -6.264999999999999680e+00 7.750900000000000034e+01 -1.478668903212116414e-01
2.038890000000000100e+02 -4.206000000000000405e+00 7.305400000000000205e+01 -3.922068721723327711e-02
2.038909999999999911e+02 -1.232000000000000028e+01 7.212800000000000011e+01 1.543724577900539852e-01
2.039089999999999918e+02 -5.673000000000000043e+00 4.393399999999999750e+01 6.990795343696773467e-02
2.039180000000000064e+02 -3.270999999999999908e+00 7.418899999999999295e+01 1.637581772864420485e-02
2.039259999999999877e+02 -1.839099999999999824e+01 6.912399999999999523e+01 -1.334130147703844749e-01
2.039439999999999884e+02 9.009999999999999787e+00 7.282999999999999829e+01 1.800165870779927429e-02
2.039650000000000034e+02 1.135999999999999899e+00 7.336499999999999488e+01 6.856811852192491903e-03
2.039850000000000136e+02 1.016200000000000081e+01 7.244100000000000250e+01 3.152845244844668885e-03
2.039900000000000091e+02 -1.144699999999999918e+01 6.067799999999999727e+01 4.123742901479271472e-01
2.039979999999999905e+02 1.443599999999999994e+01 5.900600000000000023e+01 -5.740450923647739956e-02
2.040060000000000002e+02 -1.737999999999999989e+00 6.278600000000000136e+01 2.427576281878346676e-01
2.040120000000000005e+02 -1.351500000000000057e+01 7.225400000000000489e+01 1.568740077556406987e-01
2.040209999999999866e+02 -8.653000000000000469e+00 7.173300000000000409e+01 1.966514558135569468e-01
2.040329999999999870e+02 6.730000000000000426e-01 5.151200000000000045e+01 1.685066969938485704e-01
2.040989999999999895e+02 9.396000000000000796e+00 6.347099999999999653e+01 4.886086883535023517e-02
2.041270000000000095e+02 -1.331400000000000006e+01 6.823300000000000409e+01 4.953938183370339837e-02
2.041270000000000095e+02 1.572999999999999954e+00 6.469899999999999807e+01 2.026164949562493933e-01
2.041299999999999955e+02 9.967000000000000526e+00 5.238499999999999801e+01 2.178186588091619025e-01
2.041409999999999911e+02 -5.325999999999999623e+00 4.681900000000000261e+01 -2.044402524069134641e-01
2.041879999999999882e+02 -9.188000000000000611e+00 6.920799999999999841e+01 1.398167624041869450e-01
2.041910000000000025e+02 -4.810999999999999943e+00 7.783899999999999864e+01 -1.942411668063979413e-01
2.042259999999999991e+02 -1.734400000000000119e+01 6.722100000000000364e+01 -1.345365779439048060e-01
2.042299999999999898e+02 1.846199999999999974e+01 7.482599999999999341e+01 -2.169706371768073683e-01
2.042309999999999945e+02 -2.059600000000000009e+01 5.749199999999999733e+01 -1.619446220321483776e-01
2.042330000000000041e+02 6.770000000000000462e-01 7.215300000000000580e+01 -1.309632779318633811e-01
2.042400000000000091e+02 -5.322000000000000064e+00 5.648299999999999699e+01 2.431894226008786963e-01
2.042489999999999952e+02 1.610000000000000042e-01 7.428000000000000114e+01 -9.456756321469367288e-02
2.042719999999999914e+02 1.023300000000000054e+01 5.527199999999999847e+01 1.817327418859960297e-01
2.043029999999999973e+02 -1.668700000000000117e+01 6.422100000000000364e+01 2.456894064073907383e-02
2.044039999999999964e+02 -7.381999999999999673e+00 7.229600000000000648e+01 2.420690135007160515e-01
2.044219999999999970e+02 -8.788999999999999702e+00 5.357300000000000040e+01 5.946111389522344692e-02
2.044530000000000030e+02 -3.242999999999999883e+00 5.575399999999999778e+01 9.275204723143394558e-02
2.044730000000000132e+02 -2.455000000000000071e+00 4.745799999999999841e+01 2.020787530384901554e-01
2.044890000000000043e+02 -8.675000000000000711e+00 6.520699999999999363e+01 2.682191099954733815e-01
2.045440000000000111e+02 9.941000000000000725e+00 6.605800000000000693e+01 -5.217556879608949844e-02
2.045480000000000018e+02 -6.029999999999999805e-01 6.365699999999999648e+01 2.117278241186066334e-01
2.045500000000000114e+02 1.247799999999999976e+01 6.165400000000000347e+01 9.474103244420829795e-02
2.045589999999999975e+02 1.136200000000000010e+01 5.563199999999999790e+01 2.072711918180494828e-01
2.045709999999999980e+02 1.074999999999999956e+00 6.604800000000000182e+01 7.502236260492007973e-03
2.045840000000000032e+02 1.370000000000000107e+00 5.852799999999999869e+01 -5.052071917639113646e-02
2.045879999999999939e+02 1.711899999999999977e+01 6.095400000000000063e+01 5.078363501507167366e-02
2.046119999999999948e+02 -9.389999999999999458e-01 7.358700000000000330e+01 -7.040142659241491185e-02
2.046330000000000098e+02 -5.839999999999999636e-01 7.225900000000000034e+01 -2.348379640138147928e-01
2.046500000000000057e+02 -1.307799999999999940e+01 6.544100000000000250e+01 3.620700269960103190e-01
2.046550000000000011e+02 -1.937999999999999945e+00 6.042199999999999704e+01 3.572718845480080119e-01
2.046649999999999920e+02 6.769999999999999574e+00 6.434399999999999409e+01 3.605712762646431230e-02
2.046750000000000114e+02 -7.580000000000000071e+00 6.751699999999999591e+01 -2.678345034346228323e-02
2.046999999999999886e+02 -7.623999999999999666e+00 7.380400000000000205e+01 9.910345037819977276e-02
2.047050000000000125e+02 4.921999999999999709e+00 5.312299999999999756e+01 -1.987016942597063518e-01
2.047139999999999986e+02 -1.165000000000000036e+00 4.765200000000000102e+01 2.518059626518167060e-01
2.047239999999999895e+02 1.547600000000000087e+01 7.145799999999999841e+01 6.080825873289419370e-02
2.047620000000000005e+02 1.369599999999999973e+01 5.792799999999999727e+01 -1.782220344760755415e-01
2.047849999999999966e+02 1.451999999999999957e+01 6.035399999999999920e+01 4.360441696251085575e-02
2.047969999999999970e+02 -8.212999999999999190e+00 5.488400000000000034e+01 3.045745092912269802e-01
2.047980000000000018e+02 -1.517600000000000016e+01 6.263300000000000267e+01 -8.606411252045167298e-03
2.048139999999999930e+02 -2.089399999999999835e+01 6.386099999999999710e+01 -3.484882348596095580e-01
2.048369999999999891e+02 -1.783899999999999864e+01 6.834999999999999432e+01 -1.410317235729974805e-01
2.048689999999999998e+02 -1.153999999999999915e+01 7.168699999999999761e+01 -1.474683041221178624e-02
2.048750000000000000e+02 -8.647999999999999687e+00 7.780700000000000216e+01 5.905115222766850816e-03
2.048880000000000052e+02 -7.185999999999999943e+00 7.821999999999999886e+01 -1.451862864873763592e-01
2.049590000000000032e+02 -1.989000000000000101e+00 6.170499999999999829e+01 6.015388192549089158e-02
2.049710000000000036e+02 8.186999999999999389e+00 7.270300000000000296e+01 2.779804659082973396e-03
2.049720000000000084e+02 1.153100000000000058e+01 6.963299999999999557e+01 1.348589766675462875e-01
2.050360000000000014e+02 -2.269000000000000128e+00 7.405899999999999750e+01 4.349500011325178883e-02
2.050560000000000116e+02 1.131700000000000017e+01 6.238799999999999812e+01 -1.077994885386985846e-01
2.050560000000000116e+02 1.687800000000000011e+01 7.167100000000000648e+01 7.403842845129625372e-02
2.050850000000000080e+02 9.195999999999999730e+00 5.543299999999999983e+01 3.311793082249638309e-01
2.050910000000000082e+02 -4.649000000000000021e+00 4.643900000000000006e+01 -6.209584962054846141e-02
2.050989999999999895e+02 -8.002000000000000668e+00 5.864999999999999858e+01 1.503179066029876609e-01
2.051299999999999955e+02 -2.000300000000000011e+01 6.489000000000000057e+01 -1.686683477103682050e-01
2.051339999999999861e+02 -1.603200000000000003e+01 6.359799999999999898e+01 4.817670907710574352e-02
2.051779999999999973e+02 -1.400900000000000034e+01 6.762600000000000477e+01 -2.801798241539080747e-01
2.052390000000000043e+02 -9.173000000000000043e+00 6.396900000000000119e+01 3.802310910476405792e-01
2.052690000000000055e+02 -5.871999999999999886e+00 5.998899999999999721e+01 2.363249471714220784e-01
2.053360000000000127e+02 1.322799999999999976e+01 6.088600000000000279e+01 9.799786354205317074e-02
2.053820000000000050e+02 -5.972000000000000419e+00 4.438499999999999801e+01 7.912745466841762665e-02
2.054259999999999877e+02 -8.289999999999999147e+00 6.637300000000000466e+01 -4.945162588038616580e-02
2.054490000000000123e+02 -1.390900000000000070e+01 6.623099999999999454e+01 5.561997379071041692e-02
2.054660000000000082e+02 3.979000000000000092e+00 5.408200000000000074e+01 3.072293172045824083e-01
2.054929999999999950e+02 3.597999999999999865e+00 6.178600000000000136e+01 2.791084544807089785e-01
2.055060000000000002e+02 1.280599999999999916e+01 6.843200000000000216e+01 1.269568120392007282e-01
2.055240000000000009e+02 -8.808999999999999275e+00 5.263100000000000023e+01 1.310336753953633138e-01
2.055329999999999870e+02 4.889999999999999902e-01 5.178499999999999659e+01 1.083546233182423879e-01
2.055449999999999875e+02 -2.289000000000000146e+00 5.813100000000000023e+01 1.532421145631035209e-01
2.055509999999999877e+02 -3.426000000000000156e+00 4.723899999999999721e+01 -1.586530958594535301e-01
2.055620000000000118e+02 -3.943999999999999950e+00 7.083499999999999375e+01 -2.759410301914677621e-02
2.055929999999999893e+02 1.971999999999999975e+00 5.752900000000000347e+01 1.490746813071450461e-01
2.055970000000000084e+02 -7.413000000000000256e+00 4.496600000000000108e+01 1.395291938610751514e-01
2.055999999999999943e+02 -2.088899999999999935e+01 5.798100000000000165e+01 -1.667532759792209329e-01
2.056040000000000134e+02 5.881000000000000227e+00 5.247999999999999687e+01 2.458203985285472570e-01
2.056289999999999907e+02 -7.001000000000000334e+00 6.845099999999999341e+01 -3.591516468764892334e-02
2.056459999999999866e+02 3.475999999999999979e+00 5.767399999999999949e+01 1.164240033841399125e-01
2.056469999999999914e+02 1.676099999999999923e+01 6.050099999999999767e+01 -2.867261554486630892e-01
2.056850000000000023e+02 -6.640000000000000346e-01 6.410999999999999943e+01 2.339803726285363261e-01
2.057390000000000043e+02 5.929999999999999716e+00 6.179099999999999682e+01 -8.129134709622395927e-02
2.057520000000000095e+02 4.828000000000000291e+00 5.049399999999999977e+01 2.856154429590164814e-02
2.057849999999999966e+02 1.445999999999999952e+00 6.646800000000000352e+01 3.618194695472227301e-02
2.057930000000000064e+02 -4.934999999999999609e+00 4.534199999999999875e+01 -3.611887540260402644e-03
2.057980000000000018e+02 -1.603099999999999881e+01 5.969700000000000273e+01 2.408524009190863846e-01
2.058120000000000118e+02 -5.040000000000000036e+00 6.734900000000000375e+01 1.601464603735369141e-01
2.058340000000000032e+02 -6.760000000000000453e-01 4.761099999999999710e+01 2.323414361997286903e-01
2.058739999999999952e+02 1.549300000000000033e+01 6.022800000000000153e+01 -3.147752058147006982e-01
2.058750000000000000e+02 -2.029999999999999805e+00 5.950099999999999767e+01 1.399997275908360927e-01
2.059070000000000107e+02 9.686999999999999389e+00 5.835399999999999920e+01 1.289674024270748287e-01
2.059099999999999966e+02 -3.197999999999999954e+00 5.590999999999999659e+01 1.584609153542754778e-01
2.059339999999999975e+02 -1.232600000000000051e+01 5.672699999999999676e+01 1.692907480799006326e-01
2.059559999999999889e+02 -1.103599999999999959e+01 5.341299999999999670e+01 1.107900117224537018e-01
2.059650000000000034e+02 -6.815000000000000391e+00 5.899099999999999966e+01 1.927476638760122485e-01
2.060329999999999870e+02 5.772999999999999687e+00 5.123700000000000188e+01 2.418515400300116566e-02
2.060600000000000023e+02 2.335999999999999854e+00 6.181199999999999761e+01 3.123562937281241236e-01
2.060709999999999980e+02 1.174399999999999977e+01 6.349600000000000222e+01 1.498027442781206531e-02
2.060730000000000075e+02 -1.489799999999999969e+01 6.817100000000000648e+01 -2.708616232934092372e-01
2.060780000000000030e+02 -3.859999999999999876e+00 4.859100000000000108e+01 -4.383720811578719484e-02
2.061059999999999945e+02 7.892999999999999794e+00 4.995900000000000318e+01 6.454531192745580070e-02
2.061080000000000041e+02 -1.021299999999999919e+01 5.249900000000000233e+01 1.466552982434476682e-01
2.061450000000000102e+02 2.240000000000000213e+00 6.968500000000000227e+01 -8.414439375290869161e-02
2.061490000000000009e+02 9.769999999999999796e-01 5.338400000000000034e+01 1.238622460893052113e-01
2.061589999999999918e+02 7.342999999999999972e+00 5.747800000000000153e+01 2.488361967149964882e-01
2.061630000000000109e+02 -5.799000000000000377e+00 6.825799999999999557e+01 1.720743494653808325e-01
2.061659999999999968e+02 -1.209900000000000020e+01 7.129600000000000648e+01 -7.092610622209521987e-02
2.061800000000000068e+02 -9.493999999999999773e+00 6.688599999999999568e+01 5.799175268344650830e-02
2.062690000000000055e+02 -7.956000000000000405e+00 5.474699999999999989e+01 1.214679534077583722e-01
2.063079999999999927e+02 -1.833399999999999963e+01 6.206499999999999773e+01 -2.348534643832553004e-01
2.063120000000000118e+02 4.708000000000000185e+00 6.175699999999999790e+01 2.685835303373633812e-02
2.063340000000000032e+02 -3.032000000000000028e+00 5.735699999999999932e+01 1.693569365731997789e-01
2.063400000000000034e+02 -2.464999999999999858e+00 5.363100000000000023e+01 4.669224196038662678e-02
2.063429999999999893e+02 1.870499999999999829e+01 5.914300000000000068e+01 -2.281440554856551672e-01
2.063480000000000132e+02 -2.011000000000000121e+00 7.011400000000000432e+01 -2.451021499352804833e-01
2.063779999999999859e+02 -3.250999999999999890e+00 7.017700000000000671e+01 -1.110250493027841456e-01
2.063799999999999955e+02 8.910000000000000142e-01 6.771800000000000352e+01 1.125688527690105606e-01
2.064480000000000075e+02 9.310000000000000497e+00 5.591799999999999926e+01 2.984209758857384043e-01
2.064790000000000134e+02 -2.071000000000000174e+00 5.501200000000000045e+01 8.399566146165556024e-02
2.064859999999999900e+02 1.294100000000000072e+01 6.066100000000000136e+01 -2.900526670438530186e-01
2.065440000000000111e+02 -7.878999999999999559e+00 5.327400000000000091e+01 -2.155753483761102540e-01
2.065469999999999970e+02 -1.475999999999999979e+01 6.595399999999999352e+01 5.610202104542662271e-02
2.066279999999999859e+02 8.773999999999999133e+00 5.735399999999999920e+01 2.079271466270833923e-01
2.066440000000000055e+02 -1.621199999999999974e+01 6.386399999999999721e+01 1.060178663879435546e-01
2.067439999999999998e+02 1.778500000000000014e+01 6.029099999999999682e+01 -2.489573194318165650e-01
2.067460000000000093e+02 2.983000000000000096e+00 5.326200000000000045e+01 1.130698002887938064e-01
2.067680000000000007e+02 -2.036799999999999855e+01 5.754299999999999926e+01 2.767753597268255913e-02
2.067719999999999914e+02 -1.044800000000000040e+01 5.138700000000000045e+01 -2.482986861037169424e-01
2.068079999999999927e+02 2.075400000000000134e+01 5.782000000000000028e+01 -3.561992653038769108e-01
2.068100000000000023e+02 2.008000000000000007e+00 6.865999999999999659e+01 1.442346880575053336e-01
2.068410000000000082e+02 -9.590999999999999304e+00 4.682999999999999829e+01 -2.558046191376836531e-01
2.068509999999999991e+02 -1.947400000000000020e+01 5.654200000000000159e+01 -1.419407186621079661e-02
2.068710000000000093e+02 1.545599999999999952e+01 6.457399999999999807e+01 -2.682462914819997574e-02
2.068739999999999952e+02 9.451000000000000512e+00 6.360799999999999699e+01 -1.197228554825914282e-01
2.068789999999999907e+02 7.722000000000000419e+00 5.411099999999999710e+01 3.646491216103833061e-02
2.069019999999999868e+02 -1.534900000000000020e+01 6.717000000000000171e+01 -2.800195051875807306e-01
2.069190000000000111e+02 8.987999999999999545e+00 4.967900000000000205e+01 -1.948911378013978568e-01
2.069230000000000018e+02 -1.556300000000000061e+01 5.950500000000000256e+01 2.698821150085212728e-01
2.069240000000000066e+02 -1.189000000000000057e+01 4.880499999999999972e+01 -2.258773151422212577e-01
2.069339999999999975e+02 6.900000000000000355e+00 5.075900000000000034e+01 7.656811040338382113e-02
2.069350000000000023e+02 -1.116000000000000014e+01 7.035800000000000409e+01 8.655539229876279758e-03
2.069629999999999939e+02 -1.347400000000000020e+01 6.145000000000000284e+01 3.712788296441904556e-01
2.069730000000000132e+02 1.397999999999999909e+00 5.775099999999999767e+01 4.360363859624050847e-02
2.069739999999999895e+02 -1.241399999999999970e+01 7.256199999999999761e+01 -3.581224025277337519e-01
2.069780000000000086e+02 1.061999999999999922e+01 6.400000000000000000e+01 -2.092720823738118685e-03
2.070080000000000098e+02 1.275600000000000023e+01 6.811700000000000443e+01 9.179144280082188190e-02
2.070480000000000018e+02 -1.417800000000000082e+01 5.882699999999999818e+01 2.008691662444767323e-01
2.070660000000000025e+02 -7.849999999999999645e+00 4.517000000000000171e+01 -6.973831682010980804e-02
2.071220000000000141e+02 -1.747200000000000131e+01 6.181600000000000250e+01 -2.374624543127437093e-01
2.071649999999999920e+02 1.996600000000000108e+01 5.907999999999999829e+01 -3.529276587390710040e-01
2.071990000000000123e+02 -1.498000000000000043e+01 6.460899999999999466e+01 3.588307071910432772e-02
2.072330000000000041e+02 -1.152699999999999925e+01 7.336299999999999955e+01 -3.572536950703646963e-01
2.072439999999999998e+02 -9.323999999999999844e+00 4.560799999999999699e+01 6.664947214234454020e-02
2.072649999999999864e+02 -1.303800000000000026e+01 5.653099999999999881e+01 1.016515213077835433e-01
2.072659999999999911e+02 -5.431000000000000050e+00 6.925600000000000023e+01 -1.974616803560362566e-03
2.073060000000000116e+02 -1.433999999999999986e+01 5.733200000000000074e+01 5.460551424377255852e-02
2.073580000000000041e+02 -1.642200000000000060e+01 6.261699999999999733e+01 1.237905202199312271e-01
2.073600000000000136e+02 -7.227999999999999758e+00 5.951700000000000301e+01 1.368040899704630331e-01
2.073609999999999900e+02 1.507799999999999940e+01 6.766299999999999670e+01 2.905703173553976226e-01
2.073640000000000043e+02 -3.573999999999999844e+00 5.776899999999999835e+01 1.457945287575168059e-01
2.073669999999999902e+02 8.541999999999999815e+00 5.494299999999999784e+01 4.631269381633304483e-02
2.073799999999999955e+02 1.392200000000000060e+01 6.722199999999999420e+01 2.969471681266330210e-01
2.073899999999999864e+02 -1.367099999999999937e+01 7.270600000000000307e+01 -3.525217107675732153e-01
2.074250000000000114e+02 -4.508000000000000007e+00 4.871500000000000341e+01 -2.490746346275804213e-01
2.074290000000000020e+02 2.149000000000000021e+00 6.177300000000000324e+01 3.901666369185970429e-01
2.074720000000000084e+02 -3.939000000000000057e+00 6.937699999999999534e+01 -2.120412287159378906e-01
2.075240000000000009e+02 -1.334500000000000064e+01 5.506400000000000006e+01 1.311435970273295282e-01
2.075440000000000111e+02 1.506300000000000061e+01 5.561099999999999710e+01 -1.589965041300558934e-01
2.075500000000000114e+02 -7.099999999999999367e-02 6.745199999999999818e+01 2.635579352141871265e-02
2.075800000000000125e+02 -2.896999999999999797e+00 7.535800000000000409e+01 -2.592620243110805300e-01
2.075819999999999936e+02 -1.163799999999999990e+01 5.118299999999999983e+01 2.691581040914982001e-02
2.075840000000000032e+02 -3.729999999999999982e+00 6.581499999999999773e+01 5.542233271578819037e-02
2.076310000000000002e+02 -4.847999999999999865e+00 5.017799999999999727e+01 -9.761488877848378820e-02
2.076759999999999877e+02 -4.213000000000000078e+00 6.446500000000000341e+01 5.743252486660315251e-03
2.076850000000000023e+02 4.549999999999999822e+00 6.168200000000000216e+01 2.614413931876112193e-02
2.077059999999999889e+02 1.360699999999999932e+01 6.598399999999999466e+01 -6.001131910135287795e-02
2.077230000000000132e+02 -4.224000000000000199e+00 7.503700000000000614e+01 -2.789478813947596225e-01
2.077309999999999945e+02 -5.219000000000000306e+00 7.602700000000000102e+01 1.351522195124671977e-01
2.077620000000000005e+02 -1.019599999999999973e+01 4.487199999999999989e+01 -2.474731098096244752e-01
2.077849999999999966e+02 -9.513999999999999346e+00 5.894899999999999807e+01 1.937561753499803530e-01
2.077930000000000064e+02 1.296400000000000041e+01 6.932699999999999818e+01 1.345826974736098747e-01
2.078040000000000020e+02 -3.446000000000000174e+00 6.147299999999999898e+01 1.557241956860793697e-01
2.078300000000000125e+02 -4.554999999999999716e+00 7.371200000000000330e+01 -2.916243111650435593e-01
2.078309999999999889e+02 1.092300000000000004e+01 6.487600000000000477e+01 7.535739019048154352e-02
2.078389999999999986e+02 2.182799999999999940e+01 5.749799999999999756e+01 -3.585841282226394089e-01
2.078449999999999989e+02 2.759999999999999787e+00 6.830299999999999727e+01 1.334544357037588946e-01
2.078499999999999943e+02 -1.297400000000000020e+01 6.075600000000000023e+01 1.328765106013686803e-01
2.078820000000000050e+02 -6.538999999999999702e+00 7.564499999999999602e+01 -8.124392472407840349e-02
2.078930000000000007e+02 -1.753399999999999892e+01 6.048299999999999699e+01 -3.227065152629404743e-02
2.079050000000000011e+02 -2.076300000000000168e+01 5.813499999999999801e+01 1.374488167422572259e-02
2.079219999999999970e+02 -1.804000000000000048e+00 5.529099999999999682e+01 -1.773752300306151164e-01
2.079629999999999939e+02 1.536599999999999966e+01 5.675099999999999767e+01 -1.494946055958821518e-01
2.079790000000000134e+02 -1.187199999999999989e+01 6.955599999999999739e+01 -3.471472219758470756e-01
2.079859999999999900e+02 -8.346999999999999531e+00 5.866599999999999682e+01 1.923684094902749775e-01
2.079859999999999900e+02 -5.881999999999999673e+00 7.335200000000000387e+01 -1.980326501811486284e-01
2.080080000000000098e+02 -1.169599999999999973e+01 4.972599999999999909e+01 -2.323202924280602100e-01
2.080080000000000098e+02 -6.884000000000000341e+00 7.429600000000000648e+01 -7.887079194574685148e-02
2.080089999999999861e+02 -1.103400000000000070e+01 6.229800000000000182e+01 3.866587556894064415e-01
2.080109999999999957e+02 -6.400000000000000133e-01 6.868699999999999761e+01 -2.834197425040692608e-01
2.080190000000000055e+02 7.660000000000000142e-01 6.184100000000000108e+01 1.276010669220202509e-01
2.080229999999999961e+02 -1.331700000000000017e+01 5.947599999999999909e+01 1.268242906942298187e-01
