-1.435999999999999943e+01 4.368999999999999773e+00 -1.201600000000000001e+01 -2.535218786061928520e-01
-1.434200000000000053e+01 -1.801300000000000168e+01 -2.334400000000000119e+01 -3.004251554285894965e-01
-1.433999999999999986e+01 -1.697599999999999909e+01 -2.436599999999999966e+01 -2.375370916101993968e-01
-1.432199999999999918e+01 -1.698499999999999943e+01 -1.826300000000000168e+01 3.121665121344884344e-02
-1.430400000000000027e+01 -1.534800000000000075e+01 -3.794999999999999929e+00 5.513227510078231447e-02
-1.423799999999999955e+01 -1.815299999999999869e+01 -1.747599999999999909e+01 1.883311322455098399e-02
-1.422000000000000064e+01 -2.222800000000000153e+01 -7.960000000000000409e-01 -2.465258227681988712e-01
-1.419899999999999984e+01 -2.524299999999999855e+01 -1.033300000000000018e+01 -2.517042647015551582e-01
-1.415700000000000003e+01 -1.210800000000000054e+01 -3.032999999999999829e+01 1.479988689643380595e-01
-1.413700000000000045e+01 -1.978900000000000148e+01 -4.709999999999999742e-01 -2.454616505179127439e-01
-1.411700000000000088e+01 3.733999999999999986e+00 -5.525000000000000355e+00 -1.309713581105480529e-01
-1.409699999999999953e+01 -1.933000000000000052e+00 -2.567000000000000171e+00 -5.655694783170624879e-02
-1.409500000000000064e+01 -1.134999999999999964e+01 -2.776500000000000057e+01 2.906092409068627980e-02
-1.407099999999999973e+01 -1.277999999999999936e+01 -2.007600000000000051e+01 1.648389188417765661e-01
-1.406499999999999950e+01 -3.334000000000000075e+00 -1.995299999999999940e+01 -1.026785381463664326e-01
-1.404299999999999926e+01 -1.621699999999999875e+01 -2.666499999999999915e+01 1.605263578615482301e-01
-1.403299999999999947e+01 -1.733699999999999974e+01 -1.260100000000000087e+01 -1.417516210331703219e-01
-1.401800000000000068e+01 -7.038000000000000256e+00 -2.863599999999999923e+01 1.229116443487051624e-01
-1.396499999999999986e+01 -1.235000000000000098e+00 -1.815200000000000102e+01 5.773998637668569661e-03
-1.395899999999999963e+01 6.754999999999999893e+00 -1.283999999999999986e+01 -1.515064172394549047e-01
-1.393800000000000061e+01 -1.285299999999999976e+01 -2.160099999999999909e+01 1.362760419724948768e-01
-1.393200000000000038e+01 -7.599999999999999811e-02 -1.722500000000000142e+01 1.468136305907367656e-01
-1.391699999999999982e+01 -4.365999999999999659e+00 -2.335999999999999854e+00 -6.479515075749417430e-02
-1.387199999999999989e+01 -6.022000000000000242e+00 -1.345199999999999996e+01 1.466066601970354433e-01
-1.386899999999999977e+01 -2.051800000000000068e+01 8.429999999999999716e-01 -3.187848249675379053e-01
-1.384699999999999953e+01 -1.725499999999999901e+01 -2.557600000000000051e+01 -2.753178661589536502e-01
-1.381199999999999939e+01 -1.512899999999999956e+01 -7.386999999999999567e+00 2.011644934294866058e-02
-1.375900000000000034e+01 -1.790000000000000036e+00 -2.430199999999999960e+01 8.159749440677471072e-03
-1.375500000000000078e+01 -1.754599999999999937e+01 -8.028999999999999915e+00 2.807348232692885581e-02
-1.371899999999999942e+01 -5.964999999999999858e+00 -2.809799999999999898e+01 -2.086454228064427326e-03
-1.369299999999999962e+01 -1.538000000000000078e+01 -5.910999999999999588e+00 -2.631145018675015157e-01
-1.366699999999999982e+01 1.890000000000000013e-01 -2.871399999999999864e+01 -5.993986654715094398e-02
-1.365300000000000047e+01 -2.262000000000000011e+00 -5.235999999999999766e+00 -5.683716162088640889e-02
-1.364300000000000068e+01 -6.950999999999999623e+00 -2.583699999999999974e+01 2.320488719049194626e-01
-1.362800000000000011e+01 -1.970499999999999829e+01 -5.352999999999999758e+00 -2.789863866777668178e-01
-1.358600000000000030e+01 -4.698000000000000398e+00 -2.892999999999999972e+01 9.074788241238146425e-02
-1.357699999999999996e+01 -1.604999999999999982e+00 -9.733000000000000540e+00 -1.294509603946614185e-01
-1.357399999999999984e+01 -1.971499999999999986e+01 -6.865000000000000213e+00 -2.560211764912060373e-01
-1.356300000000000061e+01 -1.088199999999999967e+01 -4.006999999999999673e+00 -1.635165621732511121e-01
-1.355100000000000016e+01 -3.177999999999999936e+00 -1.868999999999999995e+00 -6.228165982411186519e-02
-1.351299999999999990e+01 -1.041200000000000081e+01 -2.873999999999999844e+01 1.353948564036689672e-01
-1.349200000000000088e+01 -1.109299999999999997e+01 -3.011199999999999832e+01 1.814017219667128367e-01
-1.348300000000000054e+01 -2.563200000000000145e+01 -4.067999999999999616e+00 1.099758897146413394e-01
-1.347799999999999976e+01 -3.540999999999999925e+00 -1.870700000000000074e+01 1.841485574314736251e-01
-1.346700000000000053e+01 -5.847999999999999865e+00 -2.679200000000000159e+01 -9.648096665345001766e-02
-1.345100000000000051e+01 -1.083399999999999963e+01 -1.135800000000000054e+01 2.034838472848475299e-01
-1.344500000000000028e+01 -2.184199999999999875e+01 -9.528999999999999915e+00 -2.545853323088330677e-01
-1.343099999999999916e+01 -2.475999999999999979e+00 -1.779200000000000159e+01 1.613126232395325765e-01
-1.339499999999999957e+01 -2.189300000000000068e+01 4.560000000000000164e-01 -3.260571647990403998e-01
-1.339199999999999946e+01 -5.615999999999999659e+00 -1.802999999999999936e+00 1.509274615751732829e-01
-1.336100000000000065e+01 -8.910000000000000142e+00 -5.158999999999999808e+00 1.794927488936596816e-01
-1.335200000000000031e+01 5.352999999999999758e+00 -1.260299999999999976e+01 -2.780122787758062541e-01
-1.333300000000000018e+01 1.197999999999999954e+00 -1.784600000000000009e+01 1.849554242352764999e-01
-1.331700000000000017e+01 -1.935000000000000053e+00 -2.575799999999999912e+01 -1.335781053595414512e-02
-1.330599999999999916e+01 -8.149999999999999467e-01 -2.649200000000000088e+01 -4.469569019357072515e-02
-1.326299999999999990e+01 -1.187400000000000055e+01 -3.060999999999999943e+00 2.680687837754113304e-02
-1.325699999999999967e+01 -7.155999999999999694e+00 -7.041999999999999815e+00 2.591211433235455774e-01
-1.323499999999999943e+01 -2.170100000000000051e+01 -1.082699999999999996e+01 -2.663377325254477346e-01
-1.322000000000000064e+01 4.815000000000000391e+00 -1.502800000000000047e+01 -1.775092494953142697e-01
-1.320899999999999963e+01 -1.828200000000000003e+01 -2.581099999999999994e+01 -2.551110694954334956e-01
-1.320500000000000007e+01 -1.648100000000000165e+01 -1.893199999999999861e+01 1.017190759238170844e-01
-1.317500000000000071e+01 -1.574600000000000044e+01 -9.648999999999999133e+00 -1.411245460298175824e-01
-1.311700000000000088e+01 -1.593099999999999916e+01 -3.861000000000000210e+00 -1.428210549019631459e-01
-1.310800000000000054e+01 -1.617699999999999960e+01 -8.252000000000000668e+00 -2.732581270500095832e-02
-1.310100000000000087e+01 -1.388100000000000023e+01 -2.784799999999999898e+01 -9.698401335837776582e-02
-1.305599999999999916e+01 1.842000000000000082e+00 -1.554100000000000037e+01 1.436556170221343041e-02
-1.305199999999999960e+01 -1.919099999999999895e+01 -2.144999999999999929e+01 -1.025673272418958504e-01
-1.305100000000000016e+01 -1.841400000000000148e+01 -7.296000000000000263e+00 -2.436549189092971912e-01
-1.303999999999999915e+01 2.200000000000000178e+00 -1.672899999999999920e+01 2.541190096901929651e-01
-1.301500000000000057e+01 -1.812500000000000000e+01 -2.258200000000000074e+01 -1.559048282205213742e-01
-1.301500000000000057e+01 -9.471000000000000085e+00 -1.887000000000000099e+01 2.078882513043434077e-01
-1.301399999999999935e+01 -2.658899999999999864e+01 3.149999999999999911e+00 -2.732772804166852532e-01
-1.300300000000000011e+01 -2.554299999999999926e+01 -1.009600000000000009e+01 -1.097865394308636111e-01
-1.299099999999999966e+01 -1.877799999999999869e+01 -1.737399999999999878e+01 -1.754826628433452940e-01
-1.298700000000000010e+01 7.794999999999999929e+00 -1.341600000000000037e+01 -1.467403177477979714e-01
-1.298600000000000065e+01 -3.036999999999999922e+00 -2.619900000000000162e+01 -4.233530911532763438e-03
-1.298499999999999943e+01 -1.175300000000000011e+01 -2.210699999999999932e+01 3.651240063360922661e-01
-1.293500000000000050e+01 -7.591000000000000192e+00 -2.034400000000000119e+01 1.513168609214233240e-01
-1.291000000000000014e+01 4.004999999999999893e+00 -1.844399999999999906e+01 -6.882289720491942264e-02
-1.286899999999999977e+01 -6.362000000000000099e+00 -9.711000000000000298e+00 3.389270848715821849e-01
-1.285699999999999932e+01 -7.549999999999999822e+00 -5.621000000000000441e+00 1.482191042955901539e-01
-1.284200000000000053e+01 -2.661000000000000032e+00 -8.913000000000000256e+00 -1.917116074287037730e-01
-1.283200000000000074e+01 -1.600700000000000145e+01 -1.438599999999999923e+01 1.888787088220154897e-01
-1.282600000000000051e+01 3.466000000000000192e+00 -1.707600000000000051e+01 -8.702504596972324147e-02
-1.280799999999999983e+01 -7.530000000000000027e-01 -2.786400000000000077e+01 -7.403142942113831448e-02
-1.280300000000000082e+01 -5.009000000000000341e+00 -3.012699999999999889e+01 -1.203543452419025828e-01
-1.280199999999999960e+01 -9.685000000000000497e+00 -4.112000000000000099e+00 1.220030177781526171e-01
-1.276600000000000001e+01 -7.083000000000000185e+00 -1.349000000000000021e+01 1.778393847013833851e-01
-1.276600000000000001e+01 -3.056000000000000050e+00 -9.200000000000000400e-01 1.628765444526998896e-01
-1.276200000000000045e+01 -1.605499999999999972e+01 -2.733999999999999986e+01 -9.422701766218768982e-02
-1.275999999999999979e+01 -2.593799999999999883e+01 -1.764000000000000012e+00 -1.546880247201214975e-01
-1.275999999999999979e+01 -7.825000000000000178e+00 -1.223399999999999999e+01 3.689819540221240257e-01
-1.275699999999999967e+01 -2.513800000000000168e+01 -2.822000000000000064e+00 -2.224744983849736291e-01
-1.273900000000000077e+01 -2.633200000000000074e+01 6.500000000000000222e-01 -3.166238814876048274e-02
-1.273199999999999932e+01 -1.106300000000000061e+01 -3.241799999999999926e+01 -1.963803235681880199e-01
-1.272600000000000087e+01 -1.658800000000000097e+01 -1.298000000000000043e+01 -1.492464712307569330e-01
-1.272199999999999953e+01 -1.597799999999999976e+01 -5.176000000000000156e+00 8.472556595647377786e-02
-1.271799999999999997e+01 -1.053299999999999947e+01 -3.105300000000000082e+01 -2.042362436281404126e-01
-1.269299999999999962e+01 4.823000000000000398e+00 -1.379899999999999949e+01 -3.030903883156191303e-01
-1.267800000000000082e+01 -2.084900000000000020e+01 -7.350999999999999979e+00 -2.500388766571250421e-01
-1.264799999999999969e+01 -2.095499999999999829e+01 -8.839000000000000412e+00 -3.323851928307530734e-01
-1.260800000000000054e+01 -1.998900000000000077e+01 -4.693999999999999950e+00 -1.662493230543389267e-01
-1.259600000000000009e+01 -1.119400000000000084e+01 -8.032000000000000028e+00 -6.399617687922272424e-02
-1.257600000000000051e+01 -2.033999999999999808e+00 -2.335000000000000142e+01 1.784545349155577942e-02
-1.251600000000000001e+01 -2.617399999999999949e+01 4.519999999999999574e+00 -2.751410443828667951e-01
-1.250600000000000023e+01 -7.174999999999999822e+00 -3.162399999999999878e+01 -1.302602197013558727e-01
-1.250300000000000011e+01 -9.833999999999999631e+00 -1.087400000000000055e+01 2.933441936350909551e-01
-1.247499999999999964e+01 -8.476000000000000867e+00 -2.414399999999999835e+01 3.772161720090082548e-01
-1.247100000000000009e+01 -2.589199999999999946e+01 -5.190999999999999837e+00 1.507004439399032246e-02
-1.243299999999999983e+01 -1.550300000000000011e+01 -1.194899999999999984e+01 -1.785960847392586981e-01
-1.242800000000000082e+01 -1.327699999999999925e+01 -3.329399999999999693e+01 -1.564080467118274531e-01
-1.239100000000000001e+01 -7.165000000000000036e+00 -2.495299999999999940e+01 2.148159927334004071e-01
-1.235399999999999920e+01 -1.486100000000000065e+01 -2.776899999999999835e+01 -9.335274858631874284e-02
-1.235200000000000031e+01 -6.100999999999999979e+00 -7.514000000000000234e+00 2.177401959378141016e-01
-1.235100000000000087e+01 -2.073100000000000165e+01 -1.100300000000000011e+01 -5.036837239081694978e-02
-1.228700000000000081e+01 -8.605999999999999872e+00 -1.967200000000000060e+01 -2.637734940642268849e-02
-1.227599999999999980e+01 -1.611499999999999844e+01 -1.056099999999999994e+01 -8.476534737917301721e-02
-1.224600000000000044e+01 4.426999999999999602e+00 -1.612500000000000000e+01 -3.484638232519678414e-01
-1.222400000000000020e+01 -5.801999999999999602e+00 -8.819000000000000838e+00 3.302936277026725653e-01
-1.222100000000000009e+01 -2.402799999999999869e+01 -2.826000000000000068e+00 -2.348295674631007413e-01
-1.218800000000000061e+01 -1.164499999999999957e+01 -2.228000000000000203e+00 -1.011548158953373411e-01
-1.216999999999999993e+01 -1.287800000000000011e+01 -1.289700000000000024e+01 3.526065298040761964e-01
-1.216499999999999915e+01 -9.012000000000000455e+00 -1.212299999999999933e+01 3.359781190103970916e-01
-1.211800000000000033e+01 -2.603600000000000136e+01 2.008999999999999897e+00 -2.595208761856566682e-01
-1.211800000000000033e+01 -9.951000000000000512e+00 -2.831299999999999883e+01 1.452732605717161340e-01
-1.211800000000000033e+01 9.559999999999999609e-01 -1.865599999999999881e+01 1.314959690210087129e-01
-1.209900000000000020e+01 -5.979000000000000092e+00 -2.401999999999999957e+01 -2.268977004346953499e-02
-1.208799999999999919e+01 -1.007799999999999940e+01 -3.339500000000000313e+01 -1.758560565488035410e-01
-1.206700000000000017e+01 -2.561100000000000065e+01 -5.170000000000000151e-01 -8.396316549904617177e-02
-1.201699999999999946e+01 -1.240300000000000047e+01 -3.251500000000000057e+01 -1.653206900437954041e-01
-1.200300000000000011e+01 -3.525999999999999801e+00 -9.827999999999999403e+00 -1.080728279172829820e-01
-1.198300000000000054e+01 -1.714099999999999824e+01 -1.885000000000000142e+01 -1.087630098765455938e-01
-1.198199999999999932e+01 -2.023499999999999943e+01 -9.778000000000000469e+00 -1.747800073348430502e-02
-1.196199999999999974e+01 -1.997999999999999998e+00 -7.844000000000000306e+00 -1.434280165577991317e-01
-1.195299999999999940e+01 -2.021399999999999864e+01 -2.158299999999999841e+01 2.713630279064221246e-02
-1.188599999999999923e+01 5.631999999999999673e+00 -1.700199999999999889e+01 -3.406346751685124241e-01
-1.188299999999999912e+01 5.092999999999999972e+00 -1.842299999999999827e+01 -3.380463387812077114e-01
-1.188000000000000078e+01 -1.829100000000000037e+01 -1.807700000000000173e+01 -1.253545932766450821e-01
-1.187199999999999989e+01 -5.645999999999999908e+00 -1.709999999999999964e+00 9.594790520272172829e-02
-1.185999999999999943e+01 -2.100499999999999901e+01 -2.035699999999999932e+01 -1.735466809917815822e-01
-1.183999999999999986e+01 -1.072799999999999976e+01 -3.463799999999999812e+01 -1.589363055155768034e-01
-1.182600000000000051e+01 -2.656000000000000139e+00 -3.344800000000000040e+01 -1.603592543858603225e-01
-1.181799999999999962e+01 -6.642999999999999794e+00 -1.623300000000000054e+01 1.751383750684895046e-01
-1.175099999999999945e+01 -1.162599999999999945e+01 -9.211999999999999744e+00 2.734286539544037997e-01
-1.171700000000000053e+01 -9.484999999999999432e+00 -3.240000000000000213e+00 1.545652457252002232e-01
-1.170199999999999996e+01 7.868999999999999773e+00 -1.260299999999999976e+01 -2.816939924181194321e-01
-1.169800000000000040e+01 -4.341000000000000192e+00 -3.048100000000000165e+01 -1.109864592497243202e-01
-1.142500000000000071e+01 -6.389000000000000234e+00 -1.375699999999999967e+01 1.956195952296384821e-01
-1.142399999999999949e+01 -2.295599999999999952e+01 4.520999999999999908e+00 -2.811399030842988145e-01
-1.142399999999999949e+01 -9.471000000000000085e+00 -1.300799999999999912e+01 1.766393004065693884e-01
-1.142200000000000060e+01 -1.045599999999999952e+01 -2.314999999999999947e+00 -6.737747665865070901e-02
-1.137299999999999933e+01 -2.439999999999999947e-01 -2.786799999999999855e+01 -1.856953062068642524e-01
-1.136800000000000033e+01 -6.011000000000000121e+00 -5.300000000000000266e-01 1.628034853060851897e-02
-1.134999999999999964e+01 -1.690599999999999881e+01 -1.032300000000000040e+01 1.486575174777567399e-01
-1.133200000000000074e+01 -2.698799999999999955e+01 4.927999999999999936e+00 -2.742936721331262762e-01
-1.133200000000000074e+01 -1.312000000000000055e+00 -2.382900000000000063e+01 2.972009180076108370e-01
-1.128999999999999915e+01 -1.048900000000000077e+01 -1.019200000000000017e+01 1.175427110914292611e-01
-1.128800000000000026e+01 -3.398000000000000131e+00 -1.481300000000000061e+01 1.562573959182312067e-01
-1.126999999999999957e+01 -1.272499999999999964e+01 -1.667500000000000071e+01 -9.081156467771930862e-02
-1.126900000000000013e+01 -7.304999999999999716e+00 -3.149800000000000111e+01 -1.179116798614450595e-01
-1.125799999999999912e+01 -1.363400000000000034e+01 -1.772200000000000131e+01 -8.421157091351692825e-02
-1.124799999999999933e+01 -4.689000000000000057e+00 -9.178000000000000824e+00 2.892866442168853247e-01
-1.123499999999999943e+01 -1.106000000000000050e+01 -2.820200000000000173e+01 -1.000576461213827512e-01
-1.123300000000000054e+01 -3.410000000000000142e+00 -2.982199999999999918e+01 -1.345254667871315923e-01
-1.119800000000000040e+01 6.099999999999999867e-02 -2.364999999999999858e+01 2.610189884397913773e-01
-1.118099999999999916e+01 -1.479499999999999993e+01 -1.223399999999999999e+01 -1.121520343723017288e-01
-1.117500000000000071e+01 -5.322000000000000064e+00 -2.686999999999999833e+00 2.780197319705232650e-01
-1.116099999999999959e+01 -1.351900000000000013e+01 -1.261899999999999977e+01 3.803004302468393494e-01
-1.109999999999999964e+01 -6.182999999999999829e+00 -1.503500000000000014e+01 2.545625260455516292e-01
-1.109699999999999953e+01 -8.903999999999999915e+00 -2.365700000000000003e+01 2.307135848806816936e-01
-1.109299999999999997e+01 -4.766000000000000014e+00 -3.182199999999999918e+01 -9.303182641166239664e-02
-1.108900000000000041e+01 8.349999999999999645e-01 -2.732600000000000051e+01 -1.665158957872140411e-01
-1.101299999999999990e+01 4.709999999999999742e-01 -1.807300000000000040e+01 9.023664506074019487e-02
-1.100699999999999967e+01 -1.426600000000000001e+01 -2.490599999999999881e+01 1.386659392551272962e-01
-1.100699999999999967e+01 7.799999999999999989e-02 -1.689600000000000080e+01 1.090021921570750729e-01
-1.097400000000000020e+01 -1.485299999999999976e+01 -2.364399999999999835e+01 9.943349799906854580e-02
-1.093399999999999928e+01 -1.257799999999999940e+01 -3.176800000000000068e+01 -1.407414690480216501e-01
-1.091399999999999970e+01 -1.477200000000000024e+01 -2.825000000000000000e+01 -9.091614929387356603e-02
-1.089499999999999957e+01 -1.412299999999999933e+01 -2.955399999999999849e+01 -1.775042522273357071e-01
-1.082699999999999996e+01 -2.201800000000000068e+01 -1.858299999999999841e+01 -8.053371335841230660e-02
-1.080499999999999972e+01 -6.437999999999999723e+00 -1.734900000000000020e+01 2.373319125404518282e-01
-1.075799999999999912e+01 8.986000000000000654e+00 -1.307099999999999973e+01 -2.857350520536962590e-01
-1.074600000000000044e+01 -8.396000000000000796e+00 -3.129100000000000037e+01 -1.498890091575839634e-01
-1.073700000000000010e+01 -2.127599999999999980e+01 -1.968599999999999994e+01 -5.619547782190283114e-02
-1.071000000000000085e+01 -6.003999999999999559e+00 -1.282199999999999918e+01 1.432183910531880655e-01
-1.068900000000000006e+01 -8.092000000000000526e+00 9.859999999999999876e-01 5.015650239906031815e-02
-1.063700000000000045e+01 -2.738999999999999879e+00 -3.309000000000000341e+01 -2.204773558741724426e-01
-1.061899999999999977e+01 -2.607100000000000151e+01 -6.580000000000000293e-01 -1.785419271459794399e-01
-1.054499999999999993e+01 -1.986899999999999977e+01 -1.963999999999999968e+00 -2.659086578211326546e-01
-1.050999999999999979e+01 -1.162899999999999956e+01 -1.700199999999999889e+01 -9.043921265935198073e-02
-1.049799999999999933e+01 -1.313100000000000023e+01 -1.875499999999999901e+01 1.271430426599720331e-01
-1.048099999999999987e+01 -1.014999999999999902e+00 -2.848699999999999832e+01 -1.122663642161957076e-01
-1.039899999999999913e+01 -9.428000000000000824e+00 -9.545999999999999375e+00 2.128325796892948651e-01
-1.039300000000000068e+01 -1.798000000000000043e+01 -6.416000000000000369e+00 -8.086207434179476516e-02
-1.035299999999999976e+01 -2.727499999999999858e+01 -7.600000000000000089e-01 -1.740494068779087911e-01
-1.033799999999999919e+01 -6.088000000000000078e+00 -3.169000000000000128e+01 -2.109097172863403924e-01
-1.033600000000000030e+01 -1.525799999999999912e+01 -1.687999999999999945e+00 -1.794176048115579403e-01
-1.033200000000000074e+01 8.821999999999999176e+00 -1.449000000000000021e+01 -2.905089897318132719e-01
-1.030700000000000038e+01 -1.997999999999999998e+00 -2.449500000000000099e+01 -1.168890876597467043e-01
-1.030100000000000016e+01 -1.600999999999999979e+00 -2.027199999999999847e+01 1.313677633604048711e-01
-1.030000000000000071e+01 -1.040199999999999925e+01 -1.616400000000000148e+01 -1.039971906274021196e-01
-1.025600000000000023e+01 -5.182000000000000384e+00 -1.012800000000000011e+01 2.954102223484788015e-01
-1.021100000000000030e+01 -2.282799999999999940e+01 4.737000000000000099e+00 -3.824155213858418945e-01
-1.018599999999999994e+01 -4.841999999999999638e+00 1.877999999999999892e+00 2.149381676536029837e-02
-1.018599999999999994e+01 -3.726999999999999869e+00 -3.231700000000000017e+01 -2.869397779864332754e-01
-1.018500000000000050e+01 -1.367999999999999972e+01 -2.000600000000000023e+01 9.455877689809066844e-02
-1.017600000000000016e+01 -2.001899999999999835e+01 -5.729999999999999538e-01 -3.484261727205796855e-01
-1.017200000000000060e+01 -3.927000000000000046e+00 -1.479100000000000037e+01 -1.761039365779403509e-01
-1.011400000000000077e+01 -1.377699999999999925e+01 -3.184199999999999875e+01 -1.188104785898304872e-01
-1.009200000000000053e+01 -1.395700000000000074e+01 -2.723900000000000077e+01 -8.776371401429498842e-02
-1.007000000000000028e+01 7.459999999999999964e-01 -2.413899999999999935e+01 2.407665550177589542e-01
-1.006499999999999950e+01 -1.451500000000000057e+01 -3.052400000000000091e+01 -1.577713517087700745e-01
-1.006099999999999994e+01 -1.458900000000000041e+01 -2.586299999999999955e+01 -7.810109966780365287e-02
-1.003100000000000058e+01 -5.219999999999999751e+00 -1.691000000000000014e+01 2.608739392446226546e-01
-1.002399999999999913e+01 -1.579299999999999926e+01 -2.333200000000000074e+01 -2.273962485298328673e-01
-1.002200000000000024e+01 -2.191300000000000026e+01 2.302999999999999936e+00 -2.220481639087407422e-01
-1.001699999999999946e+01 -1.186899999999999977e+01 -1.834199999999999875e+01 -8.419971613689440637e-02
-9.994999999999999218e+00 -1.636799999999999855e+01 -2.206500000000000128e+01 2.990435652041031032e-03
-9.960000000000000853e+00 -5.306000000000000050e+00 -1.537599999999999945e+01 2.561586922765466401e-01
-9.938000000000000611e+00 -6.147000000000000242e+00 -2.369999999999999885e-01 -1.988965672354696054e-02
-9.893000000000000682e+00 5.950999999999999623e+00 -2.850100000000000122e+01 -1.323233017391697852e-01
-9.887999999999999901e+00 -2.955000000000000071e+00 -2.083599999999999852e+01 1.778723232634748519e-01
-9.843999999999999417e+00 -2.225799999999999912e+01 -6.860000000000000542e-01 -3.047293533007906507e-01
-9.797000000000000597e+00 -6.857999999999999652e+00 -2.815299999999999869e+01 1.640201831357983586e-01
-9.785000000000000142e+00 4.006999999999999673e+00 -2.993400000000000105e+01 -3.681789424083654616e-01
-9.769000000000000128e+00 -1.291900000000000048e+01 -1.271899999999999942e+01 3.844795460348530147e-01
-9.755000000000000782e+00 -2.119099999999999895e+01 -6.800000000000000488e-02 -1.840157665513994512e-01
-9.753999999999999559e+00 -1.173700000000000010e+01 -1.355899999999999928e+01 1.447468279051437323e-01
-9.733999999999999986e+00 -7.455000000000000071e+00 5.230000000000000204e-01 2.835113922825708774e-02
-9.718999999999999417e+00 4.590000000000000191e-01 -1.889999999999999858e+01 -3.040963536111313589e-03
-9.685000000000000497e+00 -2.512399999999999878e+01 -6.740000000000000435e-01 -3.890354443716898536e-01
-9.683999999999999275e+00 -2.322299999999999898e+01 5.799000000000000377e+00 -3.800386063223806232e-01
-9.666000000000000369e+00 -1.917399999999999949e+01 -4.096000000000000085e+00 -2.913076852181590848e-01
-9.654999999999999361e+00 -1.683999999999999941e+00 -3.358200000000000074e+01 -2.433581956936084756e-01
-9.574999999999999289e+00 -1.997200000000000131e+01 -1.516099999999999959e+01 2.306439223374147363e-02
-9.539999999999999147e+00 -2.083500000000000085e+01 -2.011400000000000077e+01 -4.608341176770072017e-02
-9.539999999999999147e+00 -1.429499999999999993e+01 -6.756999999999999673e+00 -1.071673357183527547e-01
-9.535999999999999588e+00 -1.752899999999999991e+01 -1.528200000000000003e+01 8.947754222913436445e-03
-9.494999999999999218e+00 -4.820000000000000284e+00 -2.668299999999999983e+01 2.116180433172282771e-01
-9.461000000000000298e+00 -3.698999999999999844e+00 -1.970000000000000084e-01 4.916719602895106705e-02
-9.398999999999999133e+00 -4.967999999999999972e+00 5.929999999999999716e-01 4.948888271466492109e-04
-9.380000000000000782e+00 4.733999999999999986e+00 -2.866300000000000026e+01 -3.664432783084087264e-01
-9.378999999999999559e+00 -1.293399999999999928e+01 -2.084199999999999875e+01 1.197545434320676783e-01
-9.367000000000000881e+00 -1.943900000000000006e+01 -2.823999999999999844e+00 -2.296152702061665385e-01
-9.313000000000000611e+00 -2.219099999999999895e+01 3.670999999999999819e+00 -3.855370823246401235e-01
-9.297000000000000597e+00 2.814999999999999947e+00 -8.317000000000000171e+00 -3.904423614831523670e-01
-9.282000000000000028e+00 -1.546499999999999986e+01 -3.038800000000000168e+01 -1.583287730119656289e-01
-9.275000000000000355e+00 -9.539999999999999591e-01 -1.935200000000000031e+01 2.452317951111067929e-01
-9.257999999999999119e+00 -1.286800000000000033e+01 -6.248000000000000220e+00 -6.926257235754544606e-02
-9.214999999999999858e+00 -1.466499999999999915e+01 -2.246999999999999886e+00 -1.799260597140585061e-01
-9.202999999999999403e+00 -1.113400000000000034e+01 -1.922599999999999909e+01 3.207354442991922072e-01
-9.198999999999999844e+00 -1.794399999999999906e+01 -6.136999999999999567e+00 -3.442432263361392547e-02
-9.188000000000000611e+00 -1.324000000000000066e+00 -2.496900000000000119e+01 -9.412928829995524660e-02
-9.170999999999999375e+00 -1.877100000000000080e+01 -1.578100000000000058e+01 3.023837332778660583e-02
-9.143000000000000682e+00 -1.637500000000000000e+01 -1.591399999999999970e+01 -7.301207818639916802e-02
-9.106999999999999318e+00 -2.120700000000000074e+01 1.306000000000000050e+00 -2.374727421850997833e-01
-9.106999999999999318e+00 -2.115099999999999980e+01 -1.177999999999999936e+01 -3.262860251204024453e-01
-9.092999999999999972e+00 -1.551500000000000057e+01 -2.553099999999999881e+01 -8.250633968025050669e-02
-9.086000000000000298e+00 -3.325000000000000178e+00 -1.427399999999999913e+01 -4.532878194823762585e-02
-9.083000000000000185e+00 -1.278899999999999970e+01 -3.471300000000000097e+01 -2.625068980464349000e-01
-9.082000000000000739e+00 -5.819999999999999618e-01 -2.860000000000000142e+01 -1.495634068121642346e-01
-9.077999999999999403e+00 3.899999999999999994e-02 -2.477599999999999980e+01 -9.880048380381846462e-02
-9.058999999999999275e+00 -1.612300000000000111e+01 -2.426300000000000168e+01 -2.367734159693280771e-01
-9.057999999999999829e+00 -1.927000000000000046e+00 -1.386999999999999922e+01 -2.205500920975601853e-01
-9.032000000000000028e+00 6.394999999999999574e+00 -1.473199999999999932e+01 -2.899119687880497009e-01
-9.021000000000000796e+00 -3.200000000000000067e-01 -1.188400000000000034e+01 1.273928356194207745e-01
-9.002000000000000668e+00 -1.877999999999999892e+00 -1.814000000000000057e+01 1.233564061114393873e-01
-8.990000000000000213e+00 1.562000000000000055e+00 -8.638999999999999346e+00 2.768079735360231262e-04
-8.987999999999999545e+00 -1.498499999999999943e+01 1.508999999999999897e+00 -2.633662788214297112e-01
-8.978999999999999204e+00 1.725999999999999979e+00 -2.936100000000000065e+01 -3.685341614251386733e-01
-8.974999999999999645e+00 1.163999999999999924e+00 -9.910000000000000142e+00 4.216064135437741500e-02
-8.971999999999999531e+00 -1.034500000000000064e+01 -1.537500000000000000e+01 1.175397396585280835e-01
-8.965999999999999304e+00 -4.887999999999999901e+00 -9.987000000000000099e+00 -9.097383581777019473e-03
-8.951999999999999957e+00 4.349999999999999978e-01 -2.972500000000000142e+01 -1.146673045301166705e-01
-8.932000000000000384e+00 -8.736000000000000654e+00 -6.168000000000000149e+00 -9.821520008712765135e-03
-8.929999999999999716e+00 -1.173499999999999943e+01 -3.549199999999999733e+01 -2.578715532087494933e-01
-8.904999999999999361e+00 -1.166699999999999982e+01 -2.046000000000000085e+01 1.140177635202717088e-01
-8.858999999999999986e+00 -5.724999999999999645e+00 -2.773400000000000176e+01 -2.472020513161830024e-01
-8.849000000000000199e+00 2.841000000000000192e+00 -3.029700000000000060e+01 -3.680685350888046603e-01
-8.848000000000000753e+00 -7.448999999999999844e+00 -6.695999999999999730e+00 1.600402685145308479e-01
-8.842000000000000526e+00 -1.341200000000000081e+01 -1.846999999999999975e+00 -1.970966619193687264e-01
-8.824999999999999289e+00 -1.768999999999999906e+00 -1.235500000000000043e+01 4.455015895867277254e-02
-8.824999999999999289e+00 6.099999999999999867e-02 -3.089600000000000080e+01 -2.379628233589693720e-01
-8.820000000000000284e+00 -1.158200000000000074e+01 -1.450600000000000023e+01 1.753633796744427098e-01
-8.762000000000000455e+00 -1.987900000000000134e+01 1.786999999999999922e+00 -2.268726824660953767e-01
-8.714000000000000412e+00 7.009999999999999565e-01 -7.674999999999999822e+00 -1.208366002389895666e-01
-8.712999999999999190e+00 -1.636599999999999966e+01 -7.935999999999999943e+00 -2.589244751536957656e-01
-8.696999999999999176e+00 1.044999999999999929e+00 -1.805399999999999849e+01 9.497569159592979260e-02
-8.695999999999999730e+00 -1.950000000000000067e-01 -1.037599999999999945e+01 6.678735316501314967e-02
-8.688000000000000611e+00 -6.990999999999999659e+00 -2.048600000000000065e+01 1.563591014692521930e-01
-8.685000000000000497e+00 -1.346799999999999997e+01 -3.231799999999999784e+01 -1.006961259899911421e-01
-8.650999999999999801e+00 -2.572100000000000009e+01 -3.966000000000000192e+00 -2.080057258303217027e-01
-8.650999999999999801e+00 4.211000000000000298e+00 -2.781599999999999895e+01 -3.648032061924987302e-01
-8.628000000000000114e+00 -1.249000000000000021e+01 -3.344599999999999795e+01 -2.543443637680183889e-01
-8.619999999999999218e+00 -1.887300000000000111e+01 -5.081999999999999851e+00 9.058625391091153223e-02
-8.617000000000000881e+00 -2.438700000000000045e+01 -3.245999999999999996e+00 -1.708926564764918776e-01
-8.612000000000000099e+00 -1.415300000000000047e+01 -9.134000000000000341e+00 9.271172921006130135e-03
-8.539999999999999147e+00 -8.955000000000000071e+00 -4.831000000000000405e+00 -2.212721289722851051e-02
-8.537000000000000810e+00 -4.243999999999999773e+00 -9.044999999999999929e+00 3.259891480181380252e-02
-8.518000000000000682e+00 -1.484299999999999997e+01 -7.754999999999999893e+00 -9.693951300998884801e-02
-8.490999999999999659e+00 -1.539499999999999957e+01 -3.148000000000000131e+00 -1.059046481460273748e-01
-8.464999999999999858e+00 -1.733800000000000097e+01 -1.016099999999999959e+01 1.761641262726209092e-02
-8.464000000000000412e+00 -7.844000000000000306e+00 6.909999999999999476e-01 6.326813509066551988e-02
-8.457000000000000739e+00 -1.576399999999999935e+01 -1.246100000000000030e+01 -1.591016156984857988e-01
-8.451000000000000512e+00 2.855999999999999872e+00 -1.933800000000000097e+01 1.653409669928690429e-01
-8.416999999999999815e+00 -1.887099999999999866e+01 -1.206799999999999962e+01 1.026915684804780363e-02
-8.412000000000000810e+00 -1.884299999999999997e+01 -1.695400000000000063e+01 -9.661090707975424074e-02
-8.387999999999999901e+00 -1.642999999999999972e+01 -1.708299999999999841e+01 4.833419500934885843e-02
-8.371999999999999886e+00 -6.394000000000000128e+00 -5.903999999999999915e+00 1.623104311360833163e-01
-8.367000000000000881e+00 -1.669000000000000039e+00 -3.291299999999999670e+01 -2.182665809211868646e-01
-8.365000000000000213e+00 -1.077200000000000024e+01 -3.478300000000000125e+01 -2.469642542533943552e-01
-8.358000000000000540e+00 -2.017599999999999838e+01 -1.130799999999999983e+01 -3.242335928395178590e-01
-8.349999999999999645e+00 -1.711199999999999832e+01 -6.737000000000000099e+00 -1.471091340170521122e-01
-8.316000000000000725e+00 -7.299999999999999545e-02 -1.516499999999999915e+01 -2.289305172940079430e-02
-8.266000000000000014e+00 -2.537199999999999989e+01 -9.070000000000000284e-01 -3.181185550134767448e-01
-8.223000000000000753e+00 -1.935200000000000031e+01 -2.362000000000000099e+00 -2.170133062756164632e-01
-8.208999999999999631e+00 2.237000000000000099e+00 -1.828399999999999892e+01 1.721319318026888479e-01
-8.179999999999999716e+00 -1.121499999999999986e+01 -3.349699999999999989e+01 -2.453309051341579783e-01
-8.164999999999999147e+00 6.224000000000000199e+00 -1.561500000000000021e+01 -2.907607404159763265e-01
-8.153999999999999915e+00 -1.770999999999999908e+00 -2.883500000000000085e+01 2.184788414689683711e-01
-8.131999999999999673e+00 -9.112000000000000099e+00 1.330999999999999961e+00 2.665006888533902329e-01
-8.118000000000000327e+00 -2.013100000000000023e+01 -5.802999999999999936e+00 -1.065423684543641281e-01
-8.115000000000000213e+00 4.027999999999999581e+00 -1.665899999999999892e+01 -1.546101858453858557e-01
-8.067999999999999616e+00 -7.894000000000000128e+00 -4.062999999999999723e+00 1.760026481147085042e-01
-8.029999999999999361e+00 -5.474999999999999645e+00 -1.103200000000000003e+01 5.212769221153136512e-02
-8.019999999999999574e+00 -1.768599999999999994e+01 -1.757100000000000151e+01 1.285129041443299272e-02
-8.009000000000000341e+00 -1.151999999999999913e+00 -1.464700000000000024e+01 1.404410830518766293e-02
-8.002000000000000668e+00 -2.058500000000000085e+01 8.714999999999999858e+00 -3.603974779151432606e-01
-7.996000000000000441e+00 -2.454599999999999937e+01 1.342999999999999972e+00 -3.351500261735021469e-01
-7.990000000000000213e+00 7.399999999999999911e-01 -2.526800000000000068e+01 -2.971351859555718122e-01
-7.961999999999999744e+00 -1.110599999999999987e+01 -2.435000000000000142e+01 1.142775868936641570e-01
-7.959999999999999964e+00 -6.616999999999999993e+00 -4.584999999999999964e+00 -5.563118227599087723e-02
-7.913999999999999702e+00 -1.240600000000000058e+01 -1.469299999999999962e+01 -9.093844186855767897e-02
-7.897999999999999687e+00 -1.516600000000000037e+01 -1.775499999999999901e+01 4.775740204898736019e-02
-7.886000000000000121e+00 7.084999999999999964e+00 -1.648000000000000043e+01 -2.935563673042216881e-01
-7.878000000000000114e+00 -8.000000000000000000e+00 -1.644300000000000139e+01 6.197830099260274138e-03
-7.847000000000000419e+00 -1.690200000000000102e+01 -9.067000000000000171e+00 -7.215205842817214166e-02
-7.847000000000000419e+00 -6.974999999999999645e+00 -1.073199999999999932e+01 3.210251660974552945e-01
-7.825999999999999623e+00 -1.017300000000000004e+01 2.710000000000000187e-01 3.575867169234644288e-02
-7.810999999999999943e+00 -1.025699999999999967e+01 -1.625700000000000145e+01 6.872666613106553912e-02
-7.766000000000000014e+00 -1.494800000000000040e+01 1.776999999999999913e+00 -2.335280459379471263e-01
-7.756999999999999673e+00 -2.442999999999999972e+01 -2.008000000000000007e+00 -3.317008727850890848e-01
-7.722000000000000419e+00 -1.724599999999999866e+01 4.661999999999999922e+00 -3.683009057599148095e-01
-7.697000000000000064e+00 -1.774699999999999989e+01 -1.133099999999999952e+01 1.178042499554804445e-01
-7.676999999999999602e+00 -1.284900000000000020e+01 -2.436999999999999833e+00 -8.735562065296706424e-02
-7.639999999999999680e+00 -2.092099999999999937e+01 7.304999999999999716e+00 -3.587029340790649501e-01
-7.639999999999999680e+00 -6.067999999999999616e+00 -2.259400000000000119e+01 4.027683708700258158e-01
-7.605999999999999872e+00 -2.031099999999999994e+01 -1.033000000000000007e+01 -2.080486949393371143e-01
-7.565999999999999837e+00 -6.299999999999999822e+00 -2.717000000000000171e+01 1.812957699320657395e-02
-7.562999999999999723e+00 -7.161999999999999922e+00 -2.153600000000000136e+01 1.796641481122535633e-01
-7.525000000000000355e+00 -1.938800000000000168e+01 1.683999999999999941e+00 -2.236312951290292950e-01
-7.514999999999999680e+00 -1.653000000000000114e+01 -1.224000000000000021e+01 -1.798349079883996560e-01
-7.511999999999999567e+00 -1.140799999999999947e+01 8.750000000000000000e-01 2.747116930404903609e-02
-7.498000000000000220e+00 -2.120200000000000173e+01 -4.911999999999999922e+00 -2.835030580336902473e-01
-7.480000000000000426e+00 -2.513500000000000156e+01 3.820000000000000062e-01 -3.356475817251346472e-01
-7.458999999999999631e+00 4.887999999999999901e+00 -1.566699999999999982e+01 -1.686516477516550039e-01
-7.453999999999999737e+00 -5.995000000000000107e+00 4.153999999999999915e+00 1.420841979384633580e-01
-7.450999999999999623e+00 -5.485000000000000320e+00 -3.721999999999999975e+00 2.019819416351520958e-01
-7.419999999999999929e+00 3.341000000000000192e+00 -3.036700000000000088e+01 -3.638745188272629605e-01
-7.418999999999999595e+00 -4.344999999999999751e+00 -3.134400000000000119e+01 -2.922711951964132027e-01
-7.408000000000000362e+00 -3.125999999999999890e+00 -3.436599999999999966e+01 -1.961437135196309467e-01
-7.384999999999999787e+00 -1.790599999999999881e+01 2.000000000000000000e+00 -3.499999999999999778e-01
-7.375000000000000000e+00 -1.482600000000000051e+01 -3.741000000000000103e+00 1.242190328643345137e-01
-7.347000000000000419e+00 -9.077999999999999403e+00 -1.671099999999999852e+01 2.320189917718721018e-01
-7.346000000000000085e+00 2.825000000000000178e+00 -1.717899999999999849e+01 3.549102922395922823e-03
-7.333000000000000185e+00 -2.396999999999999797e+00 -3.336999999999999744e+01 -2.114069594390897977e-01
-7.323999999999999844e+00 -6.891000000000000014e+00 5.254999999999999893e+00 1.252740174748418270e-02
-7.304000000000000270e+00 -2.623199999999999932e+01 -4.208000000000000185e+00 -3.283794726680058229e-01
-7.272000000000000242e+00 -1.426500000000000057e+01 2.813000000000000167e+00 -2.407307154422550499e-01
-7.266000000000000014e+00 -7.634999999999999787e+00 -1.305000000000000071e+01 1.592405960464244041e-01
-7.182999999999999829e+00 4.491999999999999993e+00 -3.080300000000000082e+01 -3.630520828609816730e-01
-7.118000000000000327e+00 -1.713899999999999935e+01 7.099999999999999645e-01 -1.147816153165547026e-01
-6.964999999999999858e+00 -2.491000000000000014e+01 -6.062999999999999723e+00 -1.754613355353125959e-01
-6.961000000000000298e+00 -1.224699999999999989e+01 -2.432199999999999918e+01 1.100593559267373928e-01
-6.942000000000000171e+00 7.449999999999999956e-01 5.323000000000000398e+00 -1.151159468877555880e-01
-6.940999999999999837e+00 -1.355000000000000071e+01 -3.376999999999999780e+00 1.432032433890672307e-01
-6.911999999999999922e+00 -9.647000000000000242e+00 3.371999999999999886e+00 -2.457932206305927375e-02
-6.900000000000000355e+00 -8.973000000000000753e+00 2.209000000000000075e+00 5.839407122406676393e-03
-6.841999999999999638e+00 -7.717999999999999972e+00 -1.160200000000000031e+01 6.497474074460363180e-02
-6.831999999999999851e+00 -1.279800000000000004e+01 -2.563800000000000168e+01 9.747328942591639012e-02
-6.786999999999999922e+00 -1.693999999999999950e+00 -1.476200000000000045e+01 -3.329467059514547023e-01
-6.764000000000000234e+00 -4.745000000000000107e+00 -1.098000000000000043e+01 -2.671090954210975643e-01
-6.761999999999999567e+00 -1.567999999999999972e+01 9.220000000000000417e-01 -1.384955057323584982e-01
-6.738999999999999879e+00 -9.189999999999999503e+00 -1.114799999999999969e+01 1.825288356379814458e-01
-6.701999999999999957e+00 -1.338999999999999968e+00 -2.892500000000000071e+01 -2.839230781491589584e-01
-6.668000000000000149e+00 -7.149000000000000021e+00 -2.807900000000000063e+01 3.982483979829537502e-01
-6.613999999999999879e+00 -1.692599999999999838e+01 -8.941000000000000725e+00 -1.556390348654998826e-02
-6.613999999999999879e+00 -8.570999999999999730e+00 -3.478699999999999903e+01 -2.566805380093674649e-01
-6.597999999999999865e+00 -3.311999999999999833e+00 2.664000000000000146e+00 -1.937917268902843715e-01
-6.592999999999999972e+00 1.411000000000000032e+00 -2.201300000000000168e+01 3.079486909497764491e-01
-6.583000000000000185e+00 -4.266000000000000014e+00 -1.319299999999999962e+01 -1.791603159203216111e-01
-6.567999999999999616e+00 -6.988000000000000433e+00 -3.631799999999999784e+01 -1.476003492450709831e-01
-6.567000000000000171e+00 -1.729299999999999926e+01 4.216999999999999638e+00 -3.691869897471337092e-01
-6.554999999999999716e+00 -2.004899999999999949e+01 1.292000000000000037e+00 -7.811538264281535360e-02
-6.549000000000000377e+00 -6.320999999999999730e+00 -7.560000000000000053e-01 1.156429037085737466e-01
-6.522000000000000242e+00 -2.582400000000000162e+01 -5.200999999999999623e+00 -3.270403630245178883e-01
-6.501999999999999780e+00 -7.363000000000000433e+00 -3.514399999999999835e+01 -2.782668008262575432e-01
-6.469000000000000306e+00 2.520000000000000018e+00 -2.994000000000000128e+01 -3.600054039977854115e-01
-6.464999999999999858e+00 -1.479599999999999937e+01 -1.730099999999999838e+01 2.131723535609392553e-02
-6.400999999999999801e+00 -1.549999999999999989e-01 -2.879299999999999926e+01 -3.630375055632996117e-01
-6.350999999999999979e+00 -1.458799999999999919e+01 -1.585399999999999920e+01 -1.142292613048652428e-01
-6.331000000000000405e+00 -6.296999999999999709e+00 -3.408299999999999841e+01 -2.806455136862442412e-01
-6.318999999999999950e+00 -1.767099999999999937e+01 2.964999999999999858e+00 -3.688692922923098028e-01
-6.312000000000000277e+00 -6.700999999999999623e+00 -3.043599999999999994e+01 -6.354397094707053828e-02
-6.298000000000000043e+00 -1.634799999999999898e+01 -1.276099999999999923e+01 -2.006864157299220464e-01
-6.283000000000000362e+00 -4.608999999999999986e+00 -3.174599999999999866e+01 5.151638880468067949e-02
-6.224999999999999645e+00 -2.048900000000000077e+01 6.990000000000000213e+00 -3.568164990758812549e-01
-6.221000000000000085e+00 -2.558999999999999986e+01 4.420000000000000040e-01 -3.621329852036120345e-01
-6.206999999999999851e+00 2.859999999999999765e-01 6.227999999999999758e+00 -1.077757446032077820e-01
-6.193999999999999950e+00 -2.112900000000000134e+01 -1.534000000000000030e+00 -3.153191688632025480e-01
-6.193999999999999950e+00 -7.142000000000000348e+00 -2.083800000000000097e+01 3.831491395702449898e-01
-6.187000000000000277e+00 -4.474000000000000199e+00 2.608000000000000096e+00 -2.169774123644841735e-01
-6.152999999999999581e+00 -4.187000000000000277e+00 -1.203299999999999947e+01 -1.887693440464049410e-01
-6.139999999999999680e+00 -2.072100000000000009e+01 -4.357000000000000206e+00 -1.456820260710950110e-01
-6.102999999999999758e+00 -5.346000000000000085e+00 3.857000000000000206e+00 -2.103314621587832889e-01
-6.086999999999999744e+00 -8.082000000000000739e+00 -1.857799999999999940e+01 3.910772873635591784e-01
-6.076999999999999957e+00 -1.241000000000000014e+01 -1.747800000000000153e+01 4.673087272367692363e-02
-6.076999999999999957e+00 -8.337999999999999190e+00 -1.989600000000000080e+01 3.871582193190460930e-01
-6.072000000000000064e+00 -9.134999999999999787e+00 -1.756099999999999994e+01 1.734935938954335621e-01
-6.056000000000000050e+00 -6.304000000000000270e+00 -2.919800000000000040e+01 1.275530174350520130e-01
-6.049000000000000377e+00 -2.311999999999999833e+00 -3.256400000000000006e+01 -1.924144865399612936e-01
-6.038999999999999702e+00 -1.352399999999999913e+01 -1.802700000000000102e+01 -1.020939165642846397e-01
-6.022999999999999687e+00 3.229000000000000092e+00 -1.768900000000000006e+01 -4.770307845725103163e-02
-6.014000000000000234e+00 -6.918999999999999595e+00 -3.278499999999999659e+01 1.015049122733558962e-01
-6.011000000000000121e+00 2.379999999999999893e+00 -2.123499999999999943e+01 -3.522210870290218981e-02
-6.009000000000000341e+00 -5.227000000000000313e+00 -9.389999999999999458e-01 2.208905309695508856e-01
-5.982999999999999652e+00 -1.038799999999999990e+01 5.533000000000000362e+00 -4.309133616620953317e-02
-5.980999999999999872e+00 -9.478999999999999204e+00 -2.035300000000000153e+01 1.976463446188348461e-01
-5.975999999999999979e+00 -1.209999999999999964e+00 6.283000000000000362e+00 -9.132976096608744210e-02
-5.964999999999999858e+00 -5.626000000000000334e+00 -3.317000000000000171e+00 -3.268368636128972382e-02
-5.945000000000000284e+00 -1.516099999999999959e+01 -1.353700000000000081e+01 -2.234364034502009377e-01
-5.934000000000000163e+00 -8.300000000000000711e+00 1.830000000000000071e+00 1.499182329637663291e-01
-5.921000000000000263e+00 -2.056700000000000017e+01 5.503000000000000114e+00 -3.539552307818500387e-01
-5.916000000000000369e+00 -3.798000000000000043e+00 -7.155000000000000249e+00 -9.097503955989622026e-02
-5.858999999999999986e+00 -1.550399999999999956e+01 -1.501699999999999946e+01 4.339313675198088610e-02
-5.836000000000000298e+00 3.750000000000000000e-01 -2.253900000000000148e+01 3.039719839809710833e-01
-5.815000000000000391e+00 -2.293000000000000149e+00 -2.909799999999999898e+01 2.237473202881628057e-02
-5.783000000000000362e+00 -1.139000000000000012e+00 -1.566000000000000014e+01 -1.114032645064883809e-01
-5.783000000000000362e+00 1.842000000000000082e+00 -1.228400000000000070e+01 -3.363569261021053802e-01
-5.775999999999999801e+00 -5.035999999999999588e+00 1.475000000000000089e+00 1.765205600462077529e-01
-5.746999999999999886e+00 -1.559999999999999964e+01 5.857000000000000206e+00 -7.182184410677883157e-02
-5.735000000000000320e+00 -4.274000000000000021e+00 2.220000000000000029e-01 1.781891086768226384e-01
-5.732000000000000206e+00 -2.761000000000000121e+00 -2.005600000000000094e+01 3.358327335104336342e-01
-5.716000000000000192e+00 -1.748300000000000054e+01 -5.429999999999999716e+00 -2.273825997555540823e-01
-5.713000000000000078e+00 -6.028999999999999915e+00 -3.157600000000000051e+01 3.725827573016803063e-02
-5.706999999999999851e+00 -9.673999999999999488e+00 4.200999999999999623e+00 -6.260469821651133693e-02
-5.679000000000000270e+00 -1.294100000000000072e+01 -3.999000000000000110e+00 1.597210143432307300e-02
-5.679000000000000270e+00 4.246999999999999886e+00 -1.218999999999999950e+01 -3.238237099718360712e-01
-5.677999999999999936e+00 -4.544999999999999929e+00 5.001000000000000334e+00 -1.684010794545393042e-01
-5.669999999999999929e+00 -1.367800000000000082e+01 -1.930499999999999972e+01 -1.041057470894067860e-01
-5.649000000000000021e+00 -4.820000000000000284e+00 -2.140000000000000124e+00 1.928747950652792142e-01
-5.647000000000000242e+00 1.002000000000000002e+00 7.086000000000000298e+00 -1.167397430313733969e-01
-5.597000000000000419e+00 -7.735999999999999766e+00 -2.727299999999999969e+01 3.976458276801958514e-01
-5.583000000000000185e+00 -9.759999999999999787e+00 -2.828000000000000114e+01 2.001574481915085746e-01
-5.570000000000000284e+00 -1.180599999999999916e+01 -2.380799999999999983e+01 1.285012185923101735e-01
-5.565999999999999837e+00 -1.170599999999999952e+01 -2.235200000000000031e+01 1.477955877004098473e-01
-5.509000000000000341e+00 -2.194600000000000151e+01 5.056000000000000050e+00 3.057373901172712530e-02
-5.503000000000000114e+00 6.740000000000000435e-01 -1.294400000000000084e+01 -3.575948868081306742e-01
-5.501999999999999780e+00 -3.665000000000000036e+00 -3.227900000000000347e+01 -3.248268217978831918e-01
-5.498999999999999666e+00 -2.638700000000000045e+01 -5.689999999999999503e-01 -3.712351604291336260e-01
-5.498000000000000220e+00 -1.394800000000000040e+01 -2.200600000000000023e+01 -1.049124732629965334e-01
-5.471000000000000085e+00 -1.285299999999999976e+01 -9.714000000000000412e+00 6.814928617922245968e-02
-5.464000000000000412e+00 -1.279100000000000037e+01 -2.157300000000000040e+01 1.650762050314370233e-01
-5.429999999999999716e+00 -3.125999999999999890e+00 -2.382700000000000173e+01 3.052569881505415861e-01
