-6.903499999999999659e+01 5.171800000000000352e+01 -1.686499999999999844e+01 -6.788841040614861100e-02
-6.901800000000000068e+01 5.796500000000000341e+01 -6.897000000000000242e+00 -1.029548646150790364e-01
-6.900300000000000011e+01 5.648499999999999943e+01 -1.101900000000000013e+01 -3.307857234925840051e-01
-6.897499999999999432e+01 6.947700000000000387e+01 7.097000000000000419e+00 -1.976484146260008568e-01
-6.892499999999999716e+01 4.341700000000000159e+01 -1.345700000000000074e+01 -2.012388435553649213e-01
-6.889400000000000546e+01 7.719599999999999795e+01 9.422000000000000597e+00 -5.453122389736444336e-02
-6.882999999999999829e+01 4.817900000000000205e+01 -8.367000000000000881e+00 -3.563625923068435841e-01
-6.882099999999999795e+01 3.071600000000000108e+01 -1.215799999999999947e+01 -2.639352302397661720e-01
-6.881199999999999761e+01 5.373299999999999699e+01 -1.138199999999999967e+01 2.167321187585739481e-02
-6.879999999999999716e+01 5.284899999999999665e+01 7.477000000000000313e+00 -9.086696096981589088e-02
-6.876900000000000546e+01 6.378000000000000114e+01 1.778000000000000025e+00 1.081354107004370152e-01
-6.876699999999999591e+01 4.557000000000000028e+01 -1.858399999999999963e+01 -3.496451734654124066e-01
-6.874699999999999989e+01 4.553600000000000136e+01 -2.011799999999999855e+01 -3.366638787764695273e-01
-6.874599999999999511e+01 6.790600000000000591e+01 -8.699999999999999956e-01 4.231297612776659944e-01
-6.872899999999999920e+01 5.053699999999999903e+01 -1.472899999999999920e+01 -1.073285340194731069e-01
-6.871899999999999409e+01 6.964499999999999602e+01 9.836999999999999744e+00 1.946181002374860330e-02
-6.870300000000000296e+01 5.765100000000000335e+01 -1.395000000000000018e+00 1.353696986274680047e-01
-6.868600000000000705e+01 4.420300000000000296e+01 -5.817999999999999616e+00 -3.499999999999999778e-01
-6.868600000000000705e+01 6.167099999999999937e+01 -4.988999999999999879e+00 6.258904500341432031e-02
-6.866899999999999693e+01 5.489399999999999835e+01 3.216000000000000192e+00 2.023191439169285955e-01
-6.864100000000000534e+01 7.502200000000000557e+01 9.893000000000000682e+00 1.666084771737839088e-01
-6.863100000000000023e+01 6.847799999999999443e+01 7.729000000000000092e+00 -9.049389395050641549e-02
-6.861899999999999977e+01 4.050500000000000256e+01 -8.996000000000000441e+00 -2.601331313665843914e-01
-6.861799999999999500e+01 3.851500000000000057e+01 -1.355499999999999972e+01 3.511429793853407255e-01
-6.857099999999999795e+01 5.182099999999999795e+01 -1.541099999999999959e+01 -7.611878447588357743e-02
-6.855400000000000205e+01 5.139500000000000313e+01 7.767000000000000348e+00 -1.899816024252001800e-01
-6.855100000000000193e+01 3.462800000000000011e+01 -1.268500000000000050e+01 -5.193733577304343943e-03
-6.855100000000000193e+01 5.910199999999999676e+01 -6.982000000000000206e+00 3.811528226956495402e-02
-6.853799999999999670e+01 5.353799999999999670e+01 3.414000000000000146e+00 -3.027992761764313617e-02
-6.852700000000000102e+01 5.037500000000000000e+01 -9.509000000000000341e+00 -8.517301481873257307e-02
-6.847499999999999432e+01 5.878499999999999659e+01 -2.150999999999999801e+00 3.461177897506698686e-01
-6.844599999999999795e+01 6.848000000000000398e+01 9.028000000000000469e+00 1.093324328098728981e-01
-6.844499999999999318e+01 4.956499999999999773e+01 -1.804799999999999827e+01 7.366077590787736828e-02
-6.840999999999999659e+01 2.954500000000000171e+01 -1.028899999999999970e+01 -2.683163837350123204e-01
-6.840800000000000125e+01 6.714799999999999613e+01 7.033999999999999808e+00 2.070108830330782967e-01
-6.839799999999999613e+01 4.874699999999999989e+01 6.586999999999999744e+00 -1.531519589258222569e-01
-6.838899999999999579e+01 7.336799999999999500e+01 5.450999999999999623e+00 5.444242768773739638e-02
-6.837500000000000000e+01 4.893599999999999994e+01 -1.289799999999999969e+01 -1.924479430268035141e-01
-6.835200000000000387e+01 6.260199999999999676e+01 8.930000000000000160e-01 3.068014487811275837e-01
-6.834999999999999432e+01 6.749299999999999500e+01 3.930000000000000160e-01 3.434699045492287661e-01
-6.828499999999999659e+01 7.473300000000000409e+01 5.427999999999999936e+00 -1.589775120894569849e-01
-6.826999999999999602e+01 4.459799999999999898e+01 1.854999999999999982e+00 -1.078420644878096690e-01
-6.823900000000000432e+01 4.182300000000000040e+01 -8.532000000000000028e+00 -1.505783297252919969e-02
-6.823600000000000421e+01 6.275900000000000034e+01 -5.352999999999999758e+00 1.432832423830952551e-01
-6.821099999999999852e+01 5.676200000000000045e+01 -7.328000000000000291e+00 6.669299388114360849e-02
-6.819599999999999795e+01 5.032300000000000040e+01 -1.353299999999999947e+01 -1.326102257607429113e-01
-6.818800000000000239e+01 7.625000000000000000e+01 9.776999999999999247e+00 1.414168549764149019e-01
-6.817199999999999704e+01 4.301899999999999835e+01 -3.181999999999999940e+00 2.489125928816161154e-02
-6.815099999999999625e+01 5.672200000000000131e+01 -8.772999999999999687e+00 9.931143086974489331e-02
-6.812199999999999989e+01 5.087700000000000244e+01 -1.772800000000000153e+01 7.140868709098312228e-02
-6.807399999999999807e+01 6.390400000000000347e+01 -4.366999999999999993e+00 6.722055833371151645e-02
-6.807200000000000273e+01 6.203399999999999892e+01 -7.655000000000000249e+00 1.340306284686827443e-01
-6.803400000000000603e+01 3.921500000000000341e+01 -1.460200000000000031e+01 3.041023380543532717e-01
-6.801200000000000045e+01 4.161599999999999966e+01 -1.245000000000000107e+00 -4.347036256647084096e-02
-6.799299999999999500e+01 6.751300000000000523e+01 -1.967000000000000082e+00 3.373326032882323355e-01
-6.797499999999999432e+01 5.551899999999999835e+01 2.200000000000000178e+00 3.077784621429331957e-01
-6.795300000000000296e+01 5.650699999999999790e+01 -1.592000000000000082e+00 1.729811756748742546e-01
-6.793800000000000239e+01 6.350300000000000011e+01 9.707000000000000739e+00 -2.002704377722571982e-01
-6.789400000000000546e+01 6.384799999999999898e+01 3.024000000000000021e+00 1.617106843094508473e-01
-6.789000000000000057e+01 6.301400000000000290e+01 -6.604000000000000092e+00 8.818834686636947695e-02
-6.782099999999999795e+01 3.764699999999999847e+01 -1.282300000000000040e+01 4.168896369088979925e-02
-6.780299999999999727e+01 2.915500000000000114e+01 -1.376900000000000013e+01 -2.681579918161411391e-01
-6.777500000000000568e+01 4.737400000000000233e+01 6.307000000000000384e+00 -1.440411920770745535e-01
-6.770600000000000307e+01 5.280400000000000205e+01 2.592000000000000082e+00 -1.638029975734870206e-02
-6.768699999999999761e+01 4.267499999999999716e+01 -1.782000000000000028e+00 3.150188374046363760e-01
-6.768200000000000216e+01 5.069400000000000261e+01 -8.364000000000000767e+00 -9.297240776518791994e-02
-6.760699999999999932e+01 4.879800000000000182e+01 -1.883500000000000085e+01 7.278445232348634830e-02
-6.758700000000000330e+01 4.649199999999999733e+01 -1.625000000000000000e+01 1.728571006066718374e-01
-6.757899999999999352e+01 3.032499999999999929e+01 -1.279299999999999926e+01 -2.794333500124024372e-01
-6.756600000000000250e+01 5.119200000000000017e+01 -1.293099999999999916e+01 -1.183310490498450107e-01
-6.756399999999999295e+01 5.104099999999999682e+01 6.751000000000000334e+00 -1.737002795963233370e-01
-6.755400000000000205e+01 4.389099999999999824e+01 -5.443999999999999950e+00 6.958262451481017283e-03
-6.752899999999999636e+01 5.339000000000000057e+01 6.887999999999999901e+00 -2.318730044738362694e-01
-6.752100000000000080e+01 6.298299999999999699e+01 1.074499999999999922e+01 -1.527692659745708004e-01
-6.747799999999999443e+01 5.875600000000000023e+01 -3.113999999999999879e+00 2.799999999999999711e-01
-6.745600000000000307e+01 4.985699999999999932e+01 6.131999999999999673e+00 -1.534171388348543053e-01
-6.745499999999999829e+01 4.380299999999999727e+01 -1.335899999999999999e+01 9.456513451511595891e-02
-6.745499999999999829e+01 4.519599999999999795e+01 -1.807499999999999929e+01 -2.935495231699315408e-02
-6.741100000000000136e+01 7.028799999999999670e+01 1.026299999999999990e+01 -3.592034169087354734e-02
-6.740999999999999659e+01 6.821099999999999852e+01 4.102000000000000313e+00 2.959794743768137670e-02
-6.740699999999999648e+01 5.838700000000000045e+01 -1.584999999999999964e+01 -6.383620407251612561e-02
-6.736799999999999500e+01 6.640600000000000591e+01 1.050000000000000000e+01 -8.737219730783837846e-02
-6.735200000000000387e+01 4.274499999999999744e+01 -1.947599999999999909e+01 -2.746292683726532791e-01
-6.723199999999999932e+01 6.670300000000000296e+01 5.550000000000000488e-01 1.853178076348894754e-01
-6.721399999999999864e+01 4.527400000000000091e+01 -3.488999999999999879e+00 -1.280623958685796759e-01
-6.719599999999999795e+01 4.390500000000000114e+01 -3.971000000000000085e+00 -1.264939085420437384e-02
-6.719299999999999784e+01 4.802300000000000324e+01 -1.326500000000000057e+01 1.333787099326085857e-01
-6.717000000000000171e+01 3.176300000000000168e+01 -1.467500000000000071e+01 -2.031552717216196235e-01
-6.716299999999999670e+01 6.921599999999999397e+01 3.185999999999999943e+00 5.502366133256240965e-02
-6.715500000000000114e+01 7.147400000000000375e+01 9.744999999999999218e+00 -1.112540647617046019e-01
-6.714199999999999591e+01 5.477799999999999869e+01 1.381999999999999895e+00 1.419508562566980381e-01
-6.706600000000000250e+01 4.756799999999999784e+01 -3.790000000000000036e-01 1.919166864188374122e-01
-6.705700000000000216e+01 6.354699999999999704e+01 -3.277000000000000135e+00 2.799999999999999711e-01
-6.704200000000000159e+01 6.711499999999999488e+01 6.339000000000000412e+00 1.759579965367566168e-01
-6.701000000000000512e+01 4.211699999999999733e+01 -8.176000000000000156e+00 -2.131954686666620857e-01
-6.700000000000000000e+01 6.427899999999999636e+01 8.794999999999999929e+00 -2.783574639078947310e-01
-6.699599999999999511e+01 5.340800000000000125e+01 1.562999999999999945e+00 6.900798071189204186e-02
-6.699399999999999977e+01 6.277799999999999869e+01 2.520000000000000018e-01 3.204253981793372952e-01
-6.696800000000000352e+01 4.569299999999999784e+01 -1.695200000000000173e+01 -7.495137732100787264e-02
-6.696099999999999852e+01 5.648700000000000188e+01 -2.557999999999999829e+00 3.332719230773322217e-01
-6.694799999999999329e+01 4.795199999999999818e+01 -5.370000000000000107e+00 -2.314649165873615411e-01
-6.693300000000000693e+01 5.139900000000000091e+01 -1.822200000000000131e+01 1.859490592032022049e-01
-6.693099999999999739e+01 3.151300000000000168e+01 -1.349399999999999977e+01 -2.008757330196832280e-01
-6.690900000000000603e+01 7.361299999999999955e+01 1.175099999999999945e+01 2.159575433159444668e-01
-6.690099999999999625e+01 4.355700000000000216e+01 -1.183000000000000052e+00 2.734449857755406610e-01
-6.687399999999999523e+01 6.672400000000000375e+01 -1.806999999999999940e+00 1.309393262630061672e-01
-6.684000000000000341e+01 7.853799999999999670e+01 5.195000000000000284e+00 2.307863707875343062e-01
-6.680599999999999739e+01 5.682999999999999829e+01 -6.725999999999999979e+00 2.396274030234795682e-01
-6.680599999999999739e+01 6.187899999999999778e+01 -8.477999999999999758e+00 8.095743436054494979e-02
-6.679900000000000659e+01 4.349199999999999733e+01 -1.203200000000000003e+01 -1.464017906220529686e-01
-6.679800000000000182e+01 4.354399999999999693e+01 -7.713000000000000078e+00 -2.097701506505134095e-01
-6.679699999999999704e+01 6.822100000000000364e+01 5.346000000000000085e+00 8.177005860107874891e-02
-6.678000000000000114e+01 4.198599999999999710e+01 -1.180000000000000071e+01 -1.087740229703031136e-01
-6.672700000000000387e+01 5.761500000000000199e+01 -3.321000000000000174e+00 3.416624827087385574e-01
-6.670900000000000318e+01 7.643899999999999295e+01 1.008900000000000041e+01 1.110345204017879894e-01
-6.669899999999999807e+01 3.905499999999999972e+01 -1.490499999999999936e+01 4.383074311183888377e-03
-6.669199999999999307e+01 5.216899999999999693e+01 6.469999999999999751e+00 -2.240280713005669000e-01
-6.668200000000000216e+01 4.171500000000000341e+01 -1.967500000000000071e+01 -2.545146695554934002e-01
-6.666700000000000159e+01 4.967699999999999960e+01 5.205000000000000071e+00 -1.847820516312633221e-01
-6.665600000000000591e+01 5.835199999999999676e+01 -1.031000000000000050e+01 -1.722881900640703678e-01
-6.663299999999999557e+01 6.969899999999999807e+01 1.101600000000000001e+01 1.572893789157409627e-01
-6.662300000000000466e+01 7.588700000000000045e+01 7.346000000000000085e+00 2.696120390953070465e-03
-6.659399999999999409e+01 6.067399999999999949e+01 -8.974000000000000199e+00 4.868116315966482949e-02
-6.657999999999999829e+01 4.356600000000000250e+01 -6.278999999999999915e+00 -2.101170247544466574e-01
-6.652899999999999636e+01 7.707099999999999795e+01 1.145899999999999963e+01 1.141486728577742332e-01
-6.649399999999999977e+01 4.262700000000000244e+01 -1.607600000000000051e+01 1.688988426984951441e-01
-6.649200000000000443e+01 6.631799999999999784e+01 -5.470000000000000417e-01 2.214125681744614216e-01
-6.648799999999999955e+01 3.748199999999999932e+01 -1.312100000000000044e+01 5.669086828882626689e-02
-6.645399999999999352e+01 4.715800000000000125e+01 7.032000000000000028e+00 -1.695076038904759774e-01
-6.644199999999999307e+01 5.020100000000000051e+01 -8.212999999999999190e+00 1.958937114248203437e-01
-6.643300000000000693e+01 4.933800000000000097e+01 -1.931500000000000128e+01 5.850859546502649305e-02
-6.642900000000000205e+01 6.333200000000000074e+01 7.709999999999999964e+00 -2.708001179155863358e-01
-6.638299999999999557e+01 4.131600000000000250e+01 -2.082300000000000040e+01 -2.602152909405496262e-01
-6.636700000000000443e+01 5.781900000000000261e+01 -1.544899999999999984e+01 -6.612033246238520345e-02
-6.630700000000000216e+01 5.440599999999999881e+01 -6.416999999999999815e+00 1.291646391713034414e-01
-6.629399999999999693e+01 4.744500000000000028e+01 -3.005999999999999783e+00 1.005683087878531945e-01
-6.629000000000000625e+01 7.023900000000000432e+01 3.503000000000000114e+00 1.448130669840765605e-01
-6.624500000000000455e+01 6.590399999999999636e+01 1.042099999999999937e+01 2.649162536776220045e-01
-6.622799999999999443e+01 4.769700000000000273e+01 8.118000000000000327e+00 -3.179189924100919717e-01
-6.620999999999999375e+01 4.980700000000000216e+01 -3.857000000000000206e+00 4.310169376475894154e-01
-6.619100000000000250e+01 4.091799999999999926e+01 -1.848699999999999832e+01 -2.791228236521441364e-01
-6.614100000000000534e+01 7.899500000000000455e+01 6.432999999999999829e+00 2.468551834385848687e-01
-6.614000000000000057e+01 3.229599999999999937e+01 -1.273700000000000010e+01 -2.279789604868116548e-01
-6.611799999999999500e+01 6.538100000000000023e+01 1.335500000000000043e+01 -2.740793936373425721e-02
-6.610999999999999943e+01 4.599300000000000210e+01 -3.412999999999999812e+00 1.731832657460385394e-01
-6.609099999999999397e+01 5.063799999999999812e+01 -1.901000000000000156e+01 2.096330763164629685e-01
-6.609000000000000341e+01 5.259499999999999886e+01 6.720000000000000417e-01 1.425062552410783501e-01
-6.608299999999999841e+01 4.130599999999999739e+01 -8.195000000000000284e+00 -2.409453891958417415e-01
-6.606000000000000227e+01 7.724399999999999977e+01 9.066000000000000725e+00 1.092979514364328386e-01
-6.605200000000000671e+01 7.277299999999999613e+01 1.147499999999999964e+01 1.839417972945242008e-01
-6.604900000000000659e+01 7.688800000000000523e+01 7.783999999999999808e+00 2.423882415486079134e-01
-6.603799999999999670e+01 6.282699999999999818e+01 -8.641000000000000014e+00 5.806080129925485223e-02
-6.602899999999999636e+01 4.834400000000000119e+01 -4.224999999999999645e+00 2.123331206299673146e-01
-6.600700000000000500e+01 3.464099999999999824e+01 -1.728600000000000136e+01 5.637036573377772475e-02
-6.600100000000000477e+01 5.670799999999999841e+01 -1.588400000000000034e+01 -9.795232561929355375e-02
-6.598999999999999488e+01 5.561099999999999710e+01 -7.012999999999999901e+00 1.570873794519790298e-02
-6.596899999999999409e+01 3.217099999999999937e+01 -1.127899999999999991e+01 -2.252138573599840876e-01
-6.595999999999999375e+01 6.490900000000000603e+01 9.593999999999999417e+00 -2.110826507333377067e-01
-6.595099999999999341e+01 7.750700000000000500e+01 4.538999999999999702e+00 3.469458042424446165e-02
-6.594299999999999784e+01 7.219199999999999307e+01 1.007499999999999929e+01 2.182872861385386221e-01
-6.593899999999999295e+01 4.875399999999999778e+01 -1.366200000000000081e+01 9.073266013896567894e-02
-6.593399999999999750e+01 5.921900000000000119e+01 -1.077999999999999936e+01 -1.890486229954100872e-01
-6.593300000000000693e+01 3.818599999999999994e+01 -1.416099999999999959e+01 -1.532660385537339132e-01
-6.593000000000000682e+01 6.202900000000000347e+01 8.314999999999999503e+00 -2.393032880967985998e-01
-6.592900000000000205e+01 6.925700000000000500e+01 5.650999999999999801e+00 7.594736430632460789e-02
-6.592400000000000659e+01 5.814000000000000057e+01 -1.296599999999999930e+01 1.202884712297899866e-01
-6.588700000000000045e+01 4.778199999999999648e+01 -6.580000000000000293e-01 2.202022554177628100e-01
-6.588100000000000023e+01 4.950500000000000256e+01 -9.195999999999999730e+00 -1.572006833789071079e-01
-6.575900000000000034e+01 5.040899999999999892e+01 -7.096000000000000085e+00 1.389029277506494964e-01
-6.571599999999999397e+01 3.472200000000000131e+01 -1.582199999999999918e+01 8.281378894995289341e-02
-6.568800000000000239e+01 7.330400000000000205e+01 9.055999999999999162e+00 9.497016591492632442e-02
-6.567900000000000205e+01 4.656099999999999994e+01 -8.333999999999999631e+00 -5.054211287097850475e-02
-6.567300000000000182e+01 7.025900000000000034e+01 4.735999999999999766e+00 1.208017321296845914e-01
-6.565399999999999636e+01 4.281199999999999761e+01 -1.695400000000000063e+01 2.214767185854193132e-01
-6.563599999999999568e+01 6.342000000000000171e+01 -3.766000000000000014e+00 1.051556730485227326e-01
-6.563200000000000500e+01 4.893699999999999761e+01 -1.500099999999999945e+01 1.166233362834236259e-01
-6.562500000000000000e+01 4.416799999999999926e+01 -8.476000000000000867e+00 4.506332869041250466e-02
-6.559900000000000375e+01 4.857600000000000051e+01 -2.009900000000000020e+01 3.474373406341464687e-02
-6.559799999999999898e+01 7.273000000000000398e+01 7.341999999999999638e+00 2.034465424107246290e-01
-6.557599999999999341e+01 4.636299999999999955e+01 6.435999999999999943e+00 -3.127065904167701249e-01
-6.557500000000000284e+01 4.520900000000000318e+01 -1.655000000000000071e+01 -1.149402263418222991e-01
-6.557399999999999807e+01 5.327700000000000102e+01 -6.689000000000000057e+00 1.672150996071715412e-01
-6.552299999999999613e+01 6.662500000000000000e+01 1.271400000000000041e+01 3.364074291342028511e-01
-6.551800000000000068e+01 5.851100000000000279e+01 -1.439600000000000080e+01 1.259595581947505760e-01
-6.551600000000000534e+01 6.038799999999999812e+01 -9.909000000000000696e+00 -3.132193233888381778e-01
-6.550199999999999534e+01 5.919299999999999784e+01 -1.203500000000000014e+01 5.064897840435570592e-02
-6.544799999999999329e+01 5.928699999999999903e+01 -6.099999999999999867e-02 3.787324543443691960e-01
-6.543699999999999761e+01 5.229800000000000182e+01 8.507999999999999119e+00 -5.683338378383982759e-02
-6.543300000000000693e+01 4.777199999999999847e+01 -1.893000000000000016e+00 -1.357805039712904095e-02
-6.541200000000000614e+01 5.210900000000000176e+01 7.291000000000000369e+00 -3.574950165295558979e-01
-6.539700000000000557e+01 4.407099999999999795e+01 -1.199699999999999989e+01 3.124189493531629933e-02
-6.535999999999999943e+01 3.340599999999999881e+01 -1.328599999999999959e+01 -2.558226779007294893e-01
-6.532800000000000296e+01 6.401300000000000523e+01 6.913000000000000256e+00 4.117644030223019391e-02
-6.532599999999999341e+01 5.582300000000000040e+01 -1.347199999999999953e+01 -1.441924001902135655e-01
-6.532099999999999795e+01 5.678600000000000136e+01 -1.256400000000000006e+01 7.179479869018728921e-02
-6.527899999999999636e+01 7.780899999999999750e+01 6.854000000000000092e+00 2.536124674896490516e-01
-6.525400000000000489e+01 6.392499999999999716e+01 -5.001000000000000334e+00 5.366209078997641324e-02
-6.522299999999999898e+01 6.332800000000000296e+01 1.243500000000000050e+01 -9.281908773610213215e-02
-6.521999999999999886e+01 5.351200000000000045e+01 -1.423700000000000010e+01 8.309198860919848884e-02
-6.520099999999999341e+01 4.400699999999999790e+01 -1.728399999999999892e+01 -6.261591346501234334e-02
-6.519799999999999329e+01 4.550999999999999801e+01 -7.913000000000000256e+00 -2.603054330291942886e-01
-6.519799999999999329e+01 7.229500000000000171e+01 1.236200000000000010e+01 -2.741073169730785103e-03
-6.519799999999999329e+01 7.275000000000000000e+01 1.374000000000000021e+01 -8.048096294240730114e-03
-6.518500000000000227e+01 4.933200000000000074e+01 1.092999999999999972e+00 -9.264068628746018053e-02
-6.517400000000000659e+01 3.339099999999999824e+01 -1.090199999999999925e+01 -2.383267585901219510e-01
-6.515399999999999636e+01 6.421399999999999864e+01 1.341699999999999982e+01 -5.576939547669360758e-02
-6.510999999999999943e+01 5.644899999999999807e+01 3.818999999999999950e+00 1.032508791018241917e-02
-6.510899999999999466e+01 5.171399999999999864e+01 1.445999999999999952e+00 -1.005513968399087688e-01
-6.510699999999999932e+01 7.031199999999999761e+01 1.436599999999999966e+01 2.523326131610274525e-01
-6.509300000000000352e+01 6.644400000000000261e+01 1.125600000000000023e+01 3.097917487227104805e-01
-6.507599999999999341e+01 4.164200000000000301e+01 -1.773300000000000054e+01 1.946625371858554457e-02
-6.507299999999999329e+01 4.926299999999999812e+01 -1.270599999999999952e+01 9.332753079482784819e-02
-6.498799999999999955e+01 4.553499999999999659e+01 -3.633000000000000007e+00 1.369488396427571975e-01
-6.496299999999999386e+01 5.633299999999999841e+01 8.878000000000000114e+00 1.925337020941480515e-01
-6.495300000000000296e+01 7.717900000000000205e+01 5.575999999999999623e+00 2.061150957973339748e-01
-6.491899999999999693e+01 5.566299999999999670e+01 -7.889000000000000234e+00 1.944237333217412600e-01
-6.490699999999999648e+01 7.365900000000000603e+01 3.758000000000000007e+00 -1.223723948723197674e-01
-6.487000000000000455e+01 4.808299999999999841e+01 4.239999999999999880e-01 2.936462088860428699e-01
-6.487000000000000455e+01 5.661399999999999721e+01 -1.143599999999999994e+01 1.994176419072362511e-02
-6.482899999999999352e+01 4.693299999999999983e+01 1.427000000000000046e+00 3.306206191531499972e-01
-6.479000000000000625e+01 5.291499999999999915e+01 -2.579000000000000181e+00 1.992443286905001554e-01
-6.477299999999999613e+01 5.451299999999999812e+01 -1.318299999999999983e+01 -2.145020682710951088e-01
-6.475400000000000489e+01 3.363100000000000023e+01 -1.563799999999999990e+01 -2.662639247475583337e-01
-6.474899999999999523e+01 5.048499999999999943e+01 6.300000000000000044e-01 -9.671431445615927269e-02
-6.474200000000000443e+01 7.207500000000000284e+01 1.612300000000000111e+01 3.395999455825237387e-04
-6.471999999999999886e+01 3.423299999999999699e+01 -1.792000000000000171e+01 8.518225954834798830e-02
-6.468300000000000693e+01 7.487300000000000466e+01 1.475300000000000011e+01 1.227356437729084926e-01
-6.468200000000000216e+01 6.278900000000000148e+01 -2.983999999999999986e+00 2.008031947835722253e-01
-6.467799999999999727e+01 6.568399999999999750e+01 3.725999999999999979e+00 2.448103341565746049e-01
-6.465300000000000580e+01 7.420000000000000284e+01 -6.790000000000000480e-01 2.453775664565142622e-01
-6.464000000000000057e+01 6.770900000000000318e+01 1.071899999999999942e+01 2.153064340795951548e-01
-6.460599999999999454e+01 3.802199999999999847e+01 -1.445800000000000018e+01 -1.498198571618432617e-01
-6.453400000000000603e+01 3.297800000000000153e+01 -1.449200000000000088e+01 -2.609294472339479531e-01
-6.453400000000000603e+01 4.630299999999999727e+01 -1.678999999999999915e+01 -5.785475471209134204e-03
-6.453400000000000603e+01 7.170499999999999829e+01 1.466000000000000014e+01 -4.498331874810302528e-02
-6.451800000000000068e+01 6.921099999999999852e+01 1.522400000000000020e+01 3.741117864219151851e-02
-6.451000000000000512e+01 5.334000000000000341e+01 -7.562000000000000277e+00 -3.976107699123470479e-02
-6.450300000000000011e+01 7.192000000000000171e+01 -1.705000000000000071e+00 4.027769303316297567e-01
-6.448999999999999488e+01 4.961200000000000188e+01 -1.538100000000000023e+01 1.255829786558486649e-01
-6.448399999999999466e+01 3.753600000000000136e+01 -1.012899999999999956e+01 -5.697903998637236789e-02
-6.446099999999999852e+01 7.407999999999999829e+01 1.383699999999999974e+01 1.010593596913221814e-01
-6.444299999999999784e+01 3.381099999999999994e+01 -1.213000000000000078e+01 -2.538759990124580534e-01
-6.444199999999999307e+01 6.695999999999999375e+01 3.297000000000000153e+00 2.294981538154421963e-01
-6.438599999999999568e+01 4.073799999999999955e+01 -1.682999999999999829e+01 6.175076273323360301e-03
-6.438400000000000034e+01 6.408299999999999841e+01 1.436800000000000033e+01 -8.821221380666474654e-02
-6.438299999999999557e+01 6.457999999999999829e+01 2.920999999999999819e+00 2.561861327181969017e-01
-6.429800000000000182e+01 5.182800000000000296e+01 6.634000000000000341e+00 -2.095549447503081419e-01
-6.428799999999999670e+01 5.502600000000000335e+01 1.088700000000000045e+01 -4.211324549032609971e-02
-6.428700000000000614e+01 4.547800000000000153e+01 -6.955000000000000071e+00 -1.192950672850430494e-01
-6.422499999999999432e+01 6.007300000000000040e+01 -9.169000000000000483e+00 2.569870767829736044e-02
-6.420999999999999375e+01 5.850900000000000034e+01 4.926000000000000156e+00 4.445959805824512001e-01
-6.419100000000000250e+01 5.959300000000000352e+01 -5.519999999999999574e+00 2.850979726296450911e-01
-6.418099999999999739e+01 5.453199999999999648e+01 -8.160999999999999588e+00 -4.837849870479284803e-02
-6.408199999999999363e+01 5.058299999999999841e+01 -3.970000000000000195e-01 2.215537475602520345e-01
-6.404399999999999693e+01 3.332099999999999795e+01 -1.688299999999999912e+01 1.091733570191678604e-01
-6.400600000000000023e+01 5.893900000000000006e+01 -3.559999999999999831e-01 4.380671352764369253e-01
-6.396200000000000330e+01 4.785900000000000176e+01 3.604000000000000092e+00 -1.772454789853958601e-01
-6.395199999999999818e+01 6.380100000000000193e+01 -5.442999999999999616e+00 9.442075035940132588e-02
-6.392999999999999972e+01 4.994100000000000250e+01 -1.307900000000000063e+01 8.420646066774931104e-02
-6.392000000000000171e+01 4.177400000000000091e+01 -1.681000000000000050e+00 -6.934906116256717157e-02
-6.391899999999999693e+01 5.739000000000000057e+01 3.935000000000000053e+00 2.097318080256801165e-01
-6.390899999999999892e+01 5.245499999999999829e+01 1.806999999999999940e+00 1.451189156774166100e-01
-6.389600000000000080e+01 6.712800000000000011e+01 2.031000000000000139e+00 2.572645174713817928e-01
-6.386599999999999966e+01 7.641200000000000614e+01 5.397999999999999687e+00 2.228953102288384058e-01
-6.384899999999999665e+01 6.935099999999999909e+01 -5.323999999999999844e+00 4.039305217084243615e-01
-6.384199999999999875e+01 5.163400000000000034e+01 3.894000000000000128e+00 -1.155221765411486717e-01
-6.383800000000000097e+01 6.474200000000000443e+01 1.659999999999999920e+00 2.815370384781387125e-01
-6.379999999999999716e+01 5.592600000000000193e+01 9.768000000000000682e+00 -7.022099097415154811e-02
-6.375500000000000256e+01 4.708299999999999841e+01 2.472999999999999865e+00 3.340802839011104697e-02
-6.375399999999999778e+01 4.282399999999999807e+01 -5.857999999999999652e+00 3.907654197576840294e-02
-6.374799999999999756e+01 7.300600000000000023e+01 -9.509999999999999565e-01 2.014772698788484251e-01
-6.371999999999999886e+01 3.205599999999999739e+01 -1.440399999999999991e+01 -2.523391878684353995e-01
-6.371000000000000085e+01 7.761899999999999977e+01 1.975999999999999979e+00 9.768431765033082359e-02
-6.365599999999999881e+01 7.581600000000000250e+01 4.006000000000000227e+00 -1.109037379616069074e-01
-6.363499999999999801e+01 5.011599999999999966e+01 -1.441900000000000048e+01 -5.104648810801363373e-02
-6.360399999999999920e+01 7.432099999999999795e+01 1.285800000000000054e+01 1.697937074751147413e-01
-6.359499999999999886e+01 5.478699999999999903e+01 -3.738999999999999879e+00 1.303366237177814857e-01
-6.358700000000000330e+01 6.603799999999999670e+01 1.197999999999999954e+00 2.815813368839309438e-01
-6.356499999999999773e+01 7.428000000000000114e+01 4.100999999999999979e+00 1.373058595427013862e-01
-6.356300000000000239e+01 6.827299999999999613e+01 1.354999999999999982e+00 2.400926160294493683e-01
-6.355700000000000216e+01 6.719100000000000250e+01 -6.554000000000000270e+00 -9.746564308283889311e-02
-6.353000000000000114e+01 5.332000000000000028e+01 -3.333000000000000185e+00 1.850392146884656808e-01
-6.347200000000000131e+01 4.240999999999999659e+01 -1.023799999999999955e+01 5.232148737665585914e-02
-6.342499999999999716e+01 3.855499999999999972e+01 -7.552999999999999936e+00 1.602794419361422973e-01
-6.340699999999999648e+01 7.538599999999999568e+01 1.044800000000000040e+01 -1.419735240234443752e-01
-6.338000000000000256e+01 6.266599999999999682e+01 -3.423999999999999932e+00 1.844958138577044993e-01
-6.337500000000000000e+01 6.792100000000000648e+01 1.041399999999999970e+01 3.120867849735206589e-02
-6.334899999999999665e+01 5.299000000000000199e+01 -1.118800000000000061e+01 1.714876585481462379e-01
-6.334599999999999653e+01 5.231499999999999773e+01 2.996999999999999886e+00 1.540099498693577318e-01
-6.327199999999999847e+01 3.971200000000000330e+01 -9.664999999999999147e+00 9.457314800178152903e-02
-6.325099999999999767e+01 5.457600000000000051e+01 -1.311299999999999955e+01 -2.143223593283443695e-01
-6.324099999999999966e+01 6.795499999999999829e+01 7.679999999999999716e+00 1.531364985411299770e-02
-6.321900000000000119e+01 4.406000000000000227e+01 -9.499999999999999556e-01 -9.153003335082980294e-03
-6.321200000000000330e+01 3.961699999999999733e+01 -8.137000000000000455e+00 1.558364938136323763e-01
-6.317999999999999972e+01 4.902000000000000313e+01 -6.939000000000000057e+00 9.037259655548415815e-02
-6.316899999999999693e+01 3.829200000000000159e+01 -1.027399999999999913e+01 9.069431103872346855e-02
-6.316799999999999926e+01 4.029599999999999937e+01 -1.709199999999999875e+01 -3.386907802422126079e-01
-6.315999999999999659e+01 4.593299999999999983e+01 -1.630099999999999838e+01 -2.231358987003433381e-01
-6.312299999999999756e+01 6.801399999999999579e+01 -5.347999999999999865e+00 1.815963063393437049e-01
-6.306600000000000250e+01 5.385900000000000176e+01 8.602000000000000313e+00 -1.741821281492511309e-01
-6.305499999999999972e+01 6.793000000000000682e+01 1.270000000000000018e-01 3.213898781286322892e-01
-6.304999999999999716e+01 6.929099999999999682e+01 9.842999999999999972e+00 -2.735309050246443469e-02
-6.304800000000000182e+01 7.621800000000000352e+01 6.293999999999999595e+00 1.870453870886504000e-01
-6.304699999999999704e+01 5.402100000000000080e+01 -4.709999999999999742e-01 2.113324760186160722e-01
-6.304599999999999937e+01 6.657399999999999807e+01 -1.400000000000000029e-02 3.693911771528670673e-01
-6.303399999999999892e+01 6.111599999999999966e+01 4.329999999999999960e-01 2.430859000974547757e-03
-6.301700000000000301e+01 6.317300000000000182e+01 -4.653999999999999915e+00 9.920125885719423275e-02
-6.301100000000000279e+01 5.182300000000000040e+01 7.310999999999999943e+00 6.652328935051429748e-02
-6.300999999999999801e+01 5.960000000000000142e+01 5.989999999999999769e-01 1.709973100015293734e-01
-6.300699999999999790e+01 4.198799999999999955e+01 -5.344999999999999751e+00 -3.296068452616006395e-02
-6.297800000000000153e+01 6.509900000000000375e+01 -9.435000000000000497e+00 7.401577427952964194e-02
-6.297699999999999676e+01 4.799900000000000233e+01 4.557999999999999829e+00 -3.382617125928272239e-01
-6.297399999999999665e+01 5.978399999999999892e+01 -4.637999999999999901e+00 3.830751778686992681e-01
-6.294899999999999807e+01 7.042000000000000171e+01 7.588000000000000078e+00 2.956289067781031621e-01
-6.292799999999999727e+01 4.073400000000000176e+01 -7.483999999999999986e+00 2.209003460149703280e-01
-6.289699999999999847e+01 7.200199999999999534e+01 1.050200000000000067e+01 8.231008153993918386e-02
-6.287299999999999756e+01 4.286800000000000210e+01 -1.828999999999999959e+00 -1.154972510714848480e-02
-6.284700000000000131e+01 7.555800000000000693e+01 1.276900000000000013e+01 -1.305148461993065404e-02
-6.282200000000000273e+01 7.602800000000000580e+01 1.132199999999999918e+01 -3.677215598274019559e-01
-6.282000000000000028e+01 4.804200000000000159e+01 -2.835999999999999854e+00 2.941169619637796218e-01
-6.275000000000000000e+01 3.835900000000000176e+01 -1.173499999999999943e+01 8.158466009603825009e-02
-6.272399999999999665e+01 4.329399999999999693e+01 -3.307999999999999829e+00 -1.431683351344263146e-02
-6.270799999999999841e+01 5.522299999999999898e+01 8.938000000000000611e+00 -2.252190063719872182e-01
-6.270100000000000051e+01 4.638300000000000267e+01 -1.507300000000000040e+01 9.611310008894949353e-02
-6.267300000000000182e+01 4.069400000000000261e+01 -6.057999999999999829e+00 3.718339228165530863e-01
-6.265899999999999892e+01 3.754599999999999937e+01 -1.827700000000000102e+01 -2.354413689971964485e-01
-6.265800000000000125e+01 5.660900000000000176e+01 4.355999999999999872e+00 2.415167201371890560e-01
-6.264999999999999858e+01 5.383400000000000318e+01 -1.217099999999999937e+01 -1.858728972413932479e-01
-6.263900000000000290e+01 5.115500000000000114e+01 -6.049999999999999822e+00 1.036341391658657518e-01
-6.261999999999999744e+01 5.530400000000000205e+01 -1.388400000000000034e+01 -1.805528890097846950e-01
-6.260600000000000165e+01 7.723199999999999932e+01 2.370999999999999996e+00 9.615440658316594391e-02
-6.259799999999999898e+01 6.915999999999999659e+01 8.361000000000000654e+00 2.788114456963704524e-01
-6.259000000000000341e+01 3.930799999999999983e+01 -1.608999999999999986e+01 -3.516544636036048610e-01
-6.257800000000000296e+01 5.554899999999999949e+01 2.213000000000000078e+00 2.508756191419485027e-01
-6.256099999999999994e+01 6.579399999999999693e+01 -1.193000000000000060e+00 2.790047634294864354e-01
-6.255799999999999983e+01 5.325699999999999790e+01 7.541999999999999815e+00 -3.351689342117110393e-02
-6.254999999999999716e+01 3.362100000000000222e+01 -1.677299999999999969e+01 2.547475100014653937e-02
-6.253199999999999648e+01 4.644800000000000040e+01 2.326000000000000068e+00 3.494947351165165750e-01
-6.252100000000000080e+01 4.066199999999999903e+01 -1.807499999999999929e+01 -3.293854220713746672e-01
-6.248899999999999721e+01 7.343699999999999761e+01 -1.739999999999999991e+00 2.082623434767942872e-01
-6.248799999999999955e+01 6.708899999999999864e+01 1.060599999999999987e+01 4.695744382429950514e-02
-6.248700000000000188e+01 5.541299999999999670e+01 3.431000000000000050e+00 3.022822060696205848e-01
-6.247999999999999687e+01 7.374399999999999977e+01 3.181000000000000050e+00 4.042016237763140785e-01
-6.247899999999999920e+01 7.638400000000000034e+01 3.370999999999999996e+00 2.160958197097688216e-01
-6.243500000000000227e+01 6.217300000000000182e+01 1.465399999999999991e+01 -3.077634150347544756e-02
-6.243299999999999983e+01 4.215200000000000102e+01 -4.160000000000000142e+00 3.863159785443762151e-02
-6.242999999999999972e+01 6.117199999999999704e+01 8.019000000000000128e+00 5.952568582401149971e-02
-6.239000000000000057e+01 4.185499999999999687e+01 -1.039700000000000024e+01 1.567438669485030078e-01
-6.234899999999999665e+01 5.011500000000000199e+01 -6.899000000000000021e+00 1.319460287463442572e-01
-6.233100000000000307e+01 4.512299999999999756e+01 -1.706500000000000128e+01 -1.786128378480598411e-01
-6.227400000000000091e+01 5.668200000000000216e+01 -1.004899999999999949e+01 1.078603903056292862e-01
-6.225900000000000034e+01 5.209700000000000131e+01 -1.067200000000000060e+01 -7.575379330391524176e-03
-6.224199999999999733e+01 5.303999999999999915e+01 -2.509999999999999787e+00 4.012136837838832792e-01
-6.222399999999999665e+01 5.425500000000000256e+01 4.009999999999999787e+00 -1.152282687577544651e-01
-6.219800000000000040e+01 4.057000000000000028e+01 -1.014700000000000024e+01 1.250736905564530377e-01
-6.216599999999999682e+01 5.167699999999999960e+01 -2.032000000000000028e+00 1.380581331802262501e-01
-6.215100000000000335e+01 7.713800000000000523e+01 1.107099999999999973e+01 1.099191640035128772e-02
-6.214600000000000080e+01 5.396200000000000330e+01 -1.308000000000000052e+00 4.058596518002903220e-01
-6.212299999999999756e+01 3.433100000000000307e+01 -1.586299999999999955e+01 3.401038966987637857e-02
-6.206700000000000017e+01 7.976600000000000534e+01 7.079999999999999627e-01 1.931105394849938206e-01
-6.206099999999999994e+01 7.122899999999999920e+01 1.095700000000000074e+01 8.376601193138873136e-02
-6.204899999999999949e+01 7.835200000000000387e+01 -1.750999999999999890e+00 1.522088607181761033e-01
-6.204800000000000182e+01 5.305700000000000216e+01 3.221999999999999975e+00 1.017967101849326372e-01
-6.204299999999999926e+01 6.993200000000000216e+01 1.067900000000000027e+01 4.872174467421301267e-03
-6.202199999999999847e+01 4.556099999999999994e+01 -3.750000000000000000e+00 3.283349877092047731e-01
-6.200999999999999801e+01 7.916800000000000637e+01 9.679000000000000270e+00 5.129365164100135877e-02
-6.199300000000000210e+01 7.763599999999999568e+01 9.714999999999999858e+00 -5.104200963606272262e-02
-6.199099999999999966e+01 4.673199999999999932e+01 -6.086000000000000298e+00 3.423439024003614994e-01
-6.198400000000000176e+01 4.005400000000000205e+01 -1.490099999999999980e+01 -1.073774257102027424e-01
-6.195700000000000074e+01 5.106600000000000250e+01 6.495000000000000107e+00 1.382639169744533103e-01
-6.194899999999999807e+01 6.978100000000000591e+01 4.070999999999999730e+00 2.144776299217714954e-01
-6.188799999999999812e+01 5.769899999999999807e+01 -5.485000000000000320e+00 3.451150392304939141e-01
-6.182000000000000028e+01 5.226400000000000290e+01 -6.020999999999999908e+00 3.416979098491272349e-01
-6.181099999999999994e+01 6.468800000000000239e+01 -9.617000000000000881e+00 1.289515003264639081e-01
-6.180499999999999972e+01 5.382099999999999795e+01 6.746999999999999886e+00 -3.396307132569321291e-02
-6.177000000000000313e+01 4.735999999999999943e+01 4.391000000000000014e+00 -1.991909764632782132e-01
-6.176899999999999835e+01 3.307399999999999807e+01 -1.770599999999999952e+01 -1.533450057615292350e-01
-6.171900000000000119e+01 7.448199999999999932e+01 -9.379999999999999449e-01 -1.156772785755126876e-01
-6.169200000000000017e+01 5.918900000000000006e+01 -5.216999999999999638e+00 4.188052791773043682e-01
-6.165999999999999659e+01 7.033799999999999386e+01 1.424200000000000088e+01 4.464965215111001140e-02
-6.163400000000000034e+01 7.838800000000000523e+01 4.450000000000000067e-01 2.214174461044386144e-01
-6.162800000000000011e+01 7.229600000000000648e+01 -2.023000000000000131e+00 3.876652261930998433e-01
-6.162599999999999767e+01 4.434499999999999886e+01 -3.410000000000000142e+00 3.592088293792539133e-02
-6.161299999999999955e+01 4.782200000000000273e+01 -2.950000000000000178e+00 3.302162671893196233e-01
-6.159199999999999875e+01 6.821399999999999864e+01 -5.355000000000000426e+00 1.813948489957210586e-01
-6.159000000000000341e+01 3.772200000000000131e+01 -1.769000000000000128e+01 5.535984374581569278e-02
-6.158500000000000085e+01 5.906600000000000250e+01 3.529999999999999805e-01 1.958082178796991535e-01
-6.157399999999999807e+01 4.628300000000000125e+01 8.013999999999999346e+00 -2.905705486694983852e-01
-6.154299999999999926e+01 4.658299999999999841e+01 3.278000000000000025e+00 -4.016069881615172421e-02
-6.154099999999999682e+01 6.319500000000000028e+01 -9.509000000000000341e+00 1.015632845424763592e-01
-6.153000000000000114e+01 5.762500000000000000e+01 4.570000000000000173e-01 4.125030171497279241e-01
-6.147500000000000142e+01 7.785699999999999932e+01 -7.820000000000000284e-01 1.858504695923285932e-01
-6.147099999999999653e+01 3.853699999999999903e+01 -1.663100000000000023e+01 -2.367899592777843731e-01
-6.146600000000000108e+01 5.744100000000000250e+01 4.328999999999999737e+00 9.073141084372328413e-02
-6.145700000000000074e+01 7.383799999999999386e+01 7.865999999999999659e+00 8.308778925683427130e-02
-6.144899999999999807e+01 7.430299999999999727e+01 2.510000000000000009e-01 -7.510411148021131633e-02
-6.144299999999999784e+01 4.603600000000000136e+01 -1.461899999999999977e+01 1.614267167047457319e-01
-6.143399999999999750e+01 6.866599999999999682e+01 -3.005999999999999783e+00 1.811449852060733612e-01
-6.141400000000000148e+01 7.535200000000000387e+01 1.326200000000000045e+01 -3.668863678160960151e-01
-6.140699999999999648e+01 4.757099999999999795e+01 9.914999999999999147e+00 -2.873711826524799617e-01
-6.138499999999999801e+01 8.010599999999999454e+01 2.019000000000000128e+00 1.651899099584966391e-01
-6.137800000000000011e+01 5.527000000000000313e+01 9.673000000000000043e+00 -1.927813353746388181e-01
-6.134700000000000131e+01 4.745700000000000074e+01 8.592999999999999972e+00 -2.760318340185339836e-01
-6.132600000000000051e+01 7.772799999999999443e+01 1.699999999999999956e+00 1.792437999637052637e-01
-6.132500000000000284e+01 7.554000000000000625e+01 -1.618999999999999995e+00 -5.231544780103032644e-02
-6.130100000000000193e+01 7.500700000000000500e+01 1.473900000000000077e+01 -1.206660840994426467e-03
-6.128600000000000136e+01 8.000000000000000000e+01 1.178800000000000026e+01 -1.692954088780170319e-06
-6.127799999999999869e+01 5.491400000000000148e+01 1.084600000000000009e+01 -1.673711527083241168e-01
-6.123899999999999721e+01 5.017300000000000182e+01 -7.714999999999999858e+00 1.195486299319433038e-01
-6.119599999999999795e+01 6.435399999999999920e+01 3.625999999999999890e+00 2.154505484042599783e-01
-6.119400000000000261e+01 5.377199999999999847e+01 -1.201500000000000057e+01 -1.142259538253468792e-01
-6.117799999999999727e+01 6.904399999999999693e+01 -4.147000000000000242e+00 1.562951292040274665e-01
-6.117199999999999704e+01 4.262899999999999778e+01 -1.087800000000000011e+01 3.854667049471246359e-02
-6.117099999999999937e+01 5.238499999999999801e+01 -1.396499999999999986e+01 -9.560314618384629926e-02
-6.114500000000000313e+01 6.243299999999999983e+01 1.449900000000000055e+01 -1.367092275822745784e-01
-6.110600000000000165e+01 4.668099999999999739e+01 -3.810999999999999943e+00 3.814077309721082831e-01
-6.107900000000000063e+01 5.094899999999999807e+01 -2.185000000000000053e+00 1.537627885181873655e-01
-6.107200000000000273e+01 4.477499999999999858e+01 -1.661499999999999844e+01 -6.639966876774126836e-02
-6.105899999999999750e+01 4.961800000000000210e+01 -1.441999999999999948e+00 2.043412710795281806e-01
-6.105100000000000193e+01 6.556100000000000705e+01 -1.159000000000000030e+00 2.352985289186371176e-02
-6.104599999999999937e+01 4.850999999999999801e+01 7.836000000000000298e+00 -1.322800561804060859e-01
-6.103999999999999915e+01 7.307599999999999341e+01 -4.046000000000000263e+00 2.080733034201402987e-01
-6.102700000000000102e+01 5.463700000000000045e+01 -1.195000000000000062e+00 4.116577678501507909e-01
-6.102499999999999858e+01 6.062800000000000011e+01 7.844999999999999751e+00 -1.543834710616951988e-01
-6.100099999999999767e+01 5.288499999999999801e+01 -1.077999999999999936e+01 2.928306266826293143e-03
-6.099799999999999756e+01 4.247099999999999653e+01 -1.238000000000000078e+01 1.403853143815483873e-01
-6.098499999999999943e+01 7.172100000000000364e+01 1.192500000000000071e+01 -1.475226548437975349e-01
-6.097500000000000142e+01 7.979600000000000648e+01 1.059399999999999942e+01 -1.716911390184169134e-02
-6.095499999999999829e+01 5.071200000000000330e+01 -1.733099999999999952e+01 -1.821743713838812062e-01
-6.094800000000000040e+01 7.222599999999999909e+01 -3.161999999999999922e+00 4.107841826249550854e-01
-6.092300000000000182e+01 4.864399999999999835e+01 -1.164600000000000080e+01 -1.224682445796376404e-02
-6.091499999999999915e+01 6.494899999999999807e+01 -3.467000000000000082e+00 -3.394346418503777635e-02
-6.090599999999999881e+01 4.717000000000000171e+01 -5.256000000000000227e+00 3.700574604952205360e-01
-6.089699999999999847e+01 6.693999999999999773e+01 -5.354000000000000092e+00 -1.192676506667072617e-01
-6.088100000000000023e+01 5.961099999999999710e+01 2.579000000000000181e+00 2.583111586171963348e-01
-6.086500000000000199e+01 6.545399999999999352e+01 -9.910000000000000142e+00 1.145760394429552881e-01
-6.085099999999999909e+01 5.714699999999999847e+01 -9.871000000000000441e+00 -1.675875042639724533e-01
-6.079899999999999949e+01 5.866799999999999926e+01 -9.743999999999999773e+00 6.296843623117005795e-02
-6.079800000000000182e+01 6.970000000000000284e+01 3.081999999999999851e+00 1.288447911391650824e-01
-6.078499999999999659e+01 4.749600000000000222e+01 5.339999999999999858e+00 -1.773151564134716751e-01
-6.077000000000000313e+01 4.985099999999999909e+01 8.352999999999999758e+00 1.258611278731523453e-01
-6.075500000000000256e+01 7.679099999999999682e+01 7.825999999999999623e+00 1.715176693724834722e-01
-6.075099999999999767e+01 5.541599999999999682e+01 -1.000000000000000021e-02 4.279716823423397321e-01
-6.074000000000000199e+01 5.689999999999999858e+01 -3.109999999999999987e-01 4.213819240674643862e-01
-6.073400000000000176e+01 6.012199999999999989e+01 1.374799999999999933e+01 1.125646031974004008e-01
-6.070199999999999818e+01 7.711499999999999488e+01 9.105999999999999872e+00 -1.280682101672888651e-01
-6.069800000000000040e+01 5.235199999999999676e+01 -6.828000000000000291e+00 9.493533935305654287e-03
-6.069700000000000273e+01 7.886400000000000432e+01 2.503000000000000114e+00 1.546271478303359870e-01
-6.069500000000000028e+01 4.853900000000000148e+01 -2.334000000000000075e+00 2.698036605951596445e-01
-6.069100000000000250e+01 4.290800000000000125e+01 -8.173000000000000043e+00 -6.969583085011489543e-02
-6.068800000000000239e+01 6.364600000000000080e+01 1.477299999999999969e+01 -1.788893357895209035e-01
-6.064099999999999824e+01 5.967900000000000205e+01 1.368999999999999995e+00 2.799490050197986357e-01
-6.063900000000000290e+01 5.086999999999999744e+01 7.230000000000000426e+00 1.262349499824194921e-01
-6.062899999999999778e+01 4.523100000000000165e+01 -1.539100000000000001e+01 1.659479564419311937e-01
-6.062100000000000222e+01 7.005400000000000205e+01 1.365300000000000047e+01 -2.721468505094883431e-02
-6.061800000000000210e+01 7.103199999999999648e+01 2.365000000000000213e+00 4.170056789442481149e-01
-6.061399999999999721e+01 6.467199999999999704e+01 -2.310000000000000053e+00 -2.811162844967975416e-01
-6.060600000000000165e+01 7.662099999999999511e+01 -9.869999999999999885e-01 1.260833462718961295e-01
-6.060399999999999920e+01 3.555799999999999983e+01 -1.822200000000000131e+01 -6.852650790382722179e-02
-6.055400000000000205e+01 5.074399999999999977e+01 7.610000000000000098e-01 2.459647676115604420e-01
-6.052600000000000335e+01 5.313400000000000034e+01 -1.323199999999999932e+01 -7.062428222389946497e-02
-6.052199999999999847e+01 7.016299999999999670e+01 -4.408000000000000362e+00 1.467398807609724132e-01
-6.051299999999999812e+01 4.004500000000000171e+01 -1.514400000000000013e+01 -3.360099655220806225e-01
-6.050200000000000244e+01 5.640699999999999648e+01 6.078999999999999737e+00 -2.726257630450786788e-03
-6.049399999999999977e+01 5.942099999999999937e+01 -4.256000000000000227e+00 7.582707380759992621e-02
-6.046200000000000330e+01 5.723799999999999955e+01 5.168000000000000149e+00 1.895274421996408498e-01
-6.045199999999999818e+01 4.405499999999999972e+01 -3.182999999999999829e+00 5.121583975604911826e-02
-6.043200000000000216e+01 7.025799999999999557e+01 -5.020000000000000018e-01 3.956504918201995680e-01
-6.041799999999999926e+01 5.128600000000000136e+01 -7.676999999999999602e+00 8.729101590193003024e-02
-6.040100000000000335e+01 6.256000000000000227e+01 6.352000000000000313e+00 2.959039655923914047e-01
