1.824800000000000111e+01 4.765999999999999659e+01 5.179599999999999937e+01 1.169264679257703277e-01
1.825700000000000145e+01 4.681700000000000017e+01 4.418900000000000006e+01 -1.221466719633325926e-01
1.826999999999999957e+01 5.139900000000000091e+01 6.090299999999999869e+01 1.773848267161972636e-01
1.828500000000000014e+01 6.182500000000000284e+01 6.371399999999999864e+01 -3.121900465586572304e-01
1.831700000000000017e+01 4.673400000000000176e+01 3.916499999999999915e+01 -2.023932786440057474e-01
1.832999999999999829e+01 5.135099999999999909e+01 4.980599999999999739e+01 1.280945296393455612e-01
1.835800000000000054e+01 6.523600000000000421e+01 4.561500000000000199e+01 -1.204366621567671547e-01
1.836499999999999844e+01 6.385300000000000153e+01 5.374000000000000199e+01 3.001664430268036199e-01
1.842299999999999827e+01 5.947899999999999920e+01 5.770499999999999829e+01 1.847352151146645638e-01
1.844800000000000040e+01 4.957600000000000051e+01 6.826800000000000068e+01 -5.209142266340553717e-03
1.848000000000000043e+01 7.239000000000000057e+01 5.010900000000000176e+01 -1.918687112064143274e-01
1.848799999999999955e+01 5.447099999999999653e+01 5.133899999999999864e+01 3.587215878176181622e-02
1.850400000000000134e+01 6.187400000000000233e+01 5.985099999999999909e+01 2.502760962795121391e-01
1.851599999999999824e+01 4.220400000000000063e+01 5.786699999999999733e+01 -8.179905643222105255e-03
1.851800000000000068e+01 6.606499999999999773e+01 3.648700000000000188e+01 -1.284929527844786701e-01
1.855399999999999849e+01 5.928000000000000114e+01 6.238300000000000267e+01 2.561059939599201196e-01
1.856299999999999883e+01 4.182600000000000051e+01 4.213400000000000034e+01 -2.606242558393488951e-01
1.856800000000000139e+01 6.914100000000000534e+01 5.406199999999999761e+01 1.080869897938170343e-01
1.857900000000000063e+01 5.613499999999999801e+01 3.727000000000000313e+01 -2.444758043615349874e-01
1.859100000000000108e+01 4.797800000000000153e+01 4.101599999999999824e+01 -5.041221883858935243e-02
1.859499999999999886e+01 5.810499999999999687e+01 5.772299999999999898e+01 3.374118005431274714e-01
1.864399999999999835e+01 7.063200000000000500e+01 4.649399999999999977e+01 2.112298421300930484e-01
1.866700000000000159e+01 4.891799999999999926e+01 6.100999999999999801e+01 3.196357709377556922e-01
1.866799999999999926e+01 4.086399999999999721e+01 5.715899999999999892e+01 -5.429409998863669179e-02
1.866799999999999926e+01 5.621000000000000085e+01 6.540300000000000580e+01 -4.388204677187389213e-02
1.867099999999999937e+01 4.379899999999999949e+01 4.737199999999999989e+01 -3.296813701948788089e-01
1.872299999999999898e+01 7.252700000000000102e+01 5.385600000000000165e+01 -1.478307004794569557e-01
1.873600000000000065e+01 3.771900000000000119e+01 6.138799999999999812e+01 -1.429616572451705269e-03
1.875900000000000034e+01 4.424199999999999733e+01 4.517300000000000182e+01 -2.064125475694111311e-01
1.885000000000000142e+01 5.710099999999999909e+01 4.123400000000000176e+01 -3.149345524380344763e-01
1.885099999999999909e+01 6.785399999999999920e+01 6.329899999999999949e+01 -2.455265922675570478e-01
1.887399999999999878e+01 7.048000000000000398e+01 5.160999999999999943e+01 3.685349503137665302e-03
1.890599999999999881e+01 6.635699999999999932e+01 6.305700000000000216e+01 -2.380697103583623575e-01
1.891499999999999915e+01 5.448499999999999943e+01 4.544599999999999795e+01 -1.341653078576902358e-01
1.891900000000000048e+01 6.676900000000000546e+01 5.571800000000000352e+01 -1.085906961875791887e-01
1.892000000000000171e+01 6.433299999999999841e+01 6.742700000000000671e+01 -2.408197567878461176e-01
1.892500000000000071e+01 6.397299999999999898e+01 5.867699999999999960e+01 -7.328535832801257033e-02
1.893700000000000117e+01 6.273499999999999943e+01 6.893600000000000705e+01 -2.503000946044615094e-01
1.896000000000000085e+01 5.689800000000000324e+01 6.270400000000000063e+01 -2.287049002126315470e-02
1.896699999999999875e+01 4.782300000000000040e+01 6.536400000000000432e+01 2.334655767004171767e-01
1.898799999999999955e+01 6.118500000000000227e+01 6.087899999999999778e+01 2.992456563634254274e-01
1.900700000000000145e+01 7.200400000000000489e+01 4.610799999999999699e+01 1.965534563688375314e-01
1.901800000000000068e+01 4.711500000000000199e+01 4.009899999999999665e+01 -2.361513294080578029e-01
1.901899999999999835e+01 6.751900000000000546e+01 3.805400000000000205e+01 -3.657641652958027456e-01
1.905099999999999838e+01 6.680100000000000193e+01 5.426400000000000290e+01 1.828000102502166935e-02
1.905600000000000094e+01 4.458899999999999864e+01 5.786099999999999710e+01 -1.905792308533105772e-01
1.905999999999999872e+01 5.414200000000000301e+01 5.256000000000000227e+01 3.517594314631371927e-02
1.907199999999999918e+01 4.310900000000000176e+01 6.333400000000000318e+01 -4.813119967126978233e-02
1.908399999999999963e+01 5.814300000000000068e+01 4.044599999999999795e+01 -2.782477488645372921e-01
1.909299999999999997e+01 7.208799999999999386e+01 5.494100000000000250e+01 -1.224946799853059709e-01
1.910800000000000054e+01 4.324399999999999977e+01 5.728900000000000148e+01 -8.675380859182445226e-02
1.911199999999999832e+01 6.856000000000000227e+01 4.724399999999999977e+01 1.861075846025629296e-02
1.914099999999999824e+01 4.699199999999999733e+01 5.375200000000000244e+01 3.549066338791576625e-01
1.917899999999999849e+01 5.529399999999999693e+01 5.044500000000000028e+01 1.160145922185833178e-02
1.922800000000000153e+01 7.305599999999999739e+01 5.097800000000000153e+01 -2.499261200530066007e-01
1.925100000000000122e+01 4.277900000000000347e+01 4.273299999999999699e+01 -2.652298062412221102e-01
1.931599999999999895e+01 4.392699999999999960e+01 4.228999999999999915e+01 -2.823482739414447940e-01
1.931800000000000139e+01 6.182000000000000028e+01 5.752499999999999858e+01 1.818113629226279504e-01
1.933299999999999841e+01 6.821500000000000341e+01 5.378799999999999670e+01 2.735913213539967193e-02
1.935300000000000153e+01 6.669100000000000250e+01 3.717799999999999727e+01 -8.448435018622331427e-02
1.936899999999999977e+01 6.253699999999999903e+01 5.888199999999999790e+01 2.183818754582366739e-01
1.941300000000000026e+01 6.329999999999999716e+01 6.792799999999999727e+01 -2.415653419668287172e-01
1.945799999999999841e+01 7.033799999999999386e+01 4.335600000000000165e+01 6.661788357068934401e-03
1.946699999999999875e+01 5.092999999999999972e+01 5.589300000000000068e+01 2.119105495181999588e-01
1.949200000000000088e+01 6.223100000000000165e+01 3.762400000000000233e+01 -1.880646570325774092e-01
1.950300000000000011e+01 6.966700000000000159e+01 4.685900000000000176e+01 1.294866943806093074e-01
1.951500000000000057e+01 6.033200000000000074e+01 5.760499999999999687e+01 1.900584071278673126e-01
1.957999999999999829e+01 6.619899999999999807e+01 5.798499999999999943e+01 -8.922685667086600880e-02
1.959799999999999898e+01 3.999399999999999977e+01 5.787199999999999989e+01 -3.721199021568374898e-01
1.965399999999999991e+01 5.146200000000000330e+01 4.978300000000000125e+01 1.214972380104996363e-01
1.978699999999999903e+01 6.346500000000000341e+01 3.724499999999999744e+01 -1.427773272843256280e-01
1.978999999999999915e+01 4.444899999999999807e+01 6.332500000000000284e+01 3.097728165886726170e-01
1.979599999999999937e+01 7.436199999999999477e+01 5.065999999999999659e+01 -1.667073168613174838e-01
1.980000000000000071e+01 4.959899999999999665e+01 5.565899999999999892e+01 3.396302821514948223e-01
1.984799999999999898e+01 5.625300000000000011e+01 6.161299999999999955e+01 -1.481567664305516452e-02
1.985200000000000031e+01 6.621800000000000352e+01 5.648400000000000176e+01 1.819829654386643722e-02
1.986499999999999844e+01 5.756799999999999784e+01 5.763900000000000290e+01 3.316217122202159140e-01
1.988200000000000145e+01 6.487500000000000000e+01 5.851400000000000290e+01 -1.415124392902583073e-01
1.988400000000000034e+01 6.198799999999999955e+01 5.048799999999999955e+01 3.218689425463964193e-01
1.990399999999999991e+01 6.521299999999999386e+01 4.559499999999999886e+01 2.583668589226228440e-01
1.991900000000000048e+01 4.240999999999999659e+01 4.403900000000000148e+01 -2.631751397015599792e-01
1.994399999999999906e+01 6.827100000000000080e+01 4.391100000000000136e+01 2.429816664629123185e-02
1.997100000000000009e+01 5.390299999999999869e+01 4.626899999999999835e+01 -1.093071863399985438e-01
1.998600000000000065e+01 5.892000000000000171e+01 4.471999999999999886e+01 -9.055582434995304575e-02
2.000499999999999901e+01 5.152700000000000102e+01 4.536800000000000210e+01 -2.206427341606203851e-01
2.001699999999999946e+01 4.199300000000000210e+01 6.293999999999999773e+01 -2.205081880949909812e-01
2.007100000000000151e+01 4.360900000000000176e+01 4.497699999999999676e+01 -2.144608937077691624e-01
2.008899999999999864e+01 6.868399999999999750e+01 5.821600000000000108e+01 -1.170292323523033744e-02
2.016499999999999915e+01 7.021999999999999886e+01 5.144800000000000040e+01 -3.011825548205850599e-03
2.016799999999999926e+01 6.931399999999999295e+01 4.326100000000000279e+01 1.788225921414301339e-02
2.019399999999999906e+01 6.109499999999999886e+01 6.111800000000000210e+01 2.589139881875154314e-01
2.024099999999999966e+01 7.508199999999999363e+01 5.194700000000000273e+01 -1.358247488075273179e-01
2.025400000000000134e+01 5.212599999999999767e+01 4.893999999999999773e+01 9.663804073921936078e-02
2.025799999999999912e+01 6.328399999999999892e+01 5.017600000000000193e+01 8.244804748229385416e-02
2.028999999999999915e+01 5.486699999999999733e+01 6.204399999999999693e+01 2.434086142318972468e-01
2.030300000000000082e+01 5.194299999999999784e+01 5.545000000000000284e+01 1.488451392931274542e-01
2.030999999999999872e+01 6.582699999999999818e+01 6.326100000000000279e+01 -2.218551210594874035e-01
2.031200000000000117e+01 5.463900000000000290e+01 5.288900000000000290e+01 2.504324004049052199e-01
2.033500000000000085e+01 6.143800000000000239e+01 3.804399999999999693e+01 -1.665330177705188486e-01
2.033699999999999974e+01 6.149900000000000233e+01 6.642199999999999704e+01 -2.417279527091016345e-01
2.034600000000000009e+01 7.216800000000000637e+01 5.534400000000000119e+01 -1.194454966557119552e-01
2.038200000000000145e+01 6.575799999999999557e+01 4.435399999999999920e+01 2.980370756418300113e-02
2.041499999999999915e+01 6.379399999999999693e+01 4.573899999999999721e+01 2.828601272091020857e-01
2.042000000000000171e+01 5.068099999999999739e+01 5.083500000000000085e+01 -3.512919369460064389e-02
2.042899999999999849e+01 4.659000000000000341e+01 5.859100000000000108e+01 2.730040497899579033e-01
2.043400000000000105e+01 6.726699999999999591e+01 5.866499999999999915e+01 -3.866640973033060313e-01
2.043700000000000117e+01 4.658899999999999864e+01 4.027000000000000313e+01 -4.288431962268324238e-02
2.043900000000000006e+01 6.838200000000000500e+01 5.307600000000000051e+01 2.649554626827393955e-01
2.044099999999999895e+01 5.578999999999999915e+01 5.075999999999999801e+01 -1.487846295177832137e-02
2.044399999999999906e+01 4.529099999999999682e+01 5.778600000000000136e+01 1.253700081101741248e-01
2.044399999999999906e+01 4.817099999999999937e+01 6.557299999999999329e+01 2.272047663911513915e-01
2.045100000000000051e+01 6.444499999999999318e+01 6.266899999999999693e+01 -2.368457393978307957e-01
2.051899999999999835e+01 4.732200000000000273e+01 5.340800000000000125e+01 -1.093398183096539258e-02
2.051899999999999835e+01 5.866899999999999693e+01 4.042099999999999937e+01 -8.729691231437217147e-02
2.054899999999999949e+01 6.009400000000000119e+01 4.096999999999999886e+01 6.100102809334934095e-02
2.058399999999999963e+01 4.530299999999999727e+01 3.943200000000000216e+01 -2.378959404913410514e-01
2.064799999999999969e+01 6.271000000000000085e+01 6.728400000000000603e+01 -2.333171141918110314e-01
2.067200000000000060e+01 6.092600000000000193e+01 5.008200000000000074e+01 3.159723044465854169e-01
2.067500000000000071e+01 5.041499999999999915e+01 4.334400000000000119e+01 -1.320045808958989764e-01
2.069200000000000017e+01 5.960799999999999699e+01 4.619200000000000017e+01 -1.260710062368730344e-01
2.071199999999999974e+01 5.925399999999999778e+01 6.414600000000000080e+01 -1.612740948005805808e-01
2.074699999999999989e+01 5.284199999999999875e+01 4.548299999999999699e+01 3.420775275224875733e-02
2.075100000000000122e+01 4.634499999999999886e+01 4.167399999999999949e+01 -2.029318087596757025e-01
2.077499999999999858e+01 7.049099999999999966e+01 5.041400000000000148e+01 2.998898965669660188e-01
2.078500000000000014e+01 5.978300000000000125e+01 5.752700000000000102e+01 1.738231731058971496e-01
2.079700000000000060e+01 5.046200000000000330e+01 4.465599999999999881e+01 -2.383860034883199253e-01
2.083699999999999974e+01 6.077499999999999858e+01 5.384400000000000119e+01 1.794426537515982356e-01
2.084299999999999997e+01 6.648399999999999466e+01 3.692600000000000193e+01 -3.499999999999999778e-01
2.085399999999999920e+01 5.190699999999999648e+01 6.411799999999999500e+01 2.315198688421604700e-01
2.088100000000000023e+01 6.571999999999999886e+01 5.602700000000000102e+01 2.081381474107241863e-02
2.089399999999999835e+01 6.971099999999999852e+01 5.268399999999999750e+01 2.846910064618243252e-01
2.089600000000000080e+01 4.027000000000000313e+01 5.793900000000000006e+01 -2.622248166027180138e-01
2.090700000000000003e+01 4.581300000000000239e+01 4.434400000000000119e+01 -1.463643438436790234e-01
2.092699999999999960e+01 5.225800000000000267e+01 6.715600000000000591e+01 2.456702131482296214e-01
2.093400000000000105e+01 5.493699999999999761e+01 4.684100000000000108e+01 7.709009618001270991e-02
2.096099999999999852e+01 7.428400000000000603e+01 4.967099999999999937e+01 -1.126493777367535143e-01
2.096300000000000097e+01 4.926700000000000301e+01 5.497899999999999920e+01 2.111896434641644671e-01
2.096300000000000097e+01 5.840800000000000125e+01 5.754099999999999682e+01 3.887542324408146954e-01
2.099299999999999855e+01 5.546000000000000085e+01 5.199300000000000210e+01 2.387232200627399659e-01
2.099800000000000111e+01 6.997599999999999909e+01 4.671900000000000119e+01 6.775464916715459585e-02
2.103999999999999915e+01 5.338100000000000023e+01 6.615000000000000568e+01 -7.227572835333981316e-02
2.105099999999999838e+01 5.714200000000000301e+01 6.131799999999999784e+01 3.377416724059646713e-02
2.107499999999999929e+01 7.082800000000000296e+01 5.794299999999999784e+01 -9.839910270510972279e-02
2.110300000000000153e+01 5.862700000000000244e+01 3.908200000000000074e+01 -2.842113935210628384e-01
2.110399999999999920e+01 4.842399999999999949e+01 6.422700000000000387e+01 3.273118476436972513e-01
2.114600000000000080e+01 4.703199999999999648e+01 6.629800000000000182e+01 3.329939793232005729e-01
2.116100000000000136e+01 6.391299999999999670e+01 3.705199999999999960e+01 -3.499999999999999223e-01
2.117699999999999960e+01 6.518399999999999750e+01 3.618900000000000006e+01 -3.499999999999999778e-01
2.118799999999999883e+01 4.452199999999999847e+01 4.445000000000000284e+01 -1.144928521132911187e-01
2.120100000000000051e+01 4.479200000000000159e+01 4.942699999999999960e+01 -9.929318226264316483e-02
2.120799999999999841e+01 4.608500000000000085e+01 5.284799999999999898e+01 6.299191690806973942e-02
2.120899999999999963e+01 4.428099999999999881e+01 4.022099999999999653e+01 -1.677879763969230831e-01
2.123600000000000065e+01 6.966599999999999682e+01 5.837199999999999989e+01 -8.943669795480489737e-02
2.123699999999999832e+01 5.657099999999999795e+01 4.974099999999999966e+01 1.033332109322120385e-01
2.124899999999999878e+01 4.377700000000000102e+01 5.968599999999999994e+01 3.742489218659428296e-01
2.125300000000000011e+01 3.818399999999999750e+01 6.492199999999999704e+01 -8.285841562389414938e-02
2.126999999999999957e+01 4.783700000000000330e+01 5.464200000000000301e+01 3.400381446550156950e-01
2.127899999999999991e+01 4.713700000000000045e+01 4.849399999999999977e+01 -2.158191579105678826e-01
2.129299999999999926e+01 5.474099999999999966e+01 4.810300000000000153e+01 -6.632691632964579642e-02
2.130699999999999861e+01 6.595199999999999818e+01 5.185000000000000142e+01 1.709600358715786805e-01
2.132700000000000173e+01 6.431000000000000227e+01 3.942399999999999949e+01 -9.711357380401619555e-02
2.132799999999999940e+01 7.432099999999999795e+01 5.272599999999999909e+01 -1.195360518136561884e-01
2.132999999999999829e+01 7.528499999999999659e+01 4.905599999999999739e+01 -1.061069015201277638e-01
2.133200000000000074e+01 6.932800000000000296e+01 4.229500000000000171e+01 8.262743863916592255e-03
2.133699999999999974e+01 6.197999999999999687e+01 6.423699999999999477e+01 -2.591157688644425972e-01
2.133999999999999986e+01 5.588600000000000279e+01 4.616299999999999670e+01 9.878933803468362487e-03
2.137300000000000111e+01 4.606000000000000227e+01 5.152799999999999869e+01 1.312235317960329661e-01
2.138500000000000156e+01 5.965899999999999892e+01 6.508899999999999864e+01 -1.435779619662771456e-01
2.139699999999999847e+01 4.124399999999999977e+01 5.738300000000000267e+01 -1.027560015021547341e-01
2.141700000000000159e+01 4.961399999999999721e+01 4.529200000000000159e+01 -2.560371577435202051e-01
2.142099999999999937e+01 6.353000000000000114e+01 4.946500000000000341e+01 -3.103942526649759032e-02
2.142999999999999972e+01 4.556600000000000250e+01 3.820000000000000284e+01 -2.282421921209090154e-01
2.143199999999999861e+01 5.640699999999999648e+01 3.913900000000000290e+01 -3.080740041764866710e-01
2.144600000000000151e+01 6.114699999999999847e+01 6.542799999999999727e+01 -1.057129278966777441e-01
2.146600000000000108e+01 7.093300000000000693e+01 4.771900000000000119e+01 -1.388023436648603837e-01
2.146999999999999886e+01 7.308799999999999386e+01 5.257200000000000273e+01 -9.716214226350061711e-02
2.147200000000000131e+01 5.162500000000000000e+01 5.477600000000000335e+01 1.442877492259524996e-01
2.151300000000000168e+01 4.514500000000000313e+01 5.358200000000000074e+01 6.126733151530623644e-02
2.152899999999999991e+01 7.309099999999999397e+01 4.951400000000000290e+01 -1.123315260094701201e-01
2.153900000000000148e+01 4.436200000000000188e+01 5.831700000000000017e+01 2.663088835514726971e-01
2.155000000000000071e+01 4.715299999999999869e+01 4.235600000000000165e+01 -2.158415300318664298e-01
2.156299999999999883e+01 5.749199999999999733e+01 3.857000000000000028e+01 -3.183273519378970184e-01
2.169000000000000128e+01 3.901500000000000057e+01 6.262800000000000011e+01 2.267620536344901738e-01
2.169399999999999906e+01 5.297200000000000131e+01 6.482699999999999818e+01 -1.350409217926593353e-01
2.172299999999999898e+01 3.973100000000000165e+01 6.023199999999999932e+01 8.290382408273194725e-02
2.172400000000000020e+01 4.583200000000000074e+01 4.848299999999999699e+01 -2.026954580510610671e-01
2.176000000000000156e+01 3.931199999999999761e+01 5.875900000000000034e+01 -2.835532927426582805e-01
2.179200000000000159e+01 5.114399999999999835e+01 5.095900000000000318e+01 3.311429859449772049e-03
2.179599999999999937e+01 5.028999999999999915e+01 5.454500000000000171e+01 1.300294680132613734e-01
2.180300000000000082e+01 6.865399999999999636e+01 4.678900000000000148e+01 -1.544876114322406013e-01
2.182300000000000040e+01 4.485600000000000165e+01 5.082800000000000296e+01 1.765939629164373637e-01
2.182499999999999929e+01 6.115899999999999892e+01 4.936800000000000210e+01 1.833402561785099638e-01
2.183399999999999963e+01 3.785600000000000165e+01 6.359300000000000352e+01 -4.876332151139205207e-02
2.185300000000000153e+01 6.384899999999999665e+01 6.277400000000000091e+01 -6.200441651572148605e-02
2.185999999999999943e+01 6.493500000000000227e+01 4.918399999999999750e+01 1.990761872999361470e-01
2.187699999999999889e+01 4.673400000000000176e+01 4.377799999999999869e+01 -1.879013742132991105e-01
2.190700000000000003e+01 6.794299999999999784e+01 4.205799999999999983e+01 4.034258156717655808e-02
2.192500000000000071e+01 6.415600000000000591e+01 3.835499999999999687e+01 -3.499999999999999778e-01
2.194500000000000028e+01 5.949699999999999989e+01 3.517399999999999949e+01 -2.671259381860844329e-01
2.194600000000000151e+01 4.822399999999999665e+01 4.190599999999999881e+01 -5.083753762765193945e-02
2.195200000000000173e+01 6.062700000000000244e+01 4.112800000000000011e+01 -9.866529464525544690e-02
2.199200000000000088e+01 6.822599999999999909e+01 4.823199999999999932e+01 1.510447041393213341e-01
2.199599999999999866e+01 4.785300000000000153e+01 4.764699999999999847e+01 -2.165962587864562749e-01
2.201399999999999935e+01 6.311599999999999966e+01 6.410800000000000409e+01 -2.874509133773543376e-02
2.202499999999999858e+01 7.496500000000000341e+01 5.353499999999999659e+01 -3.644438509261505033e-01
2.204400000000000048e+01 6.061299999999999955e+01 4.552400000000000091e+01 1.568952642455260782e-01
2.206899999999999906e+01 6.291299999999999670e+01 6.167900000000000205e+01 -4.499763166012791388e-02
2.207000000000000028e+01 6.012800000000000011e+01 5.323400000000000176e+01 1.572441197055354789e-01
2.207300000000000040e+01 5.863700000000000045e+01 5.351599999999999824e+01 3.686229190640513687e-01
2.207999999999999829e+01 3.862599999999999767e+01 6.121300000000000097e+01 6.997422259220870133e-02
2.209299999999999997e+01 5.741799999999999926e+01 6.563400000000000034e+01 3.473799244562032762e-02
2.211899999999999977e+01 5.569299999999999784e+01 4.884000000000000341e+01 2.037676506528628695e-01
2.212900000000000134e+01 5.885399999999999920e+01 6.583799999999999386e+01 -2.793588539658613951e-02
2.214900000000000091e+01 5.094500000000000028e+01 6.010699999999999932e+01 3.764848894986875250e-01
2.218299999999999983e+01 6.182200000000000273e+01 4.061999999999999744e+01 -9.992623673749836954e-02
2.219600000000000151e+01 6.245300000000000296e+01 4.906099999999999994e+01 1.756522906472239298e-01
2.219800000000000040e+01 5.757800000000000296e+01 3.718399999999999750e+01 -3.264685379584651437e-01
2.219900000000000162e+01 7.199699999999999989e+01 4.740400000000000347e+01 -1.457040446637257181e-01
2.228500000000000014e+01 4.406099999999999994e+01 4.413799999999999812e+01 -1.256551203161953845e-01
2.229599999999999937e+01 6.928700000000000614e+01 5.891499999999999915e+01 -8.989211170880995194e-02
2.233299999999999841e+01 5.063700000000000045e+01 5.835900000000000176e+01 3.101633973747979778e-01
2.239499999999999957e+01 6.543800000000000239e+01 5.158200000000000074e+01 1.838195728822811237e-01
2.241100000000000136e+01 6.970600000000000307e+01 5.245300000000000296e+01 -3.002905512172461266e-01
2.242599999999999838e+01 6.365699999999999648e+01 5.857600000000000051e+01 1.494673894307334827e-01
2.254400000000000048e+01 7.225799999999999557e+01 4.625300000000000011e+01 -1.468418550807848444e-01
2.259600000000000009e+01 4.908500000000000085e+01 5.141700000000000159e+01 -1.006600713250241537e-02
2.263200000000000145e+01 7.287600000000000477e+01 4.857500000000000284e+01 -6.278284083929481715e-03
2.263400000000000034e+01 4.934300000000000352e+01 6.078099999999999881e+01 2.819209334681710422e-01
2.272599999999999909e+01 4.578499999999999659e+01 4.757099999999999795e+01 -2.614216733259025482e-01
2.274500000000000099e+01 6.483499999999999375e+01 5.388600000000000279e+01 2.466147334200528562e-01
2.277199999999999847e+01 5.030499999999999972e+01 5.127400000000000091e+01 2.745971572691516954e-02
2.277899999999999991e+01 6.353499999999999659e+01 6.497299999999999898e+01 -2.708851426918986241e-02
2.279299999999999926e+01 5.966599999999999682e+01 3.604599999999999937e+01 -1.757847082490143209e-01
2.280000000000000071e+01 6.783599999999999852e+01 4.082500000000000284e+01 -3.499999999999999778e-01
2.282100000000000151e+01 5.997399999999999665e+01 4.169899999999999807e+01 -1.543652668104872894e-01
2.288100000000000023e+01 4.705700000000000216e+01 4.707399999999999807e+01 -2.272871966726452975e-01
2.291700000000000159e+01 5.371900000000000119e+01 4.994899999999999807e+01 -7.268401308118289939e-02
2.292999999999999972e+01 4.154999999999999716e+01 5.430799999999999983e+01 -2.167312510752037458e-01
2.293400000000000105e+01 6.545600000000000307e+01 5.015200000000000102e+01 2.092940632135413814e-01
2.300000000000000000e+01 5.485399999999999920e+01 5.658700000000000330e+01 3.653776530742119388e-01
2.301200000000000045e+01 5.628099999999999881e+01 3.695100000000000051e+01 5.566584600341056843e-02
2.302100000000000080e+01 5.878099999999999881e+01 3.701599999999999824e+01 -2.946684112302807579e-01
2.302899999999999991e+01 6.962800000000000011e+01 5.488499999999999801e+01 -1.149045262256571248e-01
2.311100000000000065e+01 5.491299999999999670e+01 4.969599999999999795e+01 1.478794813767710936e-01
2.312000000000000099e+01 5.244200000000000017e+01 6.509099999999999397e+01 1.039255886533026196e-01
2.313899999999999935e+01 3.929399999999999693e+01 5.826800000000000068e+01 -1.678074055826532240e-01
2.315200000000000102e+01 6.883100000000000307e+01 4.611699999999999733e+01 -1.864158352332222213e-01
2.315899999999999892e+01 6.485399999999999920e+01 5.249699999999999989e+01 2.733693562230947727e-01
2.319099999999999895e+01 6.912999999999999545e+01 5.359899999999999665e+01 -1.737522845941005811e-01
2.319399999999999906e+01 6.643999999999999773e+01 4.062599999999999767e+01 -3.499999999999999778e-01
2.320100000000000051e+01 5.569599999999999795e+01 6.442799999999999727e+01 2.447275144833440108e-01
2.325000000000000000e+01 6.413800000000000523e+01 3.827100000000000080e+01 -3.499999999999999778e-01
2.325700000000000145e+01 5.469700000000000273e+01 4.355299999999999727e+01 -2.529149670250778748e-01
2.327199999999999847e+01 5.683400000000000318e+01 6.488100000000000023e+01 -9.123016062972351403e-02
2.328099999999999881e+01 6.262700000000000244e+01 6.122299999999999898e+01 -2.628348502606110970e-01
2.330000000000000071e+01 5.980499999999999972e+01 4.519700000000000273e+01 1.613706361013933777e-01
2.331599999999999895e+01 6.079699999999999704e+01 5.382099999999999795e+01 1.612913192622497660e-01
2.334299999999999997e+01 6.155100000000000193e+01 6.013799999999999812e+01 -1.535406382433719165e-02
2.334700000000000131e+01 4.475699999999999790e+01 5.071999999999999886e+01 -2.496350463173238055e-01
2.339900000000000091e+01 3.707000000000000028e+01 5.849199999999999733e+01 -1.701826931827358225e-01
2.345400000000000063e+01 5.987500000000000000e+01 6.200200000000000244e+01 1.424182875386734437e-01
2.346699999999999875e+01 5.618699999999999761e+01 3.550600000000000023e+01 4.382702198608541544e-02
2.346799999999999997e+01 6.424200000000000443e+01 5.610699999999999932e+01 6.649737053468908476e-02
2.349299999999999855e+01 5.428399999999999892e+01 6.937500000000000000e+01 9.291563699611735117e-02
2.350700000000000145e+01 6.312599999999999767e+01 5.828600000000000136e+01 8.599744812253711651e-03
2.350900000000000034e+01 6.168900000000000006e+01 3.473899999999999721e+01 -2.647326980261098250e-01
2.355999999999999872e+01 4.285399999999999920e+01 6.409300000000000352e+01 7.988914531467808389e-02
2.365700000000000003e+01 6.092600000000000193e+01 3.605700000000000216e+01 -1.394824809919612552e-01
2.371900000000000119e+01 5.581799999999999784e+01 5.567099999999999937e+01 3.374947538463060059e-01
2.372299999999999898e+01 6.907500000000000284e+01 5.595400000000000063e+01 -2.098631977548087169e-01
2.375900000000000034e+01 5.202300000000000324e+01 6.376299999999999812e+01 3.155934794924387665e-01
2.376099999999999923e+01 4.404699999999999704e+01 6.340800000000000125e+01 2.058886741402635445e-01
2.380399999999999849e+01 6.429999999999999716e+01 5.482500000000000284e+01 6.585963455128821149e-03
2.380799999999999983e+01 5.889999999999999858e+01 4.633400000000000318e+01 7.269771009912288917e-02
2.381899999999999906e+01 7.221299999999999386e+01 4.928499999999999659e+01 -4.069438415533444334e-03
2.382100000000000151e+01 3.816299999999999670e+01 5.811200000000000188e+01 -1.896437170206749789e-01
2.382799999999999940e+01 5.083500000000000085e+01 6.344800000000000040e+01 3.441418237971669014e-01
2.384900000000000020e+01 4.164300000000000068e+01 6.347599999999999909e+01 1.198076966623253803e-01
2.388599999999999923e+01 4.368800000000000239e+01 5.042900000000000205e+01 -1.158403604162187017e-01
2.390399999999999991e+01 5.608200000000000074e+01 6.810999999999999943e+01 1.323435765828627209e-01
2.390700000000000003e+01 6.604900000000000659e+01 3.957500000000000284e+01 -3.499999999999999778e-01
2.393799999999999883e+01 5.344200000000000017e+01 6.577500000000000568e+01 -4.326013367057451355e-03
2.396499999999999986e+01 4.203399999999999892e+01 5.517600000000000193e+01 1.733410512006037796e-01
2.398600000000000065e+01 6.206900000000000261e+01 5.893200000000000216e+01 -7.791725482621174315e-02
2.398900000000000077e+01 6.878700000000000614e+01 4.095600000000000307e+01 -3.499999999999999778e-01
2.400600000000000023e+01 6.987000000000000455e+01 4.036500000000000199e+01 -3.500000000000000333e-01
2.402700000000000102e+01 4.588499999999999801e+01 5.089999999999999858e+01 -3.792870914868162191e-01
2.403500000000000014e+01 4.893099999999999739e+01 6.035999999999999943e+01 2.967794441334508648e-01
2.406299999999999883e+01 6.806799999999999784e+01 5.339800000000000324e+01 -1.639132937181313754e-01
2.406599999999999895e+01 5.918599999999999994e+01 5.969299999999999784e+01 1.580670892296449359e-01
2.407300000000000040e+01 6.455200000000000671e+01 3.939699999999999847e+01 -3.500000000000000333e-01
2.409100000000000108e+01 6.032200000000000273e+01 6.070000000000000284e+01 1.177244479220632273e-01
2.413200000000000145e+01 5.560099999999999909e+01 5.019299999999999784e+01 1.274502394985120024e-01
2.414900000000000091e+01 5.029299999999999926e+01 4.646600000000000108e+01 -3.899897686975978828e-01
2.415200000000000102e+01 5.626100000000000279e+01 3.782099999999999795e+01 4.343717635760065143e-02
2.416000000000000014e+01 5.654599999999999937e+01 4.583899999999999864e+01 4.778464678066247917e-02
2.417699999999999960e+01 5.091799999999999926e+01 5.129999999999999716e+01 2.300006585455324076e-02
2.417999999999999972e+01 6.470900000000000318e+01 4.997800000000000153e+01 1.828957648992347029e-01
2.424899999999999878e+01 4.402199999999999847e+01 6.210499999999999687e+01 1.989809307564218421e-01
2.425600000000000023e+01 5.490299999999999869e+01 6.084000000000000341e+01 1.337740495929420348e-01
2.425900000000000034e+01 5.813400000000000034e+01 4.896300000000000097e+01 1.627714857729710141e-01
2.426099999999999923e+01 4.347699999999999676e+01 5.482200000000000273e+01 1.225389982073676470e-01
2.427899999999999991e+01 5.502700000000000102e+01 6.861499999999999488e+01 1.397015916824742021e-01
2.428300000000000125e+01 6.327600000000000335e+01 6.152799999999999869e+01 -2.180648346665725601e-01
2.429100000000000037e+01 6.298700000000000188e+01 3.473299999999999699e+01 -2.654459790774936212e-01
2.431299999999999883e+01 5.299199999999999733e+01 6.303900000000000148e+01 3.158508361409101961e-01
2.432100000000000151e+01 3.894899999999999807e+01 5.497099999999999653e+01 -2.130689061127600537e-01
2.433099999999999952e+01 5.106900000000000261e+01 4.874399999999999977e+01 -2.721512825997383089e-01
2.433399999999999963e+01 6.503300000000000125e+01 4.517099999999999937e+01 9.007180259807681666e-02
2.433599999999999852e+01 5.522999999999999687e+01 4.379800000000000182e+01 -2.615340156568931717e-03
2.433800000000000097e+01 4.162800000000000011e+01 6.217399999999999949e+01 -1.341506481069466294e-01
2.433800000000000097e+01 6.363900000000000290e+01 5.711099999999999710e+01 8.278354245080118967e-02
2.436100000000000065e+01 6.682699999999999818e+01 3.874199999999999733e+01 -3.500000000000000333e-01
2.438599999999999923e+01 5.756000000000000227e+01 6.481499999999999773e+01 -1.246900892754916335e-01
2.441300000000000026e+01 7.302299999999999613e+01 5.042699999999999960e+01 -4.085380274604225731e-02
2.442000000000000171e+01 7.131699999999999307e+01 4.400500000000000256e+01 -2.359179461064576239e-02
2.443499999999999872e+01 4.662500000000000000e+01 5.643900000000000006e+01 2.884899379937467256e-01
2.449899999999999878e+01 5.969200000000000017e+01 4.735799999999999699e+01 2.373927926244601139e-01
2.450400000000000134e+01 5.413300000000000267e+01 4.602499999999999858e+01 2.091014581884945503e-02
2.452499999999999858e+01 6.358500000000000085e+01 3.578000000000000114e+01 -3.499999999999999778e-01
2.454200000000000159e+01 4.281400000000000006e+01 6.147699999999999676e+01 -1.902698906034137050e-01
2.459199999999999875e+01 6.801699999999999591e+01 5.574000000000000199e+01 -6.156333668227148559e-02
2.461700000000000088e+01 7.577400000000000091e+01 5.175099999999999767e+01 -5.347901540980282142e-02
2.462000000000000099e+01 4.875900000000000034e+01 6.567600000000000193e+01 2.888685003022252173e-01
2.466499999999999915e+01 5.777199999999999847e+01 4.574399999999999977e+01 6.310167488577840544e-02
2.467399999999999949e+01 5.923499999999999943e+01 4.859599999999999653e+01 1.942548259443329373e-01
2.468700000000000117e+01 4.789500000000000313e+01 6.127499999999999858e+01 -9.780146294979311095e-02
2.468700000000000117e+01 6.343599999999999994e+01 3.355700000000000216e+01 -2.759490209205072708e-01
2.471499999999999986e+01 6.043900000000000006e+01 5.331199999999999761e+01 2.065672380443453748e-01
2.473300000000000054e+01 6.580400000000000205e+01 5.839999999999999858e+01 -1.997960717504801698e-01
2.476000000000000156e+01 5.564800000000000324e+01 4.144599999999999795e+01 1.050284862933195396e-01
2.476399999999999935e+01 6.751200000000000045e+01 5.446000000000000085e+01 -9.730345521350367011e-02
2.481400000000000006e+01 5.539200000000000301e+01 4.523299999999999699e+01 -5.939558509030190558e-02
2.482700000000000173e+01 6.205299999999999727e+01 5.151400000000000290e+01 5.761307931788639536e-02
2.487300000000000111e+01 6.085999999999999943e+01 5.184400000000000119e+01 3.321032433896323882e-02
2.489099999999999824e+01 5.229399999999999693e+01 3.809599999999999653e+01 -1.466714297487615171e-01
2.489799999999999969e+01 6.393299999999999983e+01 5.439999999999999858e+01 -2.609776072151661144e-02
2.493299999999999983e+01 6.841200000000000614e+01 4.181199999999999761e+01 -3.464992163752823873e-02
2.493499999999999872e+01 5.050600000000000023e+01 5.003199999999999648e+01 -2.444214936872514676e-01
2.495499999999999829e+01 6.378300000000000125e+01 4.454800000000000182e+01 3.157295978349750620e-01
2.495799999999999841e+01 5.049199999999999733e+01 4.749099999999999966e+01 -2.481895139496643199e-01
2.495799999999999841e+01 5.058899999999999864e+01 5.249000000000000199e+01 5.013659866282038635e-02
2.496799999999999997e+01 3.978600000000000136e+01 5.559700000000000131e+01 -2.315837138819766550e-01
2.499299999999999855e+01 5.502799999999999869e+01 5.121900000000000119e+01 3.479772717776707935e-01
2.503399999999999892e+01 4.850300000000000011e+01 6.256099999999999994e+01 3.081808646933185125e-01
2.503600000000000136e+01 5.270900000000000318e+01 6.180199999999999960e+01 3.250679339674856227e-01
2.506400000000000006e+01 5.271600000000000108e+01 5.321000000000000085e+01 7.102738101425346007e-02
2.506800000000000139e+01 6.065999999999999659e+01 3.631600000000000250e+01 -2.886635612720168664e-01
2.507300000000000040e+01 6.791700000000000159e+01 5.966100000000000136e+01 -3.763091905853456209e-01
2.507700000000000173e+01 5.988000000000000256e+01 5.096900000000000119e+01 2.375262861754628696e-01
2.508500000000000085e+01 4.279200000000000159e+01 6.008100000000000307e+01 -2.263006340889028509e-02
2.510600000000000165e+01 5.575399999999999778e+01 4.285699999999999932e+01 7.845229996344058043e-02
2.510900000000000176e+01 5.312899999999999778e+01 6.632200000000000273e+01 -7.382184995487281465e-02
2.511100000000000065e+01 5.695100000000000051e+01 4.072599999999999909e+01 -9.562359013588374312e-02
2.515099999999999980e+01 6.633599999999999852e+01 4.876100000000000279e+01 4.040855820406660248e-01
2.515899999999999892e+01 5.429099999999999682e+01 3.947399999999999665e+01 -9.266469125932735862e-02
2.517299999999999827e+01 6.520000000000000284e+01 4.924499999999999744e+01 3.645681004889360644e-01
2.518199999999999861e+01 6.199199999999999733e+01 3.992000000000000171e+01 -3.499999999999999778e-01
2.520200000000000173e+01 7.420999999999999375e+01 4.991499999999999915e+01 2.397973770291258674e-02
2.521199999999999974e+01 5.595100000000000051e+01 5.597800000000000153e+01 2.629556795450316287e-01
2.522299999999999898e+01 3.829299999999999926e+01 5.751800000000000068e+01 -2.303853563968072948e-01
2.523400000000000176e+01 4.117300000000000182e+01 5.500300000000000011e+01 -2.249923990158934350e-01
2.526899999999999835e+01 6.403000000000000114e+01 4.307600000000000051e+01 8.495789057681098211e-02
2.527899999999999991e+01 6.236599999999999966e+01 4.726500000000000057e+01 2.353915452842335054e-01
2.529700000000000060e+01 4.709400000000000119e+01 5.528699999999999903e+01 2.964372096787472044e-01
2.530000000000000071e+01 5.724199999999999733e+01 5.213400000000000034e+01 2.066297874837556559e-01
2.534100000000000108e+01 5.601700000000000301e+01 5.233100000000000307e+01 1.660796410053380634e-01
2.535900000000000176e+01 6.466700000000000159e+01 5.760999999999999943e+01 1.305121186247927001e-01
2.536100000000000065e+01 5.920199999999999818e+01 3.462100000000000222e+01 -1.672823611076943995e-01
2.537300000000000111e+01 5.153199999999999648e+01 5.333299999999999841e+01 -2.475588847531612000e-02
2.541400000000000148e+01 6.015500000000000114e+01 4.957099999999999795e+01 3.003570349586508481e-01
2.541700000000000159e+01 5.707800000000000296e+01 5.697800000000000153e+01 1.832172360132053590e-01
2.542800000000000082e+01 3.956700000000000017e+01 5.682399999999999807e+01 -5.641935221230977293e-02
2.545100000000000051e+01 5.446500000000000341e+01 4.075900000000000034e+01 7.563304504982946985e-02
2.547200000000000131e+01 5.401500000000000057e+01 6.109599999999999653e+01 -5.420854511252152369e-02
2.547899999999999920e+01 4.594599999999999795e+01 5.075399999999999778e+01 -2.454527395816615554e-01
2.548799999999999955e+01 5.125399999999999778e+01 5.580899999999999750e+01 3.064495328570346899e-01
2.550700000000000145e+01 5.547699999999999676e+01 5.353499999999999659e+01 3.007158929917138623e-01
2.551399999999999935e+01 7.057899999999999352e+01 4.383500000000000085e+01 -2.687111495175900124e-03
2.552199999999999847e+01 5.196800000000000352e+01 6.640500000000000114e+01 -7.164605483826440302e-02
2.554100000000000037e+01 4.779399999999999693e+01 6.356600000000000250e+01 -1.258449458041553393e-01
2.554400000000000048e+01 6.421399999999999864e+01 3.914800000000000324e+01 -3.500000000000000333e-01
2.561700000000000088e+01 5.702799999999999869e+01 6.421099999999999852e+01 -1.663324905709206714e-01
2.562699999999999889e+01 4.110399999999999920e+01 5.359700000000000131e+01 -1.715406393474800950e-01
2.566900000000000048e+01 5.449199999999999733e+01 6.834699999999999420e+01 1.502946035508322953e-01
2.567599999999999838e+01 5.553099999999999881e+01 6.612500000000000000e+01 -2.983227553303991961e-02
2.571799999999999997e+01 7.505500000000000682e+01 5.106199999999999761e+01 3.259265439439439603e-03
2.571999999999999886e+01 6.111099999999999710e+01 5.413400000000000034e+01 2.200365160222630956e-01
2.574699999999999989e+01 5.800800000000000267e+01 4.519500000000000028e+01 -4.856063115182179639e-03
2.576200000000000045e+01 6.677500000000000568e+01 5.893299999999999983e+01 -2.168907708564482006e-01
2.576699999999999946e+01 4.658599999999999852e+01 6.348400000000000176e+01 -5.874695119889276895e-02
2.580499999999999972e+01 6.272299999999999898e+01 3.912899999999999778e+01 -2.614276928944236911e-01
2.581700000000000017e+01 5.988799999999999812e+01 3.553399999999999892e+01 -1.642428709734389813e-01
2.582799999999999940e+01 4.653900000000000148e+01 4.938700000000000045e+01 -3.562350719784103670e-01
2.586899999999999977e+01 5.333100000000000307e+01 3.863799999999999812e+01 -1.658924104176112413e-01
2.587699999999999889e+01 4.856400000000000006e+01 6.483899999999999864e+01 -1.039169034027672689e-01
2.588299999999999912e+01 4.799799999999999756e+01 5.194400000000000261e+01 -1.152757960895278294e-01
2.590200000000000102e+01 4.613799999999999812e+01 6.016400000000000148e+01 3.857799427510169490e-03
2.591000000000000014e+01 4.730299999999999727e+01 6.057500000000000284e+01 -2.231104189041853772e-02
2.594399999999999906e+01 5.429399999999999693e+01 6.685500000000000398e+01 -1.100458150731970369e-01
2.595499999999999829e+01 6.328900000000000148e+01 4.680899999999999750e+01 1.762288928909307717e-01
2.599899999999999878e+01 6.903900000000000148e+01 5.997200000000000131e+01 -9.555634692754265413e-02
2.601599999999999824e+01 5.623899999999999721e+01 5.467799999999999727e+01 2.861737874583142327e-01
2.602299999999999969e+01 6.091299999999999670e+01 5.739699999999999847e+01 3.433852359936934717e-01
2.603099999999999881e+01 5.570100000000000051e+01 6.485299999999999443e+01 -1.038157045533986828e-01
2.605900000000000105e+01 6.998099999999999454e+01 4.476100000000000279e+01 -6.344011600486867963e-02
2.608299999999999841e+01 7.051300000000000523e+01 4.242699999999999960e+01 1.885327875398756445e-02
2.610099999999999909e+01 4.678600000000000136e+01 5.187299999999999756e+01 -1.502435566764870334e-02
2.615399999999999991e+01 5.024000000000000199e+01 4.743900000000000006e+01 -1.246534188564087098e-01
2.615700000000000003e+01 6.920999999999999375e+01 5.092699999999999960e+01 3.589632470675631071e-01
2.615899999999999892e+01 5.368200000000000216e+01 4.140299999999999869e+01 5.187564833559728944e-02
2.616300000000000026e+01 3.918599999999999994e+01 5.957300000000000040e+01 -7.223237711804199324e-02
2.617899999999999849e+01 5.369100000000000250e+01 5.978600000000000136e+01 3.337852331717712784e-01
2.622800000000000153e+01 6.907599999999999341e+01 4.190899999999999892e+01 -8.337956555136240289e-02
2.625100000000000122e+01 6.338799999999999812e+01 4.530899999999999750e+01 4.093563746182997398e-02
2.625499999999999901e+01 3.812500000000000000e+01 5.863499999999999801e+01 -2.103372577532284793e-01
2.626200000000000045e+01 5.108599999999999852e+01 5.449799999999999756e+01 3.309538105023157040e-01
2.626899999999999835e+01 5.183899999999999864e+01 6.206600000000000250e+01 1.957978820582408769e-02
2.627100000000000080e+01 5.445799999999999841e+01 5.059400000000000119e+01 -2.128774570980999231e-02
2.627899999999999991e+01 5.054899999999999949e+01 5.727000000000000313e+01 3.094550770312295973e-01
2.632100000000000151e+01 3.827300000000000324e+01 5.126299999999999812e+01 -9.037297090265379584e-02
2.633500000000000085e+01 5.783500000000000085e+01 3.762100000000000222e+01 -9.808313577976883468e-02
2.636599999999999966e+01 6.427599999999999625e+01 4.901299999999999812e+01 1.686120526058746960e-01
2.646799999999999997e+01 5.081199999999999761e+01 6.141199999999999903e+01 2.431514522458209093e-01
2.649299999999999855e+01 4.985900000000000176e+01 6.454399999999999693e+01 1.073515263952281168e-01
2.650700000000000145e+01 4.195900000000000318e+01 5.772500000000000142e+01 -6.578896176150746122e-02
2.656299999999999883e+01 5.734100000000000108e+01 4.090200000000000102e+01 -2.186530894429336291e-01
2.657499999999999929e+01 5.405799999999999983e+01 3.748799999999999955e+01 -1.777580445728856040e-01
2.660300000000000153e+01 5.483200000000000074e+01 6.419199999999999307e+01 8.149806619419683318e-02
2.660699999999999932e+01 4.267600000000000193e+01 6.001700000000000301e+01 -3.132261600464740113e-04
2.661299999999999955e+01 6.414700000000000557e+01 4.757999999999999829e+01 1.592016406078977930e-01
2.663200000000000145e+01 6.736799999999999500e+01 4.354200000000000159e+01 1.998359076455460404e-01
2.665599999999999881e+01 6.228099999999999881e+01 3.833700000000000330e+01 -2.771215813663726601e-01
2.666300000000000026e+01 5.354800000000000182e+01 3.637100000000000222e+01 -1.672828474690758391e-02
2.669999999999999929e+01 4.648499999999999943e+01 5.528199999999999648e+01 1.280648575761407781e-01
2.674800000000000111e+01 4.611500000000000199e+01 5.282000000000000028e+01 -1.041159852200645997e-01
2.676300000000000168e+01 3.689399999999999835e+01 5.079999999999999716e+01 -2.392025007316442298e-01
2.677100000000000080e+01 5.802700000000000102e+01 6.434499999999999886e+01 -1.627957298879557091e-01
2.679299999999999926e+01 5.852300000000000324e+01 4.144299999999999784e+01 -2.104804277906653920e-01
2.682999999999999829e+01 4.070000000000000284e+01 5.321500000000000341e+01 -1.439940880092317743e-01
2.683699999999999974e+01 6.216400000000000148e+01 4.476200000000000045e+01 4.660593334054142362e-02
2.684400000000000119e+01 6.051800000000000068e+01 5.451899999999999835e+01 2.257053091544323764e-01
2.690200000000000102e+01 5.592699999999999960e+01 4.866199999999999903e+01 9.442142239785770996e-02
2.692800000000000082e+01 6.001599999999999824e+01 4.937599999999999767e+01 2.980849520416537501e-01
2.696900000000000119e+01 4.340299999999999869e+01 5.213400000000000034e+01 1.445134126357721926e-01
2.699699999999999989e+01 4.806900000000000261e+01 6.054200000000000159e+01 3.663193821682643458e-02
2.703500000000000014e+01 5.219800000000000040e+01 6.309100000000000108e+01 1.102821202321133676e-01
2.705999999999999872e+01 4.267799999999999727e+01 5.855899999999999750e+01 4.338998665384437292e-02
2.707000000000000028e+01 5.932399999999999807e+01 5.432800000000000296e+01 1.910220449754354566e-01
2.707199999999999918e+01 5.525800000000000267e+01 3.777600000000000335e+01 -1.332654531514236851e-01
2.707900000000000063e+01 4.067900000000000205e+01 5.170499999999999829e+01 -1.280740071516628942e-01
2.710900000000000176e+01 6.827500000000000568e+01 4.285399999999999920e+01 2.613745596826410611e-01
2.714900000000000091e+01 5.549000000000000199e+01 4.995799999999999841e+01 8.120015939492322699e-02
2.715200000000000102e+01 7.377800000000000580e+01 4.495199999999999818e+01 -1.833442308754957562e-01
2.719999999999999929e+01 6.057099999999999795e+01 5.753600000000000136e+01 3.902461249576060220e-01
2.721600000000000108e+01 5.867900000000000205e+01 6.304099999999999682e+01 1.859658489798906023e-01
2.722400000000000020e+01 5.751899999999999835e+01 3.682699999999999818e+01 4.723398854847712242e-02
2.723000000000000043e+01 4.375999999999999801e+01 6.077499999999999858e+01 -1.478384597817534174e-01
2.726500000000000057e+01 5.756099999999999994e+01 6.163100000000000023e+01 2.009935017670559654e-01
2.729200000000000159e+01 5.979899999999999949e+01 3.591499999999999915e+01 -2.020244411854577038e-01
2.730199999999999960e+01 4.660199999999999676e+01 4.906900000000000261e+01 -2.232663991595090214e-01
2.730399999999999849e+01 6.510099999999999909e+01 5.121099999999999852e+01 2.117695868735848530e-01
2.735900000000000176e+01 6.052199999999999847e+01 4.812599999999999767e+01 2.738251794025487948e-02
2.740200000000000102e+01 6.972799999999999443e+01 5.023100000000000165e+01 4.265139813609225561e-01
2.741000000000000014e+01 4.678999999999999915e+01 5.393999999999999773e+01 2.295298730490121508e-01
2.746499999999999986e+01 5.656400000000000006e+01 4.060900000000000176e+01 3.986733557283177187e-03
2.747200000000000131e+01 5.584100000000000108e+01 5.492499999999999716e+01 2.936470170162262527e-01
2.747400000000000020e+01 3.926599999999999824e+01 5.126100000000000279e+01 -2.192342607859029679e-01
2.748600000000000065e+01 5.188900000000000290e+01 5.452600000000000335e+01 3.346276320403708260e-01
2.751300000000000168e+01 4.703999999999999915e+01 5.644299999999999784e+01 -9.199657837852763531e-02
2.751699999999999946e+01 4.714200000000000301e+01 4.766799999999999926e+01 -2.195838066424887214e-01
2.760900000000000176e+01 6.485899999999999466e+01 4.974099999999999966e+01 4.037289232706934849e-01
2.762600000000000122e+01 3.620400000000000063e+01 5.184400000000000119e+01 -2.408111793934592237e-01
2.765599999999999881e+01 5.989099999999999824e+01 5.881099999999999994e+01 1.354612927478877071e-01
2.767999999999999972e+01 4.995300000000000296e+01 6.394800000000000040e+01 -2.058030055689869242e-01
2.769600000000000151e+01 5.608100000000000307e+01 3.675600000000000023e+01 -5.775949892033818993e-05
2.772899999999999920e+01 4.043099999999999739e+01 5.401299999999999812e+01 -1.622888985107897031e-01
