9.731499999999999773e+01 1.437990000000000066e+02 6.554099999999999682e+01 9.772354438892162654e-02
9.732099999999999795e+01 1.411239999999999952e+02 5.809899999999999665e+01 1.645130245587846374e-01
9.742700000000000671e+01 1.373729999999999905e+02 5.336699999999999733e+01 6.278299820144073173e-02
9.745799999999999841e+01 1.514180000000000064e+02 5.494700000000000273e+01 3.899471033004708875e-01
9.748099999999999454e+01 1.306009999999999991e+02 4.051100000000000279e+01 -3.499999999999999223e-01
9.748900000000000432e+01 1.406879999999999882e+02 6.042000000000000171e+01 1.342181783056946298e-01
9.752800000000000580e+01 1.321270000000000095e+02 4.045499999999999829e+01 -3.499999999999999778e-01
9.755500000000000682e+01 1.286260000000000048e+02 4.546099999999999852e+01 -3.500000000000000333e-01
9.757399999999999807e+01 1.309950000000000045e+02 4.576299999999999812e+01 -2.229723727867791161e-01
9.759000000000000341e+01 1.281719999999999970e+02 4.307600000000000051e+01 -3.499999999999999778e-01
9.765699999999999648e+01 1.406179999999999950e+02 4.946000000000000085e+01 2.280951088785294067e-01
9.771699999999999875e+01 1.325910000000000082e+02 3.898100000000000165e+01 -3.499999999999999778e-01
9.780599999999999739e+01 1.449499999999999886e+02 5.580499999999999972e+01 3.980790693640733346e-01
9.787300000000000466e+01 1.309859999999999900e+02 5.047099999999999653e+01 1.029241138222903862e-01
9.796800000000000352e+01 1.289170000000000016e+02 4.410300000000000153e+01 -3.499999999999999778e-01
9.798900000000000432e+01 1.408650000000000091e+02 5.085099999999999909e+01 2.635878366968181785e-01
9.803499999999999659e+01 1.469470000000000027e+02 5.715699999999999648e+01 2.076274934810173056e-01
9.807399999999999807e+01 1.300320000000000107e+02 4.154699999999999704e+01 -3.499999999999999778e-01
9.808299999999999841e+01 1.285970000000000084e+02 4.169100000000000250e+01 -3.499999999999999778e-01
9.810599999999999454e+01 1.444900000000000091e+02 6.659499999999999886e+01 1.305202460040749968e-01
9.811199999999999477e+01 1.536879999999999882e+02 5.579099999999999682e+01 -2.315606747528534126e-01
9.811400000000000432e+01 1.404579999999999984e+02 5.907999999999999829e+01 3.690294924459532888e-01
9.813700000000000045e+01 1.456169999999999902e+02 5.712199999999999989e+01 2.658042254428011342e-01
9.819199999999999307e+01 1.257069999999999936e+02 5.769200000000000017e+01 2.549811597565002641e-01
9.820999999999999375e+01 1.539979999999999905e+02 5.708200000000000074e+01 6.899313710564462798e-02
9.821800000000000352e+01 1.328259999999999934e+02 4.265100000000000335e+01 -2.033163759769195666e-01
9.822400000000000375e+01 1.467940000000000111e+02 6.429800000000000182e+01 3.759296490388937262e-02
9.827899999999999636e+01 1.337479999999999905e+02 4.998400000000000176e+01 9.377885278995026774e-02
9.834499999999999886e+01 1.476759999999999877e+02 5.836299999999999955e+01 1.390241398687987184e-01
9.835299999999999443e+01 1.495500000000000114e+02 6.274799999999999756e+01 3.182670982493641665e-01
9.836499999999999488e+01 1.380540000000000020e+02 6.309899999999999665e+01 1.946385936289827048e-02
9.838899999999999579e+01 1.461850000000000023e+02 6.169100000000000250e+01 3.550376446061951907e-01
9.843099999999999739e+01 1.487539999999999907e+02 5.045499999999999829e+01 1.062564730205664693e-01
9.843500000000000227e+01 1.478329999999999984e+02 5.125300000000000011e+01 3.691024233176345426e-01
9.847299999999999898e+01 1.280130000000000052e+02 4.768500000000000227e+01 -7.964903562933001169e-03
9.848300000000000409e+01 1.327930000000000064e+02 4.134799999999999898e+01 -3.499999999999999778e-01
9.850300000000000011e+01 1.454449999999999932e+02 6.393299999999999983e+01 2.037275016706418251e-01
9.852400000000000091e+01 1.449319999999999879e+02 5.809300000000000352e+01 3.021662818062914591e-01
9.855700000000000216e+01 1.311980000000000075e+02 5.324799999999999756e+01 1.518063090366858492e-01
9.856900000000000261e+01 1.554910000000000139e+02 6.521800000000000352e+01 -4.509554625477819878e-02
9.861599999999999966e+01 1.478149999999999977e+02 6.748399999999999466e+01 1.413017259135049553e-01
9.861899999999999977e+01 1.338919999999999959e+02 4.724099999999999966e+01 -1.015034344169104957e-01
9.870399999999999352e+01 1.334039999999999964e+02 4.489500000000000313e+01 -2.747652134473465013e-01
9.877899999999999636e+01 1.512820000000000107e+02 6.442300000000000182e+01 -8.849681691284400076e-02
9.878499999999999659e+01 1.301670000000000016e+02 5.262599999999999767e+01 -1.667203021102313942e-01
9.879099999999999682e+01 1.284120000000000061e+02 4.630400000000000205e+01 -3.500000000000000333e-01
9.883499999999999375e+01 1.490010000000000048e+02 6.506300000000000239e+01 1.793449834827234024e-01
9.885800000000000409e+01 1.301529999999999916e+02 5.111299999999999955e+01 7.567522336504438341e-02
9.886899999999999977e+01 1.369540000000000077e+02 5.359599999999999653e+01 2.829167047996369311e-01
9.887000000000000455e+01 1.541270000000000095e+02 5.495300000000000296e+01 -6.830781180522613183e-02
9.887199999999999989e+01 1.454050000000000011e+02 6.249900000000000233e+01 1.855255336945718647e-01
9.889000000000000057e+01 1.273990000000000009e+02 5.504299999999999926e+01 2.475260514115342203e-01
9.889199999999999591e+01 1.402009999999999934e+02 6.412999999999999545e+01 2.213416553352182681e-01
9.891299999999999670e+01 1.319559999999999889e+02 3.830499999999999972e+01 -3.499999999999999778e-01
9.892400000000000659e+01 1.441049999999999898e+02 5.536200000000000188e+01 1.004257127441513797e-01
9.899099999999999966e+01 1.437930000000000064e+02 4.716700000000000159e+01 2.770549671557428345e-02
9.900100000000000477e+01 1.290099999999999909e+02 5.321500000000000341e+01 -8.045067215129043936e-02
9.900700000000000500e+01 1.288729999999999905e+02 5.465999999999999659e+01 1.662921492031853021e-01
9.907099999999999795e+01 1.321790000000000020e+02 3.709599999999999653e+01 -3.499999999999999778e-01
9.910800000000000409e+01 1.257039999999999935e+02 5.684799999999999898e+01 2.741308964893811595e-01
9.910800000000000409e+01 1.499480000000000075e+02 6.397399999999999665e+01 -1.009802157327349958e-01
9.914700000000000557e+01 1.344950000000000045e+02 4.952000000000000313e+01 1.065166120259527505e-01
9.916400000000000148e+01 1.336090000000000089e+02 4.353600000000000136e+01 -2.387428756705108623e-01
9.920300000000000296e+01 1.341289999999999907e+02 4.587599999999999767e+01 -1.669144007483886194e-01
9.922899999999999920e+01 1.475960000000000036e+02 6.458799999999999386e+01 1.072889173937913582e-01
9.932699999999999818e+01 1.548810000000000002e+02 6.640999999999999659e+01 1.136472914889497671e-02
9.932699999999999818e+01 1.549790000000000134e+02 6.400100000000000477e+01 6.132112945629066003e-02
9.936400000000000432e+01 1.346390000000000100e+02 4.821699999999999875e+01 1.956873441199049601e-01
9.936499999999999488e+01 1.356059999999999945e+02 5.167699999999999960e+01 1.833394793528884403e-01
9.936599999999999966e+01 1.452239999999999895e+02 5.340800000000000125e+01 1.585754743024248015e-01
9.937000000000000455e+01 1.487750000000000057e+02 5.808899999999999864e+01 -1.424417215627791500e-01
9.941400000000000148e+01 1.469550000000000125e+02 5.129299999999999926e+01 3.908751361838604943e-01
9.942900000000000205e+01 1.388000000000000114e+02 6.371099999999999852e+01 1.547360538882986969e-01
9.944299999999999784e+01 1.497170000000000130e+02 5.926700000000000301e+01 -1.034850067181762451e-01
9.948099999999999454e+01 1.486550000000000011e+02 6.734499999999999886e+01 1.924137014966191273e-01
9.948900000000000432e+01 1.412390000000000043e+02 5.096999999999999886e+01 3.782459766730682516e-01
9.949800000000000466e+01 1.275010000000000048e+02 4.838799999999999812e+01 -2.830447114765740485e-02
9.949899999999999523e+01 1.280900000000000034e+02 4.141899999999999693e+01 -3.499999999999999778e-01
9.953100000000000591e+01 1.410149999999999864e+02 5.902300000000000324e+01 3.771012015000108075e-01
9.953400000000000603e+01 1.270580000000000069e+02 5.634799999999999898e+01 3.335557806133805370e-01
9.953799999999999670e+01 1.367700000000000102e+02 5.224699999999999989e+01 6.600403883900629598e-02
9.958799999999999386e+01 1.424329999999999927e+02 5.938100000000000023e+01 7.644007362783135362e-02
9.959799999999999898e+01 1.443199999999999932e+02 5.421900000000000119e+01 1.570379825450069211e-01
9.961100000000000421e+01 1.266009999999999991e+02 4.151400000000000290e+01 -2.095943328339627543e-01
9.964100000000000534e+01 1.493209999999999980e+02 6.622400000000000375e+01 8.526340993348821562e-02
9.964900000000000091e+01 1.246419999999999959e+02 5.641400000000000148e+01 3.777764911271429271e-02
9.965099999999999625e+01 1.408410000000000082e+02 5.334100000000000108e+01 2.300575155148094075e-01
9.965800000000000125e+01 1.379979999999999905e+02 5.427100000000000080e+01 1.291313048183538315e-01
9.966700000000000159e+01 1.370689999999999884e+02 5.635699999999999932e+01 2.380920349246767320e-01
9.969299999999999784e+01 1.312419999999999902e+02 3.897099999999999653e+01 -3.499999999999999778e-01
9.972899999999999920e+01 1.444710000000000036e+02 6.217000000000000171e+01 2.963685184669387906e-01
9.980800000000000693e+01 1.309499999999999886e+02 4.340800000000000125e+01 -3.499999999999999778e-01
9.981799999999999784e+01 1.416380000000000052e+02 5.241799999999999926e+01 2.346116904717835960e-01
1.000130000000000052e+02 1.379540000000000077e+02 5.556400000000000006e+01 9.953360189361665222e-02
1.000270000000000010e+02 1.407479999999999905e+02 5.763100000000000023e+01 3.369003137378169810e-01
1.000310000000000059e+02 1.353549999999999898e+02 5.042799999999999727e+01 9.155995256276763805e-02
1.000639999999999930e+02 1.416349999999999909e+02 5.677700000000000102e+01 1.004558308364682101e-01
1.001280000000000001e+02 1.349110000000000014e+02 4.569800000000000040e+01 -1.818275509891624231e-01
1.001280000000000001e+02 1.428180000000000121e+02 6.054299999999999926e+01 1.416736951074729356e-01
1.001419999999999959e+02 1.443089999999999975e+02 6.081000000000000227e+01 1.815539200056704161e-01
1.001580000000000013e+02 1.302860000000000014e+02 5.625000000000000000e+01 5.136230422662731165e-02
1.001989999999999981e+02 1.376839999999999975e+02 5.170400000000000063e+01 9.102676812477697443e-02
1.002500000000000000e+02 1.305850000000000080e+02 5.064699999999999847e+01 8.682913504400516236e-02
1.002950000000000017e+02 1.517259999999999991e+02 6.858700000000000330e+01 -1.788182549338616645e-01
1.002980000000000018e+02 1.294410000000000025e+02 5.524099999999999966e+01 1.126802221137408466e-01
1.003250000000000028e+02 1.428619999999999948e+02 5.259799999999999898e+01 1.650752111355704432e-01
1.003880000000000052e+02 1.401539999999999964e+02 5.062299999999999756e+01 1.981563321233358876e-01
1.004069999999999965e+02 1.301020000000000039e+02 5.888900000000000290e+01 -2.008236854220183665e-01
1.004069999999999965e+02 1.417450000000000045e+02 4.228900000000000148e+01 -1.232927798923785651e-01
1.004090000000000060e+02 1.395010000000000048e+02 5.738600000000000279e+01 1.563683482581874062e-01
1.004110000000000014e+02 1.490120000000000005e+02 6.847199999999999420e+01 -1.995091302945159462e-01
1.004290000000000020e+02 1.472290000000000134e+02 6.451000000000000512e+01 1.049201516692912090e-01
1.004360000000000070e+02 1.438959999999999866e+02 4.679800000000000182e+01 -9.169511528652148080e-02
1.005330000000000013e+02 1.449490000000000123e+02 4.585600000000000165e+01 -5.528999648260340960e-02
1.005540000000000020e+02 1.470329999999999870e+02 5.038199999999999790e+01 1.731700710572265378e-01
1.005699999999999932e+02 1.383149999999999977e+02 6.003499999999999659e+01 -1.756845389504777671e-02
1.005729999999999933e+02 1.260370000000000061e+02 4.051899999999999835e+01 -2.498013040467182699e-01
1.006029999999999944e+02 1.420200000000000102e+02 6.139200000000000301e+01 1.459896540474032722e-01
1.006050000000000040e+02 1.389679999999999893e+02 6.272800000000000153e+01 1.591416774684704105e-01
1.006140000000000043e+02 1.331759999999999877e+02 4.333700000000000330e+01 7.204643905812789517e-02
1.006700000000000017e+02 1.395459999999999923e+02 4.528900000000000148e+01 5.139215753985535567e-02
1.006880000000000024e+02 1.433669999999999902e+02 5.391100000000000136e+01 -1.197600021296037556e-02
1.006970000000000027e+02 1.428499999999999943e+02 4.294800000000000040e+01 -1.243734909138316802e-01
1.007219999999999942e+02 1.549689999999999941e+02 6.448699999999999477e+01 -1.042728792284793177e-01
1.007379999999999995e+02 1.481090000000000089e+02 5.777100000000000080e+01 2.183912394501847098e-01
1.007680000000000007e+02 1.317009999999999934e+02 4.328699999999999903e+01 -2.154798348512991235e-01
1.007860000000000014e+02 1.547330000000000041e+02 6.593800000000000239e+01 4.055399044959161724e-03
1.008169999999999931e+02 1.266440000000000055e+02 3.944400000000000261e+01 -2.432188237175084977e-01
1.008640000000000043e+02 1.358069999999999879e+02 5.907999999999999829e+01 3.675553170639701550e-01
1.008840000000000003e+02 1.391100000000000136e+02 5.605299999999999727e+01 9.381725777168620217e-02
1.008840000000000003e+02 1.456399999999999864e+02 4.987100000000000222e+01 2.375434402370114884e-01
1.009470000000000027e+02 1.289120000000000061e+02 3.774699999999999989e+01 -3.636741234149479807e-01
1.009819999999999993e+02 1.455099999999999909e+02 4.855899999999999750e+01 -1.508591748779249953e-01
1.010100000000000051e+02 1.523549999999999898e+02 6.562199999999999989e+01 -1.945150075827489222e-01
1.010330000000000013e+02 1.373439999999999941e+02 4.790299999999999869e+01 1.090186287325838610e-01
1.010709999999999980e+02 1.446800000000000068e+02 5.065999999999999659e+01 1.849376961476298376e-01
1.010769999999999982e+02 1.329519999999999982e+02 5.529099999999999682e+01 2.084375610989351313e-01
1.010859999999999985e+02 1.344799999999999898e+02 5.540800000000000125e+01 3.146943529937138440e-01
1.010859999999999985e+02 1.374950000000000045e+02 6.081400000000000006e+01 -4.012371820828911084e-02
1.010879999999999939e+02 1.249590000000000032e+02 4.081799999999999784e+01 -2.667152550579418580e-01
1.011110000000000042e+02 1.376889999999999930e+02 6.214099999999999824e+01 1.285796570585666931e-01
1.011389999999999958e+02 1.511860000000000070e+02 5.449000000000000199e+01 -1.865133807725650739e-01
1.011749999999999972e+02 1.324329999999999927e+02 5.669899999999999807e+01 -5.591460972870628682e-02
1.011839999999999975e+02 1.513180000000000121e+02 5.587599999999999767e+01 -1.722103363632883355e-01
1.011989999999999981e+02 1.434890000000000043e+02 6.420499999999999829e+01 2.781731067587375206e-01
1.012159999999999940e+02 1.381630000000000109e+02 4.499699999999999989e+01 -1.661985427768506718e-01
1.012270000000000039e+02 1.411860000000000070e+02 4.873599999999999710e+01 6.151487677797882331e-02
1.012300000000000040e+02 1.402529999999999859e+02 4.958100000000000307e+01 3.146267389371771445e-02
1.012510000000000048e+02 1.525149999999999864e+02 6.217399999999999949e+01 -1.251196054761187504e-02
1.012890000000000015e+02 1.533520000000000039e+02 6.630700000000000216e+01 4.812518954637499263e-02
1.012909999999999968e+02 1.553549999999999898e+02 5.525999999999999801e+01 3.392157620275466912e-02
1.012980000000000018e+02 1.309329999999999927e+02 5.686699999999999733e+01 1.118415383967484161e-01
1.013070000000000022e+02 1.570269999999999868e+02 6.034799999999999898e+01 2.369945667720548335e-02
1.013130000000000024e+02 1.442160000000000082e+02 4.802700000000000102e+01 -1.220837865138729300e-01
1.013389999999999986e+02 1.306560000000000059e+02 5.834899999999999665e+01 -2.451252189147246907e-01
1.013550000000000040e+02 1.512090000000000032e+02 6.828499999999999659e+01 -1.683280906324798876e-01
1.013880000000000052e+02 1.290889999999999986e+02 5.479899999999999949e+01 1.848275902457928443e-01
1.014129999999999967e+02 1.346779999999999973e+02 5.070600000000000307e+01 1.300466609263859208e-01
1.015120000000000005e+02 1.499019999999999868e+02 6.815399999999999636e+01 -1.554786144667549830e-01
1.015300000000000011e+02 1.538019999999999925e+02 6.003199999999999648e+01 1.391731048085347033e-01
1.015460000000000065e+02 1.448410000000000082e+02 6.063900000000000290e+01 8.243993882651609595e-02
1.015660000000000025e+02 1.410730000000000075e+02 4.199300000000000210e+01 -2.793902655321229278e-01
1.015960000000000036e+02 1.462740000000000009e+02 6.106300000000000239e+01 3.265079485951990490e-01
1.016290000000000049e+02 1.307620000000000005e+02 4.746900000000000119e+01 -9.090985531122593166e-02
1.016290000000000049e+02 1.517199999999999989e+02 5.062299999999999756e+01 3.993698687352637694e-02
1.016779999999999973e+02 1.362259999999999991e+02 6.025000000000000000e+01 -1.897486115618724489e-01
1.017079999999999984e+02 1.396440000000000055e+02 6.352900000000000347e+01 1.359895201007768895e-01
1.017189999999999941e+02 1.550260000000000105e+02 6.224900000000000233e+01 -2.072515453935612761e-01
1.017360000000000042e+02 1.381169999999999902e+02 4.367099999999999937e+01 -1.390324054010899646e-01
1.017609999999999957e+02 1.266310000000000002e+02 5.149099999999999966e+01 -3.395041045503459365e-02
1.017860000000000014e+02 1.409569999999999936e+02 6.347800000000000153e+01 2.291028545728525379e-01
1.018059999999999974e+02 1.547709999999999866e+02 6.375800000000000267e+01 -1.701502202702409594e-01
1.018220000000000027e+02 1.476270000000000095e+02 5.109700000000000131e+01 1.925248359755923067e-01
1.018409999999999940e+02 1.505809999999999889e+02 4.979800000000000182e+01 -2.729054945213743935e-03
1.018499999999999943e+02 1.552100000000000080e+02 4.821999999999999886e+01 -2.219894904868643104e-01
1.018569999999999993e+02 1.351320000000000050e+02 6.117999999999999972e+01 -1.176385831970215567e-01
1.018780000000000001e+02 1.537210000000000036e+02 4.797999999999999687e+01 -2.401953453063065125e-01
1.019129999999999967e+02 1.271080000000000041e+02 4.706799999999999784e+01 -1.913435562118742939e-01
1.019360000000000070e+02 1.380300000000000011e+02 4.739399999999999835e+01 9.308873720644326999e-02
1.019989999999999952e+02 1.312620000000000005e+02 4.313300000000000267e+01 -2.684787430276024955e-01
1.020019999999999953e+02 1.533110000000000070e+02 6.741700000000000159e+01 -1.336849142934606605e-01
1.020060000000000002e+02 1.429079999999999870e+02 4.308299999999999841e+01 -2.372884005612307945e-01
1.020109999999999957e+02 1.536910000000000025e+02 6.149300000000000210e+01 -1.965231129341147853e-01
1.020169999999999959e+02 1.446500000000000057e+02 5.917900000000000205e+01 2.253615439334266113e-01
1.020400000000000063e+02 1.320840000000000032e+02 4.721699999999999875e+01 -1.308087495014177426e-01
1.020600000000000023e+02 1.441239999999999952e+02 5.387800000000000011e+01 6.658078180682686087e-02
1.021350000000000051e+02 1.450420000000000016e+02 6.733899999999999864e+01 8.805223374012163817e-02
1.021410000000000053e+02 1.502189999999999941e+02 4.593599999999999994e+01 -1.407289384144150834e-01
1.022270000000000039e+02 1.544099999999999966e+02 5.319899999999999807e+01 9.874227324409550616e-03
1.022330000000000041e+02 1.391359999999999957e+02 4.947299999999999898e+01 -2.203214953565023684e-02
1.022339999999999947e+02 1.506750000000000114e+02 5.376100000000000279e+01 -1.253060464897099435e-01
1.022600000000000051e+02 1.324379999999999882e+02 5.442499999999999716e+01 2.596156820837333679e-01
1.022650000000000006e+02 1.553880000000000052e+02 5.434100000000000108e+01 6.387558925143646538e-02
1.022860000000000014e+02 1.430689999999999884e+02 6.462900000000000489e+01 3.063758645911426326e-01
1.022939999999999969e+02 1.269849999999999994e+02 5.278999999999999915e+01 -5.323344839160792930e-02
1.023280000000000030e+02 1.509250000000000114e+02 5.653499999999999659e+01 4.074088554157469060e-03
1.023379999999999939e+02 1.447969999999999970e+02 5.518200000000000216e+01 1.159956088105101174e-01
1.023389999999999986e+02 1.377909999999999968e+02 4.593800000000000239e+01 1.439286802269220122e-01
1.023439999999999941e+02 1.292849999999999966e+02 3.774900000000000233e+01 -3.597605755348917134e-01
1.023449999999999989e+02 1.570409999999999968e+02 6.104399999999999693e+01 3.712347161058264511e-02
1.023629999999999995e+02 1.386459999999999866e+02 5.607099999999999795e+01 8.752425584112009938e-02
1.023780000000000001e+02 1.203460000000000036e+02 5.114000000000000057e+01 4.033084848658427535e-02
1.024099999999999966e+02 1.310699999999999932e+02 5.901400000000000290e+01 -1.905694013125084629e-01
1.024249999999999972e+02 1.299230000000000018e+02 4.827600000000000335e+01 3.870713521691807740e-02
1.024290000000000020e+02 1.248190000000000026e+02 5.582699999999999818e+01 -7.164957731011616093e-02
1.024959999999999951e+02 1.389739999999999895e+02 6.415900000000000603e+01 1.245531222101736446e-01
1.025250000000000057e+02 1.509869999999999948e+02 4.849199999999999733e+01 -2.475676843258997339e-01
1.025259999999999962e+02 1.308990000000000009e+02 6.045700000000000074e+01 -7.819223103608696768e-02
1.025280000000000058e+02 1.363600000000000136e+02 4.591199999999999903e+01 8.253660272016999366e-02
1.025330000000000013e+02 1.520840000000000032e+02 6.798499999999999943e+01 -1.244095596193887099e-01
1.025520000000000067e+02 1.451020000000000039e+02 6.586899999999999977e+01 1.852237492436621669e-01
1.025829999999999984e+02 1.326179999999999950e+02 6.217000000000000171e+01 -1.517989405102949663e-01
1.025879999999999939e+02 1.418000000000000114e+02 4.249300000000000210e+01 -2.637093970775048479e-01
1.026039999999999992e+02 1.453199999999999932e+02 4.445300000000000296e+01 -2.455883893833028520e-01
1.026159999999999997e+02 1.389329999999999927e+02 4.809499999999999886e+01 -1.705857861586575208e-02
1.026209999999999951e+02 1.283710000000000093e+02 6.060099999999999909e+01 -7.664068690321693134e-02
1.026470000000000056e+02 1.560840000000000032e+02 6.191899999999999693e+01 -4.975255289024412692e-02
1.026629999999999967e+02 1.475010000000000048e+02 4.535699999999999932e+01 -8.996272522017137452e-02
1.026659999999999968e+02 1.213449999999999989e+02 5.031600000000000250e+01 7.807586716079290001e-02
1.026919999999999931e+02 1.226009999999999991e+02 5.080700000000000216e+01 9.289105756042503881e-02
1.027019999999999982e+02 1.258520000000000039e+02 4.936800000000000210e+01 -1.544408471950675377e-01
1.027360000000000042e+02 1.263010000000000019e+02 5.585000000000000142e+01 -1.039619060398449674e-01
1.027510000000000048e+02 1.380850000000000080e+02 5.470799999999999841e+01 3.064120210850880821e-01
1.027860000000000014e+02 1.267279999999999944e+02 5.036599999999999966e+01 4.284256247880839641e-02
1.028050000000000068e+02 1.416899999999999977e+02 6.423399999999999466e+01 6.737974973879617968e-02
1.028089999999999975e+02 1.442239999999999895e+02 4.766799999999999926e+01 -8.033187567989187594e-02
1.028119999999999976e+02 1.543580000000000041e+02 6.426099999999999568e+01 -1.229053797181504787e-01
1.028130000000000024e+02 1.294230000000000018e+02 3.919400000000000261e+01 -2.300625883293202223e-01
1.028730000000000047e+02 1.594259999999999877e+02 6.157399999999999807e+01 1.659253941613549055e-01
1.029060000000000059e+02 1.210550000000000068e+02 4.901800000000000068e+01 7.251214761848531754e-02
1.029569999999999936e+02 1.350080000000000098e+02 6.192300000000000182e+01 -6.019460238542080621e-02
1.029710000000000036e+02 1.495879999999999939e+02 4.660799999999999699e+01 -1.397500623899988192e-01
1.030480000000000018e+02 1.338319999999999936e+02 6.283700000000000330e+01 -1.859527546597902758e-01
1.030520000000000067e+02 1.437930000000000064e+02 6.543899999999999295e+01 3.184444402440121946e-01
1.031269999999999953e+02 1.285190000000000055e+02 4.311800000000000210e+01 -2.020576434370879859e-01
1.031290000000000049e+02 1.268709999999999951e+02 4.720400000000000063e+01 -1.880357498016614615e-01
1.031329999999999956e+02 1.473319999999999936e+02 6.524099999999999966e+01 7.395634855133338681e-02
1.031419999999999959e+02 1.495310000000000059e+02 6.279800000000000182e+01 1.916848828685109307e-01
1.031539999999999964e+02 1.321759999999999877e+02 6.105499999999999972e+01 -1.364693692117160129e-01
1.031760000000000019e+02 1.533230000000000075e+02 4.857500000000000284e+01 -2.508491678763108412e-01
1.031919999999999931e+02 1.431610000000000014e+02 5.358500000000000085e+01 1.127045147870379405e-01
1.031979999999999933e+02 1.561930000000000121e+02 5.439099999999999824e+01 8.258166640838848771e-02
1.032060000000000031e+02 1.498710000000000093e+02 4.788199999999999790e+01 -1.779530048145798460e-01
1.032150000000000034e+02 1.262180000000000035e+02 5.336200000000000188e+01 -1.205903800010763999e-01
1.032189999999999941e+02 1.220379999999999967e+02 4.795600000000000307e+01 1.041630847016627726e-01
1.032399999999999949e+02 1.325749999999999886e+02 4.776500000000000057e+01 9.165936452993432570e-02
1.032489999999999952e+02 1.398220000000000027e+02 5.640899999999999892e+01 2.349868825973391306e-01
1.032570000000000050e+02 1.463789999999999907e+02 4.456499999999999773e+01 -2.319879486444103578e-01
1.032570000000000050e+02 1.495869999999999891e+02 6.429200000000000159e+01 7.460537579866070856e-02
1.032630000000000052e+02 1.524019999999999868e+02 6.927899999999999636e+01 -2.285555062701656870e-01
1.033050000000000068e+02 1.267159999999999940e+02 5.721099999999999852e+01 -1.907618899306916249e-01
1.033520000000000039e+02 1.556129999999999995e+02 4.810199999999999676e+01 -2.213012507172740784e-01
1.033559999999999945e+02 1.430339999999999918e+02 4.752600000000000335e+01 9.336865020031492879e-02
1.033569999999999993e+02 1.296699999999999875e+02 6.079200000000000159e+01 -4.056329088985147213e-01
1.033870000000000005e+02 1.502969999999999970e+02 5.442600000000000193e+01 -1.645502188941959931e-01
1.033930000000000007e+02 1.581709999999999923e+02 6.089000000000000057e+01 1.584861875095910644e-01
1.034129999999999967e+02 1.395420000000000016e+02 5.032500000000000284e+01 -7.106003607486439944e-02
1.034309999999999974e+02 1.504130000000000109e+02 5.582099999999999795e+01 -2.612916676497517576e-02
1.034449999999999932e+02 1.452800000000000011e+02 4.757500000000000284e+01 -1.635011849281728380e-01
1.035439999999999969e+02 1.520749999999999886e+02 4.877799999999999869e+01 -9.926657305988433044e-02
1.035580000000000069e+02 1.271869999999999976e+02 6.088300000000000267e+01 -4.054955661155109636e-01
1.035769999999999982e+02 1.539720000000000084e+02 5.114500000000000313e+01 -1.842951166200255952e-01
1.035829999999999984e+02 1.397599999999999909e+02 6.042999999999999972e+01 1.085797786401772325e-01
1.035909999999999940e+02 1.461589999999999918e+02 6.564799999999999613e+01 1.837388620465497668e-01
1.036080000000000041e+02 1.304110000000000014e+02 4.882300000000000040e+01 2.770825135529436656e-02
1.036170000000000044e+02 1.251820000000000022e+02 5.283500000000000085e+01 -1.110189519531314534e-01
1.036239999999999952e+02 1.258670000000000044e+02 4.824900000000000233e+01 -1.524943052435367985e-01
1.036380000000000052e+02 1.278689999999999998e+02 4.401899999999999835e+01 -2.408222551849338033e-01
1.036380000000000052e+02 1.542050000000000125e+02 5.259199999999999875e+01 5.447789065673500249e-03
1.036440000000000055e+02 1.584619999999999891e+02 5.947599999999999909e+01 1.639888753791149956e-01
1.036509999999999962e+02 1.275819999999999936e+02 5.039399999999999835e+01 -3.706980491186634245e-03
1.036889999999999930e+02 1.244879999999999995e+02 4.760099999999999909e+01 -1.178546698814807725e-01
1.037019999999999982e+02 1.284350000000000023e+02 4.544500000000000028e+01 1.226738329650346182e-01
1.037249999999999943e+02 1.339890000000000043e+02 4.746500000000000341e+01 -1.760161323330221642e-02
1.037259999999999991e+02 1.484250000000000114e+02 4.597200000000000131e+01 -1.048610019139147587e-01
1.037289999999999992e+02 1.358449999999999989e+02 4.584199999999999875e+01 3.606328447861240072e-02
1.037519999999999953e+02 1.266680000000000064e+02 5.474000000000000199e+01 -1.647505176688650042e-01
1.037530000000000001e+02 1.343679999999999950e+02 4.594700000000000273e+01 -4.477782192179933021e-03
1.037570000000000050e+02 1.410680000000000121e+02 5.983800000000000097e+01 2.936495308240152924e-01
1.038190000000000026e+02 1.613540000000000134e+02 6.266799999999999926e+01 1.091053889508794006e-01
1.038659999999999997e+02 1.357980000000000018e+02 6.188900000000000290e+01 1.296596372908055683e-01
1.038760000000000048e+02 1.233310000000000031e+02 4.854599999999999937e+01 1.536497349352147768e-01
1.038829999999999956e+02 1.318410000000000082e+02 6.470499999999999829e+01 -3.865719707056800569e-01
1.039069999999999965e+02 1.491829999999999927e+02 6.724800000000000466e+01 -7.833122955882317051e-02
1.039069999999999965e+02 1.574919999999999902e+02 5.860699999999999932e+01 9.250784983838741815e-02
1.039350000000000023e+02 1.604960000000000093e+02 6.173299999999999699e+01 1.440495446474528707e-01
1.040019999999999953e+02 1.317340000000000089e+02 4.856400000000000006e+01 2.014144730612852929e-01
1.040040000000000049e+02 1.562980000000000018e+02 5.893399999999999750e+01 -5.903748249621222632e-02
1.040210000000000008e+02 1.281069999999999993e+02 5.474699999999999989e+01 1.828229044150242733e-01
1.040310000000000059e+02 1.484470000000000027e+02 6.497100000000000364e+01 1.811278413742923865e-01
1.040600000000000023e+02 1.544629999999999939e+02 4.882099999999999795e+01 -2.307781261226540259e-01
1.040639999999999930e+02 1.339900000000000091e+02 4.325699999999999790e+01 -6.381165138695231442e-02
1.040649999999999977e+02 1.274380000000000024e+02 4.643900000000000006e+01 1.604590363513576645e-01
1.040649999999999977e+02 1.415149999999999864e+02 4.254899999999999949e+01 -2.358602093047588166e-01
1.040829999999999984e+02 1.371630000000000109e+02 5.067099999999999937e+01 1.123734166687131025e-01
1.041219999999999999e+02 1.327609999999999957e+02 6.050900000000000034e+01 -1.106603491146823381e-01
1.041260000000000048e+02 1.261280000000000001e+02 4.247699999999999676e+01 -2.328995448944163604e-01
1.041310000000000002e+02 1.579240000000000066e+02 5.717199999999999704e+01 1.480232125239779907e-02
1.041329999999999956e+02 1.418129999999999882e+02 6.341199999999999903e+01 2.167702075628531178e-01
1.041760000000000019e+02 1.266820000000000022e+02 4.380899999999999750e+01 -2.499994722936830505e-01
1.042049999999999983e+02 1.497429999999999950e+02 6.026599999999999824e+01 2.713580548453143337e-01
1.042210000000000036e+02 1.547649999999999864e+02 5.030299999999999727e+01 -1.977753661938326801e-01
1.042930000000000064e+02 1.405169999999999959e+02 4.656900000000000261e+01 -1.794473399403092445e-02
1.042939999999999969e+02 1.298240000000000123e+02 3.922200000000000131e+01 -7.394477884271336010e-02
1.043359999999999985e+02 1.274609999999999985e+02 6.209000000000000341e+01 -4.024740139473667044e-01
1.043409999999999940e+02 1.530989999999999895e+02 5.335199999999999676e+01 1.974326608448238318e-01
1.043580000000000041e+02 1.531090000000000089e+02 5.457800000000000296e+01 1.733771861582652507e-01
1.043919999999999959e+02 1.465569999999999879e+02 4.405299999999999727e+01 -2.239313154521109239e-01
1.044099999999999966e+02 1.439250000000000114e+02 5.318099999999999739e+01 2.675774173381129106e-01
1.044819999999999993e+02 1.336610000000000014e+02 6.325399999999999778e+01 -3.983644444383219185e-01
1.045190000000000055e+02 1.409010000000000105e+02 4.388400000000000034e+01 -2.573136749893278896e-01
1.045340000000000060e+02 1.477589999999999861e+02 4.697699999999999676e+01 -1.371832559014786734e-01
1.045750000000000028e+02 1.311659999999999968e+02 5.699399999999999977e+01 2.849060591590628008e-02
1.045799999999999983e+02 1.416529999999999916e+02 4.618299999999999983e+01 -1.621581402848568110e-01
1.045900000000000034e+02 1.385980000000000132e+02 5.039300000000000068e+01 8.145046274527449615e-02
1.045969999999999942e+02 1.498870000000000005e+02 5.367799999999999727e+01 4.800870957035136000e-02
1.046149999999999949e+02 1.489960000000000093e+02 6.625600000000000023e+01 -4.076514721574366756e-02
1.046440000000000055e+02 1.517980000000000018e+02 4.917600000000000193e+01 -1.038742362203951830e-01
1.046610000000000014e+02 1.528959999999999866e+02 6.903300000000000125e+01 -3.659761160093429888e-01
1.046760000000000019e+02 1.419420000000000073e+02 4.489099999999999824e+01 -1.413781391034176216e-01
1.046929999999999978e+02 1.296349999999999909e+02 4.549699999999999989e+01 8.464088138608165390e-02
1.047139999999999986e+02 1.322990000000000066e+02 6.388900000000000290e+01 -3.916682449985172676e-01
1.047169999999999987e+02 1.390819999999999936e+02 6.093299999999999983e+01 1.970702031635382656e-01
1.047399999999999949e+02 1.428329999999999984e+02 4.717000000000000171e+01 -1.860271685227610494e-01
1.047489999999999952e+02 1.486539999999999964e+02 4.985300000000000153e+01 4.850426985630788834e-02
1.047540000000000049e+02 1.365070000000000050e+02 4.570600000000000307e+01 1.365165190197261194e-02
1.047639999999999958e+02 1.498060000000000116e+02 6.197099999999999653e+01 6.434131197810098735e-02
1.047740000000000009e+02 1.300550000000000068e+02 4.062899999999999778e+01 -6.521657967067533146e-02
1.047830000000000013e+02 1.459130000000000109e+02 6.581199999999999761e+01 1.838485446210212371e-01
1.048250000000000028e+02 1.526080000000000041e+02 5.868699999999999761e+01 -1.264682800784702466e-01
1.049020000000000010e+02 1.604919999999999902e+02 6.090800000000000125e+01 1.443164033478639419e-01
1.049060000000000059e+02 1.352309999999999945e+02 5.778900000000000148e+01 3.208822363696484659e-01
1.049129999999999967e+02 1.557009999999999934e+02 5.068200000000000216e+01 -1.844050902488545141e-01
1.049150000000000063e+02 1.521279999999999859e+02 5.264699999999999847e+01 -8.353668726505850128e-02
1.049230000000000018e+02 1.338110000000000070e+02 4.529899999999999949e+01 2.764344217853992314e-01
1.049710000000000036e+02 1.532520000000000095e+02 6.789000000000000057e+01 -3.666321493672773935e-01
1.049789999999999992e+02 1.336539999999999964e+02 4.399300000000000210e+01 4.746380215518401779e-02
1.049939999999999998e+02 1.569859999999999900e+02 5.647999999999999687e+01 -5.198638326202933285e-02
1.050199999999999960e+02 1.416239999999999952e+02 5.977499999999999858e+01 2.015605005654597659e-01
1.050699999999999932e+02 1.469879999999999995e+02 5.712599999999999767e+01 3.613718392587682571e-01
1.051599999999999966e+02 1.457889999999999873e+02 6.196999999999999886e+01 2.866868823213034601e-01
1.051839999999999975e+02 1.327489999999999952e+02 5.253600000000000136e+01 3.536154770170238937e-01
1.052330000000000041e+02 1.266340000000000003e+02 6.263499999999999801e+01 -4.088757966352876139e-01
1.052409999999999997e+02 1.285660000000000025e+02 5.457500000000000284e+01 1.854893465050245216e-01
1.052650000000000006e+02 1.558340000000000032e+02 6.238700000000000045e+01 -8.107847180187435776e-02
1.052810000000000059e+02 1.341390000000000100e+02 5.246900000000000119e+01 3.459109901465355352e-01
1.053419999999999987e+02 1.418400000000000034e+02 3.865100000000000335e+01 -2.218639039084590592e-01
1.054200000000000017e+02 1.300749999999999886e+02 5.457300000000000040e+01 3.788667942722715454e-01
1.054330000000000069e+02 1.263199999999999932e+02 4.171500000000000341e+01 -2.140051114977057911e-01
1.054489999999999981e+02 1.445089999999999861e+02 5.708599999999999852e+01 3.327392239839256360e-01
1.054710000000000036e+02 1.254599999999999937e+02 6.206300000000000239e+01 -4.163951619258621228e-01
1.054789999999999992e+02 1.474269999999999925e+02 4.971699999999999875e+01 -2.006399765730342843e-01
1.054789999999999992e+02 1.529250000000000114e+02 6.997400000000000375e+01 -3.640830855159012946e-01
1.055040000000000049e+02 1.424619999999999891e+02 4.843500000000000227e+01 9.714287090714665562e-02
1.055630000000000024e+02 1.387760000000000105e+02 4.336999999999999744e+01 -1.399576475252927443e-01
1.055690000000000026e+02 1.510389999999999873e+02 5.337500000000000000e+01 5.824308080883329464e-02
1.055780000000000030e+02 1.391009999999999991e+02 5.150900000000000034e+01 1.120470438024500498e-01
1.056779999999999973e+02 1.482829999999999870e+02 4.740699999999999648e+01 -1.718101692021188343e-01
1.057750000000000057e+02 1.400579999999999927e+02 4.367699999999999960e+01 -2.715542795218795491e-01
1.057840000000000060e+02 1.309290000000000020e+02 5.678900000000000148e+01 7.549816549076564243e-02
1.058119999999999976e+02 1.457949999999999875e+02 5.778300000000000125e+01 3.205317209999743455e-01
1.058340000000000032e+02 1.316430000000000007e+02 6.353499999999999659e+01 -3.900259379923370906e-01
1.058409999999999940e+02 1.252620000000000005e+02 4.101599999999999824e+01 -1.863561912469306192e-01
1.058769999999999953e+02 1.269800000000000040e+02 6.376599999999999824e+01 -4.083588555192608771e-01
1.059249999999999972e+02 1.492249999999999943e+02 6.623699999999999477e+01 1.188754733525338725e-01
1.059779999999999944e+02 1.396730000000000018e+02 6.085000000000000142e+01 2.309656876434779682e-01
1.059929999999999950e+02 1.292909999999999968e+02 4.500900000000000034e+01 -1.915866495465788633e-01
1.060340000000000060e+02 1.524809999999999945e+02 5.772899999999999920e+01 3.815036595261993013e-01
1.060370000000000061e+02 1.305440000000000111e+02 5.327499999999999858e+01 4.187277925361014286e-01
1.060450000000000017e+02 1.323880000000000052e+02 4.218900000000000006e+01 -1.873175979041035444e-01
1.060529999999999973e+02 1.396500000000000057e+02 3.887400000000000233e+01 -2.237982380184086184e-01
1.060720000000000027e+02 1.273820000000000050e+02 4.177799999999999869e+01 -1.760016855703825933e-01
1.061170000000000044e+02 1.409319999999999879e+02 6.027300000000000324e+01 2.337884608115063934e-01
1.061320000000000050e+02 1.493389999999999986e+02 4.697200000000000131e+01 -1.733257636264773638e-01
1.061430000000000007e+02 1.320099999999999909e+02 5.318599999999999994e+01 4.406083910660717473e-01
1.061929999999999978e+02 1.278229999999999933e+02 5.444200000000000017e+01 3.123697520250738324e-01
1.061970000000000027e+02 1.271719999999999970e+02 3.894500000000000028e+01 -1.606310073626008583e-01
1.061989999999999981e+02 1.554370000000000118e+02 6.036599999999999966e+01 -4.400197292869068716e-02
1.062210000000000036e+02 1.305190000000000055e+02 4.067600000000000193e+01 -1.285985166303847405e-01
1.062289999999999992e+02 1.567410000000000139e+02 5.693800000000000239e+01 1.744984222724182410e-01
1.062489999999999952e+02 1.329770000000000039e+02 4.346699999999999875e+01 -6.487957101397852366e-02
1.062530000000000001e+02 1.555300000000000011e+02 6.170400000000000063e+01 1.831234694678126884e-01
1.062549999999999955e+02 1.471500000000000057e+02 5.096699999999999875e+01 2.399829763579668374e-01
1.062750000000000057e+02 1.304290000000000020e+02 5.566499999999999915e+01 6.719474545796325082e-02
1.063070000000000022e+02 1.252519999999999953e+02 5.955499999999999972e+01 -4.321536361529944026e-01
1.063239999999999981e+02 1.348089999999999975e+02 5.303799999999999670e+01 3.839508140015123194e-01
1.063250000000000028e+02 1.409670000000000130e+02 3.895300000000000296e+01 -2.189518433663468766e-01
1.064090000000000060e+02 1.355049999999999955e+02 5.767900000000000205e+01 2.916384197351798990e-01
1.064170000000000016e+02 1.475349999999999966e+02 4.850099999999999767e+01 -1.938900415380790387e-01
1.064599999999999937e+02 1.459579999999999984e+02 6.271600000000000108e+01 2.882196966213491085e-01
1.064620000000000033e+02 1.379269999999999925e+02 4.057000000000000028e+01 -2.342911453543636835e-01
1.064759999999999991e+02 1.544439999999999884e+02 5.643200000000000216e+01 1.210212233810661342e-01
1.064819999999999993e+02 1.311570000000000107e+02 4.201800000000000068e+01 -1.554619529426534974e-01
1.065370000000000061e+02 1.323410000000000082e+02 5.869100000000000250e+01 -2.583393095771802095e-01
1.065969999999999942e+02 1.367620000000000005e+02 5.685300000000000153e+01 3.022398741024550084e-01
1.066490000000000009e+02 1.498470000000000084e+02 6.734499999999999886e+01 -1.286148002329942364e-01
1.066929999999999978e+02 1.378870000000000005e+02 4.309799999999999898e+01 -6.402948066069627520e-02
1.066949999999999932e+02 1.502659999999999911e+02 5.143500000000000227e+01 1.983829124423538426e-01
1.067109999999999985e+02 1.504010000000000105e+02 5.264200000000000301e+01 1.588772128010498552e-01
1.067150000000000034e+02 1.572669999999999959e+02 5.796699999999999875e+01 1.877455938158751336e-01
1.067169999999999987e+02 1.233029999999999973e+02 5.311500000000000199e+01 3.903709039853299201e-01
1.067339999999999947e+02 1.410960000000000036e+02 5.579399999999999693e+01 3.358303153499367366e-01
1.067420000000000044e+02 1.538110000000000070e+02 5.755899999999999750e+01 1.389586374173885641e-01
1.067549999999999955e+02 1.202690000000000055e+02 4.957300000000000040e+01 -1.351968158799970454e-01
1.068239999999999981e+02 1.311670000000000016e+02 5.784100000000000108e+01 1.280796805491561385e-01
1.068629999999999995e+02 1.265979999999999990e+02 4.732900000000000063e+01 6.015485848461558233e-02
1.068649999999999949e+02 1.243509999999999991e+02 5.890699999999999648e+01 -1.178788787285446338e-01
1.068889999999999958e+02 1.350949999999999989e+02 4.289600000000000080e+01 -1.130254574289415725e-01
1.069230000000000018e+02 1.405469999999999970e+02 4.382900000000000063e+01 -2.837619865803314156e-01
1.069369999999999976e+02 1.298449999999999989e+02 5.863499999999999801e+01 -4.035008903424049942e-01
1.069440000000000026e+02 1.275049999999999955e+02 5.043800000000000239e+01 1.632440604290916197e-01
1.069449999999999932e+02 1.385339999999999918e+02 3.925000000000000000e+01 -2.322951106763592455e-01
1.069650000000000034e+02 1.241230000000000047e+02 3.917199999999999704e+01 -9.666705468766242926e-02
1.069689999999999941e+02 1.559379999999999882e+02 5.466199999999999903e+01 -1.419656767282664878e-01
1.069779999999999944e+02 1.421630000000000109e+02 4.831099999999999994e+01 2.593443336344328776e-01
1.069959999999999951e+02 1.286740000000000066e+02 4.943699999999999761e+01 -1.847880602044053161e-02
1.070139999999999958e+02 1.244320000000000022e+02 5.738300000000000267e+01 2.669827604356899142e-01
1.070139999999999958e+02 1.515020000000000095e+02 5.821999999999999886e+01 -2.068444901104085631e-02
1.070430000000000064e+02 1.252639999999999958e+02 4.019400000000000261e+01 -1.473195000186528492e-01
1.070499999999999972e+02 1.557270000000000039e+02 5.615299999999999869e+01 1.013300251636029409e-01
1.070510000000000019e+02 1.356539999999999964e+02 5.909599999999999653e+01 2.882587387039571292e-01
1.070559999999999974e+02 1.248130000000000024e+02 5.240699999999999648e+01 4.108779463952167421e-01
1.070580000000000069e+02 1.343799999999999955e+02 5.995499999999999829e+01 -2.582604761117980319e-01
1.070769999999999982e+02 1.305620000000000118e+02 4.290599999999999881e+01 -2.931547293015533406e-01
1.070870000000000033e+02 1.294219999999999970e+02 4.032500000000000284e+01 -1.436099534336728600e-01
1.071269999999999953e+02 1.389979999999999905e+02 6.140100000000000335e+01 3.250428023768767161e-01
1.071800000000000068e+02 1.266080000000000041e+02 3.945400000000000063e+01 -1.778992889259277121e-01
1.071850000000000023e+02 1.470840000000000032e+02 6.219200000000000017e+01 3.757992292995887551e-01
1.072109999999999985e+02 1.326829999999999927e+02 5.377300000000000324e+01 4.001781827440732409e-01
1.072339999999999947e+02 1.380099999999999909e+02 4.543099999999999739e+01 -2.117147673560158816e-01
1.072399999999999949e+02 1.332040000000000077e+02 4.663400000000000034e+01 1.835874815137324423e-01
1.072620000000000005e+02 1.526920000000000073e+02 6.263499999999999801e+01 2.168820931199189894e-01
1.072770000000000010e+02 1.300219999999999914e+02 5.006700000000000017e+01 3.840368766813990198e-01
1.073130000000000024e+02 1.340910000000000082e+02 5.370000000000000284e+01 3.891027580470358682e-01
1.073190000000000026e+02 1.386490000000000009e+02 4.781700000000000017e+01 1.726701688693842163e-01
1.073409999999999940e+02 1.382589999999999861e+02 4.174099999999999966e+01 -3.023664264837745610e-03
1.073469999999999942e+02 1.488429999999999893e+02 6.822799999999999443e+01 -9.100447420860004188e-02
1.073520000000000039e+02 1.527690000000000055e+02 6.409000000000000341e+01 -7.948669174118972933e-03
1.073619999999999948e+02 1.232849999999999966e+02 5.948199999999999932e+01 -1.385823556470311968e-01
1.073649999999999949e+02 1.447779999999999916e+02 6.245400000000000063e+01 3.943164704795604214e-01
1.073739999999999952e+02 1.412760000000000105e+02 5.455799999999999983e+01 1.286999736152052154e-01
1.073769999999999953e+02 1.403830000000000098e+02 5.680299999999999727e+01 1.061184545490696240e-01
1.073790000000000049e+02 1.460469999999999970e+02 5.771999999999999886e+01 3.064668689914852306e-01
1.073889999999999958e+02 1.506179999999999950e+02 5.612500000000000000e+01 3.197991207351738585e-01
1.074110000000000014e+02 1.339099999999999966e+02 4.339200000000000301e+01 1.421207055818910284e-02
1.074399999999999977e+02 1.350900000000000034e+02 6.417499999999999716e+01 -3.499999999999999778e-01
1.074680000000000035e+02 1.476610000000000014e+02 5.950600000000000023e+01 3.292839115398779604e-01
1.074920000000000044e+02 1.331949999999999932e+02 5.906600000000000250e+01 -2.642517833426775153e-01
1.075100000000000051e+02 1.443950000000000102e+02 6.131799999999999784e+01 2.239809980674184117e-02
1.075220000000000056e+02 1.484190000000000111e+02 4.872399999999999665e+01 -2.707547302621901748e-03
1.075229999999999961e+02 1.259599999999999937e+02 5.549499999999999744e+01 1.564941827981891076e-01
1.075259999999999962e+02 1.414219999999999970e+02 3.938600000000000279e+01 -9.500957612732176261e-02
1.075400000000000063e+02 1.257920000000000016e+02 5.694299999999999784e+01 -1.690885970269494221e-01
1.075400000000000063e+02 1.542439999999999998e+02 5.840200000000000102e+01 3.268397755184533626e-02
1.075550000000000068e+02 1.520550000000000068e+02 6.686400000000000432e+01 -3.628215428929648101e-01
1.075810000000000031e+02 1.395740000000000123e+02 6.270700000000000074e+01 -2.820661172860737809e-01
1.075829999999999984e+02 1.552359999999999900e+02 6.235399999999999920e+01 -1.287855612298989816e-01
1.075960000000000036e+02 1.324759999999999991e+02 6.178999999999999915e+01 -9.214090476743368174e-02
1.075999999999999943e+02 1.506440000000000055e+02 5.736399999999999721e+01 3.471092324834592069e-01
1.076080000000000041e+02 1.478040000000000020e+02 6.425300000000000011e+01 2.411892030203929005e-01
1.076260000000000048e+02 1.305099999999999909e+02 3.849799999999999756e+01 -1.687255868070144937e-01
1.076359999999999957e+02 1.414569999999999936e+02 6.457200000000000273e+01 4.907559257805158004e-02
1.076550000000000011e+02 1.344699999999999989e+02 4.929899999999999949e+01 2.668589464730408700e-01
1.076560000000000059e+02 1.416510000000000105e+02 4.941599999999999682e+01 2.210143161339535589e-01
1.076730000000000018e+02 1.423429999999999893e+02 4.712700000000000244e+01 -1.036773368469465356e-01
1.076860000000000070e+02 1.474370000000000118e+02 5.832500000000000284e+01 3.030139466687471472e-01
1.076899999999999977e+02 1.507439999999999998e+02 6.667400000000000659e+01 9.733710487804672976e-04
1.076979999999999933e+02 1.499850000000000136e+02 5.340400000000000347e+01 3.575736205927126377e-01
1.077139999999999986e+02 1.380240000000000009e+02 4.420499999999999829e+01 -1.318862701474535215e-01
1.077139999999999986e+02 1.513460000000000036e+02 6.204200000000000159e+01 1.184966400518634860e-01
1.077240000000000038e+02 1.479389999999999930e+02 6.303600000000000136e+01 2.292140295527391181e-01
1.077390000000000043e+02 1.295149999999999864e+02 3.918500000000000227e+01 -1.628760244480964847e-01
1.077429999999999950e+02 1.511740000000000066e+02 6.081199999999999761e+01 1.036454113678357408e-01
1.078840000000000003e+02 1.269399999999999977e+02 4.789200000000000301e+01 -1.284900342554270158e-01
1.079290000000000020e+02 1.549590000000000032e+02 5.395499999999999829e+01 -1.518038266765236489e-02
1.079350000000000023e+02 1.298590000000000089e+02 5.974900000000000233e+01 -4.032053293436635433e-01
1.079699999999999989e+02 1.442059999999999889e+02 6.349300000000000210e+01 5.646552831972218023e-02
