1.616000000000000014e+01 -3.284199999999999875e+01 4.626000000000000334e+00 9.803359862984073470e-02
1.618100000000000094e+01 -4.480100000000000193e+01 -9.055999999999999162e+00 -1.307513078850400523e-01
1.618900000000000006e+01 -2.441400000000000148e+01 8.792999999999999261e+00 7.982179164013822326e-03
1.619000000000000128e+01 -4.438499999999999801e+01 -4.597999999999999865e+00 -3.406321703291778635e-01
1.619900000000000162e+01 -1.723799999999999955e+01 -1.436200000000000010e+01 1.696804279567053764e-01
1.620899999999999963e+01 -2.721199999999999974e+01 1.283399999999999963e+01 -3.459096300948672487e-01
1.621699999999999875e+01 -2.059100000000000108e+01 -1.876200000000000045e+01 -1.151560815401445337e-01
1.622700000000000031e+01 -2.458699999999999974e+01 3.718999999999999861e+00 8.060766085471859910e-02
1.628300000000000125e+01 -4.002000000000000313e+01 2.983000000000000096e+00 6.910521886150254589e-02
1.628999999999999915e+01 -2.801000000000000156e+01 9.830999999999999517e+00 1.610186955248252560e-01
1.631700000000000017e+01 -1.770799999999999841e+01 -1.218500000000000050e+01 5.472853005419847650e-02
1.634900000000000020e+01 -3.554999999999999716e+01 2.004000000000000004e+00 9.931530104590673147e-02
1.636100000000000065e+01 -2.236799999999999855e+01 9.715999999999999304e+00 -1.668069910147071122e-01
1.636599999999999966e+01 -3.671200000000000330e+01 -8.827999999999999403e+00 1.981777034426013273e-02
1.636700000000000088e+01 -4.128699999999999903e+01 3.516999999999999904e+00 5.706893920428748185e-02
1.638100000000000023e+01 -3.443900000000000006e+01 1.752599999999999980e+01 -9.432916958626719195e-02
1.640399999999999991e+01 -4.513700000000000045e+01 1.721000000000000085e+00 1.660675201253662137e-01
1.641199999999999903e+01 -3.526800000000000068e+01 2.009499999999999886e+01 -8.830479444510222486e-03
1.644200000000000017e+01 -3.893999999999999773e+01 -5.456999999999999851e+00 -5.232602201763865641e-04
1.646300000000000097e+01 -1.676599999999999824e+01 -4.623999999999999666e+00 -8.409395312931200114e-03
1.650000000000000000e+01 -2.921999999999999886e+01 9.875000000000000000e+00 -5.033268627130970882e-03
1.654799999999999827e+01 -2.432799999999999940e+01 -1.389999999999999902e+00 3.127877643792750240e-01
1.654799999999999827e+01 -2.274800000000000111e+01 -1.869699999999999918e+01 -9.068439700441874307e-02
1.656700000000000017e+01 -3.425399999999999778e+01 2.733000000000000096e+00 9.447870472733765901e-02
1.659199999999999875e+01 -2.348600000000000065e+01 1.296999999999999931e+00 4.147921990548574245e-01
1.659400000000000119e+01 -4.161699999999999733e+01 1.038100000000000023e+01 5.832483453673427409e-02
1.659400000000000119e+01 -1.813200000000000145e+01 -4.695000000000000284e+00 -2.080443336930195078e-02
1.667899999999999849e+01 -2.266000000000000014e+01 -1.326399999999999935e+01 1.441669367429322668e-01
1.671900000000000119e+01 -4.566299999999999670e+01 5.260000000000000231e-01 1.752519496074676775e-01
1.674200000000000088e+01 -4.058400000000000318e+01 -1.090300000000000047e+01 -4.633517448203779143e-02
1.675900000000000034e+01 -4.660000000000000142e+01 4.141000000000000014e+00 2.797257637720074741e-01
1.680000000000000071e+01 -2.435900000000000176e+01 5.113999999999999879e+00 -1.953592820813968012e-01
1.686299999999999955e+01 -3.445900000000000318e+01 8.336000000000000298e+00 4.872760895664324243e-02
1.686599999999999966e+01 -1.478800000000000026e+01 5.639000000000000234e+00 -2.433369224632454808e-01
1.689999999999999858e+01 -1.213000000000000078e+01 4.551999999999999602e+00 -2.138318543211769618e-01
1.692200000000000060e+01 -2.121099999999999852e+01 1.881000000000000005e+00 4.112923144222284111e-01
1.692699999999999960e+01 -3.180399999999999849e+01 1.261299999999999955e+01 1.752736806134351233e-01
1.693799999999999883e+01 -3.560600000000000165e+01 2.146799999999999997e+01 -6.717425003025650002e-03
1.695700000000000074e+01 -2.749599999999999866e+01 -5.216000000000000192e+00 2.955887452860185838e-01
1.697200000000000131e+01 -1.077500000000000036e+01 -1.078000000000000069e+00 1.146823518065348269e-01
1.698199999999999932e+01 -3.186100000000000065e+01 4.097000000000000419e+00 1.049911172824615352e-01
1.699099999999999966e+01 -4.684000000000000341e+01 -8.135999999999999233e+00 -1.152344355757557032e-01
1.700499999999999901e+01 -3.969899999999999807e+01 1.842999999999999972e+00 3.146046706417446326e-01
1.701599999999999824e+01 -3.309400000000000119e+01 8.478999999999999204e+00 4.354781708822446501e-02
1.701699999999999946e+01 -2.383200000000000074e+01 -1.351900000000000013e+01 1.539013559452527824e-01
1.701899999999999835e+01 -3.805499999999999972e+01 -4.349000000000000199e+00 3.696678680142972406e-01
1.705300000000000082e+01 -3.912199999999999989e+01 -6.511999999999999567e+00 3.669411069662271152e-01
1.710000000000000142e+01 -2.400000000000000000e+01 2.644000000000000128e+00 4.309889867452126877e-01
1.717000000000000171e+01 -2.696999999999999886e+01 -1.093299999999999983e+01 2.569205562618938621e-01
1.717200000000000060e+01 -2.045499999999999829e+01 -1.208799999999999919e+01 -2.047433554605202974e-02
1.717800000000000082e+01 -1.190700000000000003e+01 -1.723999999999999977e+00 4.143925002277083769e-02
1.718700000000000117e+01 -4.226200000000000045e+01 2.951000000000000068e+00 3.271274662342802952e-01
1.721699999999999875e+01 -2.718900000000000006e+01 9.316000000000000725e+00 1.373640127627109853e-01
1.724899999999999878e+01 -4.362899999999999778e+01 3.551000000000000156e+00 2.986636018850514773e-01
1.726500000000000057e+01 -2.371000000000000085e+01 1.158300000000000018e+01 -2.333952340764540723e-01
1.728500000000000014e+01 -2.995400000000000063e+01 -5.791999999999999815e+00 4.636755476834371337e-02
1.730900000000000105e+01 -1.608200000000000074e+01 -5.460000000000000409e-01 2.080955132746912517e-01
1.731899999999999906e+01 -1.594500000000000028e+01 -5.333000000000000185e+00 -1.560613412021238586e-02
1.732199999999999918e+01 -6.639999999999999680e+00 6.461999999999999744e+00 -2.106344105501541664e-01
1.733800000000000097e+01 -2.851200000000000045e+01 -6.294999999999999929e+00 2.118043542788966560e-02
1.737999999999999901e+01 -3.326200000000000045e+01 2.196000000000000174e+00 7.717032681409344286e-02
1.742599999999999838e+01 -3.895400000000000063e+01 -3.174999999999999822e+00 3.521542198245934396e-01
1.744600000000000151e+01 -3.430899999999999750e+01 1.810200000000000031e+01 1.947445505740472149e-01
1.744800000000000040e+01 -1.000500000000000078e+01 4.070000000000000284e+00 -1.666750364956478825e-01
1.746000000000000085e+01 -2.256299999999999883e+01 -1.089600000000000080e+01 2.885477657207210500e-01
1.747200000000000131e+01 -4.485000000000000142e+01 2.681999999999999940e+00 7.354786199392102097e-02
1.749299999999999855e+01 -2.186100000000000065e+01 -1.227299999999999969e+01 2.053073872495748617e-02
1.751200000000000045e+01 -4.279399999999999693e+01 1.029400000000000048e+01 3.452105144719911506e-02
1.752899999999999991e+01 -2.263100000000000023e+01 1.055000000000000071e+01 -2.225335837474084200e-01
1.753600000000000136e+01 -1.457399999999999984e+01 -4.540000000000000147e-01 -2.308355429866203873e-02
1.755699999999999861e+01 -7.338000000000000078e+00 7.629999999999999893e+00 -1.875127574790883267e-01
1.756200000000000117e+01 -4.403499999999999659e+01 -4.054999999999999716e+00 -1.337444342916238038e-01
1.756500000000000128e+01 -3.475999999999999801e+01 1.936400000000000077e+01 -6.584503492772061928e-02
1.757900000000000063e+01 -1.869300000000000139e+01 -5.503000000000000114e+00 7.802013264405652238e-02
1.758299999999999841e+01 -3.702499999999999858e+01 1.267300000000000004e+01 6.736766787320673522e-02
1.758999999999999986e+01 -3.207900000000000063e+01 2.876999999999999780e+00 3.217857158568586673e-01
1.761499999999999844e+01 -2.389000000000000057e+01 -9.030000000000000249e-01 3.870096835366555466e-01
1.769600000000000151e+01 -3.646800000000000352e+01 -9.375999999999999446e+00 5.030509693961160433e-02
1.769699999999999918e+01 -4.610300000000000153e+01 3.524999999999999911e+00 2.764393800963231840e-01
1.771600000000000108e+01 -2.350100000000000122e+01 3.519999999999999796e-01 4.101448156850421300e-01
1.773499999999999943e+01 -2.761299999999999955e+01 -2.429999999999999938e-01 4.241856612303633867e-01
1.774200000000000088e+01 -2.659600000000000009e+01 -4.881000000000000227e+00 2.984475039063815283e-01
1.774299999999999855e+01 -1.804299999999999926e+01 -1.221299999999999919e+01 -6.746689103001669852e-02
1.774800000000000111e+01 -1.172300000000000075e+01 7.732999999999999652e+00 -3.071428586445705267e-01
1.775499999999999901e+01 -3.653799999999999670e+01 1.411700000000000088e+01 1.938968005109275305e-01
1.777400000000000091e+01 -1.113000000000000078e+01 4.527000000000000135e+00 -2.219461442135717277e-01
1.779700000000000060e+01 -4.065899999999999892e+01 1.247999999999999998e+00 3.189028617680013111e-01
1.783299999999999841e+01 -4.254899999999999949e+01 -4.043000000000000149e+00 -4.119769765831621938e-02
1.786199999999999832e+01 -1.013100000000000023e+01 -5.280000000000000249e-01 1.258590284107411750e-01
1.787800000000000011e+01 -4.592199999999999704e+01 1.960000000000000075e-01 -2.912156967445758693e-02
1.788200000000000145e+01 -4.191400000000000148e+01 1.806999999999999940e+00 1.254223212071304272e-01
1.797599999999999909e+01 -2.306099999999999994e+01 -3.947999999999999954e+00 7.672063828998858248e-02
1.802400000000000091e+01 -1.950400000000000134e+01 -1.250500000000000078e+01 -5.397362683805763395e-02
1.803099999999999881e+01 -4.780100000000000193e+01 -2.919999999999999929e+00 -8.842249412795064045e-02
1.805699999999999861e+01 -4.080700000000000216e+01 -1.082600000000000051e+01 -1.056094872152998354e-01
1.806400000000000006e+01 -2.135000000000000142e+01 1.122100000000000009e+01 -2.165071226721425324e-01
1.806800000000000139e+01 -2.465800000000000125e+01 1.169400000000000084e+01 -1.952857266884815146e-01
1.810500000000000043e+01 -3.004200000000000159e+01 -6.039999999999999813e-01 2.904648110731744004e-01
1.813899999999999935e+01 -1.613400000000000034e+01 -1.057000000000000028e+01 -2.183886541895790345e-01
1.817999999999999972e+01 -3.445300000000000296e+01 -7.801999999999999602e+00 2.933973334473666261e-01
1.823000000000000043e+01 -3.605899999999999750e+01 1.169100000000000072e+01 9.359780089837274608e-02
1.823900000000000077e+01 -1.423600000000000065e+01 8.409999999999999698e-01 -6.337118321671895982e-02
1.830000000000000071e+01 -4.986699999999999733e+01 -3.726999999999999869e+00 -8.783192947832449415e-02
1.830000000000000071e+01 -2.171900000000000119e+01 -9.548999999999999488e+00 2.853626603935727202e-01
1.830799999999999983e+01 -1.407300000000000040e+01 -1.665000000000000036e+00 -5.967369492851870572e-02
1.830900000000000105e+01 -1.651099999999999923e+01 -6.115999999999999659e+00 -3.192685981540199225e-01
1.831800000000000139e+01 -3.137399999999999878e+01 1.309399999999999942e+01 -1.683953065465894072e-01
1.832000000000000028e+01 -2.864499999999999957e+01 -1.203999999999999959e+00 2.382118028987692537e-01
1.833099999999999952e+01 -3.883299999999999841e+01 -9.330999999999999517e+00 1.963911978121888613e-01
1.833599999999999852e+01 -6.570999999999999730e+00 5.522999999999999687e+00 -1.958533335454393787e-01
1.838400000000000034e+01 -3.768500000000000227e+01 -9.977999999999999758e+00 1.947808213403943167e-01
1.839000000000000057e+01 -1.761400000000000077e+01 -1.088199999999999967e+01 -4.322097562586237757e-02
1.840500000000000114e+01 -2.036299999999999955e+01 1.022400000000000020e+01 -3.147676205417657136e-01
1.841000000000000014e+01 -1.219599999999999973e+01 -4.206999999999999851e+00 -1.099715983272625541e-01
1.841900000000000048e+01 -2.967099999999999937e+01 -8.656000000000000583e+00 1.540546176851236848e-01
1.842299999999999827e+01 -3.557900000000000063e+01 2.140500000000000114e+01 -3.490713775828069299e-02
1.846000000000000085e+01 -1.789199999999999946e+01 -6.221000000000000085e+00 1.171434978074572808e-01
1.849200000000000088e+01 -4.894800000000000040e+01 -2.775999999999999801e+00 -3.563770014051231144e-02
1.849599999999999866e+01 -1.255499999999999972e+01 -1.824999999999999956e+00 -2.248664808228240108e-01
1.850600000000000023e+01 -2.761400000000000077e+01 8.837999999999999190e+00 -5.527397166777769932e-02
1.852499999999999858e+01 -3.039999999999999858e+01 -4.562999999999999723e+00 2.872267582186704277e-02
1.853000000000000114e+01 -4.155400000000000205e+01 -1.170599999999999952e+01 -7.166300762018212867e-02
1.854799999999999827e+01 -3.338799999999999812e+01 -8.826000000000000512e+00 -1.355040047476473997e-01
1.856299999999999883e+01 -3.753799999999999670e+01 5.238000000000000433e+00 1.035791309952218409e-01
1.859700000000000131e+01 -1.697299999999999898e+01 5.969000000000000306e+00 4.867429101686342879e-02
1.860200000000000031e+01 -3.583700000000000330e+01 -8.314000000000000057e+00 3.212069282237761669e-01
1.861899999999999977e+01 -3.003600000000000136e+01 1.265199999999999925e+01 -7.097215485239594113e-02
1.861899999999999977e+01 -2.821600000000000108e+01 -6.942999999999999616e+00 -1.287409717956198782e-02
1.862699999999999889e+01 -2.146399999999999864e+01 6.764999999999999680e+00 -2.525093086427682154e-01
1.866900000000000048e+01 -4.474600000000000222e+01 -4.849999999999999645e+00 -2.210832145703765794e-01
1.868199999999999861e+01 -4.278199999999999648e+01 9.307999999999999829e+00 3.244785619650967373e-02
1.869000000000000128e+01 -1.715599999999999881e+01 3.544000000000000039e+00 -2.982775028884522284e-01
1.871399999999999864e+01 -1.242999999999999972e+01 7.397000000000000242e+00 -5.234478580570139927e-02
1.875199999999999889e+01 -3.233200000000000074e+01 1.723699999999999832e+01 -2.093347781263093510e-01
1.875400000000000134e+01 -3.383700000000000330e+01 1.745499999999999829e+01 1.402918160331281805e-01
1.876800000000000068e+01 -7.963000000000000078e+00 7.873999999999999666e+00 -2.004643400116708774e-01
1.878999999999999915e+01 -3.470799999999999841e+01 2.020700000000000074e+01 -6.263046260290554279e-02
1.881500000000000128e+01 -3.414900000000000091e+01 -6.450999999999999623e+00 3.430272375880652480e-01
1.882400000000000162e+01 -3.619800000000000040e+01 5.011999999999999567e+00 3.208526137225141683e-01
1.882900000000000063e+01 -2.268799999999999883e+01 -2.738999999999999879e+00 1.493429151307781311e-01
1.888800000000000168e+01 -3.764900000000000091e+01 -1.110100000000000087e+01 2.141988980875887683e-01
1.890599999999999881e+01 -2.383699999999999974e+01 -1.725999999999999979e+00 3.832629824773482463e-01
1.890800000000000125e+01 -4.009000000000000341e+01 -9.801999999999999602e+00 2.073458844255649525e-01
1.892399999999999949e+01 -4.660199999999999676e+01 3.645000000000000018e+00 2.653980446299665230e-01
1.896799999999999997e+01 -4.419500000000000028e+01 9.041999999999999815e+00 1.005631886843832978e-02
1.897700000000000031e+01 -3.451299999999999812e+01 1.618799999999999883e+01 -5.674212036148308658e-02
1.898900000000000077e+01 -1.366499999999999915e+01 8.205999999999999517e+00 -1.095275580718175767e-01
1.899500000000000099e+01 -3.509899999999999665e+01 -1.911000000000000032e+00 2.795296846364460075e-01
1.902599999999999980e+01 -1.985600000000000165e+01 -1.314700000000000024e+01 -1.299263740056249075e-02
1.905199999999999960e+01 -2.878500000000000014e+01 -8.067999999999999616e+00 5.013599261324095530e-02
1.908599999999999852e+01 -1.118500000000000050e+01 5.306000000000000050e+00 -2.428031242450984784e-01
1.910200000000000031e+01 -3.585099999999999909e+01 1.608500000000000085e+01 2.277189300969902630e-01
1.911799999999999855e+01 -4.783500000000000085e+01 4.408999999999999808e+00 2.511852023178749449e-01
1.912199999999999989e+01 -1.226399999999999935e+01 -3.188000000000000167e+00 -1.230578957966795006e-01
1.913800000000000168e+01 -3.997200000000000131e+01 8.659000000000000696e+00 1.795970536738109302e-01
1.916400000000000148e+01 -2.515200000000000102e+01 -2.355999999999999872e+00 3.188545275068349616e-01
1.918400000000000105e+01 -3.638100000000000023e+01 1.465300000000000047e+01 2.035490621205161277e-01
1.920899999999999963e+01 -3.655799999999999983e+01 1.707400000000000162e+01 9.405266726190435189e-02
1.922800000000000153e+01 -2.660300000000000153e+01 7.934000000000000163e+00 1.859453036957863306e-02
1.924500000000000099e+01 -3.850099999999999767e+01 4.519999999999999574e+00 8.674620512293844399e-02
1.928000000000000114e+01 -1.228500000000000014e+01 6.206000000000000405e+00 -4.119334615461796648e-03
1.928200000000000003e+01 -4.942499999999999716e+01 -1.590000000000000080e+00 -2.295648976533561092e-01
1.929799999999999827e+01 -4.092600000000000193e+01 -8.557000000000000384e+00 9.921136078230159694e-02
1.931299999999999883e+01 -2.162600000000000122e+01 1.205000000000000071e+01 -2.036891914762314904e-01
1.933200000000000074e+01 -1.259500000000000064e+01 -8.877000000000000668e+00 -2.952791946072857998e-01
1.933800000000000097e+01 -4.553900000000000148e+01 -9.194000000000000838e+00 -7.644426039776376636e-02
1.933999999999999986e+01 -3.241700000000000159e+01 1.266399999999999970e+01 -8.770179509799938544e-02
1.936100000000000065e+01 -4.764000000000000057e+01 5.897999999999999687e+00 2.759151567957717766e-01
1.937999999999999901e+01 -3.387400000000000233e+01 -2.424999999999999822e+00 3.188730508298247002e-01
1.937999999999999901e+01 -2.758999999999999986e+01 1.115700000000000003e+01 -4.422784757306636588e-02
1.939300000000000068e+01 -2.814099999999999824e+01 9.957000000000000739e+00 4.287308046868987255e-02
1.939699999999999847e+01 -4.865800000000000125e+01 6.607000000000000206e+00 2.795455097635915487e-01
1.946999999999999886e+01 -3.549099999999999966e+01 -6.760000000000000453e-01 2.799999999999999711e-01
1.947200000000000131e+01 -1.688100000000000023e+01 4.820000000000000284e+00 -9.495828742315234883e-02
1.951099999999999923e+01 -4.463900000000000290e+01 7.951999999999999957e+00 3.085405704781872815e-01
1.951399999999999935e+01 -1.848000000000000043e+01 -7.118999999999999773e+00 3.610774269322761243e-01
1.955999999999999872e+01 -7.155999999999999694e+00 5.754999999999999893e+00 -1.735804562571932608e-01
1.957000000000000028e+01 -4.643900000000000006e+01 6.384999999999999787e+00 3.022391469836026578e-01
1.961199999999999832e+01 -3.338600000000000279e+01 1.341300000000000026e+01 1.160616296840743800e-01
1.968100000000000094e+01 -2.932700000000000173e+01 1.300000000000000000e+01 -7.367006375204758484e-02
1.972800000000000153e+01 -4.234700000000000131e+01 -8.871999999999999886e+00 -1.023232318733442031e-01
1.974800000000000111e+01 -4.614399999999999835e+01 7.799999999999999822e+00 2.845151196591188536e-01
1.975000000000000000e+01 -3.582699999999999818e+01 4.051000000000000156e+00 3.181572962831422102e-01
1.976899999999999835e+01 -2.847100000000000009e+01 -1.596999999999999975e+00 3.425975428421217384e-01
1.977400000000000091e+01 -7.844999999999999751e+00 6.932000000000000384e+00 -1.772054807695458145e-01
1.977700000000000102e+01 -3.951700000000000301e+01 1.193599999999999994e+01 1.862855618815165981e-01
1.980000000000000071e+01 -3.861800000000000210e+01 8.487999999999999545e+00 1.742739355316555716e-01
1.980499999999999972e+01 -2.167099999999999937e+01 7.161999999999999922e+00 -1.124313385509685126e-01
1.984199999999999875e+01 -4.924499999999999744e+01 2.467999999999999972e+00 -8.976559557295675507e-02
1.987399999999999878e+01 -1.791199999999999903e+01 -1.081300000000000061e+01 1.953562638943749374e-01
1.987699999999999889e+01 -2.929400000000000048e+01 9.833999999999999631e+00 -2.051367453832790844e-01
1.989499999999999957e+01 -3.236399999999999721e+01 1.146299999999999919e+01 -8.464311523157266870e-02
1.989699999999999847e+01 -4.205199999999999960e+01 9.862000000000000099e+00 8.475880937051563646e-02
1.992099999999999937e+01 -4.393500000000000227e+01 7.024000000000000021e+00 2.973420392280272662e-01
1.992200000000000060e+01 -2.694000000000000128e+01 1.347400000000000020e+01 1.302518275785931323e-01
1.995400000000000063e+01 -3.759300000000000352e+01 1.450500000000000078e+01 2.202211827921728704e-01
1.995799999999999841e+01 -1.925700000000000145e+01 -5.560000000000000497e-01 1.051398611944023981e-01
1.999800000000000111e+01 -1.454100000000000037e+01 7.687000000000000277e+00 5.504214487317695206e-03
2.001000000000000156e+01 -2.551200000000000045e+01 8.660000000000000142e+00 -1.220699503445367845e-01
2.005300000000000082e+01 -2.800799999999999912e+01 1.235800000000000054e+01 -1.330460280195311928e-01
2.006400000000000006e+01 -4.076800000000000068e+01 9.497999999999999332e+00 1.342781325992834229e-01
2.007700000000000173e+01 -2.676200000000000045e+01 3.224000000000000199e+00 3.868545139537132860e-01
2.008399999999999963e+01 -2.597700000000000031e+01 -1.854999999999999982e+00 1.542372687362432958e-02
2.012300000000000111e+01 -2.139499999999999957e+01 8.348000000000000753e+00 -1.340813728739123911e-01
2.017500000000000071e+01 -3.813700000000000045e+01 3.555000000000000160e+00 3.428270862578469691e-01
2.017999999999999972e+01 -2.731599999999999895e+01 6.969000000000000306e+00 1.310607423122994997e-01
2.020299999999999940e+01 -1.969399999999999906e+01 1.760000000000000009e+00 -1.882849954005882398e-01
2.022100000000000009e+01 -2.224099999999999966e+01 -3.209999999999999964e+00 -9.187178313148240466e-04
2.022700000000000031e+01 -4.875200000000000244e+01 3.855999999999999872e+00 7.430528698703782464e-02
2.023799999999999955e+01 -2.734900000000000020e+01 -2.516999999999999904e+00 3.410728514930211897e-01
2.024200000000000088e+01 -2.421300000000000097e+01 -6.943999999999999950e+00 6.527621476422382218e-02
2.024699999999999989e+01 -3.305400000000000205e+01 -1.729999999999999982e+00 3.260982241208144616e-01
2.027599999999999980e+01 -1.103299999999999947e+01 4.347000000000000419e+00 -1.178785863850188437e-01
2.029200000000000159e+01 -2.258899999999999864e+01 2.245000000000000107e+00 -2.561446946897160196e-02
2.031400000000000006e+01 -1.232099999999999973e+01 -1.079499999999999993e+01 -7.269702160920385459e-02
2.032300000000000040e+01 -3.466299999999999670e+01 1.299999999999999940e-02 2.800000000000000266e-01
2.032300000000000040e+01 -1.854299999999999926e+01 -1.675999999999999934e+00 1.358759814709570024e-01
2.032300000000000040e+01 -1.206400000000000006e+01 3.241000000000000103e+00 -2.185818873786908867e-01
2.033699999999999974e+01 -1.272400000000000020e+01 -9.608000000000000540e+00 -5.918818901954842060e-02
2.033899999999999864e+01 -1.925499999999999901e+01 4.995000000000000107e+00 3.296287817815739350e-03
2.035099999999999909e+01 -4.724600000000000222e+01 -7.163000000000000256e+00 -2.651319117986857682e-02
2.035600000000000165e+01 -4.729399999999999693e+01 -8.479999999999999760e-01 -1.187892571665856850e-01
2.037800000000000011e+01 -3.172200000000000131e+01 5.870000000000000107e+00 1.420088433869503286e-01
2.040599999999999881e+01 -3.678799999999999670e+01 3.318999999999999950e+00 3.222271598144629823e-01
2.041700000000000159e+01 -2.837199999999999989e+01 -8.605999999999999872e+00 1.163820052609276096e-01
2.043400000000000105e+01 -1.211999999999999922e+01 -3.263999999999999790e+00 -4.073751447992082775e-02
2.043499999999999872e+01 -4.015999999999999659e+01 -7.836999999999999744e+00 3.054621902164701419e-01
2.047800000000000153e+01 -2.979799999999999827e+01 1.385200000000000031e+01 -1.005935923643570956e-01
2.051899999999999835e+01 -4.611999999999999744e+01 -9.362999999999999545e+00 -5.667541237772838469e-02
2.054799999999999827e+01 -4.444400000000000261e+01 -1.211999999999999966e+00 -1.865769121177973111e-01
2.056099999999999994e+01 -4.865100000000000335e+01 -1.304999999999999938e+00 -8.804993059620150331e-02
2.057300000000000040e+01 -2.472899999999999920e+01 1.442999999999999972e+01 -1.239348741289522382e-01
2.059499999999999886e+01 -1.900799999999999912e+01 6.440000000000000169e-01 -9.052774976984270805e-02
2.060600000000000165e+01 -4.292300000000000182e+01 -1.199999999999999956e+00 1.585250815440470973e-01
2.064900000000000091e+01 -2.587500000000000000e+01 -9.589000000000000412e+00 3.456133196027176557e-02
2.066600000000000037e+01 -1.783599999999999852e+01 5.041999999999999815e+00 -6.735626017870763316e-02
2.070599999999999952e+01 -2.569900000000000162e+01 -8.110000000000000542e-01 4.103129416396923412e-01
2.071000000000000085e+01 -4.259000000000000341e+01 1.061400000000000077e+01 8.145430631491487605e-02
2.072500000000000142e+01 -3.343599999999999994e+01 -4.909999999999999920e-01 2.799999999999999711e-01
2.072599999999999909e+01 -1.914099999999999824e+01 -6.431000000000000050e+00 1.287901647651232551e-01
2.078300000000000125e+01 -4.462500000000000000e+01 2.915000000000000036e+00 2.191443493222746536e-02
2.079200000000000159e+01 -2.908800000000000097e+01 2.653000000000000025e+00 3.878144591554062992e-01
2.080699999999999861e+01 -2.229899999999999949e+01 6.214999999999999858e+00 -2.288406519702679831e-01
2.081599999999999895e+01 -4.068699999999999761e+01 -6.482000000000000206e+00 3.252647040266476441e-01
2.088800000000000168e+01 -2.163899999999999935e+01 4.836000000000000298e+00 1.239022595602225357e-01
2.090899999999999892e+01 -4.512700000000000244e+01 1.300000000000000044e-01 -1.913023389267402008e-01
2.092000000000000171e+01 -3.879999999999999716e+01 -1.485999999999999988e+00 2.763563266318812550e-01
2.092899999999999849e+01 -1.423900000000000077e+01 -5.092999999999999972e+00 -2.792945572473057858e-01
2.093199999999999861e+01 -2.580799999999999983e+01 1.341399999999999970e+01 9.011682110563756093e-03
2.094000000000000128e+01 -3.958299999999999841e+01 1.149600000000000044e+01 1.167295134149827635e-01
2.095200000000000173e+01 -3.916599999999999682e+01 2.779999999999999805e+00 4.183172531697326169e-01
2.098000000000000043e+01 -2.723799999999999955e+01 -7.868999999999999773e+00 7.265148091154643994e-02
2.099299999999999855e+01 -3.325800000000000267e+01 1.102200000000000024e+01 2.714359419610682389e-01
2.099399999999999977e+01 -8.474999999999999645e+00 7.123000000000000220e+00 -1.720636503153975261e-01
2.099599999999999866e+01 -4.693099999999999739e+01 -8.430999999999999162e+00 -3.639678474735672520e-01
2.103300000000000125e+01 -2.603300000000000125e+01 -8.425000000000000711e+00 -3.049547467984003446e-01
2.106599999999999895e+01 -1.307000000000000028e+01 -5.482999999999999652e+00 -2.541788872505201247e-01
2.106899999999999906e+01 -1.186999999999999922e+01 -4.567999999999999616e+00 -8.421039084224514470e-02
2.107199999999999918e+01 -1.813100000000000023e+01 7.397000000000000242e+00 -8.659560173703287345e-02
2.110200000000000031e+01 -3.765100000000000335e+01 1.383300000000000018e+01 6.932825494039301928e-02
2.111499999999999844e+01 -1.331300000000000061e+01 3.549999999999999822e+00 -3.073624580430290264e-03
2.111599999999999966e+01 -3.869800000000000040e+01 9.147000000000000242e+00 1.385927393664695972e-01
2.114300000000000068e+01 -4.649099999999999966e+01 8.278999999999999915e+00 2.750654533067206087e-01
2.114900000000000091e+01 -3.994200000000000017e+01 1.002299999999999969e+01 1.477955180479320341e-01
2.116499999999999915e+01 -3.311599999999999966e+01 9.516999999999999460e+00 1.084486035551729399e-01
2.122800000000000153e+01 -4.587400000000000233e+01 -1.046100000000000030e+01 -9.065417086657989731e-02
2.123300000000000054e+01 -2.093299999999999983e+01 -7.903999999999999915e+00 1.499426873749311051e-01
2.125600000000000023e+01 -1.451600000000000001e+01 8.114000000000000767e+00 -2.747795478179647713e-02
2.127100000000000080e+01 -4.658899999999999864e+01 -1.160000000000000059e-01 -1.634496634034541818e-01
2.127799999999999869e+01 -2.769699999999999918e+01 3.084999999999999964e+00 6.094763792261833485e-02
2.128300000000000125e+01 -1.744800000000000040e+01 6.389000000000000234e+00 -1.146196001864601549e-01
2.129700000000000060e+01 -2.776300000000000168e+01 -5.041000000000000369e+00 -1.513960052866550610e-01
2.130000000000000071e+01 -4.789699999999999847e+01 -6.197000000000000064e+00 -1.958127383803291155e-01
2.130399999999999849e+01 -2.017800000000000082e+01 5.035000000000000142e+00 1.367444448922139899e-01
2.133299999999999841e+01 -1.758500000000000085e+01 -1.592999999999999972e+00 1.134895405327225743e-01
2.135000000000000142e+01 -1.819699999999999918e+01 -5.540000000000000036e+00 -9.681768459414971661e-02
2.140299999999999869e+01 -1.364700000000000024e+01 4.700999999999999623e+00 -3.819949623818302831e-02
2.141799999999999926e+01 -2.953900000000000148e+01 -8.548999999999999488e+00 1.918141398189760483e-01
2.141900000000000048e+01 -4.485399999999999920e+01 -2.275999999999999801e+00 -1.885226709230836128e-01
2.144900000000000162e+01 -2.273900000000000077e+01 2.682999999999999829e+00 1.969942253826875017e-02
2.148300000000000054e+01 -2.487699999999999889e+01 -7.540000000000000036e+00 -3.231424866834241016e-01
2.149599999999999866e+01 -1.288599999999999923e+01 -6.735000000000000320e+00 -2.531370990102511653e-01
2.151300000000000168e+01 -1.402800000000000047e+01 2.498000000000000220e+00 -1.360628442754906187e-01
2.152100000000000080e+01 -4.875200000000000244e+01 -2.490000000000000213e+00 -2.804879976552255294e-01
2.153800000000000026e+01 -2.355600000000000094e+01 1.443099999999999916e+01 -2.585901909260570064e-01
2.155499999999999972e+01 -4.801700000000000301e+01 3.839999999999999858e+00 1.061014765266159871e-01
2.157600000000000051e+01 -1.978099999999999881e+01 -7.519000000000000128e+00 6.234664983155079054e-02
2.160200000000000031e+01 -3.664699999999999847e+01 1.330899999999999928e+01 3.420374877243775313e-01
2.160300000000000153e+01 -1.807300000000000040e+01 7.510000000000000009e-01 1.123312580405057687e-01
2.160399999999999920e+01 -1.394299999999999962e+01 -7.727999999999999758e+00 -2.775125707621378113e-01
2.160800000000000054e+01 -1.356199999999999939e+01 8.824999999999999289e+00 -1.578568606961052723e-01
2.163500000000000156e+01 -1.334999999999999964e+01 -9.128000000000000114e+00 -2.669722322375066570e-01
2.164699999999999847e+01 -3.256199999999999761e+01 2.859999999999999765e-01 2.287543146601063795e-02
2.164699999999999847e+01 -2.757400000000000162e+01 -2.858999999999999986e+00 8.809575153383604473e-02
2.173600000000000065e+01 -4.420100000000000051e+01 2.254999999999999893e+00 1.836723228834100108e-02
2.173900000000000077e+01 -1.678000000000000114e+01 -2.798999999999999932e+00 -9.386816373477584186e-02
2.176699999999999946e+01 -3.512899999999999778e+01 8.003999999999999559e+00 5.993055625106158413e-04
2.178000000000000114e+01 -2.230799999999999983e+01 3.895000000000000018e+00 6.416453751508698067e-02
2.179500000000000171e+01 -4.768099999999999739e+01 -3.229999999999999982e+00 -2.756923451354772459e-01
2.180000000000000071e+01 -1.620599999999999952e+01 6.387999999999999901e+00 -2.678067075945519959e-03
2.180199999999999960e+01 -3.900800000000000267e+01 1.370700000000000074e+01 1.159674390671751321e-01
2.184900000000000020e+01 -3.163599999999999923e+01 5.445999999999999730e+00 1.117629870080674576e-01
2.186400000000000077e+01 -4.442799999999999727e+01 9.409999999999999476e-01 -1.597039460065261540e-01
2.196199999999999974e+01 -1.736299999999999955e+01 -3.800000000000000044e-01 1.526648030480297069e-01
2.198499999999999943e+01 -3.939099999999999824e+01 1.229400000000000048e+01 1.769634919992743860e-01
2.204799999999999827e+01 -4.985999999999999943e+01 -2.710999999999999854e+00 -2.711117260015853403e-01
2.205799999999999983e+01 -3.412899999999999778e+01 8.885999999999999233e+00 1.046982555959815597e-01
2.209400000000000119e+01 -2.772100000000000009e+01 -4.092999999999999972e+00 1.494939796607980820e-01
2.212300000000000111e+01 -1.855799999999999983e+01 -4.522000000000000242e+00 -9.775361700597998138e-02
2.224299999999999855e+01 -2.480399999999999849e+01 1.580999999999999961e+00 2.408638399858598900e-01
2.224500000000000099e+01 -2.389799999999999969e+01 -8.316000000000000725e+00 -2.824528471144334696e-01
2.226099999999999923e+01 -1.553500000000000014e+01 7.588000000000000078e+00 -3.709525798206878000e-02
2.226999999999999957e+01 -3.286099999999999710e+01 1.177200000000000024e+01 3.033742253785571413e-02
2.228300000000000125e+01 -3.959000000000000341e+01 3.410000000000000142e+00 8.917284896217861356e-02
2.228500000000000014e+01 -2.716000000000000014e+01 2.049999999999999822e+00 3.999391722606057686e-02
2.229500000000000171e+01 -3.918299999999999983e+01 -9.899999999999999911e-01 9.037545720101695934e-02
2.229899999999999949e+01 -3.602400000000000091e+01 -5.299000000000000377e+00 4.022909575684030514e-01
2.231899999999999906e+01 -4.697500000000000142e+01 -5.535999999999999588e+00 -2.183819364167092769e-01
2.231899999999999906e+01 -1.974800000000000111e+01 -4.235999999999999766e+00 -9.561848533412911633e-02
2.235099999999999909e+01 -3.293800000000000239e+01 4.863999999999999879e+00 -2.061705446765976224e-01
2.235699999999999932e+01 -4.205199999999999960e+01 3.338000000000000078e+00 8.767117513301281306e-03
2.236100000000000065e+01 -3.254500000000000171e+01 1.662000000000000099e+01 -7.843665978553063245e-02
2.237800000000000011e+01 -3.619500000000000028e+01 -6.668999999999999595e+00 3.716351991170737668e-01
2.239900000000000091e+01 -3.474600000000000222e+01 -4.769000000000000128e+00 3.605222249167025494e-01
2.242899999999999849e+01 -4.704800000000000182e+01 -4.700000000000000011e-02 -1.725634932364439045e-01
2.246999999999999886e+01 -1.990700000000000003e+01 5.296999999999999709e+00 5.789116338458335370e-02
2.250499999999999901e+01 -2.337500000000000000e+01 1.780999999999999917e+00 -2.934569633555205240e-02
2.250600000000000023e+01 -3.389900000000000091e+01 1.597100000000000009e+01 2.095314652933543687e-01
2.251399999999999935e+01 -1.139199999999999946e+01 -4.325000000000000178e+00 -2.126266265057376315e-01
2.251699999999999946e+01 -3.362400000000000233e+01 -5.576999999999999957e+00 -1.619716076093687812e-02
2.253600000000000136e+01 -9.968999999999999417e+00 -3.762999999999999901e+00 -2.863928237886648187e-02
2.253999999999999915e+01 -1.907700000000000173e+01 -8.147999999999999687e+00 1.143845097063072788e-02
2.254299999999999926e+01 -1.613500000000000156e+01 -7.745000000000000107e+00 6.211272421878610839e-02
2.255499999999999972e+01 -3.509300000000000352e+01 -7.474000000000000199e+00 3.762809835303652095e-01
2.260500000000000043e+01 -3.358899999999999864e+01 1.283300000000000018e+01 6.642130584492952905e-02
2.260500000000000043e+01 -2.265099999999999980e+01 4.249999999999999889e-01 1.119541874397835396e-01
2.263500000000000156e+01 -3.107100000000000151e+01 6.612000000000000099e+00 -1.653006938339444121e-01
2.263800000000000168e+01 -3.382699999999999818e+01 -6.940000000000000391e+00 6.434929820204229878e-02
2.264999999999999858e+01 -3.499600000000000222e+01 1.703099999999999881e+01 2.267564696210640496e-01
2.265800000000000125e+01 -3.225500000000000256e+01 -4.969000000000000306e+00 2.316130733120076376e-03
2.266700000000000159e+01 -2.372700000000000031e+01 1.538299999999999912e+01 -2.443368175008782950e-01
2.268499999999999872e+01 -2.930999999999999872e+01 -9.330000000000000071e+00 1.750912901907544783e-01
2.272899999999999920e+01 -1.492900000000000027e+01 -7.498999999999999666e+00 1.345016289352747030e-01
2.273000000000000043e+01 -2.575000000000000000e+01 2.391999999999999904e+00 2.077617196933528310e-01
2.276699999999999946e+01 -4.089500000000000313e+01 2.790999999999999925e+00 1.896871872737411757e-01
2.276999999999999957e+01 -1.744500000000000028e+01 -3.706999999999999851e+00 -1.025727472196523438e-01
2.282900000000000063e+01 -4.336399999999999721e+01 2.910000000000000142e+00 -9.082314728749135702e-02
2.283699999999999974e+01 -4.760399999999999920e+01 -4.219999999999999751e+00 -2.582124837266528417e-01
2.294099999999999895e+01 -3.185000000000000142e+01 1.151900000000000013e+01 3.211326300267734052e-02
2.295100000000000051e+01 -3.577199999999999847e+01 7.753000000000000114e+00 2.160621724298443236e-01
2.311799999999999855e+01 -3.256000000000000227e+01 -1.590000000000000024e-01 -2.534950218379135034e-01
2.317800000000000082e+01 -3.892099999999999937e+01 1.437199999999999989e+01 1.174986206336554317e-01
2.318599999999999994e+01 -1.963599999999999923e+01 -9.321999999999999176e+00 -1.266117539570531525e-01
2.322899999999999920e+01 -3.994299999999999784e+01 -3.206999999999999851e+00 1.866750846532526098e-01
2.326099999999999923e+01 -2.547100000000000009e+01 3.470000000000000195e+00 1.334031374942177828e-01
2.329599999999999937e+01 -2.427199999999999847e+01 -9.035999999999999588e+00 -2.359629688471843179e-01
2.331800000000000139e+01 -3.858299999999999841e+01 3.289000000000000146e+00 3.983372054961437092e-01
2.337099999999999866e+01 -2.809900000000000020e+01 1.810000000000000053e+00 1.546009143413036024e-01
2.337999999999999901e+01 -1.643400000000000105e+01 -4.543999999999999595e+00 -1.147919281657427543e-01
2.338200000000000145e+01 -1.603600000000000136e+01 3.615000000000000213e+00 1.157700007083852789e-01
2.340399999999999991e+01 -3.799600000000000222e+01 5.458000000000000185e+00 3.593480328926891842e-01
2.341300000000000026e+01 -3.898400000000000176e+01 -2.028000000000000025e+00 1.571395471235645380e-01
2.342099999999999937e+01 -3.484100000000000108e+01 2.999000000000000110e+00 3.526839182597049094e-01
2.343499999999999872e+01 -3.414300000000000068e+01 9.083000000000000185e+00 8.649203974254901506e-02
2.348799999999999955e+01 -4.414900000000000091e+01 4.088000000000000078e+00 1.941377652740708393e-02
2.356500000000000128e+01 -2.582199999999999918e+01 9.601000000000000867e+00 -3.887085719806000067e-02
2.359799999999999898e+01 -2.479500000000000171e+01 8.772000000000000242e+00 -3.588005564092683342e-01
2.359799999999999898e+01 -2.192999999999999972e+01 -9.942000000000000171e+00 1.150901819822694183e-01
2.360399999999999920e+01 -2.753600000000000136e+01 -3.870000000000000107e-01 1.992934064779860459e-01
2.360699999999999932e+01 -1.483900000000000041e+01 7.352000000000000313e+00 -2.233420633520757925e-02
2.361100000000000065e+01 -2.787300000000000111e+01 -4.299999999999999822e+00 -5.285976669093182118e-02
2.363500000000000156e+01 -2.547700000000000031e+01 -9.012999999999999901e+00 -2.245021018971151139e-01
2.364199999999999946e+01 -1.812800000000000011e+01 -1.134099999999999930e+01 2.301980263519303183e-01
2.366100000000000136e+01 -3.315100000000000335e+01 1.372600000000000087e+01 -1.324099167003081889e-01
2.367299999999999827e+01 -3.025700000000000145e+01 -3.029999999999999805e+00 8.534541826870452319e-02
2.368299999999999983e+01 -3.131599999999999895e+01 1.786999999999999922e+00 1.092017087677858572e-01
2.369200000000000017e+01 -3.394899999999999807e+01 1.501699999999999946e+01 7.211406745963436227e-02
2.369300000000000139e+01 -4.089399999999999835e+01 1.967000000000000082e+00 1.664886240775506621e-01
2.376399999999999935e+01 -3.136400000000000077e+01 5.500000000000000444e-01 1.487499515552009322e-01
2.379500000000000171e+01 -2.694699999999999918e+01 8.919000000000000483e+00 -2.188455856749905448e-01
2.379500000000000171e+01 -1.464000000000000057e+01 -6.754999999999999893e+00 -3.400271268681839820e-01
2.381299999999999883e+01 -3.380799999999999983e+01 1.449999999999999900e-01 1.133356905677167237e-01
2.381800000000000139e+01 -3.336999999999999744e+01 4.886999999999999567e+00 1.626597456063245128e-01
2.381899999999999906e+01 -2.294500000000000028e+01 -4.189999999999999836e-01 -2.509874019796396460e-01
2.382199999999999918e+01 -9.653000000000000469e+00 -3.048999999999999932e+00 1.071292506843280617e-01
2.384499999999999886e+01 -2.287099999999999866e+01 -4.791999999999999815e+00 -5.875201740077697771e-02
2.385399999999999920e+01 -3.790899999999999892e+01 4.299999999999999822e+00 3.554197685485273039e-01
2.385699999999999932e+01 -2.526899999999999835e+01 7.496000000000000441e+00 -7.600419888689094287e-03
2.386100000000000065e+01 -2.097400000000000020e+01 -9.054999999999999716e+00 5.476901570615411163e-02
2.388500000000000156e+01 -2.532999999999999829e+01 -4.471000000000000085e+00 9.697881952312819090e-03
2.391300000000000026e+01 -3.004799999999999827e+01 -8.862999999999999545e+00 1.239284971405351099e-01
2.392599999999999838e+01 -2.914600000000000080e+01 -4.953000000000000291e+00 -1.332851783183035543e-01
2.393100000000000094e+01 -3.515899999999999892e+01 8.393000000000000682e+00 4.240913926116766930e-02
2.393599999999999994e+01 -4.388600000000000279e+01 -1.258000000000000007e+00 -1.018348869946126972e-01
2.394000000000000128e+01 -3.027899999999999991e+01 -4.246000000000000441e+00 -1.964523090461929022e-01
2.394099999999999895e+01 -2.820100000000000051e+01 6.169999999999999929e-01 2.325035624671183965e-01
2.394500000000000028e+01 -3.469700000000000273e+01 4.120000000000000107e+00 3.442527314198266519e-01
2.402599999999999980e+01 -2.662500000000000000e+01 7.581000000000000405e+00 1.498545252388805982e-01
2.405699999999999861e+01 -2.329599999999999937e+01 -9.913000000000000256e+00 2.019731447122735390e-01
2.405900000000000105e+01 -4.685399999999999920e+01 -3.717999999999999972e+00 -1.891909548419674070e-01
2.406299999999999883e+01 -3.161299999999999955e+01 -4.977999999999999758e+00 -2.431371871378157079e-01
2.415800000000000125e+01 -4.646200000000000330e+01 -2.450000000000000178e+00 -2.448892198118043650e-01
2.419399999999999906e+01 -2.669200000000000017e+01 -5.068999999999999950e+00 -1.233476973862076831e-01
2.419900000000000162e+01 -1.879500000000000171e+01 -1.009900000000000020e+01 -1.362196158897824305e-01
2.428999999999999915e+01 -2.766600000000000037e+01 6.552999999999999936e+00 1.490721144848832780e-01
2.432300000000000040e+01 -2.417000000000000171e+01 -7.449999999999999956e-01 2.265083157543722192e-02
2.435800000000000054e+01 -2.010800000000000054e+01 2.439999999999999947e+00 3.618238887593064335e-02
2.438700000000000045e+01 -2.571499999999999986e+01 1.263299999999999912e+01 -3.822466447434811343e-01
2.441300000000000026e+01 -1.663100000000000023e+01 -5.355999999999999872e+00 1.396811611577814805e-01
2.441499999999999915e+01 -3.046099999999999852e+01 -1.590000000000000024e-01 -1.278882873385096819e-01
2.444000000000000128e+01 -2.981599999999999895e+01 -7.778999999999999915e+00 -1.375791911487218577e-01
2.446099999999999852e+01 -3.091199999999999903e+01 -9.714000000000000412e+00 9.936038525644544372e-02
2.451099999999999923e+01 -2.283699999999999974e+01 5.139000000000000234e+00 -1.039798115374160614e-01
2.456899999999999906e+01 -2.113200000000000145e+01 -8.069000000000000838e+00 7.749448260943694877e-02
2.458299999999999841e+01 -2.415800000000000125e+01 -5.161999999999999922e+00 -1.457883151127312149e-01
2.459499999999999886e+01 -1.581799999999999962e+01 3.694999999999999840e+00 2.440234215082455194e-01
2.459700000000000131e+01 -2.161499999999999844e+01 -5.067000000000000171e+00 2.488834364754627425e-04
2.462399999999999878e+01 -2.851899999999999835e+01 1.285899999999999999e+01 -2.370952933564719756e-01
2.466799999999999926e+01 -2.200100000000000122e+01 -1.096000000000000085e+00 -2.495903128320428599e-01
2.470899999999999963e+01 -2.060600000000000165e+01 -1.175999999999999934e+00 1.276024102154621753e-01
2.471000000000000085e+01 -3.232399999999999807e+01 4.360999999999999766e+00 2.408612233380162948e-01
2.471199999999999974e+01 -3.563400000000000034e+01 4.645999999999999908e+00 3.392346995622445016e-01
2.471999999999999886e+01 -3.434799999999999898e+01 -6.600000000000000311e-01 1.948127218159092511e-01
2.473799999999999955e+01 -4.343900000000000006e+01 4.524000000000000021e+00 -1.243493071946128944e-02
2.474099999999999966e+01 -3.797500000000000142e+01 7.530000000000000027e-01 9.916624430323599249e-02
2.477299999999999969e+01 -4.260900000000000176e+01 5.621999999999999886e+00 2.054583187371043507e-01
2.478200000000000003e+01 -2.915299999999999869e+01 4.043000000000000149e+00 -1.047970439098543788e-02
2.479899999999999949e+01 -3.907099999999999795e+01 -1.372000000000000108e+00 1.858131119603456116e-01
2.481400000000000006e+01 -2.613400000000000034e+01 1.372400000000000020e+01 -3.836665314092150281e-01
2.483699999999999974e+01 -1.553200000000000003e+01 -6.309000000000000163e+00 4.943864343414266366e-02
2.486599999999999966e+01 -1.478100000000000058e+01 8.449999999999999734e-01 2.938366034282170469e-01
2.488899999999999935e+01 -9.131999999999999673e+00 -3.895999999999999908e+00 -2.299008054347641272e-01
2.492000000000000171e+01 -1.775600000000000023e+01 -5.371000000000000441e+00 1.074052332190198467e-01
2.492399999999999949e+01 -2.759799999999999898e+01 1.402800000000000047e+01 -2.137703648995100958e-01
2.494099999999999895e+01 -3.389999999999999858e+01 -1.790999999999999925e+00 9.234779712947983887e-02
2.495200000000000173e+01 -4.657900000000000063e+01 -4.524000000000000021e+00 -1.765244345737786158e-01
2.496399999999999864e+01 -3.691499999999999915e+01 3.968999999999999861e+00 3.383104870666386876e-01
2.497500000000000142e+01 -1.784799999999999898e+01 -9.202999999999999403e+00 -1.270488396104121342e-01
2.500400000000000134e+01 -3.786899999999999977e+01 -4.470000000000000084e-01 1.258985718817010602e-01
2.500400000000000134e+01 -1.873100000000000165e+01 2.531000000000000139e+00 -9.464983710910611359e-03
2.501300000000000168e+01 -3.301599999999999824e+01 1.308200000000000074e+01 -8.086845851172852484e-02
2.501599999999999824e+01 -2.928000000000000114e+01 4.829999999999999849e-01 5.604360895050347624e-02
2.504599999999999937e+01 -2.087600000000000122e+01 1.044800000000000040e+01 -3.648395507864536924e-01
2.504700000000000060e+01 -1.818299999999999983e+01 3.984999999999999876e+00 -1.629186020501076082e-01
2.504899999999999949e+01 -4.029999999999999716e+01 -6.390000000000000124e-01 2.090747665323418325e-02
2.505300000000000082e+01 -4.439500000000000313e+01 -1.320999999999999952e+00 -9.748441994444928538e-02
2.508099999999999952e+01 -3.247999999999999687e+01 -4.416999999999999815e+00 -2.401799037878780130e-01
2.512699999999999889e+01 -2.531400000000000006e+01 1.460100000000000087e+01 -3.814706157874567238e-01
2.515700000000000003e+01 -1.439499999999999957e+01 3.535000000000000142e+00 3.607932856900016860e-01
2.532300000000000040e+01 -4.575900000000000034e+01 -1.945999999999999952e+00 -1.036773602702632663e-01
2.538599999999999923e+01 -2.012399999999999878e+01 5.418999999999999595e+00 -1.576933500987304226e-01
2.542399999999999949e+01 -2.406599999999999895e+01 -1.552000000000000046e+00 -3.121538652710155737e-01
2.543199999999999861e+01 -3.671600000000000108e+01 -9.639999999999999680e-01 2.048175688844342535e-01
2.549899999999999878e+01 -1.678800000000000026e+01 3.928999999999999826e+00 2.982893843163637038e-01
2.552400000000000091e+01 -3.393599999999999994e+01 1.225399999999999956e+01 -2.810039355642093839e-02
2.553699999999999903e+01 -3.806000000000000227e+01 -6.208000000000000185e+00 3.737885677963027065e-01
2.555399999999999849e+01 -2.975100000000000122e+01 1.094400000000000084e+01 -1.504537908918814892e-01
2.555600000000000094e+01 -2.340700000000000003e+01 -9.643000000000000682e+00 2.845742671152536318e-01
2.556299999999999883e+01 -3.552100000000000080e+01 -1.549999999999999989e-01 2.268929681852529523e-01
2.556700000000000017e+01 -2.765899999999999892e+01 5.725999999999999979e+00 5.184762345925240934e-02
2.557100000000000151e+01 -2.648900000000000077e+01 4.836999999999999744e+00 2.326540457805422180e-01
2.564799999999999969e+01 -2.892200000000000060e+01 4.875000000000000000e+00 5.329970725252666103e-02
2.566900000000000048e+01 -2.273100000000000165e+01 -1.770000000000000018e+00 3.052478261955002964e-02
2.567299999999999827e+01 -2.141000000000000014e+01 7.517999999999999794e+00 1.102186947820850069e-02
2.569800000000000040e+01 -2.253399999999999892e+01 5.280999999999999694e+00 2.105550780009809997e-01
2.570400000000000063e+01 -2.857999999999999829e+01 1.177899999999999991e+01 -2.673361830037556119e-01
2.571999999999999886e+01 -2.000000000000000000e+01 -1.911000000000000032e+00 7.847727454613356857e-02
2.572500000000000142e+01 -3.207800000000000296e+01 1.350300000000000011e+01 6.336542853399992903e-02
2.589600000000000080e+01 -3.123199999999999932e+01 9.018000000000000682e+00 -1.088144145328691914e-01
2.592000000000000171e+01 -4.122999999999999687e+01 -1.074999999999999956e+00 1.080008962892565344e-01
2.592399999999999949e+01 -3.211399999999999721e+01 4.895999999999999908e+00 7.493293889975247146e-02
