2.867599999999999838e+01 4.055700000000000216e+01 1.105520000000000067e+02 5.631139287797367471e-02
2.867599999999999838e+01 4.227199999999999847e+01 1.051299999999999955e+02 2.526987350462343157e-02
2.867599999999999838e+01 4.470700000000000074e+01 1.051530000000000058e+02 -4.096461424993026734e-02
2.867800000000000082e+01 5.428300000000000125e+01 1.062109999999999985e+02 2.565916954627190938e-01
2.868199999999999861e+01 4.043599999999999994e+01 1.199279999999999973e+02 -1.258684033354459386e-01
2.868799999999999883e+01 6.849200000000000443e+01 1.169290000000000020e+02 -7.526142435918917184e-02
2.869300000000000139e+01 4.974000000000000199e+01 1.023050000000000068e+02 2.121430905796284350e-01
2.869999999999999929e+01 5.667600000000000193e+01 9.737300000000000466e+01 -3.013391574735795331e-01
2.871699999999999875e+01 4.002100000000000080e+01 1.063409999999999940e+02 -1.412573992015569990e-01
2.873600000000000065e+01 7.450700000000000500e+01 1.036790000000000020e+02 2.622966549789399471e-01
2.875199999999999889e+01 5.504500000000000171e+01 1.163719999999999999e+02 2.042378238612386210e-01
2.878000000000000114e+01 6.260000000000000142e+01 1.004150000000000063e+02 5.026888233962941571e-02
2.879400000000000048e+01 7.233700000000000330e+01 1.047740000000000009e+02 4.893217902498657457e-02
2.880300000000000082e+01 5.467600000000000193e+01 1.085780000000000030e+02 2.880024602082419949e-01
2.880499999999999972e+01 5.818099999999999739e+01 1.105570000000000022e+02 2.848436855171734838e-01
2.881099999999999994e+01 5.382999999999999829e+01 1.007789999999999964e+02 -3.269006697133114980e-01
2.882999999999999829e+01 4.862199999999999989e+01 1.012849999999999966e+02 -1.750766284716816223e-01
2.883500000000000085e+01 4.751200000000000045e+01 1.242680000000000007e+02 -3.806654147851357833e-02
2.883699999999999974e+01 4.616599999999999682e+01 1.071749999999999972e+02 -5.759544667349807134e-02
2.888599999999999923e+01 7.538500000000000512e+01 1.062860000000000014e+02 2.987192450341907141e-02
2.889099999999999824e+01 6.346800000000000352e+01 1.239969999999999999e+02 2.413983489034102203e-01
2.890200000000000102e+01 4.254299999999999926e+01 1.296040000000000134e+02 -3.560016320455773320e-01
2.890299999999999869e+01 4.013300000000000267e+01 1.078220000000000027e+02 -1.655236216711036268e-01
2.890299999999999869e+01 7.052500000000000568e+01 1.064120000000000061e+02 -4.870677557069376384e-02
2.890500000000000114e+01 6.994899999999999807e+01 1.039759999999999991e+02 2.278278698004616576e-01
2.892000000000000171e+01 5.986800000000000210e+01 1.127609999999999957e+02 3.184372007545703265e-01
2.892200000000000060e+01 6.505599999999999739e+01 1.196069999999999993e+02 -5.384125828805851055e-02
2.892899999999999849e+01 6.125399999999999778e+01 1.249279999999999973e+02 2.182854702465297225e-01
2.893700000000000117e+01 4.385499999999999687e+01 1.225739999999999981e+02 1.955711546744403895e-01
2.896799999999999997e+01 5.669899999999999807e+01 1.205270000000000010e+02 -4.925885968903748538e-03
2.899200000000000088e+01 6.024699999999999989e+01 1.237930000000000064e+02 1.552922765255073112e-01
2.902899999999999991e+01 5.526800000000000068e+01 1.119800000000000040e+02 3.916408539954600032e-01
2.903399999999999892e+01 7.071999999999999886e+01 9.867799999999999727e+01 -9.563592442849880304e-02
2.905499999999999972e+01 7.479000000000000625e+01 9.948900000000000432e+01 -1.143129471960399046e-01
2.906800000000000139e+01 6.912600000000000477e+01 9.452299999999999613e+01 -3.664898511897192179e-01
2.908200000000000074e+01 4.120100000000000051e+01 1.140490000000000066e+02 1.967799725449873860e-01
2.910399999999999920e+01 6.721399999999999864e+01 1.136419999999999959e+02 2.599647082359453631e-01
2.912099999999999866e+01 7.098199999999999932e+01 1.088319999999999936e+02 -1.287474265520609507e-01
2.913599999999999923e+01 5.625999999999999801e+01 9.630500000000000682e+01 -2.995653875439462377e-01
2.913800000000000168e+01 6.010799999999999699e+01 1.043979999999999961e+02 -1.854457316167155423e-01
2.917599999999999838e+01 6.497100000000000364e+01 1.077399999999999949e+02 1.153456525083613737e-01
2.919699999999999918e+01 5.798899999999999721e+01 9.795099999999999341e+01 -2.585310967293742435e-01
2.924399999999999977e+01 6.643399999999999750e+01 1.073280000000000030e+02 1.026751655314957629e-01
2.924800000000000111e+01 1.110299999999999976e+01 1.089330000000000069e+02 -2.383536466443788304e-01
2.925300000000000011e+01 6.534799999999999898e+01 1.182860000000000014e+02 -6.234385489052483159e-02
2.926699999999999946e+01 4.175000000000000000e+01 1.028580000000000041e+02 -1.739868210182974329e-01
2.930600000000000094e+01 5.019500000000000028e+01 1.185889999999999986e+02 2.742940791231133213e-01
2.931299999999999883e+01 7.099200000000000443e+01 1.050139999999999958e+02 2.625865062408286876e-01
2.932799999999999940e+01 7.312199999999999989e+01 1.038460000000000036e+02 2.381357474516251627e-01
2.932999999999999829e+01 6.240899999999999892e+01 1.014989999999999952e+02 -1.148559650661437476e-01
2.935200000000000031e+01 1.139899999999999913e+01 1.103599999999999994e+02 -2.441348023645098786e-01
2.942899999999999849e+01 6.486299999999999955e+01 1.092319999999999993e+02 2.622344513795724086e-01
2.944200000000000017e+01 5.775300000000000011e+01 1.117150000000000034e+02 4.064875076939816756e-01
2.944699999999999918e+01 4.477199999999999847e+01 1.041949999999999932e+02 -3.572240496351354599e-02
2.945700000000000074e+01 5.146999999999999886e+01 1.191310000000000002e+02 3.148995467080042410e-01
2.946099999999999852e+01 5.899699999999999989e+01 9.683199999999999363e+01 -3.691424037060821450e-01
2.948699999999999832e+01 4.536999999999999744e+01 1.198359999999999985e+02 1.535268636704573975e-01
2.950100000000000122e+01 5.860999999999999943e+01 1.128089999999999975e+02 3.935867336829348972e-01
2.953099999999999881e+01 6.256199999999999761e+01 1.247249999999999943e+02 2.277532884591487172e-01
2.953300000000000125e+01 6.483400000000000318e+01 1.238419999999999987e+02 1.637438430924595956e-01
2.959299999999999997e+01 9.804000000000000270e+00 1.068960000000000008e+02 -8.413189441182110373e-02
2.965800000000000125e+01 4.569700000000000273e+01 9.640099999999999625e+01 3.759248525096635651e-01
2.968400000000000105e+01 4.313499999999999801e+01 1.247860000000000014e+02 -3.877220667500361206e-02
2.968499999999999872e+01 5.492699999999999960e+01 1.184270000000000067e+02 6.456268664071546093e-02
2.969000000000000128e+01 4.926500000000000057e+01 1.231350000000000051e+02 1.670377338648397145e-02
2.972700000000000031e+01 6.914499999999999602e+01 1.035480000000000018e+02 9.612490503254472740e-02
2.974200000000000088e+01 6.839100000000000534e+01 1.143689999999999998e+02 1.119434558180465167e-01
2.974500000000000099e+01 5.503799999999999670e+01 1.171009999999999991e+02 2.179464760428553860e-01
2.976200000000000045e+01 6.007800000000000296e+01 1.204210000000000065e+02 -1.267497934704671890e-02
2.976300000000000168e+01 5.298299999999999699e+01 9.875799999999999557e+01 -3.412023888024742768e-01
2.978999999999999915e+01 5.395799999999999841e+01 1.121039999999999992e+02 3.192670116138364156e-01
2.979400000000000048e+01 1.001200000000000045e+01 1.084030000000000058e+02 -9.045205612356532754e-02
2.979799999999999827e+01 4.674499999999999744e+01 1.204279999999999973e+02 -1.181941752285750047e-01
2.980099999999999838e+01 6.632800000000000296e+01 1.131380000000000052e+02 2.403672544173503789e-01
2.980199999999999960e+01 1.379899999999999949e+01 1.096809999999999974e+02 -2.201058374033876830e-01
2.980999999999999872e+01 6.801300000000000523e+01 1.167699999999999960e+02 -7.536273577008270608e-02
2.983200000000000074e+01 4.534300000000000352e+01 1.183520000000000039e+02 1.801275685813961969e-01
2.984799999999999898e+01 4.827700000000000102e+01 1.238659999999999997e+02 -5.633824405125587020e-02
2.985800000000000054e+01 4.369500000000000028e+01 1.293360000000000127e+02 -3.530933544194220786e-01
2.986499999999999844e+01 4.587700000000000244e+01 1.007129999999999939e+02 -2.415604596626327039e-01
2.989900000000000091e+01 7.078100000000000591e+01 1.075469999999999970e+02 -9.082068545145951383e-03
2.993400000000000105e+01 7.447000000000000064e+00 1.067199999999999989e+02 1.852399737788493206e-01
2.994300000000000139e+01 6.041400000000000148e+01 1.228820000000000050e+02 8.265677652566597033e-02
2.996000000000000085e+01 4.293699999999999761e+01 1.200879999999999939e+02 1.568114805326257244e-01
2.997899999999999920e+01 6.912999999999999545e+01 1.213239999999999981e+02 1.424377009411403328e-01
2.999800000000000111e+01 6.798399999999999466e+01 1.191860000000000070e+02 -8.095712103358265743e-02
3.001300000000000168e+01 5.362700000000000244e+01 1.014429999999999978e+02 2.216639123663179806e-02
3.002899999999999991e+01 1.309099999999999930e+01 1.119809999999999945e+02 -1.875170423972240819e-01
3.003300000000000125e+01 5.344599999999999795e+01 1.131970000000000027e+02 3.059258735554517550e-01
3.003500000000000014e+01 4.441700000000000159e+01 1.220819999999999936e+02 -2.298656798247575295e-01
3.004200000000000159e+01 4.820100000000000051e+01 1.103629999999999995e+02 1.043898546422692697e-01
3.004599999999999937e+01 6.947299999999999898e+01 1.121179999999999950e+02 1.126494605210007494e-01
3.004899999999999949e+01 5.639000000000000057e+01 1.117909999999999968e+02 3.969456539619017343e-01
3.005000000000000071e+01 5.098599999999999710e+01 1.107360000000000042e+02 2.119786998467401706e-01
3.006800000000000139e+01 4.198599999999999710e+01 1.242379999999999995e+02 -6.924210611430854645e-02
3.009100000000000108e+01 5.945700000000000074e+01 1.217969999999999970e+02 8.873734497138609234e-03
3.011400000000000077e+01 4.353600000000000136e+01 1.258689999999999998e+02 -3.640308019271011886e-01
3.012999999999999901e+01 3.714399999999999835e+01 1.102680000000000007e+02 -3.068670870065121070e-01
3.013100000000000023e+01 5.417900000000000205e+01 1.062860000000000014e+02 2.667286178857595780e-01
3.013800000000000168e+01 4.052100000000000080e+01 1.199620000000000033e+02 1.697247621853994332e-02
3.016400000000000148e+01 5.922099999999999653e+01 1.002740000000000009e+02 -2.556569363835288211e-01
3.017000000000000171e+01 5.342900000000000205e+01 1.109539999999999935e+02 3.307177502108294975e-01
3.020200000000000173e+01 1.267099999999999937e+01 1.106219999999999999e+02 -2.338253787138522277e-01
3.023300000000000054e+01 6.306400000000000006e+01 1.139779999999999944e+02 1.637423737457110451e-01
3.024099999999999966e+01 6.882299999999999329e+01 9.421800000000000352e+01 -3.651415008825191211e-01
3.026200000000000045e+01 7.276200000000000045e+01 1.031299999999999955e+02 -6.270390303372648522e-02
3.028300000000000125e+01 7.006399999999999295e+01 9.922599999999999909e+01 4.279330613421746671e-02
3.028900000000000148e+01 4.427400000000000091e+01 1.205819999999999936e+02 1.657027922467112224e-01
3.033500000000000085e+01 4.627900000000000347e+01 1.070499999999999972e+02 -1.263930952527684282e-01
3.036799999999999855e+01 4.620799999999999841e+01 9.963500000000000512e+01 1.478183198835997803e-01
3.037399999999999878e+01 3.859000000000000341e+01 1.147319999999999993e+02 4.703629262012972920e-03
3.039999999999999858e+01 6.793099999999999739e+01 1.155840000000000032e+02 -7.698462441785418331e-02
3.043100000000000094e+01 9.195999999999999730e+00 1.090699999999999932e+02 -9.230102061172135164e-02
3.043900000000000006e+01 5.769299999999999784e+01 9.863500000000000512e+01 -2.720474435629949839e-01
3.048300000000000054e+01 5.486999999999999744e+01 1.041749999999999972e+02 4.462487625549824144e-02
3.050100000000000122e+01 8.772000000000000242e+00 1.063960000000000008e+02 1.910644335741712441e-01
3.050700000000000145e+01 6.183100000000000307e+01 1.187409999999999997e+02 6.653359779837196737e-03
3.056500000000000128e+01 4.185099999999999909e+01 1.205630000000000024e+02 1.592145074492358784e-03
3.056500000000000128e+01 6.061999999999999744e+01 1.043659999999999997e+02 -2.153650660396902450e-01
3.057000000000000028e+01 6.707299999999999329e+01 1.076569999999999965e+02 1.188928063842004529e-01
3.057100000000000151e+01 3.930199999999999960e+01 1.005709999999999980e+02 -4.048281237970419166e-02
3.057199999999999918e+01 6.430200000000000671e+01 1.096080000000000041e+02 2.436614064783086675e-02
3.057499999999999929e+01 4.530700000000000216e+01 1.016850000000000023e+02 -1.712325183600236778e-01
3.059100000000000108e+01 6.595699999999999363e+01 1.179419999999999931e+02 -5.677087294633766795e-02
3.059900000000000020e+01 6.748399999999999466e+01 1.179590000000000032e+02 -7.637680318771648824e-02
3.060300000000000153e+01 6.292000000000000171e+01 1.153220000000000027e+02 -3.460747625154043244e-03
3.060500000000000043e+01 4.115100000000000335e+01 1.138430000000000035e+02 -1.593808444415487635e-01
3.061499999999999844e+01 3.897500000000000142e+01 1.180600000000000023e+02 2.321620867310477954e-01
3.064600000000000080e+01 6.274099999999999966e+01 1.115120000000000005e+02 1.778399225396031791e-01
3.071699999999999875e+01 6.863299999999999557e+01 1.200909999999999940e+02 1.607672970152215774e-01
3.073699999999999832e+01 6.906900000000000261e+01 1.134150000000000063e+02 -2.365937244449926313e-01
3.074299999999999855e+01 4.040200000000000102e+01 1.185499999999999972e+02 2.228236686507048536e-01
3.075000000000000000e+01 6.118900000000000006e+01 1.200930000000000035e+02 -1.203466304378271283e-02
3.078300000000000125e+01 7.197199999999999420e+01 1.072489999999999952e+02 -2.094393574589605879e-03
3.079599999999999937e+01 4.981400000000000006e+01 1.101059999999999945e+02 -5.712659097446365353e-02
3.080300000000000082e+01 6.761700000000000443e+01 1.089189999999999969e+02 1.174215194933730111e-01
3.081899999999999906e+01 3.876500000000000057e+01 1.135960000000000036e+02 1.089162569290732796e-01
3.082300000000000040e+01 4.504200000000000159e+01 1.227900000000000063e+02 -1.682807417235177572e-01
3.082300000000000040e+01 5.833299999999999841e+01 9.973199999999999932e+01 -3.602239026860515336e-01
3.085099999999999909e+01 6.158200000000000074e+01 1.052309999999999945e+02 2.236740177742531643e-01
3.088599999999999923e+01 6.417199999999999704e+01 1.110220000000000056e+02 -2.464991594416781479e-02
3.091700000000000159e+01 4.105100000000000193e+01 9.898999999999999488e+01 -3.668404026300184362e-01
3.091799999999999926e+01 5.450800000000000267e+01 1.052669999999999959e+02 4.121038538257412176e-01
3.093799999999999883e+01 4.749300000000000210e+01 1.067390000000000043e+02 2.680580047478409167e-01
3.093900000000000006e+01 6.494799999999999329e+01 1.241830000000000069e+02 9.082422996277857152e-02
3.094399999999999906e+01 5.221200000000000330e+01 1.108900000000000006e+02 1.451754706686416985e-01
3.096900000000000119e+01 3.997099999999999653e+01 1.130699999999999932e+02 3.627072554166740209e-02
3.097500000000000142e+01 5.277400000000000091e+01 9.940900000000000603e+01 3.347609545453088253e-02
3.098900000000000077e+01 5.763300000000000267e+01 1.164639999999999986e+02 3.493998754514363592e-01
3.101800000000000068e+01 4.502900000000000347e+01 9.635899999999999466e+01 -5.043252557498185962e-02
3.101899999999999835e+01 6.253300000000000125e+01 1.129590000000000032e+02 1.255155403789110814e-02
3.102599999999999980e+01 4.372200000000000131e+01 1.139110000000000014e+02 1.335647124642627692e-01
3.107000000000000028e+01 1.029199999999999982e+01 1.048340000000000032e+02 1.168902512525617776e-01
3.107100000000000151e+01 4.114399999999999835e+01 1.248780000000000001e+02 -3.879699300762314840e-01
3.109199999999999875e+01 5.310000000000000142e+01 1.007519999999999953e+02 1.432755837886650306e-02
3.110000000000000142e+01 4.241100000000000136e+01 1.131280000000000001e+02 1.227653389352964669e-01
3.114900000000000091e+01 5.513799999999999812e+01 1.165139999999999958e+02 1.544101783755554014e-01
3.115099999999999980e+01 4.515599999999999881e+01 1.072039999999999935e+02 -3.685440512855165940e-01
3.121000000000000085e+01 9.169000000000000483e+00 1.053179999999999978e+02 1.488364678011759867e-01
3.122299999999999898e+01 3.757900000000000063e+01 1.127330000000000041e+02 1.894355592853384507e-01
3.124299999999999855e+01 4.786699999999999733e+01 1.243370000000000033e+02 -2.775687366024905470e-02
3.124800000000000111e+01 4.428600000000000136e+01 9.758700000000000330e+01 -3.508451171955685732e-02
3.124899999999999878e+01 4.698599999999999710e+01 1.255990000000000038e+02 -3.695655161847912762e-01
3.125199999999999889e+01 3.763600000000000279e+01 1.103149999999999977e+02 -3.519851463408387171e-01
3.127899999999999991e+01 7.023499999999999943e+01 1.140460000000000065e+02 -2.186770180222056548e-01
3.128099999999999881e+01 5.639099999999999824e+01 1.156419999999999959e+02 3.409368462321659132e-01
3.128500000000000014e+01 3.987400000000000233e+01 1.240600000000000023e+02 7.294562771157103720e-02
3.130499999999999972e+01 4.324900000000000233e+01 1.293770000000000095e+02 -2.311740538370134490e-01
3.138700000000000045e+01 5.393599999999999994e+01 1.157330000000000041e+02 1.509564116288602542e-01
3.139000000000000057e+01 4.011200000000000188e+01 1.000780000000000030e+02 2.268314768597375769e-02
3.139499999999999957e+01 6.016199999999999903e+01 1.035799999999999983e+02 -2.014261551113650517e-01
3.141799999999999926e+01 5.282600000000000051e+01 1.086280000000000001e+02 2.051772175334493631e-01
3.142299999999999827e+01 4.189000000000000057e+01 1.214459999999999980e+02 9.815776761419067742e-02
3.146699999999999875e+01 5.870300000000000296e+01 1.072830000000000013e+02 2.314452637536588975e-01
3.148100000000000165e+01 4.322099999999999653e+01 1.000229999999999961e+02 -3.611191299853784842e-01
3.148499999999999943e+01 7.098799999999999955e+01 9.913700000000000045e+01 -2.251481922596893226e-01
3.150600000000000023e+01 4.067199999999999704e+01 1.095109999999999957e+02 -2.404268507001729449e-01
3.151399999999999935e+01 4.933899999999999864e+01 1.152289999999999992e+02 2.994414599571652569e-01
3.152400000000000091e+01 4.298799999999999955e+01 9.756399999999999295e+01 9.372383166197321286e-04
3.153200000000000003e+01 5.895600000000000307e+01 1.218020000000000067e+02 5.171810299156215374e-02
3.155300000000000082e+01 6.495499999999999829e+01 1.220250000000000057e+02 6.808706493951822980e-02
3.159499999999999886e+01 4.233800000000000097e+01 9.652500000000000568e+01 -3.694450628786995292e-03
3.159799999999999898e+01 6.712099999999999511e+01 1.067159999999999940e+02 1.054249896500367295e-01
3.163400000000000034e+01 5.834799999999999898e+01 1.086159999999999997e+02 3.406453655459874552e-01
3.167599999999999838e+01 4.482399999999999807e+01 1.130889999999999986e+02 3.455692472464636511e-01
3.170499999999999829e+01 6.089999999999999858e+00 1.035529999999999973e+02 1.049819672241364410e-01
3.171799999999999997e+01 4.812299999999999756e+01 1.161209999999999951e+02 3.965259700949013144e-01
3.171900000000000119e+01 4.357399999999999807e+01 1.152570000000000050e+02 2.147849122620544282e-01
3.173600000000000065e+01 5.773100000000000165e+01 1.213430000000000035e+02 9.944439629407909875e-02
3.175900000000000034e+01 4.232200000000000273e+01 9.890800000000000125e+01 -3.657906670486976708e-01
3.176999999999999957e+01 6.223899999999999721e+01 1.156539999999999964e+02 1.825179208802952375e-04
3.178999999999999915e+01 6.727999999999999758e+00 1.048139999999999930e+02 1.215736634075818695e-01
3.180499999999999972e+01 6.264399999999999835e+01 1.076370000000000005e+02 9.424255184561391996e-02
3.183899999999999864e+01 5.233899999999999864e+01 1.096770000000000067e+02 1.655310981247055946e-01
3.184900000000000020e+01 6.501999999999999602e+01 1.232189999999999941e+02 3.781772018674681851e-02
3.185699999999999932e+01 3.790800000000000125e+01 1.114629999999999939e+02 1.537116035554040583e-01
3.191600000000000037e+01 6.349000000000000199e+01 1.033439999999999941e+02 -1.760252899085081313e-01
3.192800000000000082e+01 6.882299999999999329e+01 1.199629999999999939e+02 1.148264934535307147e-01
3.193700000000000117e+01 5.786099999999999710e+01 1.062729999999999961e+02 2.428897801474250995e-01
3.195100000000000051e+01 5.059599999999999653e+01 1.159890000000000043e+02 1.260015542644532249e-01
3.198100000000000165e+01 4.688199999999999790e+01 9.520300000000000296e+01 -1.502250695814235093e-01
3.198999999999999844e+01 5.655700000000000216e+01 1.010300000000000011e+02 -1.186674405980362446e-01
3.199899999999999878e+01 3.797399999999999665e+01 1.090270000000000010e+02 -3.210426941946367685e-01
3.200800000000000267e+01 4.508899999999999864e+01 1.015210000000000008e+02 -8.248828506697150620e-02
3.202400000000000091e+01 6.819299999999999784e+01 1.092390000000000043e+02 1.047553169564666709e-01
3.209499999999999886e+01 4.606000000000000227e+01 9.610899999999999466e+01 -1.576769918238019319e-01
3.210799999999999699e+01 7.067799999999999727e+01 1.015349999999999966e+02 3.013104011031079651e-02
3.214999999999999858e+01 3.666499999999999915e+01 1.135349999999999966e+02 2.737193480432714709e-01
3.215299999999999869e+01 5.788900000000000290e+01 1.002969999999999970e+02 -2.189053228038206067e-01
3.217600000000000193e+01 4.481499999999999773e+01 1.277079999999999984e+02 -2.442955490188952195e-01
3.218299999999999983e+01 3.882699999999999818e+01 1.247099999999999937e+02 9.241112343929727690e-02
3.218500000000000227e+01 6.214699999999999847e+01 1.053239999999999981e+02 2.185327797172877395e-01
3.218599999999999994e+01 6.185000000000000142e+01 1.133020000000000067e+02 5.436046387756286735e-02
3.221000000000000085e+01 4.081799999999999784e+01 1.185649999999999977e+02 2.252648095056128397e-01
3.222099999999999653e+01 8.195000000000000284e+00 1.046860000000000070e+02 1.182467863210331649e-01
3.223599999999999710e+01 6.355700000000000216e+01 1.047339999999999947e+02 -8.661770699441770360e-02
3.225600000000000023e+01 4.918800000000000239e+01 1.139350000000000023e+02 2.659600847677176527e-01
3.227100000000000080e+01 5.715299999999999869e+01 1.089339999999999975e+02 3.467578414287749711e-01
3.228999999999999915e+01 5.291100000000000136e+01 1.013970000000000056e+02 -4.035570129853398302e-02
3.229599999999999937e+01 4.437700000000000244e+01 1.290910000000000082e+02 -2.501301200424304039e-01
3.230100000000000193e+01 4.306300000000000239e+01 1.030300000000000011e+02 -2.476206441211462883e-01
3.230899999999999750e+01 5.305199999999999960e+01 1.161009999999999991e+02 4.015891294877372841e-01
3.231700000000000017e+01 6.455899999999999750e+01 1.113430000000000035e+02 -1.430123837945672105e-01
3.231900000000000261e+01 4.759199999999999875e+01 1.065859999999999985e+02 1.328361620402331300e-01
3.235600000000000165e+01 3.530599999999999739e+01 1.128919999999999959e+02 -4.532309571121702005e-03
3.235699999999999932e+01 4.416899999999999693e+01 1.003479999999999990e+02 -1.213743406270119049e-02
3.237599999999999767e+01 5.521200000000000330e+01 1.225520000000000067e+02 -3.089711765042860159e-01
3.238400000000000034e+01 4.193599999999999994e+01 1.249749999999999943e+02 -2.938110723940730029e-01
3.242099999999999937e+01 3.767000000000000171e+01 1.237409999999999997e+02 -4.146836632628213282e-02
3.242199999999999704e+01 5.437299999999999756e+01 1.055030000000000001e+02 4.164729653102875462e-01
3.243200000000000216e+01 5.581700000000000017e+01 1.194489999999999981e+02 2.386643355626480167e-01
3.244899999999999807e+01 5.966499999999999915e+01 1.222249999999999943e+02 2.959386325258949596e-02
3.246600000000000108e+01 5.181600000000000250e+01 1.152279999999999944e+02 3.647682088237713671e-01
3.248499999999999943e+01 6.516800000000000637e+01 1.125090000000000003e+02 -8.765012638856892191e-02
3.251200000000000045e+01 3.668099999999999739e+01 1.210969999999999942e+02 -9.380905467076226800e-02
3.252700000000000102e+01 4.524099999999999966e+01 1.070480000000000018e+02 -3.246764251941494650e-01
3.256499999999999773e+01 6.170199999999999818e+01 1.146440000000000055e+02 -1.255030715008933762e-01
3.257300000000000040e+01 5.666499999999999915e+01 1.065799999999999983e+02 1.717405982542111187e-01
3.257500000000000284e+01 7.056000000000000227e+01 1.001170000000000044e+02 6.548748705566403983e-02
3.257600000000000051e+01 5.046099999999999852e+01 1.040900000000000034e+02 -1.803684862456552129e-01
3.258899999999999864e+01 4.017399999999999949e+01 1.004300000000000068e+02 5.351421967309412386e-02
3.259199999999999875e+01 6.222299999999999898e+01 1.067860000000000014e+02 1.299352089741803717e-01
3.261200000000000188e+01 4.632800000000000296e+01 1.258509999999999991e+02 -1.377404876130401690e-01
3.262100000000000222e+01 4.452000000000000313e+01 1.028020000000000067e+02 -2.637987864061305254e-01
3.265200000000000102e+01 3.671099999999999852e+01 1.084719999999999942e+02 -1.559443448638774266e-01
3.266799999999999926e+01 4.029999999999999716e+01 1.093439999999999941e+02 1.272370944434203788e-01
3.269500000000000028e+01 5.645900000000000318e+01 1.150639999999999930e+02 2.725004874839097035e-01
3.271399999999999864e+01 5.888100000000000023e+01 1.011880000000000024e+02 -2.316763211489432650e-01
3.273499999999999943e+01 5.632099999999999795e+01 1.079150000000000063e+02 4.269714768150965623e-01
3.276400000000000290e+01 6.756600000000000250e+01 1.241140000000000043e+02 4.144682802829601637e-02
3.277100000000000080e+01 4.260799999999999699e+01 1.238889999999999958e+02 2.392417989160873504e-02
3.277400000000000091e+01 4.592900000000000205e+01 1.273119999999999976e+02 -1.469499980956011087e-01
3.279500000000000171e+01 4.521699999999999875e+01 1.249339999999999975e+02 7.609810803155273029e-02
3.282399999999999807e+01 6.770000000000000284e+01 1.070240000000000009e+02 8.921462490400697276e-02
3.298199999999999932e+01 5.771099999999999852e+01 1.142669999999999959e+02 2.846251223304284705e-01
3.299600000000000222e+01 3.903000000000000114e+01 1.091320000000000050e+02 9.418105302855303562e-02
3.300099999999999767e+01 6.664499999999999602e+01 1.149759999999999991e+02 -1.535970852948792542e-01
3.300600000000000023e+01 4.881799999999999784e+01 9.782399999999999807e+01 1.003182647992914844e-01
3.302700000000000102e+01 5.320700000000000074e+01 1.170889999999999986e+02 4.042248755705440399e-01
3.302799999999999869e+01 6.823499999999999943e+01 1.082890000000000015e+02 -4.931737425775333666e-02
3.303000000000000114e+01 4.194800000000000040e+01 1.260270000000000010e+02 -3.047187931911344849e-01
3.303099999999999881e+01 5.351400000000000290e+01 1.044920000000000044e+02 3.984275213688243666e-01
3.307000000000000028e+01 5.575600000000000023e+01 1.054899999999999949e+02 1.597888895314975716e-02
3.307500000000000284e+01 5.717099999999999937e+01 1.213259999999999934e+02 1.911655621976091068e-02
3.308200000000000074e+01 5.190699999999999648e+01 1.098160000000000025e+02 1.866418301848023487e-01
3.310699999999999932e+01 4.646099999999999852e+01 1.067399999999999949e+02 -3.428705677554633735e-01
3.313300000000000267e+01 4.602199999999999847e+01 9.693699999999999761e+01 -2.352223971632899924e-01
3.320900000000000318e+01 6.239999999999999858e+01 1.237169999999999987e+02 2.680892168546138432e-01
3.324000000000000199e+01 6.431000000000000227e+01 1.105639999999999930e+02 1.027395672702201834e-01
3.328600000000000136e+01 5.629500000000000171e+01 1.225550000000000068e+02 -3.118050342632195382e-01
3.329999999999999716e+01 5.598400000000000176e+01 1.015259999999999962e+02 1.214954608657104439e-02
3.330899999999999750e+01 6.515900000000000603e+01 1.236490000000000009e+02 -2.723576139362856446e-02
3.331499999999999773e+01 4.089000000000000057e+01 1.037109999999999985e+02 -3.592262858550073767e-01
3.335000000000000142e+01 5.634700000000000131e+01 1.200819999999999936e+02 2.808203402347802524e-01
3.339600000000000080e+01 4.240100000000000335e+01 1.038280000000000030e+02 -3.566006940673990822e-01
3.341799999999999926e+01 4.431300000000000239e+01 9.975000000000000000e+01 -8.933754463052652472e-02
3.344800000000000040e+01 3.798899999999999721e+01 1.227469999999999999e+02 -4.125639979781665218e-02
3.345100000000000051e+01 4.661599999999999966e+01 1.280730000000000075e+02 -1.950323807206772175e-01
3.346800000000000352e+01 3.750699999999999790e+01 1.215079999999999956e+02 -7.100161475342006701e-02
3.347699999999999676e+01 8.400000000000000355e+00 1.053930000000000007e+02 1.676789597828629019e-02
3.353099999999999881e+01 3.354099999999999682e+01 1.211340000000000003e+02 -8.514884008419090766e-02
3.359199999999999875e+01 3.460499999999999687e+01 1.134110000000000014e+02 -1.470966673206865194e-02
3.361500000000000199e+01 4.869899999999999807e+01 1.201569999999999965e+02 3.957994972876363038e-01
3.361899999999999977e+01 6.416200000000000614e+01 1.049009999999999962e+02 -2.077867728722115337e-01
3.367699999999999960e+01 6.573699999999999477e+01 1.144980000000000047e+02 2.518166294722814016e-02
3.369400000000000261e+01 5.160699999999999932e+01 1.127009999999999934e+02 1.929655818998665950e-01
3.371099999999999852e+01 4.391199999999999903e+01 1.294370000000000118e+02 -4.483006259554017658e-02
3.372399999999999665e+01 5.687800000000000011e+01 1.252849999999999966e+02 -2.547529299429466265e-01
3.375000000000000000e+01 6.662800000000000011e+01 1.234500000000000028e+02 -1.127566363199546985e-02
3.379399999999999693e+01 6.557399999999999807e+01 1.129939999999999998e+02 1.918320174841493114e-02
3.379999999999999716e+01 1.048399999999999999e+01 1.045939999999999941e+02 5.229193459159090646e-02
3.381499999999999773e+01 3.342699999999999960e+01 1.131329999999999956e+02 -3.279086797248571827e-02
3.381700000000000017e+01 6.179399999999999693e+01 1.070699999999999932e+02 2.783265552563350953e-01
3.382500000000000284e+01 4.129200000000000159e+01 1.094000000000000057e+02 1.698295104606962480e-01
3.382600000000000051e+01 3.432900000000000063e+01 1.231700000000000017e+02 -3.835313195069385839e-01
3.386200000000000188e+01 5.946399999999999864e+01 1.008870000000000005e+02 -2.105498051740997134e-01
3.388199999999999790e+01 5.165699999999999648e+01 1.149459999999999980e+02 3.435947609988294071e-01
3.389600000000000080e+01 4.025500000000000256e+01 1.119650000000000034e+02 3.021356567216183509e-01
3.392099999999999937e+01 4.451500000000000057e+01 1.249249999999999972e+02 -1.656968779465869956e-01
3.396600000000000108e+01 6.293999999999999773e+01 1.229099999999999966e+02 2.585971456006879166e-01
3.396900000000000119e+01 6.193500000000000227e+01 1.206749999999999972e+02 3.545215475726454235e-01
3.397800000000000153e+01 5.199499999999999744e+01 1.086869999999999976e+02 2.054360112317365206e-01
3.399499999999999744e+01 5.191499999999999915e+01 1.247180000000000035e+02 -5.812070642051203606e-02
3.399900000000000233e+01 4.340299999999999869e+01 1.238970000000000056e+02 -3.250962167032759309e-01
3.407500000000000284e+01 4.804899999999999949e+01 1.029909999999999997e+02 -1.950505433208553074e-01
3.407699999999999818e+01 5.275099999999999767e+01 1.047860000000000014e+02 1.737459271898402491e-01
3.409400000000000119e+01 5.043699999999999761e+01 1.039219999999999970e+02 -1.760009515280286374e-01
3.409599999999999653e+01 6.425799999999999557e+01 1.228139999999999930e+02 -1.096936733729732619e-02
3.412800000000000011e+01 4.459400000000000119e+01 1.193139999999999930e+02 3.226793908670419486e-01
3.415699999999999648e+01 9.539999999999999147e+00 1.053050000000000068e+02 1.077290951438890712e-02
3.415699999999999648e+01 4.407099999999999795e+01 1.305720000000000027e+02 -6.120320418540731167e-02
3.419200000000000017e+01 4.172999999999999687e+01 1.079809999999999945e+02 2.600167444595931632e-01
3.420499999999999829e+01 4.456000000000000227e+01 1.179240000000000066e+02 2.927395901607174333e-01
3.422399999999999665e+01 6.689600000000000080e+01 1.123629999999999995e+02 -9.835198497661280792e-02
3.422999999999999687e+01 6.882399999999999807e+01 1.086029999999999944e+02 -1.989313315597261433e-01
3.423100000000000165e+01 6.046500000000000341e+01 1.091419999999999959e+02 -2.899782956806760612e-02
3.425699999999999790e+01 6.493600000000000705e+01 1.166880000000000024e+02 -2.060286113951287634e-01
3.425900000000000034e+01 4.407399999999999807e+01 1.225480000000000018e+02 8.458700211821911993e-03
3.427100000000000080e+01 3.392399999999999949e+01 1.220709999999999980e+02 -6.362054935599023575e-02
3.427300000000000324e+01 5.577400000000000091e+01 1.003709999999999951e+02 -2.415512396922006588e-01
3.427499999999999858e+01 4.691799999999999926e+01 9.679500000000000171e+01 -2.905670282932514836e-01
3.429200000000000159e+01 4.802400000000000091e+01 9.788200000000000500e+01 -2.626366118363702151e-01
3.430299999999999727e+01 5.391400000000000148e+01 1.256919999999999931e+02 -2.421467181039492211e-01
3.432099999999999795e+01 6.484799999999999898e+01 1.152429999999999950e+02 9.124990454742906015e-03
3.432500000000000284e+01 6.055599999999999739e+01 1.185999999999999943e+02 1.269187467968863614e-01
3.434400000000000119e+01 6.184100000000000108e+01 1.084219999999999970e+02 -6.095391109265897896e-03
3.438100000000000023e+01 5.158599999999999852e+01 1.137189999999999941e+02 1.624326799493604756e-01
3.439300000000000068e+01 6.047999999999999687e+01 1.018760000000000048e+02 -4.217523530361159956e-02
3.440999999999999659e+01 3.532900000000000063e+01 1.141620000000000061e+02 3.507477702015544124e-02
3.442300000000000182e+01 4.335900000000000176e+01 1.284590000000000032e+02 -7.532679960135299502e-02
3.444200000000000017e+01 3.785000000000000142e+01 1.206760000000000019e+02 -1.112731340234590638e-01
3.447399999999999665e+01 4.654899999999999949e+01 1.065939999999999941e+02 -3.095911287775879317e-01
3.447899999999999920e+01 4.741199999999999903e+01 9.926300000000000523e+01 -2.297995336567170699e-01
3.448799999999999955e+01 4.951400000000000290e+01 1.027720000000000056e+02 -2.509055670976787500e-01
3.448899999999999721e+01 5.943099999999999739e+01 1.114789999999999992e+02 3.174355133874463553e-01
3.449199999999999733e+01 5.919500000000000028e+01 9.987000000000000455e+01 -2.361992543914538112e-01
3.452300000000000324e+01 4.024099999999999966e+01 1.042999999999999972e+02 -3.766740800591310556e-01
3.453099999999999881e+01 5.079599999999999937e+01 1.191710000000000065e+02 2.803150708246658906e-01
3.457500000000000284e+01 3.878300000000000125e+01 1.167489999999999952e+02 1.071706513595440946e-01
3.457800000000000296e+01 5.299900000000000233e+01 1.247729999999999961e+02 6.452183690186644172e-02
3.458700000000000330e+01 4.348799999999999955e+01 1.200420000000000016e+02 3.672856062950782818e-01
3.459599999999999653e+01 5.273799999999999955e+01 1.058979999999999961e+02 2.121641250613649221e-01
3.462199999999999989e+01 5.186899999999999977e+01 1.036710000000000065e+02 -3.167092757922684854e-01
3.462800000000000011e+01 5.625300000000000011e+01 1.197390000000000043e+02 2.157824682478145240e-01
3.465699999999999648e+01 4.317999999999999972e+01 1.214350000000000023e+02 -1.233313907625513059e-02
3.471999999999999886e+01 6.161899999999999977e+01 1.194030000000000058e+02 1.928184720519834083e-01
3.472899999999999920e+01 4.343999999999999773e+01 1.172549999999999955e+02 2.846791211883202832e-01
3.474699999999999989e+01 5.728799999999999670e+01 1.258719999999999999e+02 -2.360316214509972088e-01
3.476700000000000301e+01 7.764999999999999680e+00 1.077450000000000045e+02 -2.256346088627417951e-02
3.478699999999999903e+01 4.965800000000000125e+01 1.201539999999999964e+02 4.107884915559671946e-01
3.479800000000000182e+01 6.209799999999999898e+01 1.219500000000000028e+02 -9.886458073719078463e-03
3.486599999999999966e+01 4.475099999999999767e+01 1.256790000000000020e+02 -9.257610550777617409e-02
3.486699999999999733e+01 6.055899999999999750e+01 1.105330000000000013e+02 1.596938427837542585e-01
3.487299999999999756e+01 5.542199999999999704e+01 1.114740000000000038e+02 2.408382040565391069e-01
3.488100000000000023e+01 5.937100000000000222e+01 1.083080000000000069e+02 3.458610495765129800e-01
3.489600000000000080e+01 6.170799999999999841e+01 1.011200000000000045e+02 -2.332777221709413651e-01
3.490299999999999869e+01 3.728499999999999659e+01 1.112500000000000000e+02 -7.579442682706530321e-02
3.492199999999999704e+01 6.031799999999999784e+01 1.173760000000000048e+02 2.861038975131800430e-02
3.492399999999999949e+01 4.022599999999999909e+01 1.112939999999999969e+02 1.209204737185389997e-02
3.494100000000000250e+01 5.878600000000000136e+01 1.260169999999999959e+02 1.163262346325923263e-01
3.498100000000000165e+01 4.069500000000000028e+01 1.100510000000000019e+02 9.779132181819794045e-02
3.499399999999999977e+01 3.633100000000000307e+01 1.167159999999999940e+02 -2.021297794171039164e-01
3.499699999999999989e+01 5.024699999999999989e+01 1.215420000000000016e+02 1.644617196498679712e-01
3.501500000000000057e+01 6.080899999999999750e+01 1.226140000000000043e+02 6.479613338309886394e-02
3.502300000000000324e+01 6.071200000000000330e+01 1.045769999999999982e+02 -3.633637805803900667e-02
3.506000000000000227e+01 5.547500000000000142e+01 1.185939999999999941e+02 1.800553988602814071e-01
3.507399999999999807e+01 9.252000000000000668e+00 1.076099999999999994e+02 -2.849992440888127893e-02
3.510799999999999699e+01 4.237899999999999778e+01 1.193419999999999987e+02 -7.965133209006301090e-03
3.513900000000000290e+01 6.683199999999999363e+01 1.240310000000000059e+02 2.322576632275413222e-01
3.514999999999999858e+01 5.104500000000000171e+01 1.087429999999999950e+02 2.974259296018316734e-01
3.518699999999999761e+01 4.234400000000000119e+01 1.179449999999999932e+02 2.797671824987966738e-01
3.519400000000000261e+01 5.305799999999999983e+01 1.185469999999999970e+02 3.238815445280572858e-01
3.520600000000000307e+01 4.193500000000000227e+01 1.215270000000000010e+02 -3.507818399164581713e-01
3.524900000000000233e+01 5.459599999999999653e+01 1.125340000000000060e+02 1.093235019321995294e-01
3.529399999999999693e+01 4.278300000000000125e+01 1.079159999999999968e+02 2.152257472316262688e-01
3.535999999999999943e+01 4.895700000000000074e+01 1.253229999999999933e+02 -2.005679940971413777e-01
3.538499999999999801e+01 5.036699999999999733e+01 1.097409999999999997e+02 2.673406627596572327e-01
3.538799999999999812e+01 4.483700000000000330e+01 9.721599999999999397e+01 -5.341233213260269258e-02
3.540299999999999869e+01 3.807900000000000063e+01 1.076470000000000056e+02 -2.780212717613643192e-01
3.540599999999999881e+01 4.538199999999999790e+01 1.112240000000000038e+02 1.025971782426122331e-01
3.543200000000000216e+01 6.583799999999999386e+01 1.185889999999999986e+02 -9.545341625529951690e-02
3.543299999999999983e+01 3.765899999999999892e+01 1.173040000000000020e+02 -2.460549717393669122e-01
3.543500000000000227e+01 5.523199999999999932e+01 1.102169999999999987e+02 1.712085344085689798e-01
3.543900000000000006e+01 9.603999999999999204e+00 1.061389999999999958e+02 -4.709922597568750452e-02
3.547999999999999687e+01 6.560500000000000398e+01 1.172830000000000013e+02 -2.322272342810715595e-01
3.548100000000000165e+01 4.144400000000000261e+01 1.202720000000000056e+02 -3.408837003715277647e-01
3.548899999999999721e+01 5.981600000000000250e+01 1.025679999999999978e+02 -1.307500527561281378e-01
3.550099999999999767e+01 6.428000000000000114e+01 1.003520000000000039e+02 -2.483730372063252256e-01
3.550900000000000034e+01 4.603300000000000125e+01 9.693999999999999773e+01 -2.245881328443227465e-01
3.553199999999999648e+01 6.743300000000000693e+01 1.129150000000000063e+02 -9.236695697923266724e-02
3.561599999999999966e+01 5.652100000000000080e+01 1.263430000000000035e+02 -2.264355553230322504e-01
3.562100000000000222e+01 5.529399999999999693e+01 1.008719999999999999e+02 -2.563522820653486578e-01
3.564600000000000080e+01 5.416700000000000159e+01 1.191059999999999945e+02 1.374221403850728884e-01
3.565800000000000125e+01 5.335699999999999932e+01 1.237770000000000010e+02 1.089464357122992971e-01
3.569599999999999795e+01 5.175999999999999801e+01 1.189509999999999934e+02 3.295898509850921920e-01
3.570600000000000307e+01 5.997299999999999898e+01 1.038670000000000044e+02 -2.039966375984646196e-01
3.572200000000000131e+01 4.309499999999999886e+01 1.064899999999999949e+02 -1.672889757578030490e-01
3.575099999999999767e+01 6.243599999999999994e+01 1.189479999999999933e+02 -7.481916877643925157e-02
3.577000000000000313e+01 4.285099999999999909e+01 1.286980000000000075e+02 -1.166455956211615713e-01
3.577799999999999869e+01 3.389300000000000068e+01 1.218569999999999993e+02 -1.593769900053957495e-02
3.579200000000000159e+01 4.429399999999999693e+01 1.061230000000000047e+02 -1.771920321860349090e-01
3.579899999999999949e+01 6.227900000000000347e+01 1.083940000000000055e+02 -1.352876107246732684e-01
3.588100000000000023e+01 5.099900000000000233e+01 1.076400000000000006e+02 5.429341078460043005e-03
3.588799999999999812e+01 5.140599999999999881e+01 1.136500000000000057e+02 3.585097077555480793e-01
3.593200000000000216e+01 6.114300000000000068e+01 1.169380000000000024e+02 -8.212377680696594795e-02
3.595499999999999829e+01 6.249799999999999756e+01 1.018659999999999997e+02 -2.299834495021126080e-01
3.596000000000000085e+01 3.752400000000000091e+01 1.106680000000000064e+02 2.127839357016699240e-01
3.598299999999999699e+01 5.196699999999999875e+01 1.286510000000000105e+02 2.876845482547182170e-02
3.599799999999999756e+01 4.213300000000000267e+01 1.057349999999999994e+02 -1.598764779037457617e-01
3.606700000000000017e+01 4.272299999999999898e+01 1.126310000000000002e+02 8.807724487344641140e-02
3.607999999999999829e+01 5.192399999999999949e+01 1.036880000000000024e+02 -2.166012892363392284e-01
3.609700000000000131e+01 6.779200000000000159e+01 1.199030000000000058e+02 -4.501339392794897337e-02
3.609799999999999898e+01 1.122199999999999953e+01 1.038619999999999948e+02 7.888090499351931018e-02
3.610600000000000165e+01 5.112500000000000000e+01 1.166719999999999970e+02 4.048047422592639388e-01
3.612199999999999989e+01 5.622699999999999676e+01 1.177960000000000065e+02 1.488798965956426579e-01
3.612599999999999767e+01 6.512800000000000011e+01 1.212789999999999964e+02 8.909459098950885114e-02
3.612700000000000244e+01 4.177400000000000091e+01 1.276659999999999968e+02 -1.118841708986967054e-01
3.614699999999999847e+01 6.317399999999999949e+01 1.093070000000000022e+02 -9.921409571537054273e-02
3.616899999999999693e+01 1.087199999999999989e+01 1.060979999999999990e+02 2.571977982794979023e-01
3.618299999999999983e+01 5.928499999999999659e+01 1.253149999999999977e+02 3.351837941379108843e-01
3.618500000000000227e+01 5.358200000000000074e+01 1.123520000000000039e+02 2.062177112549350433e-01
3.618699999999999761e+01 6.041899999999999693e+01 1.231039999999999992e+02 6.363665451055974809e-02
3.618900000000000006e+01 5.906000000000000227e+01 1.238010000000000019e+02 6.544167263217595676e-02
3.619400000000000261e+01 3.470300000000000296e+01 1.206479999999999961e+02 -1.644283119320032530e-02
3.621300000000000097e+01 5.049900000000000233e+01 1.125669999999999931e+02 1.817987432668259906e-01
3.621699999999999875e+01 9.656000000000000583e+00 1.085379999999999967e+02 2.027441638609995544e-01
3.621699999999999875e+01 3.961299999999999955e+01 1.118529999999999944e+02 -1.576698505210946122e-01
3.624099999999999966e+01 6.299499999999999744e+01 1.258130000000000024e+02 1.200377354764035898e-01
3.625300000000000011e+01 4.684499999999999886e+01 1.093780000000000001e+02 -1.048004065123355061e-01
3.627300000000000324e+01 5.197399999999999665e+01 1.014539999999999935e+02 -9.164867265793892603e-02
3.632000000000000028e+01 6.379399999999999693e+01 1.011650000000000063e+02 -2.347904458063047317e-01
3.633700000000000330e+01 5.733599999999999852e+01 1.215879999999999939e+02 -4.012827315475955836e-02
3.635999999999999943e+01 6.220600000000000307e+01 1.177159999999999940e+02 -8.204518394291890337e-02
3.636999999999999744e+01 5.421600000000000108e+01 1.100229999999999961e+02 2.490117497682334535e-01
3.638400000000000034e+01 5.793500000000000227e+01 1.051620000000000061e+02 3.672971012268885227e-01
3.639999999999999858e+01 4.507300000000000040e+01 1.032030000000000030e+02 -2.899866397695120002e-01
3.642099999999999937e+01 4.234199999999999875e+01 1.264009999999999962e+02 1.432326792556141704e-01
3.643999999999999773e+01 6.591400000000000148e+01 1.165769999999999982e+02 -2.032417383847374137e-01
3.644200000000000017e+01 1.156600000000000072e+01 1.049950000000000045e+02 3.214875111739193825e-01
3.648499999999999943e+01 5.415999999999999659e+01 1.200010000000000048e+02 3.291081816806287197e-01
3.648799999999999955e+01 6.090800000000000125e+01 1.157060000000000031e+02 1.033793757300958960e-01
3.650600000000000023e+01 4.632800000000000296e+01 1.107990000000000066e+02 7.484926138693177855e-02
3.651599999999999824e+01 3.656600000000000250e+01 1.096239999999999952e+02 2.577540049094025898e-01
3.653799999999999670e+01 6.645300000000000296e+01 1.193139999999999930e+02 -7.040278232592475649e-02
3.654299999999999926e+01 4.747899999999999920e+01 1.117950000000000017e+02 1.884859259047980684e-01
3.657200000000000273e+01 5.546200000000000330e+01 1.165699999999999932e+02 3.479275958655801970e-01
3.657500000000000284e+01 5.128300000000000125e+01 1.178029999999999973e+02 3.144009239762296515e-01
3.658100000000000307e+01 4.513300000000000267e+01 1.283710000000000093e+02 -1.427447885380044544e-02
3.658400000000000318e+01 6.183599999999999852e+01 1.075490000000000066e+02 -6.410148061751975990e-02
3.660799999999999699e+01 5.517799999999999727e+01 9.976800000000000068e+01 -2.729995630016137653e-01
3.662899999999999778e+01 5.274399999999999977e+01 1.135060000000000002e+02 1.872244739676809933e-01
3.663199999999999790e+01 3.800600000000000023e+01 1.076839999999999975e+02 -2.822143109896396163e-01
3.666199999999999903e+01 6.643999999999999773e+01 1.127159999999999940e+02 -1.133339770382953138e-01
3.667300000000000182e+01 3.861500000000000199e+01 1.109009999999999962e+02 -9.477713718002617194e-02
3.668500000000000227e+01 4.668299999999999983e+01 1.166860000000000070e+02 3.872016508837380910e-01
3.668999999999999773e+01 4.660399999999999920e+01 9.674800000000000466e+01 -1.215703317586494803e-01
3.671900000000000119e+01 4.112899999999999778e+01 1.144249999999999972e+02 3.214253984799261832e-01
3.672899999999999920e+01 5.747800000000000153e+01 1.146919999999999931e+02 3.266782687360198500e-01
3.673799999999999955e+01 5.339900000000000091e+01 1.110879999999999939e+02 1.717126807238856523e-01
3.679200000000000159e+01 5.197899999999999920e+01 1.025690000000000026e+02 -1.477197351835659589e-01
3.681300000000000239e+01 4.896099999999999852e+01 1.066310000000000002e+02 1.065997107300952484e-01
3.682000000000000028e+01 3.886099999999999710e+01 1.198820000000000050e+02 -1.204519376452994200e-01
3.685900000000000176e+01 5.586599999999999966e+01 1.064350000000000023e+02 4.595669203189590990e-02
3.687700000000000244e+01 5.245100000000000051e+01 1.238599999999999994e+02 3.300720799369131209e-01
3.688100000000000023e+01 4.389000000000000057e+01 1.287210000000000036e+02 1.620570795159663804e-02
3.688499999999999801e+01 5.919200000000000017e+01 1.044440000000000026e+02 -2.942298373254556565e-01
3.690100000000000335e+01 3.793299999999999983e+01 1.169629999999999939e+02 -3.071043940950730078e-01
3.694700000000000273e+01 6.548999999999999488e+01 1.204330000000000069e+02 -6.573193144028068036e-02
3.695700000000000074e+01 1.390099999999999980e+01 1.041530000000000058e+02 3.471991097834357110e-01
3.704299999999999926e+01 4.846699999999999875e+01 1.249950000000000045e+02 2.580057689890860040e-01
3.706000000000000227e+01 5.017300000000000182e+01 1.075310000000000059e+02 4.134821477737418011e-02
3.709400000000000119e+01 4.619599999999999795e+01 1.033160000000000025e+02 -2.864339885073709513e-01
3.711200000000000188e+01 4.175900000000000034e+01 1.130930000000000035e+02 -2.665843414697250877e-02
3.711599999999999966e+01 6.552700000000000102e+01 1.079129999999999967e+02 4.493245331704033563e-02
3.713499999999999801e+01 3.807399999999999807e+01 1.219030000000000058e+02 -2.231063634242557922e-02
3.713499999999999801e+01 6.836899999999999977e+01 1.206689999999999969e+02 -6.167474150524646787e-02
3.714500000000000313e+01 4.668200000000000216e+01 1.306539999999999964e+02 -1.695325637889851314e-03
