3.653300000000000125e+01 2.890099999999999980e+01 1.752599999999999980e+01 -4.094957512846050807e-02
3.654599999999999937e+01 -6.350999999999999979e+00 2.075100000000000122e+01 -2.245669560210946381e-01
3.654599999999999937e+01 6.350999999999999979e+00 5.814900000000000091e+01 -2.245669572702741201e-01
3.655899999999999750e+01 -1.082099999999999973e+01 3.693099999999999739e+01 3.983880791062600901e-02
3.655899999999999750e+01 1.082099999999999973e+01 4.196900000000000119e+01 3.983879476287581489e-02
3.656700000000000017e+01 -3.338600000000000279e+01 3.766400000000000148e+01 5.484585883093836059e-03
3.656700000000000017e+01 3.338600000000000279e+01 4.123599999999999710e+01 5.484589529784341180e-03
3.657500000000000284e+01 -5.700000000000000205e-02 1.246000000000000085e+01 2.890083093161611716e-01
3.657500000000000284e+01 5.700000000000000205e-02 6.643999999999999773e+01 2.890083290220132328e-01
3.661099999999999710e+01 -1.959400000000000119e+01 2.492200000000000060e+01 3.680700410083261737e-02
3.661099999999999710e+01 1.959400000000000119e+01 5.397800000000000153e+01 3.680701442122626121e-02
3.661399999999999721e+01 -5.466999999999999638e+00 1.848400000000000176e+01 1.020901388361044743e-01
3.661399999999999721e+01 5.466999999999999638e+00 6.041599999999999682e+01 1.020901574184745197e-01
3.662299999999999756e+01 -1.025500000000000078e+01 6.820999999999999730e+00 -2.340785279407509023e-01
3.662299999999999756e+01 1.025500000000000078e+01 7.207899999999999352e+01 -2.340785274855903819e-01
3.663300000000000267e+01 -1.678000000000000114e+01 5.976200000000000045e+01 1.052143427965335637e-01
3.663300000000000267e+01 -2.748000000000000220e+00 5.834700000000000131e+01 1.693869221375508549e-01
3.663300000000000267e+01 2.748000000000000220e+00 2.055300000000000082e+01 1.693869188458624608e-01
3.663300000000000267e+01 1.678000000000000114e+01 1.913800000000000168e+01 1.052143395540412474e-01
3.663499999999999801e+01 -3.838999999999999968e+00 2.028800000000000026e+01 2.221961515674892029e-01
3.663499999999999801e+01 3.838999999999999968e+00 5.861200000000000188e+01 2.221961632740133974e-01
3.663900000000000290e+01 -3.325800000000000267e+01 4.338499999999999801e+01 1.145193224497715878e-01
3.663900000000000290e+01 3.325800000000000267e+01 3.551500000000000057e+01 1.145193578810550783e-01
3.664300000000000068e+01 -1.594200000000000017e+01 3.175300000000000011e+01 -8.847013058869290791e-02
3.664300000000000068e+01 1.594200000000000017e+01 4.714699999999999847e+01 -8.847014349892877438e-02
3.666599999999999682e+01 -2.662199999999999989e+01 4.307600000000000051e+01 1.399077446273769010e-01
3.666599999999999682e+01 2.662199999999999989e+01 3.582399999999999807e+01 1.399077089818271946e-01
3.668399999999999750e+01 -1.461299999999999955e+01 5.384100000000000108e+01 -7.694685186051530845e-02
3.668399999999999750e+01 1.461299999999999955e+01 2.505900000000000105e+01 -7.694683859684789407e-02
3.668599999999999994e+01 -1.509999999999999964e+01 4.397699999999999676e+01 -2.262838848439468475e-01
3.668599999999999994e+01 1.509999999999999964e+01 3.492300000000000182e+01 -2.262838887984187086e-01
3.668999999999999773e+01 -1.417200000000000060e+01 1.278999999999999915e+01 -2.187382759368910745e-01
3.668999999999999773e+01 1.417200000000000060e+01 6.610999999999999943e+01 -2.187382719151442778e-01
3.670499999999999829e+01 -3.126500000000000057e+01 3.889600000000000080e+01 -9.626007935901706447e-02
3.670499999999999829e+01 3.126500000000000057e+01 4.000399999999999778e+01 -9.626009907901456053e-02
3.673100000000000165e+01 -1.204100000000000037e+01 3.692399999999999949e+01 2.411935933330993515e-02
3.673100000000000165e+01 1.204100000000000037e+01 4.197599999999999909e+01 2.411934768217857683e-02
3.673499999999999943e+01 -2.740200000000000102e+01 4.178799999999999670e+01 -1.022333890347111307e-01
3.673499999999999943e+01 2.740200000000000102e+01 3.711200000000000188e+01 -1.022333928815701426e-01
3.676400000000000290e+01 -1.297300000000000075e+01 5.066599999999999682e+01 -5.924122670643818672e-02
3.676400000000000290e+01 1.297300000000000075e+01 2.823400000000000176e+01 -5.924123386347214526e-02
3.679099999999999682e+01 -2.625000000000000000e+01 3.742000000000000171e+01 -9.559099322895300843e-02
3.679099999999999682e+01 2.625000000000000000e+01 4.147999999999999687e+01 -9.559099395850202685e-02
3.679800000000000182e+01 -1.644099999999999895e+01 3.032600000000000051e+01 -1.403926894959842131e-01
3.679800000000000182e+01 1.644099999999999895e+01 4.857399999999999807e+01 -1.403926932523926197e-01
3.682900000000000063e+01 -2.895000000000000018e+00 6.331300000000000239e+01 2.225419625812296437e-02
3.682900000000000063e+01 2.895000000000000018e+00 1.558699999999999974e+01 2.225419357324899886e-02
3.683299999999999841e+01 -2.777100000000000080e+01 3.766400000000000148e+01 3.314265478323760034e-02
3.683299999999999841e+01 2.777100000000000080e+01 4.123599999999999710e+01 3.314265527155810936e-02
3.685399999999999920e+01 -1.066900000000000048e+01 5.528699999999999903e+01 -1.923851786626503413e-01
3.685399999999999920e+01 1.066900000000000048e+01 2.361299999999999955e+01 -1.923851851010762448e-01
3.685699999999999932e+01 -2.514199999999999946e+01 3.079200000000000159e+01 -1.069141848472435069e-01
3.685699999999999932e+01 2.514199999999999946e+01 4.810799999999999699e+01 -1.069141841191350029e-01
3.685900000000000176e+01 -3.350000000000000089e+00 1.088400000000000034e+01 6.687295227826442479e-02
3.685900000000000176e+01 3.350000000000000089e+00 6.801600000000000534e+01 6.687295988374028499e-02
3.686999999999999744e+01 -1.812000000000000099e+01 1.045899999999999963e+01 1.011950546098932743e-02
3.686999999999999744e+01 1.812000000000000099e+01 6.844100000000000250e+01 1.011952913600815129e-02
3.688000000000000256e+01 -3.199899999999999878e+01 4.255799999999999983e+01 1.533064394433840683e-01
3.688000000000000256e+01 3.199899999999999878e+01 3.634199999999999875e+01 1.533064744749266517e-01
3.690800000000000125e+01 -2.383599999999999852e+01 2.416900000000000048e+01 -7.881737927203216754e-02
3.690800000000000125e+01 2.383599999999999852e+01 5.473100000000000165e+01 -7.881737981806531679e-02
3.693099999999999739e+01 -2.871900000000000119e+01 2.521600000000000108e+01 -7.550146950484235009e-02
3.693099999999999739e+01 2.871900000000000119e+01 5.368399999999999750e+01 -7.550146934507716290e-02
3.695000000000000284e+01 -8.590999999999999304e+00 1.561599999999999966e+01 4.362224859569217017e-01
3.695000000000000284e+01 8.590999999999999304e+00 6.328399999999999892e+01 4.362224862013984739e-01
3.695600000000000307e+01 -1.111800000000000033e+01 6.378600000000000136e+01 1.641389202957561355e-01
3.695600000000000307e+01 1.111800000000000033e+01 1.511400000000000077e+01 1.641389279586039085e-01
3.695700000000000074e+01 -2.008999999999999986e+01 4.111599999999999966e+01 1.619723858634307956e-01
3.695700000000000074e+01 2.008999999999999986e+01 3.778399999999999892e+01 1.619723780643240740e-01
3.696500000000000341e+01 -5.248000000000000220e+00 1.400600000000000023e+01 2.427306415880413071e-01
3.696500000000000341e+01 5.248000000000000220e+00 6.489400000000000546e+01 2.427306344394933590e-01
3.696999999999999886e+01 -1.681099999999999994e+01 5.834599999999999653e+01 1.102767131243908294e-01
3.696999999999999886e+01 1.681099999999999994e+01 2.055399999999999849e+01 1.102767056253377842e-01
3.698100000000000165e+01 -3.745000000000000284e+01 3.507399999999999807e+01 -1.362289199447528631e-01
3.698100000000000165e+01 3.745000000000000284e+01 4.382600000000000051e+01 -1.362288750357300571e-01
3.698700000000000188e+01 -1.905499999999999972e+01 1.156499999999999950e+01 -3.919532635281474525e-02
3.698700000000000188e+01 1.905499999999999972e+01 6.733499999999999375e+01 -3.919530004722697469e-02
3.699199999999999733e+01 -2.349599999999999866e+01 3.765999999999999659e+01 1.693466391679794569e-01
3.699199999999999733e+01 -9.477000000000000313e+00 5.875900000000000034e+01 -1.924159116133193070e-01
3.699199999999999733e+01 9.477000000000000313e+00 2.014099999999999824e+01 -1.924159191844810601e-01
3.699199999999999733e+01 2.349599999999999866e+01 4.124000000000000199e+01 1.693466381665419684e-01
3.699399999999999977e+01 -3.207600000000000051e+01 6.121500000000000341e+01 -2.367681746374168950e-01
3.699399999999999977e+01 3.207600000000000051e+01 1.768499999999999872e+01 -2.367681814445913024e-01
3.701899999999999835e+01 -2.478900000000000148e+01 2.645200000000000173e+01 -7.823761290888522901e-02
3.701899999999999835e+01 -1.126900000000000013e+01 1.068200000000000038e+01 -2.296785407570259285e-01
3.701899999999999835e+01 1.126900000000000013e+01 6.821800000000000352e+01 -2.296785464961709489e-01
3.701899999999999835e+01 2.478900000000000148e+01 5.244800000000000040e+01 -7.823761247125565754e-02
3.703300000000000125e+01 -1.048399999999999999e+01 4.784400000000000119e+01 -1.803575489356233630e-01
3.703300000000000125e+01 1.048399999999999999e+01 3.105600000000000094e+01 -1.803575694728909162e-01
3.703399999999999892e+01 -1.069400000000000084e+01 1.417300000000000004e+01 1.628982545463018294e-01
3.703399999999999892e+01 1.069400000000000084e+01 6.472700000000000387e+01 1.628982565135635996e-01
3.706199999999999761e+01 -2.103800000000000026e+01 2.998000000000000043e+01 -1.106886057351744446e-01
3.706199999999999761e+01 2.103800000000000026e+01 4.892000000000000171e+01 -1.106886043977522993e-01
3.706499999999999773e+01 -2.606299999999999883e+01 2.605499999999999972e+01 -7.710173596270350482e-02
3.706499999999999773e+01 2.606299999999999883e+01 5.284499999999999886e+01 -7.710173568917394471e-02
3.707800000000000296e+01 -8.916999999999999815e+00 7.182999999999999829e+00 -2.373644414581990991e-01
3.707800000000000296e+01 8.916999999999999815e+00 7.171699999999999875e+01 -2.373644403863561791e-01
3.709300000000000352e+01 -1.188599999999999923e+01 1.206499999999999950e+01 1.193054629487659002e-01
3.709300000000000352e+01 1.188599999999999923e+01 6.683499999999999375e+01 1.193054797049702548e-01
3.709899999999999665e+01 -3.554200000000000159e+01 3.358299999999999841e+01 -1.507363165537357053e-01
3.709899999999999665e+01 3.554200000000000159e+01 4.531700000000000017e+01 -1.507363453496990136e-01
3.711099999999999710e+01 -2.846000000000000085e+01 2.659400000000000119e+01 -7.543818412926800443e-02
3.711099999999999710e+01 2.846000000000000085e+01 5.230599999999999739e+01 -7.543818396338289323e-02
3.712299999999999756e+01 -1.707700000000000173e+01 3.838300000000000267e+01 7.954223117230500850e-02
3.712299999999999756e+01 1.707700000000000173e+01 4.051700000000000301e+01 7.954227221385132274e-02
3.719100000000000250e+01 -7.245000000000000107e+00 5.453999999999999737e+00 -1.784212370609589704e-01
3.719100000000000250e+01 7.245000000000000107e+00 7.344599999999999795e+01 -1.784212309606219571e-01
3.719400000000000261e+01 -2.891400000000000148e+01 5.051899999999999835e+01 -1.066206578507906261e-01
3.719400000000000261e+01 2.891400000000000148e+01 2.838100000000000023e+01 -1.066206461505146558e-01
3.720400000000000063e+01 -1.648699999999999832e+01 6.213300000000000267e+01 4.354716388636483554e-02
3.720400000000000063e+01 -1.634900000000000020e+01 4.116899999999999693e+01 1.386079892007575356e-03
3.720400000000000063e+01 1.634900000000000020e+01 3.773100000000000165e+01 1.386074041128017818e-03
3.720400000000000063e+01 1.648699999999999832e+01 1.676699999999999946e+01 4.354718527044172671e-02
3.720799999999999841e+01 -2.458200000000000074e+01 4.892099999999999937e+01 -1.863442511833660054e-01
3.720799999999999841e+01 2.458200000000000074e+01 2.997899999999999920e+01 -1.863442410541428229e-01
3.721900000000000119e+01 -2.142999999999999794e+00 2.845799999999999841e+01 5.162876131074093516e-02
3.721900000000000119e+01 2.142999999999999794e+00 5.044200000000000017e+01 5.162875635601119756e-02
3.723799999999999955e+01 -3.298499999999999943e+01 6.041899999999999693e+01 -2.203863843336088257e-01
3.723799999999999955e+01 3.298499999999999943e+01 1.848100000000000165e+01 -2.203863876784648013e-01
3.726299999999999812e+01 -1.596999999999999975e+00 1.597899999999999920e+01 2.241007352646592898e-01
3.726299999999999812e+01 1.596999999999999975e+00 6.292099999999999937e+01 2.241007191956785327e-01
3.727600000000000335e+01 -1.840899999999999892e+01 5.340899999999999892e+01 -7.126559923986000751e-03
3.727600000000000335e+01 1.840899999999999892e+01 2.549099999999999966e+01 -7.126554958436182204e-03
3.727900000000000347e+01 -2.516000000000000014e+01 6.112100000000000222e+01 -1.478435091032822279e-01
3.727900000000000347e+01 2.516000000000000014e+01 1.777899999999999991e+01 -1.478435076820807936e-01
3.728199999999999648e+01 -9.705999999999999517e+00 6.392300000000000182e+01 -2.212961879708467694e-01
3.728199999999999648e+01 9.705999999999999517e+00 1.497700000000000031e+01 -2.212961874052309652e-01
3.728600000000000136e+01 -2.821000000000000085e+01 5.599499999999999744e+01 -4.921672630864405706e-02
3.728600000000000136e+01 2.821000000000000085e+01 2.290500000000000114e+01 -4.921670716686545738e-02
3.730899999999999750e+01 -9.651999999999999247e+00 4.161699999999999733e+01 -3.146787511012160699e-01
3.730899999999999750e+01 9.651999999999999247e+00 3.728300000000000125e+01 -3.146787515912531918e-01
3.732999999999999829e+01 -1.721199999999999974e+01 3.695100000000000051e+01 -2.121574853256561616e-02
3.732999999999999829e+01 1.721199999999999974e+01 4.194899999999999807e+01 -2.121569803301982457e-02
3.733100000000000307e+01 -2.447800000000000153e+01 4.195799999999999841e+01 5.005887493174270182e-03
3.733100000000000307e+01 2.447800000000000153e+01 3.694200000000000017e+01 5.005896847698363891e-03
3.733500000000000085e+01 -4.801000000000000156e+00 6.193200000000000216e+01 -1.512726508415120352e-01
3.733500000000000085e+01 4.801000000000000156e+00 1.696799999999999997e+01 -1.512726556213730422e-01
3.733599999999999852e+01 -2.552499999999999858e+01 3.857500000000000284e+01 -1.320841940321554886e-01
3.733599999999999852e+01 2.552499999999999858e+01 4.032500000000000284e+01 -1.320841779150745132e-01
3.735300000000000153e+01 -1.532499999999999929e+01 3.543299999999999983e+01 -1.395974869047042211e-01
3.735300000000000153e+01 1.532499999999999929e+01 4.346699999999999875e+01 -1.395974866806275194e-01
3.736099999999999710e+01 -1.751899999999999835e+01 5.232099999999999795e+01 2.511317351642844420e-01
3.736099999999999710e+01 1.751899999999999835e+01 2.657900000000000063e+01 2.511317365052939676e-01
3.737199999999999989e+01 -3.349499999999999744e+01 4.437700000000000244e+01 9.749499390761523498e-02
3.737199999999999989e+01 3.349499999999999744e+01 3.452300000000000324e+01 9.749503354287389345e-02
3.738300000000000267e+01 -1.193399999999999928e+01 4.814500000000000313e+01 -9.520929690473244056e-02
3.738300000000000267e+01 1.193399999999999928e+01 3.075499999999999901e+01 -9.520931350060263254e-02
3.739300000000000068e+01 -2.419399999999999906e+01 3.859199999999999875e+01 -6.851479845332053217e-03
3.739300000000000068e+01 2.419399999999999906e+01 4.030799999999999983e+01 -6.851486237498999148e-03
3.740400000000000347e+01 -2.467099999999999937e+01 4.431700000000000017e+01 5.758346739296409111e-02
3.740400000000000347e+01 2.467099999999999937e+01 3.458299999999999841e+01 5.758343010258970551e-02
3.742900000000000205e+01 -2.071699999999999875e+01 3.247099999999999653e+01 4.869853248931738793e-02
3.742900000000000205e+01 2.071699999999999875e+01 4.642900000000000205e+01 4.869853644671204990e-02
3.744899999999999807e+01 -2.100999999999999979e+00 1.150500000000000078e+01 2.285349980957696037e-01
3.744899999999999807e+01 2.100999999999999979e+00 6.739499999999999602e+01 2.285350126725906317e-01
3.745799999999999841e+01 -9.649999999999999689e-01 2.763100000000000023e+01 -9.307368577138276644e-02
3.745799999999999841e+01 9.649999999999999689e-01 5.126899999999999835e+01 -9.307368398541629451e-02
3.746200000000000330e+01 -4.333999999999999631e+00 6.047699999999999676e+01 -7.371394709519379917e-02
3.746200000000000330e+01 4.333999999999999631e+00 1.842299999999999827e+01 -7.371394285883545172e-02
3.748700000000000188e+01 -3.591700000000000159e+01 3.828300000000000125e+01 5.936488606876468704e-02
3.748700000000000188e+01 3.591700000000000159e+01 4.061699999999999733e+01 5.936490493419074171e-02
3.750600000000000023e+01 -1.223300000000000054e+01 9.637000000000000455e+00 -3.499999999999999778e-01
3.750600000000000023e+01 1.223300000000000054e+01 6.926300000000000523e+01 -3.499999999999999223e-01
3.751200000000000045e+01 -6.607000000000000206e+00 9.798999999999999488e+00 -5.366425546330218233e-02
3.751200000000000045e+01 6.607000000000000206e+00 6.910099999999999909e+01 -5.366426454765059473e-02
3.751599999999999824e+01 -2.555000000000000071e+01 3.305700000000000216e+01 2.495376622489482027e-02
3.751599999999999824e+01 2.555000000000000071e+01 4.584300000000000352e+01 2.495377547988394257e-02
3.753399999999999892e+01 -1.769399999999999906e+01 4.071800000000000352e+01 7.188010854477008826e-02
3.753399999999999892e+01 1.769399999999999906e+01 3.818200000000000216e+01 7.188009936608028005e-02
3.753799999999999670e+01 -1.817800000000000082e+01 5.796500000000000341e+01 1.649158782410484192e-01
3.753799999999999670e+01 1.817800000000000082e+01 2.093499999999999872e+01 1.649158446953762902e-01
3.754899999999999949e+01 -9.948000000000000398e+00 3.709700000000000131e+01 -2.518271640041134796e-01
3.754899999999999949e+01 9.948000000000000398e+00 4.180299999999999727e+01 -2.518271598189368854e-01
3.756199999999999761e+01 -2.088899999999999935e+01 1.351200000000000045e+01 -5.791662835020098404e-02
3.756199999999999761e+01 2.088899999999999935e+01 6.538800000000000523e+01 -5.791662512376904992e-02
3.756799999999999784e+01 -1.648699999999999832e+01 6.065899999999999892e+01 8.973240752400632458e-02
3.756799999999999784e+01 1.648699999999999832e+01 1.824099999999999966e+01 8.973241174476193072e-02
3.757000000000000028e+01 -1.572700000000000031e+01 2.952100000000000080e+01 -1.526880438463676659e-01
3.757000000000000028e+01 1.572700000000000031e+01 4.937899999999999778e+01 -1.526880411539340565e-01
3.757999999999999829e+01 -2.437399999999999878e+01 2.747200000000000131e+01 -7.770905457064619659e-02
3.757999999999999829e+01 2.437399999999999878e+01 5.142799999999999727e+01 -7.770905419218490651e-02
3.758200000000000074e+01 -8.200000000000000344e-02 6.575100000000000477e+01 2.434423601559099204e-01
3.758200000000000074e+01 8.200000000000000344e-02 1.314899999999999913e+01 2.434423666043873946e-01
3.758899999999999864e+01 -7.911999999999999922e+00 1.184399999999999942e+01 -3.086443232303782702e-01
3.758899999999999864e+01 7.911999999999999922e+00 6.705599999999999739e+01 -3.086443261187552523e-01
3.759899999999999665e+01 -1.400099999999999945e+01 4.164500000000000313e+01 -2.205952474847413247e-01
3.759899999999999665e+01 1.400099999999999945e+01 3.725500000000000256e+01 -2.205952632819959403e-01
3.762400000000000233e+01 -2.543499999999999872e+01 4.310300000000000153e+01 3.974737350083039703e-03
3.762400000000000233e+01 2.543499999999999872e+01 3.579699999999999704e+01 3.974711158690238597e-03
3.763499999999999801e+01 -1.493800000000000061e+01 3.205700000000000216e+01 -4.454907055794690013e-02
3.763499999999999801e+01 1.493800000000000061e+01 4.684300000000000352e+01 -4.454908340062719435e-02
3.763700000000000045e+01 -2.957600000000000051e+01 5.927900000000000347e+01 -1.247214537138140178e-01
3.763700000000000045e+01 2.957600000000000051e+01 1.962099999999999866e+01 -1.247214752191311976e-01
3.765899999999999892e+01 -2.724099999999999966e+01 4.099099999999999966e+01 -3.673044539639883001e-03
3.765899999999999892e+01 2.724099999999999966e+01 3.790899999999999892e+01 -3.673028483327283635e-03
3.766599999999999682e+01 -9.692999999999999616e+00 5.998199999999999932e+01 -1.951031905389144228e-01
3.766599999999999682e+01 9.692999999999999616e+00 1.891799999999999926e+01 -1.951031904897961577e-01
3.769200000000000017e+01 -3.383999999999999897e+00 1.985200000000000031e+01 1.632998278305832496e-01
3.769200000000000017e+01 3.383999999999999897e+00 5.904800000000000182e+01 1.632998394696393574e-01
3.769700000000000273e+01 -3.665999999999999925e+00 6.289800000000000324e+01 -1.608376731492161815e-01
3.769700000000000273e+01 3.665999999999999925e+00 1.600199999999999889e+01 -1.608376850330019980e-01
3.770499999999999829e+01 -2.583099999999999952e+01 6.340800000000000125e+01 -1.845156626016561940e-01
3.770499999999999829e+01 2.583099999999999952e+01 1.549200000000000088e+01 -1.845156553560843571e-01
3.770700000000000074e+01 -2.806400000000000006e+01 4.658100000000000307e+01 -2.175837744999641887e-01
3.770700000000000074e+01 2.806400000000000006e+01 3.231900000000000261e+01 -2.175837573525131463e-01
3.771099999999999852e+01 -1.356700000000000017e+01 4.639999999999999858e+01 -2.533207044338879887e-01
3.771099999999999852e+01 1.356700000000000017e+01 3.250000000000000000e+01 -2.533206907728767776e-01
3.771900000000000119e+01 -1.443299999999999983e+01 4.403499999999999659e+01 -2.521780395944939190e-01
3.771900000000000119e+01 1.443299999999999983e+01 3.486500000000000199e+01 -2.521780490992406865e-01
3.772899999999999920e+01 -2.927400000000000091e+01 5.688100000000000023e+01 1.625950123226236610e-01
3.772899999999999920e+01 2.927400000000000091e+01 2.201899999999999835e+01 1.625950068863289966e-01
3.774000000000000199e+01 -2.292999999999999972e+01 1.257399999999999984e+01 -1.446175744594657697e-02
3.774000000000000199e+01 -1.424200000000000088e+01 1.342900000000000027e+01 -8.720820766492476395e-02
3.774000000000000199e+01 1.424200000000000088e+01 6.547100000000000364e+01 -8.720818227564858249e-02
3.774000000000000199e+01 2.292999999999999972e+01 6.632599999999999341e+01 -1.446175527831742615e-02
3.774600000000000222e+01 -1.614199999999999946e+01 2.814099999999999824e+01 -2.079741351814286821e-01
3.774600000000000222e+01 1.614199999999999946e+01 5.075900000000000034e+01 -2.079741174422507777e-01
3.776400000000000290e+01 -1.945499999999999829e+01 3.299199999999999733e+01 5.702179218698531088e-02
3.776400000000000290e+01 1.945499999999999829e+01 4.590800000000000125e+01 5.702180688226315963e-02
3.777100000000000080e+01 -2.709400000000000119e+01 2.682499999999999929e+01 9.765424134940223211e-02
3.777100000000000080e+01 2.709400000000000119e+01 5.207500000000000284e+01 9.765423821123449255e-02
3.777799999999999869e+01 -2.922700000000000031e+01 4.945400000000000063e+01 -1.176197921385074424e-01
3.777799999999999869e+01 2.922700000000000031e+01 2.944600000000000151e+01 -1.176197802306135631e-01
3.779599999999999937e+01 -2.485600000000000165e+01 6.251400000000000290e+01 -1.444011057967030109e-01
3.779599999999999937e+01 2.485600000000000165e+01 1.638599999999999923e+01 -1.444010957342668211e-01
3.780700000000000216e+01 -1.784700000000000131e+01 3.921699999999999875e+01 6.752529297985469803e-02
3.780700000000000216e+01 1.784700000000000131e+01 3.968299999999999983e+01 6.752533325349294180e-02
3.782300000000000040e+01 -2.854400000000000048e+01 5.154299999999999926e+01 -7.179235663050955243e-03
3.782300000000000040e+01 2.854400000000000048e+01 2.735699999999999932e+01 -7.179256673007726117e-03
3.783200000000000074e+01 -2.919099999999999895e+01 6.065800000000000125e+01 -1.053213188572163367e-01
3.783200000000000074e+01 2.919099999999999895e+01 1.824200000000000088e+01 -1.053213467765190259e-01
3.783599999999999852e+01 -1.182499999999999929e+01 5.506300000000000239e+01 -8.906807110369276137e-02
3.783599999999999852e+01 1.182499999999999929e+01 2.383699999999999974e+01 -8.906804795818659692e-02
3.787400000000000233e+01 -3.478999999999999915e+01 3.435699999999999932e+01 -1.289271577706960492e-01
3.787400000000000233e+01 3.478999999999999915e+01 4.454299999999999926e+01 -1.289271587200096214e-01
3.788300000000000267e+01 -1.249399999999999977e+01 5.045000000000000284e+01 -2.250883141659552056e-01
3.788300000000000267e+01 1.249399999999999977e+01 2.844999999999999929e+01 -2.250883325489385078e-01
3.789099999999999824e+01 -2.870700000000000074e+01 6.628700000000000614e+01 -1.791723988027311976e-01
3.789099999999999824e+01 2.870700000000000074e+01 1.261299999999999955e+01 -1.791724027834242228e-01
3.789399999999999835e+01 -3.149500000000000099e+01 3.945400000000000063e+01 -4.067767725176162086e-02
3.789399999999999835e+01 3.149500000000000099e+01 3.944599999999999795e+01 -4.067771187907081448e-02
3.790100000000000335e+01 -3.488100000000000023e+01 3.558400000000000318e+01 2.374712452204926633e-02
3.790100000000000335e+01 3.488100000000000023e+01 4.331600000000000250e+01 2.374713476956661490e-02
3.793099999999999739e+01 -2.283699999999999974e+01 5.361699999999999733e+01 3.507671538674291822e-01
3.793099999999999739e+01 2.283699999999999974e+01 2.528300000000000125e+01 3.507671490675765003e-01
3.793200000000000216e+01 -2.363599999999999923e+01 4.642199999999999704e+01 -1.581067395354820992e-01
3.793200000000000216e+01 2.363599999999999923e+01 3.247800000000000153e+01 -1.581067536820628949e-01
3.795900000000000318e+01 -2.214499999999999957e+01 4.605700000000000216e+01 -1.812080050303281065e-01
3.795900000000000318e+01 2.214499999999999957e+01 3.284300000000000352e+01 -1.812080142956800366e-01
3.796900000000000119e+01 -1.598900000000000077e+01 3.628399999999999892e+01 9.194045544893601762e-02
3.796900000000000119e+01 1.598900000000000077e+01 4.261599999999999966e+01 9.194048630906373476e-02
3.796999999999999886e+01 -2.354100000000000037e+01 3.983800000000000097e+01 -3.354352157762931913e-02
3.796999999999999886e+01 2.354100000000000037e+01 3.906199999999999761e+01 -3.354350212122220870e-02
3.797200000000000131e+01 -2.874800000000000111e+01 5.829299999999999926e+01 2.112419321349303658e-01
3.797200000000000131e+01 2.874800000000000111e+01 2.060699999999999932e+01 2.112419281427450612e-01
3.798899999999999721e+01 -1.994600000000000151e+01 2.978500000000000014e+01 -1.387677424061862230e-01
3.798899999999999721e+01 1.994600000000000151e+01 4.911500000000000199e+01 -1.387677487807600640e-01
3.801299999999999812e+01 -1.697999999999999954e+00 5.865999999999999659e+01 1.511950964047185583e-02
3.801299999999999812e+01 1.697999999999999954e+00 2.023999999999999844e+01 1.511951358117722723e-02
3.803999999999999915e+01 -6.578000000000000291e+00 2.066600000000000037e+01 1.702268984935850771e-01
3.803999999999999915e+01 6.578000000000000291e+00 5.823400000000000176e+01 1.702269070907451165e-01
3.804200000000000159e+01 -2.183299999999999841e+01 3.302199999999999847e+01 4.216423963204889852e-02
3.804200000000000159e+01 2.183299999999999841e+01 4.587800000000000011e+01 4.216424282179514343e-02
3.805799999999999983e+01 -2.097599999999999909e+01 4.982300000000000040e+01 2.317730140234630642e-01
3.805799999999999983e+01 2.097599999999999909e+01 2.907700000000000173e+01 2.317730157750776121e-01
3.807999999999999829e+01 -1.535299999999999976e+01 4.110799999999999699e+01 7.912659462455040593e-02
3.807999999999999829e+01 -7.445000000000000284e+00 6.946200000000000330e+01 -1.562506108913616909e-01
3.807999999999999829e+01 7.445000000000000284e+00 9.438000000000000611e+00 -1.562506099507305346e-01
3.807999999999999829e+01 1.535299999999999976e+01 3.779200000000000159e+01 7.912660773779786605e-02
3.811899999999999977e+01 -1.836299999999999955e+01 2.730699999999999861e+01 -3.224009375801870775e-02
3.811899999999999977e+01 1.836299999999999955e+01 5.159300000000000352e+01 -3.224009439248595038e-02
3.812400000000000233e+01 -9.294999999999999929e+00 6.487199999999999989e+01 -2.189962785769744846e-01
3.812400000000000233e+01 9.294999999999999929e+00 1.402800000000000047e+01 -2.189962753946486096e-01
3.813900000000000290e+01 -2.310999999999999943e+01 2.422200000000000131e+01 -2.185167173343887936e-01
3.813900000000000290e+01 2.310999999999999943e+01 5.467799999999999727e+01 -2.185167280037713655e-01
3.814399999999999835e+01 -1.282199999999999918e+01 4.083899999999999864e+01 -2.125593067630402455e-01
3.814399999999999835e+01 1.282199999999999918e+01 3.806099999999999994e+01 -2.125593203680942178e-01
3.815400000000000347e+01 -8.733000000000000540e+00 4.172299999999999898e+01 -3.069742088271241176e-01
3.815400000000000347e+01 8.733000000000000540e+00 3.717699999999999960e+01 -3.069742094397358567e-01
3.816700000000000159e+01 -8.423999999999999488e+00 1.574200000000000088e+01 4.397784116011645983e-01
3.816700000000000159e+01 8.423999999999999488e+00 6.315800000000000125e+01 4.397784117786313618e-01
3.817699999999999960e+01 -2.494600000000000151e+01 3.042599999999999838e+01 2.008789403403400328e-02
3.817699999999999960e+01 2.494600000000000151e+01 4.847399999999999665e+01 2.008789132784096279e-02
3.817999999999999972e+01 -2.459499999999999886e+01 6.002700000000000102e+01 -1.290044708316531175e-01
3.817999999999999972e+01 -7.931000000000000050e+00 4.268500000000000227e+01 -2.913568157510647016e-01
3.817999999999999972e+01 7.931000000000000050e+00 3.621500000000000341e+01 -2.913568162331595657e-01
3.817999999999999972e+01 2.459499999999999886e+01 1.887300000000000111e+01 -1.290044811467680463e-01
3.818399999999999750e+01 -2.446699999999999875e+01 4.093699999999999761e+01 1.531560936585662190e-02
3.818399999999999750e+01 2.446699999999999875e+01 3.796300000000000097e+01 1.531562771076550901e-02
3.821300000000000097e+01 -3.198799999999999955e+01 4.183400000000000318e+01 -6.429738614249048967e-02
3.821300000000000097e+01 3.198799999999999955e+01 3.706600000000000250e+01 -6.429738870213483337e-02
3.823100000000000165e+01 -2.200100000000000122e+01 1.321499999999999986e+01 -9.155939274473374892e-04
3.823100000000000165e+01 2.200100000000000122e+01 6.568500000000000227e+01 -9.155964455866538038e-04
3.823400000000000176e+01 -1.253299999999999947e+01 4.703999999999999915e+01 -8.772256405217324082e-02
3.823400000000000176e+01 1.253299999999999947e+01 3.185999999999999943e+01 -8.772258254425795154e-02
3.823700000000000188e+01 -1.383399999999999963e+01 4.295600000000000307e+01 -2.447846747802159828e-01
3.823700000000000188e+01 1.383399999999999963e+01 3.594400000000000261e+01 -2.447846858318703522e-01
3.825200000000000244e+01 -1.197799999999999976e+01 4.929500000000000171e+01 -1.581407968390173002e-01
3.825200000000000244e+01 1.197799999999999976e+01 2.960500000000000043e+01 -1.581408122901835633e-01
3.825500000000000256e+01 -7.142999999999999794e+00 1.088299999999999912e+01 -3.273515430708354712e-01
3.825500000000000256e+01 7.142999999999999794e+00 6.801699999999999591e+01 -3.273515429088294515e-01
3.825600000000000023e+01 -2.794699999999999918e+01 6.515399999999999636e+01 -9.900882019304815818e-02
3.825600000000000023e+01 2.794699999999999918e+01 1.374600000000000044e+01 -9.900882262791496635e-02
3.826299999999999812e+01 -2.374800000000000111e+01 6.278499999999999659e+01 -2.006775419701935237e-01
3.826299999999999812e+01 2.374800000000000111e+01 1.611499999999999844e+01 -2.006775337090233313e-01
3.828000000000000114e+01 -2.833200000000000074e+01 2.981099999999999994e+01 -1.889717261882260455e-02
3.828000000000000114e+01 2.833200000000000074e+01 4.908899999999999864e+01 -1.889717102393449755e-02
3.829200000000000159e+01 -3.752400000000000091e+01 3.485199999999999676e+01 -6.281927612469920263e-02
3.829200000000000159e+01 3.752400000000000091e+01 4.404800000000000182e+01 -6.281926129823196814e-02
3.829800000000000182e+01 -3.092699999999999960e+01 4.073700000000000188e+01 1.022360266965858730e-02
3.829800000000000182e+01 3.092699999999999960e+01 3.816299999999999670e+01 1.022357933632007769e-02
3.830199999999999960e+01 -2.868100000000000094e+01 4.501100000000000279e+01 -2.286832685282141342e-01
3.830199999999999960e+01 2.868100000000000094e+01 3.388900000000000290e+01 -2.286832656771722871e-01
3.830799999999999983e+01 -1.851699999999999946e+01 5.433800000000000097e+01 7.789594161329775439e-03
3.830799999999999983e+01 1.851699999999999946e+01 2.456200000000000117e+01 7.789603739794885920e-03
3.832399999999999807e+01 -3.516499999999999915e+01 4.024099999999999966e+01 -1.763311808383162260e-01
3.832399999999999807e+01 3.516499999999999915e+01 3.865899999999999892e+01 -1.763311987814107362e-01
3.834700000000000131e+01 -1.255899999999999928e+01 5.282600000000000051e+01 -6.223379685366867836e-02
3.834700000000000131e+01 1.255899999999999928e+01 2.607400000000000162e+01 -6.223377668088229259e-02
3.835199999999999676e+01 -2.445299999999999940e+01 4.521699999999999875e+01 -9.497598890930845916e-03
3.835199999999999676e+01 2.445299999999999940e+01 3.368299999999999983e+01 -9.497628857532039448e-03
3.838100000000000023e+01 -5.902999999999999581e+00 9.007999999999999119e+00 -6.027553862592212319e-02
3.838100000000000023e+01 5.902999999999999581e+00 6.989199999999999591e+01 -6.027554136338142410e-02
3.839200000000000301e+01 -2.437300000000000111e+01 4.869400000000000261e+01 3.784273990943721327e-02
3.839200000000000301e+01 2.437300000000000111e+01 3.020599999999999952e+01 3.784272604634429660e-02
3.840200000000000102e+01 -1.393599999999999994e+01 5.685499999999999687e+01 -1.018684814559516205e-01
3.840200000000000102e+01 1.393599999999999994e+01 2.204500000000000171e+01 -1.018684684115967187e-01
3.840699999999999648e+01 -1.796099999999999852e+01 1.618199999999999861e+01 9.615915481721926117e-02
3.840699999999999648e+01 1.796099999999999852e+01 6.271800000000000352e+01 9.615912100970826215e-02
3.840899999999999892e+01 -7.794999999999999929e+00 6.493399999999999750e+01 -2.192362015032789380e-01
3.840899999999999892e+01 7.794999999999999929e+00 1.396599999999999930e+01 -2.192362031651581833e-01
3.840999999999999659e+01 -1.546100000000000030e+01 1.636499999999999844e+01 -7.527879791389717468e-02
3.840999999999999659e+01 1.546100000000000030e+01 6.253499999999999659e+01 -7.527883414444322407e-02
3.842999999999999972e+01 -1.750000000000000000e+01 2.813400000000000034e+01 -5.385967514159212266e-02
3.842999999999999972e+01 1.750000000000000000e+01 5.076599999999999824e+01 -5.385967784029690314e-02
3.843800000000000239e+01 -2.761299999999999955e+01 5.848199999999999932e+01 -1.320878664080674669e-01
3.843800000000000239e+01 2.761299999999999955e+01 2.041799999999999926e+01 -1.320878948341252523e-01
3.844299999999999784e+01 -3.316400000000000148e+01 5.987299999999999756e+01 -8.761746176704388045e-03
3.844299999999999784e+01 3.316400000000000148e+01 1.902700000000000102e+01 -8.761753725877998930e-03
3.845100000000000051e+01 -1.423099999999999987e+01 4.535399999999999920e+01 -3.054710961587319695e-01
3.845100000000000051e+01 1.423099999999999987e+01 3.354599999999999937e+01 -3.054710817999307659e-01
3.845600000000000307e+01 -1.010999999999999899e+00 9.621999999999999886e+00 1.801880266018869858e-01
3.845600000000000307e+01 1.010999999999999899e+00 6.927800000000000580e+01 1.801880561956575311e-01
3.848599999999999710e+01 -3.568299999999999983e+01 3.913300000000000267e+01 -2.084104762637039587e-01
3.848599999999999710e+01 3.568299999999999983e+01 3.976700000000000301e+01 -2.084104920909740366e-01
3.849399999999999977e+01 -2.854100000000000037e+01 3.775800000000000267e+01 2.261896275474188089e-01
3.849399999999999977e+01 2.854100000000000037e+01 4.114200000000000301e+01 2.261896287427546670e-01
3.852799999999999869e+01 -1.675199999999999889e+01 5.217799999999999727e+01 2.205465058713019511e-01
3.852799999999999869e+01 1.675199999999999889e+01 2.672200000000000131e+01 2.205465090820833418e-01
3.853300000000000125e+01 -1.162199999999999989e+01 5.373899999999999721e+01 2.454395601112779879e-01
3.853300000000000125e+01 1.162199999999999989e+01 2.516100000000000136e+01 2.454395506541370009e-01
3.853499999999999659e+01 -1.602999999999999980e+00 1.680799999999999983e+01 -3.662612455625794544e-02
3.853499999999999659e+01 1.602999999999999980e+00 6.209199999999999875e+01 -3.662610927273500516e-02
3.853799999999999670e+01 -1.663500000000000156e+01 1.542699999999999960e+01 -1.367612930907305957e-01
3.853799999999999670e+01 1.663500000000000156e+01 6.347299999999999898e+01 -1.367613384963527468e-01
3.853999999999999915e+01 -3.840800000000000125e+01 3.799499999999999744e+01 -1.441389235594868479e-01
3.853999999999999915e+01 3.840800000000000125e+01 4.090500000000000114e+01 -1.441389161730818325e-01
3.857399999999999807e+01 -1.511999999999999922e+01 2.739099999999999824e+01 -1.535546674789315946e-01
3.857399999999999807e+01 1.511999999999999922e+01 5.150900000000000034e+01 -1.535546451200066609e-01
3.860699999999999932e+01 -8.845000000000000639e+00 7.181000000000000050e+00 -2.338774956683672135e-01
3.860699999999999932e+01 8.845000000000000639e+00 7.171899999999999409e+01 -2.338774893743531536e-01
3.862800000000000011e+01 -1.625999999999999890e+00 1.067600000000000016e+01 1.710927518562948557e-01
3.862800000000000011e+01 1.625999999999999890e+00 6.822400000000000375e+01 1.710927733385773919e-01
3.864200000000000301e+01 -9.509000000000000341e+00 3.397099999999999653e+01 -2.444112302425461569e-01
3.864200000000000301e+01 9.509000000000000341e+00 4.492900000000000205e+01 -2.444112380858037281e-01
3.864300000000000068e+01 -1.865399999999999991e+01 3.881400000000000006e+01 1.391734321216684944e-01
3.864300000000000068e+01 1.865399999999999991e+01 4.008599999999999852e+01 1.391734541724232166e-01
3.867099999999999937e+01 -1.006600000000000072e+01 6.566200000000000614e+01 -1.795729430589955433e-01
3.867099999999999937e+01 1.006600000000000072e+01 1.323799999999999955e+01 -1.795729516109902113e-01
3.868200000000000216e+01 -1.931800000000000139e+01 3.403799999999999670e+01 -1.262093144307676884e-01
3.868200000000000216e+01 1.931800000000000139e+01 4.486200000000000188e+01 -1.262093015023953158e-01
3.869899999999999807e+01 -5.179000000000000270e+00 6.577700000000000102e+01 -6.303688934007636857e-02
3.869899999999999807e+01 5.179000000000000270e+00 1.312299999999999933e+01 -6.303688926464785791e-02
3.871300000000000097e+01 -1.619600000000000151e+01 6.033500000000000085e+01 3.389961055423762470e-02
3.871300000000000097e+01 1.619600000000000151e+01 1.856500000000000128e+01 3.389960307129977202e-02
3.875099999999999767e+01 -2.410900000000000176e+01 5.346300000000000097e+01 -3.294275840136292044e-01
3.875099999999999767e+01 2.410900000000000176e+01 2.543700000000000117e+01 -3.294275515258814346e-01
3.875600000000000023e+01 -3.379299999999999926e+01 3.362299999999999756e+01 1.899825521449595711e-01
3.875600000000000023e+01 3.379299999999999926e+01 4.527700000000000102e+01 1.899825496137267367e-01
3.876100000000000279e+01 -9.178000000000000824e+00 3.936899999999999977e+01 -2.001955032708679916e-01
3.876100000000000279e+01 9.178000000000000824e+00 3.953099999999999881e+01 -2.001954972798472010e-01
3.879299999999999926e+01 -1.858599999999999852e+01 5.869899999999999807e+01 -1.393247550876368923e-01
3.879299999999999926e+01 1.858599999999999852e+01 2.020100000000000051e+01 -1.393247494550834964e-01
3.882999999999999829e+01 -2.391100000000000136e+01 4.753199999999999648e+01 -1.268043596010570151e-01
3.882999999999999829e+01 2.391100000000000136e+01 3.136799999999999855e+01 -1.268043533612677465e-01
3.883100000000000307e+01 -3.107400000000000162e+01 3.295499999999999829e+01 1.365586299952704918e-01
3.883100000000000307e+01 3.107400000000000162e+01 4.594500000000000028e+01 1.365586155398460788e-01
3.883599999999999852e+01 -1.284500000000000064e+01 1.003599999999999959e+01 -2.419181854483974659e-01
3.883599999999999852e+01 1.284500000000000064e+01 6.886400000000000432e+01 -2.419181941205731656e-01
3.884700000000000131e+01 -2.458200000000000074e+01 5.109000000000000341e+01 -2.254589864238104868e-01
3.884700000000000131e+01 2.458200000000000074e+01 2.780999999999999872e+01 -2.254590528241685043e-01
3.885099999999999909e+01 -2.535099999999999909e+01 3.270300000000000296e+01 1.143326426158670396e-02
3.885099999999999909e+01 2.535099999999999909e+01 4.619700000000000273e+01 1.143325838601030008e-02
3.885199999999999676e+01 -1.184900000000000020e+01 5.609799999999999898e+01 8.625172455299265351e-02
3.885199999999999676e+01 1.184900000000000020e+01 2.280199999999999960e+01 8.625175060946067840e-02
3.885999999999999943e+01 -3.028000000000000025e+00 1.728200000000000003e+01 -2.493801414927088698e-03
3.885999999999999943e+01 3.028000000000000025e+00 6.161800000000000210e+01 -2.493792476737468396e-03
3.887400000000000233e+01 -1.405700000000000038e+01 1.035399999999999920e+01 -1.263256203208884543e-01
3.887400000000000233e+01 1.405700000000000038e+01 6.854600000000000648e+01 -1.263256223739971096e-01
3.887800000000000011e+01 -1.813899999999999935e+01 1.317900000000000027e+01 -5.587087452253338554e-02
3.887800000000000011e+01 1.813899999999999935e+01 6.572100000000000364e+01 -5.587083576128479973e-02
3.892199999999999704e+01 -1.523000000000000043e+01 3.198400000000000176e+01 -1.076599719186453405e-02
3.892199999999999704e+01 1.523000000000000043e+01 4.691599999999999682e+01 -1.076601235974841524e-02
3.892699999999999960e+01 -1.558600000000000030e+01 4.585900000000000176e+01 1.053156344783268417e-01
3.892699999999999960e+01 1.558600000000000030e+01 3.304099999999999682e+01 1.053156161846066502e-01
3.892999999999999972e+01 -7.371000000000000441e+00 6.623600000000000421e+01 -2.428362844236056917e-01
3.892999999999999972e+01 7.371000000000000441e+00 1.266399999999999970e+01 -2.428362806671233165e-01
3.893399999999999750e+01 -1.037700000000000067e+01 3.725900000000000034e+01 -2.089104257785655006e-01
3.893399999999999750e+01 1.037700000000000067e+01 4.164099999999999824e+01 -2.089104211909985354e-01
3.895499999999999829e+01 -9.564000000000000057e+00 7.089100000000000534e+01 -1.158820017057569929e-01
3.895499999999999829e+01 9.564000000000000057e+00 8.009000000000000341e+00 -1.158819933618053521e-01
3.895600000000000307e+01 -1.243599999999999994e+01 5.151800000000000068e+01 -8.764502905776141994e-02
3.895600000000000307e+01 1.243599999999999994e+01 2.738200000000000145e+01 -8.764502382368596911e-02
3.896099999999999852e+01 -2.171000000000000085e+01 3.407000000000000028e+01 1.929309286378521476e-02
3.896099999999999852e+01 2.171000000000000085e+01 4.482999999999999829e+01 1.929309714895960717e-02
3.897500000000000142e+01 -3.580000000000000071e+00 6.326599999999999824e+01 -1.188245189477157987e-01
3.897500000000000142e+01 3.580000000000000071e+00 1.563400000000000034e+01 -1.188245289989809522e-01
3.899099999999999966e+01 -1.161200000000000010e+01 3.449099999999999966e+01 -2.479545928417064837e-01
3.899099999999999966e+01 1.161200000000000010e+01 4.440899999999999892e+01 -2.479546026306458373e-01
3.899600000000000222e+01 -2.992299999999999827e+01 5.632699999999999818e+01 5.724005527480827832e-02
3.899600000000000222e+01 2.992299999999999827e+01 2.257300000000000040e+01 5.724006366713165622e-02
3.903799999999999670e+01 -2.908999999999999986e+01 3.483200000000000074e+01 1.263741021514608320e-01
3.903799999999999670e+01 2.908999999999999986e+01 4.406799999999999784e+01 1.263741050636830454e-01
3.904200000000000159e+01 -6.078999999999999737e+00 6.654500000000000171e+01 -2.442883458952881115e-01
3.904200000000000159e+01 6.078999999999999737e+00 1.235500000000000043e+01 -2.442883443353613127e-01
3.906400000000000006e+01 -1.289100000000000001e+01 5.689600000000000080e+01 1.799436772853153094e-02
3.906400000000000006e+01 1.289100000000000001e+01 2.200400000000000134e+01 1.799438574320023215e-02
3.908299999999999841e+01 -1.039199999999999946e+01 3.473599999999999710e+01 -2.508879743606357016e-01
3.908299999999999841e+01 1.039199999999999946e+01 4.416400000000000148e+01 -2.508879824432482253e-01
3.908800000000000097e+01 -2.637099999999999866e+01 5.502100000000000080e+01 2.648487660330206550e-02
3.908800000000000097e+01 2.637099999999999866e+01 2.387900000000000134e+01 2.648489705048404780e-02
3.915899999999999892e+01 -3.781499999999999773e+01 3.710900000000000176e+01 -4.171093386467320668e-02
3.915899999999999892e+01 3.781499999999999773e+01 4.179099999999999682e+01 -4.171089737346679593e-02
3.916799999999999926e+01 -2.504700000000000060e+01 3.138500000000000156e+01 3.416387865273619144e-03
3.916799999999999926e+01 2.504700000000000060e+01 4.751500000000000057e+01 3.416383712345661024e-03
3.917099999999999937e+01 -3.835000000000000142e+01 3.567300000000000182e+01 -8.827964858717013072e-03
3.917099999999999937e+01 3.835000000000000142e+01 4.322699999999999676e+01 -8.827937970148535402e-03
3.917999999999999972e+01 -9.544999999999999929e+00 5.981799999999999784e+01 -9.302725747091358799e-02
3.917999999999999972e+01 9.544999999999999929e+00 1.908200000000000074e+01 -9.302725828222772886e-02
3.920100000000000051e+01 -3.270600000000000307e+01 3.448499999999999943e+01 1.597046275585472241e-01
3.920100000000000051e+01 -2.095100000000000051e+01 5.907900000000000063e+01 -2.862706868887328060e-01
3.920100000000000051e+01 2.095100000000000051e+01 1.982100000000000151e+01 -2.862706871971482658e-01
3.920100000000000051e+01 3.270600000000000307e+01 4.441499999999999915e+01 1.597046268027335902e-01
3.920400000000000063e+01 -3.143799999999999883e+01 3.407699999999999818e+01 3.992418136414868299e-03
3.920400000000000063e+01 -1.568500000000000050e+01 3.667600000000000193e+01 1.714378770645590688e-01
3.920400000000000063e+01 1.568500000000000050e+01 4.222399999999999665e+01 1.714378973712435417e-01
3.920400000000000063e+01 3.143799999999999883e+01 4.482300000000000040e+01 3.992407423979383620e-03
3.921800000000000352e+01 -2.015399999999999991e+01 2.934299999999999997e+01 -1.011375196958707451e-01
3.921800000000000352e+01 2.015399999999999991e+01 4.955700000000000216e+01 -1.011375277412888823e-01
3.922599999999999909e+01 -9.554000000000000270e+00 8.378999999999999559e+00 -2.416927607179618909e-01
3.922599999999999909e+01 9.554000000000000270e+00 7.052100000000000080e+01 -2.416927656001700009e-01
3.922699999999999676e+01 -1.549200000000000088e+01 4.066400000000000148e+01 7.388980250715077025e-02
3.922699999999999676e+01 1.549200000000000088e+01 3.823599999999999710e+01 7.388982062627630354e-02
3.922999999999999687e+01 -8.596999999999999531e+00 4.063100000000000023e+01 -2.555295020734337785e-01
3.922999999999999687e+01 8.596999999999999531e+00 3.826899999999999835e+01 -2.555295049201015134e-01
3.924000000000000199e+01 -1.064400000000000013e+01 5.354599999999999937e+01 2.300047065083832276e-01
3.924000000000000199e+01 1.064400000000000013e+01 2.535399999999999920e+01 2.300047028267301064e-01
3.927799999999999869e+01 -2.045899999999999963e+01 3.457600000000000051e+01 -1.017745764619751858e-01
3.927799999999999869e+01 2.045899999999999963e+01 4.432399999999999807e+01 -1.017745655388358622e-01
3.927900000000000347e+01 -2.280000000000000071e+01 3.945199999999999818e+01 -4.631465785505314847e-02
3.927900000000000347e+01 2.280000000000000071e+01 3.944800000000000040e+01 -4.631464490079083979e-02
3.928199999999999648e+01 -2.718700000000000117e+01 2.655399999999999849e+01 -2.100758164234119985e-01
3.928199999999999648e+01 2.718700000000000117e+01 5.234599999999999653e+01 -2.100758145354251205e-01
3.928799999999999670e+01 -3.871300000000000097e+01 3.176000000000000156e+01 -5.066174323180522299e-02
3.928799999999999670e+01 3.871300000000000097e+01 4.714000000000000057e+01 -5.066177058788336185e-02
3.928999999999999915e+01 -7.647999999999999687e+00 6.936400000000000432e+01 -1.477671349659152589e-01
3.928999999999999915e+01 7.647999999999999687e+00 9.535999999999999588e+00 -1.477671355426260491e-01
3.929200000000000159e+01 -1.759999999999999898e-01 6.363100000000000023e+01 7.086742718594571389e-02
3.929200000000000159e+01 1.759999999999999898e-01 1.526900000000000013e+01 7.086743858321140066e-02
3.929699999999999704e+01 -1.280799999999999983e+01 4.291299999999999670e+01 -2.854222068054295125e-01
3.929699999999999704e+01 1.280799999999999983e+01 3.598700000000000188e+01 -2.854222152694675385e-01
3.930599999999999739e+01 -1.992699999999999960e+01 5.822399999999999665e+01 -1.458861786925877424e-01
3.930599999999999739e+01 1.992699999999999960e+01 2.067599999999999838e+01 -1.458861766842692587e-01
3.931600000000000250e+01 -1.998300000000000054e+01 4.496500000000000341e+01 1.728132554218632100e-01
