-8.983000000000000540e+00 -2.495999999999999996e+00 3.137099999999999866e+01 1.666225499684230171e-01
-8.939999999999999503e+00 -5.799000000000000377e+00 2.961499999999999844e+01 -6.153355371517059413e-02
-8.919000000000000483e+00 6.445000000000000284e+00 3.294100000000000250e+01 -4.013759991936286659e-02
-8.916999999999999815e+00 -1.304000000000000048e+00 1.985099999999999909e+01 2.749112294791016681e-02
-8.916999999999999815e+00 6.915000000000000036e+00 2.830000000000000071e+01 -1.548002591088599132e-02
-8.904999999999999361e+00 -2.922000000000000153e+00 1.805300000000000082e+01 -2.707313664345056825e-02
-8.848000000000000753e+00 -6.735000000000000320e+00 2.736299999999999955e+01 5.430538646664677394e-02
-8.837999999999999190e+00 -1.369599999999999973e+01 1.681599999999999895e+01 2.170722840704855661e-01
-8.823999999999999844e+00 -1.080199999999999960e+01 1.636400000000000077e+01 1.305611974071861359e-01
-8.798999999999999488e+00 -2.251999999999999780e+00 3.374399999999999977e+01 2.788419614620970544e-01
-8.785999999999999588e+00 -9.349000000000000199e+00 2.556099999999999994e+01 -1.596782591179398136e-01
-8.781000000000000583e+00 -8.035999999999999588e+00 2.204200000000000159e+01 -9.522765645974895499e-02
-8.776999999999999247e+00 -1.092399999999999949e+01 1.861499999999999844e+01 1.409169540637515428e-01
-8.746999999999999886e+00 -2.314999999999999947e+00 2.900000000000000000e+01 8.231590050446337126e-02
-8.708000000000000185e+00 1.397000000000000020e+00 2.274899999999999878e+01 5.190003656556622241e-02
-8.695000000000000284e+00 -6.174999999999999822e+00 2.045799999999999841e+01 1.786177258710302251e-01
-8.664999999999999147e+00 7.200000000000000178e+00 2.713400000000000034e+01 -1.258589237592455390e-01
-8.638999999999999346e+00 -1.337599999999999945e+01 2.171600000000000108e+01 -3.190050150788541206e-03
-8.598000000000000753e+00 -1.057099999999999973e+01 2.507700000000000173e+01 -6.855441346767464361e-02
-8.465999999999999304e+00 -3.491999999999999993e+00 2.560500000000000043e+01 -4.812019603562565917e-02
-8.407999999999999474e+00 -4.850999999999999979e+00 2.356700000000000017e+01 -2.614918219880764047e-02
-8.371000000000000441e+00 -6.580000000000000071e+00 2.186499999999999844e+01 2.071723213506296291e-01
-8.308999999999999275e+00 -1.050200000000000067e+01 1.755099999999999838e+01 1.030224234203468009e-01
-8.295999999999999375e+00 -2.740000000000000213e+00 3.261899999999999977e+01 3.358419615805720015e-01
-8.246999999999999886e+00 -8.833000000000000185e+00 2.099299999999999855e+01 -2.650706655727851427e-02
-8.243999999999999773e+00 -6.056000000000000050e+00 2.842399999999999949e+01 4.079865080896617063e-02
-8.237000000000000099e+00 1.334999999999999964e+00 2.409799999999999898e+01 -9.297107739696928996e-02
-8.231999999999999318e+00 -9.638999999999999346e+00 3.051899999999999835e+01 7.848473220323578733e-03
-8.128000000000000114e+00 -2.616999999999999993e+00 3.013299999999999912e+01 -8.770791569288306777e-02
-8.079000000000000625e+00 -7.032000000000000028e+00 2.608599999999999852e+01 1.213247777443189762e-01
-8.066000000000000725e+00 -2.396999999999999797e+00 2.772400000000000020e+01 6.384911615423508047e-02
-8.044000000000000483e+00 2.951000000000000068e+00 3.315100000000000335e+01 -1.821177628408304078e-02
-8.037000000000000810e+00 -2.553999999999999826e+00 3.502799999999999869e+01 2.103455752703392023e-01
-8.023999999999999133e+00 4.548000000000000043e+00 1.486299999999999955e+01 7.278657149317088737e-02
-8.007999999999999119e+00 4.536999999999999922e+00 2.333299999999999841e+01 -1.040618853665718352e-01
-8.005000000000000782e+00 1.052000000000000046e+00 2.687500000000000000e+01 -9.028951342101111666e-02
-7.919999999999999929e+00 1.772000000000000020e+00 2.154400000000000048e+01 4.498449137328100478e-02
-7.908000000000000362e+00 3.274000000000000021e+00 2.130199999999999960e+01 2.587238484440676500e-02
-7.897999999999999687e+00 -1.227000000000000091e+00 3.583200000000000074e+01 2.129568835736995180e-01
-7.881000000000000227e+00 -5.932000000000000384e+00 1.820400000000000063e+01 2.134374374527152618e-01
-7.743000000000000327e+00 1.197000000000000064e+00 3.157300000000000040e+01 1.310144837167748766e-01
-7.727999999999999758e+00 8.077999999999999403e+00 2.679700000000000060e+01 -4.294468240530152636e-02
-7.713000000000000078e+00 7.847999999999999865e+00 2.228000000000000114e+01 5.069270827288475945e-02
-7.708000000000000185e+00 -9.426000000000000156e+00 2.814600000000000080e+01 -3.626552918906684325e-02
-7.695999999999999730e+00 -6.251000000000000334e+00 1.960200000000000031e+01 2.576401198946877136e-01
-7.693999999999999950e+00 -1.798000000000000043e+00 2.029200000000000159e+01 1.266391153024196414e-01
-7.684999999999999609e+00 -3.434000000000000163e+00 1.848999999999999844e+01 -5.342833500678260267e-02
-7.669999999999999929e+00 -1.436400000000000077e+01 2.835399999999999920e+01 -6.855077391013550403e-02
-7.649000000000000021e+00 -8.499000000000000554e+00 2.591100000000000136e+01 -1.209848532539289784e-01
-7.503000000000000114e+00 6.700000000000000178e+00 3.333599999999999852e+01 -1.898574092637455787e-02
-7.482000000000000206e+00 -5.248000000000000220e+00 3.527400000000000091e+01 7.537482674731900423e-02
-7.471000000000000085e+00 -1.105499999999999972e+01 2.492099999999999937e+01 -1.475773429715118434e-01
-7.450000000000000178e+00 -8.292999999999999261e+00 1.810999999999999943e+01 1.683201437625806152e-01
-7.421999999999999709e+00 -7.152000000000000135e+00 1.742099999999999937e+01 1.769690363326377192e-01
-7.389000000000000234e+00 -1.510000000000000009e+00 3.724399999999999977e+01 1.285187325740239361e-01
-7.331000000000000405e+00 5.834999999999999964e+00 2.044399999999999906e+01 -1.604515532178134862e-01
-7.299999999999999822e+00 3.938000000000000167e+00 2.252299999999999969e+01 -8.202065601182513196e-03
-7.232000000000000206e+00 -9.639999999999999680e-01 1.447199999999999953e+01 1.487065233024529587e-01
-7.219000000000000306e+00 2.246999999999999886e+00 3.230700000000000216e+01 -9.516536063988684929e-03
-7.176999999999999602e+00 -4.719000000000000306e+00 2.353399999999999892e+01 1.769141207259217474e-01
-7.165000000000000036e+00 -9.819000000000000838e+00 2.944099999999999895e+01 -1.353017280019462865e-01
-7.115000000000000213e+00 -1.328100000000000058e+01 2.155999999999999872e+01 5.860127483662160713e-02
-7.108999999999999986e+00 3.620000000000000107e+00 2.012500000000000000e+01 -1.505120867546469177e-01
-7.105999999999999872e+00 -4.666000000000000369e+00 1.785000000000000142e+01 -2.028286937911549098e-02
-7.086000000000000298e+00 -9.582000000000000739e+00 1.753699999999999903e+01 6.271651469738563633e-02
-7.081999999999999851e+00 -2.859999999999999876e+00 1.960800000000000054e+01 -2.803020121428234472e-03
-7.070000000000000284e+00 -7.068999999999999950e+00 1.624800000000000111e+01 1.852473208684758121e-01
-7.064000000000000057e+00 -7.850000000000000311e-01 1.586999999999999922e+01 9.594884958969117361e-02
-6.998999999999999666e+00 8.788000000000000256e+00 2.782799999999999940e+01 -9.437100978172276167e-02
-6.988999999999999879e+00 1.540000000000000036e+00 2.470299999999999940e+01 -1.163199432941099537e-01
-6.956000000000000405e+00 -2.720000000000000195e-01 3.510300000000000153e+01 -1.622923988617055308e-02
-6.945999999999999730e+00 9.087999999999999190e+00 2.400199999999999889e+01 -5.759604687824352448e-02
-6.945000000000000284e+00 -2.963000000000000078e+00 3.019099999999999895e+01 5.222096862408022455e-02
-6.940999999999999837e+00 -8.929000000000000270e+00 2.717800000000000082e+01 -7.793325313607625537e-02
-6.921999999999999709e+00 4.719999999999999751e-01 3.073400000000000176e+01 -5.397092421939948814e-02
-6.891000000000000014e+00 5.075000000000000178e+00 1.478899999999999970e+01 6.469498540909821016e-02
-6.884000000000000341e+00 1.397000000000000020e+00 2.609100000000000108e+01 3.043899356035442011e-02
-6.883000000000000007e+00 4.892999999999999794e+00 1.979599999999999937e+01 -4.242489100377581229e-02
-6.865999999999999659e+00 4.993999999999999773e+00 1.730199999999999960e+01 1.723050249228324227e-01
-6.738999999999999879e+00 -3.180000000000000160e+00 3.479899999999999949e+01 2.050312859342378058e-01
-6.737000000000000099e+00 1.288000000000000034e+00 1.838800000000000168e+01 -1.891208243330549099e-01
-6.737000000000000099e+00 8.367000000000000881e+00 2.301899999999999835e+01 4.256879930520354738e-02
-6.572000000000000064e+00 -4.490999999999999659e+00 3.495400000000000063e+01 5.161829199747587638e-02
-6.559000000000000163e+00 -1.121000000000000085e+01 2.956299999999999883e+01 -1.538123559678033492e-01
-6.493999999999999773e+00 -1.176099999999999923e+01 3.066499999999999915e+01 -2.645972938846654146e-02
-6.467999999999999972e+00 6.176000000000000156e+00 3.234100000000000108e+01 -5.313231996534472854e-03
-6.434000000000000163e+00 -1.452999999999999936e+01 2.101999999999999957e+01 1.480551884885062952e-01
-6.405999999999999694e+00 5.522999999999999687e+00 1.372700000000000031e+01 1.325051514608303616e-01
-6.365999999999999659e+00 -1.398000000000000043e+01 2.635800000000000054e+01 -1.089631253041089265e-01
-6.352999999999999758e+00 -9.938000000000000611e+00 3.357399999999999807e+01 7.328690425842279699e-02
-6.280999999999999694e+00 5.000000000000000000e-01 1.616700000000000159e+01 1.751748140853542357e-01
-6.275000000000000355e+00 -1.423399999999999999e+01 2.776500000000000057e+01 -7.781033447615956500e-02
-6.198999999999999844e+00 4.229000000000000092e+00 2.915099999999999980e+01 -1.430258725088454086e-01
-6.128999999999999559e+00 -1.178100000000000058e+01 2.844099999999999895e+01 -2.815959112880713627e-02
-6.107000000000000206e+00 -4.910999999999999588e+00 3.915299999999999869e+01 2.976244062744973218e-01
-6.065000000000000391e+00 -1.458000000000000007e+01 3.621300000000000097e+01 -9.849867318142649375e-02
-6.054999999999999716e+00 5.166000000000000369e+00 1.604599999999999937e+01 3.479983727922076886e-01
-6.038999999999999702e+00 1.008799999999999919e+01 3.980499999999999972e+01 2.064751393709181038e-01
-6.024000000000000021e+00 5.149000000000000021e+00 1.856099999999999994e+01 1.084159046800386161e-01
-6.011000000000000121e+00 6.039999999999999813e-01 1.766300000000000026e+01 -2.131877652335678053e-01
-5.980999999999999872e+00 3.809000000000000163e+00 2.264799999999999969e+01 -1.599176665053526208e-02
-5.975999999999999979e+00 -1.025999999999999979e+01 1.833899999999999864e+01 -3.453992563451145636e-02
-5.940000000000000391e+00 -4.264999999999999680e+00 2.669000000000000128e+01 1.838248234548298110e-01
-5.883000000000000007e+00 2.580000000000000071e+00 3.220300000000000296e+01 -2.017675719985202731e-01
-5.820000000000000284e+00 -1.169800000000000040e+01 1.787500000000000000e+01 1.186567660321890573e-02
-5.798000000000000043e+00 6.467999999999999972e+00 2.485699999999999932e+01 9.163290690061802468e-02
-5.722999999999999865e+00 -8.814000000000000057e+00 2.726800000000000068e+01 -1.817492036674108191e-01
-5.703000000000000291e+00 8.227000000000000313e+00 2.836100000000000065e+01 -1.696562609655070664e-01
-5.597999999999999865e+00 -2.716000000000000192e+00 9.894000000000000128e+00 -6.422342958687006498e-02
-5.575999999999999623e+00 7.770000000000000240e-01 3.061299999999999955e+01 1.750220247344123070e-01
-5.548000000000000043e+00 -5.383000000000000007e+00 3.228799999999999670e+01 1.455159215404115136e-01
-5.463000000000000078e+00 -1.308399999999999963e+01 2.845700000000000074e+01 -3.266729956656501677e-01
-5.434000000000000163e+00 5.905000000000000249e+00 2.382300000000000040e+01 9.761042970665903540e-02
-5.366999999999999993e+00 -1.533099999999999952e+01 3.523700000000000188e+01 -6.810247512940806325e-02
-5.341000000000000192e+00 -1.326500000000000057e+01 3.653099999999999881e+01 -1.221768256542863085e-01
-5.314000000000000057e+00 7.993000000000000327e+00 2.260000000000000142e+01 2.911108981480065722e-02
-5.302999999999999936e+00 8.340999999999999304e+00 4.103099999999999881e+01 2.151730483829049356e-01
-5.259999999999999787e+00 -3.115000000000000213e+00 4.022399999999999665e+01 2.903316875052684432e-01
-5.246000000000000441e+00 4.389000000000000234e+00 2.376899999999999835e+01 -6.350882062833143604e-02
-5.240000000000000213e+00 -6.070999999999999730e+00 3.360499999999999687e+01 2.964897319416900379e-01
-5.227000000000000313e+00 8.714999999999999858e+00 2.937900000000000134e+01 -9.984990247883311631e-02
-5.217999999999999972e+00 -1.212100000000000044e+01 2.421900000000000119e+01 -7.090749827000877858e-02
-5.189000000000000057e+00 -1.246899999999999942e+01 3.531000000000000227e+01 -1.463352668597134865e-01
-5.176000000000000156e+00 -5.032000000000000028e+00 3.471900000000000119e+01 8.098145485564192669e-02
-5.168000000000000149e+00 6.556000000000000050e+00 2.269900000000000162e+01 -1.323700532083196824e-02
-5.120000000000000107e+00 7.227000000000000313e+00 2.771000000000000085e+01 1.318715288843176903e-01
-5.120000000000000107e+00 9.180999999999999162e+00 4.014099999999999824e+01 2.374550738877730383e-01
-5.113999999999999879e+00 -1.052999999999999936e+01 3.645100000000000051e+01 -1.671542719201745686e-01
-5.100999999999999979e+00 -1.114400000000000013e+01 3.537800000000000011e+01 -1.895565711675621101e-01
-5.094000000000000306e+00 -4.174999999999999822e+00 3.961399999999999721e+01 3.328584483550651729e-01
-5.080000000000000071e+00 8.445999999999999730e+00 2.116000000000000014e+01 1.534271144925455910e-01
-5.075000000000000178e+00 6.344999999999999751e+00 3.291799999999999926e+01 2.019572025193168766e-02
-5.067999999999999616e+00 1.842999999999999972e+00 3.135699999999999932e+01 -2.159056227549189799e-01
-5.020999999999999908e+00 5.200000000000000178e-01 1.542300000000000004e+01 9.076920591944573347e-02
-5.003999999999999559e+00 -1.048700000000000010e+01 2.235699999999999932e+01 -1.315649599359519639e-02
-4.969999999999999751e+00 -1.039400000000000013e+01 3.405799999999999983e+01 -1.935217932317184197e-01
-4.966999999999999638e+00 -8.100000000000000255e-02 1.812300000000000111e+01 1.941186722904998108e-01
-4.950999999999999623e+00 -6.387999999999999901e+00 2.039000000000000057e+01 -3.852053754285705324e-03
-4.918000000000000149e+00 -1.438000000000000078e+01 2.092800000000000082e+01 -2.451102840020015772e-01
-4.889000000000000234e+00 1.489000000000000057e+01 2.008800000000000097e+01 -1.425493283416829626e-01
-4.886999999999999567e+00 4.237000000000000099e+00 1.851899999999999835e+01 3.279287804464802586e-02
-4.825000000000000178e+00 9.936999999999999389e+00 2.111700000000000088e+01 -1.591991937790444567e-01
-4.727000000000000313e+00 -4.144000000000000128e+00 2.682199999999999918e+01 1.466519188041828792e-01
-4.717999999999999972e+00 -1.806999999999999940e+00 2.263700000000000045e+01 1.436785129999929023e-01
-4.711000000000000298e+00 -8.019000000000000128e+00 2.283200000000000074e+01 -7.749410006152589181e-02
-4.693999999999999950e+00 -5.623999999999999666e+00 3.595600000000000307e+01 1.762586492362221424e-01
-4.692999999999999616e+00 3.654999999999999805e+00 3.699399999999999977e+01 -1.122287930942184259e-03
-4.682000000000000384e+00 1.759499999999999886e+01 1.934100000000000108e+01 -1.916155992948366804e-01
-4.676999999999999602e+00 -6.400000000000000133e-02 2.975000000000000000e+01 4.391937144720065717e-02
-4.674999999999999822e+00 -9.486000000000000654e+00 1.817699999999999960e+01 1.095930315078216949e-01
-4.658999999999999808e+00 1.218500000000000050e+01 1.694800000000000040e+01 -1.614750705090888805e-01
-4.647000000000000242e+00 -1.030000000000000027e+00 2.496199999999999974e+01 1.122706540368620942e-01
-4.634000000000000341e+00 -1.766999999999999904e+00 3.317699999999999960e+01 2.249781501217889002e-01
-4.625000000000000000e+00 -2.100000000000000130e-02 1.953399999999999892e+01 1.895762654147922222e-01
-4.581999999999999851e+00 3.592999999999999972e+00 2.876899999999999835e+01 -1.608740322628579300e-01
-4.562999999999999723e+00 -1.540999999999999925e+00 1.287299999999999933e+01 1.604430890418893085e-01
-4.517000000000000348e+00 -1.091099999999999959e+01 2.373000000000000043e+01 -2.405477644501319845e-01
-4.496000000000000441e+00 1.899000000000000021e+00 2.095799999999999841e+01 2.440300147137866582e-01
-4.483999999999999986e+00 2.604999999999999982e+00 1.607799999999999940e+01 -5.296572205642900710e-02
-4.475999999999999979e+00 -5.804000000000000270e+00 2.865899999999999892e+01 1.503734966754142754e-01
-4.469000000000000306e+00 -5.634999999999999787e+00 2.335900000000000176e+01 8.191289504107382435e-02
-4.455000000000000071e+00 -3.492999999999999883e+00 2.450400000000000134e+01 2.012648124637244074e-01
-4.455000000000000071e+00 -3.411000000000000032e+00 2.913299999999999912e+01 -4.368604333157150715e-02
-4.411999999999999922e+00 1.536899999999999977e+01 1.879700000000000060e+01 -1.591256315974222402e-01
-4.383000000000000007e+00 1.350999999999999979e+01 2.039999999999999858e+01 -1.453286158331495437e-01
-4.365999999999999659e+00 2.990000000000000213e+00 3.578199999999999648e+01 1.855465450574391231e-02
-4.338000000000000078e+00 -9.191000000000000725e+00 2.192399999999999949e+01 -1.508961740176510170e-02
-4.325000000000000178e+00 -1.385800000000000054e+01 2.189900000000000091e+01 -2.521587414594245180e-01
-4.325000000000000178e+00 1.665599999999999881e+01 1.846600000000000108e+01 -1.849301898787349685e-01
-4.322000000000000064e+00 -1.479199999999999982e+01 1.989799999999999969e+01 -2.547427014961846647e-01
-4.301000000000000156e+00 -1.115199999999999925e+01 3.300699999999999790e+01 1.202424651407023592e-01
-4.261000000000000121e+00 4.386000000000000121e+00 2.717599999999999838e+01 8.002185284537882692e-02
-4.254999999999999893e+00 -1.368999999999999995e+00 3.042800000000000082e+01 1.884653175224665911e-01
-4.227000000000000313e+00 -3.040999999999999925e+00 9.852999999999999758e+00 -6.220469475883956545e-02
-4.227000000000000313e+00 1.586000000000000076e+00 1.544200000000000017e+01 3.014766561834378994e-02
-4.190999999999999837e+00 -1.288299999999999912e+01 2.764999999999999858e+01 -1.558051872256360215e-01
-4.133000000000000007e+00 -2.479000000000000092e+00 1.609700000000000131e+01 1.459359312360038186e-01
-4.131999999999999673e+00 1.368999999999999995e+00 1.990700000000000003e+01 1.287711855120269866e-01
-4.118999999999999773e+00 -4.883000000000000007e+00 3.689600000000000080e+01 2.648921779575423852e-01
-4.107999999999999652e+00 -2.055000000000000160e+00 2.400300000000000011e+01 2.918508853464604202e-01
-4.072000000000000064e+00 -1.191099999999999959e+01 2.689900000000000091e+01 -1.664617205070720585e-01
-4.064000000000000057e+00 -4.424000000000000377e+00 2.816400000000000148e+01 4.028324837149096505e-01
-4.059999999999999609e+00 3.196000000000000174e+00 1.313599999999999923e+01 -1.162734860592559982e-01
-4.057999999999999829e+00 -3.915999999999999925e+00 1.416999999999999993e+01 -7.613937037645722439e-02
-4.028999999999999915e+00 -1.354299999999999926e+01 3.729500000000000171e+01 -7.059077791759957310e-02
-4.024000000000000021e+00 -1.429499999999999993e+01 3.826899999999999835e+01 -2.085427487841700622e-01
-4.004999999999999893e+00 5.717999999999999972e+00 3.206000000000000227e+01 -1.179459661276604232e-01
-3.980999999999999872e+00 1.315499999999999936e+01 1.502399999999999913e+01 -3.905269885684646836e-01
-3.951999999999999957e+00 -3.664000000000000146e+00 3.677700000000000102e+01 2.381615922455081746e-01
-3.946000000000000174e+00 7.746000000000000441e+00 2.062300000000000111e+01 1.281882292094254916e-01
-3.935999999999999943e+00 -3.745999999999999996e+00 2.583599999999999852e+01 3.592683410504998731e-01
-3.930000000000000160e+00 -6.838000000000000078e+00 3.353999999999999915e+01 3.399336041926842578e-01
-3.927000000000000046e+00 -2.415999999999999925e+00 1.227299999999999969e+01 -6.787347865739649933e-02
-3.922000000000000153e+00 -6.727000000000000313e+00 2.255000000000000071e+01 2.738425418112878096e-01
-3.916999999999999815e+00 5.142999999999999794e+00 2.033299999999999841e+01 1.574414472610452809e-01
-3.914000000000000146e+00 4.312000000000000277e+00 1.942200000000000060e+01 -5.566170596321264041e-02
-3.899000000000000021e+00 -6.445999999999999730e+00 2.103699999999999903e+01 2.163544721612712940e-01
-3.888999999999999790e+00 1.700499999999999901e+01 1.725700000000000145e+01 -1.980889894893658465e-01
-3.869000000000000217e+00 6.684999999999999609e+00 2.821399999999999864e+01 -1.801211394191111204e-01
-3.859999999999999876e+00 1.226099999999999923e+01 1.600700000000000145e+01 -1.611793580041430141e-01
-3.826000000000000068e+00 9.220000000000000639e+00 3.936299999999999955e+01 2.672655118467798241e-01
-3.823999999999999844e+00 1.351399999999999935e+01 2.180300000000000082e+01 6.401947270705354853e-02
-3.765000000000000124e+00 -4.538999999999999702e+00 2.362800000000000011e+01 -1.381838171746564356e-02
-3.763999999999999790e+00 4.051999999999999602e+00 2.364600000000000080e+01 7.827260351570296260e-02
-3.713999999999999968e+00 -1.070500000000000007e+01 3.029599999999999937e+01 1.514518412307679918e-01
-3.709999999999999964e+00 -4.706000000000000405e+00 3.935999999999999943e+01 3.355826903428479890e-01
-3.704000000000000181e+00 -2.342000000000000082e+00 2.938400000000000034e+01 1.591894315342930744e-01
-3.654999999999999805e+00 -5.629999999999999893e+00 3.815100000000000335e+01 3.071273101585726417e-01
-3.638999999999999790e+00 -3.596999999999999975e+00 1.281700000000000017e+01 -7.031804235129504588e-02
-3.573999999999999844e+00 -1.300999999999999934e+00 3.277400000000000091e+01 -1.015831448786778946e-02
-3.517999999999999794e+00 7.886999999999999567e+00 3.869400000000000261e+01 2.352976405708496477e-01
-3.476999999999999869e+00 8.949999999999999289e+00 3.655899999999999750e+01 -1.310919620908405081e-01
-3.451999999999999957e+00 -2.963000000000000078e+00 1.518099999999999916e+01 1.349476332599583439e-01
-3.424999999999999822e+00 -2.192000000000000171e+00 1.083900000000000041e+01 -6.245504433296643343e-02
-3.334999999999999964e+00 5.588000000000000078e+00 2.729299999999999926e+01 8.219067707640781428e-02
-3.307999999999999829e+00 1.963999999999999968e+00 1.904299999999999926e+01 6.080047500700042074e-02
-3.298999999999999932e+00 1.935999999999999943e+00 3.604399999999999693e+01 3.656672603407501998e-01
-3.298000000000000043e+00 -1.084000000000000075e+00 3.148900000000000077e+01 2.669680320020909048e-01
-3.249000000000000110e+00 1.901000000000000023e+00 1.316699999999999982e+01 -3.017852701217819261e-02
-3.237999999999999989e+00 -1.379299999999999926e+01 2.781200000000000117e+01 -1.255921687061814507e-01
-3.138999999999999790e+00 -1.176500000000000057e+01 3.320199999999999818e+01 -6.729275511094341689e-02
-3.117999999999999883e+00 1.060100000000000087e+01 8.653999999999999915e+00 -2.052407456043382067e-02
-3.087000000000000188e+00 1.450900000000000034e+01 2.440800000000000125e+01 -7.334577265093708554e-02
-2.987999999999999989e+00 -3.580000000000000071e+00 1.943100000000000094e+01 2.474407500008672101e-01
-2.955999999999999961e+00 8.128999999999999559e+00 3.730199999999999960e+01 1.335900134253958371e-01
-2.947000000000000064e+00 1.489999999999999991e+00 1.463199999999999967e+01 2.049744935872636620e-01
-2.924999999999999822e+00 1.207999999999999963e+00 3.476100000000000279e+01 3.211271324788027570e-01
-2.923999999999999932e+00 -1.294100000000000072e+01 3.685499999999999687e+01 -2.710827551938095881e-01
-2.908999999999999808e+00 -6.035000000000000142e+00 1.105400000000000027e+01 -6.197242981976769371e-02
-2.886000000000000121e+00 -1.130000000000000032e-01 3.485099999999999909e+01 2.710222391626108673e-01
-2.851999999999999869e+00 -8.162000000000000810e+00 3.877100000000000080e+01 6.475526651313376347e-02
-2.847999999999999865e+00 7.801999999999999602e+00 2.832199999999999918e+01 -8.598749526072513305e-02
-2.825000000000000178e+00 -1.580100000000000016e+01 3.505400000000000205e+01 -2.689104194909449075e-01
-2.799999999999999822e+00 1.462500000000000000e+01 2.203900000000000148e+01 -3.717740070921179280e-02
-2.775999999999999801e+00 3.297000000000000153e+00 1.929599999999999937e+01 -1.562916340306892138e-01
-2.762000000000000011e+00 8.663999999999999702e+00 2.744300000000000139e+01 -7.582041754495774666e-02
-2.734999999999999876e+00 5.354000000000000092e+00 3.284000000000000341e+01 6.143556266305446462e-02
-2.710999999999999854e+00 7.057999999999999829e+00 3.957300000000000040e+01 1.718652922147536621e-01
-2.701000000000000068e+00 -6.285999999999999588e+00 2.047899999999999920e+01 1.088564215737249929e-01
-2.665000000000000036e+00 1.824999999999999956e+00 3.372599999999999909e+01 2.972408115395712702e-01
-2.661999999999999922e+00 1.136800000000000033e+01 1.593599999999999994e+01 1.249393500956660630e-01
-2.630999999999999783e+00 -2.125999999999999890e+00 2.882000000000000028e+01 2.582117377010119119e-01
-2.619000000000000217e+00 -4.357000000000000206e+00 2.321999999999999886e+01 4.053992978614948117e-01
-2.619000000000000217e+00 8.724000000000000199e+00 3.268200000000000216e+01 -6.107066292964773158e-02
-2.551000000000000156e+00 -1.248799999999999955e+01 3.199399999999999977e+01 1.982485172516998961e-01
-2.547000000000000153e+00 -1.175399999999999956e+01 3.427600000000000335e+01 -6.259994981170716177e-02
-2.543000000000000149e+00 -6.016000000000000014e+00 1.905399999999999849e+01 5.347259978910970553e-03
-2.516999999999999904e+00 1.061100000000000065e+01 3.156899999999999906e+01 -3.593406522373050055e-02
-2.494000000000000217e+00 -1.065000000000000036e+01 3.043199999999999861e+01 -7.005857493411783710e-02
-2.471000000000000085e+00 -9.529999999999999583e-01 3.374300000000000210e+01 -4.699669355941014232e-02
-2.375999999999999890e+00 1.799999999999999933e-01 1.696999999999999886e+01 2.610581569879598107e-01
-2.358000000000000096e+00 -1.487700000000000067e+01 3.285499999999999687e+01 -1.494633937750400043e-01
-2.353000000000000203e+00 1.580000000000000016e-01 1.472100000000000009e+01 2.300768720418896740e-01
-2.306000000000000050e+00 6.479000000000000092e+00 3.366499999999999915e+01 -1.409111527388937635e-01
-2.302999999999999936e+00 -6.134000000000000341e+00 3.799799999999999756e+01 2.227928466558797282e-01
-2.301000000000000156e+00 -9.157000000000000028e+00 2.594600000000000151e+01 -2.142748115728997094e-01
-2.297000000000000153e+00 -9.430999999999999162e+00 2.836199999999999832e+01 -9.698809017663344301e-02
-2.290999999999999925e+00 1.456700000000000017e+01 2.347500000000000142e+01 -7.936398691126231308e-02
-2.226999999999999869e+00 -1.355100000000000016e+01 1.738599999999999923e+01 -1.119314190645371576e-01
-2.185000000000000053e+00 -1.121799999999999997e+01 3.893800000000000239e+01 2.977855253162121213e-03
-2.164000000000000146e+00 -2.682999999999999829e+00 1.501800000000000068e+01 6.526617051989699880e-02
-2.104999999999999982e+00 -3.860000000000000098e-01 1.591000000000000014e+01 2.352737403336998268e-01
-2.089999999999999858e+00 7.796000000000000263e+00 2.941600000000000037e+01 -1.896345585675324463e-01
-2.077999999999999847e+00 9.478999999999999204e+00 3.184900000000000020e+01 -3.061633139964072339e-02
-2.056000000000000050e+00 2.572999999999999954e+00 3.647299999999999898e+01 3.323345777002785217e-01
-2.052999999999999936e+00 1.907000000000000028e+00 2.666600000000000037e+01 3.000968135010308457e-01
-2.023000000000000131e+00 -2.557999999999999829e+00 1.073799999999999955e+01 -6.247471259455199266e-02
-2.011000000000000121e+00 -7.381999999999999673e+00 3.832999999999999829e+01 -2.054720896298301569e-01
-2.008000000000000007e+00 -4.597000000000000419e+00 1.883099999999999952e+01 2.145179362005803225e-01
-1.983999999999999986e+00 -1.373000000000000043e+01 2.707600000000000051e+01 -9.494552298778699551e-02
-1.943999999999999950e+00 2.108999999999999986e+00 1.242099999999999937e+01 2.346142267723569930e-01
-1.931000000000000050e+00 3.732000000000000206e+00 8.571999999999999176e+00 -3.822571035075701673e-02
-1.919000000000000039e+00 1.063499999999999979e+01 8.358000000000000540e+00 -1.124053351657984881e-02
-1.895999999999999908e+00 7.418000000000000149e+00 3.694899999999999807e+01 3.519377368901012437e-02
-1.885000000000000009e+00 -1.864300000000000068e+01 3.858599999999999852e+01 -1.273632922340532381e-01
-1.879999999999999893e+00 -1.547300000000000075e+01 3.417000000000000171e+01 -2.344906668778568848e-01
-1.874000000000000110e+00 -1.272300000000000075e+01 1.861700000000000088e+01 9.214116246798938203e-02
-1.848999999999999977e+00 -2.229999999999999982e+00 3.429699999999999704e+01 1.838805552532871146e-01
-1.826999999999999957e+00 -1.147700000000000031e+01 3.123000000000000043e+01 -6.660316947862801595e-03
-1.796999999999999931e+00 -1.755799999999999983e+01 2.027100000000000080e+01 -1.931589294113717492e-01
-1.786000000000000032e+00 3.733000000000000096e+00 1.817699999999999960e+01 2.162558275136373942e-01
-1.778000000000000025e+00 -8.282000000000000028e+00 3.050700000000000145e+01 -2.553188239763088535e-02
-1.772000000000000020e+00 -1.237599999999999945e+01 3.888100000000000023e+01 -1.614165071719658173e-01
-1.764999999999999902e+00 9.926999999999999602e+00 2.445299999999999940e+01 1.444033615681374061e-01
-1.725000000000000089e+00 -1.562599999999999945e+01 2.558399999999999963e+01 -1.483640976938803147e-01
-1.715000000000000080e+00 -1.658599999999999852e+01 3.773799999999999955e+01 -2.283263399845174013e-01
-1.713000000000000078e+00 -6.554000000000000270e+00 1.049900000000000055e+01 -6.330591184613562628e-02
-1.705000000000000071e+00 1.272499999999999964e+01 1.886400000000000077e+01 2.882885710858893585e-02
-1.701999999999999957e+00 6.293000000000000149e+00 3.483800000000000097e+01 -1.126247232296139628e-01
-1.701999999999999957e+00 1.451399999999999935e+01 2.108599999999999852e+01 2.145204005115032564e-02
-1.693000000000000060e+00 -9.592999999999999972e+00 2.967999999999999972e+01 -1.955518433522221867e-03
-1.661999999999999922e+00 4.929999999999999716e+00 3.186299999999999955e+01 -1.406725289668372680e-01
-1.641999999999999904e+00 -1.310899999999999999e+01 3.753499999999999659e+01 -1.586518002299575070e-01
-1.618000000000000105e+00 -7.019000000000000128e+00 1.835500000000000043e+01 -3.182162840983346341e-02
-1.614999999999999991e+00 -1.360800000000000054e+01 3.246000000000000085e+01 -2.211326782537376828e-02
-1.606999999999999984e+00 5.673000000000000043e+00 1.446100000000000030e+01 3.945334107899868270e-01
-1.558999999999999941e+00 -9.324999999999999289e+00 2.726300000000000168e+01 1.193398393776619881e-01
-1.534000000000000030e+00 -1.244299999999999962e+01 4.131000000000000227e+01 -3.243379540203742417e-01
-1.508000000000000007e+00 1.012000000000000011e+00 3.059700000000000131e+01 1.081421724760052577e-01
-1.502999999999999892e+00 -1.515799999999999947e+01 2.681299999999999883e+01 -1.118349901714231487e-01
-1.489999999999999991e+00 -1.122600000000000087e+01 2.437500000000000000e+01 -1.840173961770747990e-01
-1.487999999999999989e+00 7.410999999999999588e+00 3.995499999999999829e+01 -1.294719663493322792e-01
-1.487999999999999989e+00 1.083399999999999963e+01 7.107999999999999652e+00 -2.944025504725673523e-02
-1.483000000000000096e+00 -1.776000000000000023e+00 1.592900000000000027e+01 2.552846543742665064e-01
-1.481999999999999984e+00 1.178100000000000058e+01 1.809900000000000020e+01 7.060130355524105172e-02
-1.471000000000000085e+00 -1.050300000000000011e+01 2.025400000000000134e+01 -4.725737723630067666e-02
-1.461000000000000076e+00 -1.673999999999999844e+01 2.137600000000000122e+01 -1.969886099848501826e-01
-1.461000000000000076e+00 2.005900000000000105e+01 3.617799999999999727e+01 8.656140288387549619e-02
-1.455000000000000071e+00 -1.465799999999999947e+01 2.005999999999999872e+01 -1.597886636008630512e-01
-1.455000000000000071e+00 5.173000000000000043e+00 3.528499999999999659e+01 2.398718741463687354e-01
-1.443000000000000060e+00 8.920000000000000151e-01 3.783500000000000085e+01 3.402539833954466852e-02
-1.443000000000000060e+00 1.200200000000000067e+01 1.659400000000000119e+01 -1.242445180898435614e-01
-1.441999999999999948e+00 7.195000000000000284e+00 1.450600000000000023e+01 1.986326710492307412e-02
-1.433999999999999941e+00 -1.305400000000000027e+01 3.998199999999999932e+01 -1.637963306992323287e-01
-1.362999999999999989e+00 -5.770999999999999908e+00 3.038800000000000168e+01 3.412021753992581230e-01
-1.358000000000000096e+00 -1.252000000000000002e+00 1.244100000000000072e+01 1.154530763182226305e-01
-1.352999999999999980e+00 5.168000000000000149e+00 1.838400000000000034e+01 3.337588588321304672e-01
-1.350999999999999979e+00 -9.048999999999999488e+00 2.485399999999999920e+01 -2.223246998196325985e-01
-1.348999999999999977e+00 1.199000000000000066e+00 2.782000000000000028e+01 4.005761988683603225e-01
-1.342999999999999972e+00 1.672899999999999920e+01 2.107400000000000162e+01 -1.134280849459050194e-01
-1.342000000000000082e+00 2.720000000000000195e+00 4.003499999999999659e+01 2.017808793663657396e-01
-1.342000000000000082e+00 3.641000000000000014e+00 3.186100000000000065e+01 -1.087678426864830267e-01
-1.332000000000000073e+00 9.824999999999999289e+00 1.375999999999999979e+01 -2.009494874165186906e-01
-1.326000000000000068e+00 -1.696699999999999875e+01 2.521300000000000097e+01 -1.881336272082310690e-01
-1.318000000000000060e+00 7.549000000000000377e+00 3.562800000000000011e+01 -3.137622678032099821e-01
-1.314000000000000057e+00 3.799999999999999906e-02 2.332000000000000028e+01 3.154518903653503736e-01
-1.300000000000000044e+00 -8.093999999999999417e+00 1.906500000000000128e+01 -2.959791979100014851e-03
-1.272999999999999909e+00 -6.339000000000000412e+00 4.215299999999999869e+01 -1.831766446991076047e-01
-1.268999999999999906e+00 1.053299999999999947e+01 1.851300000000000168e+01 2.557648565470780830e-02
-1.266000000000000014e+00 9.522000000000000242e+00 1.056400000000000006e+01 1.594925882195410982e-01
-1.264000000000000012e+00 1.016399999999999970e+01 1.993299999999999983e+01 8.225083339167468810e-02
-1.262000000000000011e+00 -1.145199999999999996e+01 1.821300000000000097e+01 2.145627749193856557e-02
-1.233000000000000096e+00 -8.522999999999999687e+00 3.190399999999999991e+01 1.249327905416433016e-01
-1.213999999999999968e+00 1.983000000000000096e+00 3.731400000000000006e+01 2.947086427434452652e-03
-1.201000000000000068e+00 -1.755799999999999983e+01 3.828199999999999648e+01 -2.172878055995345614e-01
-1.195000000000000062e+00 -6.820000000000000284e+00 1.721199999999999974e+01 1.985576979917152429e-01
-1.191999999999999948e+00 -3.165000000000000036e+00 3.330700000000000216e+01 3.049576885427072170e-01
-1.157999999999999918e+00 -1.388599999999999923e+01 1.523900000000000077e+01 -1.420474008675998989e-01
-1.139999999999999902e+00 -4.408999999999999808e+00 1.275000000000000000e+01 -6.482547903299890057e-02
-1.139000000000000012e+00 -1.358900000000000041e+01 4.224199999999999733e+01 -3.170130834379546458e-01
-1.118999999999999995e+00 5.759000000000000341e+00 3.113100000000000023e+01 -1.120459122138677266e-01
-1.106000000000000094e+00 -1.044400000000000084e+01 1.907499999999999929e+01 -5.655189714826303060e-02
-1.100999999999999979e+00 -2.057999999999999829e+00 1.155000000000000071e+01 -9.755865649683723162e-02
-1.092000000000000082e+00 4.991999999999999993e+00 8.779999999999999361e+00 -6.075412025299513352e-02
-1.066000000000000059e+00 8.102000000000000313e+00 1.670899999999999963e+01 2.646787923456665470e-01
-1.054000000000000048e+00 8.795999999999999375e+00 2.964399999999999835e+01 2.414822415200352235e-01
-1.052000000000000046e+00 1.559699999999999953e+01 2.067800000000000082e+01 -1.401888481933769859e-01
-1.024999999999999911e+00 -7.145999999999999908e+00 2.981200000000000117e+01 4.514288467075362743e-02
-1.008000000000000007e+00 -1.012299999999999933e+01 2.415899999999999892e+01 -2.265313181893201799e-01
-1.004999999999999893e+00 6.818999999999999950e+00 4.232600000000000051e+01 -2.251907855215846271e-02
-1.000999999999999890e+00 -1.391600000000000037e+01 1.655600000000000094e+01 -1.188456439223018746e-01
-9.649999999999999689e-01 1.455799999999999983e+01 2.363700000000000045e+01 -1.226218036029900899e-01
-9.609999999999999654e-01 -1.582199999999999918e+01 2.770100000000000051e+01 -1.654354064612518216e-01
-9.609999999999999654e-01 -1.041799999999999926e+01 4.242900000000000205e+01 -2.942106763408859904e-01
-9.559999999999999609e-01 -7.139999999999999680e-01 2.204500000000000171e+01 2.159752735248482991e-01
-9.499999999999999556e-01 1.999000000000000110e+00 3.007900000000000063e+01 5.793592636733387730e-02
-9.499999999999999556e-01 5.753000000000000114e+00 1.104100000000000037e+01 -3.163986382859827751e-02
-9.459999999999999520e-01 -1.355199999999999960e+01 1.951999999999999957e+01 -1.325642129623551824e-01
-9.449999999999999512e-01 8.452999999999999403e+00 3.959000000000000341e+01 -1.114333877604818668e-01
-9.439999999999999503e-01 -1.293200000000000038e+01 2.787199999999999989e+01 -8.726811468252995696e-02
-8.659999999999999920e-01 7.687000000000000277e+00 1.325999999999999979e+01 9.831955701918555779e-02
-8.559999999999999831e-01 8.989000000000000767e+00 1.299399999999999977e+01 -2.099213680580817309e-01
-8.469999999999999751e-01 1.046799999999999997e+01 9.432000000000000384e+00 -2.381261402618500278e-01
-8.409999999999999698e-01 2.173000000000000043e+00 2.876500000000000057e+01 3.767270506727766755e-01
-8.359999999999999654e-01 8.996999999999999886e+00 3.114199999999999946e+01 3.626281877904225515e-01
-8.229999999999999538e-01 -1.439600000000000080e+01 4.006199999999999761e+01 -2.965149948815262726e-01
-7.970000000000000417e-01 -7.415000000000000036e+00 2.228200000000000003e+01 1.757852746948072170e-02
-7.790000000000000258e-01 8.717000000000000526e+00 2.009499999999999886e+01 3.841505195225846103e-01
-7.640000000000000124e-01 6.439000000000000057e+00 4.088000000000000256e+01 -4.164331121699395982e-02
-7.580000000000000071e-01 -3.415999999999999925e+00 2.593199999999999861e+01 4.048129891926447455e-01
-7.469999999999999973e-01 1.156600000000000072e+01 2.182000000000000028e+01 1.661795273730324873e-01
-6.840000000000000524e-01 -1.119500000000000028e+01 4.153199999999999648e+01 -3.037985033986921879e-01
-6.780000000000000471e-01 -1.564499999999999957e+01 3.438700000000000045e+01 -2.440539655154943532e-01
-6.680000000000000382e-01 2.610000000000000098e-01 2.092999999999999972e+01 2.540388813931445111e-01
-6.540000000000000258e-01 -1.550900000000000034e+01 2.094500000000000028e+01 -1.987145565860609919e-01
-6.360000000000000098e-01 -4.459999999999999964e+00 1.946399999999999864e+01 3.866708293757975534e-01
-6.350000000000000089e-01 5.318999999999999950e+00 2.275400000000000134e+01 3.471602326844266395e-01
-5.849999999999999645e-01 -7.046000000000000263e+00 1.264799999999999969e+01 -4.717692984352611640e-02
-5.729999999999999538e-01 1.544599999999999973e+01 3.756099999999999994e+01 2.937152131650116321e-02
-5.689999999999999503e-01 -4.312999999999999723e+00 3.406900000000000261e+01 2.249354098220742448e-01
-5.590000000000000524e-01 -7.807000000000000384e+00 3.814300000000000068e+01 -2.796207968838596014e-01
-5.490000000000000435e-01 7.621000000000000441e+00 1.569299999999999962e+01 -3.575961673412166031e-02
-5.390000000000000346e-01 -3.947000000000000064e+00 4.171999999999999886e+01 1.930595204990562946e-02
-5.360000000000000320e-01 2.850999999999999979e+00 1.821499999999999986e+01 2.370216083883197322e-01
-5.080000000000000071e-01 -6.269000000000000128e+00 1.140600000000000058e+01 -6.570517076625904951e-02
-5.070000000000000062e-01 5.000000000000000000e+00 1.017600000000000016e+01 6.235042614354015938e-02
-5.010000000000000009e-01 -1.250900000000000034e+01 3.669500000000000028e+01 -1.158656053416748724e-02
-4.929999999999999938e-01 -4.801000000000000156e+00 1.178200000000000003e+01 -1.014624383510442235e-01
-4.590000000000000191e-01 -9.163000000000000256e+00 1.854599999999999937e+01 6.112273382637523067e-02
-3.750000000000000000e-01 1.563700000000000045e+01 1.824800000000000111e+01 -3.037827961965528512e-01
-3.659999999999999920e-01 1.109699999999999953e+01 2.074800000000000111e+01 2.810185014679283944e-01
-3.569999999999999840e-01 1.453599999999999959e+01 2.495899999999999963e+01 2.640744017072435001e-01
-3.549999999999999822e-01 3.125999999999999890e+00 3.092699999999999960e+01 3.126847268212308295e-01
-3.420000000000000262e-01 -8.327999999999999403e+00 3.671300000000000097e+01 -2.917032674148736238e-01
-3.270000000000000129e-01 -9.364000000000000767e+00 2.728399999999999892e+01 1.618880816596272587e-01
-3.190000000000000058e-01 2.037199999999999989e+01 3.652799999999999869e+01 9.341306109425326354e-02
-3.150000000000000022e-01 -9.609999999999999654e-01 2.755000000000000071e+01 3.373654257608121876e-01
-2.600000000000000089e-01 9.768000000000000682e+00 2.426800000000000068e+01 1.074293686208984411e-01
-2.349999999999999867e-01 1.149799999999999933e+01 1.598099999999999987e+01 -1.113589915849909212e-01
-2.139999999999999958e-01 9.419000000000000483e+00 1.167999999999999972e+01 -1.506839806599876430e-01
-2.079999999999999905e-01 3.340000000000000191e-01 2.729700000000000060e+01 3.893581182239433947e-01
-1.839999999999999969e-01 -8.826999999999999957e+00 3.912100000000000222e+01 -1.867715940762323945e-01
-1.650000000000000078e-01 -2.418000000000000149e+00 3.251200000000000045e+01 3.170182623541437650e-01
-1.519999999999999962e-01 -1.436400000000000077e+01 4.141100000000000136e+01 -3.059866209357577360e-01
-1.509999999999999953e-01 2.375000000000000000e+00 4.003000000000000114e+01 1.098330771466939221e-01
-1.449999999999999900e-01 -5.429999999999999716e+00 4.164099999999999824e+01 7.982171928071979394e-02
-1.239999999999999991e-01 4.860000000000000320e+00 2.413200000000000145e+01 3.261081149145322877e-01
-7.699999999999999900e-02 1.622899999999999920e+01 3.450399999999999778e+01 2.759012189250101277e-02
-5.299999999999999850e-02 2.089699999999999847e+01 3.772399999999999665e+01 -2.711864239134419430e-01
-2.599999999999999881e-02 5.068999999999999950e+00 7.790000000000000036e+00 -2.106135679777943956e-02
-6.000000000000000125e-03 1.511100000000000065e+01 3.890800000000000125e+01 -2.072881867585528171e-01
2.299999999999999961e-02 -9.916999999999999815e+00 2.305000000000000071e+01 -1.814208761718835716e-01
3.699999999999999817e-02 -1.693999999999999950e+00 1.561500000000000021e+01 2.263249533549250292e-01
4.599999999999999922e-02 1.318200000000000038e+01 2.551699999999999946e+01 2.435901462821167540e-01
6.600000000000000311e-02 -1.423499999999999943e+01 1.708999999999999986e+01 -1.312857636008175066e-01
6.600000000000000311e-02 2.751999999999999780e+00 3.763799999999999812e+01 -3.507510952787293301e-02
9.700000000000000289e-02 1.538299999999999912e+01 1.968799999999999883e+01 -2.488119685745801279e-01
1.110000000000000014e-01 1.217399999999999949e+01 2.465599999999999881e+01 1.853892151973153546e-01
1.179999999999999938e-01 -2.042399999999999949e+01 3.245199999999999818e+01 -2.359695852763829538e-01
1.179999999999999938e-01 -2.548999999999999932e+00 2.584199999999999875e+01 2.923670759680005449e-01
1.320000000000000062e-01 -2.650999999999999801e+00 2.340299999999999869e+01 4.155472890613237102e-01
1.429999999999999882e-01 -1.701699999999999946e+01 2.488500000000000156e+01 -3.231330527043404510e-01
1.980000000000000093e-01 8.365999999999999659e+00 2.468799999999999883e+01 4.320168470364594282e-01
2.020000000000000129e-01 7.639999999999999680e+00 3.569100000000000250e+01 1.072267889150188419e-01
2.230000000000000038e-01 -1.320500000000000007e+01 1.970100000000000051e+01 -1.305351667088966161e-01
2.359999999999999876e-01 -1.077599999999999980e+01 1.599200000000000088e+01 -1.672616447805421180e-01
2.459999999999999964e-01 8.317999999999999616e+00 2.900300000000000011e+01 2.499708619744323013e-01
2.540000000000000036e-01 -3.991999999999999993e+00 1.103800000000000026e+01 -9.487994866386033344e-02
2.670000000000000151e-01 -1.756500000000000128e+01 3.864399999999999835e+01 -2.058095591996716434e-01
2.700000000000000178e-01 -1.614000000000000101e+00 2.227100000000000080e+01 3.074382660382749544e-01
2.969999999999999862e-01 -8.555999999999999162e+00 1.434500000000000064e+01 -7.538895554890061301e-02
2.969999999999999862e-01 -7.517000000000000348e+00 2.284199999999999875e+01 8.157012670637472929e-02
2.989999999999999880e-01 1.305000000000000071e+01 2.671900000000000119e+01 2.244491609052062242e-01
3.170000000000000040e-01 -2.561999999999999833e+00 1.132499999999999929e+01 -9.112847449641411912e-02
3.200000000000000067e-01 4.477999999999999758e+00 2.779500000000000171e+01 3.433608148695366791e-01
3.320000000000000173e-01 2.942000000000000171e+00 1.698100000000000165e+01 4.387996546236428985e-01
3.330000000000000182e-01 -1.100099999999999945e+01 4.070199999999999818e+01 -2.856700922731284509e-01
3.589999999999999858e-01 5.730000000000000426e+00 3.847999999999999687e+01 2.336877986766358606e-01
3.960000000000000187e-01 -1.892999999999999972e+01 3.431600000000000250e+01 -2.367015354281142847e-01
4.199999999999999845e-01 7.001000000000000334e+00 2.894900000000000162e+01 6.414595470916902020e-02
4.229999999999999871e-01 -5.048000000000000043e+00 2.325199999999999889e+01 2.397584077081759690e-01
4.420000000000000040e-01 -7.799999999999999822e+00 1.303299999999999947e+01 -7.547701490774527677e-02
4.520000000000000129e-01 -1.297799999999999976e+01 2.724899999999999878e+01 -8.895296667222069020e-02
4.779999999999999805e-01 1.653000000000000114e+01 3.556099999999999994e+01 5.920140578760706151e-02
4.829999999999999849e-01 1.083799999999999919e+01 2.509100000000000108e+01 2.433438773226186957e-01
4.959999999999999964e-01 3.075000000000000178e+00 4.234899999999999665e+01 -1.984011166554090211e-01
5.050000000000000044e-01 4.163999999999999702e+00 1.038000000000000078e+01 6.280855539844945601e-02
5.370000000000000329e-01 8.022999999999999687e+00 5.445000000000000284e+00 -9.173986772005301993e-02
5.400000000000000355e-01 1.941000000000000059e+00 4.131300000000000239e+01 1.313763746923688469e-01
5.779999999999999583e-01 -2.091000000000000192e+00 2.467999999999999972e+01 2.929678269989802741e-01
5.889999999999999680e-01 -1.328599999999999959e+01 2.603900000000000148e+01 -1.158459266200314308e-01
5.959999999999999742e-01 2.350000000000000089e+00 3.893299999999999983e+01 5.322823176195512485e-02
6.029999999999999805e-01 7.126000000000000334e+00 8.451999999999999957e+00 -1.105761256125097625e-01
6.149999999999999911e-01 8.798999999999999488e+00 3.657200000000000273e+01 2.272564232999406408e-01
6.420000000000000151e-01 1.403999999999999915e+01 1.980799999999999983e+01 5.944187435177368528e-02
6.530000000000000249e-01 1.550300000000000011e+01 3.665699999999999648e+01 2.445359622621717452e-02
6.600000000000000311e-01 6.472000000000000419e+00 4.058100000000000307e+01 -1.781826960885039488e-02
6.720000000000000417e-01 -1.750300000000000011e+01 3.623199999999999932e+01 -1.244908110974268095e-01
6.889999999999999458e-01 -1.897000000000000020e+00 2.709299999999999997e+01 3.015930334477349151e-01
6.919999999999999485e-01 -5.340000000000000302e-01 1.636700000000000088e+01 2.181645548608741048e-01
6.959999999999999520e-01 -3.008000000000000007e+00 1.603099999999999881e+01 2.321159137467644074e-01
6.959999999999999520e-01 1.381999999999999895e+00 3.559599999999999653e+01 2.240243718357168012e-01
7.029999999999999583e-01 -1.776000000000000156e+01 3.351500000000000057e+01 -2.323488340176396716e-01
7.059999999999999609e-01 -1.594899999999999984e+01 2.037399999999999878e+01 -2.137805410400313577e-01
7.269999999999999796e-01 -1.585800000000000054e+01 2.461400000000000077e+01 -2.829578667984515294e-01
7.379999999999999893e-01 6.152999999999999581e+00 7.706000000000000405e+00 4.364566578273448502e-03
7.550000000000000044e-01 -2.143299999999999983e+01 3.453699999999999903e+01 -2.231336474481041277e-01
7.560000000000000053e-01 -1.808299999999999841e+01 2.488299999999999912e+01 -1.723460312770003500e-01
7.570000000000000062e-01 8.239999999999999547e-01 2.670200000000000173e+01 3.887031242376883799e-01
7.620000000000000107e-01 7.794999999999999929e+00 3.428099999999999881e+01 2.267762629991108315e-03
