4.428999999999999915e+01 2.801200000000000045e+01 -7.139000000000000234e+00 -1.778322387482900169e-01
4.429500000000000171e+01 3.574699999999999989e+01 1.780499999999999972e+01 4.443929384600129456e-02
4.430400000000000205e+01 1.230799999999999983e+01 1.886299999999999955e+01 2.598998063791805313e-01
4.436099999999999710e+01 2.151999999999999957e+01 2.337800000000000011e+01 -6.915496825368544487e-02
4.441899999999999693e+01 2.006500000000000128e+01 2.341400000000000148e+01 -3.321304535862519558e-02
4.441899999999999693e+01 3.289200000000000301e+01 1.208600000000000030e+01 -1.737354956794163741e-01
4.444299999999999784e+01 1.167200000000000060e+01 3.076000000000000068e+00 9.962300613338515021e-02
4.444899999999999807e+01 3.351500000000000057e+01 1.451099999999999923e+01 -6.022974937866103218e-02
4.445700000000000074e+01 2.467999999999999972e+01 5.096000000000000085e+00 -4.290828397938835359e-02
4.446399999999999864e+01 1.591799999999999926e+01 1.133799999999999919e+01 3.176082394124217223e-01
4.447800000000000153e+01 1.604599999999999937e+01 2.056700000000000017e+01 3.926607655603533420e-01
4.449600000000000222e+01 2.403699999999999903e+01 3.915000000000000036e+00 1.327139995147320617e-01
4.452700000000000102e+01 3.184299999999999997e+01 1.097600000000000087e+01 1.733546318867122682e-01
4.460199999999999676e+01 3.251200000000000045e+01 9.608000000000000540e+00 7.835462271381953003e-02
4.462299999999999756e+01 1.205199999999999960e+01 1.287299999999999933e+01 3.359767079162708781e-01
4.467199999999999704e+01 2.457900000000000063e+01 1.187199999999999989e+01 2.938548359195308213e-01
4.469299999999999784e+01 2.600199999999999889e+01 1.684199999999999875e+01 3.676744983255472166e-01
4.471900000000000119e+01 2.721600000000000108e+01 -8.314999999999999503e+00 -2.129539565982583871e-01
4.473100000000000165e+01 2.017299999999999827e+01 1.732799999999999940e+01 5.901390361220195530e-03
4.474799999999999756e+01 3.051999999999999957e+01 2.329799999999999827e+01 1.088668062737276204e-01
4.475000000000000000e+01 2.605900000000000105e+01 -3.904999999999999805e+00 -7.294351114379137588e-04
4.475200000000000244e+01 3.317000000000000171e+01 2.026899999999999835e+01 -3.688702616170398685e-02
4.475600000000000023e+01 9.990000000000000213e+00 2.089499999999999957e+01 2.127389244377070054e-01
4.476200000000000045e+01 2.726500000000000057e+01 6.524000000000000021e+00 -9.058718674404284132e-02
4.478300000000000125e+01 1.578800000000000026e+01 5.785999999999999588e+00 8.917627224148633180e-02
4.479999999999999716e+01 3.224499999999999744e+01 1.819699999999999918e+01 -1.366327855968314520e-01
4.487400000000000233e+01 3.733100000000000307e+01 2.669300000000000139e+01 -1.951131035139527514e-01
4.490200000000000102e+01 1.724299999999999855e+01 -6.870000000000000551e-01 7.196801858430636190e-02
4.490800000000000125e+01 2.357799999999999940e+01 1.813800000000000168e+01 3.156265731194048962e-01
4.490999999999999659e+01 1.955499999999999972e+01 2.338999999999999968e+00 4.200000000000000400e-01
4.492099999999999937e+01 1.928500000000000014e+01 1.608699999999999974e+01 3.799999999999999489e-01
4.496900000000000119e+01 1.117800000000000082e+01 4.424000000000000377e+00 1.565905202860194412e-01
4.497099999999999653e+01 1.981400000000000006e+01 8.858000000000000540e+00 2.093658662043099417e-01
4.498499999999999943e+01 2.060099999999999909e+01 7.564000000000000057e+00 3.168973139160215502e-01
4.498899999999999721e+01 9.936999999999999389e+00 1.938700000000000045e+01 2.422776127217309838e-01
4.500099999999999767e+01 3.671900000000000119e+01 2.101000000000000156e+01 -8.772175201429148472e-02
4.502199999999999847e+01 2.739999999999999858e+01 1.624800000000000111e+01 1.599094766473376228e-01
4.502700000000000102e+01 3.005699999999999861e+01 -2.829000000000000181e+00 1.441017982539057607e-01
4.512500000000000000e+01 2.782700000000000173e+01 -2.449999999999999956e-01 3.706957850930719944e-01
4.512800000000000011e+01 3.348499999999999943e+01 -5.248000000000000220e+00 2.053440473467205984e-01
4.517600000000000193e+01 1.289199999999999946e+01 1.511100000000000065e+01 1.007108959220667926e-01
4.520000000000000284e+01 9.114000000000000767e+00 2.168799999999999883e+01 1.681175041918584467e-01
4.524499999999999744e+01 1.949599999999999866e+01 1.852799999999999869e+01 9.699844352740641384e-02
4.527900000000000347e+01 3.193400000000000105e+01 2.323999999999999844e+01 1.768203042822981963e-01
4.532999999999999829e+01 1.256799999999999962e+01 9.659999999999999698e-01 1.604154132381956921e-01
4.537400000000000233e+01 2.598799999999999955e+01 7.014000000000000234e+00 -1.512313689497453983e-01
4.537800000000000011e+01 9.125999999999999446e+00 3.326999999999999957e+00 7.343845427422508731e-02
4.538799999999999812e+01 3.295100000000000051e+01 -1.314999999999999947e+00 5.546422987541533428e-03
4.546300000000000097e+01 1.270100000000000051e+01 1.905099999999999838e+01 1.370720403283138267e-01
4.549699999999999989e+01 3.243299999999999983e+01 1.165999999999999925e+00 3.127894119841897469e-01
4.550399999999999778e+01 3.361899999999999977e+01 1.516200000000000081e+01 5.795381551456210006e-02
4.550999999999999801e+01 2.400499999999999901e+01 1.069200000000000017e+01 3.948188427065914552e-01
4.553000000000000114e+01 2.374899999999999878e+01 3.358999999999999986e+00 1.893126160482275777e-01
4.555400000000000205e+01 1.208900000000000041e+01 2.194999999999999840e+00 1.676771551608183947e-02
4.556000000000000227e+01 1.429100000000000037e+01 2.284799999999999898e+01 -5.621857533433911869e-02
4.559199999999999875e+01 9.821999999999999176e+00 4.341000000000000192e+00 1.223054552250695259e-01
4.561099999999999710e+01 3.529699999999999704e+01 2.656800000000000139e+01 -1.643596007804334902e-01
4.561200000000000188e+01 3.051000000000000156e+01 -5.070000000000000062e-01 3.343579619066616715e-01
4.563000000000000256e+01 2.281400000000000006e+01 6.722000000000000419e+00 2.984757372338252557e-01
4.568900000000000006e+01 2.506099999999999994e+01 5.814000000000000057e+00 -1.522501953787917250e-01
4.569599999999999795e+01 3.098600000000000065e+01 1.118699999999999939e+01 3.800000000000000044e-01
4.577900000000000347e+01 3.651200000000000045e+01 2.647100000000000009e+01 -1.825116459821997661e-01
4.581700000000000017e+01 1.960500000000000043e+01 2.307700000000000173e+01 -3.575732831271486445e-01
4.583200000000000074e+01 1.243200000000000038e+01 -2.781000000000000139e+00 8.859557345975231646e-02
4.588499999999999801e+01 1.846499999999999986e+01 2.211700000000000088e+01 -3.942464404398594857e-02
4.589300000000000068e+01 2.536799999999999855e+01 -7.229000000000000092e+00 -2.163055514930371792e-02
4.591599999999999682e+01 2.521699999999999875e+01 1.698699999999999832e+01 3.415850662329820708e-01
4.591899999999999693e+01 2.405999999999999872e+01 1.761499999999999844e+01 3.209442930233967206e-01
4.592600000000000193e+01 3.012699999999999889e+01 -1.993999999999999995e+00 2.630275924808315180e-01
4.598599999999999710e+01 2.831200000000000117e+01 4.450000000000000067e-01 -1.477804514402082312e-02
4.598899999999999721e+01 3.201200000000000045e+01 -2.270000000000000073e-01 -6.946933849972689035e-02
4.607300000000000040e+01 2.650900000000000034e+01 -8.044999999999999929e+00 6.655380594694755569e-02
4.607900000000000063e+01 2.051899999999999835e+01 2.317000000000000171e+00 -3.886381030830188266e-02
4.609499999999999886e+01 1.322700000000000031e+01 2.224399999999999977e+01 -9.143071723490076236e-04
4.610399999999999920e+01 3.157400000000000162e+01 1.836899999999999977e+01 -1.264918038580994386e-01
4.615699999999999648e+01 2.152499999999999858e+01 7.171999999999999709e+00 4.151883409162286931e-01
4.622800000000000153e+01 2.589999999999999858e+01 -3.535000000000000142e+00 2.440810597572127261e-01
4.624000000000000199e+01 1.518399999999999928e+01 2.337399999999999878e+01 3.204307079825705062e-02
4.626400000000000290e+01 1.132600000000000051e+01 -1.812000000000000055e+00 -2.657900939612378166e-01
4.628999999999999915e+01 2.960099999999999909e+01 4.109999999999999765e-01 3.719790263884471537e-01
4.629500000000000171e+01 2.759400000000000119e+01 2.823999999999999844e+00 3.646760650844579343e-01
4.630400000000000205e+01 9.349000000000000199e+00 5.254999999999999893e+00 5.233851384787369110e-02
4.631600000000000250e+01 1.530799999999999983e+01 1.772000000000000020e+00 1.173505939767800765e-01
4.631799999999999784e+01 1.925700000000000145e+01 9.186999999999999389e+00 4.095077772715865483e-01
4.632099999999999795e+01 2.238599999999999923e+01 1.522300000000000075e+01 3.800000000000000044e-01
4.632300000000000040e+01 2.091300000000000026e+01 4.804999999999999716e+00 2.936190860340950892e-01
4.636899999999999977e+01 2.492500000000000071e+01 -2.350000000000000089e+00 2.469113383022894792e-01
4.638600000000000279e+01 2.812300000000000111e+01 -5.209999999999999964e+00 -8.608939496605529096e-02
4.640200000000000102e+01 3.067000000000000171e+01 1.716400000000000148e+01 2.655715362004303914e-01
4.641299999999999670e+01 2.380699999999999861e+01 6.288999999999999702e+00 2.941865775987480558e-01
4.648400000000000176e+01 3.641599999999999682e+01 2.082100000000000151e+01 -9.054500568436846253e-02
4.657099999999999795e+01 1.303700000000000081e+01 1.529999999999999971e-01 -3.102343172864661103e-01
4.663400000000000034e+01 2.628600000000000136e+01 7.828000000000000291e+00 2.080911581903560070e-01
4.665500000000000114e+01 1.329499999999999993e+01 8.016999999999999460e+00 2.102560359246148924e-01
4.671300000000000097e+01 3.571900000000000119e+01 1.956099999999999994e+01 2.175812495614441455e-01
4.674499999999999744e+01 1.199799999999999933e+01 1.010200000000000031e+01 3.350354124646517384e-01
4.677700000000000102e+01 3.202199999999999847e+01 2.299299999999999855e+01 9.190233692658328346e-02
4.679399999999999693e+01 2.744200000000000017e+01 1.401000000000000023e+00 3.289756650689631273e-02
4.684899999999999665e+01 3.429699999999999704e+01 2.199800000000000111e+01 -2.643709887229549887e-02
4.686200000000000188e+01 2.717599999999999838e+01 -3.225000000000000089e+00 8.942049674550772709e-02
4.688600000000000279e+01 2.555099999999999838e+01 1.406499999999999950e+01 3.079129847714682233e-01
4.691299999999999670e+01 2.817399999999999949e+01 -4.104000000000000092e+00 1.349583513851509708e-01
4.692999999999999972e+01 2.089199999999999946e+01 6.004999999999999893e+00 2.991216380437883293e-01
4.695100000000000051e+01 2.031500000000000128e+01 9.799999999999999822e-01 -3.584119176779202581e-02
4.697200000000000131e+01 2.035300000000000153e+01 3.605999999999999872e+00 2.907436172911731509e-01
4.698199999999999932e+01 1.023799999999999955e+01 -2.537999999999999812e+00 -2.216167182931557955e-01
4.702700000000000102e+01 3.562100000000000222e+01 2.202199999999999847e+01 -9.471636988265043355e-02
4.709100000000000108e+01 2.269900000000000162e+01 2.500400000000000134e+01 -4.690295786045133725e-02
4.712100000000000222e+01 3.368099999999999739e+01 1.770799999999999841e+01 2.157060750119888515e-01
4.714500000000000313e+01 1.188899999999999935e+01 -6.870000000000000551e-01 -1.621103544990500356e-01
4.716700000000000159e+01 3.703199999999999648e+01 2.607700000000000173e+01 -1.880327268131563312e-01
4.718900000000000006e+01 2.982300000000000040e+01 -2.270999999999999908e+00 2.745630295186295422e-01
4.720100000000000051e+01 2.248100000000000165e+01 2.064900000000000091e+01 -2.300851442098431066e-01
4.721000000000000085e+01 3.262100000000000222e+01 1.851999999999999957e+01 2.252703145684071817e-01
4.721500000000000341e+01 1.461100000000000065e+01 2.772800000000000153e+01 1.426516488991577958e-01
4.724799999999999756e+01 1.833500000000000085e+01 2.139099999999999824e+01 -1.123805685269804178e-01
4.726599999999999824e+01 2.332700000000000173e+01 1.767200000000000060e+01 2.927946607537778023e-01
4.727199999999999847e+01 1.633899999999999864e+01 1.555300000000000082e+01 3.800000000000000044e-01
4.731300000000000239e+01 1.707900000000000063e+01 2.066100000000000136e+01 9.401616867275728456e-03
4.734599999999999653e+01 3.344299999999999784e+01 2.308899999999999864e+01 1.791577115866929693e-02
4.737100000000000222e+01 1.344100000000000072e+01 4.328999999999999737e+00 4.487229742406906308e-02
4.739800000000000324e+01 1.472100000000000009e+01 1.727000000000000091e+00 -3.242597087572553216e-02
4.742399999999999949e+01 2.293700000000000117e+01 1.526299999999999990e+01 2.907025637249423533e-01
4.742399999999999949e+01 2.793299999999999983e+01 1.151800000000000068e+01 3.799999999999999489e-01
4.745799999999999841e+01 2.391100000000000136e+01 2.018700000000000117e+01 -5.860878371093436456e-02
4.751299999999999812e+01 1.243999999999999950e+01 8.933999999999999275e+00 1.668095896374937326e-01
4.754099999999999682e+01 1.300799999999999912e+01 2.221099999999999852e+01 1.352447509622685916e-02
4.755100000000000193e+01 2.047400000000000020e+01 1.272600000000000087e+01 3.800000000000000044e-01
4.756799999999999784e+01 3.619700000000000273e+01 2.294800000000000040e+01 -8.944010023664491008e-03
4.758400000000000318e+01 1.544100000000000072e+01 1.791199999999999903e+01 2.931678312055913671e-01
4.760399999999999920e+01 1.361599999999999966e+01 1.000000000000000000e+00 -9.528080864219037882e-02
4.762199999999999989e+01 2.944800000000000040e+01 -3.633999999999999897e+00 6.509798386482477939e-02
4.762700000000000244e+01 2.370899999999999963e+01 6.187999999999999723e+00 3.188545736706854816e-01
4.770700000000000074e+01 2.424399999999999977e+01 -2.279999999999999805e+00 1.859160462775757139e-01
4.771600000000000108e+01 1.438299999999999912e+01 2.017200000000000060e+01 -3.350493084848316788e-02
4.777799999999999869e+01 8.492000000000000881e+00 8.493000000000000327e+00 -7.941693760071371830e-03
4.784300000000000352e+01 3.574699999999999989e+01 1.656599999999999895e+01 -4.347999384490144892e-02
4.785499999999999687e+01 1.161100000000000065e+01 2.173499999999999943e+01 8.975454068569635457e-02
4.794599999999999795e+01 9.253000000000000114e+00 1.208600000000000030e+01 -3.038221931463542386e-02
4.794899999999999807e+01 3.552100000000000080e+01 1.909799999999999898e+01 2.072824090198461255e-01
4.795600000000000307e+01 2.342999999999999972e+01 1.638899999999999935e+01 2.907415835647717550e-01
4.799000000000000199e+01 1.461100000000000065e+01 2.664499999999999957e+01 1.784383167827971739e-01
4.802700000000000102e+01 3.078699999999999903e+01 2.673999999999999932e+00 3.270413065977896272e-01
4.803199999999999648e+01 3.278199999999999648e+01 7.804000000000000270e+00 3.431782345528934242e-01
4.805599999999999739e+01 2.039600000000000080e+01 6.182999999999999829e+00 4.207205056237837693e-01
4.807000000000000028e+01 3.150600000000000023e+01 6.966000000000000192e+00 3.550219711758492158e-01
4.807000000000000028e+01 3.477100000000000080e+01 1.775700000000000145e+01 2.024574452699988425e-01
4.808299999999999841e+01 1.122400000000000020e+01 8.167999999999999261e+00 -1.853701665127824028e-01
4.808599999999999852e+01 2.344200000000000017e+01 -1.209000000000000075e+00 -1.682315615354760263e-01
4.811399999999999721e+01 2.198100000000000165e+01 2.505099999999999838e+01 -3.830497597964018786e-01
4.811399999999999721e+01 3.247200000000000131e+01 1.934900000000000020e+01 1.799999999999999933e-01
4.811500000000000199e+01 1.642200000000000060e+01 1.683899999999999864e+01 3.800000000000000044e-01
4.811999999999999744e+01 2.555799999999999983e+01 1.400900000000000034e+01 2.888263117926401780e-01
4.812700000000000244e+01 2.390399999999999991e+01 1.880199999999999960e+01 2.902290572117375289e-01
4.821000000000000085e+01 2.778099999999999881e+01 1.304999999999999938e+00 4.640891096856682163e-02
4.822299999999999898e+01 2.098799999999999955e+01 2.581899999999999906e+01 -3.861438477667806235e-01
4.822500000000000142e+01 2.313400000000000034e+01 1.399799999999999933e+01 3.799999999999999489e-01
4.822699999999999676e+01 1.596400000000000041e+01 2.597599999999999909e+01 2.337738836382537710e-01
4.828000000000000114e+01 1.405599999999999916e+01 2.134199999999999875e+01 5.160249800624366716e-03
4.829699999999999704e+01 1.650000000000000000e+01 1.116000000000000014e+01 3.956890794080373808e-01
4.829699999999999704e+01 3.605499999999999972e+01 2.643900000000000006e+01 -6.417133984508785471e-02
4.831499999999999773e+01 2.105600000000000094e+01 3.347999999999999865e+00 3.271826274040769422e-01
4.831900000000000261e+01 2.238100000000000023e+01 3.511000000000000121e+00 3.718403997517707449e-01
4.833500000000000085e+01 1.537400000000000055e+01 1.926899999999999835e+01 -5.316332035494828606e-02
4.833599999999999852e+01 1.080599999999999916e+01 2.870000000000000107e+00 2.148833979270501487e-02
4.834100000000000108e+01 2.466900000000000048e+01 2.122700000000000031e+01 -2.313423615785601406e-01
4.837199999999999989e+01 1.675000000000000000e+01 1.993799999999999883e+01 -1.217367380676712303e-02
4.838600000000000279e+01 2.709799999999999898e+01 -8.369999999999999662e-01 -2.282764850759985420e-01
4.839999999999999858e+01 1.840399999999999991e+01 2.242000000000000171e+01 -3.777493379623383940e-01
4.846099999999999852e+01 2.673499999999999943e+01 1.677100000000000080e+01 1.529019979900928528e-01
4.849399999999999977e+01 1.358099999999999952e+01 2.617999999999999972e+01 1.641314687773674230e-01
4.849399999999999977e+01 3.033899999999999864e+01 7.807000000000000384e+00 3.577282467415438538e-01
4.851299999999999812e+01 1.089100000000000001e+01 1.645899999999999963e+01 -1.644246016553227441e-02
4.855299999999999727e+01 1.326399999999999935e+01 4.046000000000000263e+00 2.714399951029691782e-02
4.855400000000000205e+01 1.732700000000000173e+01 2.320100000000000051e+01 -1.747592542537184102e-01
4.857000000000000028e+01 1.157699999999999996e+01 5.812999999999999723e+00 -6.634113836379845752e-02
4.858400000000000318e+01 1.520500000000000007e+01 2.565999999999999837e+00 -2.244894019844441424e-02
4.860099999999999909e+01 2.698799999999999955e+01 1.142600000000000016e+01 3.498944994060940172e-01
4.861699999999999733e+01 3.812500000000000000e+01 1.628800000000000026e+01 -7.427657880020868686e-02
4.866100000000000136e+01 1.701399999999999935e+01 6.001999999999999780e+00 3.726073520118466376e-01
4.867300000000000182e+01 9.073000000000000398e+00 9.111000000000000654e+00 -1.676492403421777841e-02
4.869100000000000250e+01 2.059299999999999997e+01 1.378899999999999970e+01 2.970776513723435985e-01
4.875000000000000000e+01 2.422100000000000009e+01 -3.158999999999999808e+00 -1.362225624293784132e-01
4.885099999999999909e+01 2.444000000000000128e+01 1.398600000000000065e+01 3.997344464215336624e-01
4.887100000000000222e+01 1.037299999999999933e+01 9.038999999999999702e+00 -9.437381812036146900e-02
4.888100000000000023e+01 3.341400000000000148e+01 2.310399999999999920e+01 -5.229256524724237160e-02
4.889399999999999835e+01 2.757799999999999940e+01 1.779999999999999916e-01 -2.343810617171127875e-01
4.889900000000000091e+01 2.690099999999999980e+01 1.400000000000000000e+01 3.979327373236343224e-01
4.891100000000000136e+01 1.113299999999999912e+01 1.397700000000000031e+01 -5.897560958541696145e-03
4.892199999999999704e+01 1.705199999999999960e+01 7.920000000000000373e-01 2.705828750276836336e-01
4.892900000000000205e+01 3.677400000000000091e+01 1.640899999999999892e+01 1.864611808227726042e-01
4.895799999999999841e+01 3.587599999999999767e+01 1.971499999999999986e+01 2.089456125151137322e-01
4.896099999999999852e+01 1.138799999999999990e+01 1.759900000000000020e+01 1.395640640603059424e-01
4.898199999999999932e+01 3.167399999999999949e+01 5.717999999999999972e+00 4.594183002202301830e-02
4.899000000000000199e+01 1.175300000000000011e+01 7.051999999999999602e+00 2.520597659871912088e-01
4.900500000000000256e+01 4.536999999999999922e+00 1.228700000000000081e+01 -3.560831592861034012e-01
4.905799999999999983e+01 1.585100000000000087e+01 6.668999999999999595e+00 3.674558526754618804e-01
4.907000000000000028e+01 3.085099999999999909e+01 3.319999999999999840e+00 3.755581421917804363e-02
4.909499999999999886e+01 3.044000000000000128e+01 4.809000000000000163e+00 3.030770767724384404e-02
4.913700000000000045e+01 1.940200000000000102e+01 2.248300000000000054e+01 -1.148482735545835187e-01
4.914099999999999824e+01 2.466300000000000026e+01 3.266999999999999904e+00 1.652234424884328409e-02
4.914600000000000080e+01 3.223599999999999710e+01 1.515099999999999980e+01 2.207551328115590628e-01
4.915400000000000347e+01 2.926800000000000068e+01 -3.681000000000000050e+00 8.014006465779373312e-02
4.916400000000000148e+01 9.365000000000000213e+00 1.220500000000000007e+01 -7.370736090655404318e-03
4.917000000000000171e+01 6.870000000000000107e+00 1.029599999999999937e+01 2.309871399802401054e-02
4.917900000000000205e+01 1.148700000000000010e+01 1.540700000000000003e+01 -1.170072976346141214e-02
4.923100000000000165e+01 1.407399999999999984e+01 3.225999999999999979e+00 -5.417595805430238526e-02
4.926100000000000279e+01 2.202100000000000080e+01 1.384099999999999930e+01 2.861361404355496907e-01
4.926400000000000290e+01 2.231899999999999906e+01 2.413299999999999912e+01 -3.448569408771050976e-02
4.929699999999999704e+01 2.294900000000000162e+01 -1.439000000000000057e+00 -1.713723837580702347e-01
4.930700000000000216e+01 3.046199999999999974e+01 2.646999999999999886e+01 -3.810174873487609526e-01
4.932999999999999829e+01 2.040299999999999869e+01 3.027000000000000135e+00 2.834397539585348236e-01
4.933200000000000074e+01 1.209600000000000009e+01 4.660999999999999588e+00 -1.091719520527472363e-02
4.933299999999999841e+01 1.453700000000000081e+01 2.172299999999999898e+01 -2.353593496385241735e-01
4.933400000000000318e+01 2.283399999999999963e+01 9.808999999999999275e+00 3.977338039239059486e-01
4.933700000000000330e+01 1.748499999999999943e+01 1.980300000000000082e+01 9.263067531300900326e-02
4.936399999999999721e+01 2.013599999999999923e+01 1.748999999999999844e+01 3.800000000000000044e-01
4.936399999999999721e+01 2.722299999999999898e+01 1.016799999999999926e+01 3.565133958966874017e-01
4.938199999999999790e+01 3.049099999999999966e+01 -5.230000000000000204e-01 9.611640823275023615e-02
4.945100000000000051e+01 1.596700000000000053e+01 2.505600000000000094e+01 -1.114119876696466338e-01
4.948599999999999710e+01 3.338400000000000034e+01 2.191000000000000014e+01 -9.893578557500130877e-02
4.949799999999999756e+01 3.344299999999999784e+01 2.417000000000000171e+01 -1.908730271240627885e-01
4.950600000000000023e+01 2.319500000000000028e+01 3.255999999999999783e+00 4.208491938159437673e-01
4.951800000000000068e+01 2.715599999999999881e+01 1.263199999999999967e+01 3.447960995606755841e-01
4.952600000000000335e+01 1.100000000000000000e+01 3.608000000000000096e+00 2.904500628450109104e-02
4.956700000000000017e+01 3.066900000000000048e+01 2.774800000000000111e+01 -3.859607368297454655e-01
4.957200000000000273e+01 1.768299999999999983e+01 5.149000000000000021e+00 1.392015501712326984e-02
4.959300000000000352e+01 1.598300000000000054e+01 1.667000000000000037e+00 1.969491173697033443e-02
4.959899999999999665e+01 1.618199999999999861e+01 1.652499999999999858e+01 5.293503391044647455e-02
4.960300000000000153e+01 1.724599999999999866e+01 2.421999999999999886e+01 -3.499999999999999778e-01
4.962800000000000011e+01 2.687300000000000111e+01 1.632900000000000063e+01 1.974652825060381756e-01
4.964000000000000057e+01 3.910300000000000153e+01 1.615700000000000003e+01 -1.469302396447445536e-01
4.964200000000000301e+01 8.298999999999999488e+00 1.002599999999999980e+01 -4.651673630194039233e-02
4.965299999999999869e+01 4.311200000000000188e+01 2.064799999999999969e+01 -1.051681352243569317e-01
4.967399999999999949e+01 2.876599999999999824e+01 -5.004999999999999893e+00 9.856338265578577784e-02
4.967799999999999727e+01 4.082200000000000273e+01 2.043900000000000006e+01 1.251353305291598716e-01
4.968900000000000006e+01 2.793100000000000094e+01 3.794000000000000039e+00 5.158530972845746382e-02
4.970300000000000296e+01 3.656499999999999773e+01 2.609499999999999886e+01 -9.488706305485880566e-02
4.972899999999999920e+01 2.341900000000000048e+01 -2.608000000000000096e+00 -1.106380359561646848e-01
4.973899999999999721e+01 1.683399999999999963e+01 1.079199999999999982e+01 2.089611430699775119e-01
4.977600000000000335e+01 4.623999999999999666e+00 1.130700000000000038e+01 -3.553628309513315875e-01
4.977600000000000335e+01 9.992000000000000881e+00 1.345599999999999952e+01 -3.619282870336159030e-01
4.978799999999999670e+01 3.189699999999999847e+01 1.125200000000000067e+01 2.855012927841274473e-01
4.978999999999999915e+01 1.957199999999999918e+01 1.353299999999999947e+01 3.126827016531882331e-01
4.979299999999999926e+01 1.794699999999999918e+01 9.769999999999999574e+00 2.657072405497520884e-01
4.987500000000000000e+01 1.795200000000000173e+01 8.000000000000000167e-03 2.422520690788000919e-01
4.989600000000000080e+01 1.228200000000000003e+01 1.732600000000000051e+01 1.269515869518629270e-01
4.991899999999999693e+01 2.964600000000000080e+01 -6.049999999999999822e+00 -1.434424728797961679e-01
4.992000000000000171e+01 2.695299999999999940e+01 1.503100000000000058e+01 1.630850643921747389e-01
4.993299999999999983e+01 3.657399999999999807e+01 2.463800000000000168e+01 -1.921748728061589140e-01
4.995900000000000318e+01 2.740500000000000114e+01 -5.193999999999999950e+00 -1.215490627393368134e-01
4.998700000000000188e+01 2.306700000000000017e+01 8.429000000000000270e+00 3.087405881478950120e-01
5.000900000000000034e+01 3.956600000000000250e+01 1.976699999999999946e+01 3.538226949878513954e-04
5.001100000000000279e+01 4.202300000000000324e+01 1.998000000000000043e+01 -1.066129640971333892e-01
5.003699999999999903e+01 8.970000000000000639e+00 1.127100000000000080e+01 -2.233868309698565716e-02
5.005799999999999983e+01 1.235800000000000054e+01 1.596400000000000041e+01 -5.814892452573269116e-02
5.006300000000000239e+01 3.040099999999999980e+01 4.969999999999999973e-01 -1.835330011606685352e-01
5.007099999999999795e+01 1.226200000000000045e+01 7.320000000000000284e+00 -1.296235825405383513e-01
5.017799999999999727e+01 3.629000000000000004e+00 1.066600000000000037e+01 -3.544489381559148833e-01
5.022599999999999909e+01 3.125400000000000134e+01 2.786000000000000032e+00 2.285647577332935998e-01
5.023799999999999955e+01 3.106500000000000128e+01 2.575199999999999889e+01 -1.848489408935199418e-01
5.024699999999999989e+01 2.636499999999999844e+01 6.525999999999999801e+00 3.246941917529866939e-01
5.026500000000000057e+01 3.639600000000000080e+01 1.640299999999999869e+01 8.744435695646449180e-02
5.026899999999999835e+01 5.990000000000000213e+00 1.089499999999999957e+01 -3.556346812179418948e-01
5.028600000000000136e+01 2.963400000000000034e+01 5.136000000000000121e+00 9.162916225219103900e-03
5.029599999999999937e+01 3.076699999999999946e+01 1.187599999999999945e+01 2.824417539846419412e-01
5.031900000000000261e+01 3.162999999999999901e+01 1.377999999999999892e+00 2.950245984314696646e-01
5.033700000000000330e+01 2.245799999999999841e+01 5.455000000000000071e+00 3.722272077561953885e-01
5.034899999999999665e+01 1.536999999999999922e+01 6.504999999999999893e+00 1.813084423455423588e-01
5.036699999999999733e+01 3.825200000000000244e+01 2.192599999999999838e+01 1.052015747501140186e-01
5.038000000000000256e+01 2.799399999999999977e+01 1.890000000000000013e-01 -1.775117068054337666e-01
5.039900000000000091e+01 1.230899999999999928e+01 1.074300000000000033e+01 1.029879402446456649e-01
5.041100000000000136e+01 2.918299999999999983e+01 -7.274000000000000021e+00 -1.248227795425142783e-01
5.044299999999999784e+01 2.694099999999999895e+01 -6.418000000000000149e+00 -1.040329959589528785e-01
5.048199999999999932e+01 2.843799999999999883e+01 4.584999999999999964e+00 -2.253977556989751260e-02
5.049399999999999977e+01 1.558900000000000041e+01 1.030100000000000016e+01 3.086631021402223007e-01
5.057099999999999795e+01 3.201299999999999812e+01 1.611299999999999955e+01 -1.587321911406999395e-02
5.057399999999999807e+01 2.925000000000000000e+01 9.300000000000000488e-01 -1.677481885050028099e-01
5.059199999999999875e+01 3.263000000000000256e+01 1.038000000000000078e+01 2.831711384464289383e-01
5.059799999999999898e+01 2.173900000000000077e+01 2.460200000000000031e+01 2.636945701919408136e-01
5.062299999999999756e+01 2.182400000000000162e+01 7.831000000000000405e+00 2.959869682173847383e-01
5.067000000000000171e+01 2.782900000000000063e+01 -7.450999999999999623e+00 -1.106667848335785853e-01
5.067199999999999704e+01 1.722500000000000142e+01 -9.589999999999999636e-01 2.459756920709673944e-01
5.067399999999999949e+01 2.291700000000000159e+01 4.243999999999999773e+00 4.032659345149443020e-01
5.070100000000000051e+01 3.143199999999999861e+01 2.785300000000000153e+01 -1.012946393751984753e-01
5.071300000000000097e+01 4.213600000000000279e+01 1.885300000000000153e+01 -2.650255353177810025e-01
5.075699999999999790e+01 1.995299999999999940e+01 1.805399999999999849e+01 3.800000000000000044e-01
5.076500000000000057e+01 3.581600000000000250e+01 2.207100000000000151e+01 -4.850136473031462642e-02
5.078399999999999892e+01 3.573100000000000165e+01 2.680999999999999872e+01 -3.866649482957068562e-01
5.078499999999999659e+01 2.422500000000000142e+01 1.680399999999999849e+01 -7.849293462768333618e-02
5.083200000000000074e+01 2.697100000000000009e+01 1.727400000000000091e+01 -2.281347959138770032e-01
5.085499999999999687e+01 2.053200000000000003e+01 1.945700000000000074e+01 3.079314225205696115e-02
5.087100000000000222e+01 1.720700000000000074e+01 4.983999999999999986e+00 4.237752845562482718e-02
5.088199999999999790e+01 1.456600000000000072e+01 1.138599999999999923e+01 3.988056160061708710e-01
5.092799999999999727e+01 3.868999999999999773e+01 2.058899999999999864e+01 4.628928856251372792e-02
5.093399999999999750e+01 3.339800000000000324e+01 2.179599999999999937e+01 -2.930536159936869556e-01
5.097699999999999676e+01 3.871300000000000097e+01 1.614900000000000091e+01 -1.449755799825059310e-01
5.101100000000000279e+01 3.718699999999999761e+01 2.410800000000000054e+01 -1.926499547336734119e-01
5.101700000000000301e+01 1.732600000000000051e+01 2.362199999999999989e+01 -3.499999999999999778e-01
5.112299999999999756e+01 1.044100000000000072e+01 1.318599999999999994e+01 -3.555054431218150346e-01
5.113400000000000034e+01 3.168199999999999861e+01 2.659400000000000119e+01 -1.111035321252592939e-01
5.116199999999999903e+01 3.602900000000000347e+01 2.792000000000000171e+01 -3.818265862967754609e-01
5.116299999999999670e+01 3.712299999999999756e+01 2.258800000000000097e+01 3.036454927398610920e-02
5.121500000000000341e+01 2.688899999999999935e+01 7.890000000000000346e-01 2.371994509061464418e-01
5.121900000000000119e+01 1.321499999999999986e+01 1.075000000000000000e+01 6.052615649886187998e-02
5.123199999999999932e+01 2.846399999999999864e+01 1.735200000000000031e+01 2.807413458975078352e-02
5.123400000000000176e+01 1.664799999999999969e+01 2.249899999999999878e+01 -1.922412636761840210e-02
5.123599999999999710e+01 2.559600000000000009e+01 -3.899999999999999994e-02 -1.235279833803440280e-01
5.125600000000000023e+01 1.605199999999999960e+01 5.669999999999999929e+00 -1.798675865937572338e-01
5.130100000000000193e+01 3.736999999999999744e+01 1.626800000000000068e+01 1.223339714493633934e-01
5.130700000000000216e+01 3.472599999999999909e+01 2.611899999999999977e+01 -1.191232958925832752e-01
5.133100000000000307e+01 2.218100000000000094e+01 6.474999999999999645e+00 2.611195479887508109e-01
5.136099999999999710e+01 3.320000000000000284e+01 2.035099999999999909e+01 2.052236322069189364e-02
5.138199999999999790e+01 1.362899999999999956e+01 1.915099999999999980e+01 1.237566411858253418e-01
5.147599999999999909e+01 3.471999999999999886e+01 2.235000000000000142e+01 -3.317144100933849815e-01
5.156499999999999773e+01 2.100700000000000145e+01 2.243900000000000006e+01 1.098333664503417378e-01
5.157099999999999795e+01 2.472800000000000153e+01 1.319599999999999973e+01 1.263354542162477001e-01
5.157500000000000284e+01 1.780199999999999960e+01 -1.768000000000000016e+00 -2.760527522178697450e-05
5.159599999999999653e+01 2.123999999999999844e+01 8.823999999999999844e+00 2.208224691205165902e-01
5.160000000000000142e+01 3.036299999999999955e+01 1.163000000000000078e+01 2.876723480176371917e-01
5.164999999999999858e+01 2.707100000000000151e+01 6.358999999999999986e+00 2.932389802626323982e-01
5.169200000000000017e+01 3.224199999999999733e+01 1.058999999999999941e+00 -5.765274152955088965e-02
5.172999999999999687e+01 2.192099999999999937e+01 2.357400000000000162e+01 1.841772158879458332e-01
5.174300000000000210e+01 2.485900000000000176e+01 1.640599999999999881e+01 -2.187217981168335101e-01
5.175600000000000023e+01 3.255299999999999727e+01 1.498000000000000043e+01 1.153454253107047134e-01
5.177499999999999858e+01 1.912300000000000111e+01 -1.715999999999999970e+00 3.720941004936928476e-02
5.178499999999999659e+01 2.770299999999999940e+01 4.967999999999999972e+00 -4.579126060341559210e-03
5.181600000000000250e+01 2.054200000000000159e+01 1.712500000000000000e+01 1.076043014231994333e-01
5.182800000000000296e+01 2.310900000000000176e+01 3.903999999999999915e+00 1.779680461260059743e-01
5.184599999999999653e+01 1.331900000000000084e+01 1.363899999999999935e+01 1.290228285551272280e-01
5.184700000000000131e+01 3.778000000000000114e+01 2.479100000000000037e+01 -4.134488173798952504e-01
5.184899999999999665e+01 1.793100000000000094e+01 4.081999999999999851e+00 -1.937479182495738805e-01
5.186599999999999966e+01 2.010900000000000176e+01 5.264999999999999680e+00 2.898752078611522842e-01
5.187700000000000244e+01 1.798900000000000077e+01 2.416400000000000148e+01 -1.634645917040065677e-01
5.188199999999999790e+01 1.875499999999999901e+01 2.080199999999999960e+01 -2.029640223889132289e-01
5.188400000000000034e+01 3.222800000000000153e+01 1.014199999999999946e+01 -1.880563457727701115e-01
5.189699999999999847e+01 2.617299999999999827e+01 1.663800000000000168e+01 -2.293340024383148101e-01
5.190899999999999892e+01 3.363000000000000256e+01 1.675000000000000044e+00 -2.159452268776033274e-02
5.200800000000000267e+01 1.503800000000000026e+01 1.219500000000000028e+01 2.897368140638789669e-01
5.206000000000000227e+01 8.487999999999999545e+00 1.375099999999999945e+01 -3.492857871990284191e-01
5.207300000000000040e+01 2.009400000000000119e+01 2.026800000000000068e+01 -2.811893566783331133e-01
5.212500000000000000e+01 2.934100000000000108e+01 1.963200000000000145e+01 -5.449705924893772681e-03
5.212800000000000011e+01 1.321000000000000085e+01 2.005699999999999861e+01 1.607185323348663264e-01
5.216899999999999693e+01 9.631999999999999673e+00 1.335399999999999920e+01 -3.492486574816350831e-01
5.223799999999999955e+01 2.506700000000000017e+01 2.010500000000000043e+01 1.779805098716066847e-01
5.225399999999999778e+01 2.878000000000000114e+01 1.840500000000000114e+01 2.877533067444805123e-02
5.225500000000000256e+01 2.460200000000000031e+01 4.219999999999999862e-01 -4.174740648703661322e-02
5.227700000000000102e+01 1.706099999999999994e+01 -2.628000000000000114e+00 -9.807476351537672971e-03
5.229999999999999716e+01 3.246999999999999886e+01 2.609600000000000009e+01 -8.713365023366506645e-02
5.234300000000000352e+01 2.108599999999999852e+01 2.136299999999999955e+01 3.299468583338885375e-02
5.234400000000000119e+01 2.107900000000000063e+01 6.054000000000000270e+00 2.735377265207583619e-01
5.237199999999999989e+01 3.388700000000000045e+01 2.667399999999999949e+01 -3.328752578246305660e-01
5.240299999999999869e+01 1.434699999999999953e+01 1.327200000000000024e+01 5.108659349759353541e-02
5.240599999999999881e+01 3.106800000000000139e+01 1.075799999999999912e+01 7.281530614809433866e-02
5.244400000000000261e+01 3.042000000000000171e+01 7.466000000000000192e+00 3.697696885786910248e-01
5.244500000000000028e+01 1.308099999999999952e+01 1.024399999999999977e+01 1.653130161999187275e-01
5.248199999999999932e+01 3.474000000000000199e+01 2.305900000000000105e+01 -2.200354434794521974e-01
5.254599999999999937e+01 1.203599999999999959e+01 2.009299999999999997e+01 -1.735041826887344374e-01
5.254899999999999949e+01 1.665299999999999869e+01 2.184700000000000131e+01 -4.679900635953714028e-02
5.255799999999999983e+01 1.417500000000000071e+01 2.116600000000000037e+01 2.176168306792699014e-01
5.256799999999999784e+01 2.815299999999999869e+01 1.427599999999999980e+01 7.114831478673038119e-03
5.258500000000000085e+01 1.563599999999999923e+01 2.070299999999999940e+01 3.548487556603050486e-01
5.266199999999999903e+01 2.523600000000000065e+01 1.341499999999999915e+01 -6.863306462475685099e-02
5.266899999999999693e+01 3.193299999999999983e+01 4.490000000000000213e+00 -7.541090731040045458e-02
5.269899999999999807e+01 1.898199999999999932e+01 4.809000000000000163e+00 2.050271012453805941e-01
5.272299999999999898e+01 2.891100000000000136e+01 2.681000000000000050e+00 -1.387519249648063446e-01
5.274900000000000233e+01 2.608999999999999986e+01 6.586000000000000298e+00 1.087976841670926509e-01
5.278699999999999903e+01 1.789399999999999835e+01 1.193599999999999994e+01 2.671585382796742292e-01
5.284300000000000352e+01 2.416799999999999926e+01 1.561200000000000010e+01 9.635180354833658423e-02
5.286599999999999966e+01 1.183200000000000074e+01 9.622999999999999332e+00 2.108545813432021188e-01
5.289500000000000313e+01 1.805499999999999972e+01 2.132199999999999918e+01 1.058762877772269073e-01
5.292999999999999972e+01 9.551000000000000156e+00 1.035999999999999943e+01 -3.969802362304240551e-01
5.293800000000000239e+01 3.316700000000000159e+01 1.562199999999999989e+01 -8.550665360097794987e-02
5.295600000000000307e+01 2.858399999999999963e+01 4.876000000000000334e+00 -2.896334911412241087e-01
5.306400000000000006e+01 2.115800000000000125e+01 1.248300000000000054e+01 7.160241868545014210e-02
5.306900000000000261e+01 1.074600000000000044e+01 1.066099999999999959e+01 -1.104359584729225768e-01
5.308400000000000318e+01 2.178000000000000114e+01 2.423799999999999955e+01 1.593731599729699133e-01
5.308800000000000097e+01 2.441000000000000014e+01 1.060299999999999976e+01 9.541150532610209734e-02
5.308800000000000097e+01 4.229200000000000159e+01 2.127299999999999969e+01 -2.577922562194667755e-01
5.320199999999999818e+01 1.590099999999999980e+01 1.509399999999999942e+01 4.347663794686852656e-02
5.323299999999999699e+01 2.190800000000000125e+01 2.124599999999999866e+01 1.175460652106744136e-01
5.329200000000000159e+01 2.619500000000000028e+01 1.240499999999999936e+01 -1.591827833338999021e-01
5.331600000000000250e+01 2.912800000000000011e+01 3.725000000000000089e+00 -2.065411780898677441e-01
5.335199999999999676e+01 2.503200000000000003e+01 1.455700000000000038e+01 3.835144412829089022e-02
5.335999999999999943e+01 1.115900000000000070e+01 1.190099999999999980e+01 -3.849104496151246058e-01
5.338600000000000279e+01 3.407699999999999818e+01 1.657999999999999918e+00 -3.961599296741429299e-01
5.338799999999999812e+01 2.945400000000000063e+01 2.016300000000000026e+01 -2.124678084925744892e-02
5.350600000000000023e+01 3.071000000000000085e+01 7.982999999999999652e+00 -9.467305088906745325e-02
5.353399999999999892e+01 1.021100000000000030e+01 1.299499999999999922e+01 -1.533152293030032309e-02
5.354200000000000159e+01 2.053900000000000148e+01 2.439999999999999858e+01 1.073047470050894903e-01
5.355499999999999972e+01 2.116700000000000159e+01 6.371000000000000441e+00 9.630588454322504266e-02
5.359599999999999653e+01 1.881099999999999994e+01 1.178800000000000026e+01 2.926132534904092308e-01
5.360999999999999943e+01 2.860800000000000054e+01 1.820400000000000063e+01 3.365650207946854593e-03
5.361999999999999744e+01 1.488299999999999912e+01 1.403700000000000081e+01 1.667045631570229225e-01
5.362700000000000244e+01 2.513899999999999935e+01 3.300000000000000155e-01 -3.165030394792303636e-02
5.364200000000000301e+01 3.529800000000000182e+01 2.132000000000000117e+00 -3.961681793540953178e-01
5.366400000000000148e+01 3.178800000000000026e+01 5.192000000000000171e+00 -3.877669149474439192e-01
5.368699999999999761e+01 2.117299999999999827e+01 4.169999999999999818e-01 -1.290215843101399640e-01
5.371999999999999886e+01 2.277700000000000102e+01 2.456700000000000017e+01 1.027317472191924680e-01
5.375000000000000000e+01 3.448499999999999943e+01 2.642200000000000060e+01 -3.653307805271635011e-01
5.375800000000000267e+01 2.798799999999999955e+01 1.398600000000000065e+01 -3.627686767107136945e-02
5.376299999999999812e+01 3.623400000000000176e+01 1.150099999999999945e+01 -3.216782992705969901e-01
5.377400000000000091e+01 1.987199999999999989e+01 1.287299999999999933e+01 -8.444090076137319989e-02
5.378000000000000114e+01 3.565599999999999881e+01 2.577599999999999980e+01 -3.520443195406154357e-01
5.379200000000000159e+01 2.493700000000000117e+01 2.026500000000000057e+01 -2.028816718259645602e-01
5.380400000000000205e+01 2.054700000000000060e+01 3.319999999999999840e+00 -5.726195797551776601e-02
5.380799999999999983e+01 1.733200000000000074e+01 1.702899999999999991e+01 1.030929598423254295e-01
5.382600000000000051e+01 3.259300000000000352e+01 6.466999999999999638e+00 -1.585089079829963277e-01
5.383500000000000085e+01 3.063500000000000156e+01 1.050900000000000034e+01 -1.919966066254102238e-02
5.386800000000000210e+01 3.583899999999999864e+01 1.867899999999999849e+01 1.398274123915219380e-01
5.387599999999999767e+01 1.296100000000000030e+01 7.535999999999999588e+00 2.461284886330205590e-01
5.387800000000000011e+01 1.937800000000000011e+01 3.952999999999999847e+00 2.666699549396910340e-01
5.393500000000000227e+01 3.730100000000000193e+01 1.914999999999999858e+01 -3.686752306790611611e-01
5.393900000000000006e+01 3.218800000000000239e+01 1.620400000000000063e+01 -1.569058483289212380e-01
5.396300000000000097e+01 2.366199999999999903e+01 1.651399999999999935e+01 1.230411346143817780e-01
5.396699999999999875e+01 2.985900000000000176e+01 2.362600000000000122e+01 -1.245693772150659011e-02
5.399300000000000210e+01 2.507900000000000063e+01 2.620999999999999996e+00 -2.868147310393110438e-01
5.400699999999999790e+01 3.720499999999999829e+01 2.058099999999999952e+01 -3.322444220655470515e-01
5.403600000000000136e+01 2.539399999999999835e+01 1.130599999999999916e+01 -1.396707091370143761e-01
5.404800000000000182e+01 2.988700000000000045e+01 9.150999999999999801e+00 1.684910720018831199e-03
5.405100000000000193e+01 1.849899999999999878e+01 2.141100000000000136e+01 7.853369103748739088e-02
5.407500000000000284e+01 4.163799999999999812e+01 2.088800000000000168e+01 -2.703178343549780260e-01
5.407600000000000051e+01 3.073100000000000165e+01 2.263700000000000045e+01 -1.328380682524746281e-01
5.411599999999999966e+01 1.203200000000000003e+01 8.766999999999999460e+00 1.906526581282323718e-01
5.412899999999999778e+01 2.657900000000000063e+01 2.212099999999999866e+01 -2.197279110838084859e-01
5.415299999999999869e+01 1.089300000000000068e+01 1.422700000000000031e+01 6.124627470493403114e-02
5.417999999999999972e+01 3.997399999999999665e+01 2.446099999999999852e+01 -4.100290087637907810e-01
5.418500000000000227e+01 2.676899999999999835e+01 2.654200000000000159e+01 -3.433597183931317437e-02
5.418900000000000006e+01 2.706899999999999906e+01 1.310399999999999920e+01 -8.537870873787077597e-02
5.419200000000000017e+01 3.481600000000000250e+01 1.137899999999999956e+01 6.925021715790839749e-02
5.422999999999999687e+01 1.556199999999999939e+01 9.698000000000000398e+00 5.720558211670977167e-02
5.425000000000000000e+01 3.173900000000000077e+01 7.578000000000000291e+00 -3.048607404648974104e-02
5.425099999999999767e+01 1.620400000000000063e+01 1.617299999999999827e+01 -1.405378996210759623e-01
5.426599999999999824e+01 2.900199999999999889e+01 1.928500000000000014e+01 7.268839295916254550e-02
5.427400000000000091e+01 2.511299999999999955e+01 2.170700000000000074e+01 -4.748965103118892722e-03
5.427600000000000335e+01 3.331700000000000017e+01 1.235000000000000098e+00 -3.905879465384025639e-01
5.428000000000000114e+01 1.795299999999999940e+01 9.615000000000000213e+00 3.749882745548173413e-02
5.428000000000000114e+01 3.890200000000000102e+01 1.662900000000000134e+01 -2.907782960245280934e-01
5.429899999999999949e+01 3.884100000000000108e+01 2.707300000000000040e+01 -5.735040432053711834e-02
5.432399999999999807e+01 4.054899999999999949e+01 2.145799999999999841e+01 -2.781079440906108480e-01
5.434899999999999665e+01 3.112800000000000011e+01 1.515000000000000036e+01 -1.876592418942122503e-02
5.436500000000000199e+01 1.892599999999999838e+01 1.070800000000000018e+01 4.630666889781943907e-02
5.436999999999999744e+01 2.986299999999999955e+01 1.555700000000000038e+01 -1.023092520287392365e-01
5.437100000000000222e+01 2.730199999999999960e+01 2.868700000000000117e+01 1.087416651034562969e-02
5.441199999999999903e+01 2.190599999999999881e+01 1.387999999999999901e+00 -3.675777854424873703e-01
5.442399999999999949e+01 2.536100000000000065e+01 1.389000000000000012e+00 -3.238736550344797904e-01
5.454999999999999716e+01 1.494899999999999984e+01 1.702499999999999858e+01 -1.109335663393665461e-01
5.456300000000000239e+01 3.003699999999999903e+01 3.740000000000000213e+00 -7.169155075791520948e-02
5.457900000000000063e+01 9.712999999999999190e+00 1.900600000000000023e+01 -3.476763506597740916e-01
5.462100000000000222e+01 3.090200000000000102e+01 4.923000000000000043e+00 -2.628976924583966701e-01
5.462899999999999778e+01 2.633200000000000074e+01 1.029499999999999993e+01 1.872468210419728218e-01
5.464399999999999835e+01 1.543299999999999983e+01 1.315199999999999925e+01 1.201507051439640178e-01
5.469800000000000040e+01 3.693200000000000216e+01 1.235899999999999999e+01 -3.315897747073300039e-02
5.470300000000000296e+01 2.660900000000000176e+01 2.769600000000000151e+01 -6.508965110160938768e-03
5.470400000000000063e+01 3.147500000000000142e+01 1.401399999999999935e+01 -3.200874405308978040e-03
5.471099999999999852e+01 1.046000000000000085e+01 1.663899999999999935e+01 4.024600826187776925e-02
5.472800000000000153e+01 3.026399999999999935e+01 2.462399999999999878e+01 -3.323724218091497207e-01
5.474900000000000233e+01 3.390599999999999881e+01 2.679299999999999926e+01 -3.665792102609468084e-01
5.475000000000000000e+01 9.917999999999999261e+00 1.522600000000000087e+01 -2.406640438099005019e-01
5.478199999999999648e+01 1.659799999999999898e+01 1.007199999999999918e+01 -1.067691198021731847e-01
5.479899999999999949e+01 3.374799999999999756e+01 6.253999999999999559e+00 3.073525948247377015e-01
5.484100000000000108e+01 2.027700000000000102e+01 2.503099999999999881e+01 -3.240572802817227593e-01
5.484499999999999886e+01 1.864499999999999957e+01 3.865000000000000213e+00 -6.573617049906828325e-02
5.485399999999999920e+01 2.877499999999999858e+01 1.468399999999999928e+01 2.778742080973551909e-01
5.485499999999999687e+01 2.712900000000000134e+01 1.647599999999999909e+01 -2.833765655886676393e-01
5.486800000000000210e+01 3.473499999999999943e+01 7.440999999999999837e+00 7.000142488736829649e-02
5.489000000000000057e+01 1.434099999999999930e+01 5.727999999999999758e+00 9.478774732506015099e-02
5.489699999999999847e+01 2.099500000000000099e+01 2.483999999999999986e+00 -3.383922054451234396e-01
5.490599999999999881e+01 2.270499999999999829e+01 1.580599999999999916e+01 -1.244343265563272183e-01
5.494599999999999795e+01 3.172899999999999920e+01 2.300600000000000023e+01 -1.049899065291162586e-01
5.499099999999999966e+01 3.763199999999999790e+01 2.771600000000000108e+01 -5.087991354505292524e-02
5.500800000000000267e+01 4.211800000000000210e+01 1.974500000000000099e+01 -2.856354330460126878e-01
5.502499999999999858e+01 1.875000000000000000e+01 2.530600000000000094e+01 -2.815548721093749096e-01
5.502799999999999869e+01 3.634799999999999898e+01 2.545499999999999829e+01 -2.186092792746840291e-02
5.503799999999999670e+01 9.364000000000000767e+00 1.764499999999999957e+01 -4.444707040946686838e-02
5.507200000000000273e+01 1.844300000000000139e+01 8.375999999999999446e+00 7.407493807885984216e-02
5.507600000000000051e+01 3.812400000000000233e+01 1.712600000000000122e+01 -3.034715281590854019e-01
