1.175200000000000067e+01 5.982699999999999818e+01 3.123799999999999955e+01 1.185300735505010888e-01
1.176600000000000001e+01 3.605499999999999972e+01 3.046099999999999852e+01 6.172069877257466836e-02
1.177299999999999969e+01 6.636899999999999977e+01 2.961299999999999955e+01 3.213139510037263391e-01
1.178599999999999959e+01 7.914199999999999591e+01 3.746800000000000352e+01 -2.653772028129009475e-01
1.179100000000000037e+01 8.362399999999999523e+01 2.749099999999999966e+01 3.509997564555998595e-02
1.179199999999999982e+01 5.365999999999999659e+01 3.408599999999999852e+01 2.172325272536498875e-01
1.179599999999999937e+01 5.422500000000000142e+01 2.340399999999999991e+01 1.870164529682239452e-01
1.179599999999999937e+01 7.052500000000000568e+01 1.774299999999999855e+01 -2.429610436370666093e-01
1.179899999999999949e+01 3.996999999999999886e+01 2.540500000000000114e+01 -1.746307854368285839e-01
1.180199999999999960e+01 3.681000000000000227e+01 3.375099999999999767e+01 -2.397199732559309182e-01
1.181199999999999939e+01 5.834799999999999898e+01 1.934799999999999898e+01 -1.633089681411524496e-01
1.182099999999999973e+01 6.169500000000000028e+01 2.198699999999999832e+01 2.377070383357704139e-02
1.182099999999999973e+01 8.656900000000000261e+01 2.939199999999999946e+01 -3.580987564466820428e-01
1.184200000000000053e+01 4.660099999999999909e+01 2.286899999999999977e+01 -3.806917052479659169e-01
1.185800000000000054e+01 5.369500000000000028e+01 3.159100000000000108e+01 4.500000000000000111e-01
1.186800000000000033e+01 3.285000000000000142e+01 2.607999999999999829e+01 -2.562962737848439865e-01
1.186899999999999977e+01 6.320300000000000296e+01 1.795499999999999829e+01 -4.873366189349954275e-02
1.190700000000000003e+01 7.231499999999999773e+01 1.586500000000000021e+01 1.108854100907792350e-01
1.193599999999999994e+01 6.128399999999999892e+01 3.590800000000000125e+01 2.800022561011900057e-01
1.193699999999999939e+01 4.062899999999999778e+01 2.403300000000000125e+01 -9.942959732580854137e-02
1.196000000000000085e+01 2.131800000000000139e+01 2.288400000000000034e+01 -2.757974280142919676e-01
1.198000000000000043e+01 6.752400000000000091e+01 2.340099999999999980e+01 -3.734016613436248744e-02
1.198300000000000054e+01 4.854099999999999682e+01 3.452100000000000080e+01 4.163945471653672792e-01
1.201699999999999946e+01 5.318900000000000006e+01 3.532600000000000051e+01 -1.337268794559559049e-01
1.204299999999999926e+01 4.732000000000000028e+01 1.988100000000000023e+01 -8.194450413192541638e-02
1.205199999999999960e+01 7.796699999999999875e+01 2.292800000000000082e+01 1.809518840500879411e-01
1.207699999999999996e+01 6.255599999999999739e+01 3.505899999999999750e+01 1.743730562762478564e-01
1.209800000000000075e+01 5.792499999999999716e+01 3.284899999999999665e+01 1.027058622076020278e-01
1.211299999999999955e+01 5.222599999999999909e+01 2.087900000000000134e+01 -1.544818813470098286e-02
1.215000000000000036e+01 5.290699999999999648e+01 3.288400000000000034e+01 1.083332063475553053e-01
1.222499999999999964e+01 6.474099999999999966e+01 3.147299999999999898e+01 1.330388943732386253e-01
1.223300000000000054e+01 7.654800000000000182e+01 3.512500000000000000e+01 -1.208704821097545956e-01
1.226500000000000057e+01 6.521299999999999386e+01 1.669000000000000128e+01 -2.108092988457999084e-01
1.226999999999999957e+01 8.294799999999999329e+01 2.490099999999999980e+01 -8.788041322245529474e-02
1.228500000000000014e+01 5.171000000000000085e+01 2.692999999999999972e+01 4.212185487644001247e-01
1.231099999999999994e+01 6.070900000000000318e+01 3.019000000000000128e+01 4.222049608153265465e-01
1.231799999999999962e+01 5.543500000000000227e+01 3.624499999999999744e+01 -3.939095418246199576e-01
1.235399999999999920e+01 4.592000000000000171e+01 2.404500000000000171e+01 -3.693114266769792486e-01
1.239199999999999946e+01 6.853300000000000125e+01 3.480899999999999750e+01 5.044523970751783187e-02
1.240099999999999980e+01 3.894100000000000250e+01 2.565700000000000003e+01 1.135895194539015066e-02
1.241600000000000037e+01 8.092700000000000671e+01 1.999200000000000088e+01 -1.230451297391691179e-01
1.242900000000000027e+01 3.130600000000000094e+01 2.751800000000000068e+01 -1.521568149422269367e-01
1.243399999999999928e+01 7.175100000000000477e+01 2.203800000000000026e+01 -8.584614523142589104e-02
1.248399999999999999e+01 5.059499999999999886e+01 2.267200000000000060e+01 3.057490510390892952e-02
1.249099999999999966e+01 7.760200000000000387e+01 2.653800000000000026e+01 7.592133490734739865e-02
1.249399999999999977e+01 8.262699999999999534e+01 2.727499999999999858e+01 8.378652649382320461e-02
1.249699999999999989e+01 5.758400000000000318e+01 2.698100000000000165e+01 3.224572068942138103e-01
1.249799999999999933e+01 6.821299999999999386e+01 1.765200000000000102e+01 -2.870237307398571525e-01
1.254800000000000004e+01 4.924000000000000199e+01 1.678600000000000136e+01 -1.469651331846828224e-01
1.255599999999999916e+01 5.208500000000000085e+01 3.555299999999999727e+01 2.366693437221733531e-01
1.260500000000000043e+01 7.921500000000000341e+01 2.917800000000000082e+01 1.146328186292384643e-01
1.260999999999999943e+01 6.557800000000000296e+01 2.490500000000000114e+01 3.274430963891596935e-01
1.261200000000000010e+01 3.553199999999999648e+01 2.358200000000000074e+01 -1.541452881427059496e-01
1.262599999999999945e+01 5.307999999999999829e+01 3.036700000000000088e+01 4.189498752257828640e-01
1.263400000000000034e+01 6.682200000000000273e+01 2.220899999999999963e+01 -1.330649997676778551e-01
1.263499999999999979e+01 4.250999999999999801e+01 2.865700000000000003e+01 -1.122296851216926655e-01
1.263700000000000045e+01 7.153499999999999659e+01 1.693599999999999994e+01 -2.291982260387201153e-01
1.266099999999999959e+01 5.728900000000000148e+01 2.421199999999999974e+01 1.853559279666422144e-01
1.266699999999999982e+01 6.230299999999999727e+01 1.890399999999999991e+01 -6.639136423523200881e-02
1.267200000000000060e+01 3.198600000000000065e+01 2.650799999999999912e+01 -1.152450732907205344e-01
1.267500000000000071e+01 2.693700000000000117e+01 2.624699999999999989e+01 -7.487710250601306572e-02
1.269200000000000017e+01 6.933299999999999841e+01 1.812699999999999889e+01 -2.388172071046945066e-01
1.270899999999999963e+01 5.709100000000000108e+01 2.174599999999999866e+01 8.330461843539527234e-03
1.271100000000000030e+01 4.940800000000000125e+01 2.287000000000000099e+01 7.374186681226942153e-02
1.271899999999999942e+01 6.035399999999999920e+01 3.578000000000000114e+01 -1.032843347656800248e-01
1.272799999999999976e+01 7.057399999999999807e+01 2.207100000000000151e+01 -1.948558612124948464e-01
1.273700000000000010e+01 7.241599999999999682e+01 3.048300000000000054e+01 4.291079213618599619e-02
1.275699999999999967e+01 7.560500000000000398e+01 1.953800000000000026e+01 2.962825634330052416e-01
1.275999999999999979e+01 6.109400000000000119e+01 1.869699999999999918e+01 -8.901407360760173193e-02
1.276299999999999990e+01 2.337999999999999901e+01 2.332999999999999829e+01 -2.748862550508627267e-01
1.278200000000000003e+01 5.635199999999999676e+01 2.299599999999999866e+01 -6.509250432040186718e-02
1.279299999999999926e+01 8.222499999999999432e+01 2.604899999999999949e+01 6.115434547417211014e-02
1.279700000000000060e+01 4.851800000000000068e+01 1.778399999999999892e+01 -1.528340692987372185e-01
1.280199999999999960e+01 6.385799999999999699e+01 1.691600000000000037e+01 -5.449383049415719438e-02
1.280700000000000038e+01 5.904699999999999704e+01 3.204699999999999704e+01 -1.739037102482934583e-01
1.282000000000000028e+01 6.959999999999999432e+01 2.804400000000000048e+01 2.131211775429629057e-02
1.282300000000000040e+01 2.204700000000000060e+01 2.337999999999999901e+01 -2.714557993273867820e-01
1.282900000000000063e+01 7.052800000000000580e+01 2.701999999999999957e+01 -8.453044939511135392e-03
1.283600000000000030e+01 5.733899999999999864e+01 1.930600000000000094e+01 -2.712884441367237054e-01
1.284500000000000064e+01 6.560500000000000398e+01 3.037500000000000000e+01 2.984363310170531913e-01
1.285899999999999999e+01 7.241100000000000136e+01 2.498900000000000077e+01 1.368807410889795739e-01
1.288299999999999912e+01 6.364300000000000068e+01 3.581300000000000239e+01 2.605099461257308069e-01
1.288899999999999935e+01 7.340600000000000591e+01 2.384299999999999997e+01 1.005519344453833924e-01
1.292800000000000082e+01 5.647999999999999687e+01 2.057700000000000173e+01 -1.785203582591916027e-01
1.297499999999999964e+01 6.115500000000000114e+01 2.162600000000000122e+01 -1.390554709097106476e-02
1.298099999999999987e+01 4.693299999999999983e+01 2.500000000000000000e+01 -7.055888409439683984e-02
1.307900000000000063e+01 5.133299999999999841e+01 2.149200000000000088e+01 6.470949227855309072e-02
1.309200000000000053e+01 5.716400000000000148e+01 3.370199999999999818e+01 1.897198376924707497e-01
1.311100000000000065e+01 8.182599999999999341e+01 2.842699999999999960e+01 9.187430476002306223e-02
1.313199999999999967e+01 7.970399999999999352e+01 2.053699999999999903e+01 6.009779467115962046e-03
1.315199999999999925e+01 6.471899999999999409e+01 3.493999999999999773e+01 3.029746525281188929e-01
1.316699999999999982e+01 5.670100000000000051e+01 2.550799999999999912e+01 3.235170482733769060e-01
1.321899999999999942e+01 6.780200000000000671e+01 2.130099999999999838e+01 -2.705435774407439695e-02
1.322799999999999976e+01 5.997500000000000142e+01 2.179899999999999949e+01 -9.151762733822001172e-02
1.323000000000000043e+01 8.637199999999999989e+01 2.895400000000000063e+01 -2.448579050340269903e-01
1.325000000000000000e+01 6.288700000000000045e+01 1.994500000000000028e+01 -7.679762201194735571e-02
1.325699999999999967e+01 5.759499999999999886e+01 3.495400000000000063e+01 1.522400019753981093e-01
1.327100000000000080e+01 5.529500000000000171e+01 2.049800000000000111e+01 -1.765849237549280137e-01
1.329700000000000060e+01 7.869199999999999307e+01 1.985099999999999909e+01 -5.909321062076171305e-02
1.330400000000000027e+01 3.639600000000000080e+01 2.451099999999999923e+01 -3.089104461576870353e-01
1.330499999999999972e+01 7.757999999999999829e+01 2.267800000000000082e+01 3.018303718246798800e-02
1.331700000000000017e+01 4.129299999999999926e+01 2.394500000000000028e+01 -3.250509831310374048e-02
1.335399999999999920e+01 5.899199999999999733e+01 2.689499999999999957e+01 3.007640642048631241e-01
1.335500000000000043e+01 3.413700000000000045e+01 2.183500000000000085e+01 -1.713337043747785726e-01
1.338599999999999923e+01 7.552899999999999636e+01 3.072800000000000153e+01 4.164245629213963323e-02
1.340399999999999991e+01 8.346999999999999886e+01 2.400100000000000122e+01 -6.709652917075922818e-02
1.340799999999999947e+01 4.478300000000000125e+01 3.847699999999999676e+01 8.818878131889322514e-02
1.340799999999999947e+01 7.279900000000000659e+01 2.253699999999999903e+01 -8.389967748085168375e-02
1.342399999999999949e+01 4.839000000000000057e+01 3.501700000000000301e+01 3.823680920245383086e-01
1.346199999999999974e+01 8.195199999999999818e+01 1.948100000000000165e+01 -2.163843303000496099e-01
1.349000000000000021e+01 3.520499999999999829e+01 2.238400000000000034e+01 -1.973246238788026741e-01
1.355799999999999983e+01 3.187000000000000099e+01 1.919900000000000162e+01 1.605302608784368035e-01
1.357600000000000051e+01 7.942600000000000193e+01 2.845499999999999829e+01 1.736095266951136751e-01
1.358900000000000041e+01 6.216299999999999670e+01 2.750300000000000011e+01 3.108492741438754203e-01
1.360299999999999976e+01 7.384000000000000341e+01 2.154200000000000159e+01 -9.110517479814568553e-02
1.360800000000000054e+01 5.252499999999999858e+01 3.286599999999999966e+01 4.355871178623683670e-01
1.361800000000000033e+01 4.628999999999999915e+01 2.621099999999999852e+01 3.089478490138276023e-01
1.362500000000000000e+01 7.710599999999999454e+01 2.743700000000000117e+01 3.153659275152370656e-01
1.362899999999999956e+01 5.553000000000000114e+01 3.618999999999999773e+01 -3.889861343199336186e-01
1.363499999999999979e+01 4.425000000000000000e+01 3.244400000000000261e+01 2.579462938671537447e-02
1.364499999999999957e+01 7.982800000000000296e+01 2.175700000000000145e+01 -2.276249440738024321e-01
1.364899999999999913e+01 7.639600000000000080e+01 2.260900000000000176e+01 1.894349961372317204e-02
1.365399999999999991e+01 6.959900000000000375e+01 1.900900000000000034e+01 -2.351644129180420484e-01
1.367399999999999949e+01 5.641000000000000014e+00 2.398100000000000165e+01 -1.679578605776926581e-01
1.369500000000000028e+01 5.617600000000000193e+01 3.324600000000000222e+01 1.646025373950386617e-01
1.373099999999999987e+01 4.169200000000000017e+01 2.254100000000000037e+01 -3.872758082389286538e-01
1.374099999999999966e+01 2.644800000000000040e+01 2.580699999999999861e+01 -6.616452236951798904e-02
1.378599999999999959e+01 2.599500000000000099e+01 2.436299999999999955e+01 -2.680310953860801648e-01
1.385299999999999976e+01 5.847500000000000142e+01 3.110500000000000043e+01 3.425861513123994451e-01
1.385399999999999920e+01 7.329200000000000159e+01 2.999500000000000099e+01 3.766233149539346091e-03
1.386500000000000021e+01 7.354699999999999704e+01 2.026999999999999957e+01 1.332946478973287552e-02
1.386899999999999977e+01 3.148499999999999943e+01 2.434900000000000020e+01 9.301573296575357808e-02
1.388000000000000078e+01 8.064600000000000080e+01 2.801500000000000057e+01 8.296792774272743892e-03
1.389799999999999969e+01 6.654099999999999682e+01 3.098300000000000054e+01 1.696332224373593989e-01
1.392200000000000060e+01 4.048199999999999932e+01 2.160999999999999943e+01 -1.139197262675229194e-01
1.394299999999999962e+01 8.247499999999999432e+01 3.075100000000000122e+01 2.769765199121067001e-01
1.395100000000000051e+01 7.235500000000000398e+01 1.983699999999999974e+01 -2.975403508188456669e-01
1.395299999999999940e+01 7.478300000000000125e+01 1.933599999999999852e+01 -3.947396595942777309e-02
1.395599999999999952e+01 5.138600000000000279e+01 3.257300000000000040e+01 4.243028931905590828e-01
1.395800000000000018e+01 4.826899999999999835e+01 1.819000000000000128e+01 -1.783691101866844431e-01
1.397600000000000087e+01 6.207800000000000296e+01 2.092599999999999838e+01 2.457363240613005123e-02
1.398000000000000043e+01 8.237300000000000466e+01 2.328399999999999892e+01 -3.011658850373284402e-01
1.398300000000000054e+01 4.965999999999999659e+01 3.544700000000000273e+01 4.731828230062390395e-02
1.398499999999999943e+01 4.067499999999999716e+01 2.037099999999999866e+01 -2.531228111736002484e-01
1.399499999999999922e+01 8.275199999999999534e+01 2.926500000000000057e+01 1.506379980111654249e-01
1.400699999999999967e+01 3.933700000000000330e+01 2.211499999999999844e+01 -1.228366157976248096e-01
1.401399999999999935e+01 2.144999999999999929e+01 2.409100000000000108e+01 -1.161075236843010228e-01
1.401699999999999946e+01 3.174899999999999878e+01 2.580000000000000071e+01 4.124307245711614917e-02
1.403100000000000058e+01 7.206600000000000250e+01 2.566700000000000159e+01 1.065952694633796050e-01
1.403200000000000003e+01 7.112300000000000466e+01 2.662500000000000000e+01 8.950273416562935791e-02
1.403999999999999915e+01 7.449599999999999511e+01 3.090800000000000125e+01 8.547390061846030229e-02
1.405799999999999983e+01 6.745300000000000296e+01 2.032600000000000051e+01 3.795278834641637594e-02
1.410299999999999976e+01 6.965200000000000102e+01 3.147700000000000031e+01 1.506511379375179704e-01
1.411899999999999977e+01 1.207999999999999963e+00 2.291799999999999926e+01 -2.144581995423394116e-01
1.417500000000000071e+01 5.690999999999999659e+01 3.585699999999999932e+01 3.788367695331315010e-01
1.418999999999999950e+01 5.795799999999999841e+01 1.904200000000000159e+01 -8.868413413877269946e-02
1.419100000000000072e+01 3.077400000000000091e+01 2.005699999999999861e+01 3.577336010208351236e-02
1.429299999999999926e+01 5.212599999999999767e+01 2.194200000000000017e+01 4.385700399487321155e-01
1.430599999999999916e+01 6.628199999999999648e+01 2.007600000000000051e+01 -2.243966125216520849e-02
1.431300000000000061e+01 7.869899999999999807e+01 2.240399999999999991e+01 -2.183335790313209179e-01
1.432300000000000040e+01 3.595100000000000051e+01 2.521699999999999875e+01 -3.464210575542102655e-01
1.433200000000000074e+01 1.189700000000000024e+01 2.092899999999999849e+01 2.224889729073859512e-01
1.433799999999999919e+01 4.772800000000000153e+01 3.396900000000000119e+01 3.866988899855867690e-01
1.435999999999999943e+01 5.455400000000000205e+01 3.636699999999999733e+01 -6.201055559944222695e-02
1.437100000000000044e+01 3.612299999999999756e+01 2.197400000000000020e+01 -2.361879138371770492e-01
1.440000000000000036e+01 8.138599999999999568e+01 1.841900000000000048e+01 -2.059591572984398877e-01
1.441600000000000037e+01 5.772899999999999920e+01 3.712100000000000222e+01 -1.732273950390423034e-01
1.446400000000000041e+01 7.603400000000000603e+01 2.677400000000000091e+01 3.288916462294625975e-01
1.446899999999999942e+01 6.768600000000000705e+01 3.015899999999999892e+01 -5.365182334586095919e-02
1.447300000000000075e+01 8.412999999999999545e+01 2.484900000000000020e+01 -3.000415804715006463e-01
1.448199999999999932e+01 1.276900000000000013e+01 2.198100000000000165e+01 2.440452326233076563e-01
1.449300000000000033e+01 5.344899999999999807e+01 3.320400000000000063e+01 3.853989695936817228e-02
1.449600000000000044e+01 7.827200000000000557e+01 2.800100000000000122e+01 5.369220327754418987e-02
1.454100000000000037e+01 3.284499999999999886e+01 1.887199999999999989e+01 1.536408168782383288e-01
1.456099999999999994e+01 3.132600000000000051e+01 2.133899999999999864e+01 8.161858222286752507e-02
1.456900000000000084e+01 6.217799999999999727e+01 2.453399999999999892e+01 1.736447782558428465e-01
1.457000000000000028e+01 3.677499999999999858e+01 2.886400000000000077e+01 -1.490657096059720133e-01
1.462899999999999956e+01 4.833100000000000307e+01 2.908699999999999974e+01 7.538926564468642622e-02
1.463199999999999967e+01 6.859399999999999409e+01 1.945299999999999940e+01 -3.395981118029483409e-02
1.466399999999999970e+01 2.687800000000000011e+01 2.351399999999999935e+01 -2.683700133427789347e-01
1.470199999999999996e+01 3.479299999999999926e+01 2.516400000000000148e+01 4.657679399239809254e-02
1.473199999999999932e+01 4.658500000000000085e+01 3.411899999999999977e+01 3.899197266250556404e-01
1.475099999999999945e+01 4.435199999999999676e+01 3.787700000000000244e+01 1.927941353415212611e-01
1.475200000000000067e+01 5.592600000000000193e+01 4.062199999999999989e+01 -1.457890075897239901e-01
1.475999999999999979e+01 1.021000000000000085e+01 2.704500000000000171e+01 7.953828460759605409e-03
1.477399999999999913e+01 2.631099999999999994e+01 2.650600000000000023e+01 -1.007861454233564269e-01
1.480100000000000016e+01 5.113999999999999879e+00 2.411400000000000077e+01 -1.536227197961805846e-01
1.480899999999999928e+01 4.546600000000000108e+01 2.573699999999999832e+01 -1.932219484266048740e-02
1.482199999999999918e+01 4.851100000000000279e+01 3.301700000000000301e+01 7.767924173076323942e-03
1.483999999999999986e+01 6.106900000000000261e+01 2.551300000000000168e+01 4.744324906391324953e-02
1.484699999999999953e+01 8.367199999999999704e+01 1.789099999999999824e+01 -2.324571021933171389e-01
1.485599999999999987e+01 2.056099999999999994e+01 2.317299999999999827e+01 -1.335961972641181404e-02
1.486200000000000010e+01 3.210000000000000075e-01 2.339699999999999847e+01 -2.218864277666279805e-01
1.486299999999999955e+01 4.294299999999999784e+01 3.088500000000000156e+01 1.151685513194675714e-01
1.490700000000000003e+01 3.053300000000000125e+01 2.232900000000000063e+01 -2.765730358299457459e-01
1.490700000000000003e+01 6.881100000000000705e+01 3.111700000000000088e+01 2.653823239731079031e-01
1.491499999999999915e+01 6.155700000000000216e+01 2.699800000000000111e+01 1.432780314015963674e-01
1.491999999999999993e+01 2.931200000000000117e+01 2.222200000000000131e+01 -2.674780459580716752e-01
1.493500000000000050e+01 4.945799999999999841e+01 3.009900000000000020e+01 4.273277032395325081e-01
1.496000000000000085e+01 3.693800000000000239e+01 2.616600000000000037e+01 -3.784647576595956964e-01
1.496100000000000030e+01 7.914499999999999602e+01 2.371300000000000097e+01 1.417505789744330502e-01
1.496700000000000053e+01 7.437099999999999511e+01 3.186299999999999955e+01 1.524813008395888292e-01
1.496899999999999942e+01 4.395600000000000307e+01 3.201299999999999812e+01 3.376358303845342634e-01
1.501399999999999935e+01 2.564999999999999858e+01 1.921699999999999875e+01 -2.024134790002856676e-01
1.504700000000000060e+01 8.247599999999999909e+01 1.756500000000000128e+01 -2.219984555934257919e-01
1.508099999999999952e+01 7.251699999999999591e+01 2.988200000000000145e+01 1.243049256815527415e-01
1.508300000000000018e+01 6.001100000000000279e+01 3.722399999999999665e+01 -3.999257942206647237e-02
1.513599999999999923e+01 3.805799999999999983e+01 1.978900000000000148e+01 -1.733687244210272427e-01
1.514700000000000024e+01 4.970600000000000307e+01 3.607399999999999807e+01 -1.802848219617456116e-01
1.517699999999999960e+01 2.630000000000000115e-01 2.460000000000000142e+01 -2.355681021250440599e-01
1.519299999999999962e+01 3.123499999999999943e+01 2.363899999999999935e+01 1.028034983053155854e-01
1.519299999999999962e+01 5.080199999999999960e+01 2.937800000000000011e+01 4.333581804655663450e-01
1.519899999999999984e+01 7.559399999999999409e+01 1.968199999999999861e+01 2.866794461894846616e-02
1.519999999999999929e+01 4.596000000000000085e+00 2.548799999999999955e+01 -1.194288110397061231e-01
1.520700000000000074e+01 5.160399999999999920e+01 3.773599999999999710e+01 3.195243375382864071e-01
1.523099999999999987e+01 3.587599999999999767e+01 2.082100000000000151e+01 1.623640763633864559e-01
1.523099999999999987e+01 4.449699999999999989e+01 2.674800000000000111e+01 -4.802957691791624739e-02
1.523600000000000065e+01 7.545900000000000318e+01 3.281799999999999784e+01 1.987489541145666117e-01
1.524499999999999922e+01 7.409399999999999409e+01 3.495300000000000296e+01 6.361796573610056446e-03
1.525799999999999912e+01 5.246600000000000108e+01 2.082100000000000151e+01 5.486637516882699600e-02
1.527899999999999991e+01 6.177700000000000102e+01 3.369800000000000040e+01 2.528235209818863738e-01
1.529899999999999949e+01 2.910999999999999943e+01 1.873400000000000176e+01 5.930938014570824590e-02
1.531799999999999962e+01 8.225600000000000023e+01 3.132999999999999829e+01 2.934824476704770424e-01
1.533200000000000074e+01 4.549900000000000233e+01 3.706400000000000006e+01 1.758833431857225182e-01
1.533500000000000085e+01 5.699099999999999966e+01 1.933999999999999986e+01 5.252204892147027682e-02
1.533600000000000030e+01 7.779600000000000648e+01 2.910300000000000153e+01 3.000829091272197435e-01
1.535299999999999976e+01 7.663599999999999568e+01 1.872400000000000020e+01 1.709909472424163066e-02
1.537100000000000044e+01 1.201800000000000068e+01 2.011700000000000088e+01 1.807745604188604471e-01
1.538499999999999979e+01 5.511800000000000210e+01 2.805900000000000105e+01 2.940671365877409738e-01
1.540900000000000070e+01 -7.520000000000000018e-01 2.249200000000000088e+01 -2.291340948931117616e-01
1.541499999999999915e+01 3.016199999999999903e+01 1.937900000000000134e+01 3.473875125416948650e-01
1.543099999999999916e+01 5.879299999999999926e+01 3.690699999999999648e+01 -7.133471530717206029e-03
1.547000000000000064e+01 6.435800000000000409e+01 2.877299999999999969e+01 3.980124151666363241e-01
1.548300000000000054e+01 5.354699999999999704e+01 3.929500000000000171e+01 -3.604303481238648743e-01
1.548799999999999955e+01 5.206199999999999761e+01 3.533899999999999864e+01 1.758512620439611207e-01
1.550200000000000067e+01 2.619399999999999906e+01 2.051899999999999835e+01 -1.893476203194699170e-01
1.553299999999999947e+01 6.929500000000000171e+01 2.407199999999999918e+01 9.072632350579344640e-02
1.555000000000000071e+01 6.717700000000000671e+01 2.932000000000000028e+01 6.935362723183649287e-04
1.557399999999999984e+01 1.199600000000000044e+01 2.855099999999999838e+01 2.137622577933408485e-01
1.557600000000000051e+01 3.623100000000000165e+01 2.838700000000000045e+01 -1.361561836483304311e-01
1.561100000000000065e+01 8.282299999999999329e+01 3.240400000000000347e+01 2.645593993716871539e-01
1.561599999999999966e+01 4.969999999999999751e+00 2.316400000000000148e+01 1.709394131828522734e-01
1.564199999999999946e+01 1.344500000000000028e+01 2.177599999999999980e+01 -1.376476426510558383e-03
1.564300000000000068e+01 3.284300000000000352e+01 2.908299999999999841e+01 1.564262848949285467e-01
1.565099999999999980e+01 3.808200000000000074e+01 2.537999999999999901e+01 7.273873612285589041e-02
1.566699999999999982e+01 2.430300000000000082e+01 1.904799999999999827e+01 -2.374100632779989947e-03
1.569100000000000072e+01 6.831300000000000239e+01 2.503000000000000114e+01 9.058601089803172690e-02
1.569599999999999973e+01 5.108100000000000307e+01 3.638400000000000034e+01 2.242157965451994917e-01
1.575600000000000023e+01 8.213200000000000500e+01 1.658399999999999963e+01 -2.274696952608047940e-01
1.576500000000000057e+01 4.870400000000000063e+01 3.639000000000000057e+01 1.453246329858614572e-01
1.577699999999999925e+01 4.384499999999999886e+01 3.892199999999999704e+01 2.064548876948715250e-01
1.577699999999999925e+01 4.799000000000000199e+01 3.203799999999999670e+01 1.754559637818308981e-01
1.578299999999999947e+01 6.929399999999999693e+01 2.016600000000000037e+01 1.189959088757503169e-01
1.578500000000000014e+01 2.376399999999999935e+01 2.047599999999999909e+01 2.482845801534592015e-02
1.581400000000000006e+01 4.337299999999999756e+01 3.319100000000000250e+01 1.271393055567752450e-01
1.585100000000000087e+01 2.498499999999999943e+01 2.128399999999999892e+01 6.426068314885165222e-02
1.585399999999999920e+01 3.625500000000000256e+01 2.708699999999999974e+01 7.982028387094562694e-02
1.585800000000000054e+01 7.215200000000000102e+01 3.619899999999999807e+01 -2.569289154628630611e-01
1.589499999999999957e+01 1.115499999999999936e+01 2.731200000000000117e+01 7.053506358022533507e-02
1.590000000000000036e+01 7.774299999999999500e+01 3.283299999999999841e+01 1.037892404202879482e-01
1.590700000000000003e+01 3.250699999999999790e+01 2.339799999999999969e+01 7.410812388301636633e-03
1.591699999999999982e+01 5.310999999999999943e+01 3.319599999999999795e+01 4.148035742905695211e-01
1.593099999999999916e+01 7.667700000000000671e+01 3.223499999999999943e+01 1.073403945185955888e-01
1.594400000000000084e+01 6.320199999999999818e+01 2.861599999999999966e+01 2.281380018391228059e-01
1.598600000000000065e+01 2.496199999999999974e+01 2.260800000000000054e+01 -4.289593150882538980e-02
1.600600000000000023e+01 2.392699999999999960e+01 2.327899999999999991e+01 -2.863072402404907013e-01
1.601000000000000156e+01 5.156799999999999784e+01 2.577599999999999980e+01 3.494724057160983888e-01
1.601399999999999935e+01 4.435900000000000176e+01 3.424900000000000233e+01 6.148552574921452296e-02
1.602299999999999969e+01 3.710300000000000153e+01 2.037399999999999878e+01 1.563515832903741853e-01
1.602799999999999869e+01 5.574499999999999744e+01 4.026299999999999812e+01 6.315402198734163149e-03
1.603900000000000148e+01 6.917000000000000171e+01 2.840200000000000102e+01 2.510591828430684402e-01
1.605499999999999972e+01 7.495900000000000318e+01 3.399699999999999989e+01 2.837903108537741526e-01
1.606099999999999994e+01 6.256900000000000261e+01 2.720799999999999841e+01 2.375131524793364368e-01
1.606200000000000117e+01 4.348899999999999721e+01 2.651300000000000168e+01 -6.086597997683425298e-02
1.606299999999999883e+01 2.631800000000000139e+01 2.329299999999999926e+01 6.078959284055301948e-02
1.611199999999999832e+01 7.336199999999999477e+01 3.597099999999999653e+01 -5.982644113220208018e-03
1.611400000000000077e+01 8.153199999999999648e+01 3.069099999999999895e+01 2.605175316680027331e-01
1.612300000000000111e+01 4.907500000000000284e+01 3.100400000000000134e+01 4.610344323956856033e-02
1.614000000000000057e+01 4.905199999999999960e+01 2.448600000000000065e+01 3.709118887870619004e-03
1.614699999999999847e+01 5.197800000000000153e+01 3.419500000000000028e+01 -2.414222776748610744e-01
1.614999999999999858e+01 2.016199999999999903e+01 2.385999999999999943e+01 -3.719076445478126242e-02
1.615599999999999881e+01 6.879300000000000637e+01 3.157799999999999940e+01 3.139701465651966172e-01
1.617699999999999960e+01 5.260600000000000165e+01 3.832300000000000040e+01 1.037994639658542696e-02
1.618100000000000094e+01 1.293900000000000006e+01 2.061100000000000065e+01 -2.836021338767589703e-02
1.619800000000000040e+01 3.460999999999999854e+00 2.536400000000000077e+01 -2.008979455497781341e-01
1.619999999999999929e+01 3.475800000000000267e+01 2.116900000000000048e+01 1.107790324361725975e-01
1.624599999999999866e+01 5.641899999999999693e+01 2.896499999999999986e+01 4.144513623925989987e-01
1.624800000000000111e+01 7.307099999999999795e+01 2.948900000000000077e+01 9.201061903806777298e-02
1.625300000000000011e+01 1.144599999999999973e+01 2.981899999999999906e+01 9.836571884702813295e-02
1.625799999999999912e+01 7.988200000000000500e+01 2.348300000000000054e+01 -2.409035557220480794e-01
1.626399999999999935e+01 6.797700000000000387e+01 2.853000000000000114e+01 2.609302243271280353e-01
1.627199999999999847e+01 3.373400000000000176e+01 2.048699999999999832e+01 1.305625080625043011e-01
1.632300000000000040e+01 1.450799999999999912e+01 2.258200000000000074e+01 -2.279989017453388223e-01
1.638800000000000168e+01 7.426300000000000523e+01 2.916499999999999915e+01 3.398936901684924128e-01
1.639099999999999824e+01 5.463600000000000279e+01 3.963499999999999801e+01 1.272543715254160698e-02
1.642599999999999838e+01 4.270100000000000051e+01 2.751300000000000168e+01 -2.770025131534545326e-01
1.643199999999999861e+01 7.471200000000000330e+01 1.968199999999999861e+01 -3.090046998619419005e-01
1.643400000000000105e+01 6.247299999999999898e+01 2.962199999999999989e+01 2.334480356877414453e-01
1.645100000000000051e+01 3.894700000000000273e+01 2.632300000000000040e+01 -2.978229671794293543e-01
1.645499999999999829e+01 6.293900000000000006e+01 3.103200000000000003e+01 2.140953254485836177e-01
1.646499999999999986e+01 7.093600000000000705e+01 2.265200000000000102e+01 -1.999814692251188908e-01
1.649200000000000088e+01 4.402499999999999858e+01 3.544200000000000017e+01 1.184659402240125295e-02
1.650799999999999912e+01 3.753300000000000125e+01 2.436499999999999844e+01 1.409083537773692940e-01
1.651500000000000057e+01 5.355700000000000216e+01 2.144099999999999895e+01 6.654049679961207553e-02
1.651599999999999824e+01 5.851700000000000301e+01 3.642699999999999960e+01 3.215938405070740691e-01
1.652100000000000080e+01 7.026999999999999602e+01 1.925700000000000145e+01 -2.571067975875296896e-01
1.655099999999999838e+01 4.329200000000000159e+01 2.528900000000000148e+01 -3.746907884750655948e-01
1.655399999999999849e+01 5.757900000000000063e+01 2.803300000000000125e+01 4.301434203967186010e-01
1.655600000000000094e+01 3.548100000000000165e+01 2.929500000000000171e+01 7.042792883084707245e-02
1.655699999999999861e+01 5.735099999999999909e+01 1.854400000000000048e+01 1.158697674288986096e-01
1.655999999999999872e+01 7.826300000000000523e+01 2.935300000000000153e+01 3.575895424811723067e-02
1.657199999999999918e+01 3.082199999999999918e+01 1.952499999999999858e+01 2.940485759610281802e-01
1.658500000000000085e+01 1.783099999999999952e+01 2.366100000000000136e+01 -2.621841569848156750e-01
1.658599999999999852e+01 8.079999999999999716e+01 2.425300000000000011e+01 8.255998835659901502e-02
1.662000000000000099e+01 -3.089999999999999969e-01 2.174200000000000088e+01 1.527796980336421362e-01
1.662900000000000134e+01 7.151300000000000523e+01 1.967899999999999849e+01 -2.824291855121612294e-01
1.663599999999999923e+01 7.651099999999999568e+01 3.112399999999999878e+01 2.724267881916633827e-02
1.663700000000000045e+01 6.995000000000000284e+01 2.357100000000000151e+01 -2.147782086104971511e-01
1.666000000000000014e+01 6.985599999999999454e+01 3.245000000000000284e+01 3.655210649382443777e-01
1.667999999999999972e+01 4.518500000000000227e+01 3.642099999999999937e+01 -1.483410518733161987e-01
1.674699999999999989e+01 1.404199999999999982e+01 2.397400000000000020e+01 9.247773123274126428e-02
1.674800000000000111e+01 5.965100000000000335e+01 2.922899999999999920e+01 2.123779876228558128e-01
1.676000000000000156e+01 4.285099999999999909e+01 3.575300000000000011e+01 3.005490380516218085e-02
1.677499999999999858e+01 1.894200000000000017e+01 2.319900000000000162e+01 -1.525915787051754791e-01
1.677599999999999980e+01 6.167900000000000205e+01 3.338400000000000034e+01 2.193713510381553322e-01
1.678200000000000003e+01 5.432300000000000040e+01 3.356499999999999773e+01 -3.468703784789939348e-01
1.678900000000000148e+01 3.312199999999999989e+01 2.869999999999999929e+01 1.616305749768674471e-01
1.682999999999999829e+01 5.530199999999999960e+01 3.238499999999999801e+01 3.690734609612866257e-01
1.683200000000000074e+01 5.746500000000000341e+01 2.343799999999999883e+01 -7.879447424673093059e-03
1.683200000000000074e+01 6.511199999999999477e+01 3.186199999999999832e+01 8.851469040325191107e-02
1.684600000000000009e+01 5.101800000000000068e+01 3.392399999999999949e+01 1.518085579136523033e-01
1.686799999999999855e+01 3.492199999999999704e+01 2.230099999999999838e+01 5.685092491062702924e-02
1.689799999999999969e+01 8.051000000000000156e+00 2.700199999999999889e+01 6.082348567876805223e-02
1.693199999999999861e+01 2.729400000000000048e+01 2.264699999999999847e+01 -4.278745276050033991e-02
1.694099999999999895e+01 5.666899999999999693e+01 4.051500000000000057e+01 -1.516146009293589322e-02
1.694500000000000028e+01 7.953499999999999659e+01 2.251200000000000045e+01 -2.287156614352780504e-01
1.696000000000000085e+01 6.792499999999999716e+01 2.545599999999999952e+01 3.684451500844537764e-01
1.698900000000000077e+01 3.101999999999999869e+00 2.660999999999999943e+01 -2.341082657313491300e-01
1.699299999999999855e+01 6.990000000000000568e+01 1.819800000000000040e+01 -2.529963818237263018e-01
1.700199999999999889e+01 3.670000000000000284e+01 1.927100000000000080e+01 3.741908512885474547e-01
1.702199999999999847e+01 2.168199999999999861e+01 2.068799999999999883e+01 -3.422585171988795638e-02
1.703200000000000003e+01 7.399899999999999523e+01 3.654399999999999693e+01 -8.562651351109087233e-03
1.703500000000000014e+01 7.110299999999999443e+01 3.165700000000000003e+01 2.190757364207691626e-01
1.704899999999999949e+01 4.743900000000000006e+01 3.268200000000000216e+01 -7.260242812764285125e-02
1.706099999999999994e+01 2.128399999999999892e+01 2.390200000000000102e+01 1.570370188532846101e-01
1.707300000000000040e+01 7.914499999999999602e+01 2.869999999999999929e+01 8.781112709539488914e-02
1.707999999999999829e+01 2.291900000000000048e+01 2.061199999999999832e+01 -5.520014139489443084e-02
1.710099999999999909e+01 3.117399999999999949e+01 2.714699999999999847e+01 1.103477544646627867e-01
1.712099999999999866e+01 6.189399999999999835e+01 3.190899999999999892e+01 -1.541782122845954117e-01
1.712099999999999866e+01 6.683400000000000318e+01 2.646999999999999886e+01 1.456212387545929854e-01
1.713400000000000034e+01 7.097899999999999920e+01 3.033399999999999963e+01 1.651492071993038435e-01
1.714900000000000091e+01 3.253900000000000148e+01 2.292000000000000171e+01 -7.083236570006339050e-02
1.715599999999999881e+01 4.282699999999999818e+01 3.267600000000000193e+01 1.601689034808622680e-01
1.716100000000000136e+01 2.871699999999999875e+01 2.665800000000000125e+01 -2.396314690305741679e-01
1.716600000000000037e+01 4.193699999999999761e+01 3.186899999999999977e+01 -2.164889972717696232e-01
1.716600000000000037e+01 4.635399999999999920e+01 3.568299999999999983e+01 -5.317450450801245593e-02
1.720499999999999829e+01 9.156000000000000583e+00 2.658699999999999974e+01 -3.065111816360111159e-03
1.721799999999999997e+01 1.036899999999999977e+01 2.751699999999999946e+01 2.469522587966141783e-02
1.722899999999999920e+01 8.353999999999999204e+00 2.181099999999999994e+01 -2.761960538890809724e-01
1.723499999999999943e+01 1.714199999999999946e+01 2.727700000000000102e+01 2.661678674012851742e-01
1.723600000000000065e+01 5.669599999999999795e+01 3.276700000000000301e+01 -1.560656565557445308e-01
1.724500000000000099e+01 6.420399999999999352e+01 3.116300000000000026e+01 1.141613800477174062e-01
1.725600000000000023e+01 7.214000000000000057e+01 3.224900000000000233e+01 5.986993099747992333e-03
1.730099999999999838e+01 4.999099999999999966e+01 2.432000000000000028e+01 3.321364723288283693e-01
1.730499999999999972e+01 3.435399999999999920e+01 2.874699999999999989e+01 1.733163638261323719e-02
1.730600000000000094e+01 1.516099999999999959e+01 2.471600000000000108e+01 9.697910648907147324e-02
1.730999999999999872e+01 5.709400000000000119e+01 2.686400000000000077e+01 1.286367924765308701e-01
1.731099999999999994e+01 5.862899999999999778e+01 2.884299999999999997e+01 -1.383256776128953258e-01
1.732499999999999929e+01 7.764700000000000557e+01 3.052799999999999869e+01 4.531451255046016480e-02
1.732700000000000173e+01 3.157999999999999829e+01 3.272099999999999653e+01 7.993023183206664217e-02
1.732999999999999829e+01 6.031300000000000239e+01 3.384000000000000341e+01 -1.950936943973408666e-01
1.733899999999999864e+01 6.192699999999999960e+01 2.702499999999999858e+01 2.361205102655688781e-01
1.735500000000000043e+01 5.841100000000000136e+01 1.924800000000000111e+01 7.562609829016245233e-02
1.739300000000000068e+01 5.097800000000000153e+01 2.549099999999999966e+01 4.364960930372947523e-01
1.744800000000000040e+01 9.108999999999999986e+00 3.123999999999999844e+01 2.421699970836915516e-01
1.745200000000000173e+01 7.213100000000000023e+01 2.947500000000000142e+01 8.863612217760810652e-02
1.747200000000000131e+01 6.735999999999999943e+01 2.785600000000000165e+01 -1.503053671378124824e-02
1.748799999999999955e+01 3.643900000000000006e+01 3.003600000000000136e+01 1.560744672610111239e-01
1.749200000000000088e+01 1.174200000000000088e+01 2.385000000000000142e+01 1.417205547527610465e-01
1.753099999999999881e+01 3.550300000000000011e+01 3.237500000000000000e+01 -3.840957431261344396e-02
1.754100000000000037e+01 1.916900000000000048e+01 2.213200000000000145e+01 -1.432127054079426476e-01
1.755300000000000082e+01 9.369999999999999218e+00 2.532700000000000173e+01 3.658541986065599882e-01
1.755300000000000082e+01 6.820499999999999829e+01 3.411500000000000199e+01 -1.822849830358779302e-02
1.755799999999999983e+01 4.812899999999999778e+01 3.370499999999999829e+01 2.241199648696282909e-01
1.756099999999999994e+01 4.641899999999999693e+01 3.224699999999999989e+01 5.367860665195346714e-02
1.759799999999999898e+01 8.297000000000000597e+00 2.434499999999999886e+01 4.863999245293804119e-02
1.761599999999999966e+01 1.402899999999999991e+01 2.661400000000000077e+01 3.172273557101693564e-01
1.770599999999999952e+01 4.238999999999999879e+00 2.716000000000000014e+01 -2.101597432699973678e-01
1.770899999999999963e+01 1.505899999999999928e+01 2.597400000000000020e+01 4.174973254135500023e-02
1.771000000000000085e+01 7.880000000000000338e-01 2.657000000000000028e+01 -2.903902490683270554e-01
1.773000000000000043e+01 7.169700000000000273e+01 2.798199999999999932e+01 -4.233778337292663785e-02
1.773400000000000176e+01 3.201200000000000045e+01 2.825499999999999901e+01 8.057787256082424299e-02
1.774899999999999878e+01 3.151800000000000068e+01 2.259299999999999997e+01 4.249548845520800811e-01
1.777700000000000102e+01 7.293099999999999739e+01 2.704299999999999926e+01 9.555358619855840174e-02
1.780000000000000071e+01 1.294299999999999962e+01 2.379700000000000060e+01 3.227843418566150868e-02
1.780000000000000071e+01 3.392000000000000171e+01 2.276699999999999946e+01 -1.854578082753687712e-02
1.780199999999999960e+01 5.914300000000000068e+01 2.617500000000000071e+01 1.832406891614808686e-01
1.780900000000000105e+01 -3.430000000000000271e-01 2.390800000000000125e+01 1.573197519414306633e-01
1.780900000000000105e+01 3.033599999999999852e+01 1.892999999999999972e+01 2.085254471106471608e-01
1.782600000000000051e+01 3.375000000000000000e+00 2.923000000000000043e+01 -2.210895153972046168e-01
1.784100000000000108e+01 1.803999999999999915e+01 2.819000000000000128e+01 2.409185364231173077e-01
1.784499999999999886e+01 2.755000000000000071e+01 2.639399999999999835e+01 1.073868863314783872e-01
1.784600000000000009e+01 2.990299999999999869e+01 2.686400000000000077e+01 6.769634445228248087e-02
1.785999999999999943e+01 5.410900000000000176e+01 2.636400000000000077e+01 4.391752381642189396e-01
1.787999999999999901e+01 9.028000000000000469e+00 2.024699999999999989e+01 7.549599348059497783e-02
1.789600000000000080e+01 5.793800000000000239e+01 2.603399999999999892e+01 1.297754833985458323e-01
1.790200000000000102e+01 6.961599999999999966e+01 2.398699999999999832e+01 -2.176962700244575721e-01
1.790299999999999869e+01 6.939700000000000557e+01 3.324199999999999733e+01 3.605186589806815833e-01
1.795599999999999952e+01 -5.250000000000000222e-01 2.246099999999999852e+01 1.374659953866868012e-01
1.798900000000000077e+01 3.115899999999999892e+01 2.942599999999999838e+01 2.344406605954452855e-02
1.798900000000000077e+01 5.659000000000000341e+01 2.388899999999999935e+01 3.618107800502995408e-01
1.800100000000000122e+01 2.040999999999999925e+00 2.621000000000000085e+01 -2.671395462182916125e-01
1.801800000000000068e+01 4.126999999999999780e+00 2.144999999999999929e+01 2.735178398634987434e-02
1.803399999999999892e+01 8.864000000000000767e+00 2.299800000000000111e+01 4.021259787722663431e-02
1.806400000000000006e+01 6.857899999999999352e+01 2.492200000000000060e+01 9.937363949319497070e-02
1.806800000000000139e+01 5.267600000000000193e+01 2.092299999999999827e+01 6.278810785496231894e-02
1.807600000000000051e+01 1.837300000000000111e+01 1.893799999999999883e+01 -2.462318941826208835e-02
1.808999999999999986e+01 4.266000000000000014e+00 2.843700000000000117e+01 -2.063316008800644696e-01
1.809600000000000009e+01 6.352000000000000313e+00 2.982100000000000151e+01 1.886397714913713025e-02
1.810900000000000176e+01 6.631799999999999784e+01 2.865500000000000114e+01 -1.573662152831736272e-01
1.813200000000000145e+01 2.125400000000000134e+01 2.466400000000000148e+01 8.457239674878662405e-02
1.816100000000000136e+01 8.138999999999999346e+00 3.156500000000000128e+01 2.961117994450973567e-01
1.818700000000000117e+01 3.580400000000000205e+01 3.120100000000000051e+01 -1.181894012714845496e-02
1.819200000000000017e+01 2.699399999999999977e+01 2.237999999999999901e+01 -1.147013824032688395e-01
1.820299999999999940e+01 5.388100000000000023e+01 3.400999999999999801e+01 6.858276689125084036e-02
1.821499999999999986e+01 1.810800000000000054e+01 2.144900000000000162e+01 -1.817264879516460041e-02
1.824800000000000111e+01 2.355699999999999861e+01 2.064000000000000057e+01 1.407630515086292777e-01
1.826599999999999824e+01 7.714000000000000412e+00 3.273599999999999710e+01 2.872669288831583012e-01
1.827700000000000102e+01 4.338100000000000023e+01 3.313700000000000045e+01 1.614943424025886698e-01
1.831099999999999994e+01 1.630600000000000094e+01 2.660200000000000031e+01 4.139672909007464652e-01
1.832700000000000173e+01 6.041999999999999815e+00 2.461400000000000077e+01 -1.871389953820638274e-01
1.835800000000000054e+01 2.909600000000000009e+01 1.968599999999999994e+01 1.860347877812600081e-01
1.837300000000000111e+01 1.121100000000000030e+01 2.722400000000000020e+01 1.593437918556348809e-01
1.838599999999999923e+01 3.497099999999999653e+01 3.322800000000000153e+01 -7.106413010453370427e-02
1.839999999999999858e+01 5.209700000000000131e+01 2.517399999999999949e+01 4.683366576972309431e-02
1.840700000000000003e+01 2.916499999999999915e+01 2.101500000000000057e+01 1.802780473575267550e-01
1.840800000000000125e+01 1.637600000000000122e+01 1.764799999999999969e+01 -1.031376226801667198e-02
1.842200000000000060e+01 6.422799999999999443e+01 3.053800000000000026e+01 6.240922501553278386e-03
1.842299999999999827e+01 2.028000000000000114e+01 2.534499999999999886e+01 6.528802491234718397e-02
1.842599999999999838e+01 4.645100000000000051e+01 3.524699999999999989e+01 1.033001873833150862e-02
1.844600000000000151e+01 7.525999999999999801e+00 1.935099999999999909e+01 3.486161364774992832e-01
1.844699999999999918e+01 3.258899999999999864e+01 1.791600000000000037e+01 1.242140538352943038e-02
1.847800000000000153e+01 5.302900000000000347e+01 2.636100000000000065e+01 4.359327855742113345e-01
1.848499999999999943e+01 3.437199999999999989e+01 2.406800000000000139e+01 -3.420486907830254386e-02
1.850100000000000122e+01 6.256000000000000227e+01 2.714099999999999824e+01 -1.900733884101793447e-02
1.855199999999999960e+01 2.352899999999999991e+01 2.550700000000000145e+01 5.819867474836534077e-02
1.857300000000000040e+01 5.833100000000000307e+01 2.913899999999999935e+01 -7.076990356113835312e-02
1.858599999999999852e+01 6.375800000000000267e+01 2.742599999999999838e+01 2.798735112570501296e-02
1.858899999999999864e+01 6.765500000000000114e+01 3.032199999999999918e+01 3.680079923445413875e-02
1.858999999999999986e+01 7.221000000000000085e+00 2.478399999999999892e+01 -2.194448299691914017e-01
1.860200000000000031e+01 -3.400000000000000244e-01 2.625300000000000011e+01 -3.248012709710269563e-01
1.864000000000000057e+01 5.781900000000000261e+01 1.968900000000000006e+01 2.072441791928193028e-02
1.864699999999999847e+01 2.806899999999999906e+01 1.907100000000000151e+01 1.634966536105404711e-01
1.864999999999999858e+01 6.657299999999999329e+01 2.982400000000000162e+01 -1.569419621213598570e-01
1.868900000000000006e+01 4.095600000000000307e+01 2.459900000000000020e+01 -2.417268928312987786e-01
1.869300000000000139e+01 2.590099999999999980e+01 2.267000000000000171e+01 1.856273102137898090e-01
1.871399999999999864e+01 4.535399999999999920e+01 2.725300000000000011e+01 -2.471920310320247227e-01
1.875400000000000134e+01 4.770799999999999841e+01 3.444100000000000250e+01 7.288873781952084907e-02
1.877499999999999858e+01 7.630500000000000682e+01 2.894600000000000151e+01 4.200000000000000400e-01
1.877599999999999980e+01 7.729099999999999682e+01 3.009100000000000108e+01 4.200000000000000400e-01
1.879500000000000171e+01 3.111700000000000088e+01 3.270100000000000051e+01 -1.802761411490463872e-01
1.880300000000000082e+01 1.751599999999999824e+01 1.792099999999999937e+01 -1.255252124542704552e-02
1.880699999999999861e+01 5.734300000000000352e+01 2.495400000000000063e+01 1.044371751873935661e-01
1.883500000000000085e+01 -5.620000000000000551e-01 2.474299999999999855e+01 1.096625736922079708e-01
1.888899999999999935e+01 1.862500000000000000e+01 2.018599999999999994e+01 3.693800765615778414e-01
1.889399999999999835e+01 3.146099999999999852e+01 1.885600000000000165e+01 1.770131274540463484e-01
1.889600000000000080e+01 4.719400000000000261e+01 2.885300000000000153e+01 1.636765129753142700e-01
1.891000000000000014e+01 5.627700000000000102e+01 2.267099999999999937e+01 1.073671688808437025e-01
1.891100000000000136e+01 5.472000000000000419e+00 2.888200000000000145e+01 -3.362160936542917256e-01
1.891900000000000048e+01 7.432000000000000384e+00 3.047700000000000031e+01 3.506671662032577741e-01
1.893400000000000105e+01 4.430000000000000049e-01 2.183399999999999963e+01 3.248881111179806325e-02
1.896699999999999875e+01 6.904699999999999704e+01 3.232999999999999829e+01 2.235778060758142338e-02
1.901200000000000045e+01 7.095300000000000296e+01 2.791900000000000048e+01 8.627958280746972353e-03
1.902299999999999969e+01 2.358000000000000096e+00 2.558200000000000074e+01 4.309660803569730775e-02
1.902299999999999969e+01 2.246900000000000119e+01 2.456899999999999906e+01 -3.542239593941080757e-03
1.902400000000000091e+01 2.295100000000000051e+01 2.317899999999999849e+01 6.720113929276715081e-02
1.903600000000000136e+01 1.336299999999999955e+01 2.353800000000000026e+01 -3.771145620295182632e-02
1.904500000000000171e+01 3.130199999999999960e+01 3.021399999999999864e+01 9.317012237653268109e-03
