1.569599999999999973e+01 -6.820999999999999730e+00 -2.730199999999999960e+01 -2.471563936171286557e-01
1.577999999999999936e+01 2.232000000000000206e+00 -3.418900000000000006e+01 -1.219368191789439726e-01
1.580599999999999916e+01 -3.192000000000000171e+00 -2.238200000000000145e+01 9.374976097489470805e-02
1.584299999999999997e+01 -1.933999999999999941e+00 -2.986700000000000088e+01 6.983007388688506137e-03
1.594800000000000040e+01 -8.169000000000000483e+00 -2.254700000000000060e+01 -1.897695506495371554e-01
1.600300000000000011e+01 -5.620000000000000107e+00 -2.989900000000000091e+01 8.525262153548552810e-03
1.602299999999999969e+01 -3.237999999999999989e+00 -2.025700000000000145e+01 -2.836066455119900520e-01
1.618400000000000105e+01 -9.131999999999999673e+00 -2.746099999999999852e+01 -1.631483758080606306e-01
1.618400000000000105e+01 -2.556999999999999940e+00 -2.853999999999999915e+01 2.179416585188349159e-02
1.627799999999999869e+01 -5.535000000000000142e+00 -2.764499999999999957e+01 1.132449280860659407e-01
1.636899999999999977e+01 -8.303000000000000824e+00 -2.118199999999999861e+01 -3.441274109939483905e-01
1.637399999999999878e+01 -5.032000000000000028e+00 -2.887199999999999989e+01 2.711057380129763134e-02
1.641300000000000026e+01 -9.555999999999999162e+00 -3.196799999999999997e+01 -2.931249850887037225e-02
1.652400000000000091e+01 -7.990999999999999659e+00 -2.779200000000000159e+01 -2.071768980203580468e-01
1.655999999999999872e+01 -2.157000000000000028e+00 -2.201599999999999824e+01 -2.225054218193388000e-01
1.670200000000000173e+01 -2.185999999999999943e+00 -2.064499999999999957e+01 -2.273958698956336233e-01
1.670299999999999940e+01 -4.200000000000000261e-02 -3.401800000000000068e+01 6.292798482971266594e-02
1.701000000000000156e+01 -3.449999999999999734e-01 -3.549000000000000199e+01 5.615404094228583498e-02
1.704400000000000048e+01 -7.982999999999999652e+00 -2.362199999999999989e+01 8.319770890414569103e-03
1.707900000000000063e+01 3.153999999999999915e+00 -2.549200000000000088e+01 -2.960686200020287151e-01
1.708200000000000074e+01 -3.698999999999999844e+00 -2.890200000000000102e+01 2.148947800342686926e-02
1.710200000000000031e+01 5.450000000000000400e-01 -3.634599999999999653e+01 5.693769556295798229e-02
1.711599999999999966e+01 -2.064999999999999947e+00 -3.068700000000000117e+01 -1.078268167009065019e-02
1.713500000000000156e+01 -4.044999999999999929e+00 -2.538400000000000034e+01 -2.443574117894650038e-02
1.717000000000000171e+01 -1.522999999999999909e+00 -3.576899999999999835e+01 3.072152655234703517e-02
1.717200000000000060e+01 2.246999999999999886e+00 -2.769900000000000162e+01 1.077011056961709456e-01
1.719999999999999929e+01 -1.100999999999999979e+00 -2.288500000000000156e+01 -2.198775014001977668e-01
1.742399999999999949e+01 -5.750000000000000000e+00 -2.262699999999999889e+01 8.576963037461702091e-03
1.759700000000000131e+01 -7.796000000000000263e+00 -2.857100000000000151e+01 -1.782464194838722649e-01
1.760900000000000176e+01 -8.461000000000000298e+00 -1.360699999999999932e+01 -3.668650423629243873e-01
1.761299999999999955e+01 -3.351999999999999869e+00 -3.021399999999999864e+01 2.735852758229095349e-01
1.761499999999999844e+01 -9.880000000000000782e+00 -1.342600000000000016e+01 -3.855960367903426556e-01
1.762000000000000099e+01 -1.598000000000000087e+00 -2.422400000000000020e+01 8.586542073496269967e-02
1.766300000000000026e+01 -6.578999999999999737e+00 -2.352700000000000102e+01 -4.222616317596922936e-02
1.767500000000000071e+01 -9.772999999999999687e+00 -3.164199999999999946e+01 -1.234479431548004755e-02
1.774899999999999878e+01 5.849999999999999645e-01 -3.322599999999999909e+01 6.697654592984744748e-02
1.790599999999999881e+01 -4.594000000000000306e+00 -3.329099999999999682e+01 1.636500341205351094e-01
1.798100000000000165e+01 2.706999999999999851e+00 -2.649200000000000088e+01 1.111329151079549528e-02
1.798699999999999832e+01 5.719999999999999529e-01 -2.525100000000000122e+01 -2.900491837262699213e-01
1.800199999999999889e+01 -9.083999999999999631e+00 -2.352700000000000102e+01 5.976854487471094934e-02
1.807900000000000063e+01 -1.093900000000000006e+01 -3.154200000000000159e+01 -1.286236533853598318e-01
1.819999999999999929e+01 -3.910000000000000142e+00 -2.479100000000000037e+01 -4.615062425104780874e-02
1.827100000000000080e+01 2.475000000000000089e+00 -1.949299999999999855e+01 -3.381884331361169616e-01
1.830799999999999983e+01 -1.106199999999999939e+01 -1.993199999999999861e+01 -2.767686594496350794e-01
1.838200000000000145e+01 -7.362000000000000099e+00 -1.745899999999999963e+01 -2.616781382670082534e-01
1.842899999999999849e+01 -5.855999999999999872e+00 -1.767800000000000082e+01 5.472570071518023660e-02
1.844800000000000040e+01 -4.137999999999999901e+00 -3.089399999999999835e+01 2.087810759050549581e-01
1.846399999999999864e+01 -6.323999999999999844e+00 -2.455600000000000094e+01 1.811434405246139731e-02
1.846699999999999875e+01 -8.907999999999999474e+00 -2.888700000000000045e+01 -1.106202204425797558e-01
1.847299999999999898e+01 -2.774000000000000021e+00 -2.416900000000000048e+01 -1.104956534787621125e-01
1.852499999999999858e+01 -5.460000000000000409e-01 -2.479700000000000060e+01 -2.634982217594215026e-01
1.857600000000000051e+01 -8.554000000000000270e+00 -3.140399999999999991e+01 -2.300340184158827447e-02
1.865700000000000003e+01 -5.687999999999999723e+00 -1.908500000000000085e+01 -2.497826324276052612e-01
1.883200000000000074e+01 9.170000000000000373e-01 -2.085399999999999920e+01 -3.383410470537701609e-01
1.883399999999999963e+01 1.568999999999999950e+00 -2.586100000000000065e+01 1.420433109639232874e-02
1.884600000000000009e+01 -3.866999999999999993e+00 -3.234799999999999898e+01 1.450941912009645895e-01
1.884700000000000131e+01 2.101999999999999869e+00 -2.051399999999999935e+01 -3.369953953315547035e-01
1.891000000000000014e+01 -5.125000000000000000e+00 -3.031400000000000006e+01 -1.808572693206993431e-01
1.894900000000000162e+01 -9.192999999999999616e+00 -2.258800000000000097e+01 -3.304457831586896654e-01
1.895200000000000173e+01 -1.148300000000000054e+01 -1.591600000000000037e+01 -2.325406875189851841e-02
1.899699999999999989e+01 -1.037899999999999956e+01 -1.375399999999999956e+01 -4.040054636781492126e-01
1.903000000000000114e+01 2.270000000000000073e-01 -3.317499999999999716e+01 6.195448012536368398e-02
1.907600000000000051e+01 -1.186700000000000088e+01 -2.067000000000000171e+01 -2.779901494041341903e-01
1.914600000000000080e+01 -8.332000000000000739e+00 -2.170899999999999963e+01 -3.148030144923359419e-01
1.917399999999999949e+01 -5.067999999999999616e+00 -2.469300000000000139e+01 -1.398588600721650255e-01
1.919300000000000139e+01 -1.170199999999999996e+01 -2.218199999999999861e+01 -1.108181787136903740e-01
1.919399999999999906e+01 -1.160800000000000054e+01 -2.540399999999999991e+01 -2.949271231373417068e-01
1.922899999999999920e+01 -1.046400000000000041e+01 -1.527699999999999925e+01 -1.550627445951933102e-02
1.926200000000000045e+01 -8.407000000000000028e+00 -2.666199999999999903e+01 -1.302833069275963207e-02
1.927899999999999991e+01 -4.333000000000000185e+00 -1.229199999999999982e+01 1.132807028143439226e-01
1.931500000000000128e+01 -9.144000000000000128e+00 -2.765700000000000003e+01 -1.491430726215610680e-01
1.937199999999999989e+01 -8.596999999999999531e+00 -3.009499999999999886e+01 6.323397528042766329e-03
1.943499999999999872e+01 2.153999999999999915e+00 -2.355699999999999861e+01 -2.743229056324340553e-01
1.947400000000000020e+01 -4.785000000000000142e+00 -1.958500000000000085e+01 -2.522391037967148808e-01
1.957000000000000028e+01 -7.209999999999999742e-01 -3.376500000000000057e+01 3.670094436208495847e-02
1.957799999999999940e+01 3.160000000000000142e+00 -2.133200000000000074e+01 -2.295943953811550031e-01
1.968900000000000006e+01 -7.980000000000000426e+00 -1.789499999999999957e+01 -2.391525152679023214e-01
1.969399999999999906e+01 -1.277999999999999936e+01 -2.010399999999999920e+01 -1.612476750486423194e-01
1.969399999999999906e+01 -4.884000000000000341e+00 -2.086499999999999844e+01 -2.707120706306740954e-01
1.972200000000000131e+01 -9.401999999999999247e+00 -1.591300000000000026e+01 4.315965945491077524e-03
1.974899999999999878e+01 -7.249999999999999778e-01 -2.476899999999999835e+01 -2.504485510111389424e-01
1.979799999999999827e+01 1.143999999999999906e+00 -3.223100000000000165e+01 1.493498587040107961e-01
1.979899999999999949e+01 2.133999999999999897e+00 -2.484799999999999898e+01 -3.036732912661732620e-01
1.980600000000000094e+01 -1.403000000000000025e+00 -2.809199999999999875e+01 -9.629736291962374267e-03
1.984600000000000009e+01 -1.041799999999999926e+01 -2.271300000000000097e+01 -1.174602841361994249e-01
1.989799999999999969e+01 -9.506000000000000227e+00 -1.302299999999999969e+01 5.900527404893365219e-02
1.992500000000000071e+01 3.080000000000000071e+00 -3.366499999999999915e+01 1.594233800212407348e-01
1.994200000000000017e+01 -9.367000000000000881e+00 -1.735099999999999909e+01 2.457183512698254274e-02
1.996199999999999974e+01 -3.774999999999999911e+00 -1.888599999999999923e+01 -3.641148402926158711e-01
2.001899999999999835e+01 -1.025600000000000023e+01 -2.768299999999999983e+01 9.419287747686413970e-02
2.004599999999999937e+01 -5.160999999999999588e+00 -2.592200000000000060e+01 -1.702133498997426275e-01
2.018700000000000117e+01 -4.365000000000000213e+00 -3.254200000000000159e+01 7.034190421659132497e-02
2.035600000000000165e+01 2.706999999999999851e+00 -2.258200000000000074e+01 -2.373375388088611315e-01
2.038400000000000034e+01 -4.136000000000000121e+00 -1.177699999999999925e+01 1.142760713912392700e-01
2.048000000000000043e+01 -1.188100000000000023e+01 -2.600100000000000122e+01 -3.178209388845710803e-01
2.048799999999999955e+01 1.707999999999999963e+00 -2.960200000000000031e+01 3.695671546414252412e-02
2.052499999999999858e+01 -3.350000000000000089e+00 -1.048000000000000043e+01 1.687017619154357606e-01
2.056800000000000139e+01 3.049999999999999933e-01 -3.134700000000000131e+01 7.063685255971249854e-02
2.057199999999999918e+01 -2.866999999999999993e+00 -2.228600000000000136e+01 -4.991701736163699221e-02
2.065399999999999991e+01 -5.910999999999999588e+00 -9.381999999999999673e+00 -1.533030366969497238e-01
2.069699999999999918e+01 2.044000000000000039e+00 -3.306499999999999773e+01 1.452463333010368118e-01
2.084700000000000131e+01 -1.925999999999999934e+00 -1.084299999999999997e+01 1.533657600778109975e-01
2.084799999999999898e+01 6.510000000000000231e-01 -3.010600000000000165e+01 1.577197433678356048e-02
2.093199999999999861e+01 -1.057699999999999996e+01 -2.661199999999999832e+01 1.552120336346630991e-02
2.093700000000000117e+01 2.451999999999999957e+00 -2.520599999999999952e+01 -1.787210987287070896e-01
2.104400000000000048e+01 -1.015300000000000047e+01 -2.196499999999999986e+01 -4.174376714709408798e-02
2.108299999999999841e+01 -2.492999999999999883e+00 -3.173000000000000043e+01 3.409280868274177090e-01
2.115099999999999980e+01 -6.999999999999999556e-01 -2.795200000000000173e+01 -2.363972023323189856e-02
2.117000000000000171e+01 -9.823999999999999844e+00 -1.282300000000000040e+01 6.741855864565469980e-02
2.123600000000000065e+01 -3.616000000000000103e+00 -3.222999999999999687e+01 3.301573105176012768e-01
2.124699999999999989e+01 -6.092999999999999972e+00 -2.579200000000000159e+01 1.027184944177703257e-01
2.137699999999999889e+01 -9.737999999999999545e+00 -1.773400000000000176e+01 -1.698435534804760838e-01
2.142800000000000082e+01 -7.525999999999999801e+00 -1.449699999999999989e+01 2.170875379117259141e-01
2.148300000000000054e+01 -5.073000000000000398e+00 -9.029999999999999361e+00 -1.282759089751422665e-01
2.148900000000000077e+01 1.776999999999999913e+00 -2.218599999999999994e+01 -2.144426973068855047e-01
2.149699999999999989e+01 -4.653999999999999915e+00 -1.226900000000000013e+01 -3.600281428232558756e-02
2.151200000000000045e+01 -5.341999999999999638e+00 -1.354499999999999993e+01 -7.218311505592341082e-02
2.152100000000000080e+01 -2.205999999999999961e+00 -2.192200000000000060e+01 -3.377071108511865427e-01
2.153999999999999915e+01 -3.855999999999999872e+00 -9.574999999999999289e+00 -1.517822726872600225e-01
2.158800000000000097e+01 6.390000000000000124e-01 -2.285999999999999943e+01 -2.133967499848921923e-01
2.160600000000000165e+01 -6.860999999999999766e+00 -1.346799999999999997e+01 1.183088749103048398e-01
2.163599999999999923e+01 -2.701999999999999957e+00 -1.528999999999999915e+01 -6.628080945337115615e-02
2.164199999999999946e+01 -1.087800000000000011e+01 -1.325600000000000023e+01 3.732896544642462511e-02
2.167800000000000082e+01 -9.835000000000000853e+00 -1.892699999999999960e+01 -1.397212660046058263e-01
2.171999999999999886e+01 -3.280000000000000138e-01 -2.933999999999999986e+01 -3.542695307890705164e-02
2.173999999999999844e+01 -1.975000000000000089e+00 -2.073900000000000077e+01 -3.373529931575812157e-01
2.184700000000000131e+01 -9.179999999999999716e+00 -1.055799999999999983e+01 -1.129386800390893147e-01
2.186100000000000065e+01 -7.423000000000000043e+00 -1.227699999999999925e+01 6.857623489495691393e-02
2.191400000000000148e+01 -6.173000000000000043e+00 -2.711400000000000077e+01 1.981054132960612391e-01
2.204400000000000048e+01 -8.853999999999999204e+00 -1.203999999999999915e+01 6.208289030841772360e-02
2.205499999999999972e+01 -1.094100000000000072e+01 -8.723000000000000753e+00 -1.490395745281735684e-01
2.212699999999999889e+01 -1.661000000000000032e+00 -2.726099999999999923e+01 9.379018736046684790e-02
2.217200000000000060e+01 -1.004299999999999926e+01 -2.260399999999999920e+01 -1.000313529937462420e-01
2.221999999999999886e+01 -1.063299999999999912e+01 -1.021199999999999974e+01 -1.202432965549769806e-01
2.224399999999999977e+01 -5.589999999999999858e+00 -2.477899999999999991e+01 3.111200493912478215e-01
2.225499999999999901e+01 2.047000000000000153e+00 -2.125700000000000145e+01 -2.233845086423445758e-01
2.226200000000000045e+01 -9.929999999999999716e+00 -1.675499999999999901e+01 -1.382642956055415984e-01
2.226500000000000057e+01 -1.025900000000000034e+01 -2.380999999999999872e+01 -9.985698858233651998e-02
2.229899999999999949e+01 -1.062800000000000011e+01 -2.726599999999999824e+01 -5.517776091275850003e-02
2.235900000000000176e+01 -4.641000000000000014e+00 -6.733999999999999986e+00 -8.556561914255296497e-02
2.242699999999999960e+01 -1.641000000000000014e+00 -2.298999999999999844e+01 -2.229039876843859282e-04
2.243599999999999994e+01 -1.082699999999999996e+01 -2.847800000000000153e+01 -2.683725933398614649e-02
2.255199999999999960e+01 -1.234999999999999964e+01 -8.353999999999999204e+00 -1.591543434679797420e-01
2.258800000000000097e+01 -5.421999999999999709e+00 -8.038999999999999702e+00 -7.549741970696495497e-02
2.261899999999999977e+01 -4.225999999999999979e+00 -3.243699999999999761e+01 2.956678702194038832e-01
2.267899999999999849e+01 -4.764999999999999680e+00 -1.434399999999999942e+01 -6.261819351450303994e-02
2.276200000000000045e+01 -1.960000000000000075e-01 -2.270499999999999829e+01 -2.189978665975996497e-01
2.277700000000000102e+01 -3.241999999999999993e+00 -1.445899999999999963e+01 -2.209308086206564214e-02
2.290099999999999980e+01 -4.320000000000000284e+00 -2.992599999999999838e+01 3.202061128818023406e-01
2.294300000000000139e+01 -5.123999999999999666e+00 -3.121199999999999974e+01 3.046020237185315671e-01
2.297500000000000142e+01 3.639999999999999902e-01 -2.915599999999999881e+01 2.680708802312477962e-02
2.308699999999999974e+01 2.411000000000000032e+00 -2.695200000000000173e+01 1.065822988404975247e-01
2.329400000000000048e+01 -1.036100000000000065e+01 -2.645400000000000063e+01 1.648298421817891435e-01
2.334400000000000119e+01 -9.644999999999999574e+00 -2.176500000000000057e+01 6.222242886096861214e-02
2.356599999999999895e+01 -4.424999999999999822e+00 -5.996000000000000441e+00 -2.209564246117867170e-01
2.357100000000000151e+01 -3.149999999999999911e+00 -3.258200000000000074e+01 1.711862271193624330e-01
2.359700000000000131e+01 -8.185000000000000497e+00 -2.201999999999999957e+01 5.417249158847341380e-03
2.364099999999999824e+01 1.334000000000000075e+00 -2.444099999999999895e+01 -4.066180438097152100e-02
2.366900000000000048e+01 -1.215799999999999947e+01 -1.572499999999999964e+01 -1.109344504582020496e-01
2.367800000000000082e+01 -1.013299999999999912e+01 -1.699599999999999866e+01 -2.197983376470991901e-01
2.367800000000000082e+01 -1.079999999999999988e-01 -1.785399999999999920e+01 -3.789899680712668362e-01
2.371099999999999852e+01 -6.227000000000000313e+00 -1.047799999999999976e+01 -2.981699079590331355e-02
2.375499999999999901e+01 -4.939999999999999947e-01 -1.028999999999999915e+00 4.463246946547465982e-02
2.378699999999999903e+01 -5.163999999999999702e+00 -2.068499999999999872e+01 -2.469011478398689952e-01
2.381500000000000128e+01 6.570000000000000284e-01 -3.399900000000000233e+01 3.193048317276733078e-02
2.385099999999999909e+01 2.640000000000000124e-01 -2.365500000000000114e+01 -1.186448416761105851e-02
2.387300000000000111e+01 -2.998000000000000220e+00 -1.089300000000000068e+01 -3.997497369850358528e-02
2.388299999999999912e+01 -2.846000000000000085e+00 -3.112999999999999989e+00 -1.590976754763526457e-01
2.391700000000000159e+01 -5.112000000000000099e+00 -8.548000000000000043e+00 -2.451988076044916282e-02
2.392500000000000071e+01 -7.530000000000000027e-01 -3.086299999999999955e+01 3.025324585224732354e-01
2.399099999999999966e+01 -1.810999999999999943e+00 -5.022999999999999687e+00 -1.721847564185577939e-01
2.399200000000000088e+01 1.069999999999999979e-01 -2.996499999999999986e+01 3.131281735120466925e-01
2.400600000000000023e+01 -1.245400000000000063e+01 -8.303000000000000824e+00 -2.921840046133814539e-01
2.401699999999999946e+01 -3.569999999999999840e-01 -3.510199999999999676e+01 -1.185876940397108392e-02
2.406400000000000006e+01 3.057999999999999829e+00 -2.611899999999999977e+01 4.411137497183933998e-02
2.409400000000000119e+01 3.240000000000000102e-01 -3.647599999999999909e+01 1.472849965039940354e-02
2.410099999999999909e+01 -2.880999999999999783e+00 -1.506499999999999950e+01 1.013777578318512534e-01
2.413500000000000156e+01 -7.166999999999999815e+00 -1.771199999999999974e+01 -1.801522081812622147e-02
2.415800000000000125e+01 -1.152399999999999913e+01 -1.665399999999999991e+01 -1.502785355050134386e-01
2.421300000000000097e+01 -1.875000000000000000e+00 -3.810999999999999943e+00 -1.506437386738955220e-01
2.434400000000000119e+01 -5.690000000000000391e+00 -3.132499999999999929e+01 9.226201467875932288e-03
2.437900000000000134e+01 -1.447000000000000064e+00 -1.962000000000000099e+01 -3.789898236786603536e-01
2.438299999999999912e+01 -5.535000000000000142e+00 -9.704000000000000625e+00 3.306729804039064934e-03
2.445400000000000063e+01 -1.046700000000000053e+01 -2.216100000000000136e+01 5.638467596531694659e-02
2.448199999999999932e+01 -9.144999999999999574e+00 -1.616799999999999926e+01 1.728745820361621000e-01
2.453300000000000125e+01 -3.144000000000000128e+00 -3.348899999999999721e+01 2.022270826882148209e-01
2.461100000000000065e+01 2.846999999999999975e+00 -3.119999999999999929e+01 1.255902825339738627e-01
2.461599999999999966e+01 -1.014000000000000057e+01 -2.694800000000000040e+01 -1.134908914225571733e-02
2.465700000000000003e+01 -5.729999999999999538e-01 -1.864999999999999858e+01 -3.746987546882302733e-01
2.468199999999999861e+01 1.893000000000000016e+00 -2.530099999999999838e+01 -1.031528199466300588e-01
2.473100000000000165e+01 -4.115000000000000213e+00 -3.423299999999999699e+01 2.192156241067592382e-01
2.475499999999999901e+01 -7.613999999999999879e+00 -2.121199999999999974e+01 3.548245312860338063e-01
2.478800000000000026e+01 5.110000000000000098e-01 -1.410699999999999932e+01 -9.436674093673944053e-02
2.485300000000000153e+01 -8.624000000000000554e+00 -2.689799999999999969e+01 -3.313633769710895571e-02
2.492299999999999827e+01 -3.430000000000000271e-01 -2.369800000000000040e+01 -4.857419712155033181e-02
2.494699999999999918e+01 -6.919999999999999485e-01 -3.200000000000000178e+00 1.029306272248505377e-01
2.497599999999999909e+01 1.614999999999999991e+00 -1.028999999999999915e+00 2.357200256697942753e-01
2.503900000000000148e+01 -1.431700000000000017e+01 -1.788299999999999912e+01 2.978036394425613229e-02
2.504400000000000048e+01 -6.520000000000000240e-01 -1.689000000000000057e+00 5.946107183567358317e-02
2.506299999999999883e+01 3.869000000000000217e+00 -2.695799999999999841e+01 3.657368943937688854e-02
2.506800000000000139e+01 -3.004999999999999893e+00 -1.121700000000000053e+01 1.880047115028432025e-01
2.509299999999999997e+01 -1.089300000000000068e+01 -2.005499999999999972e+01 -8.514972480136914768e-02
2.509299999999999997e+01 -7.900999999999999801e+00 -1.678399999999999892e+01 3.800000000000000044e-01
2.512399999999999878e+01 -5.886000000000000121e+00 -2.159700000000000131e+01 5.060440343682583858e-02
2.516499999999999915e+01 -1.199499999999999922e+01 -1.737199999999999989e+01 -8.305601026472628212e-02
2.516900000000000048e+01 4.573999999999999844e+00 -4.078000000000000291e+00 1.133485084095686990e-01
2.521699999999999875e+01 -1.106900000000000084e+01 -2.127100000000000080e+01 1.175652388087389949e-01
2.528600000000000136e+01 1.162400000000000055e+01 -1.953399999999999892e+01 -1.717383964218374692e-01
2.528699999999999903e+01 8.870000000000000107e-01 -2.971199999999999974e+01 3.624381776286924040e-01
2.528900000000000148e+01 -1.122999999999999998e+00 -3.481000000000000227e+01 -2.426148628222948855e-02
2.537800000000000011e+01 -1.123000000000000043e+01 -2.493900000000000006e+01 -1.077700423817760100e-01
2.545200000000000173e+01 -1.937999999999999945e+00 -3.353900000000000148e+01 2.348188768287757799e-01
2.550300000000000011e+01 -7.011000000000000121e+00 -1.561500000000000021e+01 3.800000000000000044e-01
2.554599999999999937e+01 -1.561100000000000065e+01 -1.762300000000000111e+01 3.932607975913314513e-02
2.556400000000000006e+01 3.134999999999999787e+00 -2.347599999999999909e+01 -2.859790717100119811e-02
2.556700000000000017e+01 -7.413999999999999702e+00 -2.472200000000000131e+01 9.896378141817177565e-02
2.557600000000000051e+01 1.239000000000000101e+00 -1.596899999999999942e+01 -1.156378302396637511e-02
2.561799999999999855e+01 1.725999999999999979e+00 -3.096399999999999864e+01 3.388683073009545743e-01
2.562600000000000122e+01 -1.089300000000000068e+01 -2.609400000000000119e+01 3.902546861629311529e-03
2.569900000000000162e+01 6.610000000000000320e-01 -1.328000000000000069e+00 2.695713807180846744e-01
2.570700000000000074e+01 -1.899999999999999911e+00 -1.153899999999999970e+01 -5.169996305338566550e-02
2.571300000000000097e+01 -3.444999999999999840e+00 -2.587500000000000000e+01 -1.106937370433272172e-01
2.573600000000000065e+01 8.980000000000000204e-01 -1.479800000000000004e+01 -3.696137469967308159e-02
2.578900000000000148e+01 -1.327299999999999969e+01 -1.707499999999999929e+01 3.785671192513266337e-01
2.582100000000000151e+01 2.367999999999999883e+00 -2.441300000000000026e+01 -1.512163066134806777e-01
2.582400000000000162e+01 -5.139999999999999680e+00 -1.003800000000000026e+01 -1.156036729023232901e-01
2.587900000000000134e+01 -4.272999999999999687e+00 -1.127899999999999991e+01 3.108991788143731783e-01
2.589300000000000068e+01 -1.400000000000000133e-01 -1.845799999999999841e+01 -3.667736102702555678e-01
2.589900000000000091e+01 -9.305999999999999162e+00 -1.081700000000000017e+01 -3.326646845383388618e-01
2.599800000000000111e+01 -8.054000000000000270e+00 -2.602899999999999991e+01 1.022156855632574690e-01
2.603600000000000136e+01 -1.180799999999999983e+01 -1.103299999999999947e+01 -2.030854840506390313e-01
2.605799999999999983e+01 1.071700000000000053e+01 -1.855699999999999861e+01 -1.547414149049696208e-01
2.607300000000000040e+01 -2.250999999999999890e+00 -2.207999999999999829e+01 -3.124547783203383555e-01
2.608200000000000074e+01 6.886000000000000121e+00 -4.166000000000000369e+00 1.867269827427580631e-01
2.609400000000000119e+01 -1.334699999999999953e+01 -2.193100000000000094e+01 1.174897900921560573e-01
2.610300000000000153e+01 5.583999999999999631e+00 -3.395999999999999908e+00 1.741597723417050714e-01
2.613100000000000023e+01 1.234900000000000020e+01 -2.049699999999999989e+01 -1.845260840748547682e-01
2.619300000000000139e+01 -2.846000000000000085e+00 -2.716900000000000048e+01 1.352605882689495603e-04
2.623300000000000054e+01 -1.055700000000000038e+01 -1.159500000000000064e+01 -3.545416112541047715e-01
2.627499999999999858e+01 -1.600000000000000033e-01 -2.948199999999999932e+01 8.030346738559286657e-02
2.632900000000000063e+01 -3.907000000000000028e+00 -2.825600000000000023e+01 -2.755076072100895966e-03
2.635600000000000165e+01 -1.184800000000000075e+01 -2.189600000000000080e+01 1.695288100674490206e-01
2.635600000000000165e+01 -7.270999999999999908e+00 -8.257999999999999119e+00 -1.797228455150321202e-01
2.637500000000000000e+01 -1.293500000000000050e+01 -1.175000000000000000e+01 -2.179635781377282089e-01
2.644500000000000028e+01 5.825999999999999623e+00 -2.051399999999999935e+01 -2.635913497578328268e-01
2.646600000000000108e+01 6.112000000000000099e+00 9.020000000000000240e-01 2.458744712571950264e-01
2.648199999999999932e+01 -6.391000000000000014e+00 -1.033699999999999974e+01 -1.548963926932284962e-01
2.648699999999999832e+01 9.400999999999999801e+00 -1.918599999999999994e+01 -1.464220767437843795e-01
2.649800000000000111e+01 4.866999999999999993e+00 -1.935000000000000142e+01 -3.784556146113406960e-01
2.652899999999999991e+01 4.820999999999999730e+00 3.200000000000000067e-01 3.316501318799084386e-01
2.660699999999999932e+01 -7.379999999999999893e+00 -9.461999999999999744e+00 -1.732385307606003066e-01
2.666700000000000159e+01 -7.022999999999999687e+00 -2.687199999999999989e+01 2.281832194594581864e-01
2.671600000000000108e+01 5.258000000000000007e+00 3.696000000000000174e+00 6.132071157605908235e-02
2.675799999999999912e+01 -1.040499999999999936e+01 -1.285699999999999932e+01 -3.664949381998012373e-02
2.677899999999999991e+01 -1.110599999999999987e+01 -2.666900000000000048e+01 3.336150441737996131e-01
2.678999999999999915e+01 -3.775999999999999801e+00 -5.165000000000000036e+00 -1.962386063253258872e-01
2.681599999999999895e+01 -2.422000000000000153e+00 -3.352300000000000324e+01 3.061366659895651265e-01
2.690099999999999980e+01 -1.277899999999999991e+01 -1.302200000000000024e+01 1.062286416761639707e-01
2.691400000000000148e+01 6.989999999999999547e-01 -2.751399999999999935e+01 4.539109225656231400e-02
2.692000000000000171e+01 2.241999999999999993e+00 -3.078099999999999881e+01 1.163154204314478662e-01
2.696000000000000085e+01 -4.698000000000000398e+00 -3.951999999999999957e+00 -2.118000660536906443e-01
2.701000000000000156e+01 7.109999999999999654e-01 -1.362000000000000099e+00 1.890629927756725115e-01
2.701399999999999935e+01 6.536999999999999922e+00 -2.406200000000000117e+01 -1.179132587072549282e-01
2.701999999999999957e+01 -1.809999999999999942e-01 -2.837800000000000011e+01 1.712357499163582111e-02
2.702199999999999847e+01 -6.229999999999999982e-01 -1.920599999999999952e+01 -2.630707290430754353e-01
2.703500000000000014e+01 1.881000000000000005e+00 -2.464000000000000057e+01 2.090889588033527369e-01
2.705999999999999872e+01 -2.346999999999999975e+00 -3.128399999999999892e+01 1.204332994602359541e-01
2.709100000000000108e+01 -1.153100000000000058e+01 -1.356700000000000017e+01 1.027153391103674956e-01
2.710500000000000043e+01 -8.663000000000000256e+00 -1.011899999999999977e+01 -3.068210676709384743e-01
2.713299999999999912e+01 9.370000000000000551e-01 -1.415499999999999936e+01 -2.255102195551363792e-02
2.721799999999999997e+01 -1.387500000000000000e+01 -1.380599999999999916e+01 6.695489961220339736e-02
2.727499999999999858e+01 -1.316499999999999915e+01 -1.745299999999999940e+01 -3.098534226538063319e-02
2.729400000000000048e+01 -1.402899999999999991e+01 -2.263700000000000045e+01 8.369072269136314246e-02
2.732400000000000162e+01 -3.069999999999999840e+00 -1.628399999999999892e+01 -2.276721373475102672e-01
2.737600000000000122e+01 7.067999999999999616e+00 -2.544999999999999929e+01 -1.214123294767713024e-01
2.737999999999999901e+01 -1.584900000000000020e+01 -2.080399999999999849e+01 -1.511579309545963146e-01
2.740599999999999881e+01 -2.484999999999999876e+00 -2.229899999999999949e+01 -1.298686041177087303e-01
2.744099999999999895e+01 -7.206999999999999851e+00 -3.038700000000000045e+01 -5.960212774984019468e-02
2.745400000000000063e+01 3.984999999999999876e+00 -2.213000000000000078e+00 1.904487363838420488e-01
2.746999999999999886e+01 -1.550799999999999912e+01 -2.232700000000000173e+01 6.748455423300284139e-03
2.750499999999999901e+01 4.900000000000000355e+00 -3.334000000000000075e+00 4.157881404772227896e-01
2.751399999999999935e+01 -1.159699999999999953e+01 -2.108699999999999974e+01 -7.822716939022538937e-03
2.752599999999999980e+01 -2.559000000000000163e+00 -3.240500000000000114e+01 6.964924433297328688e-02
2.755399999999999849e+01 -2.189999999999999947e+00 -2.699599999999999866e+01 7.828350069220060825e-02
2.757700000000000173e+01 9.887999999999999901e+00 -2.250300000000000011e+01 -2.170530951792575269e-01
2.763400000000000034e+01 -1.268599999999999994e+01 -1.853099999999999881e+01 2.493455669384325030e-02
2.764900000000000091e+01 5.461999999999999744e+00 -2.134499999999999886e+01 -2.556163758288972909e-01
2.766799999999999926e+01 6.400999999999999801e+00 1.792000000000000037e+00 5.167821571167687672e-02
2.768199999999999861e+01 1.927999999999999936e+00 -1.020999999999999908e+00 6.678323658644801097e-02
2.768199999999999861e+01 8.772000000000000242e+00 -1.846900000000000119e+01 -1.411317809265370538e-01
2.769600000000000151e+01 -7.565000000000000391e+00 -3.184299999999999997e+01 -5.445622275133869122e-02
2.769800000000000040e+01 5.426000000000000156e+00 2.967000000000000082e+00 6.596264238142408864e-02
2.771900000000000119e+01 -9.602999999999999758e+00 -9.214000000000000412e+00 -1.463333487110878572e-01
2.775900000000000034e+01 -4.325000000000000178e+00 -6.177999999999999936e+00 -2.100859958203977751e-01
2.777400000000000091e+01 1.070299999999999940e+01 -3.544999999999999929e+00 3.209453714690709836e-01
2.781500000000000128e+01 2.721999999999999975e+00 -2.309000000000000163e+00 4.929981330740863116e-02
2.789000000000000057e+01 -6.360999999999999766e+00 -1.292099999999999937e+01 -4.241385679661199143e-02
2.791300000000000026e+01 -1.154599999999999937e+01 -2.592099999999999937e+01 3.793437030139198418e-01
2.792299999999999827e+01 8.442000000000000171e+00 -2.514999999999999858e+01 -1.081540872059357367e-01
2.798000000000000043e+01 4.865000000000000213e+00 -1.905399999999999849e+01 -1.849985774194636556e-01
2.803500000000000014e+01 -1.302000000000000046e+00 -2.816100000000000136e+01 -1.267509193815637668e-02
2.803699999999999903e+01 -1.879999999999999893e+00 -2.335200000000000031e+01 1.902540015509538995e-01
2.804200000000000159e+01 1.715999999999999970e+00 -2.238299999999999912e+01 -2.187627942274250614e-01
2.807700000000000173e+01 7.083000000000000185e+00 -2.320700000000000074e+01 -9.651793808977135458e-02
2.808299999999999841e+01 -3.302000000000000046e+00 -2.142000000000000171e+01 -1.011300664749540806e-01
2.816400000000000148e+01 -1.300799999999999912e+01 -2.627199999999999847e+01 -2.628643951369212181e-02
2.817099999999999937e+01 2.250000000000000000e+00 -2.382000000000000028e+01 -9.675955429655547224e-02
2.819099999999999895e+01 -1.352899999999999991e+01 -1.657199999999999918e+01 3.130267504671073453e-02
2.820599999999999952e+01 2.217999999999999972e+00 -3.369000000000000217e+00 2.233931409201898310e-01
2.821600000000000108e+01 1.749000000000000110e+00 -1.486400000000000077e+01 -3.564027813369408711e-03
2.825199999999999889e+01 -5.391000000000000014e+00 -3.383800000000000097e+01 1.361074915421622289e-01
2.828800000000000026e+01 -1.130000000000000032e-01 -1.852599999999999980e+01 -2.380390632494499281e-01
2.835600000000000165e+01 -6.075000000000000178e+00 -2.095000000000000195e+00 -1.044842701829456211e-01
2.835600000000000165e+01 6.671000000000000263e+00 -2.195799999999999841e+01 -2.573600584229049359e-01
2.835800000000000054e+01 -5.136999999999999567e+00 -4.070000000000000284e+00 -8.757672670719383878e-02
2.842699999999999960e+01 -2.354000000000000092e+00 -1.234999999999999964e+01 -4.151714643230113022e-02
2.842800000000000082e+01 -1.528999999999999915e+01 -1.995799999999999841e+01 -1.673496672212838043e-01
2.854899999999999949e+01 4.809999999999999609e+00 -2.039799999999999969e+01 -2.296401056427235243e-01
2.857000000000000028e+01 1.289300000000000068e+01 -4.171999999999999709e+00 -3.499181985959368690e-01
2.857499999999999929e+01 8.249999999999999556e-01 -6.371000000000000441e+00 1.173342619989057728e-01
2.858699999999999974e+01 -1.108900000000000041e+01 -2.163400000000000034e+01 1.797226567683820331e-01
2.862800000000000011e+01 -1.080199999999999960e+01 -2.283500000000000085e+01 -7.796005049234014384e-02
2.862900000000000134e+01 -8.670999999999999375e+00 -1.874399999999999977e+01 1.963961278918848474e-01
2.865299999999999869e+01 5.849999999999999645e+00 -3.060000000000000053e+00 4.226758781584681879e-01
2.865700000000000003e+01 9.481999999999999318e+00 -2.294900000000000162e+01 -2.336866158845966324e-01
2.869800000000000040e+01 8.240000000000000213e+00 -2.384499999999999886e+01 -1.068699024147623522e-01
2.870899999999999963e+01 8.449999999999999734e-01 9.769999999999999796e-01 2.306222778506838642e-02
2.872299999999999898e+01 -3.612999999999999989e+00 -1.647200000000000131e+01 7.749291214003008188e-02
2.877199999999999847e+01 -5.482000000000000206e+00 -3.272899999999999920e+01 -6.338100152650812114e-02
2.881800000000000139e+01 4.769999999999999574e+00 3.196000000000000174e+00 6.019412385209647887e-02
2.883899999999999864e+01 -7.298000000000000043e+00 -2.976999999999999957e+01 -6.408570883488397263e-02
2.884299999999999997e+01 -4.474000000000000199e+00 -1.402899999999999991e+01 -1.587775442373417362e-02
2.886400000000000077e+01 -8.486000000000000654e+00 -2.021999999999999886e+01 2.118942850064162720e-01
2.887199999999999989e+01 6.368000000000000327e+00 9.749999999999999778e-01 1.441845025921464386e-02
2.887900000000000134e+01 6.264000000000000234e+00 -1.919000000000000039e+00 3.092972560567044948e-01
2.889000000000000057e+01 -1.015700000000000003e+01 -9.473000000000000753e+00 -1.501408469563539072e-01
2.890200000000000102e+01 -1.543200000000000038e+01 -1.081300000000000061e+01 -2.172297053926230126e-01
2.892099999999999937e+01 -5.775000000000000355e+00 -1.327800000000000047e+01 4.170610798548700371e-02
2.894900000000000162e+01 -4.788000000000000256e+00 -1.552100000000000080e+01 -3.861326829508025804e-02
2.895200000000000173e+01 -3.051000000000000156e+00 -3.254099999999999682e+01 1.240743190495608578e-01
2.895299999999999940e+01 1.151900000000000013e+01 -3.642999999999999794e+00 -2.645704254461182445e-02
2.896399999999999864e+01 9.596999999999999531e+00 -1.851000000000000156e+01 -9.233070819980117305e-02
2.896499999999999986e+01 -4.068999999999999950e+00 -1.790299999999999869e+01 -1.187157201720094452e-01
2.896799999999999997e+01 -4.716000000000000192e+00 -5.323000000000000398e+00 -2.783040345758147627e-01
2.898199999999999932e+01 -6.870000000000000107e+00 -3.214900000000000091e+01 -5.050459023905105871e-02
2.898300000000000054e+01 -5.857999999999999652e+00 -3.142999999999999794e+00 -1.013594342964321549e-01
2.898499999999999943e+01 3.782000000000000028e+00 4.240999999999999659e+00 -2.144568546208535653e-01
2.900300000000000011e+01 1.516999999999999904e+00 -3.760000000000000009e-01 -3.118418142706536750e-02
2.907300000000000040e+01 -1.062500000000000000e+01 -2.633500000000000085e+01 3.373722136443823016e-01
2.910099999999999909e+01 -4.402999999999999581e+00 -3.201500000000000057e+01 -7.518685008888661980e-02
2.918799999999999883e+01 -7.051000000000000156e+00 -2.048999999999999844e+01 2.343128600940628525e-01
2.921900000000000119e+01 7.258000000000000007e+00 -2.128200000000000003e+01 -2.563521187329232953e-01
2.922700000000000031e+01 -1.026999999999999957e+01 -2.751699999999999946e+01 3.121104254789212051e-01
2.923600000000000065e+01 -1.354499999999999993e+01 -2.550499999999999901e+01 -5.823501113129311152e-02
2.929200000000000159e+01 -6.510000000000000231e-01 -2.785900000000000176e+01 1.637977226281397691e-01
2.930000000000000071e+01 1.208200000000000074e+01 -1.976599999999999824e+01 -1.985943884853171304e-01
2.932199999999999918e+01 -1.119400000000000084e+01 -8.465999999999999304e+00 -1.265199328710123750e-01
2.933500000000000085e+01 7.960000000000000409e-01 -2.532799999999999940e+01 1.579811985739892621e-01
2.935000000000000142e+01 9.830999999999999517e+00 -1.989799999999999969e+01 -1.814877050232242550e-01
2.938299999999999912e+01 -2.100999999999999979e+00 -2.351599999999999824e+01 2.315767319879018515e-01
2.938500000000000156e+01 6.176999999999999602e+00 -4.115999999999999659e+00 1.507177805539206550e-01
2.941499999999999915e+01 1.627000000000000002e+00 -2.440299999999999869e+01 -2.437429541756185869e-01
2.942699999999999960e+01 -3.509999999999999787e+00 -2.158099999999999952e+01 -1.088256503669509517e-01
2.946099999999999852e+01 -1.392399999999999949e+01 -8.028999999999999915e+00 -2.867297615301914737e-01
2.948499999999999943e+01 -4.189999999999999836e-01 -1.939799999999999969e+01 7.116776339279731745e-02
2.948699999999999832e+01 1.762000000000000011e+00 -1.406400000000000006e+01 -1.055473395647656965e-01
2.949200000000000088e+01 1.106300000000000061e+01 -2.043400000000000105e+01 -2.177496738774991614e-01
2.956200000000000117e+01 -2.516000000000000014e+00 -1.279599999999999937e+01 -5.852936228412573133e-02
2.960699999999999932e+01 -9.862000000000000099e+00 -1.044200000000000017e+01 -1.597038404621326513e-01
2.961599999999999966e+01 -1.347899999999999920e+01 -1.688200000000000145e+01 -1.924507410907886837e-02
2.964499999999999957e+01 8.391999999999999460e+00 -5.855999999999999872e+00 6.591738553489609465e-02
2.965500000000000114e+01 -5.594999999999999751e+00 -8.798000000000000043e+00 -9.661980591481644787e-02
2.971600000000000108e+01 -6.919999999999999929e+00 -3.088299999999999912e+01 -6.163264757660217447e-02
2.974200000000000088e+01 -5.950999999999999623e+00 -2.447100000000000009e+01 2.306437801512034314e-01
2.974200000000000088e+01 1.735000000000000098e+00 -6.663000000000000256e+00 2.908569827485956161e-01
2.975600000000000023e+01 -1.166799999999999926e+01 -5.418000000000000149e+00 -1.237461092274157320e-01
2.977400000000000091e+01 -1.084699999999999953e+01 -2.073499999999999943e+01 1.126268199559018190e-01
2.978200000000000003e+01 4.363000000000000433e+00 -2.070799999999999841e+01 -4.209822301333057681e-02
2.981500000000000128e+01 -1.560200000000000031e+01 -1.580400000000000027e+01 5.127400782018882996e-02
2.981599999999999895e+01 1.005700000000000038e+01 -2.266400000000000148e+01 -2.419681555723886546e-01
2.985200000000000031e+01 -1.019200000000000017e+01 -2.534400000000000119e+01 2.748088182202849117e-01
2.985399999999999920e+01 -3.517999999999999794e+00 -1.361700000000000088e+01 3.607769127483877181e-02
2.986100000000000065e+01 -4.384000000000000341e+00 -9.449999999999999289e+00 -9.974482326396490184e-02
2.987699999999999889e+01 2.736000000000000210e+00 -1.600000000000000033e-01 2.917125102157690567e-02
2.989499999999999957e+01 -1.110399999999999920e+01 -1.606400000000000006e+01 2.030874546897398214e-01
2.989699999999999847e+01 8.490999999999999659e+00 -1.654599999999999937e+01 -2.192313744815872489e-01
2.991100000000000136e+01 1.125900000000000034e+01 -2.187999999999999901e+01 -2.480554724394151422e-01
2.994200000000000017e+01 -1.454800000000000004e+01 -1.123499999999999943e+01 4.822290052456073423e-02
2.994900000000000162e+01 7.081999999999999851e+00 1.340999999999999970e+00 -2.473551376903079801e-02
2.996000000000000085e+01 1.080799999999999983e+01 -4.588000000000000078e+00 4.231535119016150912e-03
2.996699999999999875e+01 7.732000000000000206e+00 2.399000000000000021e+00 -2.570838157038551203e-02
2.997100000000000009e+01 4.670000000000000262e-01 1.792999999999999927e+00 2.911393776232496511e-01
3.000100000000000122e+01 -7.195000000000000284e+00 -2.533999999999999986e+01 2.034853117667219935e-01
3.000400000000000134e+01 -8.810999999999999943e+00 -3.298000000000000043e+00 -1.997319001003011463e-01
3.000900000000000034e+01 -3.616999999999999993e+00 -5.150999999999999801e+00 -2.376668197121869497e-01
3.002299999999999969e+01 3.489999999999999769e-01 -1.386400000000000077e+01 2.584037456786962283e-01
3.002400000000000091e+01 -9.358000000000000540e+00 -2.068900000000000006e+01 1.944713358646534274e-01
3.004500000000000171e+01 -1.344999999999999929e+01 -9.007999999999999119e+00 -1.818107383612353467e-01
3.006599999999999895e+01 -1.214600000000000080e+01 -9.249000000000000554e+00 -1.559585325676364487e-01
3.007400000000000162e+01 -2.906000000000000139e+00 -2.262399999999999878e+01 -1.442145173682690962e-01
3.008200000000000074e+01 -2.936999999999999833e+00 -4.126000000000000334e+00 -2.400099851750536195e-01
3.010399999999999920e+01 8.867000000000000881e+00 -1.779200000000000159e+01 -1.434393587369828804e-01
3.012000000000000099e+01 8.391000000000000014e+00 -4.727000000000000313e+00 2.612914432633581807e-01
3.012699999999999889e+01 -1.489400000000000013e+01 -1.676800000000000068e+01 3.604242039340009585e-02
3.013599999999999923e+01 -6.256999999999999673e+00 -1.305199999999999960e+01 9.468267404165568724e-02
3.014499999999999957e+01 4.307000000000000384e+00 -2.189699999999999847e+01 -7.629418333688380016e-02
3.018799999999999883e+01 -1.018099999999999916e+01 -1.486400000000000077e+01 4.978322355103227681e-02
3.019300000000000139e+01 -1.050500000000000078e+01 -7.432000000000000384e+00 2.918418545650466184e-02
3.020100000000000051e+01 -1.650000000000000078e-01 -1.265499999999999936e+01 -5.173445272309230326e-03
3.020299999999999940e+01 5.729000000000000092e+00 -1.666799999999999926e+01 -5.146754966970252913e-03
3.020700000000000074e+01 -1.618999999999999995e+00 -7.631000000000000227e+00 -1.104917793981323310e-01
3.024800000000000111e+01 2.180000000000000160e+00 -5.403999999999999915e+00 1.150229462387403027e-02
3.025700000000000145e+01 9.509999999999999787e+00 -4.044999999999999929e+00 3.213038276367597423e-01
3.030999999999999872e+01 -7.493000000000000327e+00 -1.232099999999999973e+01 1.299081251419707539e-01
3.031400000000000006e+01 -6.320000000000000062e-01 -2.871699999999999875e+01 1.020465256153949563e-01
3.031500000000000128e+01 2.254000000000000004e+00 -2.914000000000000057e+01 1.180777299656280144e-01
3.032000000000000028e+01 -3.290000000000000147e-01 -1.485500000000000043e+01 2.112831662280130751e-01
3.035699999999999932e+01 -1.254700000000000060e+01 -1.587400000000000055e+01 -4.805843783118415868e-02
3.037900000000000134e+01 -1.286999999999999922e+00 -2.976500000000000057e+01 1.220735404625987314e-01
3.043199999999999861e+01 -6.378000000000000114e+00 -3.299999999999999822e+00 -1.148216451288414930e-01
3.047100000000000009e+01 -7.727000000000000313e+00 -4.125000000000000000e+00 -1.131425825197692470e-01
3.047400000000000020e+01 2.494000000000000217e+00 -1.479700000000000060e+01 1.195524550429231166e-03
3.048400000000000176e+01 3.603000000000000203e+00 4.376000000000000334e+00 -1.803779695812379180e-01
3.050799999999999912e+01 -1.744900000000000162e+01 -1.969600000000000151e+01 3.035322719902483479e-01
3.050799999999999912e+01 7.089000000000000412e+00 -4.051999999999999602e+00 1.886140894180158845e-01
3.051099999999999923e+01 -7.126999999999999780e+00 7.389999999999999902e-01 -8.127213127553491179e-02
3.054200000000000159e+01 9.771000000000000796e+00 -1.084500000000000064e+01 -4.000000000000000083e-02
3.056299999999999883e+01 2.099000000000000199e+00 -2.390200000000000102e+01 -1.762129182357564661e-01
3.057499999999999929e+01 1.736799999999999855e+01 -1.128299999999999947e+01 -7.922818688349646254e-02
3.059900000000000020e+01 -1.138599999999999923e+01 -6.275000000000000355e+00 -1.099831681891999813e-01
3.063200000000000145e+01 -1.773999999999999844e+01 -1.829899999999999949e+01 3.082765429408490521e-01
3.065500000000000114e+01 2.092999999999999972e+00 -1.755300000000000082e+01 -3.808005380242719951e-01
3.066400000000000148e+01 -6.528999999999999915e+00 -8.723000000000000753e+00 -2.057609264438727270e-01
3.067699999999999960e+01 -1.542000000000000037e+00 -1.245800000000000018e+01 -9.622956246482286188e-03
3.069000000000000128e+01 -1.511800000000000033e+01 -1.240199999999999925e+01 3.376809859086155052e-01
3.072700000000000031e+01 5.354000000000000092e+00 -8.566000000000000725e+00 2.440113440838667103e-01
3.073999999999999844e+01 4.089000000000000412e+00 -1.323799999999999955e+01 1.850013958466327213e-01
3.074299999999999855e+01 3.854000000000000092e+00 -1.962699999999999889e+01 -1.360142805531496801e-01
3.077100000000000080e+01 1.620000000000000107e+00 -1.868400000000000105e+01 -7.383158580436265106e-02
3.079100000000000037e+01 2.414000000000000146e+00 -1.974200000000000088e+01 -3.091656197448381382e-01
3.080099999999999838e+01 -1.432699999999999996e+01 -9.983999999999999986e+00 -3.272052972913914726e-01
3.082799999999999940e+01 -1.157399999999999984e+01 -2.140500000000000114e+01 3.276315507894921042e-02
3.084900000000000020e+01 1.219999999999999973e-01 -1.892800000000000082e+01 -2.732284450887136409e-02
3.090200000000000102e+01 1.020000000000000018e+00 -7.434999999999999609e+00 -4.505098284413043552e-02
3.090800000000000125e+01 -3.512000000000000011e+00 -6.113999999999999879e+00 -2.054159165849119562e-01
3.092800000000000082e+01 -1.537100000000000044e+01 -1.770700000000000074e+01 2.745764552712181561e-01
3.094099999999999895e+01 7.860000000000000320e+00 -1.576099999999999923e+01 -3.559616212997129825e-02
3.096699999999999875e+01 6.342999999999999972e+00 -1.592200000000000060e+01 -5.161759437618189394e-02
3.099299999999999855e+01 3.156000000000000139e+00 5.503999999999999559e+00 1.490122268263771588e-01
3.100199999999999889e+01 9.279999999999999361e+00 -9.547000000000000597e+00 -4.000000000000000777e-02
3.101000000000000156e+01 -6.589000000000000412e+00 -1.977999999999999980e+00 -1.226315978417592267e-01
3.102700000000000102e+01 3.608000000000000096e+00 -1.434500000000000064e+01 -6.762135488690024232e-02
3.104599999999999937e+01 -8.101000000000000867e+00 -2.475199999999999889e+01 1.647459884403713049e-01
3.104700000000000060e+01 -6.884000000000000341e+00 -3.082100000000000151e+01 -1.007846729376034034e-01
3.108899999999999864e+01 -9.425000000000000711e+00 -2.555399999999999849e+01 -1.692823431063474743e-02
3.109799999999999898e+01 -4.134000000000000341e+00 -1.002500000000000036e+01 -2.373934591863814947e-01
3.112300000000000111e+01 -1.723000000000000087e+00 -1.101900000000000013e+01 7.489823478077531349e-02
3.112699999999999889e+01 -1.559800000000000075e+01 -9.372999999999999332e+00 -1.463598858704334149e-01
3.114600000000000080e+01 -1.316999999999999948e+00 -6.876000000000000334e+00 -2.368226345673978828e-01
3.115599999999999881e+01 9.066000000000000725e+00 -1.445000000000000062e+00 1.684100348368752498e-01
3.119800000000000040e+01 7.014999999999999680e+00 4.899999999999999911e-01 -5.611626427526351935e-02
3.120499999999999829e+01 8.660000000000000142e+00 -1.832900000000000063e+01 -1.612410028865013389e-01
3.121699999999999875e+01 3.866999999999999993e+00 3.419000000000000039e+00 -7.078713534804575991e-02
3.126500000000000057e+01 1.159600000000000009e+01 -4.708000000000000185e+00 -1.032076334149771915e-02
3.126599999999999824e+01 -5.400000000000000355e-01 -1.771399999999999864e+01 -1.984805359180065731e-01
3.133200000000000074e+01 6.000000000000000125e-03 -3.065999999999999837e+00 6.473270577117574975e-02
3.133599999999999852e+01 -1.282799999999999940e+01 -1.962000000000000099e+01 3.691443454658241974e-01
3.135800000000000054e+01 1.082799999999999940e+01 -1.283999999999999986e+01 -4.000000000000000777e-02
3.147800000000000153e+01 6.831999999999999851e+00 5.253999999999999559e+00 4.473730108195941163e-02
