6.241299999999999670e+01 1.088199999999999967e+01 7.235999999999999766e+00 -2.667684086565603671e-02
6.242000000000000171e+01 1.363499999999999979e+01 4.037800000000000011e+01 2.596874975836783728e-01
6.245700000000000074e+01 4.578000000000000291e+00 1.990800000000000125e+01 -5.105669337411231773e-02
6.246099999999999852e+01 2.218999999999999861e+00 7.346000000000000085e+00 1.583288355340490075e-02
6.248100000000000165e+01 6.051000000000000156e+00 3.254699999999999704e+01 -9.558764815544629201e-02
6.248700000000000188e+01 6.310000000000000053e-01 4.059300000000000352e+01 -1.139809200111277683e-02
6.249000000000000199e+01 1.360100000000000087e+01 4.170499999999999829e+01 5.586983683979602350e-03
6.250699999999999790e+01 -1.326999999999999957e+01 1.556799999999999962e+01 2.126773392642648530e-01
6.250699999999999790e+01 -4.109999999999999765e-01 1.014000000000000057e+01 3.459163963861261459e-02
6.251100000000000279e+01 1.761199999999999832e+01 2.136199999999999832e+01 1.392484590705729830e-01
6.252199999999999847e+01 1.601099999999999923e+01 3.968999999999999773e+01 -1.144128237771529222e-01
6.253799999999999670e+01 -7.834999999999999964e+00 1.106199999999999939e+01 -1.838211513897203830e-01
6.254800000000000182e+01 -1.746199999999999974e+01 1.441399999999999970e+01 4.248971221086731420e-01
6.256700000000000017e+01 1.872999999999999998e+00 3.799699999999999989e+01 -2.834891201336540642e-02
6.257200000000000273e+01 7.133000000000000007e+00 1.221000000000000085e+00 -2.986626404797111944e-01
6.257200000000000273e+01 8.169999999999999929e+00 3.763900000000000290e+01 2.378625707808000311e-01
6.257800000000000296e+01 -1.115700000000000003e+01 2.909900000000000020e+01 1.255600766624563602e-01
6.258299999999999841e+01 5.044999999999999929e+00 4.913000000000000256e+00 -7.287145300086843303e-02
6.261800000000000210e+01 -1.898799999999999955e+01 2.149699999999999989e+01 8.117520625508492516e-02
6.261999999999999744e+01 -7.653999999999999915e+00 1.258399999999999963e+01 1.025461718577400649e-01
6.262500000000000000e+01 -2.403200000000000003e+01 1.934199999999999875e+01 6.381210821811791889e-02
6.262599999999999767e+01 1.450200000000000067e+01 1.461999999999999922e+01 -3.999999999999999389e-02
6.263199999999999790e+01 5.301000000000000156e+00 4.088700000000000045e+01 5.271132234609947342e-02
6.265299999999999869e+01 -2.124299999999999855e+01 1.314000000000000057e+01 4.318051157000034057e-01
6.265500000000000114e+01 7.910999999999999588e+00 9.294000000000000483e+00 -1.102752222066021720e-02
6.265699999999999648e+01 -2.101999999999999957e+01 2.286400000000000077e+01 -8.350273896875046176e-02
6.267199999999999704e+01 -1.794800000000000040e+01 2.788299999999999912e+01 -4.585874302220240700e-02
6.267699999999999960e+01 -1.388400000000000034e+01 2.698100000000000165e+01 -1.753981671759718974e-01
6.267900000000000205e+01 1.887300000000000111e+01 4.762599999999999767e+01 1.257478743865502735e-01
6.268399999999999750e+01 1.755000000000000071e+01 4.823700000000000188e+01 5.719588937085619273e-02
6.268599999999999994e+01 -1.326399999999999935e+01 7.413000000000000256e+00 1.045411082660907126e-01
6.273700000000000188e+01 5.344999999999999751e+00 5.429500000000000171e+01 3.043420436831803522e-02
6.274600000000000222e+01 -1.444299999999999962e+01 2.389999999999999858e+01 -6.065854049643722851e-02
6.275300000000000011e+01 1.899999999999999911e+00 3.647599999999999909e+01 -1.985469578108787353e-02
6.276400000000000290e+01 7.155000000000000249e+00 5.253199999999999648e+01 -1.315698731664442442e-02
6.276500000000000057e+01 -1.086100000000000065e+01 1.629400000000000048e+01 2.017067219230035402e-01
6.278399999999999892e+01 -1.023300000000000054e+01 2.794800000000000040e+01 1.279525664805806484e-01
6.280199999999999960e+01 -1.376800000000000068e+01 2.060999999999999943e+01 3.403425924755741350e-01
6.282600000000000051e+01 -2.459900000000000020e+01 1.804500000000000171e+01 1.146760707505491278e-01
6.283899999999999864e+01 1.382699999999999996e+01 2.817399999999999949e+01 -3.446072416404251382e-02
6.284799999999999898e+01 -1.318699999999999939e+01 2.346499999999999986e+01 5.094667765522162967e-02
6.285999999999999943e+01 1.127800000000000047e+01 2.019500000000000028e+01 -5.152571420735296837e-02
6.288900000000000290e+01 -1.820100000000000051e+01 9.929999999999999716e+00 4.773419253150543162e-02
6.289699999999999847e+01 9.083000000000000185e+00 1.974200000000000088e+01 4.894023223845440224e-02
6.290599999999999881e+01 -2.206500000000000128e+01 2.545400000000000063e+01 -3.476796408328524657e-01
6.290599999999999881e+01 -2.049299999999999855e+01 2.151500000000000057e+01 -1.963259995440702066e-01
6.291700000000000159e+01 -1.837999999999999901e+01 2.014099999999999824e+01 2.968883994253307401e-01
6.291700000000000159e+01 2.129999999999999949e-01 4.197999999999999687e+01 1.305011010802210603e-01
6.292499999999999716e+01 4.139999999999999680e+00 1.465799999999999947e+01 2.075226195329176598e-02
6.293399999999999750e+01 -1.456900000000000084e+01 6.676000000000000156e+00 8.800983798329069241e-02
6.293800000000000239e+01 1.069299999999999962e+01 8.349000000000000199e+00 -5.110280166935897428e-02
6.294400000000000261e+01 5.652999999999999581e+00 5.279599999999999937e+01 4.125240611514644634e-02
6.295000000000000284e+01 -6.631999999999999673e+00 2.414699999999999847e+01 3.676496448714607901e-01
6.295499999999999829e+01 1.469699999999999918e+01 1.943799999999999883e+01 6.056887642102998237e-02
6.295600000000000307e+01 -2.019000000000000128e+01 4.581999999999999851e+00 -1.348549517569980205e-01
6.295799999999999841e+01 -2.342000000000000082e+00 2.861799999999999855e+01 4.001894745149761623e-02
6.295799999999999841e+01 1.110999999999999988e+00 3.256199999999999761e+01 -1.134833323742937827e-01
6.296399999999999864e+01 1.279700000000000060e+01 3.966400000000000148e+01 2.226963705684299466e-01
6.296900000000000119e+01 7.277999999999999581e+00 5.687999999999999723e+00 1.074787990768282658e-01
6.297200000000000131e+01 1.010599999999999987e+01 4.203999999999999915e+01 2.748497664015097652e-01
6.301500000000000057e+01 -1.332699999999999996e+01 1.001399999999999935e+01 2.831736030101867918e-01
6.302199999999999847e+01 2.926000000000000156e+00 2.495499999999999829e+01 1.623660730746416814e-01
6.302600000000000335e+01 5.902000000000000135e+00 6.094999999999999751e+00 2.724011677846004398e-01
6.307699999999999818e+01 1.613100000000000023e+01 2.525600000000000023e+01 2.507027463656118504e-01
6.310999999999999943e+01 2.298999999999999932e+00 2.070799999999999841e+01 4.849922209601696677e-02
6.313000000000000256e+01 1.247199999999999953e+01 4.239500000000000313e+01 1.757698051081502677e-01
6.314099999999999824e+01 8.942000000000000171e+00 2.661999999999999922e+00 -2.063523974727959343e-01
6.314699999999999847e+01 -4.969000000000000306e+00 1.437400000000000055e+01 2.176960846934322125e-01
6.316799999999999926e+01 -1.797899999999999920e+01 4.995000000000000107e+00 9.002784791113022100e-02
6.316899999999999693e+01 1.612000000000000099e+00 2.486499999999999844e+01 1.991680151515988484e-01
6.320400000000000063e+01 1.991100000000000136e+01 2.743499999999999872e+01 1.127000003098095615e-01
6.320700000000000074e+01 1.530100000000000016e+01 4.611999999999999744e+01 2.019714529293998445e-02
6.322099999999999653e+01 4.719999999999999751e+00 2.821399999999999864e+01 -1.572572355134813082e-01
6.323400000000000176e+01 1.232000000000000028e+01 5.039500000000000313e+01 -1.257798909204198637e-02
6.325000000000000000e+01 1.125900000000000034e+01 2.056999999999999940e+00 -2.327279213734235186e-01
6.327799999999999869e+01 -1.752700000000000102e+01 2.654700000000000060e+01 -5.614806303715565161e-02
6.328000000000000114e+01 1.272899999999999920e+01 4.389099999999999824e+01 1.115688891450041104e-01
6.328099999999999881e+01 3.323999999999999844e+00 1.981099999999999994e+01 3.336018704508919575e-01
6.329500000000000171e+01 -2.057999999999999829e+00 2.015800000000000125e+01 1.183529578055491499e-01
6.330100000000000193e+01 1.170400000000000063e+01 2.699099999999999966e+01 8.649589809363358861e-02
6.331000000000000227e+01 1.045700000000000074e+01 3.336699999999999733e+01 5.380991547132766423e-02
6.334499999999999886e+01 9.762999999999999901e+00 3.904800000000000182e+01 2.794069412928248397e-01
6.338000000000000256e+01 -1.939199999999999946e+01 9.605999999999999872e+00 1.946144815028886810e-01
6.339699999999999847e+01 5.913000000000000256e+00 2.813500000000000156e+01 -1.430535413349628970e-01
6.339900000000000091e+01 7.991999999999999993e+00 1.493000000000000105e+00 -3.162070750142909059e-01
6.341400000000000148e+01 4.000000000000000222e-01 9.612999999999999545e+00 2.805106781472934685e-01
6.341599999999999682e+01 1.319200000000000017e+01 2.530699999999999861e+01 1.801048847183961132e-01
6.343500000000000227e+01 -1.251600000000000001e+01 2.115299999999999869e+01 3.193499680788577377e-01
6.345799999999999841e+01 -6.860999999999999766e+00 2.556200000000000117e+01 1.668860240653078919e-01
6.348299999999999699e+01 -1.001699999999999946e+01 1.111400000000000077e+01 7.783178368719270712e-02
6.348899999999999721e+01 1.881800000000000139e+01 4.638400000000000034e+01 9.171891170238145874e-02
6.349900000000000233e+01 1.308399999999999963e+01 4.773199999999999932e+01 -9.000493001589308928e-02
6.351800000000000068e+01 -8.897000000000000242e+00 1.059900000000000020e+01 -1.958432052428241144e-01
6.351899999999999835e+01 -1.046000000000000085e+01 2.339300000000000068e+01 4.311654082376025210e-01
6.353499999999999659e+01 7.977000000000000313e+00 5.303399999999999892e+01 -1.284703628449778388e-02
6.354299999999999926e+01 5.205000000000000071e+00 3.811999999999999833e+00 2.848514908007968027e-02
6.358500000000000085e+01 -1.719800000000000040e+01 1.005799999999999983e+01 1.291609865017898651e-01
6.362800000000000011e+01 -1.528299999999999947e+01 2.375499999999999901e+01 3.525390544892503808e-01
6.363400000000000034e+01 -3.891999999999999904e+00 1.510899999999999999e+01 2.349204927897669548e-01
6.363700000000000045e+01 1.545100000000000051e+01 4.726700000000000301e+01 1.007623210747192986e-02
6.365100000000000335e+01 1.734299999999999997e+01 1.614600000000000080e+01 -6.435590264396903737e-02
6.365299999999999869e+01 -1.912000000000000099e+01 4.956999999999999851e+00 9.457672265226210739e-02
6.366899999999999693e+01 6.743999999999999773e+00 3.213499999999999801e+01 -3.675573366256114534e-03
6.367399999999999949e+01 2.152599999999999980e+01 2.360900000000000176e+01 -1.763629494034865131e-01
6.370100000000000051e+01 2.221999999999999886e+01 1.408799999999999919e+01 -1.374822806915702300e-01
6.375300000000000011e+01 9.120000000000000329e-01 3.988799999999999812e+01 5.090898268951505115e-03
6.376299999999999812e+01 1.575500000000000078e+01 3.884199999999999875e+01 2.925562864305926158e-01
6.376400000000000290e+01 3.004999999999999893e+00 3.588000000000000078e+00 3.881145320774382484e-02
6.376700000000000301e+01 1.747000000000000108e+00 7.560999999999999943e+00 2.562609873894033941e-01
6.377700000000000102e+01 7.222000000000000419e+00 1.791799999999999926e+01 3.178827120407883844e-01
6.378799999999999670e+01 2.097299999999999898e+01 2.494300000000000139e+01 -9.599257352549661615e-02
6.379299999999999926e+01 3.449999999999999734e-01 8.198999999999999844e+00 3.228585839206663533e-01
6.379599999999999937e+01 -2.438700000000000045e+01 2.020599999999999952e+01 -3.721850299720734501e-02
6.379699999999999704e+01 1.216099999999999959e+01 2.585200000000000031e+01 2.403009818468987147e-01
6.380400000000000205e+01 6.201999999999999957e+00 4.129999999999999716e+01 1.196246241828212015e-01
6.381000000000000227e+01 6.405000000000000249e+00 4.282399999999999807e+01 1.439478103212808446e-01
6.381400000000000006e+01 7.504999999999999893e+00 4.062599999999999767e+01 5.879275840272022574e-02
6.382099999999999795e+01 1.445199999999999996e+01 4.811099999999999710e+01 -3.936178145683272289e-02
6.384100000000000108e+01 -5.586000000000000298e+00 2.630099999999999838e+01 1.444033587071477387e-01
6.385499999999999687e+01 1.405000000000000027e+00 3.865699999999999648e+01 -6.195083709979352753e-03
6.386200000000000188e+01 5.233999999999999986e+00 5.013900000000000290e+01 8.288427111348792287e-03
6.388300000000000267e+01 -9.444000000000000838e+00 6.876000000000000334e+00 -2.975162559007176188e-01
6.390599999999999881e+01 1.169999999999999929e+00 2.065500000000000114e+01 1.064033711104431512e-01
6.390800000000000125e+01 -7.065000000000000391e+00 1.308200000000000074e+01 1.478388952268217260e-01
6.391199999999999903e+01 -3.302999999999999936e+00 2.066799999999999926e+01 2.978142489078524635e-01
6.393099999999999739e+01 -1.271299999999999919e+01 2.262399999999999878e+01 3.423254192704350274e-01
6.393900000000000006e+01 2.299299999999999855e+01 2.592000000000000171e+01 -2.666993420283253480e-01
6.394200000000000017e+01 2.175700000000000145e+01 2.599699999999999989e+01 -1.524587278261135270e-01
6.394700000000000273e+01 1.813100000000000023e+01 2.474099999999999966e+01 2.434718487127540687e-01
6.395000000000000284e+01 1.883800000000000097e+01 1.599399999999999977e+01 6.938288526139345380e-02
6.395799999999999841e+01 -2.094600000000000151e+01 7.312999999999999723e+00 7.403642433165644188e-02
6.396600000000000108e+01 1.685300000000000153e+01 4.775099999999999767e+01 3.038006384257884718e-01
6.400199999999999534e+01 1.208999999999999986e+01 4.878499999999999659e+01 2.500000000000000000e-01
6.404399999999999693e+01 -5.894999999999999574e+00 1.386899999999999977e+01 2.487209207687041679e-01
6.404600000000000648e+01 -1.437199999999999989e+01 1.000399999999999956e+01 2.574826466896730226e-01
6.405100000000000193e+01 1.375900000000000034e+01 1.948699999999999832e+01 9.139070766655389699e-02
6.406999999999999318e+01 -6.155999999999999694e+00 2.325400000000000134e+01 3.603583737340581017e-01
6.408700000000000330e+01 -1.489300000000000068e+01 6.344999999999999751e+00 -2.329056292576963672e-01
6.409199999999999875e+01 1.386400000000000077e+01 2.860500000000000043e+01 -1.389408369569108959e-01
6.409300000000000352e+01 1.698199999999999932e+01 2.513299999999999912e+01 8.870209397065614843e-02
6.410599999999999454e+01 2.105199999999999960e+01 2.732400000000000162e+01 -2.086131434105814864e-01
6.413899999999999579e+01 4.147999999999999687e+00 3.305000000000000160e+00 -9.297530916601229323e-02
6.417499999999999716e+01 -2.242200000000000060e+01 2.528800000000000026e+01 -3.641368585973984162e-01
6.419700000000000273e+01 1.154700000000000060e+01 5.671300000000000097e+01 -3.326808135216940271e-02
6.424299999999999500e+01 4.067999999999999616e+00 1.470599999999999952e+01 -5.814982742987741954e-02
6.424399999999999977e+01 5.131999999999999673e+00 5.236800000000000210e+01 7.556775132936069395e-02
6.424500000000000455e+01 1.085899999999999999e+01 8.553000000000000824e+00 5.419629991103411953e-02
6.426000000000000512e+01 9.150000000000000355e+00 1.924899999999999878e+01 3.156624632066425823e-02
6.426099999999999568e+01 -4.834999999999999964e+00 2.319200000000000017e+01 7.991530925707926447e-02
6.429900000000000659e+01 1.005400000000000027e+01 2.452899999999999991e+01 1.855995363757240169e-01
6.432999999999999829e+01 -2.481899999999999906e+01 1.787800000000000011e+01 5.837745524307418749e-03
6.433299999999999841e+01 -2.220000000000000029e-01 4.188000000000000256e+01 1.436746373716762393e-01
6.433299999999999841e+01 3.225000000000000089e+00 1.890299999999999869e+01 3.230078795315408646e-01
6.434099999999999397e+01 -2.080099999999999838e+01 2.105900000000000105e+01 -6.305089727506316133e-02
6.434399999999999409e+01 1.352999999999999936e+01 3.506400000000000006e+01 2.200240132224474399e-01
6.435200000000000387e+01 -8.585000000000000853e+00 9.605999999999999872e+00 4.590891944804652292e-02
6.437399999999999523e+01 -1.133200000000000074e+01 2.312999999999999901e+01 3.154188002461663087e-01
6.437800000000000011e+01 9.553000000000000824e+00 3.178999999999999826e+00 -1.932553800570709357e-01
6.438599999999999568e+01 1.767399999999999949e+01 4.661299999999999955e+01 8.181829144115096430e-02
6.439100000000000534e+01 1.101299999999999990e+01 2.980999999999999872e+00 -2.356942371297001126e-01
6.439400000000000546e+01 2.503000000000000114e+00 4.892499999999999716e+01 -9.794405707637215963e-02
6.440099999999999625e+01 3.769000000000000128e+00 2.814900000000000091e+01 1.793247816187323318e-01
6.442700000000000671e+01 7.237000000000000099e+00 2.203900000000000148e+01 3.238449129730449072e-01
6.443200000000000216e+01 5.940000000000000391e+00 2.255300000000000082e+01 3.194136968063389093e-01
6.444899999999999807e+01 -6.046000000000000263e+00 2.796000000000000085e+01 6.136377784993662932e-02
6.446399999999999864e+01 2.069399999999999906e+01 2.260300000000000153e+01 2.376097011360646660e-01
6.447400000000000375e+01 -4.131999999999999673e+00 1.955900000000000105e+01 2.915409483137253455e-01
6.447799999999999443e+01 2.263700000000000045e+01 1.805499999999999972e+01 -1.466950520829868321e-01
6.448799999999999955e+01 5.633000000000000007e+00 6.522000000000000242e+00 1.208230570823184830e-01
6.449200000000000443e+01 8.204000000000000625e+00 1.808500000000000085e+01 3.125741057830874192e-01
6.450900000000000034e+01 2.151999999999999957e+01 1.707300000000000040e+01 -2.152878991778499063e-01
6.452200000000000557e+01 4.828000000000000291e+00 5.110199999999999676e+01 2.815658534233707669e-02
6.453900000000000148e+01 -2.323699999999999832e+01 2.443700000000000117e+01 -3.345447704993194105e-01
6.454399999999999693e+01 -1.199600000000000044e+01 2.023400000000000176e+01 4.171111839734891191e-01
6.454800000000000182e+01 8.096999999999999531e+00 8.339999999999999636e-01 2.885186142341106263e-02
6.455400000000000205e+01 1.170800000000000018e+01 4.469200000000000017e+01 2.500000000000000000e-01
6.457899999999999352e+01 3.021999999999999797e+00 2.949599999999999866e+01 9.904196434730663801e-02
6.459900000000000375e+01 -2.106299999999999883e+01 1.990200000000000102e+01 1.924983732475721576e-01
6.462000000000000455e+01 1.108099999999999952e+01 3.332900000000000063e+01 1.198049640342171707e-01
6.463200000000000500e+01 1.217699999999999960e+01 3.570499999999999829e+01 2.034946668929238922e-01
6.464100000000000534e+01 -1.997899999999999920e+01 7.655999999999999694e+00 3.182421984957962968e-02
6.464100000000000534e+01 -1.965899999999999892e+01 2.460699999999999932e+01 -5.523750244431652190e-02
6.468800000000000239e+01 1.337700000000000067e+01 5.506000000000000227e+01 -1.190208045244143739e-02
6.469199999999999307e+01 1.513400000000000034e+01 2.900900000000000034e+01 2.039444473340907005e-01
6.470900000000000318e+01 -1.796699999999999875e+01 2.628000000000000114e+01 -9.294522442910459203e-02
6.471299999999999386e+01 9.210000000000000853e+00 3.914099999999999824e+01 3.377985000896367718e-02
6.471599999999999397e+01 2.234999999999999876e+00 1.138899999999999935e+01 2.104659649215273043e-01
6.473000000000000398e+01 -1.956599999999999895e+01 9.130000000000000782e+00 2.131222672799725493e-01
6.473199999999999932e+01 1.730699999999999861e+01 2.802299999999999969e+01 -3.427634501296834054e-03
6.473900000000000432e+01 -6.959999999999999964e+00 2.261400000000000077e+01 3.287515291963404862e-01
6.475000000000000000e+01 4.743000000000000327e+00 -3.220000000000000084e-01 -8.643362030996230849e-02
6.476600000000000534e+01 7.820000000000000284e+00 3.975500000000000256e+01 1.234918939179252030e-02
6.476800000000000068e+01 -1.941600000000000037e+01 2.579299999999999926e+01 -3.346541010097011659e-01
6.477100000000000080e+01 1.840399999999999991e+01 9.102999999999999758e+00 -1.200883058670883796e-01
6.482699999999999818e+01 1.909400000000000119e+01 1.714999999999999858e+01 7.512468782004497192e-02
6.483899999999999864e+01 -7.453000000000000291e+00 1.755699999999999861e+01 2.179521386920122428e-01
6.485899999999999466e+01 -2.468799999999999883e+01 1.923900000000000077e+01 -3.681920959472991250e-01
6.486299999999999955e+01 2.813000000000000167e+00 1.411100000000000065e+01 1.962964431095080564e-01
6.486700000000000443e+01 1.634100000000000108e+01 4.326500000000000057e+01 -1.755881681344850440e-02
6.487800000000000011e+01 1.131700000000000017e+01 2.516199999999999903e+01 2.518457118886893165e-01
6.488599999999999568e+01 2.281200000000000117e+01 1.479100000000000037e+01 -4.379822476617706989e-02
6.491100000000000136e+01 7.139999999999999680e+00 -2.030000000000000138e-01 4.280926119283890059e-03
6.491700000000000159e+01 1.489999999999999991e+00 3.805100000000000193e+01 -1.005594247025388098e-02
6.492100000000000648e+01 1.088000000000000078e+00 1.972899999999999920e+01 3.558818229295637181e-01
6.492799999999999727e+01 5.999999999999999778e-01 4.072399999999999665e+01 1.544565448211249470e-01
6.493300000000000693e+01 1.610000000000000142e+01 2.785699999999999932e+01 1.092970209311074220e-01
6.494199999999999307e+01 1.081900000000000084e+01 9.853999999999999204e+00 6.164348184373553974e-02
6.494400000000000261e+01 4.950999999999999623e+00 1.518599999999999994e+01 9.817865431403312304e-02
6.494400000000000261e+01 1.678200000000000003e+01 1.665800000000000125e+01 -5.742421286033803224e-02
6.495199999999999818e+01 -1.515700000000000003e+01 3.470600000000000307e+01 1.368237703542373729e-01
6.496699999999999875e+01 -2.382600000000000051e+01 1.690200000000000102e+01 -5.565927165650551289e-02
6.498199999999999932e+01 5.722999999999999865e+00 3.699999999999999956e-01 -6.635634730607582743e-02
6.499399999999999977e+01 -3.009999999999999787e+00 2.170899999999999963e+01 7.332629534220928835e-02
6.499599999999999511e+01 -2.039000000000000057e+01 2.666799999999999926e+01 -3.636093666581424744e-01
6.500799999999999557e+01 -3.750000000000000000e+00 1.535999999999999943e+01 1.501262170095075121e-01
6.501399999999999579e+01 8.938000000000000611e+00 6.618999999999999773e+00 1.101611609158845984e-01
6.502800000000000580e+01 2.373000000000000220e+00 4.620000000000000284e+01 -1.112117403951242978e-01
6.506600000000000250e+01 2.026500000000000057e+01 1.775100000000000122e+01 -1.435496976440402417e-01
6.507699999999999818e+01 9.539999999999999147e+00 3.150300000000000011e+01 1.597607195759780940e-01
6.508100000000000307e+01 4.812000000000000277e+00 2.565599999999999881e+01 3.422805543899559710e-01
6.509499999999999886e+01 -2.479999999999999982e-01 1.416999999999999993e+01 1.660926056930790984e-01
6.509799999999999898e+01 -1.937199999999999989e+01 5.347000000000000419e+00 7.503143856154581570e-03
6.512500000000000000e+01 6.937999999999999723e+00 4.333200000000000074e+01 1.014409054846949071e-01
6.513500000000000512e+01 2.113999999999999879e+00 1.886400000000000077e+01 3.566467358801335141e-01
6.515099999999999625e+01 -2.023499999999999943e+01 2.812900000000000134e+01 -1.241607099041441148e-01
6.515399999999999636e+01 1.119699999999999918e+01 7.445000000000000284e+00 1.339577899682179996e-01
6.516200000000000614e+01 1.206600000000000072e+01 5.569400000000000261e+01 -6.209185075877009415e-03
6.517100000000000648e+01 -7.551999999999999602e+00 1.290300000000000047e+01 4.733939056329296291e-02
6.517900000000000205e+01 8.246999999999999886e+00 4.359599999999999653e+01 8.444505549144828982e-02
6.518399999999999750e+01 -2.290000000000000091e-01 8.003000000000000114e+00 2.902611036763508290e-01
6.519199999999999307e+01 1.513100000000000023e+01 5.331199999999999761e+01 3.228387898940705825e-02
6.520699999999999363e+01 -2.421300000000000097e+01 1.576399999999999935e+01 1.656419841023771267e-01
6.521699999999999875e+01 1.113000000000000078e+01 3.474000000000000199e+01 9.945166639407157505e-02
6.522899999999999920e+01 7.935999999999999943e+00 2.963599999999999923e+01 7.483488772044896709e-02
6.523399999999999466e+01 -9.583000000000000185e+00 9.012999999999999901e+00 2.649901247243110006e-02
6.523699999999999477e+01 -2.177899999999999991e+01 2.621000000000000085e+01 -3.908689454524709728e-01
6.524200000000000443e+01 -1.713299999999999912e+01 2.520100000000000051e+01 4.147139269579150356e-02
6.524699999999999989e+01 7.546999999999999709e+00 2.096600000000000108e+01 3.292673357144889623e-01
6.525199999999999534e+01 5.631999999999999673e+00 1.663000000000000034e+00 -1.042728213781520391e-01
6.525600000000000023e+01 8.930999999999999162e+00 2.037000000000000099e+01 7.249465119792278256e-02
6.526099999999999568e+01 -1.451000000000000068e+00 7.487000000000000099e+00 -7.100591413454991618e-02
6.526200000000000045e+01 -9.451000000000000512e+00 7.469000000000000306e+00 -8.563942024131152020e-02
6.526600000000000534e+01 -2.260200000000000031e+01 1.733099999999999952e+01 2.784846166987249294e-01
6.528499999999999659e+01 -2.078300000000000125e+01 2.198300000000000054e+01 2.071931570268793765e-01
6.529699999999999704e+01 8.962999999999999190e+00 2.481800000000000139e+01 2.783127771474692702e-01
6.530100000000000193e+01 4.998000000000000220e+00 2.207000000000000028e+01 3.185967873871399791e-01
6.530800000000000693e+01 1.415199999999999925e+01 1.969300000000000139e+01 2.537915921922140883e-01
6.531000000000000227e+01 7.570999999999999730e+00 3.646999999999999797e+00 -1.929946904430627219e-01
6.531399999999999295e+01 -1.923900000000000077e+01 6.780999999999999694e+00 -7.365990693003016121e-02
6.533700000000000330e+01 4.358999999999999986e+00 2.358999999999999986e+00 -1.140980414929826797e-01
6.534300000000000352e+01 -1.410999999999999943e+01 9.925000000000000711e+00 5.138501827555901069e-02
6.534499999999999886e+01 8.794999999999999929e+00 3.706999999999999851e+00 -2.022990647842188017e-01
6.535399999999999920e+01 1.561400000000000077e+01 2.668499999999999872e+01 3.433342296817306488e-02
6.535999999999999943e+01 -2.256200000000000117e+01 2.753099999999999881e+01 -3.769620073811323913e-01
6.537999999999999545e+01 -1.475399999999999956e+01 3.773700000000000188e+01 1.314206127397336554e-01
6.540300000000000580e+01 -4.240999999999999659e+00 2.250199999999999889e+01 8.324917308063911614e-02
6.542100000000000648e+01 2.187399999999999878e+01 1.588400000000000034e+01 -7.900236874700770906e-02
6.542700000000000671e+01 -5.706999999999999851e+00 1.411800000000000033e+01 1.848733614004196557e-01
6.542900000000000205e+01 1.006499999999999950e+01 6.456000000000000405e+00 1.438504004425175953e-01
6.543099999999999739e+01 4.128000000000000114e+00 3.416299999999999670e+01 1.368927416465612334e-01
6.545199999999999818e+01 1.785399999999999920e+01 1.764199999999999946e+01 3.514904697549243728e-01
6.546699999999999875e+01 3.047000000000000153e+00 4.862700000000000244e+01 -1.118952707942853370e-01
6.547100000000000364e+01 1.646799999999999997e+01 2.551999999999999957e+01 -7.614550096238872912e-02
6.547199999999999420e+01 -2.059299999999999997e+01 9.987999999999999545e+00 1.018965500331938251e-01
6.548300000000000409e+01 1.737600000000000122e+01 4.591899999999999693e+01 1.882302171905954336e-01
6.551399999999999579e+01 8.529999999999999361e+00 1.730600000000000094e+01 3.769168216028068730e-01
6.551500000000000057e+01 1.993000000000000105e+00 1.523499999999999943e+01 3.996278286779011424e-01
6.551600000000000534e+01 1.373399999999999999e+01 5.382500000000000284e+01 3.585901327805441491e-02
6.553100000000000591e+01 1.125999999999999979e+01 2.951399999999999935e+01 -3.596496943889435777e-02
6.554800000000000182e+01 2.060300000000000153e+01 2.750300000000000011e+01 -2.178670837840859797e-02
6.558100000000000307e+01 8.544000000000000483e+00 1.244699999999999918e+01 1.915200062931294855e-01
6.558499999999999375e+01 1.041499999999999915e+01 3.236399999999999721e+01 1.293638070554147534e-01
6.560399999999999920e+01 1.234999999999999964e+01 3.684100000000000108e+01 3.076634661569926932e-01
6.561599999999999966e+01 -2.005499999999999972e+01 1.141200000000000081e+01 3.071951814964121175e-01
6.562500000000000000e+01 1.015000000000000036e+01 3.992399999999999949e+01 -2.622935492412462738e-02
6.563500000000000512e+01 -8.365999999999999659e+00 1.846399999999999864e+01 2.154370893471345971e-01
6.563899999999999579e+01 4.461000000000000298e+00 2.780999999999999872e+01 1.597624309659996800e-01
6.565000000000000568e+01 7.022999999999999687e+00 3.942099999999999937e+01 1.999598243709330841e-02
6.565999999999999659e+01 1.533200000000000074e+01 1.961100000000000065e+01 2.323106938866975890e-01
6.568200000000000216e+01 -1.113799999999999990e+01 2.323900000000000077e+01 4.063954264910485392e-01
6.571399999999999864e+01 2.827999999999999847e+00 1.181900000000000084e+01 1.593685315673461778e-01
6.571599999999999397e+01 1.844600000000000151e+01 9.897000000000000242e+00 -1.168437545246326925e-01
6.571999999999999886e+01 -1.114000000000000101e+00 3.924699999999999989e+01 -5.848058851766768651e-02
6.572299999999999898e+01 -2.395400000000000063e+01 1.241300000000000026e+01 3.687549858148986281e-01
6.573199999999999932e+01 1.420400000000000063e+01 3.115700000000000003e+01 1.954504170829466925e-01
6.573499999999999943e+01 2.035900000000000176e+01 1.878999999999999915e+01 -8.369084073058064011e-02
6.575700000000000500e+01 3.947999999999999954e+00 5.089600000000000080e+01 1.962238486815476649e-02
6.576600000000000534e+01 1.820700000000000074e+01 4.469800000000000040e+01 8.510315606150999079e-02
6.578799999999999670e+01 -2.151200000000000045e+01 2.855399999999999849e+01 -9.162311387781942040e-02
6.579300000000000637e+01 -4.203000000000000291e+00 1.053700000000000081e+01 -1.316679467242871659e-01
6.580200000000000671e+01 -8.186999999999999389e+00 7.129999999999999893e+00 -8.423290341210590282e-02
6.580400000000000205e+01 -1.298000000000000043e+01 9.858000000000000540e+00 3.662896936124600961e-02
6.582800000000000296e+01 -1.603399999999999892e+01 3.478600000000000136e+01 1.498272950032740192e-01
6.582800000000000296e+01 1.471599999999999930e+01 5.064099999999999824e+01 -5.711929828602394649e-02
6.583499999999999375e+01 -1.774099999999999966e+01 1.657300000000000040e+01 3.697969016690171862e-01
6.583499999999999375e+01 2.095799999999999841e+01 9.910000000000000142e+00 -8.372712504396476185e-02
6.584600000000000364e+01 3.154999999999999805e+00 1.309699999999999953e+01 3.910991107020871937e-01
6.584699999999999420e+01 -1.369899999999999984e+01 2.690299999999999869e+01 1.389953049976415389e-01
6.587099999999999511e+01 4.951999999999999957e+00 2.659799999999999898e+01 1.241568183337102838e-01
6.587900000000000489e+01 1.081799999999999962e+01 2.612699999999999889e+01 1.953363441163677161e-01
6.589000000000000057e+01 8.630000000000000782e+00 1.489799999999999969e+01 4.082088491640021855e-01
6.589700000000000557e+01 -2.164999999999999858e+01 1.641100000000000136e+01 8.011067204967840805e-02
6.590600000000000591e+01 9.076999999999999957e+00 3.040200000000000102e+01 -4.310698428105040614e-02
6.590999999999999659e+01 7.759000000000000341e+00 1.614999999999999858e+01 3.355118097911328201e-01
6.591100000000000136e+01 5.445999999999999730e+00 1.036299999999999955e+01 1.926103412476998233e-01
6.591899999999999693e+01 -4.628000000000000114e+00 1.484999999999999964e+01 1.541562407548203173e-01
6.592000000000000171e+01 2.100000000000000000e+01 4.444500000000000028e+01 1.178142709391815091e-01
6.592100000000000648e+01 -2.022800000000000153e+01 1.697299999999999898e+01 1.664283503607185133e-01
6.592300000000000182e+01 -1.504899999999999949e+01 2.812300000000000111e+01 -1.950629316920098055e-01
6.595900000000000318e+01 -1.562500000000000000e+01 1.240000000000000036e+01 4.313062400959790212e-04
6.595999999999999375e+01 1.211000000000000076e+00 2.639999999999999858e+01 2.372565540252168648e-01
6.596399999999999864e+01 9.349000000000000199e+00 2.613800000000000168e+01 1.817225337385474648e-01
6.596800000000000352e+01 1.488199999999999967e+01 2.981200000000000117e+01 2.566598453314329342e-01
6.596999999999999886e+01 2.079700000000000060e+01 2.275100000000000122e+01 2.108509787212276554e-01
6.597599999999999909e+01 1.968400000000000105e+01 1.075500000000000078e+01 -9.727213493268380140e-02
6.598799999999999955e+01 7.068999999999999950e+00 3.349199999999999733e+01 1.587183631808908035e-01
6.599699999999999989e+01 2.311899999999999977e+01 1.379800000000000004e+01 -7.952577453924646045e-02
6.601399999999999579e+01 -2.220000000000000029e-01 4.003799999999999670e+01 -6.870096569058843639e-02
6.602899999999999636e+01 -1.575399999999999956e+01 2.065399999999999991e+01 4.117404642383803437e-01
6.604000000000000625e+01 1.728999999999999915e+01 4.347800000000000153e+01 4.136493793269918617e-02
6.604099999999999682e+01 -1.923300000000000054e+01 1.460299999999999976e+01 4.267128865372964985e-01
6.604399999999999693e+01 -2.880999999999999783e+00 1.090499999999999936e+01 -1.780485492906850875e-01
6.607500000000000284e+01 2.878000000000000114e+00 4.721500000000000341e+01 -1.307779333759862550e-01
6.608199999999999363e+01 6.179999999999999716e+00 4.350800000000000267e+01 -5.744802776471598371e-02
6.608499999999999375e+01 -6.078000000000000291e+00 2.766799999999999926e+01 1.816383960997100533e-01
6.608700000000000330e+01 6.567999999999999616e+00 2.048799999999999955e+01 3.251795677816417540e-01
6.608899999999999864e+01 -6.733999999999999986e+00 1.350600000000000023e+01 -1.874239632470476591e-01
6.609099999999999397e+01 1.653800000000000026e+01 2.308699999999999974e+01 3.604238243253982121e-01
6.611199999999999477e+01 5.299000000000000377e+00 2.102899999999999991e+01 3.222947593164058322e-01
6.612900000000000489e+01 1.730600000000000094e+01 5.269599999999999795e+01 -2.133109778794960998e-01
6.613800000000000523e+01 1.499999999999999944e-02 4.728099999999999881e+01 1.236561343964829029e-01
6.614600000000000080e+01 6.570000000000000284e-01 1.480199999999999960e+01 2.555837905589480874e-01
6.614799999999999613e+01 -2.489900000000000091e+01 1.945899999999999963e+01 -3.426055760708169862e-01
6.615000000000000568e+01 -2.651099999999999923e+01 2.674099999999999966e+01 -3.152069264316902375e-01
6.615099999999999625e+01 1.042500000000000071e+01 5.405000000000000249e+00 -1.407235635130513474e-01
6.615200000000000102e+01 4.725999999999999979e+00 3.295000000000000284e+01 1.630819723163199897e-01
6.615500000000000114e+01 -1.014000000000000057e+01 2.595299999999999940e+01 8.219064275505112704e-02
6.615999999999999659e+01 1.573099999999999987e+01 2.433399999999999963e+01 2.493956389629222448e-01
6.616100000000000136e+01 3.795999999999999819e+00 4.949199999999999733e+01 -6.346616037156078971e-02
6.617300000000000182e+01 4.209999999999999853e-01 8.275000000000000355e+00 2.570934898085791009e-01
6.618399999999999750e+01 -3.263999999999999790e+00 2.453800000000000026e+01 1.520612395987567811e-01
6.621599999999999397e+01 1.024900000000000055e+01 2.949500000000000099e+01 9.653908122829782390e-02
6.622199999999999420e+01 7.544999999999999929e+00 -9.170000000000000373e-01 6.893672390146687520e-03
6.623199999999999932e+01 -9.503000000000000114e+00 1.768199999999999861e+01 1.136897665712669897e-01
6.625000000000000000e+01 1.814600000000000080e+01 4.222099999999999653e+01 1.031121402900606610e-01
6.625700000000000500e+01 1.648999999999999844e+01 4.625900000000000034e+01 1.704725322845148106e-01
6.627100000000000080e+01 -9.807999999999999829e+00 2.344999999999999929e+01 4.045619225581845724e-01
6.628900000000000148e+01 -1.530700000000000038e+01 9.916000000000000369e+00 -2.896426322783122176e-01
6.630899999999999750e+01 -3.557999999999999829e+00 6.929000000000000270e+00 1.043578871584629163e-02
6.632899999999999352e+01 1.305100000000000016e+01 1.997299999999999898e+01 2.189382708046512249e-01
6.633499999999999375e+01 7.937999999999999723e+00 1.360299999999999976e+01 4.100484205114406366e-01
6.633799999999999386e+01 -2.584799999999999898e+01 2.185900000000000176e+01 -1.855868079388273140e-01
6.635899999999999466e+01 1.223900000000000077e+01 4.395100000000000051e+01 1.067714802485317110e-01
6.636599999999999966e+01 4.163999999999999702e+00 9.788000000000000256e+00 1.966702263036712583e-01
6.637399999999999523e+01 1.107600000000000051e+01 9.551999999999999602e+00 1.216425128954539137e-01
6.638599999999999568e+01 -1.192999999999999972e+01 1.419299999999999962e+01 3.439865414905011742e-01
6.638800000000000523e+01 1.587100000000000044e+01 5.269100000000000250e+01 2.153020559040898230e-02
6.639600000000000080e+01 3.306000000000000050e+00 3.477600000000000335e+01 1.220219804981463596e-01
6.639600000000000080e+01 2.249500000000000099e+01 2.108099999999999952e+01 1.841708811511636162e-03
6.640500000000000114e+01 -1.908299999999999841e+01 1.606299999999999883e+01 2.513130151844945037e-01
6.641500000000000625e+01 1.622800000000000153e+01 9.240999999999999659e+00 -1.909332321345524885e-01
6.641700000000000159e+01 -2.342299999999999827e+01 2.148300000000000054e+01 -2.317620053965606386e-01
6.643800000000000239e+01 1.693599999999999994e+01 3.694899999999999807e+01 2.094694512444707502e-01
6.644499999999999318e+01 1.292800000000000082e+01 2.664000000000000057e+01 2.266822599019088502e-01
6.645099999999999341e+01 1.163899999999999935e+01 8.144000000000000128e+00 -7.675959657294952054e-02
6.645300000000000296e+01 1.110899999999999999e+01 1.797700000000000031e+01 3.630048872252786274e-01
6.648099999999999454e+01 -3.845000000000000195e+00 2.351099999999999923e+01 1.478504005178168657e-01
6.649599999999999511e+01 -1.312000000000000055e+00 4.955000000000000071e+00 -5.225912281165926571e-02
6.649699999999999989e+01 1.914699999999999847e+01 1.347799999999999976e+01 -2.187016613713415047e-01
6.649800000000000466e+01 -1.718100000000000094e+01 2.481400000000000006e+01 -5.012298856040833112e-02
6.650000000000000000e+01 2.214900000000000091e+01 2.227199999999999847e+01 2.122845547187775794e-01
6.652500000000000568e+01 -2.072999999999999954e+00 7.209999999999999964e+00 -3.815299918228948206e-02
6.654000000000000625e+01 2.510000000000000009e-01 3.092099999999999937e+01 -5.767045645451474023e-02
6.654200000000000159e+01 1.742399999999999949e+01 1.004800000000000004e+01 -1.574756011926869148e-01
6.654600000000000648e+01 9.496000000000000441e+00 4.357999999999999652e+00 -1.420099534430454835e-01
6.660500000000000398e+01 1.171499999999999986e+01 2.680999999999999872e+01 1.240419530377087076e-01
6.661400000000000432e+01 -1.628000000000000114e+01 3.608700000000000330e+01 -2.413371298630559991e-01
6.663700000000000045e+01 1.735699999999999932e+01 4.097500000000000142e+01 3.227075399879690831e-01
6.663800000000000523e+01 4.288000000000000256e+00 3.172000000000000153e+00 -1.472701949183512216e-01
6.665699999999999648e+01 -9.496999999999999886e+00 9.560000000000000497e+00 -1.488912442966367584e-03
6.666700000000000159e+01 1.539199999999999946e+01 5.125000000000000000e+01 -1.019064847043847817e-02
6.667000000000000171e+01 -2.101699999999999946e+01 2.164999999999999858e+01 2.766239684346142313e-01
6.667499999999999716e+01 -1.496799999999999997e+01 3.695499999999999829e+01 -2.255012802110046288e-01
6.669899999999999807e+01 -7.530000000000000249e+00 1.918199999999999861e+01 2.009690599321461713e-01
6.671099999999999852e+01 -2.471699999999999875e+01 2.088500000000000156e+01 -2.188738396523920715e-01
6.674299999999999500e+01 6.097000000000000419e+00 3.332600000000000051e+01 7.715673752932676599e-02
6.674500000000000455e+01 -1.706500000000000128e+01 7.855000000000000426e+00 2.379857469966540490e-02
6.674800000000000466e+01 -8.644999999999999574e+00 2.138500000000000156e+01 4.217590818077707193e-01
6.676099999999999568e+01 2.188299999999999912e+01 7.865999999999999659e+00 -1.034789014017090530e-01
6.679099999999999682e+01 1.069899999999999984e+01 3.235999999999999943e+01 3.434077707007908709e-01
6.682299999999999329e+01 -2.093299999999999983e+01 9.387999999999999901e+00 7.698312878834374928e-02
6.682500000000000284e+01 -1.009500000000000064e+01 2.732999999999999829e+01 3.227258263024979090e-01
6.682800000000000296e+01 -1.200000000000000025e-02 1.602299999999999969e+01 3.190802803047428360e-01
6.682899999999999352e+01 -5.068999999999999950e+00 1.036500000000000021e+01 -1.085092188774900157e-01
6.683599999999999852e+01 1.359500000000000064e+01 4.508100000000000307e+01 3.326045919288462271e-01
6.683899999999999864e+01 -1.633500000000000085e+01 2.358899999999999864e+01 2.899679803318729321e-01
6.684399999999999409e+01 -2.220000000000000029e-01 2.861100000000000065e+01 1.915911644070429909e-01
6.687399999999999523e+01 3.210999999999999854e+00 1.089000000000000057e+01 1.614972577870593118e-01
6.687399999999999523e+01 1.448099999999999987e+01 3.209400000000000119e+01 2.245838821026694965e-01
6.689100000000000534e+01 -2.232199999999999918e+01 2.090399999999999991e+01 -2.606341163293470764e-01
6.689600000000000080e+01 2.108599999999999852e+01 8.826999999999999957e+00 -8.843789568912635568e-02
6.689700000000000557e+01 -2.521999999999999886e+01 1.854500000000000171e+01 -3.413082970041647068e-01
6.691400000000000148e+01 1.905000000000000071e+01 4.499300000000000210e+01 2.808025910525101601e-02
6.691599999999999682e+01 2.036299999999999955e+01 4.478900000000000148e+01 1.144274649317728737e-01
6.692300000000000182e+01 -2.479500000000000171e+01 1.241499999999999915e+01 -3.407635589254762731e-01
6.694899999999999807e+01 1.366600000000000037e+01 1.563899999999999935e+01 -1.166555744287037059e-02
6.696099999999999852e+01 9.590999999999999304e+00 9.989999999999999991e-01 5.001210682663436921e-03
6.698099999999999454e+01 -1.725400000000000134e+01 2.237999999999999901e+01 1.585376097618872437e-01
6.698399999999999466e+01 1.793499999999999872e+01 1.765299999999999869e+01 2.883033316099831156e-01
6.698499999999999943e+01 -1.540199999999999925e+01 1.128200000000000003e+01 -5.897963369457418642e-02
6.699500000000000455e+01 4.586999999999999744e+00 5.155599999999999739e+01 2.123650564073878422e-02
6.703499999999999659e+01 -9.695000000000000284e+00 2.477499999999999858e+01 2.941379316287495715e-01
6.704000000000000625e+01 2.290500000000000114e+01 2.318499999999999872e+01 1.723914896162051791e-01
6.707399999999999807e+01 3.638999999999999790e+00 3.256499999999999773e+01 1.729029203520739411e-01
6.707599999999999341e+01 -1.699999999999999956e+00 2.882100000000000151e+01 1.837646769861672191e-01
6.707899999999999352e+01 1.563400000000000034e+01 3.247099999999999653e+01 1.999704906198646881e-01
6.707999999999999829e+01 1.331400000000000006e+01 2.128000000000000114e+01 4.040856487067763791e-01
6.711400000000000432e+01 -1.358000000000000007e+01 2.343400000000000105e+01 4.067641155296800592e-01
6.713200000000000500e+01 5.560000000000000497e-01 2.989600000000000080e+01 -1.830432314602155330e-01
6.713800000000000523e+01 9.889999999999999902e-01 2.650400000000000134e+01 -3.107988933340481361e-02
6.714100000000000534e+01 -1.387999999999999901e+00 5.998999999999999666e+00 -5.015966942125966999e-02
6.714400000000000546e+01 6.760000000000000453e-01 4.752799999999999869e+01 1.488172107865752269e-01
6.715500000000000114e+01 5.764000000000000234e+00 2.641600000000000037e+01 1.175691084438294648e-01
6.719599999999999795e+01 4.320000000000000284e+00 3.044600000000000151e+01 -8.686651400801495559e-02
6.720000000000000284e+01 -2.692699999999999960e+01 2.407499999999999929e+01 -1.801146099127448053e-01
6.720000000000000284e+01 -8.393000000000000682e+00 9.794000000000000483e+00 7.250889162976084830e-03
6.720300000000000296e+01 -9.518000000000000682e+00 2.227499999999999858e+01 4.134533454820168430e-01
6.721399999999999864e+01 -1.660900000000000176e+01 2.101699999999999946e+01 3.547721761614738845e-01
6.724399999999999977e+01 1.983000000000000096e+00 4.728900000000000148e+01 -8.844038485288018003e-02
6.724899999999999523e+01 -1.513499999999999979e+01 8.845000000000000639e+00 6.410450101355150143e-02
6.725100000000000477e+01 1.449699999999999989e+01 1.061800000000000033e+01 -6.874985365560376538e-02
6.725400000000000489e+01 -1.067600000000000016e+01 9.727999999999999758e+00 2.249827921409959797e-01
6.725799999999999557e+01 1.012500000000000000e+01 2.868900000000000006e+01 1.369485971507297117e-01
6.726099999999999568e+01 7.699999999999999900e-02 4.038199999999999790e+01 -1.033183564810045973e-01
6.727700000000000102e+01 -1.876999999999999957e+01 3.494200000000000017e+01 -8.997255391992528550e-02
6.728499999999999659e+01 1.199799999999999933e+01 1.799699999999999989e+01 2.686520708200441088e-01
6.729300000000000637e+01 1.297199999999999953e+01 1.889199999999999946e+01 3.968042361317353217e-01
6.729300000000000637e+01 1.965800000000000125e+01 1.140799999999999947e+01 -1.233061707220432651e-01
6.730800000000000693e+01 -2.208599999999999852e+01 1.604599999999999937e+01 6.534414253243957249e-02
6.732899999999999352e+01 2.713999999999999968e+00 3.368099999999999739e+01 1.408016869879739064e-01
6.733199999999999363e+01 7.246000000000000441e+00 1.637600000000000122e+01 3.292667289077406134e-01
6.734000000000000341e+01 -2.874299999999999855e+01 1.788299999999999912e+01 -3.207527178551458080e-01
6.734300000000000352e+01 -2.508599999999999852e+01 1.378299999999999947e+01 -2.764716332165519375e-01
6.734699999999999420e+01 1.965999999999999970e+00 1.033699999999999974e+01 1.576239409186946383e-01
6.735200000000000387e+01 -1.788400000000000034e+01 2.535000000000000142e+01 2.725551358684519254e-02
6.735899999999999466e+01 -2.431000000000000050e+00 1.108099999999999952e+01 -2.230482129644140166e-01
6.736199999999999477e+01 -1.601500000000000057e+01 7.862000000000000099e+00 -2.429286928786680150e-02
6.738200000000000500e+01 1.374000000000000021e+01 4.020799999999999841e+01 1.515913497053308356e-01
6.738299999999999557e+01 1.313000000000000078e+01 4.643500000000000227e+01 -8.529140258059868251e-02
6.739000000000000057e+01 4.562000000000000277e+00 4.921500000000000341e+01 -4.912341356060133390e-02
6.740300000000000580e+01 -3.135300000000000153e+01 1.391999999999999993e+01 -1.344611701574349172e-01
6.742400000000000659e+01 -2.621600000000000108e+01 2.646499999999999986e+01 -3.075196739824684888e-01
6.743899999999999295e+01 -1.770599999999999952e+01 1.996699999999999875e+01 1.449686362445281318e-01
6.744400000000000261e+01 1.931200000000000117e+01 1.268399999999999928e+01 -1.575425053751708659e-01
6.745600000000000307e+01 4.413000000000000256e+00 8.765000000000000568e+00 5.877287232339017085e-03
6.747499999999999432e+01 -5.733999999999999986e+00 6.187999999999999723e+00 5.804878277472848291e-02
6.748099999999999454e+01 1.527100000000000080e+01 9.680999999999999162e+00 -7.060583366716588483e-02
6.749800000000000466e+01 -2.234900000000000020e+01 1.983599999999999852e+01 5.380734980062399503e-02
6.749899999999999523e+01 -1.509600000000000009e+01 5.546999999999999709e+00 1.551433147509823085e-01
6.750300000000000011e+01 7.496000000000000441e+00 -7.499999999999999722e-02 -2.150032830978801379e-02
6.750600000000000023e+01 3.507000000000000117e+00 3.131200000000000117e+01 3.857084682094601147e-02
6.751300000000000523e+01 -2.610800000000000054e+01 2.281800000000000139e+01 -1.672509896699357901e-01
6.751800000000000068e+01 -8.282000000000000028e+00 2.493299999999999983e+01 1.169682180641607588e-01
6.751900000000000546e+01 -1.280300000000000082e+01 4.729000000000000092e+00 -1.264955963264137728e-01
6.753499999999999659e+01 -2.104500000000000171e+01 2.290599999999999881e+01 -1.194860725994869796e-02
6.754300000000000637e+01 5.967999999999999972e+00 1.608200000000000074e+01 3.800000000000000044e-01
6.754699999999999704e+01 -8.211000000000000298e+00 2.025300000000000011e+01 2.401810270992440211e-01
6.757800000000000296e+01 1.875700000000000145e+01 1.693700000000000117e+01 8.626265583153508443e-02
6.758100000000000307e+01 8.070999999999999730e+00 3.671399999999999864e+01 7.842982498418918369e-02
6.758700000000000330e+01 8.487999999999999545e+00 4.878999999999999559e+00 4.322925537890314612e-02
6.759600000000000364e+01 -4.274000000000000021e+00 6.649000000000000021e+00 3.176525568498548280e-01
6.759999999999999432e+01 -2.721600000000000108e+01 1.603999999999999915e+01 -2.166342252177458350e-02
6.760299999999999443e+01 1.707900000000000063e+01 1.846099999999999852e+01 1.770143678862565184e-01
6.760899999999999466e+01 -1.030000000000000027e+00 1.150399999999999956e+01 3.874006354818570474e-01
6.762300000000000466e+01 1.345400000000000063e+01 3.247099999999999653e+01 1.647242631822627978e-01
6.762399999999999523e+01 1.536599999999999966e+01 2.470100000000000051e+01 3.466816850747093115e-01
