1.885999999999999943e+01 -1.284999999999999964e+01 3.052400000000000091e+01 -1.429553869411927525e-01
1.887099999999999866e+01 9.879999999999999893e-01 1.374900000000000055e+01 -9.197900070028779129e-02
1.888299999999999912e+01 1.097000000000000064e+01 1.255199999999999960e+01 3.582241226629147568e-01
1.889699999999999847e+01 1.411800000000000033e+01 2.599599999999999866e+01 -2.575855326540149592e-01
1.890899999999999892e+01 1.416799999999999926e+01 1.910099999999999909e+01 4.534835610304090159e-02
1.891199999999999903e+01 5.496999999999999886e+00 -4.092999999999999972e+00 -1.160867405468309632e-01
1.891600000000000037e+01 1.617800000000000082e+01 1.547600000000000087e+01 8.175104246367850824e-02
1.891799999999999926e+01 -1.631999999999999895e+00 3.446699999999999875e+01 -3.255218046591412673e-01
1.896399999999999864e+01 1.463299999999999912e+01 1.110000000000000014e-01 1.424997883751041861e-01
1.896999999999999886e+01 5.668999999999999595e+00 1.057699999999999996e+01 1.827820339951227169e-01
1.897400000000000020e+01 -9.499000000000000554e+00 8.689999999999999503e+00 1.998677773217787945e-01
1.898999999999999844e+01 9.368000000000000327e+00 5.130000000000000115e-01 2.497703844070460200e-01
1.900000000000000000e+01 7.349000000000000199e+00 -2.936999999999999833e+00 -1.194046350275017182e-01
1.901000000000000156e+01 6.283999999999999808e+00 3.810999999999999943e+00 -1.470667214358286311e-02
1.903300000000000125e+01 -1.510000000000000009e+00 3.584100000000000108e+01 -2.962118993572803172e-01
1.905199999999999960e+01 -3.487999999999999989e+00 1.526800000000000068e+01 2.497956040377662390e-01
1.905399999999999849e+01 4.770999999999999908e+00 -4.010000000000000231e-01 -2.048819457683175860e-01
1.905499999999999972e+01 -3.447999999999999954e+00 1.381400000000000006e+01 2.929872110389095119e-01
1.910300000000000153e+01 -1.134800000000000075e+01 1.925100000000000122e+01 2.440079139588560986e-01
1.911100000000000065e+01 3.766000000000000014e+00 3.569500000000000028e+01 -2.946644269066427957e-01
1.914300000000000068e+01 4.421999999999999709e+00 3.459100000000000108e+01 5.232790435733090245e-02
1.914699999999999847e+01 -1.620799999999999841e+01 2.361700000000000088e+01 -3.586844170294258283e-01
1.915399999999999991e+01 -2.555000000000000160e+00 1.752299999999999969e+01 3.083146038721820692e-01
1.915399999999999991e+01 -2.396999999999999797e+00 1.601099999999999923e+01 3.467681045826311315e-01
1.917399999999999949e+01 -1.514700000000000024e+01 4.969000000000000306e+00 -6.154280658931927939e-02
1.917500000000000071e+01 1.197000000000000064e+01 5.966999999999999638e+00 -1.020770100747994541e-01
1.917599999999999838e+01 -6.206999999999999851e+00 3.060600000000000165e+01 -5.572566499498028160e-03
1.919600000000000151e+01 -1.637900000000000134e+01 4.019999999999999574e+00 -6.200831589275054151e-02
1.921900000000000119e+01 2.335999999999999854e+00 3.740699999999999648e+01 -2.624409705358338174e-01
1.922400000000000020e+01 -8.446999999999999176e+00 1.524600000000000044e+01 4.154695897484922962e-01
1.924500000000000099e+01 8.940000000000000169e-01 1.233799999999999919e+01 -1.487615929330694808e-01
1.927100000000000080e+01 -1.650000000000000000e+01 8.824999999999999289e+00 6.399829749897788245e-02
1.929100000000000037e+01 -1.280999999999999917e+00 1.550699999999999967e+01 2.442840604694830609e-01
1.929700000000000060e+01 1.842099999999999937e+01 5.155000000000000249e+00 -1.838800754458292386e-01
1.929899999999999949e+01 5.030999999999999694e+00 4.631999999999999673e+00 8.651323502968957802e-02
1.931700000000000017e+01 8.333000000000000185e+00 2.666499999999999915e+01 -5.045902503675470108e-02
1.933399999999999963e+01 1.511200000000000010e+01 1.500999999999999890e+00 1.543400644033935676e-01
1.934499999999999886e+01 1.960000000000000075e-01 7.076999999999999957e+00 -1.187612118813076607e-02
1.937600000000000122e+01 -5.480999999999999872e+00 2.208599999999999852e+01 1.649755732304299394e-01
1.938400000000000034e+01 -1.529499999999999993e+01 2.477700000000000102e+01 -3.615198358259529843e-01
1.938500000000000156e+01 8.490999999999999659e+00 2.713999999999999968e+00 3.866289007764305008e-02
1.942599999999999838e+01 1.533099999999999952e+01 1.444800000000000040e+01 6.202950544732863808e-02
1.946999999999999886e+01 -7.706999999999999851e+00 2.697800000000000153e+01 2.003470185095251183e-02
1.947700000000000031e+01 3.714999999999999858e+00 2.196399999999999864e+01 5.287223849536128867e-02
1.948300000000000054e+01 2.479000000000000092e+00 1.754100000000000037e+01 1.547240767917886228e-01
1.951500000000000057e+01 -1.918799999999999883e+01 1.643000000000000016e+00 -6.115057546764440799e-02
1.954200000000000159e+01 -6.024000000000000021e+00 1.671099999999999852e+01 2.541788834130704888e-01
1.955000000000000071e+01 1.225799999999999912e+01 7.395999999999999908e+00 -1.431892635717258166e-01
1.957999999999999829e+01 8.407999999999999474e+00 1.409000000000000030e+00 8.950775394249475825e-02
1.959499999999999886e+01 -2.278999999999999915e+00 7.456999999999999851e+00 1.958422758598115515e-02
1.959600000000000009e+01 -6.258000000000000007e+00 1.963800000000000168e+01 3.051438502505517403e-01
1.959600000000000009e+01 -1.366000000000000103e+00 2.320299999999999940e+01 4.200000000000000955e-01
1.959799999999999898e+01 5.339999999999999858e+00 2.016100000000000136e+01 3.407675936755171775e-01
1.961799999999999855e+01 1.278999999999999915e+00 1.783599999999999852e+01 1.322458723432061722e-01
1.964799999999999969e+01 -2.183399999999999963e+01 1.169400000000000084e+01 -4.441559629996312542e-02
1.965200000000000102e+01 -2.131599999999999895e+01 9.342999999999999972e+00 2.443638859053844439e-02
1.966100000000000136e+01 6.235999999999999766e+00 1.184099999999999930e+01 4.232825320848633832e-01
1.968599999999999994e+01 -8.910000000000000142e-01 3.343099999999999739e+01 -1.881821499534061526e-01
1.974800000000000111e+01 -1.709799999999999898e+01 1.324099999999999966e+01 1.085814884281977727e-01
1.975300000000000011e+01 4.158999999999999808e+00 2.050600000000000023e+01 3.128475616318859842e-01
1.976200000000000045e+01 -2.394900000000000162e+01 4.711000000000000298e+00 -6.943109033697905663e-02
1.977299999999999969e+01 -5.317000000000000171e+00 2.723999999999999844e+01 -1.039783861673455184e-01
1.978200000000000003e+01 -8.278000000000000469e+00 1.660999999999999943e+01 1.622531035806072316e-02
1.980099999999999838e+01 6.134000000000000341e+00 2.576099999999999923e+01 -2.141923054507471891e-02
1.980199999999999960e+01 -9.348000000000000753e+00 2.874500000000000099e+01 -2.199117953679345094e-01
1.980399999999999849e+01 -4.165000000000000036e+00 2.983699999999999974e+01 -6.698776403674208679e-02
1.981400000000000006e+01 -1.112800000000000011e+01 2.359799999999999898e+01 -3.843138579295607427e-01
1.981800000000000139e+01 1.229599999999999937e+01 2.458699999999999974e+01 -1.498941743234736834e-01
1.982799999999999940e+01 -6.416000000000000369e+00 2.627700000000000102e+01 2.258082213002081048e-03
1.985099999999999909e+01 9.247999999999999332e+00 1.026200000000000045e+01 4.314098501629515248e-01
1.986199999999999832e+01 -2.167500000000000071e+01 2.874000000000000110e+00 -6.599305968471519401e-02
1.986299999999999955e+01 -1.255599999999999916e+01 5.862000000000000099e+00 9.514806647583172461e-02
1.990099999999999980e+01 4.825999999999999623e+00 2.281599999999999895e+01 1.803573984080843740e-01
1.991100000000000136e+01 -7.084999999999999964e+00 1.723400000000000176e+01 3.541569726785119276e-01
1.994699999999999918e+01 -2.744000000000000217e+00 8.551000000000000156e+00 1.524929378438663607e-01
1.996699999999999875e+01 1.100399999999999956e+01 8.170999999999999375e+00 2.679328445572936590e-01
1.998600000000000065e+01 -5.264000000000000234e+00 3.059400000000000119e+01 9.512516870500429059e-04
2.000700000000000145e+01 -9.553000000000000824e+00 1.449699999999999989e+01 9.695121519539616484e-02
2.001699999999999946e+01 -2.754999999999999893e+00 6.302999999999999936e+00 8.727528368339831921e-02
2.004799999999999827e+01 7.410000000000000142e+00 3.536999999999999922e+00 2.218519559748260428e-01
2.007600000000000051e+01 1.042800000000000082e+01 1.053899999999999970e+01 -1.775070383037227403e-02
2.008899999999999864e+01 7.341999999999999638e+00 2.666000000000000014e+01 -1.813703439077227544e-02
2.009199999999999875e+01 1.327200000000000024e+01 2.570499999999999829e+01 -1.429424820935229490e-01
2.009299999999999997e+01 -8.073999999999999844e+00 2.809799999999999898e+01 -2.225217912331391990e-01
2.009600000000000009e+01 -1.053500000000000014e+01 2.251699999999999946e+01 -3.822030940937035659e-01
2.010500000000000043e+01 2.955000000000000071e+00 3.631400000000000006e+01 -1.417264591002064533e-01
2.012999999999999901e+01 4.788999999999999702e+00 3.398100000000000165e+01 2.490729655890789457e-02
2.014300000000000068e+01 -1.784400000000000119e+01 1.097899999999999920e+01 1.131326475879068649e-01
2.015099999999999980e+01 -1.643000000000000016e+00 1.804400000000000048e+01 4.359223374864089062e-01
2.016600000000000037e+01 1.133600000000000030e+01 9.573999999999999844e+00 7.615819999547372710e-02
2.017500000000000071e+01 3.262999999999999901e+00 1.963500000000000156e+01 4.265197846790911851e-01
2.018100000000000094e+01 -1.414100000000000001e+01 1.477100000000000080e+01 -4.857632055288689521e-02
2.018299999999999983e+01 -1.322000000000000064e+01 1.055899999999999928e+01 -6.609541491539844271e-02
2.018799999999999883e+01 2.011000000000000121e+00 3.842399999999999949e+01 -1.484005599087942773e-01
2.021699999999999875e+01 2.197000000000000064e+00 8.227999999999999758e+00 1.247525312940664724e-02
2.022500000000000142e+01 7.980000000000000426e-01 3.892999999999999972e+01 -2.351926246670596188e-01
2.022899999999999920e+01 1.091000000000000014e+01 1.200300000000000011e+01 2.001246243068413588e-01
2.023900000000000077e+01 -6.190999999999999837e+00 2.104400000000000048e+01 1.258526927391191430e-01
2.024899999999999878e+01 1.147000000000000020e+00 3.470100000000000051e+01 -1.853593420158151928e-01
2.025700000000000145e+01 7.942000000000000171e+00 1.726500000000000057e+01 3.976527886451874938e-01
2.030300000000000082e+01 4.190000000000000391e+00 3.915000000000000036e+00 3.716859577899424283e-02
2.031299999999999883e+01 1.627299999999999969e+01 1.467000000000000082e+00 -1.234237301009891985e-01
2.033399999999999963e+01 -2.380499999999999972e+01 6.059000000000000163e+00 -6.328839422272067305e-02
2.035200000000000031e+01 -2.160900000000000176e+01 1.050900000000000034e+01 1.422249225530403116e-02
2.035300000000000153e+01 -1.670000000000000095e-01 2.373100000000000165e+01 4.200000000000000400e-01
2.036599999999999966e+01 -1.955900000000000105e+01 5.709999999999999520e-01 -6.203635845643130919e-02
2.037699999999999889e+01 3.537999999999999812e+00 1.822200000000000131e+01 3.135873429922156896e-01
2.038599999999999923e+01 7.129999999999999671e-01 8.083999999999999631e+00 9.046181854271211076e-02
2.040899999999999892e+01 4.214999999999999858e+00 -4.630000000000000226e-01 -4.433080652739818106e-02
2.041000000000000014e+01 -1.960000000000000075e-01 2.525100000000000122e+01 1.292412078279386867e-01
2.045799999999999841e+01 -1.773000000000000043e+01 1.245500000000000007e+01 9.254513266026445639e-02
2.045799999999999841e+01 -1.348399999999999999e+01 6.427999999999999936e+00 8.548084947113919474e-02
2.047899999999999920e+01 -3.620999999999999996e+00 1.330000000000000071e+01 1.841408940133122119e-01
2.050400000000000134e+01 1.597899999999999920e+01 1.360699999999999932e+01 3.239925494931412964e-02
2.051999999999999957e+01 -1.944600000000000151e+01 5.923000000000000043e+00 -8.000000000000000167e-02
2.052299999999999969e+01 -1.484200000000000053e+01 5.705000000000000071e+00 1.693462164711325157e-01
2.053699999999999903e+01 8.010999999999999233e+00 4.775000000000000355e+00 5.813139806954504239e-03
2.056500000000000128e+01 -7.001000000000000334e+00 1.864000000000000057e+01 3.156310836706873735e-01
2.058999999999999986e+01 1.856099999999999994e+01 5.440000000000000391e+00 -1.751703916010172724e-01
2.061100000000000065e+01 -1.136899999999999977e+01 1.890899999999999892e+01 2.182439643889467484e-01
2.062300000000000111e+01 -3.766000000000000014e+00 3.906000000000000139e+00 1.797907413787633579e-01
2.063200000000000145e+01 4.676999999999999602e+00 2.392299999999999827e+01 2.457018932335220673e-01
2.067899999999999849e+01 -9.519999999999999574e+00 2.997200000000000131e+01 -2.093708801033393740e-01
2.068900000000000006e+01 -1.162400000000000055e+01 2.436299999999999955e+01 -2.645722830217667743e-01
2.069600000000000151e+01 4.069999999999999729e-01 1.221100000000000030e+01 8.417659265692177539e-03
2.073600000000000065e+01 1.043299999999999983e+01 2.030399999999999849e+01 -1.639882034876737893e-01
2.077799999999999869e+01 1.716199999999999903e+01 1.375900000000000034e+01 3.630824467890086948e-02
2.079400000000000048e+01 -1.594899999999999984e+01 6.610999999999999766e+00 1.825307399805873865e-01
2.080699999999999861e+01 -3.000000000000000062e-03 3.397800000000000153e+01 -1.790947486839346570e-01
2.082300000000000040e+01 1.661700000000000088e+01 2.841000000000000192e+00 -1.504161119425732607e-01
2.085900000000000176e+01 -2.517800000000000082e+01 6.509000000000000341e+00 -6.366468571433181456e-02
2.086700000000000088e+01 5.410999999999999588e+00 1.233500000000000085e+01 3.118456836935805665e-01
2.090399999999999991e+01 -3.887000000000000011e+00 6.267999999999999794e+00 1.521049608099935280e-01
2.090800000000000125e+01 -1.209600000000000009e+01 8.417999999999999261e+00 -1.726211088671651336e-02
2.091700000000000159e+01 5.926999999999999602e+00 2.474399999999999977e+01 2.415276521484178429e-01
2.092699999999999960e+01 2.943000000000000060e+00 3.872099999999999653e+01 -1.507209188635595110e-01
2.093299999999999983e+01 4.238000000000000433e+00 -1.893999999999999906e+00 -1.814999167500291055e-01
2.095299999999999940e+01 1.931999999999999940e+00 3.551200000000000045e+01 -1.608928020274410786e-01
2.097299999999999898e+01 -1.333999999999999986e+01 7.660999999999999588e+00 2.466370538968299525e-02
2.098600000000000065e+01 1.889199999999999946e+01 6.565000000000000391e+00 -1.760068562557252358e-01
2.102100000000000080e+01 5.596000000000000085e+00 -2.338000000000000078e+00 -1.636707784670693999e-01
2.104599999999999937e+01 1.572000000000000064e+01 3.662999999999999812e+00 2.695491252435844309e-02
2.104799999999999827e+01 1.790099999999999980e+01 3.056000000000000050e+00 -1.772478037195938938e-01
2.105399999999999849e+01 7.123000000000000220e+00 2.390899999999999892e+01 -1.894981612546388916e-01
2.105999999999999872e+01 1.523499999999999943e+01 1.268299999999999983e+01 1.215868506963408285e-01
2.106599999999999895e+01 -1.062800000000000011e+01 1.798600000000000065e+01 1.636000762250951202e-01
2.107100000000000151e+01 3.580999999999999961e+00 2.428000000000000114e+01 1.916854935599911491e-01
2.110099999999999909e+01 -4.554999999999999716e+00 3.269299999999999784e+01 -8.756885093641285367e-02
2.111199999999999832e+01 9.929999999999999716e+00 1.284399999999999942e+01 3.225363242135804720e-01
2.111299999999999955e+01 -7.746000000000000441e+00 2.462900000000000134e+01 -2.253995105904059437e-01
2.112399999999999878e+01 9.809999999999999831e-01 2.113299999999999912e+01 4.200000000000000955e-01
2.113599999999999923e+01 7.322000000000000064e+00 2.734700000000000131e+01 -1.279672007758716756e-01
2.115399999999999991e+01 -2.044000000000000039e+00 1.881200000000000117e+01 4.351676509017240457e-01
2.115700000000000003e+01 9.125000000000000000e+00 7.209999999999999964e+00 1.161347458597045829e-01
2.117200000000000060e+01 1.034299999999999997e+01 1.430199999999999960e+01 2.259431087398389715e-01
2.121300000000000097e+01 1.040799999999999947e+01 7.536999999999999922e+00 2.169473880644503527e-01
2.121499999999999986e+01 -4.147999999999999687e+00 3.592999999999999972e+01 -1.461358117801490886e-01
2.123000000000000043e+01 -6.613000000000000433e+00 2.565599999999999881e+01 8.370542073521211601e-02
2.125400000000000134e+01 1.201800000000000068e+01 2.094000000000000128e+01 -1.434853554569922029e-01
2.126500000000000057e+01 -1.237700000000000067e+01 9.926999999999999602e+00 -1.507586284893280282e-01
2.126800000000000068e+01 6.200000000000000178e+00 5.869999999999999662e-01 1.289777131937095145e-01
2.127599999999999980e+01 -5.333000000000000185e+00 3.143400000000000105e+01 1.069631679524291751e-01
2.129599999999999937e+01 -1.110100000000000087e+01 1.075999999999999979e+01 1.440291947972986708e-01
2.133500000000000085e+01 -1.351299999999999990e+01 1.498300000000000054e+01 -1.150630733385698407e-01
2.135099999999999909e+01 -4.089000000000000412e+00 4.846000000000000085e+00 2.049775145029146262e-01
2.135999999999999943e+01 -1.215700000000000003e+01 1.954599999999999937e+01 2.017437723030238439e-01
2.136599999999999966e+01 -3.245000000000000107e+00 1.907100000000000151e+01 4.315072628307227154e-01
2.137000000000000099e+01 1.757000000000000028e+01 -5.909999999999999698e-01 -1.652164589865162125e-01
2.141000000000000014e+01 4.977999999999999758e+00 4.119999999999999774e-01 -4.638125562587848416e-02
2.142000000000000171e+01 6.038999999999999702e+00 1.361200000000000010e+01 3.236824967585568147e-01
2.143100000000000094e+01 -2.583399999999999963e+01 5.383000000000000007e+00 -6.458444664622442488e-02
2.143900000000000006e+01 -2.273000000000000043e+01 6.168000000000000149e+00 -5.959291270652015277e-02
2.148900000000000077e+01 -1.234699999999999953e+01 1.542999999999999972e+01 -9.659189866051537399e-02
2.153699999999999903e+01 1.586200000000000010e+01 7.920000000000000373e-01 9.100455620174788263e-02
2.156200000000000117e+01 -2.191400000000000148e+01 5.126000000000000334e+00 -5.947510922462367899e-02
2.160800000000000054e+01 -9.872999999999999332e+00 7.535000000000000142e+00 2.141020573052116183e-01
2.161199999999999832e+01 -1.824500000000000099e+01 1.287700000000000067e+01 -2.274781552913115179e-01
2.161299999999999955e+01 1.532999999999999918e+00 1.268500000000000050e+01 3.671995051754465417e-02
2.161400000000000077e+01 1.831500000000000128e+01 4.328999999999999737e+00 -2.056832574121592039e-01
2.167000000000000171e+01 -4.000000000000000083e-02 2.159299999999999997e+01 4.200000000000000400e-01
2.167800000000000082e+01 2.066400000000000148e+01 3.668000000000000149e+00 -3.149550142742360004e-01
2.168100000000000094e+01 6.245000000000000107e+00 7.708000000000000185e+00 4.166037194470512683e-01
2.169800000000000040e+01 1.540300000000000047e+01 7.049999999999999822e+00 -2.009082284303017885e-01
2.172299999999999898e+01 1.435999999999999943e+00 3.221099999999999852e+01 -1.847151999605321504e-01
2.173300000000000054e+01 3.549999999999999822e-01 3.281799999999999784e+01 -1.946460963466215555e-01
2.175199999999999889e+01 -1.963899999999999935e+01 5.940000000000000391e+00 -8.000000000000000167e-02
2.176599999999999824e+01 1.362899999999999956e+01 1.063899999999999935e+01 1.852277639769571160e-01
2.179299999999999926e+01 -1.479999999999999927e-01 2.311799999999999855e+01 4.199999999999999289e-01
2.179899999999999949e+01 3.609999999999999876e-01 7.626000000000000334e+00 1.357320792650120733e-01
2.180499999999999972e+01 7.918000000000000149e+00 5.144999999999999574e+00 -1.219970076699324404e-02
2.180999999999999872e+01 -6.233999999999999986e+00 1.845299999999999940e+01 3.020667397734808635e-01
2.185099999999999909e+01 3.299999999999999822e+00 1.776399999999999935e+01 3.058949718833722242e-01
2.186799999999999855e+01 -1.733000000000000096e+00 3.035300000000000153e+01 -2.856963128850253941e-01
2.187999999999999901e+01 -1.671199999999999974e+01 6.503000000000000114e+00 -7.646858020514482601e-02
2.189399999999999835e+01 1.461599999999999966e+01 5.878999999999999559e+00 -3.135049867269590340e-03
2.191000000000000014e+01 3.096000000000000085e+00 1.630199999999999960e+01 3.431841570234932526e-01
2.192099999999999937e+01 5.328000000000000291e+00 1.123700000000000010e+01 4.244627703985261458e-01
2.192399999999999949e+01 -1.115399999999999991e+01 7.750000000000000000e+00 -1.419147651886964734e-01
2.194300000000000139e+01 -3.815999999999999837e+00 3.486999999999999744e+01 -1.384361044781602934e-01
2.197700000000000031e+01 1.654700000000000060e+01 -2.530000000000000027e-01 -2.146405543050315112e-01
2.199200000000000088e+01 -9.391999999999999460e+00 2.948199999999999932e+01 -2.369574509273724705e-01
2.204500000000000171e+01 1.098199999999999932e+01 3.333000000000000185e+00 1.095898544729558000e-01
2.205900000000000105e+01 -9.110000000000000320e-01 1.932000000000000028e+01 4.200000000000000400e-01
2.208899999999999864e+01 -1.820899999999999963e+01 1.425999999999999979e+01 -2.043337053128081726e-01
2.209199999999999875e+01 -1.784799999999999898e+01 7.520999999999999908e+00 -7.521539912164734720e-02
2.210399999999999920e+01 1.482399999999999984e+01 1.056799999999999962e+01 -2.571668518217208252e-02
2.213700000000000045e+01 -4.812000000000000277e+00 3.374199999999999733e+01 -1.136562154779006129e-01
2.214199999999999946e+01 -9.979999999999999982e-01 2.078099999999999881e+01 4.200000000000000400e-01
2.214600000000000080e+01 1.568800000000000061e+01 1.182499999999999929e+01 -4.090323938052326663e-02
2.214699999999999847e+01 1.393800000000000061e+01 1.721399999999999864e+01 -8.855105234398036318e-02
2.217800000000000082e+01 -2.265399999999999991e+01 7.152999999999999581e+00 -5.994213291304303221e-02
2.218400000000000105e+01 1.800000000000000044e+00 3.565100000000000335e+01 -1.301443571286436118e-01
2.224200000000000088e+01 1.108099999999999952e+01 7.357000000000000206e+00 9.370650168751985809e-02
2.224800000000000111e+01 9.480999999999999872e+00 2.008899999999999864e+01 1.817368566715197864e-01
2.225000000000000000e+01 8.444000000000000838e+00 6.525999999999999801e+00 1.504854903048593803e-02
2.225700000000000145e+01 7.485000000000000320e+00 2.344399999999999906e+01 -2.504467192693279332e-01
2.226099999999999923e+01 -1.680999999999999872e+01 1.488299999999999912e+01 -1.694032032865036563e-01
2.226300000000000168e+01 -3.724000000000000199e+00 2.728800000000000026e+01 5.044714335952715789e-02
2.229700000000000060e+01 -1.573000000000000043e+01 1.409600000000000009e+01 -1.435757562118245290e-01
2.230099999999999838e+01 -8.496999999999999886e+00 2.407000000000000028e+01 -2.364731968762423531e-01
2.233899999999999864e+01 8.284000000000000696e+00 2.101699999999999946e+01 -8.205630596293325696e-02
2.237500000000000000e+01 -1.670299999999999940e+01 1.610500000000000043e+01 -1.672221473518248902e-01
2.239000000000000057e+01 1.542500000000000071e+01 9.425000000000000711e+00 1.316827196532679156e-01
2.240200000000000102e+01 8.685999999999999943e+00 2.250900000000000034e+01 -3.066989164933925371e-01
2.240500000000000114e+01 1.467200000000000060e+01 8.192999999999999616e+00 1.621328234897203846e-01
2.242699999999999960e+01 1.256499999999999950e+01 1.703500000000000014e+01 -8.955327796514803151e-02
2.242800000000000082e+01 -2.074299999999999855e+01 5.089000000000000412e+00 -8.000000000000001554e-02
2.243700000000000117e+01 -4.801000000000000156e+00 3.072400000000000020e+01 -1.464610138224400615e-01
2.244600000000000151e+01 -6.533999999999999808e+00 2.931800000000000139e+01 -1.850969298178499478e-01
2.245100000000000051e+01 4.283999999999999808e+00 8.619999999999999885e-01 1.808191635353005311e-01
2.245799999999999841e+01 -2.705000000000000071e+00 3.475000000000000000e+01 -1.572325444812622541e-01
2.248300000000000054e+01 1.957400000000000162e+01 4.123000000000000220e+00 -2.041966723944512174e-01
2.251500000000000057e+01 -8.955999999999999517e+00 6.871999999999999886e+00 1.164107712913209774e-01
2.252700000000000102e+01 9.977000000000000313e+00 1.232499999999999929e+01 2.674944142349621190e-01
2.253000000000000114e+01 1.215900000000000070e+01 1.288000000000000034e+00 -8.368085377371163591e-02
2.253300000000000125e+01 1.229599999999999937e+01 2.801000000000000156e+00 -1.823688184779068133e-01
2.253900000000000148e+01 -7.275000000000000355e+00 1.252899999999999991e+01 -8.764767992359208393e-02
2.254299999999999926e+01 1.062000000000000055e+00 2.351200000000000045e+01 1.782842382759485533e-01
2.255399999999999849e+01 -1.900100000000000122e+01 6.777000000000000135e+00 -7.461952223119024119e-02
2.255499999999999972e+01 -1.435500000000000043e+01 1.457399999999999984e+01 6.727615592722790971e-02
2.257199999999999918e+01 -6.350000000000000089e-01 3.256700000000000017e+01 -1.951527588325847606e-01
2.258500000000000085e+01 -4.567000000000000171e+00 4.756000000000000227e+00 -1.092252834238189030e-01
2.259199999999999875e+01 -2.029799999999999827e+01 3.612000000000000099e+00 -8.000000000000000167e-02
2.263299999999999912e+01 7.450999999999999623e+00 4.362000000000000099e+00 1.898208128683225027e-01
2.269500000000000028e+01 -1.873799999999999955e+01 1.202599999999999980e+01 -2.097778128319784108e-01
2.271999999999999886e+01 4.495000000000000107e+00 1.810399999999999920e+01 2.228249691227083829e-01
2.272400000000000020e+01 -1.654799999999999827e+01 5.605999999999999872e+00 -7.637511013638584312e-02
2.274899999999999878e+01 5.472000000000000419e+00 1.407000000000000028e+01 4.500000000000000111e-01
2.277100000000000080e+01 7.277999999999999581e+00 7.419999999999999929e+00 4.141571901858130955e-01
2.282100000000000151e+01 -9.817999999999999616e+00 2.138100000000000023e+01 -9.345665594280369581e-02
2.284799999999999898e+01 -4.684999999999999609e+00 1.575099999999999945e+01 1.381847062017607652e-01
2.285999999999999943e+01 1.508600000000000030e+01 -2.124000000000000110e+00 -2.345346846486469627e-01
2.290099999999999980e+01 -1.054999999999999938e+00 3.023600000000000065e+01 -1.650654991264771942e-01
2.293599999999999994e+01 -1.615899999999999892e+01 9.010999999999999233e+00 1.356003776029456875e-01
2.294699999999999918e+01 -5.483999999999999986e+00 2.969600000000000151e+01 -3.052328030309075513e-01
2.294900000000000162e+01 -6.758000000000000007e+00 1.796999999999999886e+01 1.941368215927622987e-01
2.295700000000000074e+01 1.009500000000000064e+01 2.473400000000000176e+01 -2.051216642525551248e-01
2.296000000000000085e+01 -1.457000000000000073e+00 2.783599999999999852e+01 -1.068733574014191917e-01
2.297800000000000153e+01 -7.967999999999999972e+00 2.287999999999999901e+01 6.181472583293608908e-02
2.300799999999999912e+01 1.491499999999999915e+01 1.671000000000000085e+01 -1.792581891700919527e-01
2.300900000000000034e+01 -2.137099999999999866e+01 2.753000000000000114e+00 -8.000000000000000167e-02
2.301099999999999923e+01 -1.161599999999999966e+01 7.400000000000000355e+00 -8.354541075090354818e-02
2.303999999999999915e+01 -2.990000000000000213e+00 2.792699999999999960e+01 -1.240434571535476566e-01
2.314999999999999858e+01 -1.746399999999999864e+01 8.525999999999999801e+00 -6.295890637536784296e-02
2.315899999999999892e+01 -6.309999999999999609e+00 1.162400000000000055e+01 -7.281666446811338456e-02
2.319099999999999895e+01 -8.509999999999999787e-01 1.716300000000000026e+01 4.320095513327375514e-01
2.320100000000000051e+01 -7.988999999999999879e+00 1.771300000000000097e+01 2.192864056381821081e-01
2.321000000000000085e+01 -4.934000000000000163e+00 3.508999999999999897e+00 -9.610509958659922691e-02
2.322299999999999898e+01 1.607999999999999829e+01 -1.010999999999999899e+00 -2.525885579589787766e-01
2.322500000000000142e+01 -8.320999999999999730e+00 9.063000000000000611e+00 -7.717572614637041584e-02
2.323100000000000165e+01 -8.601000000000000867e+00 2.172599999999999909e+01 1.448438692518385328e-02
2.328200000000000003e+01 -1.972599999999999909e+01 1.293800000000000061e+01 -2.026914361372427198e-01
2.328399999999999892e+01 6.886000000000000121e+00 2.378200000000000003e+01 1.256375518960351489e-01
2.329299999999999926e+01 -1.358500000000000085e+01 1.350999999999999979e+01 -2.767498421767903838e-01
2.330199999999999960e+01 -8.099999999999999645e+00 7.852999999999999758e+00 -7.370801459630590968e-02
2.330300000000000082e+01 -9.071999999999999176e+00 1.398300000000000054e+01 4.339830942193841426e-03
2.330499999999999972e+01 7.886999999999999567e+00 8.701000000000000512e+00 2.434220822911195015e-01
2.335500000000000043e+01 1.163999999999999924e+00 1.250600000000000023e+01 1.463765464822331108e-01
2.336899999999999977e+01 -8.512000000000000455e+00 1.284600000000000009e+01 -2.499771250279249346e-01
2.338599999999999923e+01 1.390000000000000124e-01 1.396700000000000053e+01 1.431920469544551988e-01
2.340500000000000114e+01 -1.896399999999999864e+01 1.421000000000000085e+01 -1.912975153258466565e-01
2.342299999999999827e+01 -1.078000000000000069e+00 1.866300000000000026e+01 4.333859175985284584e-01
2.342999999999999972e+01 -1.546599999999999930e+01 1.133600000000000030e+01 -1.530740716494928266e-01
2.343599999999999994e+01 4.889999999999999680e+00 1.727999999999999980e+00 -2.130224349435503872e-01
2.346000000000000085e+01 1.549499999999999922e+01 1.255100000000000016e+01 -2.695030290342825818e-02
2.347200000000000131e+01 -8.509999999999999787e-01 2.905699999999999861e+01 -1.316622537838285645e-01
2.350700000000000145e+01 -3.029999999999999805e+00 9.967999999999999972e+00 2.110158191627814761e-01
2.350799999999999912e+01 -6.671999999999999709e+00 1.116000000000000103e+00 -8.321459499121544590e-02
2.356700000000000017e+01 -5.360000000000000320e-01 3.151200000000000045e+01 -3.283232968866483525e-01
2.356899999999999906e+01 1.215300000000000047e+01 1.635500000000000043e+01 -1.068418437868932092e-01
2.357100000000000151e+01 1.928000000000000114e+01 3.100999999999999979e+00 -1.116849098948133057e-01
2.358599999999999852e+01 1.384299999999999997e+01 -2.064000000000000057e+00 -2.296080140207861220e-01
2.367099999999999937e+01 3.604999999999999982e+00 2.167000000000000171e+01 4.319446013648676752e-01
2.369399999999999906e+01 9.298999999999999488e+00 2.277599999999999980e+01 1.879739972494692802e-04
2.370499999999999829e+01 -6.355000000000000426e+00 3.605999999999999872e+00 -1.018531458312943727e-01
2.376300000000000168e+01 -9.809999999999999831e-01 2.660999999999999943e+01 1.395484105317759682e-01
2.379899999999999949e+01 -4.378999999999999559e+00 7.469000000000000306e+00 -8.040092607251506096e-02
2.382799999999999940e+01 1.496599999999999930e+01 3.166999999999999815e+00 9.666144182308140584e-03
2.384900000000000020e+01 1.444699999999999918e+01 7.791999999999999815e+00 1.463775389997820642e-01
2.385399999999999920e+01 9.948999999999999844e+00 2.390299999999999869e+01 -2.044515020137565586e-01
2.387199999999999989e+01 -7.926000000000000156e+00 2.081200000000000117e+01 -3.913289694208348102e-02
2.387199999999999989e+01 1.155000000000000027e+00 2.346900000000000119e+01 2.086362530171212981e-01
2.387500000000000000e+01 -2.717000000000000082e+00 1.139600000000000080e+01 3.632134033106795834e-02
2.387800000000000011e+01 -6.886999999999999567e+00 4.692999999999999616e+00 -8.455174618176361512e-02
2.390500000000000114e+01 -7.056000000000000050e+00 2.492999999999999883e+00 -8.310771587879896283e-02
2.397800000000000153e+01 -3.515000000000000124e+00 2.870499999999999829e+01 -1.493486141389568922e-01
2.397800000000000153e+01 1.257600000000000051e+01 3.303999999999999826e+00 6.603701323127762757e-02
2.401300000000000168e+01 -7.065000000000000391e+00 7.413000000000000256e+00 -6.727508574601702429e-02
2.401800000000000068e+01 -5.692000000000000171e+00 1.774099999999999966e+01 2.335970335791713315e-01
2.404299999999999926e+01 1.320500000000000007e+01 7.386999999999999567e+00 2.405849101828541059e-01
2.407199999999999918e+01 1.281900000000000084e+01 2.287399999999999878e+01 -1.161525749180008227e-01
2.409499999999999886e+01 1.273700000000000010e+01 4.745000000000000107e+00 1.206335708734327661e-01
2.410000000000000142e+01 -8.861000000000000654e+00 1.092000000000000082e+00 -7.290085114179364889e-02
2.413100000000000023e+01 -5.312999999999999723e+00 1.624299999999999855e+01 -9.163122242522862143e-03
2.413400000000000034e+01 -4.953000000000000291e+00 2.890899999999999892e+01 -1.835981231048077478e-01
2.415700000000000003e+01 -8.933999999999999275e+00 1.184800000000000075e+01 -1.553807328161238566e-01
2.417200000000000060e+01 -4.328999999999999737e+00 9.702999999999999403e+00 -9.470657878125254836e-02
2.418100000000000094e+01 1.450099999999999945e+01 1.602499999999999858e+01 4.299823975912878127e-02
2.420599999999999952e+01 1.542800000000000082e+01 -1.660000000000000087e-01 1.553495708748502679e-01
2.421300000000000097e+01 4.262999999999999901e+00 1.784400000000000119e+01 3.444378320332597276e-01
2.421799999999999997e+01 -4.931000000000000050e+00 8.492000000000000881e+00 -1.020476518356630002e-01
2.425300000000000011e+01 8.608000000000000540e+00 8.539999999999999813e-01 -1.692724657298725066e-01
2.430399999999999849e+01 -7.615000000000000213e+00 2.899999999999999800e-01 -7.637075256205896889e-02
2.433299999999999841e+01 -2.740000000000000213e+00 3.215999999999999659e+01 -1.810845750093493522e-01
2.434700000000000131e+01 -5.775999999999999801e+00 1.186599999999999966e+01 -1.089577597364031758e-01
2.439900000000000091e+01 1.393699999999999939e+01 2.785000000000000142e+00 -1.170875817786118031e-02
2.446999999999999886e+01 -9.099999999999999756e-02 1.919999999999999929e+01 4.320923332933354066e-01
2.447200000000000131e+01 1.311800000000000033e+01 1.582600000000000051e+01 -8.862168710252735226e-02
2.450600000000000023e+01 -1.522199999999999953e+01 1.192699999999999960e+01 -2.916353818836140421e-01
2.451099999999999923e+01 -8.382999999999999119e+00 2.482000000000000206e+00 -6.995783913680948818e-02
2.451099999999999923e+01 2.508999999999999897e+00 2.380799999999999983e+01 2.404863045165702429e-01
2.451099999999999923e+01 7.918000000000000149e+00 1.762600000000000122e+01 2.997707975517373002e-01
2.459600000000000009e+01 1.670000000000000095e-01 2.326899999999999835e+01 4.200000000000000400e-01
2.459700000000000131e+01 -1.420100000000000051e+01 1.305700000000000038e+01 -2.773235839456641427e-01
2.470700000000000074e+01 1.533099999999999952e+01 7.905000000000000249e+00 1.312672789917735949e-01
2.475799999999999912e+01 -1.393999999999999906e+00 3.192699999999999960e+01 -1.940746990690359886e-01
2.477599999999999980e+01 4.240999999999999659e+00 1.562000000000000055e+00 -1.825473564574379426e-01
2.479100000000000037e+01 8.346000000000000085e+00 2.112000000000000099e+00 -1.730645956761995286e-01
2.479700000000000060e+01 2.404999999999999805e+00 2.662300000000000111e+01 -1.229109796085677345e-02
2.484700000000000131e+01 -6.264999999999999680e+00 8.281000000000000583e+00 -1.083013079429795827e-01
2.485800000000000054e+01 3.289000000000000146e+00 2.252299999999999969e+01 1.091953783224655777e-01
2.488800000000000168e+01 3.048999999999999932e+00 1.294000000000000039e+00 -1.803116065864986406e-01
2.490299999999999869e+01 -1.369999999999999929e+01 7.562999999999999723e+00 -1.450161570499659824e-02
2.491100000000000136e+01 2.399999999999999911e+00 5.955000000000000071e+00 5.482219952866014545e-02
2.492500000000000071e+01 -4.740000000000000213e+00 1.091099999999999959e+01 -9.374230624418003477e-02
2.499699999999999989e+01 -6.097000000000000419e+00 1.285999999999999943e+01 -1.120584155455614794e-01
2.500600000000000023e+01 -1.012500000000000000e+01 1.194800000000000040e+01 -1.500543166356364533e-01
2.500700000000000145e+01 1.350099999999999945e+01 2.031800000000000139e+01 1.221171222369694769e-02
2.502599999999999980e+01 9.253999999999999559e+00 -1.320000000000000062e-01 8.555046288862725584e-03
2.503399999999999892e+01 1.730999999999999872e+01 7.249999999999999778e-01 -9.522262052003455102e-02
2.503999999999999915e+01 1.608399999999999963e+01 6.079999999999999849e-01 1.528675802518021654e-01
2.505499999999999972e+01 3.771999999999999797e+00 6.570000000000000284e+00 1.930804764826483111e-01
2.515299999999999869e+01 9.228999999999999204e+00 1.802299999999999969e+01 1.917134385323369383e-01
2.517399999999999949e+01 1.240600000000000058e+01 2.251200000000000045e+01 -1.015671740296596182e-01
2.520899999999999963e+01 -3.407000000000000028e+00 1.157699999999999996e+01 -9.351515420811949697e-02
2.520899999999999963e+01 1.135399999999999920e+01 2.540200000000000102e+01 -9.751938673501657495e-02
2.521199999999999974e+01 -4.277999999999999581e+00 1.605999999999999872e+01 2.344762307708416760e-01
2.521600000000000108e+01 1.519299999999999962e+01 1.544999999999999929e+01 3.436823454115940646e-02
2.523000000000000043e+01 1.051600000000000001e+01 2.410399999999999920e+01 -1.262186200824263471e-01
2.524500000000000099e+01 1.250699999999999967e+01 5.386000000000000121e+00 1.451270564856339540e-01
2.525400000000000134e+01 -1.252999999999999892e+00 2.662199999999999989e+01 -9.999114649020694745e-02
2.530399999999999849e+01 1.267200000000000060e+01 6.911999999999999922e+00 1.962015900938859081e-01
2.530799999999999983e+01 -6.216000000000000192e+00 1.817999999999999972e+01 -1.695569805423156190e-02
2.532999999999999829e+01 -5.198000000000000398e+00 2.020700000000000074e+01 3.149949861618430713e-01
2.533599999999999852e+01 1.575399999999999956e+01 1.972700000000000031e+01 -2.665453052295590347e-02
2.534799999999999898e+01 -8.940000000000000169e-01 3.323100000000000165e+01 -1.818173619768760629e-01
2.535399999999999920e+01 -1.186899999999999977e+01 1.020599999999999952e+01 -1.648119079751219837e-02
2.536299999999999955e+01 4.631000000000000227e+00 2.293900000000000006e+01 1.438816764811580717e-01
2.541300000000000026e+01 -5.246999999999999886e+00 2.967899999999999849e+01 -1.907373033676900420e-01
2.542500000000000071e+01 1.396000000000000085e+01 1.919999999999999929e+00 6.735334845113406799e-02
2.546300000000000097e+01 9.391999999999999460e+00 2.038800000000000168e+01 2.929931493971672518e-01
2.551099999999999923e+01 1.129400000000000048e+01 9.108999999999999986e+00 -1.385849517641113970e-01
2.556099999999999994e+01 1.132399999999999984e+01 7.583999999999999631e+00 1.809611556590803583e-01
2.556500000000000128e+01 -1.578299999999999947e+01 1.160999999999999943e+01 -2.951444701531951154e-01
2.562399999999999878e+01 -8.611000000000000654e+00 1.603600000000000136e+01 7.128652676155969314e-02
2.564999999999999858e+01 8.659000000000000696e+00 1.411599999999999966e+01 2.430954589917418696e-01
2.564999999999999858e+01 1.459299999999999997e+01 1.951099999999999923e+01 -1.368397850190346612e-02
2.567000000000000171e+01 -1.045199999999999996e+01 1.061100000000000065e+01 -1.132430127737823755e-01
2.567200000000000060e+01 -6.740000000000000213e+00 2.972400000000000020e+01 -3.095077515033628490e-01
2.568900000000000006e+01 2.806000000000000050e+00 8.868999999999999773e+00 1.950045903194716490e-01
2.573699999999999832e+01 2.263999999999999790e+00 2.458099999999999952e+01 3.951446042930331637e-02
2.573699999999999832e+01 1.303999999999999915e+01 1.511599999999999966e+01 5.336537748248156715e-02
2.575000000000000000e+01 1.130300000000000082e+01 2.298600000000000065e+01 -1.142334096619743444e-01
2.577400000000000091e+01 2.233000000000000096e+00 2.591900000000000048e+01 -4.524372272911814097e-02
2.579299999999999926e+01 8.596999999999999531e+00 1.172499999999999964e+01 4.173983373449273448e-02
2.580099999999999838e+01 5.065000000000000391e+00 1.647999999999999909e+00 -1.524575912003515998e-01
2.582799999999999940e+01 -1.520999999999999908e+00 2.767000000000000171e+01 -1.082453570037793245e-01
2.585000000000000142e+01 1.298499999999999943e+01 1.128899999999999970e+01 1.004820115452969842e-01
2.585200000000000031e+01 -8.984999999999999432e+00 1.953699999999999903e+01 1.126367218392929220e-01
2.586400000000000077e+01 -5.926000000000000156e+00 1.935300000000000153e+01 4.275553529068633341e-02
2.593299999999999983e+01 1.314100000000000001e+01 2.144399999999999906e+01 -1.358359298804041881e-01
2.594399999999999906e+01 9.019000000000000128e+00 1.930600000000000094e+01 2.855012103997094930e-01
2.597400000000000020e+01 -1.195999999999999952e+00 2.552599999999999980e+01 4.593920237398364109e-02
2.599599999999999866e+01 8.019999999999999574e+00 1.311500000000000021e+01 -4.321165934491933563e-02
2.600700000000000145e+01 9.727999999999999758e+00 1.694699999999999918e+01 -1.731891316794693242e-02
2.601500000000000057e+01 1.517999999999999972e+01 1.356000000000000094e+00 1.500612390229746351e-01
2.602199999999999847e+01 -8.365999999999999659e+00 2.786999999999999922e+00 -7.614108758210964834e-02
2.605799999999999983e+01 -1.360899999999999999e+01 8.515000000000000568e+00 3.030041972038776538e-02
2.608399999999999963e+01 3.737000000000000099e+00 7.706999999999999851e+00 1.778430470164949484e-01
2.610000000000000142e+01 -9.980999999999999872e+00 1.300799999999999912e+01 -1.669650760107077303e-01
2.611599999999999966e+01 8.720000000000000639e+00 2.399000000000000021e+00 6.501226611527904931e-02
2.614099999999999824e+01 1.433099999999999952e+01 1.491000000000000014e+01 -9.921241158207450006e-02
2.621199999999999974e+01 -6.102999999999999758e+00 7.647999999999999687e+00 -1.038425594563902737e-01
2.621600000000000108e+01 1.278400000000000070e+01 1.481000000000000094e+00 6.391909032160689175e-02
2.626699999999999946e+01 1.214899999999999913e+01 4.774000000000000021e+00 1.618765939542854970e-01
2.627599999999999980e+01 -1.221400000000000041e+01 9.093999999999999417e+00 5.711626194876476964e-02
2.627700000000000102e+01 5.192999999999999616e+00 8.195000000000000284e+00 4.354465596799909077e-01
2.630900000000000105e+01 -3.321000000000000174e+00 4.501999999999999780e+00 -8.495377020153312142e-02
2.633099999999999952e+01 9.634999999999999787e+00 1.209999999999999964e-01 -2.047593413238092130e-01
2.638100000000000023e+01 3.939000000000000057e+00 1.325399999999999956e+01 2.581292417725697397e-01
2.647100000000000009e+01 -9.549999999999999600e-01 4.163000000000000256e+00 -7.180995660187720897e-02
2.648300000000000054e+01 8.076999999999999957e+00 4.868000000000000327e+00 1.354392676737254941e-01
2.648400000000000176e+01 -8.775999999999999801e+00 1.338400000000000034e+01 -1.974222342038805256e-01
2.650799999999999912e+01 1.332399999999999984e+01 2.563400000000000034e+01 -1.225441551597824946e-01
2.650900000000000034e+01 -4.559000000000000163e+00 2.903900000000000148e+01 -1.704985759918825061e-01
2.651000000000000156e+01 1.180899999999999928e+01 1.471599999999999930e+01 4.564339649997625759e-02
2.653500000000000014e+01 1.200300000000000011e+01 2.572200000000000131e+01 -1.135173399758002966e-01
2.654700000000000060e+01 -1.097799999999999976e+01 1.356199999999999939e+01 -2.083802174346895408e-01
2.656500000000000128e+01 1.432099999999999973e+01 1.860300000000000153e+01 -4.839791978654425092e-02
2.657000000000000028e+01 6.833999999999999631e+00 1.317999999999999972e+01 -1.046337905437263044e-01
2.658999999999999986e+01 -9.410000000000000142e+00 3.088999999999999968e+00 -1.225944072482027664e-01
2.664300000000000068e+01 -8.346000000000000085e+00 6.504999999999999893e+00 -6.947745685498436796e-02
2.664499999999999957e+01 8.082000000000000739e+00 8.106999999999999318e+00 1.002754594113317993e-01
2.668299999999999983e+01 -7.217999999999999972e+00 2.725999999999999979e+00 -8.344888473270611895e-02
2.669399999999999906e+01 1.088799999999999990e+01 1.699599999999999866e+01 1.084038709729224365e-01
2.670299999999999940e+01 1.244800000000000040e+01 9.810000000000000497e+00 -1.089372856246168392e-01
2.671900000000000119e+01 1.163100000000000023e+01 1.798100000000000165e+01 -1.052420336755197222e-01
2.676399999999999935e+01 5.466999999999999638e+00 1.051999999999999957e+01 2.735601167858655591e-01
2.680099999999999838e+01 6.027000000000000135e+00 7.115999999999999659e+00 1.646497579394824370e-02
2.681899999999999906e+01 6.147000000000000242e+00 1.443999999999999950e+01 -1.557391775350185914e-01
2.684100000000000108e+01 -8.861000000000000654e+00 1.578599999999999959e+01 9.045374759774199580e-02
2.685999999999999943e+01 -8.855999999999999872e+00 1.884199999999999875e+01 1.534690750958078165e-01
2.686100000000000065e+01 -2.263999999999999790e+00 2.093799999999999883e+01 1.305712900838322255e-01
2.687399999999999878e+01 9.367000000000000881e+00 1.397999999999999909e+00 5.830241990445707290e-02
2.693199999999999861e+01 -7.439000000000000057e+00 7.546999999999999709e+00 -4.469247204377586186e-02
2.693799999999999883e+01 8.611000000000000654e+00 3.552999999999999936e+00 -2.015981938917289773e-01
2.693900000000000006e+01 7.355000000000000426e+00 7.158999999999999808e+00 6.677644751295772063e-02
2.694800000000000040e+01 2.628000000000000114e+00 1.271499999999999986e+01 3.462494232381475023e-01
2.696999999999999886e+01 -1.135999999999999899e+00 1.481799999999999962e+01 7.396473986174662008e-02
2.701099999999999923e+01 8.542999999999999261e+00 1.094100000000000072e+01 1.020563876938589409e-01
2.704299999999999926e+01 1.937999999999999945e+00 2.666799999999999926e+01 1.641671708149994302e-01
2.705300000000000082e+01 1.239899999999999913e+01 2.090200000000000102e+01 -2.245005801401245837e-01
2.709499999999999886e+01 -2.181999999999999940e+00 4.391000000000000014e+00 -7.558454677555180579e-02
2.714300000000000068e+01 1.463400000000000034e+01 4.819999999999999840e-01 1.379622351375435207e-01
2.714699999999999847e+01 8.461999999999999744e+00 1.915500000000000114e+01 2.452348229383406741e-01
2.718700000000000117e+01 4.628999999999999559e+00 1.590999999999999970e+00 -1.165458295938885114e-01
2.718700000000000117e+01 5.104000000000000092e+00 3.920999999999999819e+00 -1.651387150973936124e-01
2.720599999999999952e+01 5.211999999999999744e+00 9.404999999999999361e+00 2.188334828942673504e-01
2.721099999999999852e+01 -1.008099999999999952e+01 1.795799999999999841e+01 1.839681690343410447e-01
2.723300000000000054e+01 2.169999999999999984e-01 4.121000000000000441e+00 1.762357277439860759e-01
2.724500000000000099e+01 -6.551999999999999602e+00 1.958099999999999952e+01 1.235662886922761494e-01
2.732900000000000063e+01 -9.563000000000000611e+00 6.407000000000000028e+00 -7.361270862879316923e-02
2.737800000000000011e+01 4.724000000000000199e+00 1.413899999999999935e+01 -1.639576862590406414e-01
2.742399999999999949e+01 -5.644000000000000128e+00 4.690000000000000391e+00 -8.637722003147092764e-02
2.747200000000000131e+01 -8.544000000000000483e+00 1.443099999999999916e+01 -1.005749757362928570e-01
2.749899999999999878e+01 1.130799999999999983e+01 1.576399999999999935e+01 2.633356785975882186e-02
2.753099999999999881e+01 4.334999999999999964e+00 3.025999999999999801e+00 -1.499819871479835531e-01
2.754599999999999937e+01 -7.706999999999999851e+00 1.875499999999999901e+01 1.501059914936138662e-01
2.754700000000000060e+01 1.339899999999999913e+01 1.217000000000000082e+00 9.452617417790513954e-02
2.754899999999999949e+01 7.163000000000000256e+00 1.649899999999999878e+01 5.715061973612287766e-02
2.754899999999999949e+01 1.135500000000000043e+01 2.600799999999999912e+01 -1.399954870337247193e-01
2.755999999999999872e+01 7.931000000000000050e+00 5.892999999999999794e+00 1.375061825053832121e-01
2.759199999999999875e+01 -9.650999999999999801e+00 1.660300000000000153e+01 -1.121778604137690927e-01
2.765800000000000125e+01 4.006999999999999673e+00 1.544599999999999973e+01 -2.209918770174184796e-02
2.770299999999999940e+01 -3.217999999999999972e+00 2.297899999999999920e+01 1.142061167646845898e-01
2.775700000000000145e+01 2.245999999999999996e+00 1.929500000000000171e+01 3.845716919273575174e-01
2.779200000000000159e+01 6.961000000000000298e+00 1.530799999999999983e+01 -4.769577277200424958e-02
2.791600000000000037e+01 -7.778999999999999915e+00 8.484999999999999432e+00 -9.156406642758793679e-02
2.792999999999999972e+01 -7.108999999999999986e+00 1.438799999999999990e+01 1.044111164523329471e-01
2.800100000000000122e+01 -2.208000000000000185e+00 2.192200000000000060e+01 8.339318440865554904e-02
2.805199999999999960e+01 2.032999999999999918e+00 2.257400000000000162e+01 1.758721598930681196e-01
2.805900000000000105e+01 8.247999999999999332e+00 2.027400000000000091e+01 2.088754916744087198e-01
2.808399999999999963e+01 -7.930000000000000382e-01 2.249399999999999977e+01 1.984506859430716086e-01
2.810099999999999909e+01 5.713000000000000078e+00 1.106999999999999984e+00 -7.081915971402685805e-02
2.810399999999999920e+01 9.614000000000000767e+00 1.947000000000000064e+00 -1.754609330389525490e-01
