3.289000000000000146e+00 3.738000000000000256e+01 5.507999999999999829e+01 2.434263197065830719e-01
3.301000000000000156e+00 2.558500000000000085e+01 1.327899999999999991e+01 8.961021358231704981e-02
3.307999999999999829e+00 2.577799999999999869e+01 4.983899999999999864e+01 1.126834303369369933e-01
3.318000000000000060e+00 4.446000000000000085e+01 -1.754000000000000004e+00 -4.172501590236855906e-02
3.326000000000000068e+00 4.477600000000000335e+01 5.290000000000000036e+00 -8.536819974528504773e-02
3.327999999999999847e+00 2.377700000000000102e+01 3.539300000000000068e+01 2.535290760203160465e-01
3.334000000000000075e+00 3.761899999999999977e+01 -9.791999999999999815e+00 1.055822478330675496e-01
3.350999999999999979e+00 1.426500000000000057e+01 3.404200000000000159e+01 2.468382236529178750e-02
3.357000000000000206e+00 3.256499999999999773e+01 -7.020999999999999908e+00 -2.339192153974279376e-01
3.365000000000000213e+00 2.799599999999999866e+01 3.096199999999999974e+01 -2.080378062963407146e-02
3.370000000000000107e+00 2.357999999999999829e+01 1.195400000000000063e+01 1.237145732471234445e-02
3.370000000000000107e+00 3.035600000000000165e+01 4.674000000000000377e+00 3.551345102839312262e-01
3.380999999999999783e+00 3.467699999999999960e+01 -6.224000000000000199e+00 -3.036182793660152646e-01
3.391999999999999904e+00 2.453399999999999892e+01 3.479999999999999760e-01 1.199041687772630649e-01
3.399999999999999911e+00 3.562800000000000011e+01 5.792300000000000182e+01 -9.676052131214810115e-02
3.426000000000000156e+00 1.480100000000000016e+01 2.581899999999999906e+01 2.940623753253607947e-02
3.446000000000000174e+00 2.086499999999999844e+01 2.080999999999999961e+00 1.966316274303191169e-01
3.467000000000000082e+00 2.917699999999999960e+01 1.459500000000000064e+01 -2.231245202371754943e-01
3.467000000000000082e+00 3.216899999999999693e+01 1.399000000000000021e+00 1.529770032703994809e-01
3.471999999999999975e+00 3.798100000000000165e+01 5.178399999999999892e+01 -5.660166353301485619e-03
3.472999999999999865e+00 2.967099999999999937e+01 1.048399999999999999e+01 -6.452891632529068888e-02
3.479000000000000092e+00 2.182000000000000028e+01 4.055499999999999972e+01 2.737116637339526704e-01
3.491999999999999993e+00 2.735399999999999920e+01 2.990800000000000125e+01 2.306314021765367150e-01
3.500000000000000000e+00 3.901200000000000045e+01 9.753000000000000114e+00 -9.118977238514446026e-02
3.529999999999999805e+00 2.653500000000000014e+01 5.682300000000000040e+01 -1.219628059261587544e-01
3.557999999999999829e+00 2.376699999999999946e+01 4.849199999999999733e+01 -1.243296642623537007e-01
3.571000000000000174e+00 1.869399999999999906e+01 3.530799999999999983e+01 3.326306519720562682e-01
3.571000000000000174e+00 3.685300000000000153e+01 -7.355000000000000426e+00 1.036948850650515341e-01
3.577999999999999847e+00 4.034899999999999665e+01 5.687400000000000233e+01 -1.244310179819223816e-01
3.600999999999999979e+00 4.397099999999999653e+01 -6.338000000000000078e+00 -2.325320757703417951e-01
3.625999999999999890e+00 1.852799999999999869e+01 5.053799999999999670e+01 -2.770223555581812769e-01
3.626999999999999780e+00 1.856299999999999883e+01 2.762500000000000000e+01 -1.025348906023721210e-02
3.633000000000000007e+00 1.512199999999999989e+01 1.416099999999999959e+01 -2.166047319558338236e-01
3.641999999999999904e+00 1.261899999999999977e+01 3.211200000000000188e+01 1.510813252143551888e-01
3.645000000000000018e+00 2.282400000000000162e+01 3.610799999999999699e+01 2.218531279228975472e-01
3.662999999999999812e+00 2.103500000000000014e+01 4.783000000000000362e+00 9.339081075044930458e-02
3.681000000000000050e+00 1.370100000000000051e+01 4.684400000000000119e+01 7.227600938421272370e-04
3.698999999999999844e+00 3.967799999999999727e+01 2.580999999999999961e+00 -3.586077491158747022e-02
3.705999999999999961e+00 1.180599999999999916e+01 6.623999999999999666e+00 2.096610747564959243e-01
3.706999999999999851e+00 1.746999999999999886e+01 4.269500000000000028e+01 1.678232866150023150e-01
3.710999999999999854e+00 3.366299999999999670e+01 -2.170999999999999819e+00 7.544476135659664018e-02
3.713000000000000078e+00 2.879500000000000171e+01 3.957200000000000273e+01 1.354624997078117676e-01
3.740000000000000213e+00 2.276300000000000168e+01 3.086400000000000077e+01 3.207851043127588619e-01
3.745000000000000107e+00 1.131300000000000061e+01 -6.040000000000000036e+00 8.994330518764009907e-02
3.748000000000000220e+00 4.397999999999999687e+01 4.725699999999999790e+01 -2.772700557582031822e-01
3.753000000000000114e+00 4.538400000000000034e+01 4.669899999999999807e+01 -2.355741614527692707e-01
3.762000000000000011e+00 1.277999999999999936e+01 -4.038999999999999702e+00 -1.626643128612711986e-02
3.775999999999999801e+00 4.144500000000000028e+01 5.391499999999999915e+01 1.131943866695367118e-01
3.778999999999999915e+00 2.069900000000000162e+01 6.060999999999999943e+00 7.157987229403116325e-02
3.782999999999999918e+00 1.693799999999999883e+01 5.242999999999999972e+01 -2.289102143592320893e-01
3.793000000000000149e+00 3.532600000000000051e+01 -7.467999999999999972e+00 -1.497994601058846853e-01
3.813000000000000167e+00 3.306300000000000239e+01 5.235999999999999766e+00 3.729886413654052157e-01
3.814000000000000057e+00 1.816199999999999903e+01 1.166300000000000026e+01 -1.058653388608587764e-01
3.838999999999999968e+00 2.269900000000000162e+01 3.237800000000000011e+01 1.915017133546065009e-01
3.858999999999999986e+00 8.413000000000000256e+00 1.989000000000000101e+00 -1.104274157927064987e-01
3.875999999999999890e+00 1.973100000000000165e+01 1.012500000000000000e+01 -4.167368065125722637e-02
3.880999999999999783e+00 3.896000000000000085e+01 1.247999999999999998e+00 -1.554188542495434366e-01
3.887999999999999901e+00 2.223499999999999943e+01 -7.378000000000000114e+00 -1.764439057039143000e-01
3.891999999999999904e+00 3.230100000000000193e+01 5.172899999999999920e+01 8.996017762743316326e-02
3.900999999999999801e+00 1.189199999999999946e+01 4.354500000000000171e+01 -7.296662464488698485e-02
3.906000000000000139e+00 2.579700000000000060e+01 1.340000000000000080e-01 -2.903388063359867502e-03
3.926000000000000156e+00 3.849000000000000199e+01 -1.088000000000000078e+01 -2.546026860222938004e-01
3.936999999999999833e+00 1.636199999999999832e+01 2.805600000000000094e+01 -7.925516936640908394e-02
3.955999999999999961e+00 2.412500000000000000e+01 3.294599999999999795e+01 -2.922982290956730594e-02
3.963000000000000078e+00 4.179999999999999716e+01 3.922000000000000153e+00 8.939766560463047315e-04
3.988999999999999879e+00 3.027100000000000080e+01 1.434299999999999997e+01 8.639043071048443934e-02
3.995999999999999996e+00 1.317200000000000060e+01 2.758000000000000007e+00 -1.155468161703096649e-03
3.996999999999999886e+00 1.305599999999999916e+01 3.090599999999999881e+01 -7.159189231893574486e-03
4.003000000000000114e+00 1.946000000000000085e+01 4.963600000000000279e+01 -2.134428755822953272e-01
4.008000000000000007e+00 1.147100000000000009e+01 2.246699999999999875e+01 -2.553083272177684715e-01
4.017999999999999794e+00 3.702000000000000313e+01 5.274600000000000222e+01 -4.190043526895036868e-02
4.019000000000000128e+00 3.689600000000000080e+01 4.982000000000000206e+00 1.682224710041576032e-01
4.019999999999999574e+00 1.873400000000000176e+01 4.688199999999999790e+01 -3.658917895524151087e-02
4.022000000000000242e+00 2.021999999999999886e+01 3.865400000000000347e+01 3.307032683927849104e-01
4.025000000000000355e+00 4.030199999999999960e+01 1.041799999999999926e+01 -6.776482989541590674e-02
4.044999999999999929e+00 3.065700000000000003e+01 4.108800000000000097e+01 1.662314471258544424e-01
4.049999999999999822e+00 3.451400000000000290e+01 5.567000000000000171e+00 2.062487475045716168e-01
4.054999999999999716e+00 1.156900000000000084e+01 3.259499999999999886e+01 -1.907121853547208423e-01
4.056000000000000050e+00 2.623400000000000176e+01 1.232799999999999940e+01 1.065781999674684510e-01
4.059000000000000163e+00 1.093500000000000050e+01 -7.421999999999999709e+00 1.381398124443271869e-01
4.067999999999999616e+00 3.550500000000000256e+01 4.386000000000000121e+00 1.302045492636384229e-02
4.081999999999999851e+00 3.353900000000000148e+01 3.334899999999999665e+01 -2.719749664514062859e-01
4.083999999999999631e+00 2.937099999999999866e+01 4.831400000000000006e+01 1.940718380820740108e-01
4.086000000000000298e+00 3.259300000000000352e+01 5.823899999999999721e+01 -4.182354988738945512e-02
4.116999999999999993e+00 1.357399999999999984e+01 4.567699999999999960e+01 -2.479841242342104707e-02
4.136000000000000121e+00 3.771800000000000352e+01 -8.499000000000000554e+00 2.304007646204596915e-01
4.141000000000000014e+00 2.361199999999999832e+01 -7.331999999999999851e+00 -2.783693392501033759e-01
4.144999999999999574e+00 3.101200000000000045e+01 5.416799999999999926e+01 -2.109287290769600864e-01
4.144999999999999574e+00 3.775000000000000000e+01 5.409400000000000119e+01 4.331297726429247930e-02
4.150999999999999801e+00 2.421199999999999974e+01 1.099399999999999977e+01 2.042087027682341349e-01
4.161999999999999922e+00 4.398100000000000165e+01 4.873199999999999932e+01 -8.650469837044647003e-02
4.176000000000000156e+00 2.710999999999999943e+01 -9.627000000000000668e+00 -1.846381867944624500e-01
4.181000000000000050e+00 2.590899999999999892e+01 4.600399999999999778e+01 7.139715031740338780e-02
4.187999999999999723e+00 9.417999999999999261e+00 -7.551999999999999602e+00 -7.547261369898487782e-02
4.213000000000000078e+00 4.113400000000000034e+01 2.576999999999999957e+00 -1.860578998378109306e-01
4.230000000000000426e+00 1.931299999999999883e+01 -2.395999999999999908e+00 -2.935442597437622550e-02
4.237000000000000099e+00 1.242099999999999937e+01 -5.471000000000000085e+00 1.922766685218236724e-02
4.269000000000000128e+00 3.142000000000000171e+01 8.817000000000000171e+00 1.343838654029356761e-01
4.275000000000000355e+00 1.144100000000000072e+01 2.903500000000000014e+01 1.367277022876554060e-01
4.288999999999999702e+00 1.798100000000000165e+01 -6.376999999999999780e+00 2.735414184189881998e-02
4.288999999999999702e+00 3.689000000000000057e+01 -1.959000000000000075e+00 1.268977945926885453e-01
4.299999999999999822e+00 4.224499999999999744e+01 8.839999999999999858e+00 -2.399010027026892422e-01
4.302999999999999936e+00 1.729599999999999937e+01 4.137100000000000222e+01 3.678487942792406651e-01
4.315000000000000391e+00 2.439399999999999835e+01 3.443800000000000239e+01 -1.032248972504017440e-02
4.317999999999999616e+00 3.552499999999999858e+01 1.552999999999999936e+00 2.386539963059602643e-01
4.322000000000000064e+00 1.226200000000000045e+01 5.560000000000000497e-01 1.000802466140718050e-01
4.347000000000000419e+00 1.763800000000000168e+01 2.801599999999999824e+01 -3.737340729326450728e-02
4.352999999999999758e+00 2.067000000000000171e+01 1.372400000000000020e+01 -1.923902894493880744e-01
4.370000000000000107e+00 3.297299999999999898e+01 3.782099999999999795e+01 -1.586984719841272873e-01
4.371999999999999886e+00 1.933399999999999963e+01 -3.899000000000000021e+00 -7.913082806808693914e-02
4.376000000000000334e+00 2.739499999999999957e+01 -8.429999999999999716e+00 -1.962027367692527891e-01
4.395999999999999908e+00 3.771300000000000097e+01 5.730799999999999983e+01 9.562902901353994775e-03
4.407000000000000028e+00 2.397599999999999909e+01 3.956700000000000017e+01 2.107993292035252320e-01
4.411999999999999922e+00 1.859799999999999898e+01 4.347699999999999676e+01 1.406709257351117792e-01
4.413999999999999702e+00 1.880699999999999861e+01 1.077200000000000024e+01 -1.045222696445145399e-01
4.419999999999999929e+00 2.054899999999999949e+01 3.741599999999999682e+01 3.881023266248142534e-01
4.424999999999999822e+00 3.634599999999999653e+01 5.797800000000000153e+01 8.948833753402026317e-03
4.429999999999999716e+00 1.922299999999999898e+01 3.925399999999999778e+01 4.098007979577884541e-01
4.461000000000000298e+00 5.331000000000000405e+00 2.917000000000000171e+01 -3.592873734521075391e-01
4.464999999999999858e+00 2.555399999999999849e+01 1.117800000000000082e+01 4.118871697676986798e-01
4.472000000000000419e+00 1.516799999999999926e+01 3.352799999999999869e+01 4.200000000000000400e-01
4.477999999999999758e+00 2.813700000000000045e+01 4.575300000000000011e+01 2.515442930060846627e-01
4.503000000000000114e+00 1.470400000000000063e+01 1.051900000000000013e+01 -2.195974317227116779e-01
4.511999999999999567e+00 4.262299999999999756e+01 4.936899999999999977e+01 -5.482476640045445132e-02
4.516000000000000014e+00 2.664999999999999858e+01 5.305599999999999739e+01 -2.714216128836757225e-01
4.541999999999999815e+00 1.790399999999999991e+01 5.150300000000000011e+01 -2.430948166777893160e-01
4.560999999999999943e+00 2.349099999999999966e+01 9.736000000000000654e+00 3.403258654534743188e-01
4.573000000000000398e+00 2.660900000000000176e+01 2.964000000000000057e+01 2.051641097466532226e-01
4.626000000000000334e+00 6.743000000000000327e+00 2.960099999999999909e+01 -3.582341028078336320e-01
4.633000000000000007e+00 3.430100000000000193e+01 3.600300000000000011e+01 -2.225850162886975903e-01
4.634000000000000341e+00 4.276400000000000290e+01 5.081799999999999784e+01 -5.570329971277791781e-02
4.636999999999999567e+00 1.414899999999999913e+01 4.793299999999999983e+01 -2.260484510659692692e-01
4.644999999999999574e+00 1.700000000000000000e+01 1.400000000000000133e-01 2.437149555374391041e-01
4.650000000000000355e+00 1.915200000000000102e+01 1.554800000000000004e+01 -1.990399605490554835e-01
4.658000000000000362e+00 4.429399999999999693e+01 -1.721000000000000085e+00 -1.574015241872920579e-01
4.658999999999999808e+00 1.037899999999999956e+01 3.644500000000000028e+01 8.217339887563372691e-02
4.658999999999999808e+00 3.083599999999999852e+01 4.785999999999999588e+00 3.875836420654107384e-01
4.676000000000000156e+00 9.929999999999999716e+00 2.719099999999999895e+01 -3.814032294830392855e-01
4.677999999999999936e+00 4.152600000000000335e+01 4.889999999999999680e+00 1.399321843097870929e-02
4.684999999999999609e+00 4.054699999999999704e+01 5.131600000000000250e+01 3.598843439377868991e-01
4.698999999999999844e+00 2.946499999999999986e+01 4.035799999999999699e+01 1.654277478209995600e-01
4.700000000000000178e+00 1.900700000000000145e+01 -1.207499999999999929e+01 -6.931266929605181537e-02
4.714000000000000412e+00 2.569200000000000017e+01 4.936399999999999721e+01 1.112117187839934893e-02
4.716000000000000192e+00 2.272500000000000142e+01 4.038900000000000290e+01 6.483085407099064938e-03
4.719999999999999751e+00 4.172999999999999687e+01 5.167099999999999937e+01 -2.488267430345406789e-02
4.754999999999999893e+00 1.918400000000000105e+01 -1.068500000000000050e+01 -7.380565458886784169e-02
4.759000000000000341e+00 1.517900000000000027e+01 3.861599999999999966e+01 1.864943277943543753e-01
4.769000000000000128e+00 1.775700000000000145e+01 6.967999999999999972e+00 -7.069468973969207995e-03
4.775999999999999801e+00 1.143099999999999916e+01 2.373600000000000065e+01 -2.436714966685405437e-01
4.798000000000000043e+00 1.298499999999999943e+01 1.629000000000000004e+00 1.023768837025912370e-01
4.804999999999999716e+00 1.775700000000000145e+01 -1.264600000000000080e+01 -6.688451149012919483e-02
4.822000000000000064e+00 1.133900000000000041e+01 3.880499999999999972e+01 6.962079415422975370e-02
4.825999999999999623e+00 4.478600000000000136e+01 -5.908999999999999808e+00 -2.567902761537633749e-01
4.836000000000000298e+00 2.787900000000000134e+01 5.250399999999999778e+01 -1.424313072363282973e-01
4.844000000000000306e+00 4.208599999999999852e+01 5.314800000000000324e+01 3.280588661011614449e-02
4.868000000000000327e+00 2.757000000000000028e+01 -1.056099999999999994e+01 -1.916899345055930182e-01
4.879999999999999893e+00 3.218800000000000239e+01 5.070000000000000284e+00 1.494687804224728300e-01
4.884999999999999787e+00 1.946900000000000119e+01 3.522200000000000131e+01 3.837458578944943355e-01
4.895999999999999908e+00 2.686799999999999855e+01 4.570000000000000284e+01 2.153206537931056930e-01
4.897000000000000242e+00 3.616100000000000136e+01 -4.174000000000000377e+00 -4.846106523985256424e-03
4.902000000000000135e+00 2.550799999999999912e+01 4.794999999999999929e+00 1.601848386900335541e-01
4.907000000000000028e+00 1.615599999999999881e+01 4.099799999999999756e+01 1.206015159308534840e-01
4.916999999999999815e+00 1.810500000000000043e+01 -9.830000000000000071e+00 -7.220898279801007957e-02
4.918999999999999595e+00 1.304400000000000048e+01 -3.051000000000000156e+00 -3.493834820531104002e-02
4.924000000000000377e+00 2.131899999999999906e+01 -7.506999999999999673e+00 -4.854659038982862829e-02
4.926000000000000156e+00 2.426699999999999946e+01 4.898199999999999932e+01 2.196649240144930501e-02
4.929999999999999716e+00 2.713200000000000145e+01 5.678900000000000148e+01 -2.898275564100570301e-01
4.929999999999999716e+00 3.148699999999999832e+01 4.320199999999999818e+01 2.706186084961555993e-01
4.931000000000000050e+00 4.340599999999999881e+01 8.794000000000000483e+00 -2.574746988751289156e-01
4.963000000000000078e+00 1.235599999999999987e+01 3.007499999999999929e+01 9.529308314974116456e-02
4.969000000000000306e+00 3.865699999999999648e+01 5.421699999999999875e+01 4.391833377740869682e-02
4.974000000000000199e+00 1.574200000000000088e+01 1.120199999999999996e+01 -1.985915772913621202e-01
4.974999999999999645e+00 1.666499999999999915e+01 -1.178299999999999947e+01 -1.985074468246488810e-01
4.998999999999999666e+00 4.112599999999999767e+01 9.573000000000000398e+00 -7.807595284617538378e-02
4.998999999999999666e+00 4.466700000000000159e+01 -4.456000000000000405e+00 -3.830542966499118213e-02
5.006999999999999673e+00 1.316600000000000037e+01 -6.059000000000000163e+00 1.750457808490869099e-02
5.017999999999999794e+00 1.517699999999999960e+01 4.173499999999999943e+01 1.372890121583876799e-01
5.020999999999999908e+00 1.681400000000000006e+01 -1.037899999999999956e+01 -6.342204094183864771e-02
5.056000000000000050e+00 3.148499999999999943e+01 4.186500000000000199e+01 9.463247967958973716e-02
5.062999999999999723e+00 3.349499999999999744e+01 4.773499999999999943e+01 2.268156090098569777e-01
5.065000000000000391e+00 3.749600000000000222e+01 5.253999999999999559e+00 1.682147729385526091e-01
5.073000000000000398e+00 3.268999999999999773e+01 4.535499999999999687e+01 1.791338625788246042e-01
5.075000000000000178e+00 3.369299999999999784e+01 3.711599999999999966e+01 -2.358217895628551553e-01
5.075999999999999623e+00 3.373899999999999721e+01 1.499600000000000044e+01 -1.675191197423073486e-01
5.120000000000000107e+00 1.533000000000000007e+01 -1.205499999999999972e+01 -1.966496871735536334e-01
5.136999999999999567e+00 3.560900000000000176e+01 5.095000000000000284e+01 -1.198153420236148375e-01
5.145999999999999908e+00 3.306799999999999784e+01 1.043900000000000006e+01 -1.245240622189244944e-01
5.155000000000000249e+00 1.989900000000000091e+01 4.955400000000000205e+01 9.083907328980159526e-03
5.155999999999999694e+00 3.208200000000000074e+01 5.227400000000000091e+01 9.068980763370659837e-02
5.165000000000000036e+00 1.152200000000000024e+01 6.911999999999999922e+00 2.446185005695625247e-01
5.176999999999999602e+00 1.550300000000000011e+01 -9.817999999999999616e+00 -2.033844993779219124e-01
5.182999999999999829e+00 1.990299999999999869e+01 1.472600000000000087e+01 -2.098083922941543222e-01
5.187000000000000277e+00 1.032300000000000040e+01 3.508400000000000318e+01 1.099110174141718216e-01
5.187000000000000277e+00 2.806700000000000017e+01 5.788799999999999812e+01 -2.805061307586934616e-01
5.203000000000000291e+00 2.052100000000000080e+01 6.594000000000000306e+00 5.892904470606789152e-02
5.208999999999999631e+00 1.394299999999999962e+01 9.852999999999999758e+00 -2.566662232713207148e-01
5.213000000000000078e+00 2.091600000000000037e+01 7.988999999999999879e+00 1.094315203718285306e-01
5.217999999999999972e+00 1.555599999999999916e+01 -3.604000000000000092e+00 1.444640103408812437e-01
5.222000000000000419e+00 1.060100000000000087e+01 2.819500000000000028e+01 -3.842712753622917199e-01
5.224000000000000199e+00 3.196199999999999974e+01 5.787299999999999756e+01 -3.982876851150168873e-01
5.230999999999999872e+00 3.630899999999999750e+01 -2.995999999999999996e+00 9.924719274099466637e-02
5.232999999999999652e+00 1.944800000000000040e+01 3.033200000000000074e+01 1.631289766183487422e-01
5.243999999999999773e+00 1.464100000000000001e+01 -1.087299999999999933e+01 -1.977210648295473772e-01
5.245000000000000107e+00 3.501100000000000279e+01 -7.836999999999999744e+00 -3.291639882557037544e-02
5.259999999999999787e+00 1.150600000000000023e+01 3.734899999999999665e+01 4.200000000000000400e-01
5.264000000000000234e+00 8.869999999999999218e+00 1.558999999999999941e+00 -7.425012709492936902e-02
5.267999999999999794e+00 1.621399999999999864e+01 5.722000000000000419e+00 3.065391469266066649e-01
5.267999999999999794e+00 3.458700000000000330e+01 1.232300000000000040e+01 -2.608384879341233559e-02
5.275000000000000355e+00 1.515300000000000047e+01 -8.356999999999999318e+00 1.035659304014067833e-01
5.275000000000000355e+00 3.531400000000000006e+01 3.595000000000000195e+00 3.209336486979256359e-02
5.277000000000000135e+00 3.144000000000000128e+01 5.349399999999999977e+01 -2.055544153909610317e-01
5.280999999999999694e+00 2.310999999999999943e+01 4.173400000000000176e+01 1.695405154947749737e-01
5.283999999999999808e+00 3.075199999999999889e+01 5.765100000000000335e+01 -3.891501337802115157e-01
5.309999999999999609e+00 3.532500000000000284e+01 2.259999999999999787e+00 2.686362329368757740e-01
5.317000000000000171e+00 1.046400000000000041e+01 7.998000000000000220e+00 -6.704404825464921336e-02
5.336999999999999744e+00 1.013799999999999990e+01 3.624000000000000110e+00 -1.401961150310587489e-01
5.355000000000000426e+00 2.847400000000000020e+01 4.131900000000000261e+01 1.475823428251822056e-01
5.357000000000000206e+00 1.525000000000000000e+01 3.721000000000000085e+01 4.200000000000000955e-01
5.357000000000000206e+00 3.641499999999999915e+01 5.222899999999999920e+01 6.240023625540958019e-02
5.363999999999999879e+00 1.937900000000000134e+01 -1.691000000000000059e+00 -9.591453411185217603e-02
5.386999999999999567e+00 1.661899999999999977e+01 4.959700000000000131e+01 -2.400264585538619266e-01
5.410999999999999588e+00 1.941499999999999915e+01 -2.250000000000000056e-01 -1.120277946265041185e-03
5.421999999999999709e+00 1.980999999999999872e+01 3.664200000000000301e+01 3.830520989728972703e-01
5.424999999999999822e+00 2.411299999999999955e+01 -7.416000000000000369e+00 -2.734174575572426713e-01
5.451999999999999957e+00 4.279800000000000182e+01 6.490000000000000213e-01 2.206018628841116547e-02
5.455000000000000071e+00 3.601599999999999824e+01 5.860199999999999676e+01 2.995503995820292947e-02
5.482999999999999652e+00 3.044500000000000028e+01 1.427999999999999936e+01 -1.298368182149960970e-01
5.501000000000000334e+00 1.413799999999999990e+01 2.856800000000000139e+01 7.294797610832201573e-02
5.504999999999999893e+00 3.194999999999999929e+01 9.571999999999999176e+00 -1.608284689506819798e-01
5.512999999999999901e+00 1.612099999999999866e+01 3.959899999999999665e+01 1.271768030262136473e-01
5.520999999999999908e+00 2.581599999999999895e+01 5.351800000000000068e+01 -2.727189654696611232e-01
5.538999999999999702e+00 3.476700000000000301e+01 -9.009000000000000341e+00 -3.212825837327706185e-02
5.562999999999999723e+00 4.560600000000000165e+01 -3.674999999999999822e+00 -6.410979917018228003e-02
5.578999999999999737e+00 1.527599999999999980e+01 4.753900000000000148e+01 9.270735825348588866e-02
5.607000000000000206e+00 4.533500000000000085e+01 -2.157999999999999918e+00 -1.160292038966630745e-01
5.608999999999999986e+00 2.272800000000000153e+01 -3.136000000000000121e+00 -1.311118098897703088e-01
5.634000000000000341e+00 4.118900000000000006e+01 2.237999999999999989e+00 -1.206287500387580591e-01
5.639000000000000234e+00 3.627600000000000335e+01 1.793900000000000006e+01 -1.771325745845911404e-01
5.639999999999999680e+00 4.099699999999999989e+01 4.793099999999999739e+01 1.120960206620470884e-01
5.650999999999999801e+00 2.772200000000000131e+01 5.908500000000000085e+01 -2.752224991745726435e-01
5.655999999999999694e+00 2.674599999999999866e+01 5.309999999999999609e+00 1.105076577615881142e-02
5.674999999999999822e+00 2.242000000000000171e+01 9.820000000000000284e+00 3.443913404819702317e-01
5.684999999999999609e+00 1.717699999999999960e+01 5.078799999999999670e+01 -2.404999274061616621e-01
5.706000000000000405e+00 2.412600000000000122e+01 3.479599999999999937e+01 2.815916515425808120e-01
5.711000000000000298e+00 2.652599999999999980e+01 3.055199999999999960e+01 1.302746091886454738e-01
5.732999999999999652e+00 6.865999999999999659e+00 3.060399999999999920e+01 -3.558779839457605898e-01
5.733999999999999986e+00 1.803999999999999915e+01 4.369999999999999996e-01 9.188282468186507665e-03
5.735000000000000320e+00 2.800499999999999901e+01 7.509000000000000341e+00 3.470396549806969988e-01
5.767000000000000348e+00 2.392200000000000060e+01 1.538400000000000034e+01 1.810391968506535609e-01
5.777000000000000135e+00 1.912600000000000122e+01 6.346000000000000085e+00 1.126128396772457380e-01
5.796000000000000263e+00 3.338400000000000034e+01 1.156499999999999950e+01 -5.142666819681555868e-02
5.796000000000000263e+00 4.203399999999999892e+01 4.877100000000000080e+01 3.555075300707593450e-02
5.801000000000000156e+00 3.705400000000000205e+01 4.123100000000000165e+01 -1.716941524532664132e-01
5.815999999999999837e+00 1.276600000000000001e+01 7.307000000000000384e+00 1.459340052794989850e-02
5.820000000000000284e+00 4.043599999999999994e+01 -2.814000000000000057e+00 -1.033325676141363114e-01
5.822000000000000064e+00 1.792000000000000171e+01 2.836100000000000065e+01 -6.562803475851949897e-02
5.844000000000000306e+00 3.216199999999999903e+01 4.411999999999999744e+01 -1.227874670996293577e-02
5.850999999999999979e+00 2.864499999999999957e+01 6.001500000000000057e+01 -3.911346176408216357e-01
5.860000000000000320e+00 7.366999999999999993e+00 -1.977999999999999980e+00 -1.889839139330239115e-01
5.865999999999999659e+00 1.848400000000000176e+01 1.046400000000000041e+01 2.819704709735400619e-02
5.881999999999999673e+00 3.338799999999999812e+01 4.646999999999999886e+01 -1.423062257184178336e-01
5.908000000000000362e+00 1.868499999999999872e+01 3.440899999999999892e+01 1.659882056608021073e-01
5.908999999999999808e+00 1.335100000000000087e+01 2.942299999999999827e+01 -2.206971944084963888e-01
5.916999999999999815e+00 1.418999999999999950e+01 -3.353000000000000203e+00 -1.476779484639447193e-01
5.916999999999999815e+00 1.706800000000000139e+01 3.075600000000000023e+01 -7.329643714628311657e-02
5.918999999999999595e+00 8.275999999999999801e+00 3.111700000000000088e+01 -2.139513194332713919e-01
5.918999999999999595e+00 2.645100000000000051e+01 5.936099999999999710e+01 -2.742634019547972035e-01
5.921000000000000263e+00 2.196999999999999886e+01 8.403999999999999915e+00 1.185378140841052835e-01
5.921999999999999709e+00 1.850199999999999889e+01 4.350600000000000023e+01 7.390017212140405356e-02
5.924000000000000377e+00 9.787000000000000810e+00 2.593999999999999861e+00 -9.156743877154392697e-02
5.924000000000000377e+00 3.440100000000000335e+01 1.938100000000000023e+01 -2.360896739474052097e-01
5.932000000000000384e+00 3.210000000000000142e+01 4.126200000000000045e+01 1.055157055340083944e-01
5.937000000000000277e+00 1.817800000000000082e+01 1.949999999999999956e+00 1.470881263800487004e-01
5.939000000000000057e+00 3.570900000000000318e+01 4.165899999999999892e+01 1.314858594722889164e-02
5.961999999999999744e+00 3.453199999999999648e+01 1.467399999999999949e+01 -1.477010479919557695e-01
5.966000000000000192e+00 3.074699999999999989e+01 3.307800000000000296e+01 1.224604282934799587e-01
5.996000000000000441e+00 2.135800000000000054e+01 1.088000000000000078e+00 2.139025738412181910e-01
6.030000000000000249e+00 2.161599999999999966e+01 5.295199999999999818e+01 -1.015320618816453468e-01
6.033000000000000362e+00 3.555199999999999960e+01 5.328600000000000136e+01 -1.025030903919767616e-01
6.038000000000000256e+00 4.664699999999999847e+01 -4.123000000000000220e+00 -5.339217747106609485e-02
6.070999999999999730e+00 2.667299999999999827e+01 6.801000000000000156e+00 3.412840393797250682e-01
6.081999999999999851e+00 3.513000000000000256e+01 1.805799999999999983e+01 -1.985831502797908432e-01
6.084999999999999964e+00 8.224999999999999645e+00 3.261599999999999966e+01 1.539706371248970584e-01
6.091000000000000192e+00 1.828099999999999881e+01 2.985099999999999909e+01 -1.277430330649995671e-01
6.099999999999999645e+00 4.435499999999999687e+01 -6.671999999999999709e+00 -2.426639060228362177e-01
6.113999999999999879e+00 3.499699999999999989e+01 1.343500000000000050e+01 -1.538620831030947933e-01
6.137999999999999901e+00 7.717999999999999972e+00 1.284999999999999920e+00 -3.659730896492032759e-01
6.142000000000000348e+00 4.201500000000000057e+01 1.308999999999999941e+00 1.688119596266091649e-01
6.150000000000000355e+00 3.503199999999999648e+01 -6.849999999999999645e+00 -9.519298415441515560e-02
6.155999999999999694e+00 2.930199999999999960e+01 1.351900000000000013e+01 -1.157329399993494573e-01
6.161999999999999922e+00 4.131799999999999784e+01 4.520499999999999829e+01 1.097264944200727552e-02
6.171000000000000263e+00 2.827400000000000091e+01 5.242399999999999949e+01 1.156467849221294933e-02
6.185999999999999943e+00 1.192900000000000027e+01 2.354500000000000171e+01 -2.271136257434468730e-01
6.192999999999999616e+00 9.519000000000000128e+00 3.471699999999999875e+01 -2.186684236415334728e-02
6.208999999999999631e+00 4.167799999999999727e+01 5.368500000000000227e+01 3.366308318626824725e-02
6.246999999999999886e+00 2.179400000000000048e+01 -7.573999999999999844e+00 -1.722781380828788678e-01
6.274000000000000021e+00 3.039900000000000091e+01 -4.722000000000000419e+00 1.182597351459181850e-01
6.275999999999999801e+00 1.893100000000000094e+01 2.741900000000000048e+01 -1.655655610553654093e-03
6.293999999999999595e+00 3.130900000000000105e+01 -3.689000000000000057e+00 1.342273326486087270e-01
6.317999999999999616e+00 3.477900000000000347e+01 4.605299999999999727e+01 -7.334610884534602249e-02
6.323999999999999844e+00 1.591000000000000014e+01 4.872399999999999665e+01 -2.326511777815950255e-01
6.339000000000000412e+00 2.663700000000000045e+01 4.526500000000000057e+01 2.825571491144328040e-01
6.360999999999999766e+00 1.513799999999999990e+01 1.346899999999999942e+01 -2.582721575390499180e-01
6.360999999999999766e+00 2.168700000000000117e+01 3.798999999999999932e+00 2.868428483202971682e-02
6.366999999999999993e+00 2.587099999999999866e+01 4.394299999999999784e+01 2.637183727203313288e-01
6.378999999999999559e+00 2.264900000000000091e+01 -4.217999999999999972e+00 -1.277945494254325298e-01
6.386000000000000121e+00 2.324500000000000099e+01 -2.124000000000000110e+00 9.858015031492352309e-02
6.387999999999999901e+00 1.608599999999999852e+01 1.127500000000000036e+01 -2.321372626604665812e-01
6.392000000000000348e+00 6.990999999999999659e+00 3.430000000000000160e+00 -3.634223757261376697e-01
6.405999999999999694e+00 2.049500000000000099e+01 1.680000000000000104e-01 -9.233590363011037749e-02
6.421000000000000263e+00 1.981700000000000017e+01 2.448499999999999943e+01 1.759667344565891620e-02
6.421999999999999709e+00 3.592499999999999716e+01 -2.564999999999999947e+00 6.472297214356080575e-02
6.437000000000000277e+00 1.052399999999999913e+01 2.843599999999999994e+01 -3.824536861680969402e-01
6.437999999999999723e+00 4.287599999999999767e+01 -6.546000000000000263e+00 1.533360560766803826e-01
6.439000000000000057e+00 3.367900000000000205e+01 5.645900000000000318e+01 1.816098564602246224e-02
6.442000000000000171e+00 2.785399999999999920e+01 3.069999999999999929e+01 7.728116203279547514e-02
6.453000000000000291e+00 2.914099999999999824e+01 -4.211000000000000298e+00 7.468117928387663085e-02
6.455000000000000071e+00 2.865599999999999881e+01 2.976300000000000168e+01 1.069279337273243424e-01
6.456000000000000405e+00 3.914200000000000301e+01 -5.639999999999999680e+00 5.555665741034472582e-02
6.471000000000000085e+00 2.318799999999999883e+01 -7.540000000000000036e+00 -2.952234447768643522e-01
6.477000000000000313e+00 3.282900000000000063e+01 5.773499999999999943e+01 -3.629903238736947313e-01
6.493999999999999773e+00 3.066700000000000159e+01 -2.500999999999999890e+00 1.531295656563831931e-01
6.498999999999999666e+00 3.923999999999999932e+00 -1.789999999999999925e-01 -3.090930993562265860e-01
6.501999999999999780e+00 2.009499999999999886e+01 1.464899999999999913e+01 -2.068177221458843140e-01
6.511000000000000121e+00 3.306600000000000250e+01 1.944800000000000040e+01 -2.389001711639467396e-01
6.517000000000000348e+00 3.878600000000000136e+01 4.723700000000000188e+01 -2.274675597815409844e-01
6.517999999999999794e+00 3.396200000000000330e+01 3.751700000000000301e+01 -2.503717198159473578e-01
6.519000000000000128e+00 3.121900000000000119e+01 5.402600000000000335e+01 -1.928380056154464783e-01
6.532000000000000028e+00 2.605399999999999849e+01 3.394299999999999784e+01 2.982220658406181668e-01
6.533999999999999808e+00 3.345499999999999829e+01 8.022000000000000242e+00 6.460687809405704640e-02
6.543000000000000149e+00 2.790500000000000114e+01 -4.860999999999999766e+00 7.501210552643705620e-02
6.556000000000000050e+00 3.005600000000000094e+01 4.501899999999999835e+01 2.373145388916634846e-01
6.559999999999999609e+00 1.750799999999999912e+01 4.424099999999999966e+01 -2.440361302603409333e-01
6.576999999999999957e+00 9.528999999999999915e+00 3.325999999999999801e+01 7.648292822710164862e-02
6.578999999999999737e+00 3.129299999999999926e+01 -1.133000000000000007e+00 -8.126285966177414222e-02
6.584999999999999964e+00 3.235699999999999932e+01 8.576999999999999957e+00 -6.905033006332458867e-02
6.591000000000000192e+00 1.759700000000000131e+01 1.146599999999999930e+01 -8.950850344189296981e-02
6.591999999999999638e+00 2.511799999999999855e+01 1.742699999999999960e+01 3.047367815007953618e-01
6.592999999999999972e+00 3.810099999999999909e+01 4.860600000000000165e+01 2.068009619603342897e-01
6.599999999999999645e+00 2.927199999999999847e+01 -2.811999999999999833e+00 -1.218503781605428105e-01
6.612000000000000099e+00 2.293199999999999861e+01 4.576100000000000279e+01 -4.294963778853939929e-02
6.613999999999999879e+00 3.407999999999999829e+01 3.897599999999999909e+01 -1.442562628111792589e-01
6.642000000000000348e+00 3.430599999999999739e+01 4.269999999999999907e-01 -1.875581434715035412e-01
6.644000000000000128e+00 6.883000000000000007e+00 2.225000000000000089e+00 -3.623005395037914300e-01
6.650000000000000355e+00 1.542800000000000082e+01 -7.706999999999999851e+00 -5.036461233334022132e-03
6.658999999999999808e+00 1.344200000000000017e+01 6.514000000000000234e+00 -2.566271999466989556e-02
6.663999999999999702e+00 2.070700000000000074e+01 3.664099999999999824e+01 7.050844448318860369e-02
6.666999999999999815e+00 2.261899999999999977e+01 7.666000000000000369e+00 2.035755582075491343e-01
6.677999999999999936e+00 3.511699999999999733e+01 1.643999999999999906e+00 -5.378517596735681028e-02
6.682999999999999829e+00 2.546300000000000097e+01 3.007199999999999918e+01 1.534449325233396555e-01
6.689000000000000057e+00 2.500100000000000122e+01 3.456700000000000017e+01 3.393911226951800697e-01
6.695000000000000284e+00 1.032199999999999918e+01 8.291000000000000369e+00 -5.673323406379932043e-02
6.697000000000000064e+00 2.501800000000000068e+01 1.590499999999999936e+01 -4.317177859752723001e-02
6.706000000000000405e+00 1.940700000000000003e+01 4.280100000000000193e+01 6.640767233776259659e-02
6.711999999999999744e+00 3.448599999999999710e+01 1.705300000000000082e+01 -1.609240291079310770e-01
6.724999999999999645e+00 2.678699999999999903e+01 -4.073999999999999844e+00 -1.936557877379963544e-01
6.746999999999999886e+00 1.683399999999999963e+01 -7.307000000000000384e+00 -1.895688474883047148e-01
6.758000000000000007e+00 4.030700000000000216e+01 4.728900000000000148e+01 7.936210563910985061e-02
6.759000000000000341e+00 2.164600000000000080e+01 3.584899999999999665e+01 2.167704949797585601e-01
6.775000000000000355e+00 3.275800000000000267e+01 1.198000000000000043e+01 -1.090629337062721128e-03
6.782000000000000028e+00 1.158200000000000074e+01 3.726400000000000290e+01 2.045200711949378414e-01
6.786999999999999922e+00 3.708800000000000097e+01 2.369999999999999885e-01 3.047440691778590185e-02
6.790000000000000036e+00 2.811599999999999966e+01 -2.039000000000000146e+00 -1.916931839191881870e-01
6.809999999999999609e+00 1.715800000000000125e+01 5.128699999999999903e+01 -8.981196200838202637e-02
6.814000000000000057e+00 8.810999999999999943e+00 3.550999999999999801e+01 -2.650190848165839830e-02
6.834999999999999964e+00 2.688599999999999923e+01 -2.678999999999999826e+00 -1.945721337098437753e-01
6.847000000000000419e+00 2.242699999999999960e+01 1.580000000000000071e+00 1.864815356583954947e-02
6.849999999999999645e+00 2.623300000000000054e+01 5.345600000000000307e+01 -2.352449727310211569e-01
6.884000000000000341e+00 2.296300000000000097e+01 1.043200000000000038e+01 1.941371853034254413e-01
6.899000000000000021e+00 4.248299999999999699e+01 4.909199999999999875e+01 5.357549880341112847e-02
6.900000000000000355e+00 1.433000000000000007e+01 -2.240000000000000213e+00 1.155478468007605786e-01
6.903999999999999915e+00 3.113200000000000145e+01 4.452199999999999847e+01 1.948953171985946461e-02
6.937000000000000277e+00 3.507999999999999829e+01 1.573199999999999932e+01 -1.061113045440659208e-01
6.940000000000000391e+00 1.580799999999999983e+01 3.970100000000000051e+01 2.029174780550759283e-01
6.985999999999999766e+00 1.882999999999999829e+01 2.344600000000000151e+01 2.110848029815892007e-02
6.995000000000000107e+00 1.304400000000000048e+01 5.397999999999999687e+00 2.069087387527796529e-01
6.996999999999999886e+00 1.176800000000000068e+01 2.481299999999999883e+01 -2.519086736529527193e-01
7.009999999999999787e+00 1.590900000000000070e+01 6.110000000000000320e+00 3.197146061824184260e-01
7.014000000000000234e+00 1.534399999999999942e+01 1.244699999999999918e+01 -2.687191239561775857e-01
7.027000000000000135e+00 2.141499999999999915e+01 1.208900000000000041e+01 5.153345820497880203e-02
7.027000000000000135e+00 2.808699999999999974e+01 3.188800000000000168e+01 9.026131136659124032e-02
7.027000000000000135e+00 4.500300000000000011e+01 -1.705000000000000071e+00 -4.841564645084166923e-02
7.041000000000000369e+00 2.590200000000000102e+01 4.631499999999999773e+01 -5.540179522677222967e-02
7.043000000000000149e+00 7.471000000000000085e+00 -2.299999999999999822e+00 -2.121240410739738957e-01
7.065999999999999837e+00 4.085900000000000176e+01 4.590400000000000347e+01 5.824436945020750045e-02
7.070999999999999730e+00 1.809799999999999898e+01 4.785399999999999920e+01 -2.501395878849298482e-01
7.078999999999999737e+00 2.169999999999999929e+01 5.186200000000000188e+01 -1.648210116047948703e-01
7.083000000000000185e+00 1.282799999999999940e+01 5.171900000000000119e+01 -3.613081267682444198e-01
7.100999999999999979e+00 2.235500000000000043e+01 3.068000000000000060e+00 4.509631194494860551e-02
7.163000000000000256e+00 2.235399999999999920e+01 3.053600000000000136e+01 2.459195649285780827e-01
7.166999999999999815e+00 2.454500000000000171e+01 2.689799999999999969e+01 -7.952634153293056118e-02
7.168000000000000149e+00 3.977100000000000080e+01 -3.178999999999999826e+00 -3.048918585105760970e-01
7.168999999999999595e+00 1.333000000000000007e+01 2.985900000000000176e+01 -2.162550674269923534e-01
7.192999999999999616e+00 1.011800000000000033e+01 2.326999999999999957e+00 -6.173121807143670120e-02
7.195999999999999730e+00 2.746099999999999852e+01 5.290200000000000102e+01 -8.888783839931294062e-02
7.198000000000000398e+00 4.863999999999999879e+00 -5.530000000000000471e-01 -1.872940696121450643e-01
7.217999999999999972e+00 3.506099999999999994e+01 4.113400000000000034e+01 -3.267289979969861258e-01
7.245000000000000107e+00 1.474099999999999966e+01 7.065000000000000391e+00 -4.568873556386711388e-02
7.246999999999999886e+00 3.508599999999999852e+01 3.960999999999999943e+01 -3.144825493883154355e-01
7.304999999999999716e+00 1.876800000000000068e+01 2.659199999999999875e+01 -6.442491756433589567e-02
7.312000000000000277e+00 2.028000000000000114e+01 4.668200000000000216e+01 6.876213721311642824e-02
7.352000000000000313e+00 9.292999999999999261e+00 -4.065999999999999837e+00 1.238502319834080267e-01
7.355000000000000426e+00 3.017399999999999949e+01 3.334300000000000352e+01 -3.004248635420313923e-02
7.376999999999999780e+00 3.646300000000000097e+01 1.379000000000000004e+00 -7.597053258986907753e-02
7.381000000000000227e+00 2.921900000000000119e+01 5.555299999999999727e+01 -2.883424920764682264e-01
7.400000000000000355e+00 3.258899999999999864e+01 -1.122999999999999998e+00 -1.092839417469558816e-01
7.413000000000000256e+00 2.946000000000000085e+01 3.469800000000000040e+01 -1.031415541366992039e-01
7.429000000000000270e+00 1.684199999999999875e+01 4.821200000000000330e+01 -3.655674626951281314e-01
7.448000000000000398e+00 3.325500000000000256e+01 2.459999999999999964e-01 -1.126365241914198956e-01
7.448000000000000398e+00 3.984100000000000108e+01 -4.706999999999999851e+00 2.197715263765916832e-02
7.453000000000000291e+00 1.950900000000000034e+01 1.558699999999999974e+01 1.826807879157167358e-01
7.458000000000000185e+00 2.494200000000000017e+01 3.740500000000000114e+01 2.559911359366869726e-02
7.461000000000000298e+00 3.288199999999999790e+01 3.696300000000000097e+01 -8.185320990097270932e-02
7.466999999999999638e+00 2.241300000000000026e+01 1.151099999999999923e+01 2.053398462081107156e-01
7.480999999999999872e+00 4.377799999999999869e+01 -2.254999999999999893e+00 4.891198037675013877e-02
7.482000000000000206e+00 5.046999999999999709e+00 -2.045999999999999819e+00 -2.389785632390889758e-01
7.509999999999999787e+00 2.054299999999999926e+01 -3.760000000000000009e-01 -2.738996109076620791e-02
7.511000000000000121e+00 1.988400000000000034e+01 2.556400000000000006e+01 4.519440920228185582e-02
7.527000000000000135e+00 2.116100000000000136e+01 -7.706000000000000405e+00 6.568816839513753891e-02
7.551999999999999602e+00 5.743999999999999773e+00 1.743000000000000105e+00 -2.500063817843186653e-01
7.565999999999999837e+00 3.146699999999999875e+01 8.362999999999999545e+00 -2.444911153199408153e-03
7.573999999999999844e+00 2.625199999999999889e+01 6.985000000000000320e+00 3.385059300201366250e-01
7.580000000000000071e+00 3.486399999999999721e+01 -7.092999999999999972e+00 2.848320497053744016e-02
7.588000000000000078e+00 1.773300000000000054e+01 3.871699999999999875e+01 3.101254544639134303e-01
7.589000000000000412e+00 2.044000000000000128e+01 3.757900000000000063e+01 -3.769401952001193851e-02
7.605999999999999872e+00 8.851000000000000867e+00 -2.621999999999999886e+00 -2.035771636925015060e-01
7.605999999999999872e+00 2.308099999999999952e+01 -3.975999999999999979e+00 1.263815022504114205e-01
7.612000000000000099e+00 1.923499999999999943e+01 -3.673000000000000043e+00 -3.136876083136956594e-02
7.615999999999999659e+00 2.345499999999999829e+01 -2.645000000000000018e+00 1.387537085196727527e-01
7.647999999999999687e+00 4.192900000000000205e+01 1.070999999999999952e+00 2.190614797368252709e-01
7.671999999999999709e+00 2.948300000000000054e+01 1.331000000000000050e+01 -1.359298596395171477e-01
7.684000000000000163e+00 2.556800000000000139e+01 4.351700000000000301e+01 1.944318201138867802e-02
7.693999999999999950e+00 3.446500000000000341e+01 5.623799999999999955e+01 -3.652352273314128928e-01
7.700999999999999623e+00 2.309400000000000119e+01 5.182999999999999829e+01 -1.437034747391942868e-01
7.714999999999999858e+00 2.516100000000000136e+01 9.103999999999999204e+00 1.450173774212019651e-01
7.719999999999999751e+00 1.892399999999999949e+01 -6.474000000000000199e+00 9.935168003948183224e-02
7.722000000000000419e+00 2.250199999999999889e+01 4.542699999999999960e+01 -2.622709805722849355e-02
7.738000000000000433e+00 5.764000000000000234e+00 2.899999999999999800e-01 -2.888133314648571592e-01
7.738000000000000433e+00 3.208500000000000085e+01 5.780100000000000193e+01 -3.582437061968836156e-01
7.764999999999999680e+00 1.072700000000000031e+01 -4.309000000000000163e+00 -3.317527983007002856e-02
7.766000000000000014e+00 4.193599999999999994e+01 -8.313000000000000611e+00 -4.140281561350002415e-02
7.777000000000000135e+00 4.254299999999999926e+01 -7.141000000000000014e+00 8.421179005797475858e-02
7.782000000000000028e+00 1.502399999999999913e+01 -8.673999999999999488e+00 -1.462710157053195015e-01
7.794999999999999929e+00 1.968900000000000006e+01 -7.812000000000000277e+00 -1.969875930476178150e-01
7.810999999999999943e+00 2.492099999999999937e+01 6.424999999999999822e+00 2.125404143286369618e-01
7.818999999999999950e+00 1.741700000000000159e+01 -6.732000000000000206e+00 1.007770889703568928e-01
7.820000000000000284e+00 3.282600000000000051e+01 1.947400000000000020e+01 -1.102400770609444081e-01
7.823000000000000398e+00 2.338500000000000156e+01 -7.647999999999999687e+00 -2.880015104446723706e-01
7.831000000000000405e+00 3.599399999999999977e+01 3.901899999999999835e+01 -1.516485238063964569e-01
7.833999999999999631e+00 1.399399999999999977e+01 5.225300000000000011e+01 -3.588042468969263599e-01
7.841000000000000192e+00 2.926999999999999957e+01 3.216599999999999682e+01 3.061697406801951460e-01
7.857000000000000206e+00 3.118299999999999983e+01 2.192599999999999838e+01 -1.034927727290407412e-01
7.871999999999999886e+00 1.666499999999999915e+01 3.926800000000000068e+01 4.677135449294512332e-02
7.884999999999999787e+00 6.421000000000000263e+00 -2.365000000000000213e+00 -2.090552445063306453e-01
7.911999999999999922e+00 4.168800000000000239e+01 -3.449999999999999734e-01 3.521637436159887058e-02
7.953000000000000291e+00 1.740899999999999892e+01 4.425200000000000244e+01 -1.985596044195965804e-01
7.955000000000000071e+00 3.562400000000000233e+01 5.694500000000000028e+01 -3.625300512306576239e-01
7.958999999999999631e+00 2.758299999999999841e+01 1.768000000000000016e+00 1.569917365856985519e-02
7.959999999999999964e+00 2.618299999999999983e+01 8.465999999999999304e+00 3.603040289217807751e-03
7.959999999999999964e+00 3.190500000000000114e+01 1.673699999999999832e+01 -2.266441625351223177e-01
7.982999999999999652e+00 2.951200000000000045e+01 1.051900000000000013e+01 -1.238502806413797064e-01
7.987000000000000099e+00 3.454599999999999937e+01 -4.751000000000000334e+00 1.167585745453971480e-01
7.996999999999999886e+00 3.781099999999999994e+01 4.910000000000000142e+01 -4.369689426270027127e-02
8.006000000000000227e+00 1.508200000000000074e+01 9.529999999999999583e-01 3.444896926970140716e-01
8.015000000000000568e+00 1.092800000000000082e+01 3.213000000000000078e+00 -4.097606261026742747e-02
8.022999999999999687e+00 1.910000000000000142e+01 4.736500000000000199e+01 6.823616893339781719e-02
8.025999999999999801e+00 9.637000000000000455e+00 3.315400000000000347e+01 8.678913019687514718e-02
8.035999999999999588e+00 8.416000000000000369e+00 -4.961000000000000298e+00 -2.005289506620797080e-01
8.037000000000000810e+00 1.777599999999999980e+01 2.661599999999999966e+01 -2.163809841258883954e-02
8.066000000000000725e+00 2.461799999999999855e+01 3.507699999999999818e+01 3.695678956200896259e-01
8.071999999999999176e+00 2.640299999999999869e+01 4.701500000000000057e+01 -4.031343665788835601e-02
8.087999999999999190e+00 1.156300000000000061e+01 3.196199999999999974e+01 -3.054787062770866202e-01
8.089000000000000412e+00 3.943599999999999994e+01 -1.849999999999999978e-01 -3.916336996613455079e-02
8.101000000000000867e+00 1.931800000000000139e+01 4.282800000000000296e+01 -8.779596061941315199e-02
8.103999999999999204e+00 4.046600000000000108e+01 -8.619999999999999885e-01 -1.764786514477360568e-01
8.143000000000000682e+00 2.060399999999999920e+01 5.203600000000000136e+01 -3.053139843139566767e-01
