1.210699999999999932e+01 1.110200000000000031e+01 3.932999999999999829e+00 1.684641640168168808e-01
1.210899999999999999e+01 7.676999999999999602e+00 4.417900000000000205e+01 1.377044179998752060e-01
1.211299999999999955e+01 -3.722999999999999865e+00 3.037300000000000111e+01 2.357202493712649560e-01
1.212400000000000055e+01 4.149399999999999977e+01 3.595100000000000051e+01 2.057496966991344267e-01
1.212500000000000000e+01 1.676500000000000057e+01 1.471400000000000041e+01 -1.014564152561277799e-01
1.213499999999999979e+01 4.294200000000000017e+01 3.535699999999999932e+01 1.982104565878833047e-01
1.213700000000000045e+01 2.615299999999999869e+01 4.716199999999999903e+01 9.055371801765117745e-02
1.214300000000000068e+01 -8.842999999999999972e+00 -4.589999999999999858e+00 -2.738418062463749414e-01
1.214899999999999913e+01 3.282500000000000284e+01 2.931400000000000006e+01 3.662361457880038834e-02
1.215099999999999980e+01 1.461700000000000088e+01 4.112299999999999756e+01 1.345242178217109230e-01
1.215600000000000058e+01 5.318999999999999950e+00 1.475900000000000034e+01 -7.357280097910555428e-02
1.215700000000000003e+01 3.777600000000000335e+01 4.661800000000000210e+01 2.121415866299321829e-01
1.216699999999999982e+01 3.029999999999999805e+00 -6.286999999999999922e+00 2.772820874217997097e-02
1.216799999999999926e+01 2.289699999999999847e+01 2.911499999999999844e+01 -6.999999999999999278e-02
1.219100000000000072e+01 -5.314000000000000057e+00 1.521599999999999930e+01 -1.328482981636954219e-01
1.219100000000000072e+01 2.107100000000000151e+01 3.484100000000000108e+01 -1.349410443081503208e-01
1.219400000000000084e+01 -6.035000000000000142e+00 5.296000000000000263e+00 6.373710558631713596e-02
1.219699999999999918e+01 3.196600000000000108e+01 4.843900000000000006e+01 9.938396055772708015e-02
1.219999999999999929e+01 2.484400000000000119e+01 3.548000000000000043e+00 -2.132438442233767495e-01
1.221299999999999919e+01 3.314300000000000068e+01 3.772500000000000142e+01 -4.487768244766107001e-02
1.221299999999999919e+01 5.749099999999999966e+01 3.937800000000000011e+01 -1.668629078923168363e-01
1.221499999999999986e+01 1.769999999999999907e-01 3.745600000000000307e+01 -4.204806945840222632e-01
1.221799999999999997e+01 1.276999999999999913e+00 -4.621000000000000441e+00 7.969850484995705253e-02
1.224600000000000044e+01 6.386000000000000121e+00 5.127499999999999858e+01 3.386052129882240885e-02
1.225200000000000067e+01 7.519000000000000128e+00 -5.501000000000000334e+00 -4.675585249738957450e-02
1.225500000000000078e+01 3.288300000000000267e+01 3.639800000000000324e+01 4.024450913710535954e-02
1.226399999999999935e+01 -7.788000000000000256e+00 3.268999999999999773e+01 -5.179849460158159058e-02
1.226999999999999957e+01 4.772599999999999909e+01 2.204100000000000037e+01 6.516023116079612543e-02
1.227599999999999980e+01 -1.405100000000000016e+01 1.603099999999999881e+01 -1.334193529284025126e-01
1.228100000000000058e+01 3.375000000000000000e+00 2.420299999999999940e+01 5.312479716478239050e-02
1.228800000000000026e+01 5.284899999999999665e+01 3.685600000000000165e+01 5.010531521743313843e-03
1.229100000000000037e+01 1.266000000000000014e+00 1.829299999999999926e+01 -1.349447032725431261e-01
1.231400000000000006e+01 4.325999999999999623e+00 4.752799999999999869e+01 6.798011994352329279e-02
1.231400000000000006e+01 1.899899999999999878e+01 -4.285999999999999588e+00 1.223494062073049032e-01
1.231499999999999950e+01 1.163899999999999935e+01 2.137800000000000011e+01 -2.093255096738332877e-01
1.232399999999999984e+01 6.876999999999999780e+00 4.389000000000000234e+00 1.157372491253400443e-01
1.232799999999999940e+01 1.224600000000000044e+01 1.059299999999999997e+01 -9.191196097348693084e-02
1.234500000000000064e+01 2.747100000000000009e+01 2.482199999999999918e+01 -2.419192070064080102e-01
1.234699999999999953e+01 1.162700000000000067e+01 5.078600000000000136e+01 2.121266637475976713e-01
1.234999999999999964e+01 5.527900000000000347e+01 2.701300000000000168e+01 9.736736408813918831e-02
1.235299999999999976e+01 2.535800000000000054e+01 3.946600000000000108e+01 -1.036131366823399985e-01
1.237199999999999989e+01 5.015699999999999648e+01 2.817800000000000082e+01 -2.987324673036933498e-01
1.237599999999999945e+01 4.938100000000000023e+01 3.513400000000000034e+01 -4.315539849663176108e-02
1.237800000000000011e+01 3.177899999999999991e+01 2.990299999999999869e+01 -1.028371473700233907e-01
1.238100000000000023e+01 -1.544999999999999929e+00 2.574699999999999989e+01 2.661762009350931435e-01
1.239499999999999957e+01 -1.136500000000000021e+01 1.937300000000000111e+01 3.825969452311743235e-01
1.239799999999999969e+01 1.457099999999999973e+01 3.793399999999999750e+01 -2.058273154971716479e-01
1.239899999999999913e+01 1.477200000000000024e+01 -7.030000000000000249e+00 -1.261957174435074380e-01
1.240300000000000047e+01 1.439600000000000080e+01 7.123999999999999666e+00 -9.051276995078380572e-02
1.240900000000000070e+01 -3.254000000000000004e+00 3.522999999999999687e+01 1.951558344149184956e-02
1.241999999999999993e+01 1.173000000000000043e+01 5.229399999999999693e+01 2.317081228171940510e-01
1.242800000000000082e+01 8.005000000000000782e+00 3.781199999999999761e+01 -8.756436910442910726e-02
1.242900000000000027e+01 7.708000000000000185e+00 1.469500000000000028e+01 -7.326699656378102277e-02
1.243099999999999916e+01 8.289999999999999147e+00 2.999999999999999889e-01 9.114242121052499451e-03
1.244699999999999918e+01 3.910000000000000142e+00 1.505799999999999983e+01 -1.568431952333432799e-01
1.244800000000000040e+01 2.140800000000000125e+01 2.943100000000000094e+01 -5.916343285144235603e-02
1.246000000000000085e+01 4.421600000000000108e+01 1.134099999999999930e+01 1.882778129012677160e-01
1.246100000000000030e+01 5.237000000000000099e+00 -1.402200000000000024e+01 -1.704064047605548804e-01
1.246400000000000041e+01 4.283999999999999808e+00 4.598199999999999932e+01 -1.972048170289731339e-01
1.246700000000000053e+01 4.166799999999999926e+01 1.543599999999999994e+01 -3.008724385650025576e-02
1.246799999999999997e+01 -5.081000000000000405e+00 2.134700000000000131e+01 8.007781581346669342e-02
1.246899999999999942e+01 2.035000000000000142e+00 -1.067800000000000082e+01 3.885819988728070329e-01
1.247700000000000031e+01 3.255700000000000216e+01 2.403200000000000003e+01 6.075569115911887141e-03
1.247799999999999976e+01 1.604500000000000171e+01 5.060199999999999676e+01 -6.028435793882857413e-03
1.248000000000000043e+01 1.512700000000000067e+01 4.936999999999999744e+01 4.340178382548788294e-01
1.248099999999999987e+01 4.272999999999999687e+00 1.081099999999999994e+01 1.228691711885218814e-02
1.248300000000000054e+01 2.564099999999999824e+01 2.604599999999999937e+01 -2.535997936986571499e-01
1.248700000000000010e+01 1.983299999999999841e+01 3.698400000000000176e+01 -2.783458802956136902e-01
1.249300000000000033e+01 -2.508999999999999897e+00 -1.024799999999999933e+01 2.468605728869338878e-01
1.251800000000000068e+01 3.991000000000000103e+00 1.216699999999999982e+01 -1.855301789884536978e-01
1.251800000000000068e+01 2.187000000000000099e+01 -7.449999999999999956e-01 -2.093972030408358942e-01
1.252200000000000024e+01 -1.329599999999999937e+01 3.952999999999999847e+00 2.121588671273162974e-01
1.252399999999999913e+01 -9.451999999999999957e+00 2.101999999999999869e+00 1.623034313193623956e-01
1.252699999999999925e+01 2.378000000000000114e+01 3.167399999999999949e+01 -1.568353616854482047e-01
1.253599999999999959e+01 4.814300000000000068e+01 3.291499999999999915e+01 2.864070683659097893e-01
1.254100000000000037e+01 3.443000000000000060e+00 3.957600000000000051e+01 -3.683300600660038282e-01
1.254499999999999993e+01 8.798000000000000043e+00 -1.191200000000000081e+01 -1.875727297952637651e-01
1.254899999999999949e+01 6.530999999999999694e+00 1.700199999999999889e+01 -5.916347094102127752e-02
1.255499999999999972e+01 9.369999999999999218e+00 4.982200000000000273e+01 -1.324366709190377966e-01
1.255899999999999928e+01 1.289100000000000001e+01 2.334000000000000075e+00 -7.992596292435052985e-02
1.255899999999999928e+01 4.053099999999999881e+01 1.455799999999999983e+01 -2.848192154967806207e-03
1.256199999999999939e+01 1.615599999999999881e+01 1.204899999999999949e+01 -8.256193256628885369e-02
1.257199999999999918e+01 1.030199999999999960e+01 1.223300000000000054e+01 -2.530098121609604123e-01
1.257199999999999918e+01 3.083899999999999864e+01 3.500300000000000011e+01 1.307975957529438904e-01
1.257799999999999940e+01 -1.412400000000000055e+01 3.402700000000000102e+01 -5.534291588697152348e-02
1.258200000000000074e+01 -6.578000000000000291e+00 -7.258000000000000007e+00 -1.164941072834455305e-01
1.258799999999999919e+01 3.320199999999999818e+01 9.550000000000000711e+00 5.340387439380138435e-02
1.258999999999999986e+01 1.250099999999999945e+01 3.620999999999999996e+00 1.229061572472876646e-01
1.259399999999999942e+01 1.416900000000000048e+01 4.244800000000000040e+01 8.346882049862139330e-02
1.259800000000000075e+01 -1.699999999999999956e+00 1.449799999999999933e+01 -1.133530151509772599e-01
1.260100000000000087e+01 4.182900000000000063e+01 1.110399999999999920e+01 -6.883356576739191324e-02
1.260800000000000054e+01 1.505400000000000027e+01 1.681599999999999895e+01 -1.995842208202221191e-01
1.260800000000000054e+01 5.150500000000000256e+01 2.398799999999999955e+01 -3.119623863937277530e-01
1.261100000000000065e+01 3.889900000000000091e+01 4.252700000000000102e+01 1.623003630077574366e-01
1.263400000000000034e+01 -6.229999999999999982e-01 8.707000000000000739e+00 1.307654827061114911e-01
1.263400000000000034e+01 5.533000000000000362e+00 1.000600000000000023e+01 3.438545349115507133e-02
1.263799999999999990e+01 5.284899999999999665e+01 3.813300000000000267e+01 5.738596574740789658e-02
1.263799999999999990e+01 5.866599999999999682e+01 3.856900000000000261e+01 -1.755318045752026213e-01
1.264100000000000001e+01 4.088000000000000256e+01 4.161099999999999710e+01 -7.496521418002811965e-02
1.264400000000000013e+01 3.955899999999999750e+01 1.153299999999999947e+01 -1.390212615396918816e-01
1.265099999999999980e+01 2.696000000000000174e+00 2.628800000000000026e+01 4.715370333664482133e-02
1.266000000000000014e+01 -1.284999999999999920e+00 2.329899999999999949e+01 1.878340932239269123e-01
1.266799999999999926e+01 -1.505100000000000016e+01 3.283800000000000097e+01 -3.213406207600360415e-02
1.267099999999999937e+01 1.617899999999999849e+01 2.519999999999999929e+01 -2.093402720384016646e-01
1.267399999999999949e+01 4.984199999999999875e+01 2.677299999999999969e+01 -6.092875697237680466e-02
1.267500000000000071e+01 4.849799999999999756e+01 3.732699999999999818e+01 -1.654312783642676865e-01
1.268800000000000061e+01 4.985799999999999699e+01 3.805100000000000193e+01 -1.262930935609325456e-01
1.268900000000000006e+01 1.566600000000000037e+01 1.447499999999999964e+01 -1.073048379567713290e-01
1.269200000000000017e+01 -6.897000000000000242e+00 -1.031499999999999950e+01 -1.118274536608432762e-01
1.269299999999999962e+01 -7.820999999999999730e+00 -1.150699999999999967e+01 -1.169811035130638305e-01
1.269500000000000028e+01 -3.298000000000000043e+00 1.735399999999999920e+01 -1.465956812293483791e-01
1.271000000000000085e+01 7.009000000000000341e+00 4.912700000000000244e+01 -9.186089289820679321e-03
1.272199999999999953e+01 2.660500000000000043e+01 3.108699999999999974e+01 -1.855223513916860467e-01
1.272499999999999964e+01 -8.907999999999999474e+00 -2.000000000000000042e-03 -7.495979643361071199e-02
1.273199999999999932e+01 1.057300000000000040e+01 5.187000000000000277e+00 -3.001867033681862584e-02
1.273300000000000054e+01 -1.664900000000000091e+01 1.867500000000000071e+01 -7.816146983622620364e-03
1.273399999999999999e+01 1.580300000000000082e+01 6.559000000000000163e+00 -4.399297441585482693e-02
1.275900000000000034e+01 4.771900000000000119e+01 2.440399999999999991e+01 -9.862098498125312918e-02
1.276099999999999923e+01 6.133000000000000007e+00 3.657699999999999818e+01 -1.309448533350686394e-01
1.277200000000000024e+01 5.508100000000000307e+01 2.816400000000000148e+01 5.867875840267720855e-02
1.280100000000000016e+01 1.086700000000000088e+01 1.097499999999999964e+01 -2.185401872995380024e-01
1.280700000000000038e+01 4.264000000000000234e+00 4.639999999999999680e+00 6.226826825472124571e-02
1.280700000000000038e+01 1.429499999999999993e+01 1.959000000000000075e+00 -5.404147653959306963e-02
1.282000000000000028e+01 3.702100000000000080e+01 1.939199999999999946e+01 8.599797804431928705e-02
1.282900000000000063e+01 -3.737999999999999989e+00 -1.216000000000000014e+01 2.387380234910036481e-01
1.283399999999999963e+01 3.969800000000000040e+01 3.057300000000000040e+01 2.019751380892273462e-01
1.283999999999999986e+01 4.948700000000000188e+01 3.366400000000000148e+01 2.693209999424560075e-01
1.284500000000000064e+01 3.876200000000000045e+01 4.576599999999999824e+01 1.386051270400575075e-01
1.284999999999999964e+01 -6.020999999999999908e+00 2.657000000000000028e+01 -3.447853639848765667e-02
1.285500000000000043e+01 1.473900000000000077e+01 1.542300000000000004e+01 -2.005678322980107287e-01
1.285899999999999999e+01 4.056199999999999761e+01 3.506300000000000239e+01 2.956780911511650012e-01
1.285899999999999999e+01 4.544800000000000040e+01 3.037900000000000134e+01 2.046277660570063883e-01
1.286299999999999955e+01 2.344999999999999929e+01 2.788700000000000045e+01 -7.326698193605503395e-02
1.286400000000000077e+01 1.439999999999999891e-01 1.918599999999999994e+01 -1.537437858372110999e-01
1.286400000000000077e+01 6.474999999999999645e+00 -1.435100000000000087e+01 -2.036072929176467594e-01
1.287100000000000044e+01 -4.634999999999999787e+00 3.575999999999999801e+01 -2.227561141075883044e-01
1.287199999999999989e+01 2.373499999999999943e+01 2.011899999999999977e+01 -9.825620846628993488e-02
1.288000000000000078e+01 3.502199999999999847e+01 2.846600000000000108e+01 1.053648478474102923e-01
1.288000000000000078e+01 3.552300000000000324e+01 4.262899999999999778e+01 -3.838647640209323642e-02
1.288499999999999979e+01 3.221000000000000085e+00 -1.675999999999999934e+00 1.733144123457158736e-01
1.289100000000000001e+01 2.740000000000000213e+00 4.341999999999999638e+00 -4.353299131802723654e-02
1.289300000000000068e+01 2.061899999999999977e+01 3.795700000000000074e+01 -2.217261389577076525e-01
1.289600000000000080e+01 1.325999999999999979e+01 4.552999999999999936e+00 9.941710283131118681e-03
1.290199999999999925e+01 2.788200000000000145e+01 3.057900000000000063e+01 1.228040334150103108e-02
1.290300000000000047e+01 2.150100000000000122e+01 2.107900000000000063e+01 -2.005648292645552944e-01
1.290799999999999947e+01 3.512599999999999767e+01 3.975900000000000034e+01 6.371758938679988882e-02
1.291699999999999982e+01 7.360999999999999766e+00 3.675399999999999778e+01 -1.600283935128961610e-01
1.291799999999999926e+01 -3.736000000000000210e+00 6.950999999999999623e+00 -4.491159773185384591e-02
1.291799999999999926e+01 2.845599999999999952e+01 2.919000000000000128e+01 3.438869742542528807e-02
1.291900000000000048e+01 1.875700000000000145e+01 3.677199999999999847e+01 9.519914250335879957e-02
1.292099999999999937e+01 2.814000000000000057e+01 1.529899999999999949e+01 -8.192131668480774620e-02
1.293900000000000006e+01 6.365999999999999659e+00 3.463999999999999968e+00 1.341778694968190910e-01
1.293900000000000006e+01 1.291099999999999959e+01 5.023799999999999955e+01 2.202174511435908977e-01
1.294599999999999973e+01 5.283000000000000362e+00 1.992899999999999849e+01 -5.622399811489067062e-02
1.294800000000000040e+01 2.379599999999999937e+01 3.026599999999999824e+01 -7.357332109561008637e-02
1.295299999999999940e+01 -1.317399999999999949e+01 1.387599999999999945e+01 3.862435793934341222e-01
1.295400000000000063e+01 3.816499999999999915e+01 3.046699999999999875e+01 2.314497952863106833e-01
1.295599999999999952e+01 -5.184000000000000163e+00 2.367399999999999949e+01 3.938187664497101448e-01
1.296199999999999974e+01 3.453300000000000125e+01 3.092399999999999949e+01 -4.354695565020692827e-02
1.296700000000000053e+01 6.551999999999999602e+00 1.551200000000000045e+01 -6.999999999999999278e-02
1.296700000000000053e+01 4.724900000000000233e+01 2.298000000000000043e+01 -2.441605431285028271e-01
1.297499999999999964e+01 -7.939000000000000057e+00 -6.599999999999999645e+00 -3.948765492997264870e-01
1.297499999999999964e+01 1.434099999999999930e+01 4.329999999999999960e-01 -7.184826707695009251e-02
1.297499999999999964e+01 2.693299999999999983e+01 1.604200000000000159e+01 -1.172305260651963082e-01
1.297600000000000087e+01 -2.383999999999999897e+00 6.972000000000000419e+00 4.023161764981310340e-02
1.297799999999999976e+01 4.046300000000000097e+01 2.827199999999999847e+01 2.414454489649441038e-01
1.298000000000000043e+01 5.595100000000000051e+01 2.619600000000000151e+01 8.578975646366997221e-02
1.298799999999999955e+01 2.815899999999999892e+01 1.389799999999999969e+01 7.937978198122315476e-02
1.299300000000000033e+01 2.950700000000000145e+01 1.313499999999999979e+01 2.831365416267367374e-01
1.300699999999999967e+01 3.247299999999999898e+01 1.371400000000000041e+01 -2.102709841118622358e-01
1.300999999999999979e+01 5.021600000000000108e+01 2.403600000000000136e+01 -1.419175622164920436e-01
1.302100000000000080e+01 3.079599999999999937e+01 6.472999999999999865e+00 -2.692882051438916235e-02
1.302599999999999980e+01 -1.235500000000000043e+01 2.155499999999999972e+01 8.428123815428259502e-02
1.304700000000000060e+01 2.005999999999999872e+01 2.103399999999999892e+01 -1.995884157041892815e-01
1.305400000000000027e+01 3.856799999999999784e+01 1.905799999999999983e+01 1.911766265619671834e-01
1.305700000000000038e+01 3.711999999999999744e+01 4.772200000000000131e+01 -1.207177492623133092e-01
1.306000000000000050e+01 4.719500000000000028e+01 3.949499999999999744e+01 -3.948779356742557756e-01
1.306499999999999950e+01 2.655699999999999861e+01 2.411199999999999832e+01 -2.185350949120004049e-01
1.306600000000000072e+01 3.586399999999999721e+01 2.613700000000000045e+01 -8.752213387940423195e-02
1.306700000000000017e+01 -1.024699999999999989e+01 1.415900000000000070e+01 3.231487379245092106e-01
1.307399999999999984e+01 -2.411999999999999922e+00 -8.449999999999999734e-01 2.956777252990607785e-01
1.309299999999999997e+01 -2.031000000000000139e+00 2.454200000000000159e+01 8.094615671047068750e-02
1.309399999999999942e+01 2.139399999999999835e+01 5.134100000000000108e+01 2.578034380578267948e-01
1.309600000000000009e+01 -1.211999999999999966e+00 3.397999999999999687e+01 -8.710358039358979954e-02
1.310100000000000087e+01 3.823400000000000176e+01 1.328599999999999959e+01 -4.910981060792617148e-02
1.310500000000000043e+01 4.285399999999999920e+01 1.157499999999999929e+01 1.661506521095563460e-01
1.310699999999999932e+01 2.001399999999999935e+01 5.182000000000000028e+01 2.032347802280698446e-01
1.311899999999999977e+01 1.045299999999999940e+01 5.036699999999999733e+01 5.332162362988278337e-02
1.312599999999999945e+01 4.867099999999999937e+01 3.593999999999999773e+01 1.453239505078526492e-02
1.313299999999999912e+01 2.573799999999999955e+01 1.531600000000000072e+01 -1.178414792407532774e-01
1.313299999999999912e+01 3.396000000000000085e+01 2.948900000000000077e+01 6.225833212611903145e-02
1.313599999999999923e+01 2.243900000000000006e+01 -2.045999999999999819e+00 2.957733711318284373e-02
1.313700000000000045e+01 9.090999999999999304e+00 1.226099999999999923e+01 -2.535950616787194245e-01
1.313700000000000045e+01 2.540800000000000125e+01 2.490399999999999991e+01 -2.530062256822942501e-01
1.313899999999999935e+01 2.124200000000000088e+01 -3.048999999999999932e+00 2.127763142226224979e-01
1.313899999999999935e+01 2.476999999999999957e+01 3.249300000000000210e+01 -5.903815134458938185e-02
1.314100000000000001e+01 1.527699999999999925e+01 1.306900000000000084e+01 -9.825927437676978959e-02
1.315199999999999925e+01 -5.145999999999999908e+00 4.961999999999999744e+00 5.551791808724790625e-03
1.315300000000000047e+01 -3.067000000000000171e+00 1.501600000000000001e+01 -3.324509881573515235e-01
1.315499999999999936e+01 -2.375999999999999890e+00 1.027800000000000047e+01 -2.295521271305898114e-01
1.316099999999999959e+01 2.826000000000000156e+01 4.410900000000000176e+01 2.352738802415344638e-02
1.316200000000000081e+01 -9.445000000000000284e+00 1.112999999999999989e+00 2.099990574466015225e-02
1.316200000000000081e+01 2.736100000000000065e+01 4.283500000000000085e+01 -1.420720710509463525e-01
1.316399999999999970e+01 2.742699999999999960e+01 4.534400000000000119e+01 1.399883577541152779e-01
1.316900000000000048e+01 2.616700000000000159e+01 3.225600000000000023e+01 -7.326715724800483831e-02
1.317200000000000060e+01 2.790399999999999991e+01 4.171099999999999852e+01 -1.196547046591549257e-01
1.318299999999999983e+01 5.093699999999999761e+01 3.037600000000000122e+01 3.079091532749330118e-01
1.319200000000000017e+01 2.603600000000000136e+01 4.296800000000000352e+01 -7.883510392375325804e-02
1.319800000000000040e+01 4.261999999999999567e+00 -1.409900000000000020e+01 -1.476702224363853934e-02
1.320100000000000051e+01 1.859400000000000119e+01 3.157700000000000173e+01 -5.434563051191261540e-02
1.320899999999999963e+01 2.455699999999999861e+01 1.598399999999999999e+01 -1.213213247532664435e-01
1.321299999999999919e+01 3.092800000000000082e+01 4.895700000000000074e+01 1.437407087172791198e-01
1.321400000000000041e+01 2.533999999999999808e+00 7.019999999999999574e-01 2.314521477856199549e-01
1.321700000000000053e+01 3.821000000000000174e+00 4.823199999999999932e+01 -9.944439035080770983e-02
1.321899999999999942e+01 2.694900000000000162e+01 1.320199999999999996e+01 7.691832990878501308e-02
1.322100000000000009e+01 2.571300000000000097e+01 1.391300000000000026e+01 2.011348015479332008e-02
1.322400000000000020e+01 2.225199999999999889e+01 2.002100000000000080e+01 -1.073000827895890935e-01
1.323000000000000043e+01 5.057999999999999829e+00 3.443999999999999950e+00 1.053892550438048775e-01
1.323900000000000077e+01 1.920899999999999963e+01 1.151600000000000001e+01 -1.213201513353582561e-01
1.324699999999999989e+01 1.993499999999999872e+01 4.034700000000000131e+01 1.502916464582179923e-01
1.325000000000000000e+01 -4.673000000000000043e+00 2.256800000000000139e+01 1.365607898271950504e-01
1.326500000000000057e+01 4.440800000000000125e+01 3.125799999999999912e+01 2.042053687975852738e-01
1.326600000000000001e+01 3.474499999999999744e+01 2.721300000000000097e+01 1.341635311820301713e-01
1.326600000000000001e+01 4.243500000000000227e+01 1.804100000000000037e+01 1.185758370940158263e-01
1.327599999999999980e+01 3.191000000000000014e+01 3.588300000000000267e+01 1.195634866968708493e-01
1.327800000000000047e+01 2.517099999999999937e+01 4.169100000000000250e+01 -1.216658752413947095e-02
1.329299999999999926e+01 1.506300000000000061e+01 -5.836000000000000298e+00 7.114221130487820288e-02
1.329499999999999993e+01 -7.977000000000000313e+00 2.178200000000000003e+01 3.593067520356935662e-01
1.329499999999999993e+01 -5.815999999999999837e+00 1.545599999999999952e+01 -1.458679603022040860e-01
1.329599999999999937e+01 9.356999999999999318e+00 4.164699999999999847e+01 2.052583367973206951e-01
1.330300000000000082e+01 6.570000000000000284e-01 -5.312000000000000277e+00 2.042077769128353704e-01
1.330700000000000038e+01 2.484999999999999876e+00 -6.932999999999999829e+00 3.719465340747227788e-01
1.331499999999999950e+01 -5.464999999999999858e+00 3.465800000000000125e+01 -1.114998848917117397e-01
1.331900000000000084e+01 7.203999999999999737e+00 2.197999999999999954e+00 -8.750789886725603151e-02
1.331900000000000084e+01 2.415899999999999892e+01 4.553399999999999892e+01 2.982641965799577750e-03
1.333000000000000007e+01 8.271000000000000796e+00 -5.798000000000000043e+00 -2.628701181221840266e-01
1.333300000000000018e+01 6.751000000000000334e+00 2.727299999999999969e+01 -1.007447707181058638e-01
1.334099999999999930e+01 -4.713000000000000078e+00 -8.669999999999999929e+00 1.451768049179328127e-02
1.334500000000000064e+01 1.301099999999999923e+01 3.356199999999999761e+01 3.595734662203706189e-01
1.335599999999999987e+01 4.193999999999999950e+00 6.918999999999999595e+00 -1.028310726233808009e-01
1.335699999999999932e+01 -3.924999999999999822e+00 3.079799999999999827e+01 2.577428540017599468e-01
1.336400000000000077e+01 -5.862000000000000099e+00 2.028699999999999903e+01 6.603028560495222132e-02
1.339300000000000068e+01 -4.777000000000000135e+00 3.807999999999999829e+00 1.530979584609111765e-01
1.339300000000000068e+01 7.615000000000000213e+00 2.488599999999999923e+01 -1.763011062862118727e-01
1.339300000000000068e+01 3.989800000000000324e+01 4.622399999999999665e+01 1.220800172582406917e-01
1.339400000000000013e+01 4.758000000000000007e+00 1.869500000000000028e+01 -5.816785001163481128e-02
1.339700000000000024e+01 1.529400000000000048e+01 4.313499999999999801e+01 8.559610841710561802e-02
1.339700000000000024e+01 4.020900000000000318e+01 4.752799999999999869e+01 -1.047316765201081745e-01
1.341399999999999970e+01 3.877400000000000091e+01 1.209200000000000053e+01 -1.635596659624869997e-01
1.341900000000000048e+01 -1.083799999999999919e+01 9.717000000000000526e+00 3.036959151427197634e-01
1.343099999999999916e+01 8.973000000000000753e+00 3.131899999999999906e+01 -8.076964119938247200e-02
1.343099999999999916e+01 2.366100000000000136e+01 4.199000000000000199e+01 -2.280883261302760201e-01
1.343800000000000061e+01 2.145000000000000018e+00 -7.730000000000000204e-01 2.019684298523593269e-01
1.344500000000000028e+01 2.559600000000000009e+01 4.728600000000000136e+01 1.656386060291556439e-01
1.344800000000000040e+01 1.657000000000000028e+01 2.395400000000000063e+01 -1.086537359039483064e-01
1.346499999999999986e+01 1.964499999999999957e+01 1.024900000000000055e+01 -1.178458767302769522e-01
1.347100000000000009e+01 -7.227000000000000313e+00 3.255100000000000193e+01 1.334262806012394276e-01
1.348499999999999943e+01 8.163999999999999702e+00 4.953399999999999892e+01 -2.033594380581732752e-01
1.349000000000000021e+01 3.205499999999999972e+01 6.283000000000000362e+00 5.309264106460395011e-02
1.350099999999999945e+01 2.103300000000000125e+01 1.002200000000000024e+01 2.011792167075988208e-02
1.352200000000000024e+01 9.951999999999999957e+00 1.026699999999999946e+01 -2.419301261071745979e-01
1.353200000000000003e+01 6.363999999999999879e+00 4.601800000000000068e+01 1.365041298937191283e-01
1.354400000000000048e+01 4.566799999999999926e+01 2.918400000000000105e+01 3.719507856087484465e-01
1.354499999999999993e+01 -3.040000000000000036e+00 1.646600000000000108e+01 -1.035038842402750542e-01
1.354499999999999993e+01 4.034799999999999898e+01 2.941100000000000136e+01 1.733473600641540213e-01
1.355799999999999983e+01 -1.330000000000000071e+00 9.657000000000000028e+00 1.111059098203157208e-01
1.356000000000000050e+01 4.275000000000000355e+00 -1.935000000000000053e+00 2.414224212263070546e-01
1.357099999999999973e+01 -5.540000000000000480e-01 1.445700000000000074e+01 1.635657635093103190e-01
1.357399999999999984e+01 1.673999999999999844e+01 5.080199999999999960e+01 4.357733984206773603e-01
1.358000000000000007e+01 1.782000000000000028e+00 -1.175600000000000023e+01 6.773442835782580995e-02
1.358099999999999952e+01 3.202300000000000324e+01 3.993099999999999739e+01 1.113927187919846740e-01
1.358200000000000074e+01 -2.350999999999999979e+00 3.483700000000000330e+01 1.169888811679788143e-02
1.360500000000000043e+01 2.453300000000000125e+01 1.913200000000000145e+01 -8.255982611689960393e-02
1.361100000000000065e+01 4.756600000000000250e+01 3.808200000000000074e+01 -1.164840815725110834e-01
1.361500000000000021e+01 1.193900000000000006e+01 2.210600000000000165e+01 -4.086978299211424526e-01
1.361800000000000033e+01 3.624399999999999977e+01 4.034400000000000119e+01 1.573932685399440923e-01
1.362299999999999933e+01 -8.271000000000000796e+00 9.492000000000000881e+00 3.220228906494401189e-01
1.362299999999999933e+01 4.339999999999999858e+00 3.923499999999999943e+01 -3.615018930218595328e-01
1.362599999999999945e+01 -1.170700000000000074e+01 1.883200000000000074e+01 5.424440526479168412e-02
1.362599999999999945e+01 -4.105000000000000426e+00 3.200200000000000244e+01 8.692642552819850044e-02
1.363299999999999912e+01 3.228099999999999881e+01 2.340299999999999869e+01 -3.001679726838025336e-02
1.363299999999999912e+01 5.294599999999999795e+01 2.209199999999999875e+01 -1.941994854537317516e-01
1.363700000000000045e+01 4.532399999999999807e+01 4.080400000000000205e+01 -2.738353921437804983e-01
1.363899999999999935e+01 1.717299999999999827e+01 3.140299999999999869e+01 -1.832610411339762602e-01
1.364499999999999957e+01 8.224000000000000199e+00 3.572200000000000131e+01 -1.359279484630614987e-01
1.364600000000000080e+01 1.870599999999999952e+01 9.215999999999999304e+00 -1.172311032166877681e-01
1.364899999999999913e+01 5.259899999999999665e+01 2.359900000000000020e+01 -3.314827249743051429e-01
1.365099999999999980e+01 -6.076999999999999957e+00 -8.218999999999999417e+00 -1.653865822490866444e-01
1.365199999999999925e+01 8.650999999999999801e+00 -8.743999999999999773e+00 -2.478125758786913213e-01
1.365499999999999936e+01 5.054599999999999937e+01 2.901399999999999935e+01 6.771610929478344421e-02
1.366000000000000014e+01 2.150700000000000145e+01 8.686999999999999389e+00 7.691710115902264389e-02
1.367399999999999949e+01 2.664799999999999969e+01 2.273499999999999943e+01 -9.192709080163587176e-02
1.367500000000000071e+01 -7.030000000000000249e+00 -9.428000000000000824e+00 -1.263062429193641534e-01
1.368999999999999950e+01 2.609999999999999876e+00 5.222999999999999687e+01 -5.457833407383951008e-02
1.369899999999999984e+01 2.427700000000000102e+01 3.367499999999999716e+01 -5.182642905741809830e-02
1.370100000000000051e+01 5.178600000000000136e+01 2.130900000000000105e+01 -1.881657591170972643e-01
1.371499999999999986e+01 4.567000000000000171e+00 5.812000000000000277e+00 3.662729839263367815e-02
1.372899999999999920e+01 3.243200000000000216e+01 2.064300000000000068e+01 9.922382094479636344e-03
1.373300000000000054e+01 8.862999999999999545e+00 1.110699999999999932e+01 -2.403185248462283707e-01
1.374300000000000033e+01 2.983599999999999852e+01 6.676999999999999602e+00 -3.056243370847744334e-02
1.374600000000000044e+01 5.014999999999999680e+00 4.568900000000000006e+01 1.436294339341613324e-01
1.374699999999999989e+01 1.642099999999999937e+01 3.236500000000000199e+01 3.025499680174414258e-02
1.375300000000000011e+01 5.062899999999999778e+01 3.785499999999999687e+01 -1.118463901980774333e-01
1.375500000000000078e+01 -7.249999999999999778e-01 1.842399999999999949e+01 -2.202263704388270349e-01
1.375699999999999967e+01 2.834299999999999997e+01 3.298299999999999699e+01 -1.685641798325521745e-01
1.376099999999999923e+01 4.573000000000000398e+00 2.107900000000000063e+01 4.441995958111195908e-02
1.376099999999999923e+01 9.683999999999999275e+00 3.019500000000000028e+01 -8.388552082604130988e-02
1.377899999999999991e+01 2.706599999999999895e+01 3.319599999999999795e+01 -1.793696787665201575e-01
1.378999999999999915e+01 5.196399999999999864e+01 3.855400000000000205e+01 -1.169801841974088125e-01
1.379400000000000048e+01 -3.507000000000000117e+00 -1.538000000000000034e+00 2.057611799034679834e-01
1.380199999999999960e+01 1.510000000000000009e+00 5.112599999999999767e+01 -1.904091722474951232e-01
1.380400000000000027e+01 -1.749000000000000110e+00 6.330000000000000071e+00 -1.610232036303355929e-01
1.381900000000000084e+01 1.767800000000000082e+01 5.187599999999999767e+01 4.358152370457715752e-01
1.382900000000000063e+01 4.635999999999999943e+01 2.279200000000000159e+01 -2.478246979600249866e-01
1.383200000000000074e+01 3.369899999999999807e+01 2.692599999999999838e+01 1.157401006580690561e-01
1.383500000000000085e+01 2.063100000000000023e+01 4.466499999999999915e+01 2.041602123792304602e-01
1.384399999999999942e+01 9.820000000000000284e+00 5.129999999999999893e+00 6.059941601399295059e-03
1.384500000000000064e+01 2.177700000000000102e+01 1.903600000000000136e+01 -1.014579957584154091e-01
1.385299999999999976e+01 1.673600000000000065e+01 3.016700000000000159e+01 -1.465025486214581729e-01
1.385500000000000043e+01 4.351500000000000057e+01 2.370400000000000063e+01 -2.628691771660531251e-01
1.385699999999999932e+01 1.921399999999999864e+01 7.908999999999999808e+00 -8.192357700622382444e-02
1.386400000000000077e+01 1.302000000000000046e+00 -6.448000000000000398e+00 2.046277944876602195e-01
1.386500000000000021e+01 -4.488000000000000433e+00 6.128000000000000114e+00 -1.594231710724139661e-01
1.386500000000000021e+01 4.226800000000000068e+01 1.560800000000000054e+01 -2.866287149722770294e-02
1.386899999999999977e+01 2.002100000000000080e+01 4.132000000000000028e+01 -8.973299373669643697e-02
1.388100000000000023e+01 2.021000000000000085e+01 3.895300000000000296e+01 2.179102859586420915e-01
1.389100000000000001e+01 -2.649000000000000021e+00 -9.839000000000000412e+00 2.693165310347420127e-01
1.390099999999999980e+01 2.999399999999999977e+01 1.851099999999999923e+01 -4.398791447439769076e-02
1.391799999999999926e+01 2.058999999999999986e+01 7.642000000000000348e+00 7.938133464434247999e-02
1.391999999999999993e+01 1.907600000000000051e+01 5.128699999999999903e+01 9.122484063404114052e-02
1.392600000000000016e+01 -6.668000000000000149e+00 2.734100000000000108e+01 2.025818854521603263e-01
1.392699999999999960e+01 1.960600000000000165e+01 -7.150000000000000355e+00 -2.359201084717141642e-02
1.393500000000000050e+01 -6.626999999999999780e+00 3.484499999999999886e+01 -1.261683814695924721e-01
1.394200000000000017e+01 -7.652999999999999581e+00 -1.234299999999999997e+01 5.737931505644434937e-02
1.394400000000000084e+01 2.742599999999999838e+01 4.677999999999999936e+00 -3.056522516051005806e-02
1.394599999999999973e+01 -3.184000000000000163e+00 -3.063000000000000167e+00 1.982097661536834365e-01
1.394899999999999984e+01 4.076299999999999812e+01 4.100500000000000256e+01 -5.450762025250362880e-02
1.394999999999999929e+01 1.933899999999999864e+01 2.465500000000000114e+01 -1.696495563969682430e-01
1.395400000000000063e+01 -9.141000000000000014e+00 -2.886000000000000121e+00 -3.372576165557715777e-01
1.395400000000000063e+01 3.400000000000000244e-01 -1.186100000000000065e+01 3.079143538036103744e-01
1.395500000000000007e+01 1.643599999999999994e+01 -5.979000000000000092e+00 -2.868649748572375119e-02
1.395500000000000007e+01 2.465399999999999991e+01 4.646699999999999875e+01 3.495232966096840643e-01
1.397300000000000075e+01 4.071999999999999886e+01 4.539500000000000313e+01 -6.750969266098490185e-02
1.399200000000000088e+01 -3.099999999999999978e-01 3.367699999999999960e+01 1.518623337408411822e-01
1.400399999999999956e+01 2.000000000000000111e-01 1.339199999999999946e+01 -1.269317947761026133e-01
1.400500000000000078e+01 3.996300000000000097e+01 3.543200000000000216e+01 1.804460785101554277e-01
1.400799999999999912e+01 2.754500000000000171e+01 5.352199999999999847e+01 3.107532695667181155e-01
1.400799999999999912e+01 3.126200000000000045e+01 3.699000000000000199e+01 1.135607240611069269e-01
1.401399999999999935e+01 4.635399999999999920e+01 4.026700000000000301e+01 -2.591223840015387525e-01
1.401999999999999957e+01 3.160900000000000176e+01 5.005700000000000216e+01 -2.078806378825139023e-01
1.402100000000000080e+01 5.188000000000000256e+01 3.442499999999999716e+01 2.387401264721956129e-01
1.405000000000000071e+01 7.099999999999999367e-02 1.559600000000000009e+01 -1.196762772611159598e-01
1.405199999999999960e+01 1.038899999999999935e+01 4.246800000000000352e+01 1.157415882501700022e-01
1.405700000000000038e+01 1.959199999999999875e+01 3.092299999999999827e+01 -5.609431166603010693e-02
1.405700000000000038e+01 3.615200000000000102e+01 4.707699999999999818e+01 -4.299150690666356939e-02
1.405899999999999928e+01 -7.157000000000000028e+00 3.596500000000000341e+01 -1.262657029831883437e-01
1.406000000000000050e+01 3.345900000000000318e+01 2.125400000000000134e+01 1.229247390000994117e-01
1.406900000000000084e+01 3.585499999999999687e+01 4.176599999999999824e+01 1.684283537190606750e-01
1.407300000000000040e+01 2.966900000000000048e+01 2.001899999999999835e+01 -9.052211869919588039e-02
1.408200000000000074e+01 8.032999999999999474e+00 4.156199999999999761e+01 -8.006971636830067726e-03
1.408300000000000018e+01 2.109499999999999886e+01 6.187000000000000277e+00 2.831445476317889787e-01
1.408999999999999986e+01 -1.641700000000000159e+01 1.921099999999999852e+01 2.047005449508672581e-01
1.410299999999999976e+01 3.628300000000000125e+01 1.886199999999999832e+01 -7.184445050725189741e-02
1.412899999999999956e+01 3.478199999999999648e+01 1.918700000000000117e+01 -5.402510523396493458e-02
1.413199999999999967e+01 4.193999999999999773e+01 4.007999999999999829e+01 2.044647851413820272e-01
1.414600000000000080e+01 1.314300000000000068e+01 5.031799999999999784e+01 1.629329143791851953e-01
1.414899999999999913e+01 -2.827999999999999847e+00 2.480199999999999960e+01 2.333742833483111734e-01
1.415300000000000047e+01 3.047700000000000031e+01 4.781300000000000239e+01 1.843811188020935410e-01
1.415900000000000070e+01 -1.695000000000000062e+00 -8.622999999999999332e+00 2.863926159946322825e-01
1.416099999999999959e+01 4.908000000000000362e+00 4.417000000000000171e+01 -3.254348264774996335e-02
1.417099999999999937e+01 1.365799999999999947e+01 -1.679000000000000048e+00 1.911959745269629918e-01
1.419299999999999962e+01 1.074300000000000033e+01 2.271199999999999974e+01 -1.388149035001510212e-01
1.419699999999999918e+01 -6.932999999999999829e+00 2.100100000000000122e+01 3.519237718270051829e-01
1.419999999999999929e+01 3.746300000000000097e+01 2.482199999999999918e+01 9.119313285408218311e-03
1.420100000000000051e+01 1.971600000000000108e+01 4.593399999999999750e+01 8.573756499400728148e-02
1.420800000000000018e+01 -3.741999999999999993e+00 2.243299999999999983e+01 1.311955208343674184e-01
1.421100000000000030e+01 -4.107000000000000206e+00 -9.439000000000000057e+00 -4.318649387222990577e-02
1.422100000000000009e+01 6.996999999999999886e+00 2.607600000000000051e+01 -1.453601490750351388e-01
1.422700000000000031e+01 6.722000000000000419e+00 -1.470700000000000074e+01 -3.314763866439167095e-01
1.423600000000000065e+01 3.464900000000000091e+01 2.065099999999999980e+01 -7.992444258995851092e-02
1.423600000000000065e+01 4.284400000000000119e+01 1.229899999999999949e+01 -2.358066163683287045e-02
1.424000000000000021e+01 -4.567999999999999616e+00 2.855999999999999872e+01 3.560067678866184471e-01
1.424000000000000021e+01 1.999399999999999977e+01 3.376999999999999780e+00 -2.102637393845091796e-01
1.424099999999999966e+01 -5.894000000000000128e+00 2.862099999999999866e+01 2.263999995434354262e-01
1.424099999999999966e+01 -1.991000000000000103e+00 2.011799999999999855e+01 9.781255399908513060e-02
1.424600000000000044e+01 3.451000000000000068e+00 1.189999999999999947e+00 2.517093794750867655e-02
1.425699999999999967e+01 1.359200000000000053e+01 -8.300000000000000433e-02 8.599652282939442005e-02
1.425799999999999912e+01 7.908999999999999808e+00 3.181099999999999994e+01 -7.656643957984507476e-02
1.427599999999999980e+01 4.975800000000000267e+01 3.358100000000000307e+01 2.468514386091376078e-01
1.430100000000000016e+01 2.526099999999999923e+01 3.455100000000000193e+01 -1.478930069543972214e-01
1.430100000000000016e+01 3.509100000000000108e+01 3.460999999999999943e+01 -5.315873263907219121e-02
1.430700000000000038e+01 -1.266399999999999970e+01 2.104200000000000159e+01 -1.903931185488205724e-01
1.432000000000000028e+01 9.118999999999999773e+00 -1.431099999999999994e+01 -1.881678514233761090e-01
1.432699999999999996e+01 1.536700000000000088e+01 2.997100000000000009e+01 -1.250353068748412400e-01
1.432699999999999996e+01 4.353699999999999903e+01 3.086799999999999855e+01 7.969651063129984392e-02
1.433099999999999952e+01 2.724899999999999878e+01 5.199499999999999744e+01 3.285275793678511524e-01
1.433300000000000018e+01 -5.676999999999999602e+00 -3.638999999999999790e+00 1.550527051444481122e-02
1.434099999999999930e+01 -9.128999999999999559e+00 -1.797299999999999898e+01 -1.755300564298543642e-01
1.434200000000000053e+01 1.397499999999999964e+01 -5.666999999999999815e+00 1.185835139003123401e-01
1.434500000000000064e+01 2.656899999999999906e+01 3.440400000000000347e+01 -1.703696791536429278e-01
1.435100000000000087e+01 2.219500000000000028e+01 5.169899999999999807e+01 2.071281552668635118e-01
1.436299999999999955e+01 -1.737000000000000099e+00 1.898000000000000043e+01 -1.823196905176053262e-01
1.436299999999999955e+01 9.172000000000000597e+00 6.439000000000000057e+00 1.537381737252651592e-01
1.439000000000000057e+01 2.628900000000000148e+01 5.426800000000000068e+01 -3.561174640861805574e-02
1.439799999999999969e+01 2.739300000000000068e+01 2.455999999999999961e+00 5.310616017057782218e-02
1.439799999999999969e+01 3.662500000000000000e+01 2.594600000000000151e+01 3.532557121461524924e-02
1.440399999999999991e+01 -6.426999999999999602e+00 -1.253400000000000070e+01 5.013558986931502225e-03
1.440499999999999936e+01 8.137000000000000455e+00 -1.530700000000000038e+01 -1.941978715072629480e-01
1.440600000000000058e+01 4.232500000000000284e+01 1.703999999999999915e+01 7.116729601232328617e-02
1.440700000000000003e+01 3.336899999999999977e+01 2.272400000000000020e+01 1.684785296417306011e-01
1.440799999999999947e+01 6.299999999999999822e+00 1.522499999999999964e+01 -6.046204129822405765e-02
1.440900000000000070e+01 -9.547000000000000597e+00 9.852999999999999758e+00 2.941094027057413740e-01
1.441600000000000037e+01 2.911499999999999844e+01 4.411999999999999744e+01 4.767176589271519827e-02
1.441799999999999926e+01 2.857300000000000040e+01 2.887099999999999866e+01 -1.304970749991820611e-01
1.441999999999999993e+01 1.501900000000000013e+01 2.849899999999999878e+01 -2.473101198181573146e-01
1.443099999999999916e+01 5.236800000000000210e+01 2.621000000000000085e+01 -1.478295218100714702e-02
1.443399999999999928e+01 -3.185999999999999943e+00 2.599399999999999977e+01 1.351877680488872968e-01
1.443900000000000006e+01 6.613999999999999879e+00 1.441999999999999948e+00 -1.719841087359818554e-01
1.444299999999999962e+01 3.802000000000000046e+00 5.160600000000000165e+01 -5.096442974321787472e-02
1.444800000000000040e+01 3.103500000000000014e+01 3.191499999999999915e+01 -1.725150032820098600e-01
1.445400000000000063e+01 2.949800000000000111e+01 5.120700000000000074e+01 2.487303066396481521e-01
1.445599999999999952e+01 -8.625999999999999446e+00 -1.288299999999999912e+01 1.981083982705223595e-02
1.445599999999999952e+01 2.048100000000000165e+01 -3.120999999999999996e+00 -1.635286782804838968e-01
1.446599999999999930e+01 2.192899999999999849e+01 4.798799999999999955e+01 2.353133283809016318e-01
1.446700000000000053e+01 2.008999999999999897e+00 2.310399999999999920e+01 6.804796847820160366e-02
1.447100000000000009e+01 9.625000000000000000e+00 4.099999999999999645e+00 1.499433289671508150e-02
1.447499999999999964e+01 -7.323999999999999844e+00 3.358700000000000330e+01 -1.686004519590874329e-01
1.448099999999999987e+01 1.958599999999999852e+01 2.113299999999999912e+01 1.212801140451566367e-01
1.449399999999999977e+01 2.911400000000000077e+01 2.744600000000000151e+01 -7.706319778773244866e-02
1.449699999999999989e+01 5.883000000000000007e+00 5.278199999999999648e+01 -7.950430463812493964e-02
1.449799999999999933e+01 1.314600000000000080e+01 3.455799999999999983e+01 2.502778419800558152e-01
1.450500000000000078e+01 -3.763999999999999790e+00 2.975400000000000134e+01 3.727895762122863110e-01
1.451600000000000001e+01 1.570299999999999940e+01 4.224399999999999977e+01 -2.453328882250732923e-01
1.451800000000000068e+01 -6.482999999999999652e+00 2.968499999999999872e+01 2.389149724741563841e-01
1.452899999999999991e+01 3.761999999999999744e+01 3.488799999999999812e+01 -5.416959275109419630e-02
1.453800000000000026e+01 8.490999999999999659e+00 4.849399999999999977e+01 -1.327869298779426888e-01
1.454299999999999926e+01 1.107799999999999940e+01 7.913999999999999702e+00 -4.932248078073492997e-02
1.454400000000000048e+01 -1.600000000000000033e-01 -1.614999999999999991e+00 1.631586809163250440e-01
1.455700000000000038e+01 8.240999999999999659e+00 -9.506000000000000227e+00 -2.441568441801066081e-01
1.456000000000000050e+01 -1.007399999999999984e+01 1.070999999999999952e+00 1.084774985351151244e-01
1.457099999999999973e+01 -7.897000000000000242e+00 -9.528000000000000469e+00 -1.446527726672779124e-01
1.458200000000000074e+01 -2.285000000000000142e+00 2.933899999999999864e+01 1.389616414644088693e-01
1.458500000000000085e+01 3.646500000000000341e+01 3.388300000000000267e+01 -1.369120096633464137e-02
1.459299999999999997e+01 1.827899999999999991e+01 4.561899999999999977e+01 3.360732816749102403e-01
1.459800000000000075e+01 -1.231600000000000072e+01 1.969200000000000017e+01 -1.546597742890354621e-01
1.460100000000000087e+01 -9.742000000000000881e+00 -1.664199999999999946e+01 -1.668685052683932524e-01
1.461899999999999977e+01 1.938299999999999912e+01 -2.355999999999999872e+00 -4.912321465364074408e-02
1.461999999999999922e+01 4.021300000000000097e+01 3.651800000000000068e+01 2.183603040229913916e-01
1.462199999999999989e+01 1.846300000000000097e+01 2.505499999999999972e+01 -1.748289207164365755e-01
1.463100000000000023e+01 3.905599999999999739e+01 3.438400000000000034e+01 -2.777966075164243695e-02
1.463799999999999990e+01 -5.573999999999999844e+00 6.926000000000000156e+00 -1.408299880048292652e-01
1.464300000000000068e+01 6.674999999999999822e+00 -1.223700000000000010e+01 -1.419244732316344848e-01
1.466000000000000014e+01 4.485099999999999909e+01 2.886499999999999844e+01 2.767736299277238562e-02
1.467099999999999937e+01 6.745000000000000107e+00 -9.701000000000000512e+00 -9.863712654708395311e-02
1.467999999999999972e+01 4.935900000000000176e+01 2.905199999999999960e+01 3.885834259180058203e-01
1.468999999999999950e+01 4.408000000000000362e+00 4.038700000000000045e+01 -2.605289296462013349e-01
1.468999999999999950e+01 1.693100000000000094e+01 4.157200000000000273e+01 -2.150283746339314295e-01
1.470100000000000051e+01 1.532900000000000063e+01 1.301900000000000013e+01 3.984206262300470092e-02
1.470199999999999996e+01 4.032000000000000028e+00 -1.136599999999999966e+01 -6.097972199511202118e-02
1.471400000000000041e+01 -7.009999999999999565e-01 9.900999999999999801e+00 -8.480170557182936664e-02
1.471599999999999930e+01 1.188499999999999979e+01 2.670100000000000051e+01 -2.889627102451973739e-01
1.472600000000000087e+01 1.929599999999999937e+01 5.034799999999999898e+01 4.313925156495168056e-01
1.473199999999999932e+01 2.228300000000000125e+01 5.287199999999999989e+01 1.914731353460488450e-01
1.473900000000000077e+01 2.333200000000000074e+01 4.273400000000000176e+01 -2.494764184881312075e-01
1.474000000000000021e+01 -1.598499999999999943e+01 1.145400000000000063e+01 2.909994408331170179e-01
1.474699999999999989e+01 5.092600000000000193e+01 3.401100000000000279e+01 1.085937484092605737e-01
1.475200000000000067e+01 2.739900000000000091e+01 3.766000000000000014e+00 -2.691627104083453223e-02
1.476900000000000013e+01 1.845799999999999841e+01 2.074699999999999989e+01 -1.893315421668190224e-02
1.477200000000000024e+01 3.846800000000000352e+01 1.147600000000000087e+01 2.127723620613564959e-01
1.477599999999999980e+01 3.726800000000000068e+01 1.047600000000000087e+01 2.958031340857257205e-02
1.477800000000000047e+01 4.076299999999999812e+01 2.964300000000000068e+01 7.194282570044755083e-03
1.478999999999999915e+01 1.221000000000000085e+00 1.391300000000000026e+01 -1.379533469511227961e-01
1.479700000000000060e+01 -2.693999999999999950e+00 1.673999999999999844e+01 -4.331246174251529579e-02
1.480100000000000016e+01 -4.187000000000000277e+00 -3.833000000000000185e+00 2.051334228704602969e-01
1.481199999999999939e+01 1.720100000000000051e+01 2.424200000000000088e+01 -1.618335291208806148e-01
