-2.393199999999999861e+01 1.096400000000000041e+01 -9.166000000000000369e+00 -4.428208840127152712e-02
-2.391900000000000048e+01 1.783800000000000097e+01 4.405999999999999694e+00 -8.649007501548462706e-02
-2.391400000000000148e+01 -2.379000000000000004e+00 -6.639000000000000234e+00 9.644472102098475275e-02
-2.391199999999999903e+01 2.764799999999999969e+01 -3.623899999999999721e+01 1.294080585085786994e-01
-2.390599999999999881e+01 3.056800000000000139e+01 7.554999999999999716e+00 -3.158834469488556312e-02
-2.390399999999999991e+01 3.368999999999999773e+01 -1.654599999999999937e+01 3.681428788112010575e-01
-2.390299999999999869e+01 2.660300000000000153e+01 1.275799999999999912e+01 1.499061839954339004e-01
-2.389699999999999847e+01 3.178000000000000114e+01 -4.145300000000000296e+01 1.752882948813924702e-01
-2.389499999999999957e+01 -6.227000000000000313e+00 -8.839999999999999858e+00 -1.266287520193349891e-01
-2.387699999999999889e+01 2.750799999999999912e+01 -8.110000000000000542e-01 2.303927686392459040e-01
-2.385900000000000176e+01 1.696000000000000085e+01 -2.366000000000000103e+00 -9.121129585899150766e-03
-2.384700000000000131e+01 1.956400000000000006e+01 1.397600000000000087e+01 -1.501692578924540000e-01
-2.383899999999999864e+01 3.977100000000000080e+01 -3.122700000000000031e+01 2.357621037563536748e-01
-2.382900000000000063e+01 3.835699999999999932e+01 -2.300199999999999889e+01 3.530205414781588669e-01
-2.381500000000000128e+01 2.552899999999999991e+01 -3.515400000000000347e+01 -7.500757171687309766e-02
-2.381099999999999994e+01 1.712000000000000099e+01 -1.073499999999999943e+01 -4.091104370745139024e-02
-2.380499999999999972e+01 7.107999999999999652e+00 5.668999999999999595e+00 -2.278209628724897351e-01
-2.378900000000000148e+01 3.023000000000000131e+00 -1.871900000000000119e+01 -1.136200448147949571e-01
-2.374899999999999878e+01 2.491900000000000048e+01 7.258000000000000007e+00 1.255560870092820580e-01
-2.374500000000000099e+01 2.751999999999999957e+01 -3.970600000000000307e+01 9.725096581682614316e-02
-2.374200000000000088e+01 2.390500000000000114e+01 -2.695499999999999829e+01 6.905991070173797541e-02
-2.373499999999999943e+01 -4.703999999999999737e+00 3.734999999999999876e+00 -1.109942369757009190e-01
-2.371999999999999886e+01 3.589600000000000080e+01 -1.895700000000000074e+01 3.010219513802565028e-01
-2.371499999999999986e+01 2.755199999999999960e+01 -6.344999999999999751e+00 -7.796143795826140921e-02
-2.371300000000000097e+01 2.580799999999999983e+01 1.566999999999999948e+00 1.276366590447144955e-01
-2.370299999999999940e+01 -3.572999999999999954e+00 -7.576999999999999957e+00 1.871041615300906014e-01
-2.369600000000000151e+01 1.985000000000000142e+01 -4.035000000000000142e+01 -1.952998742822578682e-01
-2.369399999999999906e+01 2.076099999999999923e+01 1.373499999999999943e+01 -1.476757713618088164e-01
-2.369000000000000128e+01 2.799399999999999977e+01 3.039999999999999925e-01 2.972949496573016881e-01
-2.367200000000000060e+01 1.650000000000000078e-01 4.639000000000000234e+00 -3.710126702846133079e-02
-2.367200000000000060e+01 2.276500000000000057e+01 -2.908399999999999963e+01 7.743082844826917714e-03
-2.365399999999999991e+01 2.360999999999999943e+01 2.785000000000000142e+00 -1.975997682603319525e-02
-2.363700000000000045e+01 7.900000000000000078e-02 -9.521000000000000796e+00 -6.131631809554716206e-02
-2.363100000000000023e+01 1.932000000000000028e+01 -3.596099999999999852e+01 -1.069610755075229847e-01
-2.362399999999999878e+01 4.682900000000000063e+01 -3.047500000000000142e+01 -3.754266409572032392e-01
-2.360500000000000043e+01 -6.958000000000000185e+00 -1.939000000000000057e+00 -1.778289441558382200e-01
-2.360500000000000043e+01 3.888700000000000045e+01 -2.055199999999999960e+01 -2.988226604579932721e-01
-2.359499999999999886e+01 2.609299999999999997e+01 -5.892999999999999794e+00 -9.572807602121545523e-02
-2.357700000000000173e+01 1.730000000000000071e+01 -4.481400000000000006e+01 -3.596577342617943845e-02
-2.356700000000000017e+01 3.493999999999999773e+01 -1.592699999999999960e+01 4.276408965172463772e-02
-2.354899999999999949e+01 2.418199999999999861e+01 -4.839699999999999847e+01 1.621886429390810846e-01
-2.354799999999999827e+01 3.078699999999999903e+01 -2.772500000000000142e+01 2.476442206698203363e-01
-2.354500000000000171e+01 3.582600000000000051e+01 -5.307099999999999795e+01 -3.993363213467586714e-01
-2.353300000000000125e+01 1.575399999999999956e+01 1.548000000000000043e+00 1.807117760055375888e-01
-2.345599999999999952e+01 3.404800000000000182e+01 -4.989000000000000057e+01 -1.939437385792970245e-02
-2.345299999999999940e+01 3.702199999999999847e+01 -4.009100000000000108e+01 -1.163857911067617268e-01
-2.344800000000000040e+01 4.356600000000000250e+01 -2.151000000000000156e+01 -2.320794380954102620e-01
-2.343900000000000006e+01 3.370499999999999829e+01 -1.802400000000000091e+01 3.760742791415908615e-01
-2.340299999999999869e+01 1.635999999999999899e+00 -1.112700000000000067e+01 -1.395673188019645461e-01
-2.339999999999999858e+01 2.602499999999999858e+01 -4.453000000000000291e+00 -1.109411468410502755e-01
-2.338899999999999935e+01 -8.940000000000000169e-01 4.075000000000000178e+00 -1.048801662846301913e-01
-2.337800000000000011e+01 2.713899999999999935e+01 -4.248799999999999955e+01 2.229290678359387157e-01
-2.335999999999999943e+01 2.404200000000000159e+01 -2.830699999999999861e+01 -1.121945032604829279e-01
-2.335500000000000043e+01 1.821099999999999852e+01 -2.794000000000000039e+00 1.507207066530903694e-02
-2.335000000000000142e+01 2.269200000000000017e+01 -4.861399999999999721e+01 1.824668300777778085e-01
-2.334700000000000131e+01 1.119599999999999973e+01 7.500000000000000000e+00 1.743001621560329867e-02
-2.334499999999999886e+01 1.603800000000000026e+01 -1.108500000000000085e+01 -1.480126687733341884e-01
-2.334499999999999886e+01 2.292699999999999960e+01 -3.049800000000000111e+01 -1.781216024528682051e-01
-2.333899999999999864e+01 -4.857000000000000206e+00 -6.823999999999999844e+00 -4.896021064095899995e-03
-2.333200000000000074e+01 2.378000000000000114e+01 -4.389000000000000234e+00 -1.614487915578053934e-01
-2.332400000000000162e+01 1.855000000000000071e+01 5.211000000000000298e+00 -7.333287461394841222e-02
-2.329799999999999827e+01 4.538600000000000279e+01 -4.176299999999999812e+01 -2.408167489617110690e-01
-2.329400000000000048e+01 7.567000000000000171e+00 -5.426000000000000156e+00 1.421781492567332772e-01
-2.329200000000000159e+01 7.668999999999999595e+00 4.514000000000000234e+00 -2.396277273813174347e-01
-2.328999999999999915e+01 3.243599999999999994e+01 -5.145799999999999841e+01 -2.075713520357477526e-01
-2.328300000000000125e+01 2.903999999999999915e+01 5.807999999999999829e+00 5.235956247706639172e-02
-2.328200000000000003e+01 -5.597999999999999865e+00 -2.261000000000000121e+00 5.216900294753833156e-02
-2.325799999999999912e+01 2.486799999999999855e+01 -3.819999999999999840e+00 -1.532411778004390823e-01
-2.325300000000000011e+01 3.254200000000000159e+01 -1.578400000000000070e+01 6.851966087663138860e-02
-2.324899999999999878e+01 1.959299999999999997e+01 -3.480199999999999960e+01 -6.543437779717894975e-02
-2.324299999999999855e+01 -6.426999999999999602e+00 -1.016300000000000026e+01 -2.508619633864185849e-01
-2.323900000000000077e+01 2.446699999999999875e+01 -5.407200000000000273e+01 -1.059393514483530918e-01
-2.322100000000000009e+01 2.299800000000000111e+01 1.462100000000000044e+01 8.141160560769641896e-02
-2.322100000000000009e+01 2.683999999999999986e+01 -3.562199999999999989e+01 -7.657439740359464619e-02
-2.321099999999999852e+01 2.122299999999999898e+01 1.258799999999999919e+01 -1.687718979067166780e-01
-2.320299999999999940e+01 2.708699999999999974e+01 -4.776299999999999812e+01 8.238974641317647896e-02
-2.319699999999999918e+01 1.874599999999999866e+01 -3.387800000000000011e+01 -4.357520564334313451e-02
-2.317200000000000060e+01 4.487599999999999767e+01 -3.654800000000000182e+01 -2.401814081531798151e-01
-2.317099999999999937e+01 4.507600000000000051e+01 -4.055899999999999750e+01 -2.352004124755460723e-01
-2.316400000000000148e+01 4.006199999999999761e+01 -2.688700000000000045e+01 -5.598162803407297564e-03
-2.316100000000000136e+01 1.576999999999999957e+01 -2.593999999999999861e+00 -1.120814540356017061e-02
-2.315200000000000102e+01 2.361199999999999832e+01 -1.778000000000000025e+00 2.658370931907279022e-01
-2.313700000000000045e+01 1.115700000000000003e+01 4.998999999999999666e+00 -4.886757978334088648e-02
-2.312600000000000122e+01 2.996999999999999886e+01 -4.973700000000000188e+01 2.183148627229646865e-01
-2.312199999999999989e+01 3.982000000000000028e+01 -3.998199999999999932e+01 -1.343539558121204514e-01
-2.310699999999999932e+01 2.548499999999999943e+01 -2.376300000000000168e+01 2.071977768549311261e-01
-2.309700000000000131e+01 1.671699999999999875e+01 6.748000000000000220e+00 -2.668773778711392430e-01
-2.309299999999999997e+01 4.118800000000000239e+01 -3.752900000000000347e+01 -2.383560320363967144e-01
-2.308999999999999986e+01 3.155099999999999838e+01 -2.423100000000000165e+01 2.171387623633303787e-01
-2.308899999999999864e+01 2.916199999999999903e+01 4.939999999999999947e-01 3.043250765462933716e-01
-2.308299999999999841e+01 4.528199999999999648e+01 -3.536999999999999744e+01 -2.390364654777336617e-01
-2.307400000000000162e+01 -3.340000000000000191e-01 8.780000000000000027e-01 3.788379667625279418e-02
-2.307199999999999918e+01 2.001699999999999946e+01 4.903999999999999915e+00 -7.142643646126958790e-02
-2.306400000000000006e+01 3.127799999999999869e+01 -3.835099999999999909e+01 1.759314264146614182e-01
-2.305999999999999872e+01 4.208299999999999841e+01 -1.666900000000000048e+01 1.053386956881671374e-02
-2.305600000000000094e+01 2.038800000000000168e+01 1.141300000000000026e+01 -1.919673981449030453e-01
-2.305300000000000082e+01 1.361899999999999977e+01 1.036100000000000065e+01 -9.233954963855303677e-02
-2.305000000000000071e+01 1.817599999999999838e+01 -1.048600000000000065e+01 -7.467086064324464367e-02
-2.304899999999999949e+01 6.466999999999999638e+00 -1.387000000000000011e+00 -1.167617156359016112e-01
-2.304799999999999827e+01 4.153499999999999659e+01 -3.603499999999999659e+01 -2.223824454835318376e-01
-2.304400000000000048e+01 2.395599999999999952e+01 -2.382000000000000028e+01 1.360915905816572138e-02
-2.303000000000000114e+01 3.143599999999999994e+01 -4.949999999999999956e-01 3.044593217072387170e-01
-2.302599999999999980e+01 3.974499999999999744e+01 -3.772800000000000153e+01 -2.484371604778941867e-01
-2.302199999999999847e+01 3.552400000000000091e+01 -2.967699999999999960e+01 3.447268848990969747e-01
-2.299699999999999989e+01 2.644600000000000151e+01 -4.020000000000000284e+01 9.639935242829747453e-02
-2.298799999999999955e+01 2.494000000000000128e+01 -2.330999999999999961e+00 2.334506529932280777e-02
-2.298300000000000054e+01 7.267999999999999794e+00 -2.669999999999999929e+00 1.573415467186350114e-01
-2.297500000000000142e+01 3.918900000000000006e+01 -3.893699999999999761e+01 -1.363441218015427892e-01
-2.297400000000000020e+01 1.250099999999999945e+01 -1.126200000000000045e+01 -1.949114137284828630e-01
-2.295299999999999940e+01 3.360999999999999943e+01 -5.092600000000000193e+01 -2.286038444043872464e-02
-2.295200000000000173e+01 3.028500000000000014e+01 3.314000000000000057e+00 2.847318059322438977e-01
-2.292500000000000071e+01 8.299999999999999600e-01 -1.018599999999999994e+01 -1.305691540848392430e-02
-2.291900000000000048e+01 2.386599999999999966e+01 -3.667999999999999972e+01 3.114253589678534981e-02
-2.291000000000000014e+01 1.072000000000000064e+01 -1.429999999999999882e-01 6.919652119874239449e-02
-2.289600000000000080e+01 1.051200000000000045e+01 -9.964999999999999858e+00 -5.466290376040251753e-02
-2.287800000000000011e+01 -5.966999999999999638e+00 -7.750000000000000000e+00 -2.117799602895099886e-02
-2.287300000000000111e+01 2.239199999999999946e+01 -4.339999999999999858e+01 6.041307921554484039e-02
-2.287300000000000111e+01 3.881799999999999784e+01 -2.191100000000000136e+01 4.200000000000000400e-01
-2.286400000000000077e+01 8.765000000000000568e+00 -2.379000000000000004e+00 1.874447678087416969e-01
-2.286299999999999955e+01 1.809299999999999997e+01 6.368000000000000327e+00 -1.954402735244528677e-01
-2.285600000000000165e+01 2.788400000000000034e+01 6.666000000000000369e+00 2.239264703913520227e-01
-2.285399999999999920e+01 2.619000000000000128e+01 1.183799999999999919e+01 1.905905950807230964e-01
-2.283299999999999841e+01 2.466000000000000014e+01 -4.609199999999999875e+01 -6.071727544408982158e-02
-2.283099999999999952e+01 2.101099999999999923e+01 -3.448799999999999955e+01 1.241696261878847130e-01
-2.280499999999999972e+01 2.624299999999999855e+01 -4.158400000000000318e+01 2.732613614618447651e-01
-2.280000000000000071e+01 7.677999999999999936e+00 -1.201099999999999923e+01 -1.373040071300825060e-01
-2.277400000000000091e+01 2.123300000000000054e+01 -3.300500000000000256e+01 -9.092845949665030736e-02
-2.276200000000000045e+01 -5.413000000000000256e+00 3.998000000000000220e+00 -8.330916892801078222e-02
-2.275900000000000034e+01 2.020499999999999829e+01 3.491999999999999993e+00 -3.118343109641909597e-02
-2.274099999999999966e+01 3.714699999999999847e+01 -4.871900000000000119e+01 -2.352531069170211153e-01
-2.273900000000000077e+01 1.582399999999999984e+01 -3.876500000000000057e+01 -7.342915662299806523e-02
-2.273000000000000043e+01 2.461299999999999955e+01 -5.262800000000000011e+01 -1.513893958856615540e-01
-2.272800000000000153e+01 3.767799999999999727e+01 -3.899600000000000222e+01 -1.254034505680005906e-01
-2.271799999999999997e+01 1.046799999999999997e+01 6.312999999999999723e+00 9.158929946320013352e-03
-2.266499999999999915e+01 1.505000000000000071e+01 8.417999999999999261e+00 -6.275620769657744291e-02
-2.266100000000000136e+01 3.212299999999999756e+01 -4.645900000000000318e+01 3.277527558486870163e-01
-2.264099999999999824e+01 3.931300000000000239e+01 -1.946000000000000085e+01 -2.397536899894293361e-01
-2.262800000000000011e+01 2.376000000000000156e+01 -4.385000000000000142e+01 -3.121096588475335554e-01
-2.262800000000000011e+01 2.996000000000000085e+01 -6.310000000000000053e-01 2.935116168123025338e-01
-2.261400000000000077e+01 2.491400000000000148e+01 -7.745000000000000107e+00 -1.342713841434937383e-01
-2.259100000000000108e+01 3.221600000000000108e+01 -1.733000000000000096e+00 -1.125627599697932163e-02
-2.258800000000000097e+01 -5.969000000000000306e+00 5.182000000000000384e+00 -9.843258826109270443e-02
-2.258299999999999841e+01 -1.977999999999999980e+00 -6.016000000000000014e+00 6.215708236018430144e-02
-2.257900000000000063e+01 3.545600000000000307e+01 -3.114799999999999969e+01 2.740145985684293573e-01
-2.256299999999999883e+01 3.148100000000000165e+01 -4.078300000000000125e+01 1.603501508753824301e-01
-2.254599999999999937e+01 3.654500000000000171e+01 -4.115500000000000114e+01 1.154952506255221556e-01
-2.253699999999999903e+01 1.907999999999999918e+00 -3.451999999999999957e+00 2.108090103708644136e-01
-2.253099999999999881e+01 2.835200000000000031e+01 -3.729999999999999982e+00 -3.315687719322287647e-02
-2.251099999999999923e+01 4.348100000000000165e+01 -1.642500000000000071e+01 4.804067241808967353e-04
-2.251000000000000156e+01 -2.088999999999999968e+00 -4.695000000000000284e+00 -1.479191217016155302e-01
-2.250400000000000134e+01 1.325300000000000011e+01 -1.230899999999999928e+01 -7.775379023144375623e-02
-2.249399999999999977e+01 2.602299999999999969e+01 -5.230499999999999972e+01 -1.242102519257485688e-01
-2.249399999999999977e+01 3.330599999999999739e+01 -4.715699999999999648e+01 2.892929157030573739e-01
-2.248400000000000176e+01 3.218599999999999994e+01 -3.942499999999999716e+01 2.016803964281245753e-01
-2.248400000000000176e+01 3.473700000000000188e+01 -5.308500000000000085e+01 -6.863123964784068054e-02
-2.248300000000000054e+01 2.481299999999999883e+01 -4.749699999999999989e+01 1.842386096048397870e-01
-2.245799999999999841e+01 2.839099999999999824e+01 -6.131000000000000227e+00 -2.359710875596363611e-01
-2.244900000000000162e+01 2.540700000000000003e+01 -6.628999999999999559e+00 -1.231688766538043822e-01
-2.241900000000000048e+01 1.126399999999999935e+01 -1.101200000000000045e+01 -5.971912435271921338e-02
-2.241700000000000159e+01 3.032300000000000040e+01 -3.793500000000000227e+01 2.302594348591619211e-01
-2.239999999999999858e+01 1.725600000000000023e+01 -4.445600000000000307e+01 -9.493875998085868351e-02
-2.237399999999999878e+01 2.902499999999999858e+01 -4.748999999999999666e+00 -2.176064443408158855e-01
-2.236400000000000077e+01 4.009499999999999886e+01 -3.113599999999999923e+01 1.668526227836218401e-01
-2.235800000000000054e+01 3.125000000000000000e+01 -2.737699999999999889e+01 1.257807197396887747e-02
-2.235500000000000043e+01 4.050000000000000000e+01 -1.930999999999999872e+01 -1.731883604681836719e-01
-2.235000000000000142e+01 2.544099999999999895e+01 -3.953799999999999670e+01 1.017515026552761881e-01
-2.231299999999999883e+01 1.172499999999999964e+01 4.285999999999999588e+00 7.437280210207877773e-02
-2.231299999999999883e+01 1.624200000000000088e+01 7.950000000000000178e+00 -7.617141983911600300e-02
-2.228699999999999903e+01 3.285000000000000142e+00 -1.333500000000000085e+01 -2.345019735101129543e-01
-2.228600000000000136e+01 2.627299999999999969e+01 -4.786800000000000210e+01 9.595276681751160885e-02
-2.227299999999999969e+01 1.380000000000000115e-01 2.060999999999999943e+00 -1.419875419567720454e-01
-2.224399999999999977e+01 2.374800000000000111e+01 -4.532699999999999818e+01 -2.794065367474897199e-01
-2.224099999999999966e+01 4.303699999999999903e+01 -3.885699999999999932e+01 -2.652604517215957913e-01
-2.220499999999999829e+01 -9.749999999999999778e-01 3.112999999999999989e+00 -1.442845658625533656e-01
-2.219000000000000128e+01 1.546400000000000041e+01 2.208000000000000185e+00 -4.879223679032010375e-02
-2.217899999999999849e+01 2.254200000000000159e+01 -3.101000000000000156e+01 -1.473949379781380187e-01
-2.216900000000000048e+01 3.835300000000000153e+01 -1.867500000000000071e+01 -9.326729808355119569e-03
-2.215299999999999869e+01 3.588100000000000023e+01 -2.499200000000000088e+01 4.036952850371223755e-01
-2.214399999999999835e+01 -2.274999999999999911e+00 2.474000000000000199e+00 -3.518538175730943907e-02
-2.213899999999999935e+01 9.762000000000000455e+00 -1.739999999999999880e-01 2.186345399402416789e-01
-2.213599999999999923e+01 1.826300000000000168e+01 -3.462000000000000188e+00 -1.343023355691765897e-01
-2.212199999999999989e+01 3.032999999999999829e+01 -4.713000000000000078e+00 -7.172412751729709268e-02
-2.212099999999999866e+01 3.040599999999999881e+01 1.105199999999999960e+01 1.662984263872070989e-01
-2.211899999999999977e+01 3.750099999999999767e+01 -4.441899999999999693e+01 -2.568107681700153022e-01
-2.210699999999999932e+01 2.976099999999999923e+01 5.339000000000000412e+00 2.189214986577917021e-01
-2.210600000000000165e+01 2.252199999999999847e+01 -3.253199999999999648e+01 -2.421371480083186201e-01
-2.209299999999999997e+01 1.622500000000000142e+01 -3.748499999999999943e+01 -8.175995822989617912e-02
-2.204200000000000159e+01 1.447400000000000020e+01 9.599000000000000199e+00 -5.816250624823253446e-02
-2.203999999999999915e+01 2.626800000000000068e+01 -2.575499999999999901e+01 1.928239283653606362e-01
-2.202899999999999991e+01 3.243299999999999983e+01 -2.750100000000000122e+01 2.243215168900559164e-01
-2.202100000000000080e+01 2.509700000000000131e+01 1.247300000000000075e+01 2.347631788403428954e-01
-2.200400000000000134e+01 2.506299999999999883e+01 -4.172800000000000153e+01 -2.884923542427988985e-02
-2.200199999999999889e+01 3.021999999999999886e+01 4.096000000000000085e+00 2.174672557717760579e-01
-2.199899999999999878e+01 3.389900000000000091e+01 -1.814699999999999847e+01 -9.699927927494723934e-02
-2.199500000000000099e+01 2.740099999999999980e+01 1.146499999999999986e+01 -2.274610236659904000e-02
-2.199299999999999855e+01 1.965399999999999991e+01 -4.736800000000000210e+01 -2.046101785248846949e-01
-2.196699999999999875e+01 1.585299999999999976e+01 -3.251999999999999780e+00 1.982749417265509684e-01
-2.196000000000000085e+01 2.516400000000000148e+01 1.379400000000000048e+01 2.724962967950201875e-01
-2.196000000000000085e+01 4.089099999999999824e+01 -3.539300000000000068e+01 -3.556879395377394310e-02
-2.195200000000000173e+01 2.706800000000000139e+01 -3.531300000000000239e+01 -7.801670424538333093e-02
-2.195200000000000173e+01 4.367300000000000182e+01 -2.121699999999999875e+01 -3.071160376006843440e-01
-2.194500000000000028e+01 4.188400000000000034e+01 -3.825600000000000023e+01 -3.056880413007540542e-01
-2.194200000000000017e+01 2.610200000000000031e+01 -2.453500000000000014e+01 2.181781874962836765e-01
-2.192599999999999838e+01 5.910999999999999588e+00 -9.479999999999999538e-01 -2.161179820597476375e-01
-2.192299999999999827e+01 3.443900000000000006e+01 -5.169200000000000017e+01 -8.255108191404390838e-02
-2.191900000000000048e+01 -5.256999999999999673e+00 -1.695999999999999952e+00 -9.065785287148597771e-02
-2.191600000000000037e+01 2.296799999999999997e+01 1.487100000000000044e+01 8.203561993731479929e-02
-2.188899999999999935e+01 5.217999999999999972e+00 3.420000000000000262e-01 -2.462544264584797804e-01
-2.187300000000000111e+01 3.602499999999999858e+01 -2.880799999999999983e+01 4.123937657605012963e-01
-2.184799999999999898e+01 3.964099999999999824e+01 -2.985300000000000153e+01 3.668314833479499604e-01
-2.181700000000000017e+01 3.073199999999999932e+01 -2.420700000000000074e+01 3.112857192940762241e-01
-2.181299999999999883e+01 3.767699999999999960e+01 -4.766499999999999915e+01 -1.351502887786705798e-01
-2.181200000000000117e+01 2.126399999999999935e+01 -9.240000000000000213e+00 2.637009060728384615e-03
-2.181200000000000117e+01 4.524399999999999977e+01 -3.990500000000000114e+01 -2.187409423234262795e-01
-2.180499999999999972e+01 7.892999999999999794e+00 4.355000000000000426e+00 -1.109747702586904305e-01
-2.177899999999999991e+01 3.871699999999999875e+01 -1.627799999999999869e+01 -2.823255786702735717e-03
-2.176999999999999957e+01 2.183899999999999864e+01 -6.919999999999999929e+00 2.399363260660156844e-02
-2.176399999999999935e+01 1.198399999999999999e+01 -3.830000000000000071e+00 8.376144081688277621e-02
-2.176200000000000045e+01 6.241999999999999993e+00 2.543000000000000149e+00 -2.913376546615665807e-01
-2.176000000000000156e+01 1.956400000000000006e+01 2.891000000000000014e+00 -3.318092745010789435e-02
-2.175499999999999901e+01 4.583200000000000074e+01 -3.489099999999999824e+01 -2.284531501507886531e-01
-2.175400000000000134e+01 1.399200000000000088e+01 -6.894000000000000128e+00 1.477182497388265514e-01
-2.175300000000000011e+01 1.860500000000000043e+01 5.879999999999999671e-01 7.986432457428335741e-02
-2.174699999999999989e+01 2.462000000000000099e+01 -4.045900000000000318e+01 1.023506644812856303e-01
-2.174399999999999977e+01 2.992299999999999827e+01 -2.291799999999999926e+01 3.226740502238985009e-01
-2.172800000000000153e+01 2.979100000000000037e+01 -2.541199999999999903e+01 8.259859941369059044e-02
-2.172400000000000020e+01 3.172299999999999898e+01 -1.854299999999999926e+01 -8.859528715007199476e-03
-2.170799999999999841e+01 4.034400000000000119e+01 -2.653999999999999915e+01 2.007859304589273697e-01
-2.170499999999999829e+01 -5.716000000000000192e+00 2.963000000000000078e+00 -2.108822498382244837e-01
-2.170499999999999829e+01 3.097800000000000153e+01 -5.321800000000000352e+01 -1.108145921239371418e-01
-2.169300000000000139e+01 9.166000000000000369e+00 -1.497999999999999998e+00 -1.183114315281811740e-01
-2.168599999999999994e+01 3.788600000000000279e+01 -2.183200000000000074e+01 9.725859854965246409e-02
-2.168499999999999872e+01 3.444100000000000250e+01 -3.803900000000000148e+01 6.591205121528201372e-02
-2.168100000000000094e+01 -1.526000000000000023e+00 -2.476999999999999869e+00 -3.293998533582651045e-02
-2.167500000000000071e+01 2.450499999999999901e+01 1.695799999999999841e+01 -2.135810418632086427e-01
-2.166600000000000037e+01 9.186999999999999389e+00 9.270000000000000462e-01 1.234821611165180279e-02
-2.165200000000000102e+01 2.680199999999999960e+01 -5.298299999999999699e+01 -1.109393587212938598e-01
-2.164999999999999858e+01 -1.590000000000000080e+00 -6.714999999999999858e+00 -8.927756343908080372e-02
-2.164000000000000057e+01 4.356300000000000239e+01 -2.372700000000000031e+01 1.068381717676244458e-01
-2.162800000000000011e+01 8.013999999999999346e+00 -1.253500000000000014e+01 -1.163925318789210961e-01
-2.161400000000000077e+01 2.040399999999999991e+01 1.092800000000000082e+01 -8.424730489386104970e-02
-2.161299999999999955e+01 3.943900000000000006e+01 -3.229500000000000171e+01 1.378455045716479588e-01
-2.160699999999999932e+01 2.826899999999999835e+01 -5.256199999999999761e+01 3.374405412777955471e-01
-2.158800000000000097e+01 1.986400000000000077e+01 1.405000000000000027e+00 7.436459893721733549e-02
-2.158599999999999852e+01 2.248900000000000077e+01 -5.260499999999999687e+01 -2.187014636066856865e-01
-2.157700000000000173e+01 4.304299999999999926e+01 -1.995499999999999829e+01 1.755007700438890594e-01
-2.157000000000000028e+01 3.528000000000000114e+01 -2.774899999999999878e+01 3.878243760248553662e-01
-2.153699999999999903e+01 2.840800000000000125e+01 -5.110900000000000176e+01 2.426109077499235822e-01
-2.153500000000000014e+01 3.144000000000000128e+01 -4.603499999999999659e+01 8.668207441730568785e-02
-2.152799999999999869e+01 2.444300000000000139e+01 -4.302000000000000313e+01 2.754592942106923875e-02
-2.152199999999999847e+01 1.093500000000000050e+01 -4.697000000000000064e+00 5.918414586590953208e-02
-2.151500000000000057e+01 6.169999999999999929e-01 6.836999999999999744e+00 -4.935773969350695095e-02
-2.151200000000000045e+01 2.370299999999999940e+01 -5.239699999999999847e+01 -2.254572547411018424e-01
-2.149299999999999855e+01 4.221000000000000085e+00 -1.282399999999999984e+01 -2.171955148456761187e-01
-2.148699999999999832e+01 8.929000000000000270e+00 -1.334200000000000053e+01 -1.271078749623669735e-01
-2.147100000000000009e+01 3.320100000000000051e+01 -3.087000000000000099e+01 2.117767911186640983e-01
-2.146900000000000119e+01 2.422500000000000142e+01 1.180199999999999960e+01 1.165904325756487829e-02
-2.145599999999999952e+01 1.708399999999999963e+01 -3.685999999999999943e+00 7.297421600232179006e-02
-2.144900000000000162e+01 2.291600000000000037e+01 -4.576800000000000068e+01 -1.223684775436825883e-01
-2.143400000000000105e+01 2.892599999999999838e+01 -3.340999999999999659e+01 -7.825143930498203171e-02
-2.141600000000000037e+01 8.800000000000000044e-01 -9.970000000000000639e+00 -7.647159980505523202e-02
-2.141300000000000026e+01 1.332300000000000040e+01 6.380000000000000115e-01 -3.201497083493946155e-02
-2.141300000000000026e+01 3.133399999999999963e+01 1.025900000000000034e+01 1.987943823051561421e-01
-2.140899999999999892e+01 8.513999999999999346e+00 7.807000000000000384e+00 -1.209509468322466363e-01
-2.140899999999999892e+01 1.692099999999999937e+01 8.442000000000000171e+00 -8.232185503968215967e-02
-2.140399999999999991e+01 3.190299999999999869e+01 -4.166599999999999682e+01 1.842059329931957090e-01
-2.140099999999999980e+01 4.033100000000000307e+01 -1.451600000000000001e+01 -3.805808505179024692e-01
-2.139399999999999835e+01 -4.517999999999999794e+00 2.056999999999999940e+00 -5.060473158574326641e-03
-2.138299999999999912e+01 3.021699999999999875e+01 -2.684600000000000009e+01 -9.161038468899981163e-03
-2.134199999999999875e+01 3.459400000000000119e+01 -3.146499999999999986e+01 -4.896129275117940514e-03
-2.133800000000000097e+01 2.196699999999999875e+01 1.529700000000000060e+01 -1.660043782376349475e-01
-2.131899999999999906e+01 -1.725999999999999979e+00 -3.943999999999999950e+00 7.179584096041381758e-02
-2.130999999999999872e+01 3.963199999999999790e+01 -2.526099999999999923e+01 4.200000000000000400e-01
-2.130099999999999838e+01 -3.229000000000000092e+00 2.858000000000000096e+00 5.472114462213036046e-02
-2.129799999999999827e+01 2.828399999999999892e+01 -3.576400000000000290e+01 1.645772555089088374e-01
-2.129799999999999827e+01 4.050099999999999767e+01 -2.900300000000000011e+01 1.219611911736952353e-01
-2.129299999999999926e+01 2.535500000000000043e+01 -5.979000000000000092e+00 -1.427734069533756478e-01
-2.126800000000000068e+01 3.705400000000000205e+01 -2.909799999999999898e+01 4.101938631408169056e-01
-2.126699999999999946e+01 1.034900000000000020e+01 6.503000000000000114e+00 -1.180462938345469004e-01
-2.126000000000000156e+01 3.737800000000000011e+01 -3.931900000000000261e+01 -9.137789711170161977e-02
-2.125900000000000034e+01 3.815999999999999837e+00 1.869999999999999996e-01 -1.017851623650119740e-02
-2.125100000000000122e+01 2.214399999999999835e+01 -5.899999999999999689e-02 9.443568947447825157e-02
-2.124899999999999878e+01 3.285399999999999920e+01 -1.846300000000000097e+01 -4.051158990720370862e-02
-2.124099999999999966e+01 2.114399999999999835e+01 -7.990999999999999659e+00 2.273317448763726573e-02
-2.123900000000000077e+01 3.380899999999999750e+01 -4.739900000000000091e+01 -2.632477293229121829e-01
-2.122700000000000031e+01 3.718699999999999761e+01 -4.079500000000000171e+01 1.608236807573824173e-02
-2.121199999999999974e+01 4.391799999999999926e+01 -3.941499999999999915e+01 -2.323648120901556646e-01
-2.120899999999999963e+01 4.170900000000000318e+01 -2.923600000000000065e+01 1.385809875266990621e-01
-2.120599999999999952e+01 2.223000000000000043e+01 -3.031800000000000139e+01 -2.708701249313100190e-01
-2.118799999999999883e+01 2.171199999999999974e+01 -5.671999999999999709e+00 -5.413544575143879045e-02
-2.115800000000000125e+01 4.304399999999999693e+01 -2.238599999999999923e+01 5.934470793618575740e-02
-2.115599999999999881e+01 3.863199999999999790e+01 -1.767099999999999937e+01 -5.748124175392608365e-02
-2.115500000000000114e+01 2.426800000000000068e+01 1.460200000000000031e+01 8.606066171089543637e-02
-2.114999999999999858e+01 5.384000000000000341e+00 -1.373300000000000054e+01 -2.335912067518096935e-01
-2.113800000000000168e+01 6.044999999999999929e+00 1.389000000000000012e+00 -2.587620710841257998e-01
-2.112000000000000099e+01 2.987300000000000111e+01 -7.690000000000000169e-01 2.243231925772564903e-02
-2.111599999999999966e+01 8.990000000000000213e-01 -8.544999999999999929e+00 -1.320193388095005083e-01
-2.111499999999999844e+01 3.252700000000000102e+01 -3.907000000000000028e+01 2.518837399150885004e-01
-2.109499999999999886e+01 1.923499999999999943e+01 1.056499999999999950e+01 -7.953076178393372886e-02
-2.109299999999999997e+01 3.450300000000000011e+01 -3.296699999999999875e+01 1.691261973535249097e-01
-2.106700000000000017e+01 2.658899999999999864e+01 -4.829200000000000159e+01 6.891298577364902977e-03
-2.104299999999999926e+01 4.158000000000000362e+00 -1.167800000000000082e+01 -2.344364582905851258e-01
-2.104100000000000037e+01 6.753000000000000114e+00 3.686999999999999833e+00 -1.831523711141337940e-01
-2.103800000000000026e+01 2.462300000000000111e+01 -3.403699999999999903e+01 -2.635219316919731325e-01
-2.103699999999999903e+01 3.119000000000000217e+00 -5.868999999999999773e+00 1.114302968178922104e-01
-2.101200000000000045e+01 1.877599999999999980e+01 3.472999999999999865e+00 7.453216075199001027e-03
-2.098300000000000054e+01 2.145899999999999963e+01 1.088100000000000023e+01 -8.711332061605192578e-02
-2.098199999999999932e+01 4.350200000000000244e+01 -1.651399999999999935e+01 -2.299963870539336597e-01
-2.094399999999999906e+01 1.927000000000000046e+00 4.875000000000000000e+00 -4.176164322075250068e-02
-2.094000000000000128e+01 2.639699999999999847e+01 -5.389399999999999835e+01 -1.285932521241195392e-01
-2.093799999999999883e+01 4.372500000000000142e+01 -1.901200000000000045e+01 1.008976215675510407e-02
-2.093299999999999983e+01 4.392999999999999794e+00 4.456000000000000405e+00 -2.725335493249718688e-01
-2.091499999999999915e+01 1.499499999999999922e+01 1.022999999999999909e+00 -1.116070082194765140e-02
-2.089399999999999835e+01 8.320999999999999730e+00 -9.601000000000000867e+00 -2.052595147994759617e-01
-2.087999999999999901e+01 2.645899999999999963e+01 1.577899999999999991e+01 2.767874749112467780e-01
-2.087800000000000011e+01 5.320000000000000284e-01 1.631999999999999895e+00 -1.985095889904424926e-01
-2.086899999999999977e+01 2.703200000000000003e+01 9.256999999999999673e+00 9.407123897561872616e-02
-2.086499999999999844e+01 2.645299999999999940e+01 -2.383899999999999864e+01 1.752982881043413932e-01
-2.085900000000000176e+01 3.938000000000000256e+01 -1.526600000000000001e+01 -3.840696779442371311e-01
-2.084199999999999875e+01 7.094000000000000306e+00 -9.696999999999999176e+00 -1.527929373026634396e-01
-2.083699999999999974e+01 3.360199999999999676e+01 -3.834199999999999875e+01 2.151061403950436657e-01
-2.083399999999999963e+01 1.364400000000000013e+01 9.220000000000000639e+00 -2.234035042586486330e-01
-2.083099999999999952e+01 2.018400000000000105e+01 8.099999999999999645e+00 4.845750861714542834e-02
-2.082900000000000063e+01 6.230999999999999872e+00 -8.458999999999999631e+00 -6.262441600596663216e-02
-2.082400000000000162e+01 3.526200000000000045e+01 -2.538700000000000045e+01 3.835919761290121355e-01
-2.081899999999999906e+01 4.137299999999999756e+01 -3.828600000000000136e+01 7.285813078929327842e-03
-2.081500000000000128e+01 3.707500000000000284e+01 -4.451100000000000279e+01 -2.689991926667829603e-01
-2.078900000000000148e+01 2.707499999999999929e+01 1.063599999999999923e+01 8.430508064149358494e-02
-2.078300000000000125e+01 2.193999999999999950e+00 -3.279999999999999805e+00 -2.765112266159321791e-02
-2.078099999999999881e+01 2.493700000000000117e+01 1.592399999999999949e+01 6.374372113366010006e-02
-2.077599999999999980e+01 3.992000000000000171e+01 -2.769999999999999929e+01 1.311529618648121231e-01
-2.076699999999999946e+01 4.493900000000000006e+01 -1.907700000000000173e+01 -4.415290729622053413e-03
-2.075300000000000011e+01 -3.099999999999999978e-01 -1.067800000000000082e+01 -3.442046721969638234e-01
-2.074899999999999878e+01 2.788899999999999935e+01 -4.886500000000000199e+01 -3.329691198269297409e-02
-2.073999999999999844e+01 7.166000000000000369e+00 -7.363999999999999879e+00 2.190087189002321577e-01
-2.073499999999999943e+01 9.394000000000000128e+00 7.272000000000000242e+00 -1.235339798510499687e-01
-2.073199999999999932e+01 6.461999999999999744e+00 -1.085699999999999932e+01 -1.112857097959153024e-01
-2.073100000000000165e+01 7.870000000000000329e-01 5.902000000000000135e+00 -6.018130893361466061e-02
-2.073000000000000043e+01 2.263500000000000156e+01 -3.302600000000000335e+01 -2.230001072337139401e-01
-2.070499999999999829e+01 1.266900000000000048e+01 -3.253000000000000114e+00 6.501895750550237829e-02
-2.070200000000000173e+01 4.475399999999999778e+01 -3.471800000000000352e+01 -2.314929107531950581e-01
-2.068199999999999861e+01 3.215299999999999869e+01 3.204000000000000181e+00 3.085550706176584668e-01
-2.067200000000000060e+01 2.923499999999999943e+01 -1.838999999999999968e+00 -1.377273464329161201e-01
-2.066799999999999926e+01 5.676999999999999602e+00 4.722999999999999865e+00 -2.887755698780572478e-01
-2.066700000000000159e+01 3.329000000000000181e+00 5.455000000000000071e+00 1.005813835413540101e-02
-2.064900000000000091e+01 4.425600000000000023e+01 -3.710699999999999932e+01 -2.308762315271799537e-01
-2.063599999999999923e+01 2.775000000000000000e+01 -5.038000000000000256e+01 4.977662192544048125e-02
-2.062999999999999901e+01 2.904500000000000171e+01 -3.459300000000000352e+01 1.661906670181175216e-01
-2.061299999999999955e+01 3.072200000000000131e+01 3.706999999999999851e+00 2.105852772759987668e-01
-2.059400000000000119e+01 3.383500000000000085e+01 -5.179699999999999704e+01 -3.178528728892285327e-02
-2.055499999999999972e+01 3.048900000000000077e+01 -5.317399999999999949e+01 -1.945984816925184352e-02
-2.055199999999999960e+01 1.344299999999999962e+01 8.044000000000000483e+00 -8.460339716182607717e-02
-2.053900000000000148e+01 1.924299999999999855e+01 -4.720499999999999829e+01 -2.461860203421690207e-01
-2.053200000000000003e+01 3.572899999999999920e+01 -4.456300000000000239e+01 -2.672504150703440828e-01
-2.053000000000000114e+01 1.566099999999999959e+01 -1.115399999999999991e+01 3.226547212984822582e-02
-2.052100000000000080e+01 3.491999999999999993e+00 -4.496999999999999886e+00 -1.601515664855925614e-01
-2.051899999999999835e+01 -3.948999999999999844e+00 -4.373999999999999666e+00 -1.734361315811991933e-01
-2.051200000000000045e+01 -3.115000000000000213e+00 3.789000000000000146e+00 -9.890733763896594755e-02
-2.049500000000000099e+01 1.933000000000000052e+00 -7.993000000000000327e+00 -1.450612399165018274e-01
-2.048499999999999943e+01 1.899999999999999953e-02 -1.214000000000000057e+01 -3.053906235617986353e-01
-2.048100000000000165e+01 2.841400000000000148e+01 -3.804899999999999949e+01 2.664955962593879013e-01
-2.048000000000000043e+01 3.562299999999999756e+01 -2.684299999999999997e+01 4.033573507599537145e-01
-2.047500000000000142e+01 1.418099999999999916e+01 -7.692000000000000171e+00 -1.158576812173281317e-01
-2.045599999999999952e+01 3.051800000000000068e+01 -3.494299999999999784e+01 1.432844063994887229e-01
-2.043900000000000006e+01 7.192000000000000171e+00 -1.208200000000000074e+01 -9.437704266512624007e-02
-2.043100000000000094e+01 3.275200000000000244e+01 -2.112399999999999878e+01 1.973325269245894686e-01
-2.042299999999999827e+01 2.898300000000000054e+01 -5.322299999999999898e+01 3.697923599575846376e-01
-2.041900000000000048e+01 1.786100000000000065e+01 -1.071299999999999919e+01 -5.590680952057904690e-02
-2.041300000000000026e+01 4.293699999999999761e+01 -1.782199999999999918e+01 8.848830609659276425e-02
-2.040200000000000102e+01 2.375799999999999912e+01 5.823999999999999844e+00 1.270161444755651681e-01
-2.039900000000000091e+01 1.774200000000000088e+01 -4.737899999999999778e+01 -2.075531866126238412e-01
-2.039900000000000091e+01 2.429200000000000159e+01 -5.197699999999999676e+01 -2.652403632158371605e-01
-2.039499999999999957e+01 3.778900000000000148e+01 -5.081300000000000239e+01 -3.838964666382461699e-01
-2.039099999999999824e+01 3.062099999999999866e+01 7.842999999999999972e+00 2.745822324075827131e-02
-2.037699999999999889e+01 3.736699999999999733e+01 -4.802000000000000313e+01 -2.966120455495179220e-01
-2.037099999999999866e+01 3.034900000000000020e+01 8.599999999999999312e-02 2.639245326491362897e-01
-2.034600000000000009e+01 3.638499999999999801e+01 -1.748600000000000065e+01 5.320330996523240513e-02
-2.034299999999999997e+01 1.905999999999999917e+00 -6.482999999999999652e+00 -1.769520045950520593e-01
-2.030399999999999849e+01 2.048100000000000165e+01 1.106999999999999984e+00 -6.588840796329760441e-02
-2.030399999999999849e+01 2.368100000000000094e+01 -3.373499999999999943e+01 -2.350461070547974762e-01
-2.028300000000000125e+01 3.193599999999999994e+01 -4.626400000000000290e+01 8.725120690569190818e-02
-2.024699999999999989e+01 2.796699999999999875e+01 -3.682000000000000028e+01 9.319178001928657418e-02
-2.024500000000000099e+01 2.157799999999999940e+01 3.629999999999999893e-01 4.075533530403564753e-02
-2.022500000000000142e+01 1.054800000000000004e+01 -4.996000000000000441e+00 -5.098314145546649877e-03
-2.022299999999999898e+01 -2.783999999999999808e+00 -4.096000000000000085e+00 -2.173286907735020035e-01
-2.017999999999999972e+01 -4.809999999999999609e+00 1.322000000000000064e+00 3.878821892990735876e-02
-2.017599999999999838e+01 1.024799999999999933e+01 9.999000000000000554e+00 -2.045067567056413349e-01
-2.016900000000000048e+01 4.420700000000000074e+01 -3.834599999999999653e+01 -2.330179219065026397e-01
-2.015700000000000003e+01 1.640899999999999892e+01 4.535999999999999588e+00 -2.024917549004005488e-02
-2.014099999999999824e+01 1.313299999999999912e+01 1.022300000000000075e+01 -2.035938398058119991e-01
-2.014099999999999824e+01 2.033200000000000074e+01 -7.818999999999999950e+00 2.915978337533238398e-03
-2.014000000000000057e+01 3.311899999999999977e+01 -4.695199999999999818e+01 -2.117312934372482525e-01
-2.012800000000000011e+01 3.965299999999999869e+01 -3.225500000000000256e+01 6.960571681804848809e-02
-2.012699999999999889e+01 6.024000000000000021e+00 5.767999999999999794e+00 -1.910796768659358547e-01
-2.010999999999999943e+01 4.162199999999999989e+01 -4.210000000000000142e+01 -9.216931174311213115e-02
-2.010900000000000176e+01 2.704200000000000159e+01 -7.647999999999999687e+00 -1.794113795592139071e-01
-2.008899999999999864e+01 2.488700000000000045e+01 -6.621000000000000441e+00 -2.160432572087442882e-01
-2.007400000000000162e+01 2.090500000000000114e+01 -5.477999999999999758e+00 1.696968669129404472e-01
-2.007100000000000151e+01 3.756099999999999994e+01 -1.769300000000000139e+01 3.115297299529594648e-03
-2.006800000000000139e+01 1.564700000000000024e+01 -7.717999999999999972e+00 -5.637897255929106427e-02
-2.005000000000000071e+01 6.554000000000000270e+00 1.129000000000000004e+00 -5.501945049575308888e-02
-2.004899999999999949e+01 2.874000000000000110e+00 -8.650000000000000355e+00 1.419648661841918166e-02
-2.004700000000000060e+01 3.077400000000000091e+01 -2.693700000000000117e+01 2.801499626507822915e-01
-2.003900000000000148e+01 2.242399999999999949e+01 4.682999999999999829e+00 2.107891606678752028e-01
-2.003300000000000125e+01 -2.786000000000000032e+00 3.290000000000000147e-01 -6.689463674563707329e-02
-2.001800000000000068e+01 6.227000000000000313e+00 -1.318900000000000006e+01 -7.930208299070076738e-02
-2.000600000000000023e+01 2.836299999999999955e+01 -4.047899999999999920e+01 1.784604233298063003e-01
-1.997299999999999898e+01 9.407999999999999474e+00 -5.942999999999999616e+00 1.992566562861334822e-01
-1.996799999999999997e+01 2.986599999999999966e+01 2.710999999999999854e+00 3.217507035430344220e-01
-1.995700000000000074e+01 6.935999999999999943e+00 -6.323999999999999844e+00 4.677868946218563528e-02
-1.995299999999999940e+01 4.014399999999999835e+01 -1.010599999999999987e+01 -3.592363703778512218e-01
-1.994699999999999918e+01 8.035000000000000142e+00 -5.267000000000000348e+00 8.440864138552064966e-03
-1.991900000000000048e+01 3.353499999999999659e+01 8.949999999999999289e+00 -1.769028490830525935e-01
-1.991700000000000159e+01 3.101599999999999824e+01 1.017200000000000060e+01 1.057116855348049639e-01
-1.990500000000000114e+01 2.408299999999999841e+01 -4.925399999999999778e+01 3.605818793688917445e-01
-1.986100000000000065e+01 2.607300000000000040e+01 2.149999999999999911e+00 3.023610362162408305e-01
-1.985999999999999943e+01 1.679400000000000048e+01 -1.096499999999999986e+01 7.557512671913277358e-02
-1.982300000000000040e+01 3.818000000000000060e+00 -3.099999999999999978e-01 1.235383651267174532e-01
-1.982199999999999918e+01 4.453099999999999881e+01 -3.594899999999999807e+01 -2.306658924775687736e-01
-1.980699999999999861e+01 1.966799999999999926e+01 8.553000000000000824e+00 4.951370310587557139e-02
-1.979899999999999949e+01 3.800500000000000256e+01 -4.455700000000000216e+01 -3.502990566441717690e-01
-1.977199999999999847e+01 1.913700000000000045e+01 9.974000000000000199e+00 6.606510357207605322e-02
-1.976300000000000168e+01 3.307200000000000273e+01 -1.870499999999999829e+01 -6.455740244116656146e-02
-1.976099999999999923e+01 3.865500000000000114e+01 -5.003600000000000136e+01 -2.700842288205205222e-01
-1.975100000000000122e+01 2.674800000000000111e+01 8.487000000000000099e+00 6.043107743398642810e-03
-1.974899999999999878e+01 2.705099999999999838e+01 -5.087199999999999989e+01 5.159662566949389101e-02
-1.973600000000000065e+01 3.847899999999999920e+01 -4.871800000000000352e+01 -2.816150612459003000e-01
-1.972500000000000142e+01 3.571999999999999886e+01 -2.445299999999999940e+01 -5.125599465871481103e-02
-1.970599999999999952e+01 3.497399999999999665e+01 -2.034199999999999875e+01 -6.911446100810875182e-02
-1.968700000000000117e+01 -1.000000000000000021e-02 5.695999999999999730e+00 2.800538400471489497e-01
-1.968499999999999872e+01 2.698799999999999955e+01 -2.450799999999999912e+01 1.294774770828949484e-01
-1.967599999999999838e+01 3.904800000000000182e+01 -1.516399999999999970e+01 -2.299814333400052035e-01
-1.966799999999999926e+01 4.329800000000000182e+01 -2.221600000000000108e+01 -1.173644955661876377e-01
-1.966100000000000136e+01 -3.951000000000000068e+00 4.490000000000000102e-01 -2.319517984892279228e-01
-1.965200000000000102e+01 2.473799999999999955e+01 6.239999999999999991e-01 -9.678902844569410580e-03
-1.964499999999999957e+01 6.339999999999999858e+00 -3.023000000000000131e+00 -4.173504497129791602e-02
-1.962800000000000011e+01 1.994900000000000162e+01 -4.821200000000000330e+01 -6.344562766653266683e-02
-1.958500000000000085e+01 2.148000000000000043e+01 -4.828300000000000125e+01 -4.762858266349082048e-02
-1.958299999999999841e+01 4.088700000000000045e+01 -3.256700000000000017e+01 -2.490792248642512141e-01
-1.957499999999999929e+01 3.112600000000000122e+01 -3.427000000000000046e+00 2.950837788997393712e-02
-1.956800000000000139e+01 2.021199999999999974e+01 -6.568999999999999950e+00 3.504653279746793304e-01
-1.956500000000000128e+01 3.551299999999999812e+01 -5.070300000000000296e+01 -3.873165595529777239e-01
-1.956400000000000006e+01 2.684799999999999898e+01 1.123700000000000010e+01 -2.627010312791943497e-02
-1.956200000000000117e+01 2.318900000000000006e+01 -5.002799999999999869e+01 -3.762399925905784981e-02
-1.955499999999999972e+01 3.058500000000000085e+01 8.746999999999999886e+00 5.828912773658938284e-02
-1.952199999999999847e+01 2.858399999999999963e+01 -4.678399999999999892e+01 -1.243784110655018066e-01
-1.951599999999999824e+01 -6.270000000000000018e-01 -1.002800000000000047e+01 -6.443768371581923282e-02
-1.951500000000000057e+01 3.117800000000000082e+01 -5.310699999999999932e+01 1.268271660399118705e-02
-1.951000000000000156e+01 3.445600000000000307e+01 -5.132800000000000296e+01 -3.970857150528713797e-01
-1.950400000000000134e+01 3.348700000000000188e+01 -2.017599999999999838e+01 -1.296261718717608147e-01
-1.947299999999999898e+01 2.868299999999999983e+01 -4.293900000000000006e+01 2.230761984109005946e-01
-1.946999999999999886e+01 2.545299999999999940e+01 -2.867800000000000082e+01 -5.602444655672904686e-03
-1.945200000000000173e+01 2.075600000000000023e+01 -4.107999999999999652e+00 2.593986510284813085e-01
-1.944699999999999918e+01 2.606299999999999883e+01 -7.317999999999999616e+00 -2.071862973657179197e-01
-1.944399999999999906e+01 2.845700000000000074e+01 -4.830100000000000193e+01 -1.803223881009643481e-01
-1.944000000000000128e+01 2.191600000000000037e+01 -4.966499999999999915e+01 -4.902690896883566546e-02
-1.942999999999999972e+01 2.840099999999999980e+01 -3.905700000000000216e+01 -1.339349562328212041e-02
-1.940599999999999881e+01 1.229700000000000060e+01 -3.544999999999999929e+00 2.895480538449122371e-02
-1.940200000000000102e+01 4.034199999999999875e+01 -2.746699999999999875e+01 2.053048035225239487e-01
-1.939499999999999957e+01 2.669099999999999895e+01 -2.391000000000000014e+00 -7.638271628634332733e-02
-1.938400000000000034e+01 3.376200000000000045e+01 -3.791299999999999670e+01 2.845057937231174616e-01
-1.938299999999999912e+01 1.096700000000000053e+01 9.388999999999999346e+00 -1.908661389942409303e-01
-1.935600000000000165e+01 1.331900000000000084e+01 -7.105999999999999872e+00 1.306868471329964698e-01
-1.928699999999999903e+01 3.380799999999999983e+01 -3.638600000000000279e+01 3.296906977517758547e-02
-1.928600000000000136e+01 2.350400000000000134e+01 -5.148400000000000176e+01 2.805919559913015379e-02
-1.927400000000000091e+01 3.861299999999999955e+01 -3.193100000000000094e+01 5.713209637976178479e-02
-1.927199999999999847e+01 5.916000000000000369e+00 -6.214000000000000412e+00 2.700372652191714712e-02
-1.927100000000000080e+01 2.252700000000000102e+01 2.021699999999999875e+01 1.660113597990961476e-01
