2.962800000000000011e+01 3.469999999999999751e-01 2.702590000000000146e+02 1.503029378295910601e-01
2.965599999999999881e+01 -4.817999999999999616e+00 2.587660000000000196e+02 -2.193416485478685840e-01
2.966400000000000148e+01 -1.016999999999999904e+00 2.707029999999999745e+02 -5.805738314236132819e-02
2.967399999999999949e+01 3.580000000000000071e+00 2.729499999999999886e+02 3.355216157422805101e-01
2.967800000000000082e+01 2.036999999999999922e+00 2.862490000000000236e+02 -9.687951723400871351e-02
2.968499999999999872e+01 -2.009100000000000108e+01 2.632830000000000155e+02 -1.653655905490539202e-01
2.968700000000000117e+01 -6.261000000000000121e+00 2.968820000000000050e+02 -3.210857851301913701e-01
2.969399999999999906e+01 2.755999999999999783e+00 2.830659999999999741e+02 1.186326165245520266e-02
2.969500000000000028e+01 -3.625099999999999767e+01 2.846560000000000059e+02 -7.651802752576913891e-02
2.969699999999999918e+01 -3.117000000000000171e+01 2.919900000000000091e+02 3.143799954106510364e-01
2.970400000000000063e+01 -1.949599999999999866e+01 2.916750000000000114e+02 1.331832525883012153e-01
2.974800000000000111e+01 -3.272999999999999687e+01 2.901800000000000068e+02 1.285312492375205451e-01
2.975100000000000122e+01 -5.052999999999999936e+00 3.006770000000000209e+02 -1.037556153534043568e-01
2.975900000000000034e+01 3.329000000000000181e+00 2.880779999999999745e+02 -1.327108110507571881e-01
2.976000000000000156e+01 7.057000000000000384e+00 2.819220000000000255e+02 2.183197409957157442e-01
2.977299999999999969e+01 -2.751699999999999946e+01 2.745590000000000259e+02 1.369784810788571283e-02
2.978099999999999881e+01 3.595000000000000195e+00 2.541980000000000075e+02 -4.604523690450004064e-02
2.978200000000000003e+01 3.587000000000000188e+00 2.654230000000000018e+02 -1.179505379999917780e-02
2.979200000000000159e+01 2.451000000000000068e+00 2.519449999999999932e+02 9.845710320777226535e-03
2.979899999999999949e+01 -1.816499999999999915e+01 2.850799999999999841e+02 -8.000000000000001554e-02
2.980699999999999861e+01 4.663000000000000256e+00 2.735260000000000105e+02 3.036725060111918340e-01
2.980999999999999872e+01 -2.306400000000000006e+01 2.832090000000000032e+02 3.650558380836433914e-01
2.981299999999999883e+01 -7.275000000000000355e+00 2.959390000000000214e+02 2.199736876684108694e-02
2.981400000000000006e+01 -1.121599999999999930e+01 2.905160000000000196e+02 8.769299972630169304e-02
2.984100000000000108e+01 -2.807400000000000162e+01 2.807359999999999900e+02 -2.700754153419112624e-01
2.984400000000000119e+01 -9.551000000000000156e+00 2.840699999999999932e+02 2.169536820146687750e-01
2.988599999999999923e+01 -7.666999999999999815e+00 3.048159999999999741e+02 -1.771891597158840592e-01
2.989000000000000057e+01 2.729999999999999982e+00 2.552110000000000127e+02 -6.348116354953106666e-02
2.989399999999999835e+01 -1.048000000000000043e+01 2.918570000000000277e+02 7.230788917641788049e-02
2.991499999999999915e+01 -2.270400000000000063e+01 2.961669999999999732e+02 -1.847754369134726182e-01
2.992299999999999827e+01 -8.246000000000000441e+00 2.640120000000000005e+02 -2.590556690948658813e-01
2.994099999999999895e+01 -6.429999999999999716e+00 2.606870000000000118e+02 -2.169952643320471330e-01
2.994399999999999906e+01 -4.959999999999999964e+00 2.602289999999999850e+02 -2.161902290522673131e-01
2.994600000000000151e+01 -8.920999999999999375e+00 2.851259999999999764e+02 2.120766710610051953e-01
2.996199999999999974e+01 -6.592999999999999972e+00 2.621990000000000123e+02 -2.221558333571901911e-01
2.996900000000000119e+01 9.971999999999999531e+00 2.717019999999999982e+02 -5.476518926401219289e-02
2.997400000000000020e+01 -2.210699999999999932e+01 2.798759999999999764e+02 2.443179830123297369e-01
2.999800000000000111e+01 -3.744400000000000261e+01 2.846759999999999877e+02 -7.649018091405018760e-02
3.000799999999999912e+01 -3.244500000000000028e+01 2.837529999999999859e+02 -2.363479336161191866e-02
3.002499999999999858e+01 -1.932000000000000028e+01 2.939039999999999964e+02 3.742559207628685658e-01
3.003500000000000014e+01 -5.974999999999999645e+00 2.898389999999999986e+02 -2.600748977899046063e-02
3.004200000000000159e+01 -3.028300000000000125e+01 2.958829999999999814e+02 2.252265471889374204e-01
3.004400000000000048e+01 -1.516600000000000037e+01 3.040769999999999982e+02 -2.264861752505471504e-01
3.004899999999999949e+01 1.172899999999999920e+01 2.572579999999999814e+02 -3.882338516356324543e-01
3.006500000000000128e+01 7.371999999999999886e+00 2.745070000000000050e+02 1.512718469769928908e-01
3.006500000000000128e+01 1.286299999999999955e+01 2.692690000000000055e+02 -4.680916632960747253e-02
3.008200000000000074e+01 -2.783200000000000074e+01 2.793190000000000168e+02 -1.922598804595633815e-01
3.008399999999999963e+01 -2.002499999999999858e+01 2.790579999999999927e+02 -2.168791016708475072e-01
3.009400000000000119e+01 -2.333899999999999864e+01 2.975430000000000064e+02 -1.337550768419307756e-01
3.009499999999999886e+01 -9.666999999999999815e+00 3.000289999999999964e+02 -2.307968169105552025e-01
3.013299999999999912e+01 -1.639499999999999957e+01 2.927529999999999859e+02 2.797974509029333423e-01
3.016300000000000026e+01 -2.860699999999999932e+01 2.879180000000000064e+02 1.688578912760778095e-01
3.019999999999999929e+01 4.248999999999999666e+00 2.901779999999999973e+02 -1.234505599611731147e-01
3.020499999999999829e+01 -1.775600000000000023e+01 3.002640000000000100e+02 1.658342565325126583e-01
3.020899999999999963e+01 8.317000000000000171e+00 2.670230000000000246e+02 1.207992580756986206e-01
3.021300000000000097e+01 -9.804000000000000270e+00 2.669110000000000014e+02 -1.883654496077562523e-01
3.021699999999999875e+01 1.157399999999999984e+01 2.557609999999999957e+02 -3.949047575446537062e-01
3.022700000000000031e+01 1.903999999999999915e+00 2.810670000000000073e+02 1.920940957016479753e-02
3.023499999999999943e+01 -1.424099999999999966e+01 3.031419999999999959e+02 -2.418154392765997085e-01
3.028099999999999881e+01 -1.081600000000000072e+01 2.662019999999999982e+02 -1.886346049241702238e-01
3.029500000000000171e+01 1.562999999999999945e+00 2.667740000000000009e+02 -1.160562841630682768e-01
3.030999999999999872e+01 -1.861599999999999966e+01 2.861120000000000232e+02 5.282273409170253758e-02
3.032799999999999940e+01 -9.967999999999999972e+00 2.805659999999999741e+02 7.882870838126011803e-02
3.033599999999999852e+01 9.000000000000000222e-01 2.800059999999999718e+02 -1.207975475830933565e-01
3.034600000000000009e+01 -8.018000000000000682e+00 2.626419999999999959e+02 -2.428102556652060040e-01
3.035500000000000043e+01 -1.033300000000000018e+01 2.793849999999999909e+02 1.045457512547652568e-01
3.036400000000000077e+01 -1.991000000000000103e+00 2.916150000000000091e+02 -8.324732534391660055e-02
3.038100000000000023e+01 5.330000000000000293e-01 2.689169999999999732e+02 -1.960232039027469120e-01
3.038899999999999935e+01 -2.076699999999999946e+01 2.915489999999999782e+02 3.394796678230999065e-01
3.039199999999999946e+01 -2.856800000000000139e+01 2.748380000000000223e+02 -2.720551736932687592e-01
3.040800000000000125e+01 -2.903600000000000136e+01 2.762869999999999777e+02 6.330698048016211721e-03
3.041100000000000136e+01 -5.839000000000000412e+00 2.579929999999999950e+02 -2.236338153858710986e-01
3.042099999999999937e+01 -2.495000000000000107e+00 2.929750000000000227e+02 1.231723296703520071e-01
3.044800000000000040e+01 2.009999999999999787e+00 2.747490000000000236e+02 3.580153753806648020e-01
3.045400000000000063e+01 -1.235999999999999988e+00 2.860070000000000050e+02 -1.068932104842288122e-01
3.045700000000000074e+01 1.084299999999999997e+01 2.594970000000000141e+02 6.855321815001436288e-03
3.046000000000000085e+01 8.776999999999999247e+00 2.725160000000000196e+02 8.081011718300964985e-02
3.048100000000000165e+01 -9.823000000000000398e+00 2.694230000000000018e+02 -2.032619921592199730e-01
3.049800000000000111e+01 9.227000000000000313e+00 2.552139999999999986e+02 9.480170921767806791e-02
3.050199999999999889e+01 -2.660900000000000176e+01 2.957139999999999986e+02 1.141849049688035134e-01
3.050199999999999889e+01 -1.663500000000000156e+01 2.814979999999999905e+02 -2.191750271205040179e-01
3.050700000000000145e+01 1.076099999999999923e+01 2.580450000000000159e+02 -6.592738518869480265e-03
3.054700000000000060e+01 6.062000000000000277e+00 2.775179999999999723e+02 -2.127490338859897023e-02
3.055099999999999838e+01 7.511999999999999567e+00 2.716669999999999732e+02 3.173893918587434304e-01
3.055399999999999849e+01 -3.219800000000000040e+01 2.912710000000000150e+02 1.686027694554480261e-01
3.057499999999999929e+01 1.381999999999999895e+00 2.576159999999999854e+02 2.337776925921693782e-01
3.058999999999999986e+01 2.004999999999999893e+00 2.506839999999999975e+02 -1.063563974095823456e-02
3.059199999999999875e+01 3.310999999999999943e+00 2.529379999999999882e+02 -2.033129365319217077e-02
3.060300000000000153e+01 2.419999999999999929e+00 2.732789999999999964e+02 3.815113538070223353e-01
3.060600000000000165e+01 1.258999999999999897e+00 2.891329999999999814e+02 -1.140803174823464827e-01
3.062000000000000099e+01 6.116999999999999993e+00 2.839680000000000177e+02 2.691054534985664465e-02
3.063899999999999935e+01 1.233399999999999963e+01 2.643759999999999764e+02 -2.196313389516708070e-01
3.066000000000000014e+01 4.657000000000000028e+00 2.570720000000000027e+02 1.664399003217755246e-01
3.070700000000000074e+01 -7.141000000000000014e+00 2.880319999999999823e+02 -8.833274410407143673e-02
3.071600000000000108e+01 -1.958599999999999852e+01 2.966419999999999959e+02 3.947145522870419976e-01
3.074099999999999966e+01 6.995000000000000107e+00 2.664590000000000032e+02 2.153000291924860726e-02
3.074200000000000088e+01 1.359800000000000075e+01 2.635230000000000246e+02 -2.136752760914086002e-01
3.074399999999999977e+01 1.760000000000000009e+00 2.787959999999999923e+02 4.657592467540951076e-02
3.080099999999999838e+01 -1.087599999999999945e+01 2.509060000000000059e+02 2.180823474057063671e-01
3.084400000000000119e+01 -3.360000000000000209e-01 2.501299999999999955e+02 -2.741741186346723369e-01
3.085300000000000153e+01 -2.593499999999999872e+01 2.816080000000000041e+02 -2.447841681516216283e-02
3.087300000000000111e+01 1.476699999999999946e+01 2.671170000000000186e+02 -1.633418475102972611e-01
3.087900000000000134e+01 -2.073699999999999832e+01 2.639689999999999941e+02 -1.548914180989582889e-01
3.089900000000000091e+01 -1.524999999999999911e+00 2.677640000000000100e+02 -1.964440501076545054e-01
3.090099999999999980e+01 -1.841799999999999926e+01 2.975070000000000050e+02 1.803170032003031664e-01
3.090299999999999869e+01 -8.304999999999999716e+00 2.960699999999999932e+02 7.668878974579616814e-02
3.092299999999999827e+01 -4.660999999999999588e+00 3.015779999999999745e+02 -1.134587099162140955e-01
3.092599999999999838e+01 -3.472599999999999909e+01 2.827780000000000200e+02 -1.449160219947668027e-01
3.092699999999999960e+01 -6.690000000000000391e+00 2.891650000000000205e+02 9.824477662208455642e-02
3.093100000000000094e+01 -2.567099999999999937e+01 2.862230000000000132e+02 2.296415762456642806e-01
3.093900000000000006e+01 7.437000000000000277e+00 2.755040000000000191e+02 1.995466288684580314e-01
3.094399999999999906e+01 -2.506099999999999994e+01 3.072730000000000246e+02 -1.504330832476234725e-01
3.095200000000000173e+01 -2.165899999999999892e+01 2.832669999999999959e+02 -5.092124544156310939e-02
3.095200000000000173e+01 2.637000000000000011e+00 2.885989999999999895e+02 -1.183903626132758180e-01
3.095299999999999940e+01 3.138999999999999790e+00 2.807189999999999941e+02 4.389484735606051513e-02
3.096300000000000097e+01 -5.328000000000000291e+00 2.475579999999999927e+02 5.703241741920327124e-02
3.096399999999999864e+01 -2.800600000000000023e+01 2.830120000000000005e+02 -8.646622552133761963e-02
3.096799999999999997e+01 -2.744000000000000128e+01 2.815919999999999845e+02 -2.787558683884591715e-01
3.099500000000000099e+01 -2.924599999999999866e+01 2.739800000000000182e+02 -2.817472497316599322e-01
3.100499999999999901e+01 8.717999999999999972e+00 2.682570000000000050e+02 1.500907656300870807e-01
3.100900000000000034e+01 -2.414000000000000146e+00 2.852490000000000236e+02 -1.042487274391888513e-01
3.101200000000000045e+01 -3.458000000000000185e+00 2.513779999999999859e+02 -2.795064682183149296e-01
3.101899999999999835e+01 -2.032199999999999918e+01 2.892889999999999873e+02 1.362291215556637181e-01
3.101999999999999957e+01 -3.233400000000000318e+01 2.827219999999999800e+02 1.392730402839771897e-01
3.102400000000000091e+01 1.044500000000000028e+01 2.553530000000000086e+02 1.066844435895684395e-01
3.103600000000000136e+01 -8.942000000000000171e+00 2.858910000000000196e+02 2.724846845937859419e-01
3.103800000000000026e+01 -1.597400000000000020e+01 3.044390000000000214e+02 -1.610196427511922379e-01
3.104599999999999937e+01 -2.846699999999999875e+01 2.786589999999999918e+02 -1.329123318063012704e-01
3.104599999999999937e+01 -2.374800000000000111e+01 2.877789999999999964e+02 2.538252655997969565e-01
3.104899999999999949e+01 4.889999999999999902e-01 2.610419999999999732e+02 -2.868351438510012841e-01
3.106400000000000006e+01 -3.680000000000000160e+00 2.858340000000000032e+02 1.507200057848230856e-01
3.107700000000000173e+01 -1.532499999999999929e+01 2.820419999999999732e+02 -1.121806423775761619e-01
3.110399999999999920e+01 -1.666400000000000148e+01 2.916050000000000182e+02 2.939521905969303406e-01
3.110699999999999932e+01 -5.695000000000000284e+00 2.654279999999999973e+02 -1.635693124285155786e-01
3.111100000000000065e+01 -3.870900000000000318e+01 2.870470000000000255e+02 -7.552527527278914132e-02
3.111100000000000065e+01 5.799999999999999822e+00 2.578629999999999995e+02 -2.272164231982703730e-01
3.111400000000000077e+01 -4.610000000000000320e+00 2.920769999999999982e+02 3.083806648769818470e-01
3.112300000000000111e+01 -2.181899999999999906e+01 2.957850000000000250e+02 1.416101430852683696e-01
3.116799999999999926e+01 -8.880000000000000782e+00 2.703469999999999800e+02 -2.112761259774891265e-01
3.117599999999999838e+01 -9.618000000000000327e+00 2.680690000000000168e+02 -2.163883567917653239e-01
3.120499999999999829e+01 -2.809299999999999997e+01 2.771879999999999882e+02 2.937678044628901260e-03
3.121600000000000108e+01 -3.371900000000000119e+01 2.821309999999999718e+02 -2.461877872249108867e-01
3.122599999999999909e+01 -2.032400000000000162e+01 3.084320000000000164e+02 -1.713764874519462800e-01
3.122599999999999909e+01 -1.086999999999999966e+00 2.911680000000000064e+02 -1.360812870367140437e-01
3.123000000000000043e+01 6.948999999999999844e+00 2.557050000000000125e+02 -3.961058195545402033e-02
3.123100000000000165e+01 -1.069500000000000028e+01 2.925539999999999736e+02 8.209488103913419044e-02
3.124299999999999855e+01 7.684999999999999609e+00 2.533969999999999914e+02 1.363732647191999714e-01
3.126099999999999923e+01 -6.560000000000000275e-01 2.685670000000000073e+02 2.034590337102974433e-01
3.126300000000000168e+01 6.115000000000000213e+00 2.761779999999999973e+02 2.378910422201970243e-01
3.129200000000000159e+01 6.310000000000000053e-01 2.508149999999999977e+02 -5.692972714672406287e-02
3.129400000000000048e+01 -3.742999999999999883e+00 2.929440000000000168e+02 6.291450097619925852e-02
3.129500000000000171e+01 -3.837000000000000188e+00 2.501370000000000005e+02 -2.783512035514942862e-01
3.129799999999999827e+01 -2.179700000000000060e+01 2.796870000000000118e+02 1.479867006381932470e-02
3.131700000000000017e+01 -9.969999999999999973e-01 2.896549999999999727e+02 -1.254050641257274390e-01
3.131800000000000139e+01 -3.055000000000000160e+00 2.491930000000000121e+02 -2.789588323196298680e-01
3.133599999999999852e+01 9.230000000000000426e-01 2.750489999999999782e+02 3.139195406676845712e-01
3.134100000000000108e+01 7.044999999999999929e+00 2.570269999999999868e+02 -2.840928267930873385e-01
3.136100000000000065e+01 1.290399999999999991e+01 2.686159999999999854e+02 8.393075986997389215e-02
3.137600000000000122e+01 -2.073699999999999832e+01 2.968299999999999841e+02 1.260403890310502206e-01
3.138800000000000168e+01 -2.068499999999999872e+01 2.904100000000000250e+02 3.433532127589270511e-01
3.142200000000000060e+01 -2.053600000000000136e+01 2.791899999999999977e+02 4.369426448899234317e-02
3.142399999999999949e+01 3.556000000000000050e+00 2.897320000000000277e+02 -1.228995461199086509e-01
3.144300000000000139e+01 -7.003000000000000114e+00 3.018210000000000264e+02 -1.386973807951610849e-01
3.145499999999999829e+01 -3.786999999999999744e+01 2.847860000000000014e+02 -7.077660365940455223e-02
3.146099999999999852e+01 8.102000000000000313e+00 2.548489999999999895e+02 8.977031659775511208e-02
3.146799999999999997e+01 8.487999999999999545e+00 2.758799999999999955e+02 2.156576886925615499e-01
3.148199999999999932e+01 -6.199999999999999956e-02 2.803340000000000032e+02 -3.695540343072966499e-02
3.150400000000000134e+01 -7.671000000000000263e+00 2.695129999999999768e+02 -2.213238765066648239e-01
3.151800000000000068e+01 -5.386000000000000121e+00 2.667610000000000241e+02 -2.277738757963702620e-01
3.152400000000000091e+01 -2.262999999999999901e+00 2.839610000000000127e+02 -2.280849349951072913e-01
3.152700000000000102e+01 1.713000000000000078e+00 2.668480000000000132e+02 -1.330605193803415243e-01
3.158500000000000085e+01 3.669999999999999929e-01 2.891990000000000123e+02 -1.161328104002145034e-01
3.159100000000000108e+01 -9.544000000000000483e+00 2.812980000000000018e+02 1.344944664709044058e-01
3.159700000000000131e+01 -7.964000000000000412e+00 2.482419999999999902e+02 2.338096239450885849e-01
3.160000000000000142e+01 -4.759999999999999787e+00 2.851519999999999868e+02 2.978735424055986014e-01
3.161400000000000077e+01 -5.309999999999999609e+00 2.499319999999999879e+02 1.081899739285057394e-01
3.161599999999999966e+01 -1.766600000000000037e+01 2.813949999999999818e+02 -8.336681876188288542e-02
3.162800000000000011e+01 8.743999999999999773e+00 2.523950000000000102e+02 -1.121842977663663754e-01
3.164699999999999847e+01 8.102999999999999758e+00 2.575880000000000223e+02 4.200678771311235071e-02
3.165500000000000114e+01 2.794000000000000039e+00 2.794180000000000064e+02 2.565618391986785318e-01
3.169800000000000040e+01 -8.243999999999999773e+00 2.681680000000000064e+02 -2.328235400784390285e-01
3.170799999999999841e+01 -1.293800000000000061e+01 2.520279999999999916e+02 1.165476528267900547e-01
3.171900000000000119e+01 1.433099999999999952e+01 2.681689999999999827e+02 -1.854485126415000296e-01
3.172700000000000031e+01 -3.376599999999999824e+01 2.808960000000000150e+02 -2.303150927817951277e-01
3.174399999999999977e+01 -8.028999999999999915e+00 2.811990000000000123e+02 1.530516556690712793e-01
3.174500000000000099e+01 -2.501000000000000156e+01 2.873059999999999832e+02 3.225100687072114392e-01
3.174599999999999866e+01 -9.949999999999999956e-01 2.794300000000000068e+02 -2.068403046684696156e-01
3.175499999999999901e+01 1.143599999999999994e+01 2.641209999999999809e+02 1.504914030466402430e-01
3.175900000000000034e+01 -2.728600000000000136e+01 2.952239999999999895e+02 3.167272425463213414e-01
3.177199999999999847e+01 -1.739099999999999824e+01 2.967930000000000064e+02 1.302090057616936414e-01
3.177700000000000102e+01 -2.930300000000000082e+01 2.791920000000000073e+02 -8.726885010106655294e-02
3.180900000000000105e+01 -1.661100000000000065e+01 2.875169999999999959e+02 -8.000000000000001554e-02
3.181099999999999994e+01 -8.353999999999999204e+00 2.623720000000000141e+02 -1.499775198941067367e-01
3.181700000000000017e+01 -1.870899999999999963e+01 2.862500000000000000e+02 3.542469309951966350e-02
3.181899999999999906e+01 1.077100000000000080e+01 2.601659999999999968e+02 -6.267673748106346310e-02
3.183599999999999852e+01 -5.820999999999999730e+00 3.019649999999999750e+02 -1.284063519693507405e-01
3.184100000000000108e+01 -3.156099999999999994e+01 2.907389999999999759e+02 3.182760184497147038e-01
3.184900000000000020e+01 -2.362999999999999989e+00 2.597479999999999905e+02 -4.024241621479055508e-01
3.185200000000000031e+01 1.879000000000000004e+00 2.626820000000000164e+02 -3.082215878986243121e-02
3.186499999999999844e+01 2.669000000000000039e+00 2.532529999999999859e+02 -6.300101214263456595e-02
3.187300000000000111e+01 -1.195599999999999952e+01 2.508760000000000048e+02 8.920545358136985903e-02
3.187699999999999889e+01 -3.503699999999999903e+01 2.801890000000000214e+02 -2.256902720047288258e-01
3.189000000000000057e+01 -3.782099999999999795e+01 2.862559999999999718e+02 -7.553571757226054673e-02
3.189699999999999847e+01 -3.679999999999999938e-01 2.919060000000000059e+02 -1.338574439541167505e-01
3.194699999999999918e+01 7.610000000000000098e-01 2.619780000000000086e+02 -3.754410996604065076e-01
3.196399999999999864e+01 -1.362199999999999989e+01 2.954220000000000255e+02 3.404321224234140297e-01
3.196900000000000119e+01 2.837000000000000188e+00 2.729889999999999759e+02 9.648036478158289464e-02
3.197800000000000153e+01 1.133900000000000041e+01 2.612479999999999905e+02 -1.691824110263446812e-01
3.197899999999999920e+01 -1.829200000000000159e+01 2.823910000000000196e+02 2.434614456282752776e-02
3.200000000000000000e+01 -2.631899999999999906e+01 2.917330000000000041e+02 -1.148556493393334127e-01
3.204200000000000159e+01 -5.618999999999999773e+00 2.484960000000000093e+02 6.951578268336826294e-02
3.205499999999999972e+01 -1.481000000000000050e+01 2.811589999999999918e+02 7.131815015124923218e-02
3.206300000000000239e+01 -2.087199999999999989e+01 2.630149999999999864e+02 -1.381210173435223898e-01
3.206700000000000017e+01 -3.342000000000000082e+00 2.832629999999999768e+02 -2.146617115712500801e-01
3.207800000000000296e+01 7.251999999999999780e+00 2.627939999999999827e+02 -3.140927958295856165e-02
3.210699999999999932e+01 -4.591000000000000192e+00 2.838759999999999764e+02 8.740833813050412349e-02
3.212100000000000222e+01 1.420800000000000018e+01 2.635840000000000032e+02 -2.259976111631050721e-01
3.212899999999999778e+01 -2.093499999999999872e+01 2.977909999999999968e+02 1.494368635561732495e-01
3.213900000000000290e+01 5.500000000000000028e-02 2.813809999999999718e+02 -3.466892219548757537e-02
3.215599999999999881e+01 -1.016099999999999959e+01 2.426810000000000116e+02 9.504547407177683926e-02
3.216599999999999682e+01 4.187000000000000277e+00 2.594940000000000282e+02 1.793274730662747785e-01
3.216700000000000159e+01 -1.783200000000000074e+01 2.801960000000000264e+02 -7.727721112352980981e-02
3.220300000000000296e+01 -9.766000000000000014e+00 2.856190000000000282e+02 -1.170477392504218686e-02
3.220799999999999841e+01 -1.219800000000000040e+01 2.816039999999999850e+02 -2.194986016499304166e-02
3.221000000000000085e+01 -2.017999999999999972e+01 3.037130000000000223e+02 -1.116747181898870567e-01
3.222899999999999920e+01 -8.365000000000000213e+00 2.612060000000000173e+02 -1.383433663143914250e-01
3.226200000000000045e+01 1.391000000000000014e+00 2.712919999999999732e+02 4.849498786045632059e-02
3.226299999999999812e+01 -7.886000000000000121e+00 2.924929999999999950e+02 4.101961334167221196e-01
3.226299999999999812e+01 -3.814000000000000057e+00 2.938489999999999895e+02 2.407281854462880490e-03
3.226500000000000057e+01 -9.942000000000000171e+00 2.880090000000000146e+02 2.270312128155415610e-01
3.226500000000000057e+01 -6.931000000000000050e+00 2.898399999999999750e+02 3.830669284649232398e-01
3.227100000000000080e+01 -8.323999999999999844e+00 2.902850000000000250e+02 3.880715850531356037e-01
3.228000000000000114e+01 -2.779899999999999949e+01 2.837309999999999945e+02 9.844472058177153317e-02
3.228600000000000136e+01 5.220000000000000195e-01 2.515980000000000132e+02 -7.480586236773814623e-02
3.229299999999999926e+01 -3.701400000000000290e+01 2.839560000000000173e+02 -2.056082714048821924e-01
3.229699999999999704e+01 -7.692000000000000171e+00 2.962459999999999809e+02 7.925469099665577444e-02
3.230700000000000216e+01 -8.688000000000000611e+00 2.915600000000000023e+02 3.299195423968840912e-01
3.232900000000000063e+01 -3.182600000000000051e+01 2.833380000000000223e+02 -9.741482841552420724e-02
3.233200000000000074e+01 -2.261799999999999855e+01 2.955749999999999886e+02 2.190566473944011716e-01
3.233599999999999852e+01 -4.152000000000000135e+00 2.791639999999999873e+02 -1.740938753151179130e-01
3.233899999999999864e+01 -1.931599999999999895e+01 2.850369999999999777e+02 -7.543775987624455268e-04
3.234199999999999875e+01 -2.454899999999999949e+01 3.069189999999999827e+02 6.526012280057921777e-02
3.234199999999999875e+01 -7.716000000000000192e+00 2.671220000000000141e+02 -2.478840364405914820e-01
3.235399999999999920e+01 1.253100000000000058e+01 2.707799999999999727e+02 2.987165646442670880e-02
3.236299999999999955e+01 -2.309400000000000119e+01 3.068890000000000100e+02 5.527870038037972344e-04
3.236299999999999955e+01 5.479000000000000092e+00 2.587060000000000173e+02 1.266369066310550628e-01
3.238600000000000279e+01 -1.593500000000000050e+01 3.038720000000000141e+02 -2.499961015032828651e-02
3.238799999999999812e+01 -2.758000000000000007e+00 2.617980000000000018e+02 -3.976412263930947377e-01
3.239800000000000324e+01 -2.210999999999999943e+01 2.833090000000000259e+02 1.454458629865380825e-01
3.240200000000000102e+01 -1.731099999999999994e+01 2.864300000000000068e+02 6.847895496575583107e-02
3.243900000000000006e+01 -6.610000000000000320e-01 2.691580000000000155e+02 1.875596431043681234e-01
3.244599999999999795e+01 1.239400000000000013e+01 2.695550000000000068e+02 3.772331350919640863e-02
3.244800000000000040e+01 -7.078999999999999737e+00 2.483729999999999905e+02 2.698764020497627092e-01
3.245700000000000074e+01 1.491300000000000026e+01 2.645339999999999918e+02 -2.416213991442365538e-01
3.247299999999999898e+01 -1.017200000000000060e+01 2.918399999999999750e+02 3.445322667900868607e-01
3.248400000000000176e+01 -2.801099999999999923e+01 2.963480000000000132e+02 2.999183003102283140e-01
3.248700000000000188e+01 4.283000000000000362e+00 2.546790000000000020e+02 5.952852749632903118e-02
3.249499999999999744e+01 -3.727100000000000080e+01 2.807989999999999782e+02 -1.474004459055852367e-01
3.249900000000000233e+01 -3.476899999999999835e+01 2.788159999999999741e+02 -2.102273253585402180e-01
3.250900000000000034e+01 -3.004000000000000004e+00 2.605830000000000268e+02 -4.040424958880406980e-01
3.253600000000000136e+01 -1.653000000000000114e+01 2.524579999999999984e+02 2.348293388940494442e-01
3.254099999999999682e+01 2.248000000000000220e+00 2.846329999999999814e+02 -3.768238091992072436e-02
3.255100000000000193e+01 -1.762999999999999901e+00 2.891539999999999964e+02 -1.131630295795134772e-01
3.256099999999999994e+01 -2.635800000000000054e+01 3.053720000000000141e+02 3.885174432322343469e-02
3.256900000000000261e+01 -2.043299999999999983e+01 3.060819999999999936e+02 6.845811557194522723e-02
3.257200000000000273e+01 -8.715999999999999304e+00 2.633949999999999818e+02 -1.989610500925823589e-01
3.257999999999999829e+01 -1.319500000000000028e+01 2.470670000000000073e+02 -9.600144326211645929e-03
3.260600000000000165e+01 5.996999999999999886e+00 2.630629999999999882e+02 9.159351771820974791e-03
3.260900000000000176e+01 -2.807900000000000063e+01 2.768020000000000209e+02 -2.732038683038859328e-01
3.262800000000000011e+01 -8.393000000000000682e+00 2.661279999999999859e+02 -9.322417823081199928e-02
3.262899999999999778e+01 -6.903999999999999915e+00 2.950720000000000027e+02 2.586546154583238555e-01
3.263199999999999790e+01 -1.040399999999999991e+01 2.869340000000000259e+02 2.514011942345629191e-01
3.263300000000000267e+01 -3.094999999999999929e+01 2.918960000000000150e+02 4.247987894257049812e-01
3.263300000000000267e+01 -5.671000000000000263e+00 2.832119999999999891e+02 2.416224670861299439e-01
3.263900000000000290e+01 -2.200600000000000023e+01 2.934209999999999923e+02 2.572026363003167559e-01
3.263900000000000290e+01 -2.029200000000000159e+01 3.085310000000000059e+02 5.591126430701498506e-02
3.264999999999999858e+01 -2.098499999999999943e+01 2.907060000000000173e+02 1.052672741091007919e-01
3.268200000000000216e+01 -3.260300000000000153e+01 2.900029999999999859e+02 7.412788369962060309e-02
3.268399999999999750e+01 2.307999999999999829e+00 2.720009999999999764e+02 2.325542596485981606e-01
3.268900000000000006e+01 -3.606099999999999994e+01 2.809800000000000182e+02 -2.540710958661028251e-01
3.269100000000000250e+01 6.006000000000000227e+00 2.764049999999999727e+02 5.258101080309583036e-02
3.271399999999999864e+01 -1.981400000000000006e+01 2.788460000000000036e+02 -7.756142731586555816e-02
3.271699999999999875e+01 -6.245000000000000107e+00 2.671859999999999786e+02 -2.436155139717148810e-01
3.271999999999999886e+01 8.092000000000000526e+00 2.618809999999999718e+02 -6.041832695255602154e-02
3.272099999999999653e+01 1.123700000000000010e+01 2.650079999999999814e+02 -2.079207362014749150e-01
3.273400000000000176e+01 3.245000000000000107e+00 2.540709999999999980e+02 -1.415537228740197107e-01
3.275099999999999767e+01 -1.019299999999999962e+01 2.807259999999999991e+02 1.832361096268838307e-01
3.277499999999999858e+01 1.181799999999999962e+01 2.660960000000000036e+02 -8.395769091438254339e-02
3.280700000000000216e+01 1.011299999999999955e+01 2.595559999999999832e+02 -1.120401631504055889e-01
3.283299999999999841e+01 -2.517800000000000082e+01 3.056190000000000282e+02 3.530181365328698834e-02
3.284199999999999875e+01 -1.860200000000000031e+01 2.536570000000000107e+02 -3.255142477845234250e-01
3.288100000000000023e+01 -2.372899999999999920e+01 2.571949999999999932e+02 -2.666339775280353597e-01
3.291299999999999670e+01 -2.911999999999999922e+00 2.785110000000000241e+02 -1.754954901681143320e-01
3.291700000000000159e+01 -1.182399999999999984e+01 2.471920000000000073e+02 3.343551215310893721e-01
3.292499999999999716e+01 -1.166799999999999926e+01 2.983279999999999745e+02 5.253085687218726763e-02
3.293599999999999994e+01 -8.999999999999999667e-02 2.622099999999999795e+02 -3.676541831883231026e-01
3.294400000000000261e+01 1.391300000000000026e+01 2.625860000000000127e+02 -1.030840897831466763e-01
3.296500000000000341e+01 -1.148799999999999955e+01 2.809340000000000259e+02 2.268072687729957015e-01
3.297099999999999653e+01 1.405999999999999917e+00 2.837080000000000268e+02 -5.902425396141993547e-02
3.297500000000000142e+01 -5.549999999999999822e+00 3.024200000000000159e+02 -1.737831545108548537e-01
3.297599999999999909e+01 5.390000000000000346e-01 2.887359999999999900e+02 -2.310530354698242805e-01
3.299900000000000233e+01 -2.626000000000000156e+01 2.780470000000000255e+02 -1.041500427618105920e-02
3.300000000000000000e+01 -2.005900000000000105e+01 3.025029999999999859e+02 3.966255888334162261e-02
3.300099999999999767e+01 -2.263899999999999935e+01 2.944139999999999873e+02 2.693226048311457843e-01
3.300500000000000256e+01 -1.715000000000000080e+00 2.794549999999999841e+02 -1.875837094445810815e-01
3.300800000000000267e+01 -3.597899999999999920e+01 2.780960000000000036e+02 -2.139899905937423519e-01
3.301400000000000290e+01 -2.075499999999999901e+01 3.048629999999999995e+02 -1.189925699904843953e-01
3.305499999999999972e+01 5.363999999999999879e+00 2.866440000000000055e+02 -7.245794415798913202e-02
3.305799999999999983e+01 -5.655999999999999694e+00 2.951820000000000164e+02 -1.248965583911030436e-02
3.306000000000000227e+01 -2.043400000000000105e+01 2.850450000000000159e+02 1.898829093928388612e-01
3.308700000000000330e+01 8.557000000000000384e+00 2.499519999999999982e+02 -2.823322747837965219e-01
3.309599999999999653e+01 4.517000000000000348e+00 2.701490000000000009e+02 2.260530006153497681e-02
3.312100000000000222e+01 8.989000000000000767e+00 2.524079999999999870e+02 -1.260608449879708215e-01
3.312400000000000233e+01 -2.473100000000000165e+01 2.867019999999999982e+02 -7.901527645171305125e-02
3.312500000000000000e+01 -1.791600000000000037e+01 2.964700000000000273e+02 2.710470256896234109e-01
3.317900000000000205e+01 5.024000000000000021e+00 2.744180000000000064e+02 1.303251121200922347e-01
3.319299999999999784e+01 -1.883399999999999963e+01 2.799379999999999882e+02 -7.859958434048371079e-02
3.319500000000000028e+01 -1.422499999999999964e+01 2.875570000000000164e+02 6.376614371899622102e-02
3.320900000000000318e+01 -1.340600000000000058e+01 2.441829999999999927e+02 -1.888027277411505681e-02
3.322899999999999920e+01 -2.148900000000000077e+01 2.637289999999999850e+02 -1.372381550769905534e-01
3.323599999999999710e+01 -1.323199999999999932e+01 2.885600000000000023e+02 1.188428213316791993e-01
3.324799999999999756e+01 -4.894999999999999574e+00 2.938809999999999718e+02 -6.376266213005940542e-02
3.326700000000000301e+01 -1.131199999999999939e+01 2.509139999999999873e+02 3.280055147489088219e-01
3.327400000000000091e+01 -5.107999999999999652e+00 2.962710000000000150e+02 -1.374886185168978370e-01
3.328699999999999903e+01 -2.712999999999999901e+01 2.915849999999999795e+02 2.104882194872770285e-01
3.329399999999999693e+01 -2.086700000000000088e+01 3.072740000000000009e+02 7.071000669881108425e-02
3.329999999999999716e+01 -8.819000000000000838e+00 2.964370000000000118e+02 1.014579389605392706e-01
3.331000000000000227e+01 -8.868999999999999773e+00 2.850419999999999732e+02 1.882684428142851751e-01
3.331199999999999761e+01 -2.783500000000000085e+01 2.902320000000000277e+02 2.036413560679992685e-01
3.331700000000000017e+01 2.700000000000000178e+00 2.651909999999999741e+02 -3.095838661070029474e-01
3.334300000000000352e+01 -1.511100000000000065e+01 3.047180000000000177e+02 -5.084729976045813948e-02
3.334499999999999886e+01 -8.361000000000000654e+00 2.989030000000000200e+02 -1.122972548624648070e-01
3.336200000000000188e+01 -1.853900000000000148e+01 2.952579999999999814e+02 3.819749484925162308e-01
3.338600000000000279e+01 -1.034600000000000009e+01 2.425869999999999891e+02 1.261469805817033718e-01
3.338600000000000279e+01 -1.727999999999999980e+00 2.689270000000000209e+02 1.803976447695088692e-01
3.338700000000000045e+01 -2.238400000000000034e+01 3.073589999999999804e+02 3.260086322760378380e-02
3.340200000000000102e+01 -2.710900000000000176e+01 2.772459999999999809e+02 -2.692287781362779908e-01
3.340599999999999881e+01 -1.364400000000000013e+01 2.949350000000000023e+02 1.579593216501840869e-01
3.341700000000000159e+01 -2.101999999999999957e+01 2.836899999999999977e+02 -3.627199728241321114e-02
3.342000000000000171e+01 2.266000000000000014e+00 2.856209999999999809e+02 -7.309752333680986577e-03
3.342199999999999704e+01 -5.096000000000000085e+00 2.796789999999999736e+02 -5.221366195482898126e-02
3.342499999999999716e+01 -3.160000000000000142e+01 2.823460000000000036e+02 1.584021729885195240e-01
3.342900000000000205e+01 -6.639999999999999680e+00 2.888829999999999814e+02 3.837510214637578354e-01
3.343800000000000239e+01 -5.168999999999999595e+00 2.884839999999999804e+02 1.625872769127547357e-01
3.344100000000000250e+01 -2.098900000000000077e+01 2.860819999999999936e+02 1.579413714813841518e-01
3.344500000000000028e+01 -1.145199999999999996e+01 2.868509999999999991e+02 2.435317184870480212e-01
3.347899999999999920e+01 1.179800000000000004e+01 2.689619999999999891e+02 1.167612082466596146e-01
3.347999999999999687e+01 -1.568699999999999939e+01 3.061109999999999900e+02 -1.289934902183362264e-01
3.348799999999999955e+01 -4.070000000000000284e+00 2.601209999999999809e+02 -4.114084013228230807e-01
3.350099999999999767e+01 -1.053500000000000014e+01 2.497079999999999984e+02 1.894371563319589558e-01
3.350699999999999790e+01 -1.420899999999999963e+01 2.935260000000000105e+02 1.792047783892048440e-01
3.352100000000000080e+01 5.424999999999999822e+00 2.755489999999999782e+02 1.289777705640335892e-01
3.352199999999999847e+01 -3.740500000000000114e+01 2.836220000000000141e+02 -2.371770696417204172e-01
3.352300000000000324e+01 -1.746499999999999986e+01 2.529079999999999870e+02 -8.406590935009206067e-02
3.354399999999999693e+01 -2.442200000000000060e+01 3.047850000000000250e+02 6.613057643217888637e-02
3.355599999999999739e+01 -3.068499999999999872e+01 2.813570000000000277e+02 6.244449719720576025e-02
3.355899999999999750e+01 -3.561200000000000188e+01 2.818840000000000146e+02 -2.898543232901288902e-01
3.358599999999999852e+01 5.378000000000000114e+00 2.577959999999999923e+02 2.655046230887387892e-01
3.360300000000000153e+01 9.429999999999999716e+00 2.510399999999999920e+02 -1.438600653397124340e-01
3.363400000000000034e+01 -1.032000000000000028e+01 2.926960000000000264e+02 3.673578292287917324e-01
3.363600000000000279e+01 -7.550000000000000044e-01 2.891600000000000250e+02 -2.282582097958638645e-01
3.364999999999999858e+01 -2.266700000000000159e+01 2.566499999999999773e+02 -2.478195688040325528e-01
3.367000000000000171e+01 -9.502000000000000668e+00 2.954730000000000132e+02 1.827517632588795682e-01
3.368800000000000239e+01 -2.875499999999999901e+01 2.957880000000000109e+02 2.323190746499525505e-01
3.368800000000000239e+01 -2.108699999999999974e+01 2.896890000000000214e+02 3.102371113636034905e-01
3.371600000000000108e+01 -1.694999999999999929e+01 3.007919999999999732e+02 1.181661745164946514e-01
3.372800000000000153e+01 8.983999999999999986e+00 2.654010000000000105e+02 -3.341140461740555595e-02
3.373100000000000165e+01 -9.069000000000000838e+00 2.976680000000000064e+02 1.052718127250833885e-01
3.373199999999999932e+01 -1.397499999999999964e+01 2.464430000000000121e+02 -1.042160612414416987e-01
3.375000000000000000e+01 -7.326999999999999957e+00 2.484079999999999870e+02 1.904203789804241043e-01
3.375600000000000023e+01 5.581999999999999851e+00 2.624320000000000164e+02 2.986341868213244211e-01
3.381000000000000227e+01 -5.006000000000000227e+00 2.808679999999999950e+02 1.286170944918827927e-02
3.381300000000000239e+01 4.349999999999999645e+00 2.872860000000000014e+02 -1.690291085127354764e-01
3.382300000000000040e+01 2.600000000000000089e-01 2.783779999999999859e+02 -2.212316641771764902e-01
3.382399999999999807e+01 1.027999999999999936e+01 2.646000000000000227e+02 -2.665450636339016244e-01
3.383500000000000085e+01 -1.275099999999999945e+01 2.789470000000000027e+02 1.102310237716051279e-02
3.386599999999999966e+01 -2.515200000000000102e+01 2.752810000000000059e+02 -2.469785267222275871e-01
3.386599999999999966e+01 -6.022999999999999687e+00 2.663210000000000264e+02 -1.591250163687766561e-01
3.388100000000000023e+01 7.671999999999999709e+00 2.612300000000000182e+02 2.986511434473569926e-01
3.389099999999999824e+01 -2.256500000000000128e+01 2.893729999999999905e+02 2.951771656505629005e-01
3.390100000000000335e+01 -5.921999999999999709e+00 2.788759999999999764e+02 -8.054618086027430512e-02
3.393299999999999983e+01 -1.497400000000000020e+01 2.598709999999999809e+02 -4.504684337839255648e-02
3.395499999999999829e+01 -1.060999999999999943e+01 2.415089999999999861e+02 -2.463424624522184136e-01
3.395600000000000307e+01 -3.203499999999999659e+01 2.894180000000000064e+02 1.367965104904776130e-01
3.395600000000000307e+01 -9.073999999999999844e+00 2.632189999999999941e+02 1.280269357117033158e-01
3.395900000000000318e+01 -2.339900000000000091e+01 2.902869999999999777e+02 2.339737145484281911e-01
3.396999999999999886e+01 1.160000000000000059e-01 2.632160000000000082e+02 -2.595105969307920368e-01
3.396999999999999886e+01 6.280999999999999694e+00 2.858299999999999841e+02 2.768253079514017626e-02
3.397099999999999653e+01 1.590999999999999970e+00 2.554979999999999905e+02 5.485164704414659254e-02
3.397399999999999665e+01 -9.201999999999999957e+00 2.999950000000000045e+02 -2.280682334655381172e-01
3.397899999999999920e+01 -2.288100000000000023e+01 2.880869999999999891e+02 3.756394031378014475e-02
3.398100000000000165e+01 4.578000000000000291e+00 2.815760000000000218e+02 -1.781558132499110603e-01
3.399900000000000233e+01 -1.612900000000000134e+01 2.590500000000000114e+02 -1.712880514013827848e-01
3.400900000000000034e+01 -2.146000000000000085e+01 3.046759999999999877e+02 4.296294394793705174e-02
3.400999999999999801e+01 -3.845100000000000051e+01 2.840550000000000068e+02 -2.319234607178420615e-01
3.401599999999999824e+01 7.301000000000000156e+00 2.832579999999999814e+02 -3.282139608499631128e-02
3.403300000000000125e+01 -1.203800000000000026e+01 2.880470000000000255e+02 1.123128567857101939e-01
3.404500000000000171e+01 2.501999999999999780e+00 2.542659999999999911e+02 -1.684331948378874899e-01
3.405599999999999739e+01 -1.149200000000000088e+01 2.978670000000000186e+02 6.726064889347591058e-02
3.406300000000000239e+01 -1.655999999999999917e+00 2.754049999999999727e+02 -1.003080636496566785e-01
3.406499999999999773e+01 -1.338799999999999990e+01 2.450780000000000030e+02 -3.762860166826763331e-02
3.407399999999999807e+01 2.870999999999999996e+00 2.717699999999999818e+02 1.817534548246132198e-01
3.409199999999999875e+01 -9.349999999999999645e+00 2.497059999999999889e+02 4.577778025580970384e-02
3.410099999999999909e+01 -2.272400000000000020e+01 2.747830000000000155e+02 -1.647168374954354753e-01
3.410600000000000165e+01 -7.590000000000000080e-01 2.790099999999999909e+02 -2.098714719195297618e-01
3.411099999999999710e+01 -1.932199999999999918e+01 3.024940000000000282e+02 4.521833385331510552e-02
3.412400000000000233e+01 -2.499800000000000111e+01 3.035819999999999936e+02 -8.889807682991653082e-02
3.413600000000000279e+01 9.993000000000000327e+00 2.601429999999999723e+02 -1.793136374821451828e-01
3.413799999999999812e+01 -3.560600000000000165e+01 2.771700000000000159e+02 -2.823303017392272962e-01
3.414800000000000324e+01 -1.786599999999999966e+01 2.974150000000000205e+02 2.819698833066409671e-01
3.416499999999999915e+01 8.619999999999999885e-01 2.841229999999999905e+02 -4.058127222044589921e-02
3.416700000000000159e+01 -2.275400000000000134e+01 2.618500000000000227e+02 -1.867529873708662636e-01
3.417600000000000193e+01 3.459999999999999964e+00 2.703539999999999850e+02 -3.989464009052069715e-02
3.420300000000000296e+01 -1.204599999999999937e+01 2.802579999999999814e+02 2.063662463214250009e-01
3.422399999999999665e+01 -2.138500000000000156e+01 2.754180000000000064e+02 -1.849421272368996505e-01
3.422800000000000153e+01 -1.024399999999999977e+01 2.438360000000000127e+02 1.281362197859933494e-01
3.425699999999999790e+01 -1.832000000000000073e+00 2.729300000000000068e+02 2.682594226685853789e-01
3.425999999999999801e+01 -8.692000000000000171e+00 2.483460000000000036e+02 6.675794566221585069e-02
3.426100000000000279e+01 -2.422500000000000142e+01 2.875779999999999745e+02 -9.605205838157375876e-04
3.426400000000000290e+01 -2.425199999999999889e+01 2.931229999999999905e+02 2.619446210675250297e-01
3.426400000000000290e+01 -2.348499999999999943e+01 2.943600000000000136e+02 4.032259660964226944e-01
3.427799999999999869e+01 -2.937699999999999889e+01 2.866650000000000205e+02 2.237892614784601497e-01
3.429999999999999716e+01 -1.443900000000000006e+01 2.959100000000000250e+02 1.569386873489287404e-01
3.429999999999999716e+01 8.269999999999999574e+00 2.732370000000000232e+02 3.437432246620188148e-02
3.430199999999999960e+01 9.872999999999999332e+00 2.702309999999999945e+02 6.299564100399086819e-02
3.431300000000000239e+01 -1.954799999999999827e+01 2.577359999999999900e+02 -1.525514617276698126e-01
3.435300000000000153e+01 -1.237199999999999989e+01 2.510180000000000007e+02 3.624119564272961780e-01
3.435699999999999932e+01 -3.652499999999999858e+01 2.826890000000000214e+02 -2.161231298987547067e-01
3.436299999999999955e+01 -1.386299999999999955e+01 2.973269999999999982e+02 1.051507617431568509e-01
3.436299999999999955e+01 -2.438000000000000167e+00 2.511810000000000116e+02 -3.248308173875943394e-01
3.439200000000000301e+01 6.418000000000000149e+00 2.615269999999999868e+02 2.948020524637960382e-01
3.439399999999999835e+01 -2.291799999999999926e+01 3.078430000000000177e+02 1.203147880268432973e-01
3.439900000000000091e+01 -1.721300000000000097e+01 2.786460000000000150e+02 -8.088183073945058588e-02
3.443500000000000227e+01 -2.383899999999999864e+01 2.757540000000000191e+02 -2.728604866772081361e-01
3.444800000000000040e+01 -2.948199999999999932e+01 2.968340000000000032e+02 -7.989565881428274674e-02
3.444899999999999807e+01 -2.527799999999999869e+01 2.816419999999999959e+02 2.118028012946163163e-01
3.445400000000000063e+01 -6.714999999999999858e+00 2.632330000000000041e+02 1.144334424005335887e-01
3.446099999999999852e+01 -1.814399999999999835e+01 2.794560000000000173e+02 -8.104992135210538351e-02
3.446099999999999852e+01 1.417999999999999927e+00 2.853249999999999886e+02 2.352841058312139105e-02
3.446600000000000108e+01 -2.174399999999999977e+01 2.628600000000000136e+02 -1.699416821424028223e-01
3.447899999999999920e+01 -1.864699999999999847e+01 3.034599999999999795e+02 3.229821413909438055e-02
3.448400000000000176e+01 6.171999999999999709e+00 2.834449999999999932e+02 -9.205130850276833920e-02
3.448499999999999943e+01 5.596000000000000085e+00 2.846499999999999773e+02 -1.327745690024191016e-01
3.450999999999999801e+01 -8.803000000000000824e+00 2.507350000000000136e+02 2.278129949813458843e-01
3.451400000000000290e+01 -2.621199999999999974e+01 2.917080000000000268e+02 -3.696033936242455742e-02
3.452300000000000324e+01 -1.673999999999999844e+01 2.538079999999999927e+02 -8.040194186474372562e-02
3.454099999999999682e+01 -1.969999999999999973e+00 2.497599999999999909e+02 -2.152864271693237241e-01
3.454800000000000182e+01 -9.569999999999999618e-01 2.741469999999999914e+02 2.174153376993532005e-01
3.457200000000000273e+01 -3.235900000000000176e+01 2.823220000000000027e+02 -3.423743979485319275e-04
3.457800000000000296e+01 -1.503100000000000058e+01 3.069479999999999791e+02 7.600176079725415312e-02
3.458599999999999852e+01 -2.554799999999999827e+01 2.930769999999999982e+02 1.417974593706828636e-02
3.458800000000000097e+01 2.547000000000000153e+00 2.656929999999999836e+02 -3.331924665278057085e-01
3.459100000000000108e+01 -2.545100000000000051e+01 2.605230000000000246e+02 -9.135677967770466923e-02
3.459300000000000352e+01 -1.312599999999999945e+01 2.500660000000000025e+02 2.404274924638645228e-01
3.460099999999999909e+01 -1.566999999999999993e+01 3.083340000000000032e+02 -1.959645801948399768e-01
3.460999999999999943e+01 8.537000000000000810e+00 2.602239999999999895e+02 1.771288685886089342e-01
3.461399999999999721e+01 1.127999999999999936e+01 2.697080000000000268e+02 8.413463634013322590e-02
3.461500000000000199e+01 -1.908099999999999952e+01 2.949739999999999895e+02 1.516508917646564591e-01
3.462500000000000000e+01 -2.407700000000000173e+01 2.598530000000000086e+02 -2.613984418231228846e-01
3.463300000000000267e+01 -2.389900000000000091e+01 3.026490000000000009e+02 -1.398890840105623257e-01
3.463900000000000290e+01 -4.182000000000000384e+00 3.006850000000000023e+02 -2.845288379309924287e-01
3.468599999999999994e+01 -4.384999999999999787e+00 2.937359999999999900e+02 1.901509962076871063e-01
3.469400000000000261e+01 -1.471000000000000085e+01 2.838720000000000141e+02 -6.831018543575678725e-02
3.471699999999999875e+01 -1.012700000000000067e+01 2.979139999999999873e+02 2.631721082458563510e-01
3.473599999999999710e+01 -3.388999999999999790e+00 2.599300000000000068e+02 1.966460250268205548e-02
3.475800000000000267e+01 -2.158200000000000074e+01 2.837760000000000105e+02 2.079252055718840142e-01
3.475800000000000267e+01 -1.672899999999999920e+01 2.896320000000000050e+02 3.859596394155035727e-03
3.476100000000000279e+01 -2.637399999999999878e+01 2.808570000000000277e+02 7.583007309401414153e-02
3.476100000000000279e+01 -1.296000000000000041e+00 2.693740000000000236e+02 3.818817182338744010e-01
3.476599999999999824e+01 -3.091600000000000037e+01 2.807500000000000000e+02 -2.050489498939516569e-02
3.476800000000000068e+01 -7.025000000000000355e+00 2.895099999999999909e+02 3.316867090053798872e-01
3.477000000000000313e+01 -9.231999999999999318e+00 2.848129999999999882e+02 1.092855016089095271e-01
3.477199999999999847e+01 1.957000000000000073e+00 2.669370000000000118e+02 1.278057845765020462e-01
3.477499999999999858e+01 -1.810600000000000165e+01 2.893910000000000196e+02 -2.662946971136244054e-02
