7.415699999999999648e+01 9.754799999999999471e+00 8.310200000000000387e+01 -1.286415000000000042e+01 -3.442355522261498352e-02
7.415900000000000603e+01 -1.972299999999999898e+01 7.010800000000000409e+01 -4.616651999999999978e-01 -5.430660995526211815e-02
7.415900000000000603e+01 -1.937800000000000011e+01 6.932599999999999341e+01 1.588354999999999961e+00 -3.874212066651964298e-02
7.416200000000000614e+01 3.871700000000000141e+00 6.043699999999999761e+01 2.685074999999999878e+00 -3.604369493060958773e-01
7.416400000000000148e+01 1.462100000000000044e+01 7.993200000000000216e+01 8.683811000000000391e+00 -1.785039126523722819e-01
7.416400000000000148e+01 1.606700000000000017e+01 7.912600000000000477e+01 1.196063999999999972e+01 -1.915538869948473777e-01
7.416400000000000148e+01 1.632100000000000151e+01 7.823199999999999932e+01 6.639198999999999629e+00 -1.953885554319683693e-01
7.416500000000000625e+01 -2.134799999999999898e+01 7.166299999999999670e+01 -9.827323999999999504e-01 2.715838939557644327e-01
7.416599999999999682e+01 -1.954500000000000171e+01 6.055700000000000216e+01 3.548163000000000178e+00 -3.433601891807588902e-01
7.416599999999999682e+01 -1.954500000000000171e+01 6.225699999999999790e+01 -6.001726999999999812e+00 -3.445559417777092626e-01
7.416599999999999682e+01 -1.849500000000000099e+01 6.055700000000000216e+01 8.678936000000000206e+00 -3.434177763663471272e-01
7.416700000000000159e+01 -1.701099999999999923e+01 5.755499999999999972e+01 -7.341129999999999711e+00 -1.882502704942899674e-02
7.416700000000000159e+01 -1.701099999999999923e+01 5.907500000000000284e+01 -1.831071000000000026e+01 1.530781720173296501e-02
7.417400000000000659e+01 1.619300000000000139e+01 7.734699999999999420e+01 9.804987999999999815e+00 -2.044054518661023168e-01
7.417799999999999727e+01 -1.764600000000000080e+01 6.473900000000000432e+01 -1.607792000000000110e+00 -1.440999339208151597e-01
7.417799999999999727e+01 -5.314099999999999824e+00 7.309699999999999420e+01 3.143438000000000088e+01 -3.627909439303776962e-01
7.419199999999999307e+01 1.326500000000000057e+01 6.443600000000000705e+01 2.685108000000000050e+00 -2.765647471086267184e-01
7.419799999999999329e+01 -1.636299999999999955e+01 7.238200000000000500e+01 -9.448085999999999984e+00 2.657299962586982117e-02
7.419799999999999329e+01 -1.636299999999999955e+01 7.324699999999999989e+01 5.579645000000000188e+00 5.170593202111004733e-02
7.420300000000000296e+01 -1.318299999999999983e+01 5.826700000000000301e+01 -1.840013000000000076e+01 -3.731989647408396477e-02
7.420300000000000296e+01 -1.318299999999999983e+01 5.920700000000000074e+01 -2.702271999999999963e+01 -1.933933047171385033e-02
7.420399999999999352e+01 -2.197500000000000142e+01 7.656300000000000239e+01 -6.037130000000000329e+00 -1.157877614821248430e-01
7.420600000000000307e+01 -1.847800000000000153e+01 8.001399999999999579e+01 2.438648000000000149e+00 -8.099483039145617680e-02
7.421200000000000330e+01 -4.943299999999999805e+00 7.225100000000000477e+01 5.796929000000000087e+01 -3.618097607024050033e-01
7.421399999999999864e+01 1.455300000000000082e+01 7.552400000000000091e+01 5.397775000000000212e+00 1.952614853381710591e-01
7.421399999999999864e+01 8.801999999999999602e+00 8.299699999999999989e+01 -1.858761000000000152e+01 1.671246353384650829e-01
7.422199999999999420e+01 -1.860000000000000142e+01 6.350099999999999767e+01 -6.383593000000000295e+00 -1.257461481140591530e-01
7.422400000000000375e+01 -2.412300000000000111e+01 7.396200000000000330e+01 3.957873000000000085e-01 1.260069652799870321e-01
7.422400000000000375e+01 -2.386899999999999977e+01 7.306799999999999784e+01 8.098149999999999515e-01 1.197041170986042624e-01
7.422400000000000375e+01 -2.386899999999999977e+01 7.485599999999999454e+01 1.308290000000000008e-01 -1.567351845594895932e-01
7.423000000000000398e+01 -1.733999999999999986e+01 5.831499999999999773e+01 -1.542971999999999966e+01 -1.805936188740661294e-03
7.423000000000000398e+01 -1.825600000000000023e+01 6.827500000000000568e+01 -1.617088000000000081e+00 -2.613012288605066624e-01
7.423099999999999454e+01 1.455700000000000038e+01 6.526399999999999579e+01 4.560285000000000366e+00 -9.118925710262995588e-02
7.423300000000000409e+01 7.263899999999999579e+00 8.037199999999999989e+01 3.796990999999999872e+01 2.149052096760700470e-01
7.423300000000000409e+01 7.263899999999999579e+00 8.130299999999999727e+01 1.349149000000000065e+01 1.934797396196441810e-01
7.423399999999999466e+01 -1.622599999999999909e+01 6.886299999999999955e+01 -6.582608999999999710e+00 -1.221611056451769092e-03
7.423499999999999943e+01 -1.817099999999999937e+01 8.258100000000000307e+01 3.614542000000000144e+00 4.457582078718549251e-02
7.423499999999999943e+01 -1.817099999999999937e+01 8.428100000000000591e+01 3.894718999999999820e-01 2.026395785577702821e-02
7.423499999999999943e+01 -1.712099999999999866e+01 8.258100000000000307e+01 -3.157671999999999812e+00 2.831827683196574269e-02
7.423499999999999943e+01 -1.712099999999999866e+01 8.428100000000000591e+01 7.254865999999999815e+00 3.303777966092253937e-01
7.423699999999999477e+01 -1.991400000000000148e+01 6.140699999999999648e+01 -2.426845000000000141e+00 -3.438481194301789556e-01
7.423999999999999488e+01 -1.760500000000000043e+01 6.153399999999999892e+01 3.637122000000000188e+00 -3.441600972164898242e-01
7.424200000000000443e+01 -1.441300000000000026e+01 5.744400000000000261e+01 -4.263568000000000247e+00 -3.849559699342307295e-02
7.424200000000000443e+01 -1.441300000000000026e+01 6.003000000000000114e+01 -4.013125000000000142e+01 1.640490424404501130e-02
7.424699999999999989e+01 -1.208099999999999952e+01 6.929399999999999693e+01 -5.184853000000000378e+00 7.290537111610542742e-02
7.424899999999999523e+01 -1.625100000000000122e+01 7.376099999999999568e+01 1.078440000000000065e+00 6.686976742135689045e-02
7.426099999999999568e+01 9.408799999999999386e+00 6.139099999999999824e+01 7.190140000000000420e+00 -1.576495587260009767e-01
7.426999999999999602e+01 -1.606899999999999906e+01 5.750200000000000244e+01 -6.696939000000000419e+00 -2.374251446200424318e-02
7.427599999999999625e+01 1.582199999999999918e+01 7.654099999999999682e+01 6.146476999999999968e+00 1.781264683065683363e-01
7.427800000000000580e+01 -1.037400000000000100e+00 7.624399999999999977e+01 -9.028584999999999638e+00 7.692280895419083275e-02
7.428300000000000125e+01 1.890900000000000025e+00 6.415699999999999648e+01 3.211508000000000140e-01 -3.172268397795515171e-01
7.429600000000000648e+01 1.422100000000000009e+01 6.448900000000000432e+01 4.311068999999999818e+00 -2.724997421488407623e-01
7.429600000000000648e+01 1.422100000000000009e+01 6.603900000000000148e+01 3.299767000000000117e+00 -8.133443871572658412e-02
7.430400000000000205e+01 2.881200000000000205e+00 7.635999999999999943e+01 -2.585900999999999783e+00 2.056376987287888425e-01
7.430400000000000205e+01 -1.511800000000000033e+01 6.913899999999999579e+01 -8.119785000000000252e+00 3.328075417193689101e-02
7.430400000000000205e+01 -1.511800000000000033e+01 7.148099999999999454e+01 -2.222322000000000131e+01 -2.346297459735150956e-02
7.430500000000000682e+01 -1.726899999999999835e+01 6.230899999999999750e+01 3.228251000000000204e+01 -3.446465756703863681e-01
7.430599999999999739e+01 -1.853999999999999915e+01 8.343099999999999739e+01 6.306776000000000160e+00 3.653919680531967501e-02
7.430599999999999739e+01 -1.675199999999999889e+01 8.343099999999999739e+01 -3.077687000000000062e+00 1.352965079571702769e-02
7.431399999999999295e+01 -7.553299999999999459e-01 6.954600000000000648e+01 4.964354000000000267e-01 -1.641073249656349597e-01
7.431399999999999295e+01 -7.553299999999999459e-01 7.059600000000000364e+01 -2.790916999999999870e+00 -1.568445612695008873e-01
7.431499999999999773e+01 1.103100000000000058e+01 8.262999999999999545e+01 2.800092000000000136e-01 -1.587073990884608349e-02
7.431499999999999773e+01 -2.248000000000000043e+01 7.215900000000000603e+01 1.062353999999999937e-01 2.642327761927634744e-01
7.431699999999999307e+01 -1.297700000000000076e+00 8.381100000000000705e+01 -1.712095000000000056e+01 1.270350842111641065e-01
7.431900000000000261e+01 1.365199999999999925e+01 7.131999999999999318e+01 1.380176999999999987e+00 -1.627236337132561550e-01
7.432500000000000284e+01 -1.654199999999999893e+00 8.213100000000000023e+01 -5.269294000000000366e+00 1.469767497002572865e-01
7.432999999999999829e+01 -1.641900000000000048e+01 7.615000000000000568e+01 1.307174000000000014e+01 1.193463502040952723e-01
7.432999999999999829e+01 -1.621000000000000085e+01 7.688599999999999568e+01 4.400126000000000204e+00 -1.053030859419778198e-01
7.433199999999999363e+01 -5.769800000000000484e-01 6.563800000000000523e+01 1.146631999999999962e+01 -1.357051963180671283e-01
7.433199999999999363e+01 -5.769800000000000484e-01 6.659600000000000364e+01 2.512943999999999889e+01 -1.490441534003975055e-01
7.433400000000000318e+01 7.756700000000000372e+00 8.215300000000000580e+01 1.211735999999999924e+00 1.393503369841249673e-01
7.433700000000000330e+01 -4.544999999999999929e+00 7.288400000000000034e+01 1.250370999999999988e+01 -3.623982181315117956e-01
7.433700000000000330e+01 -5.769999999999999574e+00 7.228400000000000603e+01 5.722861000000000331e+01 -3.622321366029676581e-01
7.434000000000000341e+01 2.642900000000000027e+00 8.624500000000000455e+01 7.872304999999999886e+00 1.613033932569430673e-01
7.434000000000000341e+01 -1.760399999999999920e+01 6.315500000000000114e+01 -1.408609000000000044e+01 -1.097360430543093679e-01
7.434499999999999886e+01 -1.324799999999999933e+01 6.872299999999999898e+01 -2.820673000000000030e+01 7.634840641184374721e-02
7.434600000000000364e+01 1.292200000000000060e+01 6.914499999999999602e+01 9.020585999999999771e+00 9.493307484750752867e-02
7.434699999999999420e+01 1.318399999999999928e+01 7.001999999999999602e+01 3.951197000000000070e+00 -1.304830307654671895e-01
7.434799999999999898e+01 2.751999999999999780e+00 8.544400000000000261e+01 5.670199000000000211e+01 8.311234594385265295e-02
7.435099999999999909e+01 1.304800000000000004e+01 6.662999999999999545e+01 2.046112000000000108e+01 -6.233261728760020048e-02
7.435800000000000409e+01 6.199999999999999956e-01 7.151699999999999591e+01 1.542999999999999972e+01 5.792724559167027054e-02
7.435800000000000409e+01 -1.432199999999999918e+00 8.288700000000000045e+01 -1.878377000000000052e+01 1.442705874945205136e-01
7.436400000000000432e+01 2.631699999999999928e+00 7.846699999999999875e+01 2.944052999999999809e+00 5.596877244853580569e-02
7.436799999999999500e+01 1.404700000000000060e+01 8.005200000000000671e+01 1.117314000000000007e+01 -1.739240600484744381e-01
7.437199999999999989e+01 -2.124399999999999977e+01 7.830899999999999750e+01 -8.793181999999999832e+00 -6.457687555012131542e-02
7.437199999999999989e+01 6.770000000000000462e-01 6.479800000000000182e+01 4.611976999999999882e-01 -3.115729188622345935e-01
7.437699999999999534e+01 1.334900000000000020e+01 7.062000000000000455e+01 3.096810000000000063e+00 -1.437506106735610412e-01
7.437699999999999534e+01 1.488400000000000034e+01 7.215500000000000114e+01 -1.381340999999999930e+00 -2.219490745444204494e-01
7.437999999999999545e+01 1.860700000000000021e+00 7.554800000000000182e+01 1.423644999999999960e+01 2.034092955366894606e-01
7.438400000000000034e+01 -1.361299999999999955e+01 7.201200000000000045e+01 -4.377235999999999905e+01 7.031192061197221246e-03
7.440200000000000102e+01 -1.266900000000000048e+01 7.181100000000000705e+01 -5.226679000000000030e+01 2.531135365008729821e-02
7.441100000000000136e+01 -1.891100000000000136e+01 6.234199999999999875e+01 -1.247488000000000063e+01 -3.446820273039645222e-01
7.442300000000000182e+01 -4.014300000000000423e+00 7.740900000000000603e+01 -4.142459000000000002e-01 8.177956060275384798e-02
7.442400000000000659e+01 1.854000000000000092e+00 7.224699999999999989e+01 3.637960999999999778e+00 4.618257788189717578e-02
7.443600000000000705e+01 -1.657700000000000173e+01 7.437199999999999989e+01 -9.836396000000000583e+00 9.094011134018932518e-02
7.443600000000000705e+01 -1.657700000000000173e+01 7.523799999999999955e+01 1.326085999999999920e+01 1.088049056592394759e-01
7.443600000000000705e+01 -9.059500000000000330e-01 7.682999999999999829e+01 -7.877737999999999907e+00 5.972928736298477315e-02
7.443800000000000239e+01 -2.073900000000000077e+01 7.915099999999999625e+01 5.510448000000000235e+00 -5.295204043589819831e-02
7.443999999999999773e+01 1.455499999999999972e+01 7.139499999999999602e+01 2.481501000000000123e-01 -2.021776773907389413e-01
7.443999999999999773e+01 1.455499999999999972e+01 7.291500000000000625e+01 -1.065381999999999962e+01 -2.447169033741423139e-01
7.444499999999999318e+01 -3.863300000000000178e+00 7.840200000000000102e+01 -1.381286999999999932e+00 5.980360595706420146e-02
7.444599999999999795e+01 -2.014199999999999946e+01 7.096500000000000341e+01 -1.889218000000000064e+00 1.799999999999999933e-01
7.444599999999999795e+01 2.550000000000000044e-01 8.874899999999999523e+01 3.216339000000000059e+00 3.372968632913372899e-01
7.444599999999999795e+01 1.955000000000000071e+00 8.874899999999999523e+01 -1.413607999999999976e+00 1.051943600722707456e-01
7.444799999999999329e+01 -3.747700000000000031e+00 7.288299999999999557e+01 -5.311080999999999719e+00 -3.622981828195406262e-01
7.444799999999999329e+01 -2.808300000000000018e+00 7.288299999999999557e+01 -1.845156000000000063e+01 -4.798405130518991479e-02
7.445000000000000284e+01 -2.054200000000000159e+01 7.170000000000000284e+01 -5.008886000000000394e+00 2.173427944351891128e-02
7.445099999999999341e+01 -1.888200000000000145e+01 6.898900000000000432e+01 2.923046999999999951e+00 -4.072924240959354542e-02
7.445300000000000296e+01 2.808600000000000207e+00 8.449099999999999966e+01 2.927546999999999855e+01 9.523318485656065424e-02
7.445699999999999363e+01 -1.654100000000000037e+01 5.831499999999999773e+01 -4.733098999999999990e+01 -3.773390289073685292e-03
7.445999999999999375e+01 5.706500000000000128e+00 7.923900000000000432e+01 2.715814999999999912e+01 7.014669447075495834e-02
7.446699999999999875e+01 -1.822400000000000020e+01 6.141700000000000159e+01 6.520566999999999780e+00 -3.440405359743721192e-01
7.447199999999999420e+01 -1.728999999999999915e+01 6.804399999999999693e+01 -2.167326999999999870e+01 -2.397505727642488260e-01
7.447899999999999920e+01 4.178799999999999848e+00 7.939499999999999602e+01 -3.772882000000000069e+00 6.609029381771450162e-02
7.448099999999999454e+01 1.411999999999999922e+01 7.482399999999999807e+01 3.971124000000000098e+00 -8.692779523755847504e-02
7.448199999999999932e+01 1.550599999999999978e+00 7.154699999999999704e+01 5.207529000000000075e+00 6.294625753999374962e-02
7.448900000000000432e+01 -1.683999999999999986e+01 7.851699999999999591e+01 -1.019153000000000020e+01 -1.021796109402145075e-01
7.449099999999999966e+01 5.240000000000000213e-01 7.839799999999999613e+01 -4.822257999999999711e+00 4.944890577550285077e-02
7.449099999999999966e+01 -1.901999999999999957e+01 6.140699999999999648e+01 9.179092000000000695e+00 -3.439809324606624696e-01
7.450199999999999534e+01 6.471000000000000085e+00 5.873899999999999721e+01 4.471611000000000224e+00 -3.066214990769949855e-01
7.450199999999999534e+01 1.792599999999999971e+00 7.323699999999999477e+01 5.682534000000000196e-01 3.470864985883577447e-02
7.451099999999999568e+01 -4.077099999999999724e+00 7.364300000000000068e+01 -5.051149999999999807e+01 -3.631754558547488632e-01
7.451099999999999568e+01 -2.478899999999999881e+00 7.364300000000000068e+01 -6.102004000000000161e+01 -1.009699050366140993e-01
7.451099999999999568e+01 -1.932199999999999918e+01 8.006000000000000227e+01 5.011390999999999707e+00 -6.615178970844959316e-02
7.451399999999999579e+01 1.057600000000000051e+01 6.278300000000000125e+01 2.485092999999999996e+00 -1.496646696393816867e-01
7.452200000000000557e+01 -8.973299999999999610e-01 8.548799999999999955e+01 1.234273999999999916e+01 1.054322750820314153e-01
7.452200000000000557e+01 -8.973299999999999610e-01 8.653799999999999670e+01 2.669136999999999915e+01 9.349112147608146239e-02
7.452500000000000568e+01 -1.611400000000000077e+01 5.890999999999999659e+01 -6.384262999999999977e+01 7.314262533680474139e-03
7.453000000000000114e+01 -6.433900000000000174e-01 7.732200000000000273e+01 -1.386233000000000004e+01 4.163404623814999372e-02
7.453100000000000591e+01 1.239199999999999946e+01 8.053300000000000125e+01 9.731569999999999609e+00 3.847868100921055662e-02
7.453499999999999659e+01 -1.205700000000000038e+01 7.058100000000000307e+01 -1.409534999999999982e+01 5.000863874311854695e-02
7.453600000000000136e+01 -1.808399999999999963e+01 6.230899999999999750e+01 -6.704932999999999588e+00 -3.446543486341840934e-01
7.453700000000000614e+01 -1.587400000000000055e+01 7.161100000000000421e+01 -1.605351999999999890e+01 -4.819841741782587147e-02
7.454200000000000159e+01 -1.230799999999999983e+01 7.131000000000000227e+01 -4.165568999999999988e+01 3.638607947444870427e-02
7.454600000000000648e+01 -3.808899999999999952e+00 7.440200000000000102e+01 -3.892698000000000036e+01 -3.639141068522885325e-01
7.454600000000000648e+01 -2.747100000000000097e+00 7.440200000000000102e+01 -9.390364999999999895e+01 -1.395183055708574815e-01
7.455100000000000193e+01 5.059499999999999886e+00 5.953099999999999881e+01 2.447744000000000142e+00 -3.122998253066558427e-01
7.455400000000000205e+01 1.163700000000000045e+01 6.381499999999999773e+01 1.666101000000000054e+00 -2.828919675146399082e-01
7.456000000000000227e+01 -1.764600000000000080e+01 8.343099999999999739e+01 -5.109367000000000214e-01 2.808353661591990805e-02
7.456199999999999761e+01 -2.178099999999999881e+01 7.215399999999999636e+01 1.651121999999999979e+00 3.239855549969948567e-02
7.458100000000000307e+01 -1.563400000000000034e+01 5.824699999999999989e+01 -1.259294000000000047e+01 -1.015605827255982273e-02
7.459499999999999886e+01 -3.992399999999999949e+00 7.668000000000000682e+01 1.330756999999999968e+00 -1.727348261796414763e-01
7.460099999999999909e+01 1.529700000000000060e+01 7.569100000000000250e+01 1.069720000000000049e+01 1.884493336188479418e-01
7.460099999999999909e+01 -3.688400000000000123e+00 7.596800000000000352e+01 -1.271397000000000110e+00 -1.742094599128801158e-01
7.460399999999999920e+01 -2.443700000000000205e+00 7.510200000000000387e+01 -3.446766999999999914e+00 -1.645643404331861848e-01
7.460800000000000409e+01 -1.441799999999999926e+01 6.907999999999999829e+01 -4.254016000000000020e+00 4.838054855933211773e-02
7.460800000000000409e+01 -1.441799999999999926e+01 7.154000000000000625e+01 -2.441593999999999909e+01 -3.341122283401289604e-03
7.460800000000000409e+01 -1.289799999999999969e+01 6.907999999999999829e+01 -9.475998999999999839e+00 6.799681725953017619e-02
7.461100000000000421e+01 -2.081500000000000128e+00 7.556300000000000239e+01 -3.446766999999999914e+00 9.856637787439079257e-02
7.461100000000000421e+01 1.487600000000000033e+00 7.411499999999999488e+01 3.656165000000000109e+00 6.490600164053512977e-02
7.461100000000000421e+01 1.487600000000000033e+00 7.494499999999999318e+01 6.382602999999999582e+00 -7.922827573260130679e-03
7.461799999999999500e+01 2.350099999999999856e+00 6.343699999999999761e+01 -4.978735999999999606e+00 -3.274433217588495482e-01
7.461799999999999500e+01 2.674999999999999822e+00 6.270000000000000284e+01 1.928097000000000005e-01 -3.374437636636471449e-01
7.462699999999999534e+01 6.990599999999999592e-02 6.750199999999999534e+01 1.158807000000000009e+01 -1.534430909301353618e-01
7.462699999999999534e+01 6.990599999999999592e-02 6.836700000000000443e+01 1.684399999999999897e+00 -1.701651949798574925e-01
7.462999999999999545e+01 -1.579299999999999926e+01 6.935399999999999920e+01 -1.562062000000000062e+00 6.169511032241782513e-04
7.463100000000000023e+01 3.064299999999999802e+00 7.690099999999999625e+01 -5.230826000000000420e+00 2.106981423974111645e-01
7.463100000000000023e+01 3.064299999999999802e+00 7.776699999999999591e+01 -1.493290999999999968e+01 2.181541235736072226e-01
7.464700000000000557e+01 -2.129299999999999926e+01 7.776300000000000523e+01 -2.639081000000000010e+00 -7.921656342114073712e-02
7.465300000000000580e+01 9.281000000000000583e+00 8.354099999999999682e+01 -3.906165000000000020e+01 -2.703950810896927487e-02
7.465399999999999636e+01 1.419400000000000084e+01 7.373199999999999932e+01 -4.933565999999999896e+00 -9.358346705646516939e-02
7.465399999999999636e+01 1.374799999999999933e+01 6.657200000000000273e+01 1.851132000000000133e+01 -5.560071359499847710e-02
7.465800000000000125e+01 -2.119200000000000017e+01 7.698300000000000409e+01 1.887791999999999915e+00 -9.831780002468080981e-02
7.465999999999999659e+01 -1.774299999999999855e+01 7.957399999999999807e+01 1.552561999999999998e+00 -8.983744072753040155e-02
7.466599999999999682e+01 -1.692599999999999838e+01 6.859499999999999886e+01 -5.272382000000000346e+00 -1.601846298058106147e-02
7.466800000000000637e+01 1.931699999999999973e+00 7.852500000000000568e+01 6.950465999999999589e+00 4.819181838060068723e-02
7.467100000000000648e+01 1.247600000000000087e+01 6.745399999999999352e+01 3.373431999999999675e+01 -3.250841904163698920e-02
7.467100000000000648e+01 1.247600000000000087e+01 6.831900000000000261e+01 2.026373999999999853e+01 -2.899641260854251418e-02
7.467300000000000182e+01 -1.488299999999999912e+01 5.797699999999999676e+01 -4.234333000000000347e+00 -2.184432945323233274e-02
7.467300000000000182e+01 -1.488299999999999912e+01 5.949699999999999989e+01 -1.345692000000000021e+01 9.002408622168948243e-03
7.467300000000000182e+01 -1.394299999999999962e+01 5.797699999999999676e+01 -9.139789000000000385e+00 -3.148475446608005324e-02
7.467300000000000182e+01 -1.394299999999999962e+01 5.949699999999999989e+01 -4.963412999999999897e+01 -3.000969168838154427e-03
7.467499999999999716e+01 1.377000000000000002e+00 6.473999999999999488e+01 -2.725218999999999836e-01 -3.128246484376535630e-01
7.467600000000000193e+01 8.160299999999999443e+00 6.024099999999999966e+01 1.010740000000000016e+01 -3.009486383961735290e-01
7.468699999999999761e+01 4.721700000000000230e+00 6.011200000000000188e+01 3.786750000000000060e+00 -3.142141061037701522e-01
7.468899999999999295e+01 1.547100000000000009e+01 7.960699999999999932e+01 1.955509999999999948e+01 -1.846947544096570748e-01
7.471599999999999397e+01 -2.149500000000000099e+01 7.628300000000000125e+01 2.501488999999999852e+00 -1.265612384107094868e-01
7.472100000000000364e+01 -2.198999999999999844e+01 7.589900000000000091e+01 8.211038000000000281e+00 -1.424410245768408523e-01
7.472400000000000375e+01 1.332600000000000051e+01 8.007800000000000296e+01 1.507976999999999990e+01 -1.675247604145922442e-01
7.472799999999999443e+01 2.922499999999999876e+00 8.358499999999999375e+01 1.284027000000000029e+01 1.043086172080914115e-01
7.473499999999999943e+01 1.374200000000000088e+01 6.394500000000000028e+01 5.206723000000000212e+00 -2.739889065048473626e-01
7.473600000000000421e+01 -1.521199999999999974e+01 5.873700000000000188e+01 -1.999446999999999974e+01 -3.453803961617156644e-03
7.473600000000000421e+01 -1.361400000000000077e+01 5.873700000000000188e+01 -3.591102999999999668e+01 -2.140466653941706585e-02
7.473799999999999955e+01 -3.278000000000000025e+00 7.364300000000000068e+01 -2.893643000000000143e+01 -3.631057758882041964e-01
7.474899999999999523e+01 -2.327299999999999969e+01 7.258700000000000330e+01 1.906341000000000063e+00 1.264394511243429886e-01
7.474899999999999523e+01 -2.327299999999999969e+01 7.533700000000000330e+01 3.751230000000000064e+00 -1.528176287544561751e-01
7.476300000000000523e+01 1.053999999999999915e+01 8.317499999999999716e+01 -9.130022999999999556e+00 -1.396371098566317678e-02
7.477100000000000080e+01 -2.703300000000000147e-01 8.789900000000000091e+01 4.423168999999999684e+00 3.410227101486307255e-01
7.477100000000000080e+01 2.480300000000000171e+00 8.684900000000000375e+01 6.155063000000000173e+00 1.486882861694351632e-01
7.477100000000000080e+01 2.480300000000000171e+00 8.789900000000000091e+01 5.102205999999999797e+00 1.256019274437318867e-01
7.477100000000000080e+01 3.251100000000000101e+00 8.276399999999999579e+01 5.966503999999999586e+00 1.099187805601371942e-01
7.477500000000000568e+01 2.370999999999999996e+00 7.595399999999999352e+01 1.292610999999999954e+00 2.049199062866052246e-01
7.477500000000000568e+01 1.499600000000000044e+01 6.478499999999999659e+01 2.502899000000000029e+01 -7.955330112605284165e-02
7.477500000000000568e+01 1.499600000000000044e+01 6.574299999999999500e+01 -1.203816999999999915e+00 -7.326034578866116864e-02
7.477700000000000102e+01 1.412100000000000044e+01 7.080500000000000682e+01 6.483345999999999831e-01 -1.435982358160499683e-01
7.478000000000000114e+01 6.811499999999999666e+00 8.081999999999999318e+01 2.407356000000000051e+01 1.763342616611233149e-01
7.478799999999999670e+01 4.228900000000000325e+00 6.089699999999999847e+01 6.516537999999999720e+00 -3.146933367136178217e-01
7.479399999999999693e+01 1.223999999999999977e+00 7.845600000000000307e+01 5.435633000000000159e+00 4.327864385356597343e-02
7.479699999999999704e+01 -3.473399999999999821e+00 7.929200000000000159e+01 -3.790702000000000016e+00 -1.474155490588237027e-01
7.479800000000000182e+01 1.195899999999999963e+01 8.123300000000000409e+01 9.739038000000000750e+00 2.912118717927844602e-02
7.480200000000000671e+01 -1.732100000000000151e+01 7.908400000000000318e+01 -3.976796000000000220e+00 -9.345087623420314515e-02
7.481000000000000227e+01 8.600300000000000722e+00 6.100600000000000023e+01 1.397208000000000006e+01 -2.951406684970152572e-01
7.481100000000000705e+01 1.980200000000000016e-01 6.534199999999999875e+01 1.513095000000000079e+00 -1.176105217534864356e-01
7.481499999999999773e+01 1.104999999999999982e+00 8.881999999999999318e+01 9.477904999999999802e+00 3.375001915248451168e-01
7.482399999999999807e+01 -1.665099999999999980e+01 7.290200000000000102e+01 -1.557992999999999961e+00 5.449022674472774053e-02
7.482399999999999807e+01 -1.665099999999999980e+01 7.380899999999999750e+01 -2.384227999999999881e+01 8.032313681261163407e-02
7.483899999999999864e+01 9.467100000000000515e-02 7.092100000000000648e+01 -1.451121000000000105e+00 8.512873088031194801e-02
7.484699999999999420e+01 -2.097500000000000142e+01 7.219100000000000250e+01 3.852100000000000080e+00 3.331305477542011173e-02
7.484999999999999432e+01 -8.671100000000000474e-01 8.334099999999999397e+01 -2.843432999999999922e+01 7.265692192550679551e-02
7.484999999999999432e+01 -2.605100000000000193e+00 8.115600000000000591e+01 1.584172999999999831e-02 1.359893167833406136e-01
7.484999999999999432e+01 -6.327300000000000146e-01 8.715699999999999648e+01 7.170473999999999570e+00 9.964198564567178229e-02
7.485899999999999466e+01 6.906699999999999839e+00 8.182800000000000296e+01 1.076355000000000040e+01 1.547593135948666654e-01
7.485899999999999466e+01 -1.932000000000000028e+01 6.962900000000000489e+01 1.418133000000000088e+00 -5.459328350234228522e-02
7.486199999999999477e+01 -1.558200000000000029e+00 7.637300000000000466e+01 -4.169471999999999845e+00 7.155879369215265018e-02
7.486700000000000443e+01 -6.517100000000000115e-01 8.501600000000000534e+01 -2.392707999999999835e+00 1.249223556282188924e-01
7.487000000000000455e+01 -2.037899999999999989e-01 7.804000000000000625e+01 -9.563373999999999597e+00 4.304688019789611186e-02
7.487199999999999989e+01 -1.633599999999999852e+01 7.629500000000000171e+01 8.592015999999999210e+00 1.228540487797776387e-01
7.487699999999999534e+01 -1.636799999999999855e+01 7.735500000000000398e+01 1.644641000000000020e+00 -9.992904470403596306e-02
7.487800000000000011e+01 1.183000000000000007e+01 8.219100000000000250e+01 1.648114999999999952e+01 1.011021673880552023e-02
7.488500000000000512e+01 -5.989299999999999624e-01 8.409999999999999432e+01 -2.443367999999999896e+01 7.008347188076555212e-02
7.489199999999999591e+01 2.312899999999999956e+00 8.496500000000000341e+01 8.770177000000000334e+00 8.349833786322161111e-02
7.489400000000000546e+01 6.524600000000000399e+00 8.006300000000000239e+01 2.721885999999999939e+01 1.166399038967041724e-01
7.489499999999999602e+01 2.116499999999999826e+00 8.589400000000000546e+01 -8.706448999999999216e+00 1.625259111418564106e-01
7.489799999999999613e+01 -1.242800000000000082e+01 6.984000000000000341e+01 -4.471650000000000347e+01 5.459962766576725857e-02
7.489799999999999613e+01 -1.242800000000000082e+01 7.078000000000000114e+01 -7.121183999999999514e+01 4.057465393596324660e-02
7.489799999999999613e+01 -1.642099999999999937e+01 7.207899999999999352e+01 -5.953673000000000215e+00 3.341320718809016183e-02
7.490699999999999648e+01 1.393299999999999983e+01 7.017900000000000205e+01 5.033199999999999896e+00 -1.260768692159754678e-01
7.490699999999999648e+01 -2.962400000000000144e+00 8.035299999999999443e+01 -5.645932000000000173e+00 1.360875528071118501e-01
7.490800000000000125e+01 -1.170500000000000096e+00 8.264100000000000534e+01 -8.351551999999999865e+00 7.141581029876160891e-02
7.490999999999999659e+01 1.531499999999999950e+01 7.168500000000000227e+01 -1.127439000000000080e+00 -2.076919444178950136e-01
7.490999999999999659e+01 1.531499999999999950e+01 7.262500000000000000e+01 -5.483954999999999913e+00 -2.309159479190528719e-01
7.490999999999999659e+01 -2.737399999999999833e-01 7.007099999999999795e+01 -3.411160000000000192e+00 9.719499715512656957e-02
7.491500000000000625e+01 2.250599999999999934e+00 7.181499999999999773e+01 3.270545999999999953e+00 8.359951546508075093e-02
7.491500000000000625e+01 2.250599999999999934e+00 7.268000000000000682e+01 3.173130000000000006e+00 6.156884101264098463e-02
7.491599999999999682e+01 -1.967699999999999960e+01 7.046699999999999875e+01 -4.222579000000000193e-01 1.799999999999999933e-01
7.492199999999999704e+01 -2.927099999999999841e-02 6.922499999999999432e+01 1.237953999999999999e+00 1.094449879437142670e-01
7.492400000000000659e+01 1.085299999999999931e+00 7.102899999999999636e+01 1.975092999999999988e-01 9.250255351217580302e-02
7.492499999999999716e+01 3.757299999999999862e+00 8.015300000000000580e+01 -2.912904000000000160e+00 6.879890108579421459e-02
7.492700000000000671e+01 5.111799999999999677e+00 7.939700000000000557e+01 1.972155000000000102e+00 5.917588670561794301e-02
7.493000000000000682e+01 -3.336100000000000065e+00 7.523900000000000432e+01 -2.047204999999999941e+00 -1.657659295394907917e-01
7.493399999999999750e+01 -1.649299999999999855e+01 6.929500000000000171e+01 4.228837999999999653e+00 -2.018500109742154061e-02
7.493699999999999761e+01 -1.365799999999999947e+01 6.901699999999999591e+01 -1.536647999999999925e+01 5.520667934404936694e-02
7.493699999999999761e+01 -1.365799999999999947e+01 7.160299999999999443e+01 -7.216769999999999641e+01 1.086660848634395105e-02
7.493800000000000239e+01 -2.203600000000000003e-01 6.611100000000000421e+01 8.322048999999999808e+01 -1.299512251494522319e-01
7.494299999999999784e+01 1.366499999999999915e+01 6.949500000000000455e+01 5.262093000000000131e+00 -2.391993862150766925e-01
7.494400000000000261e+01 2.411999999999999922e+00 8.405899999999999750e+01 1.469135999999999953e+01 9.494126327922511321e-02
7.495000000000000284e+01 -1.793100000000000094e+01 6.871999999999999886e+01 4.566086000000000311e+00 -3.470987722823733190e-02
7.495600000000000307e+01 9.813100000000000378e+00 6.213499999999999801e+01 -1.320476999999999901e+00 -2.800523244405309087e-01
7.495600000000000307e+01 -1.564899999999999958e+00 8.220000000000000284e+01 -1.194866999999999901e+00 1.500275281043948195e-01
7.496299999999999386e+01 -1.441300000000000026e+01 5.873700000000000188e+01 -4.632797999999999661e+01 -1.201968601212856716e-02
7.496299999999999386e+01 -2.014300000000000068e+01 7.963200000000000500e+01 7.654384000000000299e+00 -5.228586118956182055e-02
7.496299999999999386e+01 -1.844300000000000139e+01 7.963200000000000500e+01 1.562775000000000070e+01 -7.561525128067675405e-02
7.497199999999999420e+01 1.460200000000000031e+01 6.657999999999999829e+01 4.176135999999999626e+00 -5.469882440068585261e-02
7.497400000000000375e+01 -1.969000000000000128e+01 7.145900000000000318e+01 5.381574000000000080e-01 1.799999999999999933e-01
7.498300000000000409e+01 5.945700000000000429e+00 5.933500000000000085e+01 4.741520999999999653e+00 -3.084865877623173547e-01
7.498300000000000409e+01 6.996299999999999741e+00 5.933500000000000085e+01 9.899046000000000234e+00 -3.049767074239188025e-01
7.498699999999999477e+01 1.114600000000000080e+01 6.341799999999999926e+01 7.216393000000000058e+00 -1.521193291312582518e-01
7.498699999999999477e+01 1.233699999999999974e+01 6.408199999999999363e+01 5.475655999999999857e+00 -2.694470262874188449e-01
7.498900000000000432e+01 8.506000000000000227e+00 8.347599999999999909e+01 -6.555176000000000336e+00 1.317135796466713527e-01
7.498900000000000432e+01 1.005599999999999916e+01 8.347599999999999909e+01 -2.696454999999999913e+01 -1.455758620408053282e-02
7.500000000000000000e+01 1.485699999999999932e+01 7.497799999999999443e+01 4.972254999999999647e+00 -8.655083979536901118e-02
7.500400000000000489e+01 2.822999999999999954e+00 7.666400000000000148e+01 -4.129058999999999924e-01 2.103431443292517466e-01
7.500400000000000489e+01 2.822999999999999954e+00 7.752899999999999636e+01 -4.591591000000000200e+00 2.181880487702016480e-01
7.501000000000000512e+01 -2.920599999999999863e+00 7.559499999999999886e+01 -2.883051000000000030e+00 -1.829623678396189723e-01
7.501399999999999579e+01 1.599600000000000044e+01 7.875700000000000500e+01 1.263338000000000072e+01 -2.043164204192703670e-01
7.501500000000000057e+01 -1.580700000000000038e+01 6.976800000000000068e+01 1.905200000000000005e+00 -9.665902254393536272e-03
7.501500000000000057e+01 -1.494200000000000017e+01 6.976800000000000068e+01 -1.825752999999999915e+01 1.587606864094604636e-02
7.502899999999999636e+01 3.351199999999999957e+00 8.176600000000000534e+01 1.151839999999999975e+01 9.650852606733778538e-02
7.503600000000000136e+01 1.614699999999999847e+01 7.776399999999999579e+01 1.193971999999999944e+01 -2.112564942919434030e-01
7.503900000000000148e+01 3.801899999999999835e+00 6.163300000000000267e+01 6.130856000000000083e-01 -3.582617706081727693e-01
7.504000000000000625e+01 1.690299999999999914e+00 7.828700000000000614e+01 9.983499999999999375e+00 3.752382276905487368e-02
7.504500000000000171e+01 -1.617299999999999827e+01 7.164499999999999602e+01 -1.006920999999999999e+01 -4.925051850925728225e-02
7.505800000000000693e+01 1.462100000000000044e+01 7.967799999999999727e+01 1.369092999999999982e+01 -1.805988564679359976e-01
7.507099999999999795e+01 1.451699999999999946e+01 6.401000000000000512e+01 1.636664000000000030e+01 -2.681373959847440092e-01
7.507399999999999807e+01 -2.379799999999999827e+01 7.343699999999999761e+01 1.878103999999999996e+00 1.355425488589550032e-01
7.507399999999999807e+01 -2.379799999999999827e+01 7.448699999999999477e+01 5.628876999999999908e-01 -1.619966322013042526e-01
7.509300000000000352e+01 -3.531699999999999839e+00 7.615900000000000603e+01 2.439175000000000093e+00 -1.923640750790528153e-01
7.510299999999999443e+01 1.317600000000000016e+01 6.718699999999999761e+01 2.205905999999999878e+01 -1.968119222831724718e-02
7.510299999999999443e+01 1.317600000000000016e+01 6.858700000000000330e+01 1.092352999999999952e+01 2.585571808715513877e-03
7.510599999999999454e+01 7.326200000000000490e-01 6.544100000000000250e+01 -5.776194999999999524e-01 -3.798063723471953312e-01
7.510899999999999466e+01 7.460300000000000153e+00 5.997399999999999665e+01 7.640273999999999788e+00 -3.033248669230567685e-01
7.511799999999999500e+01 -2.242299999999999827e+01 7.251600000000000534e+01 6.108893000000000129e+00 4.476709596855414641e-02
7.511799999999999500e+01 -2.242299999999999827e+01 7.540800000000000125e+01 9.000633000000000550e+00 -1.559100839052525722e-01
7.511799999999999500e+01 -4.157399999999999984e-01 8.601300000000000523e+01 7.625701000000000285e+00 1.168468225280068218e-01
7.512600000000000477e+01 1.589300000000000068e+01 7.617199999999999704e+01 1.776199000000000083e+01 1.830428448861228241e-01
7.512600000000000477e+01 1.614699999999999847e+01 7.706600000000000250e+01 1.825612999999999886e+01 -2.178872619974395464e-01
7.513599999999999568e+01 -1.663599999999999923e+01 7.554099999999999682e+01 2.066990000000000105e+00 1.184249470905576890e-01
7.514499999999999602e+01 1.459099999999999930e+01 7.416500000000000625e+01 9.755558000000000618e+00 -9.221195200379064816e-02
7.514900000000000091e+01 -2.091300000000000026e+01 7.826300000000000523e+01 1.019672999999999968e-01 -7.432849528512917858e-02
7.514900000000000091e+01 -2.079500000000000171e+01 7.654999999999999716e+01 7.140266999999999697e+00 -1.135637212288916481e-01
7.514900000000000091e+01 -2.079500000000000171e+01 7.741500000000000625e+01 3.574744999999999728e-01 -8.843658813485678893e-02
7.515500000000000114e+01 -1.310300000000000076e-01 8.681900000000000261e+01 6.945510999999999768e+00 1.134948435904670899e-01
7.516200000000000614e+01 1.287199999999999989e+01 6.788700000000000045e+01 2.390401999999999916e+01 -3.629450759629740952e-01
7.516200000000000614e+01 3.306000000000000050e+00 8.127299999999999613e+01 3.030505000000000138e+01 8.544531097312176027e-02
7.516200000000000614e+01 3.515099999999999891e+00 8.053700000000000614e+01 3.309123000000000037e+00 7.050474458310412862e-02
7.518000000000000682e+01 1.427299999999999969e+01 6.698300000000000409e+01 5.084367000000000303e+00 -3.768816564777614786e-02
7.518399999999999750e+01 7.432000000000000384e+00 8.267799999999999727e+01 4.416605999999999810e+00 1.475644128004144906e-01
7.518800000000000239e+01 -7.832799999999999485e-02 8.520300000000000296e+01 7.111856000000000400e+00 1.375040067897252416e-01
7.519100000000000250e+01 2.600500000000000034e-01 8.425000000000000000e+01 -8.750657999999999603e+00 7.383514302338108071e-02
7.519700000000000273e+01 -1.491699999999999982e+01 7.095499999999999829e+01 -1.347133999999999965e+01 -6.590620297217483423e-03
7.520300000000000296e+01 1.130499999999999972e+01 8.304099999999999682e+01 1.315382999999999925e+01 1.076182032255164431e-03
7.520499999999999829e+01 1.250500000000000078e+01 8.019899999999999807e+01 1.343788999999999945e+01 -1.574277654605303611e-01
7.520600000000000307e+01 1.724900000000000100e+00 7.103000000000000114e+01 1.147651000000000053e-02 1.135754673613258159e-01
7.521899999999999409e+01 1.370599999999999952e+01 7.952700000000000102e+01 1.146405999999999992e+01 -1.758553450794094752e-01
7.521999999999999886e+01 9.816200000000000481e-01 8.519799999999999329e+01 -9.084235000000000504e-01 7.046539551993893924e-02
7.522199999999999420e+01 -1.692599999999999838e+01 7.825900000000000034e+01 4.285838000000000036e+00 -9.230608926961010596e-02
7.522199999999999420e+01 -1.519299999999999962e+01 7.031000000000000227e+01 -1.640924000000000049e+01 -2.487206198517676308e-03
7.523799999999999955e+01 1.326899999999999968e+00 8.582399999999999807e+01 -2.260371000000000130e+00 1.529351178337254313e-01
7.524200000000000443e+01 -2.149200000000000088e+01 7.543800000000000239e+01 3.686903000000000041e+00 -1.568336061337764487e-01
7.524899999999999523e+01 -4.335200000000000164e-02 8.354999999999999716e+01 -1.850967999999999947e+01 7.585005857537691076e-02
7.525600000000000023e+01 9.053599999999999426e+00 6.175300000000000011e+01 -2.313206999999999791e+00 -2.851579519558590792e-01
7.526300000000000523e+01 1.280799999999999983e+01 7.949899999999999523e+01 1.711302999999999841e+01 -1.668614306751983467e-01
7.526500000000000057e+01 5.450599999999999667e+00 6.001100000000000279e+01 2.692190000000000083e+00 -3.103411503159309581e-01
7.527500000000000568e+01 7.847400000000000375e+00 6.071800000000000352e+01 5.926798999999999928e+00 -2.993243649617781665e-01
7.527599999999999625e+01 -1.579899999999999949e+01 7.026500000000000057e+01 -3.132632000000000083e+00 -1.821066845369321077e-02
7.527599999999999625e+01 -1.579899999999999949e+01 7.078100000000000591e+01 -5.759558000000000177e+00 -2.670083462248975040e-02
7.528799999999999670e+01 -2.066799999999999926e+01 7.878199999999999648e+01 6.654416000000000331e+00 -6.861274057363796197e-02
7.529500000000000171e+01 -4.187999999999999723e+00 7.787699999999999534e+01 -6.597074000000000549e-01 6.583453168985477222e-02
7.529500000000000171e+01 -3.934099999999999930e+00 7.698300000000000409e+01 1.807920999999999889e+00 -1.931696414610253876e-01
7.529500000000000171e+01 -3.934099999999999930e+00 7.877100000000000080e+01 7.493602000000000318e-01 -1.385444183725606515e-01
7.529500000000000171e+01 -1.041900000000000048e+00 7.698300000000000409e+01 1.155786000000000036e-01 3.947044692425466517e-02
7.529600000000000648e+01 5.796700000000000186e-01 8.822400000000000375e+01 1.208459000000000039e+01 3.397227472625083400e-01
7.529600000000000648e+01 1.630300000000000082e+00 8.652400000000000091e+01 -9.744445999999999941e-01 1.458500815235741765e-01
7.529600000000000648e+01 1.630300000000000082e+00 8.822400000000000375e+01 9.053304999999999936e+00 1.238259299761524934e-01
7.529800000000000182e+01 3.334600000000000009e+00 6.228000000000000114e+01 -4.162545999999999746e-01 -3.476610799278125885e-01
7.530299999999999727e+01 -6.946999999999999842e-01 7.764300000000000068e+01 -2.680762999999999785e+00 -2.904457518403153957e-02
7.530299999999999727e+01 4.962099999999999844e-01 7.830700000000000216e+01 1.300597999999999921e+00 3.259096001853083180e-02
7.530400000000000205e+01 1.602200000000000069e+00 8.507800000000000296e+01 -4.321819999999999773e+00 7.544787270907155063e-02
7.530599999999999739e+01 1.469200000000000017e+01 7.078700000000000614e+01 -4.015142000000000017e-02 -1.403887530637897008e-01
7.531000000000000227e+01 -1.684299999999999997e+01 7.494299999999999784e+01 -9.680009000000000086e+00 1.116006233690482602e-01
7.531100000000000705e+01 1.637000000000000011e+00 7.453000000000000114e+01 1.868278000000000105e+00 2.016372623570663047e-01
7.531100000000000705e+01 1.890900000000000025e+00 7.363599999999999568e+01 3.636842000000000130e+00 6.310337393284627672e-02
7.531100000000000705e+01 1.890900000000000025e+00 7.542400000000000659e+01 3.596385000000000165e+00 2.047161550442319622e-01
7.531799999999999784e+01 -1.929299999999999926e+01 7.981900000000000261e+01 7.765214000000000283e+00 -6.568743874921229020e-02
7.532099999999999795e+01 -1.998000000000000043e+01 7.237399999999999523e+01 3.322994000000000003e+00 4.429878406626143461e-02
7.532699999999999818e+01 6.033699999999999619e+00 7.966700000000000159e+01 9.008383999999999503e+00 1.040423216780873988e-01
7.533199999999999363e+01 1.501699999999999946e+01 7.344499999999999318e+01 -3.539244000000000057e+01 -2.541037388913308104e-01
7.534099999999999397e+01 -4.705099999999999838e-01 8.290800000000000125e+01 -7.590456999999999788e+00 7.319890550640925642e-02
7.535999999999999943e+01 3.500199999999999978e-01 6.795499999999999829e+01 9.233309000000000211e+00 -1.426581120913848477e-01
7.536499999999999488e+01 1.150999999999999940e-01 6.714000000000000057e+01 3.411630999999999858e+00 -1.330153938854303497e-01
7.536700000000000443e+01 2.112600000000000033e-01 8.737399999999999523e+01 7.626909000000000383e+00 1.165675543468330383e-01
7.536700000000000443e+01 1.998699999999999921e+00 8.737399999999999523e+01 6.482170000000000432e-01 1.398280574318255809e-01
7.536799999999999500e+01 -2.147299999999999898e+01 7.265200000000000102e+01 5.269244999999999735e+00 4.702217726995985836e-02
7.536799999999999500e+01 -1.412800000000000011e+01 6.954999999999999716e+01 -1.347894999999999932e+01 3.319157221358554066e-02
7.536799999999999500e+01 -1.412800000000000011e+01 7.106999999999999318e+01 -4.980991000000000213e+01 8.620597954626895570e-03
7.536799999999999500e+01 -1.318800000000000061e+01 6.954999999999999716e+01 -1.748770999999999987e+01 4.567605712861031592e-02
7.536799999999999500e+01 -1.318800000000000061e+01 7.106999999999999318e+01 -5.528278000000000247e+01 2.365453308124126214e-02
7.537199999999999989e+01 4.779999999999999805e-01 8.601300000000000523e+01 1.386762000000000050e+01 1.357852389143817395e-01
7.537500000000000000e+01 -2.008999999999999897e+00 8.163700000000000045e+01 4.689843999999999902e+00 1.448464389842567535e-01
7.537600000000000477e+01 8.396700000000000275e-01 6.997100000000000364e+01 2.629353000000000051e+00 1.275512076599982503e-01
7.537800000000000011e+01 2.738300000000000178e+00 6.302900000000000347e+01 -1.123609999999999998e+00 -3.350849958309233267e-01
7.538200000000000500e+01 1.916299999999999892e+00 8.453199999999999648e+01 3.216724000000000250e-01 8.233067574813002221e-02
7.538400000000000034e+01 -1.872400000000000020e+01 6.914799999999999613e+01 1.329871999999999943e+00 1.799999999999999933e-01
7.538400000000000034e+01 -1.702400000000000091e+01 6.914799999999999613e+01 -7.286481999999999681e-01 -2.594356886404786816e-02
7.538599999999999568e+01 -2.430600000000000094e+00 7.607399999999999807e+01 -8.225926999999999545e-01 7.808334725906296292e-02
7.541599999999999682e+01 -1.801599999999999824e+01 7.933400000000000318e+01 4.426241000000000092e+00 -7.997272896960200272e-02
7.542000000000000171e+01 1.163700000000000045e+01 6.381499999999999773e+01 4.852418000000000009e-01 -2.673471802819612497e-01
7.542000000000000171e+01 1.303700000000000081e+01 6.381499999999999773e+01 1.472398000000000096e+00 -2.665389584247989108e-01
7.543099999999999739e+01 -1.445700000000000074e+01 7.031000000000000227e+01 -3.617154000000000025e+01 1.408511081509930193e-02
7.543099999999999739e+01 -1.285899999999999999e+01 7.031000000000000227e+01 -8.489988999999999919e+01 3.768644820241051629e-02
7.543800000000000239e+01 4.075699999999999878e-01 6.883299999999999841e+01 2.306045999999999818e+00 -1.548381158628396315e-01
7.545699999999999363e+01 -2.054200000000000159e+01 7.270699999999999363e+01 1.855516000000000076e+01 5.056476122820206809e-02
7.546099999999999852e+01 1.030400000000000027e+01 6.253199999999999648e+01 -1.870167999999999964e+01 -2.755017070859163142e-01
7.546800000000000352e+01 7.910000000000000142e+00 8.313599999999999568e+01 -1.639871999999999996e+00 1.455832084153119987e-01
7.546800000000000352e+01 9.281000000000000583e+00 8.377200000000000557e+01 -2.072451999999999828e+01 1.353467387003687572e-01
7.546899999999999409e+01 6.013699999999999601e-01 8.655899999999999750e+01 1.138636999999999944e+01 1.309628344435761482e-01
7.547100000000000364e+01 4.408000000000000362e+00 7.980599999999999739e+01 -4.175977999999999923e+01 -9.767293077029230025e-03
7.547400000000000375e+01 1.440900000000000070e+00 6.528300000000000125e+01 -4.161374999999999935e-01 -3.813917519161400538e-01
7.547700000000000387e+01 2.678199999999999914e+00 6.396800000000000352e+01 -4.949847000000000108e+00 -3.251571883162079901e-01
7.547799999999999443e+01 -1.687300000000000111e+01 7.191299999999999670e+01 -6.187807000000000279e+00 4.220074202629494481e-02
7.548300000000000409e+01 1.515399999999999991e+01 6.611100000000000421e+01 -5.648931000000000147e+00 -5.138268944927880388e-02
7.549200000000000443e+01 -2.095899999999999963e+01 7.482299999999999329e+01 -4.112676999999999694e+00 -1.723280197234209332e-01
7.549899999999999523e+01 1.067500000000000071e+01 6.288100000000000023e+01 -8.344913000000000025e+00 -2.737451372786054993e-01
7.550900000000000034e+01 6.471000000000000085e+00 5.974600000000000222e+01 9.497066000000000230e+00 -3.050568238538262089e-01
7.551600000000000534e+01 -1.706500000000000128e+01 7.247400000000000375e+01 -1.654900999999999911e+01 5.664219107194921887e-02
7.551600000000000534e+01 -1.706500000000000128e+01 7.333899999999999864e+01 -3.905957999999999686e+01 7.852649340067778538e-02
7.553300000000000125e+01 5.017999999999999794e+00 6.071099999999999852e+01 5.594128000000000434e+00 -3.099733648949644094e-01
7.553499999999999659e+01 2.374800000000000022e+00 6.466800000000000637e+01 -4.641140000000000043e+00 -3.173782424463212903e-01
7.553600000000000136e+01 1.300000000000000000e+01 7.911599999999999966e+01 1.595082999999999984e+01 -1.734777623719787054e-01
