1.241999999999999993e+01 1.456000000000000050e+01 2.061700000000000088e+01 -9.092251999999999557e-01 -6.803700844155970151e-02
1.242300000000000004e+01 3.825300000000000011e+01 5.838000000000000078e+00 -1.310256000000000043e+01 -6.592073381955996722e-03
1.242300000000000004e+01 3.825300000000000011e+01 7.357999999999999652e+00 -2.682993000000000094e+01 6.284972080188212795e-02
1.242300000000000004e+01 3.919299999999999784e+01 5.838000000000000078e+00 -2.006399000000000044e+01 6.256635970613860787e-02
1.242300000000000004e+01 3.919299999999999784e+01 7.357999999999999652e+00 -4.249604000000000070e+01 6.206886191209041309e-02
1.243500000000000050e+01 1.652799999999999869e+01 1.704700000000000060e+01 1.372936999999999941e+01 2.992161657134729397e-02
1.245400000000000063e+01 2.451300000000000168e+01 2.542899999999999849e+01 4.198859999999999815e+00 -8.348514576363742778e-02
1.245599999999999952e+01 1.821199999999999974e+01 2.612699999999999889e+01 -5.022742000000000040e+00 -8.311986744871376065e-02
1.246599999999999930e+01 3.683700000000000330e+01 7.872899999999999565e+00 -2.557780000000000165e+00 6.413628785069304394e-02
1.248600000000000065e+01 3.792399999999999949e+01 6.597999999999999865e+00 -1.468239999999999945e+01 -6.072143446287025029e-03
1.248600000000000065e+01 3.952199999999999847e+01 6.597999999999999865e+00 -2.919378999999999991e+01 6.223972006529514267e-02
1.249099999999999966e+01 2.566000000000000014e+01 -1.620000000000000107e+00 1.657880000000000020e+00 -5.470411273693599752e-02
1.249399999999999977e+01 3.562299999999999756e+01 2.345400000000000063e+01 4.956368000000000329e+00 -2.849733169710911770e-02
1.249699999999999989e+01 3.548299999999999699e+01 5.913700000000000401e+00 -2.934315999999999924e+00 -6.768149318248567470e-03
1.251900000000000013e+01 3.712100000000000222e+01 9.080600000000000449e+00 -4.405340999999999951e+00 6.356876446406607706e-02
1.252100000000000080e+01 3.671999999999999886e+01 7.356900000000000439e+00 -3.832171999999999912e+00 -5.504762975758833825e-03
1.252599999999999980e+01 1.482799999999999940e+01 1.710900000000000176e+01 6.547469000000000428e+00 1.731199072400692318e-02
1.252699999999999925e+01 3.231000000000000227e+01 2.697700000000000031e+01 1.721413000000000082e+00 -1.860066051470392889e-01
1.252899999999999991e+01 8.647700000000000387e+00 1.731299999999999883e+01 1.860401999999999889e+00 1.027928948913711714e-03
1.252999999999999936e+01 1.108500000000000085e+01 1.384900000000000020e+01 -1.590508999999999951e+01 1.326951702928710897e-01
1.252999999999999936e+01 1.202500000000000036e+01 1.384900000000000020e+01 -2.537922999999999973e+01 1.271631259436642736e-01
1.252999999999999936e+01 2.097800000000000153e+01 2.695100000000000051e+01 -2.310281000000000162e+01 -8.308951133904607378e-02
1.253299999999999947e+01 1.649599999999999866e+01 2.325199999999999889e+01 3.526499999999999968e+00 -6.629873588654627836e-02
1.254499999999999993e+01 1.478700000000000081e+01 1.498799999999999955e+01 1.179467999999999961e+00 1.190143388394366147e-01
1.254599999999999937e+01 8.548000000000000043e+00 1.532199999999999918e+01 -5.187186999999999770e+00 1.448963187980408240e-01
1.256400000000000006e+01 1.800400000000000134e+01 2.527400000000000091e+01 2.208750999999999909e+00 -6.593622024335037135e-02
1.256499999999999950e+01 3.699399999999999977e+01 2.047700000000000031e+01 3.554453999999999780e+00 7.984071946712879841e-02
1.257000000000000028e+01 3.384400000000000119e+01 -1.032499999999999973e+00 -3.393159999999999954e+00 1.289809858045071200e-01
1.257399999999999984e+01 2.396499999999999986e+01 2.508999999999999986e+01 -6.785651999999999795e-01 -8.355795241254208860e-02
1.257399999999999984e+01 1.968100000000000094e+01 2.768100000000000094e+01 -2.511224999999999952e+01 -8.274672549919773190e-02
1.257900000000000063e+01 3.622800000000000153e+01 1.685399999999999920e+01 3.817710000000000292e+01 8.129303975456154963e-02
1.258200000000000074e+01 2.607799999999999940e+01 2.547599999999999909e+01 1.314087999999999923e+01 -1.917943786021217012e-01
1.258399999999999963e+01 2.233399999999999963e+01 2.520100000000000051e+01 -5.600764999999999993e+00 -8.356761292393467822e-02
1.258500000000000085e+01 1.452399999999999913e+01 1.780900000000000105e+01 8.639890999999999543e-01 2.289018459423038110e-02
1.258799999999999919e+01 3.382900000000000063e+01 2.687900000000000134e+01 -2.448486000000000118e+01 -1.859797283652029898e-01
1.259299999999999997e+01 1.235399999999999920e+01 1.308900000000000041e+01 -3.314305999999999841e+01 1.310063768646538840e-01
1.259999999999999964e+01 8.279299999999999216e+00 1.816300000000000026e+01 3.413161000000000111e+00 1.230786666594437494e-02
1.259999999999999964e+01 3.549000000000000199e+01 1.962199999999999989e+01 7.586619999999999919e+00 8.173221772133740237e-02
1.260100000000000087e+01 1.592300000000000004e+01 2.593900000000000095e+00 2.712410000000000210e+00 -7.853689734688697188e-02
1.260800000000000054e+01 3.590699999999999648e+01 6.724099999999999966e+00 2.071781999999999790e+00 -6.082323111366918014e-03
1.260899999999999999e+01 1.103400000000000070e+01 2.106400000000000006e+01 -1.558497000000000021e+00 -7.130040278040306045e-02
1.260999999999999943e+01 1.445100000000000051e+01 1.576299999999999990e+01 8.265117000000000047e+00 1.200987314500620018e-01
1.260999999999999943e+01 1.600199999999999889e+01 1.421199999999999974e+01 5.617453000000000030e-01 -2.832642861307059154e-02
1.261299999999999955e+01 1.845100000000000051e+01 2.685800000000000054e+01 -3.670816999999999997e+00 -8.286267837004272774e-02
1.261700000000000088e+01 1.218099999999999916e+01 5.412200000000000344e+00 2.046542000000000083e+00 4.187140843484847552e-02
1.261700000000000088e+01 1.218099999999999916e+01 6.884299999999999642e+00 4.278685000000000294e+00 5.112457635652854077e-02
1.261700000000000088e+01 1.239000000000000057e+01 6.148299999999999876e+00 2.046152999999999889e+00 4.620658044138045706e-02
1.262199999999999989e+01 7.942000000000000171e+00 2.185200000000000031e+01 -1.163491999999999971e+00 -4.955920404176768906e-02
1.262199999999999989e+01 9.641999999999999460e+00 2.185200000000000031e+01 3.659268999999999750e+01 -6.961168621755106645e-02
1.262700000000000067e+01 1.243099999999999916e+01 1.821600000000000108e+01 1.131714999999999982e+01 1.320314907197540355e-01
1.262700000000000067e+01 1.243099999999999916e+01 2.025199999999999889e+01 -8.608356999999999815e+00 -7.020218930800151136e-02
1.262700000000000067e+01 1.383099999999999952e+01 1.821600000000000108e+01 -1.323892000000000069e+00 2.142263440159295623e-02
1.262700000000000067e+01 1.383099999999999952e+01 2.025199999999999889e+01 -1.744847999999999955e+00 -6.845270633410074912e-02
1.262800000000000011e+01 1.723199999999999932e+01 2.056099999999999994e+01 -1.055223000000000022e+00 -6.396487315542054297e-02
1.263299999999999912e+01 3.769299999999999784e+01 9.732600000000000140e-01 2.727845999999999993e+00 -9.821108137954391235e-03
1.263299999999999912e+01 3.769299999999999784e+01 2.760699999999999932e+00 -2.446388999999999925e+00 -8.767943412364902905e-03
1.263299999999999912e+01 3.794700000000000273e+01 1.866999999999999993e+00 2.194023999999999930e+01 -9.257596664811374235e-03
1.263400000000000034e+01 1.223399999999999999e+01 4.277599999999999625e+00 2.559330999999999801e+00 3.729215451982667573e-02
1.264000000000000057e+01 1.660600000000000165e+01 2.397599999999999909e+01 2.588598000000000177e+00 -6.637772491049588608e-02
1.264100000000000001e+01 1.104100000000000037e+01 7.547600000000000087e+00 2.485414000000000012e+00 6.109313222757162265e-02
1.264199999999999946e+01 1.508399999999999963e+01 2.766599999999999948e+00 2.890625000000000000e+00 -8.335670381094512082e-02
1.264400000000000013e+01 1.579199999999999982e+01 1.704700000000000060e+01 1.504420000000000002e+01 2.494447684550913855e-02
1.264400000000000013e+01 1.726500000000000057e+01 1.704700000000000060e+01 1.294518000000000058e+01 1.867963107849558019e-02
1.264700000000000024e+01 3.431199999999999761e+01 1.794200000000000017e+01 2.046186000000000149e+01 8.377044592193819139e-02
1.264700000000000024e+01 3.431199999999999761e+01 1.880699999999999861e+01 8.126300999999999775e+00 8.363201960263169643e-02
1.264799999999999969e+01 3.770300000000000296e+01 1.600799999999999912e+01 2.658523999999999887e+01 5.960814148323286682e-02
1.265099999999999980e+01 1.265799999999999947e+01 1.238899999999999935e+01 -1.335513000000000083e+01 1.336586460968288148e-01
1.265300000000000047e+01 2.332400000000000162e+01 -2.444999999999999840e+00 6.787358000000000002e-01 -5.495383658910429903e-02
1.265600000000000058e+01 2.644699999999999918e+01 -1.379399999999999959e+00 8.180191999999999908e+00 -5.478981698163627734e-02
1.265799999999999947e+01 1.744999999999999929e+01 2.544900000000000162e+00 -3.877244000000000246e-01 -7.277853748956768232e-02
1.265799999999999947e+01 9.605600000000000804e+00 1.723300000000000054e+01 3.238783000000000190e+00 1.072959692614304517e-01
1.266699999999999982e+01 3.621000000000000085e+01 7.424100000000000144e+00 2.512065000000000214e+00 -5.491650203598355887e-03
1.266799999999999926e+01 1.569899999999999984e+01 1.491200000000000081e+01 2.503419999999999845e+01 -2.954417970470870139e-02
1.266999999999999993e+01 1.373799999999999955e+01 2.398899999999999810e+00 2.346061999999999870e+00 -9.060258292112882694e-02
1.268299999999999983e+01 1.071499999999999986e+01 1.312800000000000011e+01 -1.023474000000000039e+01 1.415512365572924036e-01
1.268299999999999983e+01 3.544500000000000028e+01 1.718299999999999983e+01 2.525763999999999854e+01 8.254112606893984627e-02
1.268699999999999939e+01 7.883499999999999730e+00 1.897500000000000142e+01 6.140681999999999530e-01 -8.155433991284810613e-02
1.269299999999999962e+01 2.199599999999999866e+01 -1.682900000000000063e+00 9.905564999999999509e-01 -5.680989628268619251e-02
1.269400000000000084e+01 8.397399999999999309e+00 9.458600000000000563e+00 1.727287000000000017e+00 -1.824863491620356973e-04
1.269599999999999973e+01 3.686099999999999710e+01 2.292800000000000082e+01 -2.176144999999999996e+01 -3.001096468287652377e-02
1.270299999999999940e+01 1.609600000000000009e+01 1.774699999999999989e+01 1.231685000000000052e+01 3.519367587924364382e-02
1.270299999999999940e+01 1.696099999999999852e+01 1.634700000000000131e+01 4.151359999999999673e+01 1.012453478155169763e-02
1.270299999999999940e+01 1.696099999999999852e+01 1.774699999999999989e+01 1.055452000000000012e+01 -6.443681052575836454e-02
1.270500000000000007e+01 1.664900000000000091e+01 2.203099999999999881e+01 -2.425771999999999817e+00 -6.484442505636524301e-02
1.270500000000000007e+01 2.481299999999999883e+01 -1.911699999999999955e+00 2.654578999999999966e-02 -5.502276454875298928e-02
1.270800000000000018e+01 2.773699999999999832e+01 2.602199999999999847e+01 7.404119999999999813e+00 -1.895556037987343179e-01
1.271100000000000030e+01 1.590300000000000047e+01 1.641400000000000148e+01 2.276281999999999925e+02 1.946876051917025008e-02
1.271299999999999919e+01 3.872299999999999898e+01 6.597999999999999865e+00 -4.565972000000000008e+01 -6.113202828010234902e-03
1.271400000000000041e+01 1.236299999999999955e+01 3.319700000000000095e+00 2.897905999999999871e+00 -1.072366152134075212e-01
1.271400000000000041e+01 3.814200000000000301e+01 1.521199999999999974e+01 1.773549999999999827e+01 5.999569860113836833e-02
1.271799999999999997e+01 3.174200000000000088e+01 -1.887000000000000011e+00 -5.409112999999999616e+00 1.298965211188399804e-01
1.272400000000000020e+01 3.630400000000000205e+01 3.670399999999999885e+00 1.860816000000000026e+00 -8.450493327067988905e-03
1.272799999999999976e+01 2.895400000000000063e+01 2.735099999999999909e+01 9.753085999999999700e-01 -1.868057576059662384e-01
1.272799999999999976e+01 3.065399999999999991e+01 2.735099999999999909e+01 8.952785000000000437e+00 -1.863111919154503693e-01
1.273600000000000065e+01 3.783500000000000085e+01 1.087500000000000000e+01 8.367584000000000799e+00 6.279356060337057399e-02
1.274099999999999966e+01 3.799399999999999977e+01 1.251999999999999957e+01 -7.267237999999999865e+00 6.182598807341702779e-02
1.274300000000000033e+01 3.774499999999999744e+01 1.338899999999999935e+01 2.166773000000000060e+00 6.158810787307054252e-02
1.274699999999999989e+01 3.723700000000000188e+01 2.211799999999999855e+01 2.110274000000000072e+01 7.993718383550021955e-02
1.274699999999999989e+01 1.648799999999999955e+01 1.365399999999999991e+01 -1.252664000000000044e+01 -2.479578910285526461e-02
1.275200000000000067e+01 2.153699999999999903e+01 -7.193800000000000194e-01 5.159767000000000436e+00 -5.882010731283798810e-02
1.276200000000000045e+01 3.303900000000000148e+01 -1.156800000000000050e+00 -9.538135000000000474e+00 1.290717323752171297e-01
1.276500000000000057e+01 1.362800000000000011e+01 1.225200000000000067e+01 -1.621902000000000044e+01 1.830929305606369406e-01
1.276699999999999946e+01 2.803999999999999915e+01 2.672200000000000131e+01 9.731872999999999774e-01 -1.883270641270265167e-01
1.277399999999999913e+01 1.058200000000000074e+01 1.726000000000000156e+01 5.752936000000000050e+00 1.019399357179611859e-01
1.277399999999999913e+01 1.132799999999999940e+01 1.726000000000000156e+01 7.404875999999999792e+00 1.049100390183324433e-01
1.277999999999999936e+01 3.511399999999999721e+01 4.416400000000000325e+00 -1.801092999999999833e+01 -8.141075430550086256e-03
1.277999999999999936e+01 3.511399999999999721e+01 5.281600000000000072e+00 -3.179821000000000097e+01 -7.437775721023343230e-03
1.278299999999999947e+01 8.878000000000000114e+00 8.858599999999999142e+00 1.630840999999999985e+00 -1.261118838515197516e-02
1.278899999999999970e+01 1.541000000000000014e+01 2.068799999999999883e+01 8.194423999999999708e+00 -6.564198783790663183e-02
1.278899999999999970e+01 1.569599999999999973e+01 1.541200000000000081e+01 1.342013000000000034e+02 -2.773342408490355598e-02
1.280000000000000071e+01 8.239000000000000767e+00 1.037100000000000044e+01 2.795898000000000216e+00 -4.214933872505062518e-02
1.280000000000000071e+01 8.492900000000000560e+00 1.126500000000000057e+01 8.952457999999999805e-01 -7.310985168679121071e-02
1.280300000000000082e+01 1.886400000000000077e+01 2.256499999999999950e+00 3.978861999999999899e+00 -6.858709781717055309e-02
1.280499999999999972e+01 1.618499999999999872e+01 1.295400000000000063e+01 -3.769859000000000293e+01 -2.783876206245444740e-02
1.281499999999999950e+01 3.475699999999999790e+01 -9.899999999999999911e-01 9.979324000000000527e-01 1.287563758201385467e-01
1.281499999999999950e+01 3.580700000000000216e+01 -9.899999999999999911e-01 -6.125466000000000522e-01 1.090120036296885059e-01
1.282000000000000028e+01 1.155499999999999972e+01 1.308900000000000041e+01 -3.801187000000000182e+01 1.338753498737885184e-01
1.282099999999999973e+01 2.899200000000000088e+01 -1.487200000000000077e+00 3.101236000000000104e+00 1.300500526043048832e-01
1.282099999999999973e+01 3.039199999999999946e+01 -1.487200000000000077e+00 -1.339985999999999899e+00 1.297380993655520010e-01
1.283699999999999974e+01 1.796799999999999997e+01 2.056099999999999994e+01 -1.664501000000000008e+00 -6.333224036154569414e-02
1.284099999999999930e+01 1.526600000000000001e+01 1.576299999999999990e+01 1.177840999999999916e+01 1.305807394171134006e-01
1.284500000000000064e+01 3.703399999999999892e+01 1.676300000000000168e+01 1.886354000000000042e+01 8.146222590957692689e-02
1.285100000000000087e+01 3.731000000000000227e+01 2.116499999999999915e+01 6.876074000000000019e+00 8.046292147804981476e-02
1.287100000000000044e+01 9.824099999999999611e+00 1.218699999999999939e+01 9.042944000000000537e-01 2.174100543354618720e-01
1.287500000000000000e+01 1.641799999999999926e+01 2.063899999999999935e+01 1.125328999999999979e+01 -6.402361045539532725e-02
1.287500000000000000e+01 1.672200000000000131e+01 2.133899999999999864e+01 -3.615625000000000089e-01 -6.395149059445623396e-02
1.287700000000000067e+01 2.326500000000000057e+01 2.503200000000000003e+01 -4.693366000000000149e+00 -8.361904489877532154e-02
1.288599999999999923e+01 3.638600000000000279e+01 1.975100000000000122e+01 6.213053999999999633e+00 8.184041049957281599e-02
1.289600000000000080e+01 1.315499999999999936e+01 1.986100000000000065e+01 -1.715684999999999905e+00 -6.842512350532432841e-02
1.289600000000000080e+01 1.401999999999999957e+01 1.986100000000000065e+01 -1.044148999999999994e+00 -6.719815435115358837e-02
1.289600000000000080e+01 1.680000000000000071e+01 1.986100000000000065e+01 1.964887999999999968e+00 -6.366669316042780635e-02
1.289600000000000080e+01 1.766499999999999915e+01 1.986100000000000065e+01 -1.223311000000000037e+00 -6.332657850765588403e-02
1.289600000000000080e+01 1.766499999999999915e+01 2.126099999999999923e+01 -8.213214999999999932e+00 -6.337088292776607568e-02
1.290300000000000047e+01 1.892099999999999937e+01 2.761799999999999855e+01 -2.150337999999999994e+01 -8.271890772743327458e-02
1.290300000000000047e+01 2.044099999999999895e+01 2.761799999999999855e+01 -5.750207999999999942e+01 -8.292567284265309202e-02
1.290799999999999947e+01 2.545499999999999829e+01 2.529700000000000060e+01 6.235197999999999574e+00 -8.353273203079936149e-02
1.291300000000000026e+01 1.541000000000000014e+01 1.776599999999999824e+01 9.257073999999999359e+00 3.047909356677390089e-02
1.291399999999999970e+01 3.640699999999999648e+01 -1.764699999999999880e-01 -2.164013000000000186e+00 1.103017727757839295e-01
1.292999999999999972e+01 1.782999999999999829e+01 1.740500000000000114e+01 1.335116000000000014e+01 2.576213512117585952e-02
1.294699999999999918e+01 1.027699999999999925e+01 1.240700000000000003e+01 -3.522584999999999855e+00 1.498116601285778005e-01
1.294699999999999918e+01 7.416699999999999626e+00 1.995200000000000173e+01 3.971989999999999910e+00 -8.039019037423809910e-02
1.294699999999999918e+01 7.416699999999999626e+00 2.100199999999999889e+01 -1.865390000000000104e+00 3.965372245752063485e-02
1.295700000000000074e+01 3.643999999999999773e+01 8.305500000000000327e+00 -5.103412999999999755e+00 -9.298236720671559929e-02
1.295700000000000074e+01 3.676500000000000057e+01 9.042699999999999960e+00 -1.056825000000000081e+01 -9.305400712883866998e-02
1.295700000000000074e+01 9.081899999999999196e+00 1.810600000000000165e+01 4.439663000000000359e+00 9.621105552960575180e-02
1.295899999999999963e+01 2.574699999999999989e+01 -1.437699999999999978e+00 1.298834000000000088e+01 -5.539100140326422977e-02
1.297600000000000087e+01 1.118999999999999950e+01 1.238899999999999935e+01 -7.406132000000000382e+00 1.987780937045376395e-01
1.297799999999999976e+01 2.176399999999999935e+01 2.605099999999999838e+01 1.171764000000000028e+00 -8.342660450317337939e-02
1.297899999999999920e+01 1.302999999999999936e+01 1.897599999999999909e+01 -2.528541999999999845e+00 2.407622923572261611e-02
1.298199999999999932e+01 2.256400000000000006e+01 -2.381699999999999928e+00 5.192683000000000160e-01 -5.589322073995224571e-02
1.298199999999999932e+01 2.408399999999999963e+01 -2.381699999999999928e+00 3.544449000000000072e-01 -5.516059526141654790e-02
1.298300000000000054e+01 1.022499999999999964e+01 2.116700000000000159e+01 -2.452668000000000070e+00 -6.949068739696671881e-02
1.298799999999999955e+01 1.752700000000000102e+01 1.810500000000000043e+01 8.363262999999999892e+00 -6.380869848294130897e-02
1.299000000000000021e+01 3.609700000000000131e+01 2.301500000000000057e+01 1.187378999999999962e+01 -2.865677890129539329e-02
1.299099999999999966e+01 8.791999999999999815e+00 2.192299999999999827e+01 -4.302545000000000286e+00 6.699105649908035365e-02
1.299099999999999966e+01 3.535799999999999699e+01 2.329200000000000159e+01 4.347096999999999767e+00 -1.834310107164389414e-01
1.299699999999999989e+01 2.012900000000000134e+01 1.808400000000000007e+00 2.858871000000000162e+00 -6.550014706477730320e-02
1.299799999999999933e+01 2.154899999999999949e+01 -1.830499999999999836e-02 5.190437000000000189e+00 -6.038122145207489716e-02
1.300300000000000011e+01 8.758499999999999730e+00 1.886299999999999955e+01 3.458197999999999883e+00 1.134414032580999543e-01
1.300600000000000023e+01 1.644500000000000028e+01 1.547199999999999953e+01 3.237523000000000195e+01 -1.937417260337492841e-02
1.300999999999999979e+01 3.443699999999999761e+01 2.651300000000000168e+01 -4.162501999999999924e+01 -1.868166908967591744e-01
1.301099999999999923e+01 3.289099999999999824e+01 -6.945099999999999607e-01 -3.173466000000000165e+01 1.285872944911919669e-01
1.301500000000000057e+01 2.101399999999999935e+01 9.563300000000000134e-01 3.767320999999999920e+00 -6.266791000673396783e-02
1.302399999999999913e+01 3.470000000000000284e+01 2.563899999999999935e+01 -9.531224999999999170e+00 -1.874874125499375044e-01
1.302599999999999980e+01 3.421500000000000341e+01 -1.200900000000000023e-01 2.004741000000000106e+00 1.090684842370468199e-01
1.302699999999999925e+01 2.714799999999999969e+01 -1.326999999999999957e+00 2.355417999999999790e+00 -5.491794133270869877e-02
1.303899999999999970e+01 1.288799999999999990e+01 2.469700000000000006e+00 4.062839999999999563e+00 -9.895242412801338872e-02
1.303899999999999970e+01 1.458799999999999919e+01 2.469700000000000006e+00 5.037334999999999674e+00 -8.642513226871802179e-02
1.303899999999999970e+01 3.807099999999999795e+01 1.426800000000000068e+01 1.694954999999999856e+01 6.181712024730003779e-02
1.304100000000000037e+01 1.028800000000000026e+01 7.835200000000000387e+00 2.151063999999999865e+00 7.427472207947671823e-02
1.304800000000000004e+01 3.554699999999999704e+01 3.716400000000000148e+00 -1.678174000000000055e+00 -8.677878575371777981e-03
1.305000000000000071e+01 1.168999999999999950e+01 7.280899999999999928e+00 2.251602000000000103e+00 5.913513905515456470e-02
1.305599999999999916e+01 1.383799999999999919e+01 1.910900000000000176e+01 -9.274324999999999930e-01 -6.665774791469275540e-02
1.305799999999999983e+01 3.447800000000000153e+01 2.485099999999999909e+01 -1.621196000000000126e+01 -1.816537730245285087e-01
1.305799999999999983e+01 3.468699999999999761e+01 2.411499999999999844e+01 -4.903362000000000442e+00 -1.826814487196857795e-01
1.305899999999999928e+01 3.217799999999999727e+01 2.724800000000000111e+01 4.064435999999999716e+00 -1.867127225931746459e-01
1.307000000000000028e+01 3.319500000000000028e+01 5.491000000000000221e-03 -8.951059000000000765e+00 1.084887653210933472e-01
1.307399999999999984e+01 3.743500000000000227e+01 9.969200000000000728e+00 3.170160000000000089e+00 -9.314462247756194468e-02
1.308000000000000007e+01 3.501200000000000045e+01 1.767399999999999949e+01 3.432332000000000249e+01 -9.402950720181771360e-02
1.308000000000000007e+01 3.501200000000000045e+01 1.907400000000000162e+01 7.033179999999999765e+00 8.451086870992745304e-02
1.308699999999999974e+01 1.180499999999999972e+01 1.785900000000000176e+01 -3.934809000000000223e-01 1.154005818263929700e-01
1.308699999999999974e+01 1.180499999999999972e+01 2.060900000000000176e+01 3.537942000000000320e+01 7.411910821237120695e-02
1.309900000000000020e+01 3.550999999999999801e+01 7.156699999999999839e+00 -5.086459999999999759e+00 -5.874990756823806823e-03
1.309999999999999964e+01 1.194599999999999973e+01 1.209399999999999942e+01 -9.008003999999999678e+00 1.902445679062849671e-01
1.310399999999999920e+01 1.745700000000000074e+01 2.428699999999999903e+01 -1.053486999999999973e+01 -6.497741859344725868e-02
1.311999999999999922e+01 1.561100000000000065e+01 1.248700000000000010e+01 -3.550885999999999854e+01 -3.186673475627812419e-02
1.312100000000000044e+01 1.688899999999999935e+01 1.336400000000000077e+01 -1.436593000000000053e+01 -2.111673131907151890e-02
1.312400000000000055e+01 2.969200000000000017e+01 -1.428900000000000059e+00 3.728498000000000090e+00 1.296349465367755693e-01
1.313199999999999967e+01 1.668199999999999861e+01 2.402000000000000135e+00 -6.294633000000000145e+00 -7.634695281422827773e-02
1.313199999999999967e+01 1.703999999999999915e+01 1.924200000000000088e+01 1.698477000000000015e+00 -6.327696309939875863e-02
1.313299999999999912e+01 2.684100000000000108e+01 2.574099999999999966e+01 6.493304000000000187e+00 -1.922348113363845923e-01
1.313400000000000034e+01 1.664199999999999946e+01 1.833699999999999974e+01 6.911304999999999588e+00 -6.384504056808697203e-02
1.313799999999999990e+01 3.470900000000000318e+01 1.837399999999999878e+01 1.754571999999999932e+01 -9.413773644492232084e-02
1.314000000000000057e+01 9.338100000000000733e+00 8.232300000000000395e+00 1.700051999999999897e+00 -2.921532130605060743e-02
1.314899999999999913e+01 3.221200000000000330e+01 -1.354000000000000092e+00 -2.202469999999999928e+01 1.291374487549853678e-01
1.315799999999999947e+01 3.709700000000000131e+01 4.916699999999999959e-01 -2.912977999999999845e+00 -1.039117773964505151e-02
1.315799999999999947e+01 3.709700000000000131e+01 3.242300000000000182e+00 -3.594724000000000252e-01 -8.725594304273559185e-03
1.319699999999999918e+01 3.542499999999999716e+01 6.217100000000000293e+00 -4.015482999999999691e+00 -6.740720755511113264e-03
1.319899999999999984e+01 3.590899999999999892e+01 1.775199999999999889e+01 1.794639000000000095e+01 -9.399282212228762812e-02
1.319899999999999984e+01 3.590899999999999892e+01 1.915200000000000102e+01 6.705315999999999832e+00 8.376232163066410497e-02
1.319999999999999929e+01 1.165199999999999925e+01 4.902400000000000091e+00 1.607706000000000079e+00 4.440525955173514616e-02
1.320400000000000063e+01 3.515299999999999869e+01 5.788499999999999979e+00 -8.597403999999999158e+00 -7.146027508669276947e-03
1.320700000000000074e+01 1.314199999999999946e+01 1.176299999999999990e+01 -3.032329000000000008e+01 1.819365609786007809e-01
1.320800000000000018e+01 3.096600000000000108e+01 -1.938099999999999934e+00 9.172698999999999436e-02 1.298207506015956469e-01
1.321100000000000030e+01 1.010899999999999999e+01 1.777599999999999980e+01 2.790219000000000005e+00 8.076349619162818960e-02
1.323300000000000054e+01 2.872500000000000142e+01 -1.736499999999999932e+00 1.278364000000000056e+00 1.301096622183219587e-01
1.324099999999999966e+01 3.784000000000000341e+01 1.646300000000000097e+01 5.574859000000000009e+01 -9.378021093794693119e-02
1.324799999999999933e+01 3.840699999999999648e+01 1.135800000000000054e+01 6.919748000000000232e+00 -9.327534078632013226e-02
1.325000000000000000e+01 1.784700000000000131e+01 1.328400000000000070e+01 -2.539381000000000110e+00 -1.429419683377897501e-02
1.325300000000000011e+01 2.980399999999999849e+01 2.767599999999999838e+01 1.180512000000000050e+01 -1.873231171859261468e-01
1.325300000000000011e+01 3.143400000000000105e+01 2.721300000000000097e+01 9.105643999999999849e+00 -1.873169623931387473e-01
1.325600000000000023e+01 3.528199999999999648e+01 -2.548799999999999955e-01 1.328308999999999962e+01 1.097729694693072994e-01
1.326999999999999957e+01 1.488499999999999979e+01 1.839199999999999946e+01 4.410363000000000255e+00 2.046131517483789145e-02
1.326999999999999957e+01 1.488499999999999979e+01 2.009199999999999875e+01 -5.355163000000000117e+00 -6.504872993241177237e-02
1.326999999999999957e+01 1.593500000000000050e+01 1.839199999999999946e+01 1.370623999999999931e+01 -6.406520539936333414e-02
1.326999999999999957e+01 1.593500000000000050e+01 2.009199999999999875e+01 1.092367999999999917e+01 -6.352121093993258472e-02
1.327399999999999913e+01 2.369699999999999918e+01 2.552299999999999969e+01 -3.436729000000000145e+00 -8.356406854823476837e-02
1.327899999999999991e+01 3.649499999999999744e+01 1.728699999999999903e+01 2.337316999999999823e+01 -9.390852427291782045e-02
1.328999999999999915e+01 2.125300000000000011e+01 2.705600000000000094e+01 -5.676803999999999739e+00 -8.320478549641470434e-02
1.330400000000000027e+01 3.847899999999999920e+01 1.470599999999999952e+01 4.496138000000000190e+00 6.209174988942874757e-02
1.330400000000000027e+01 3.847899999999999920e+01 1.564600000000000080e+01 1.768983000000000061e+02 6.153442290078964261e-02
1.331000000000000050e+01 2.041499999999999915e+01 1.526200000000000001e+00 2.148013999999999868e+00 -6.507895217841164204e-02
1.331300000000000061e+01 1.710300000000000153e+01 1.407499999999999929e+01 2.788340999999999958e+00 -1.723546088720752725e-02
1.332499999999999929e+01 9.089000000000000412e+00 1.174600000000000044e+01 1.577428999999999970e+00 2.199371777246324766e-01
1.334099999999999930e+01 1.451600000000000001e+01 1.924200000000000088e+01 -4.783960999999999908e-01 -6.530612234025398588e-02
1.334099999999999930e+01 1.630399999999999849e+01 1.924200000000000088e+01 1.547547000000000006e+00 -6.329973976986717765e-02
1.334099999999999930e+01 1.777599999999999980e+01 1.924200000000000088e+01 5.096411999999999942e+00 -6.278631018658648033e-02
1.334099999999999930e+01 2.475499999999999901e+01 2.556400000000000006e+01 -1.228489000000000075e+01 -8.354453598588143515e-02
1.334099999999999930e+01 2.615500000000000114e+01 2.556400000000000006e+01 3.440388000000000002e+00 -8.352213685692591594e-02
1.334699999999999953e+01 1.796999999999999886e+01 1.268900000000000006e+01 -1.175760999999999967e+01 -1.448553948546813831e-02
1.334699999999999953e+01 3.544500000000000028e+01 1.837399999999999878e+01 1.509980999999999973e+01 -9.408460552805726629e-02
1.334900000000000020e+01 3.845300000000000296e+01 1.206300000000000061e+01 1.547495000000000065e+00 -9.333272954753238371e-02
1.335899999999999999e+01 1.166099999999999959e+01 3.529999999999999805e+00 1.309239000000000042e+00 9.931393347982091224e-03
1.336400000000000077e+01 1.202399999999999913e+01 5.545399999999999885e+00 -2.229479000000000044e-01 4.937826355877594081e-02
1.336400000000000077e+01 1.202399999999999913e+01 6.714000000000000412e+00 1.462399000000000004e+00 5.661605608902657572e-02
1.336700000000000088e+01 3.594299999999999784e+01 7.856700000000000017e+00 -3.794416000000000011e+00 -5.319682351282698299e-03
1.336999999999999922e+01 2.859600000000000009e+01 2.747800000000000153e+01 6.949984999999999857e+00 -1.884506669006759394e-01
1.337299999999999933e+01 1.816100000000000136e+01 2.638800000000000168e+01 -1.188630999999999993e+00 -8.326779427848082782e-02
1.337299999999999933e+01 1.827199999999999847e+01 2.558999999999999986e+01 -5.842273999999999745e+00 -8.367462517444262948e-02
1.337299999999999933e+01 1.838800000000000168e+01 2.718700000000000117e+01 -4.534750999999999976e+00 -8.292750196677822760e-02
1.337299999999999933e+01 1.968100000000000094e+01 2.790800000000000125e+01 -1.762574000000000041e+01 -8.284438950973110893e-02
1.337800000000000011e+01 1.203700000000000081e+01 2.722900000000000098e+00 4.868948999999999749e+00 1.706371001411500360e-02
1.338199999999999967e+01 8.117900000000000560e+00 9.210699999999999221e+00 4.394130999999999787e+00 5.912039432161494967e-03
1.338299999999999912e+01 3.371800000000000352e+01 2.728600000000000136e+01 -8.637943999999999178e+00 -1.868627109235428685e-01
1.338400000000000034e+01 1.938500000000000156e+01 1.974699999999999900e+00 2.962314000000000114e+00 -6.803534747711109665e-02
1.338799999999999990e+01 1.732199999999999918e+01 1.266399999999999970e+01 -2.411302999999999841e+01 -1.838307318221849701e-02
1.338799999999999990e+01 1.732199999999999918e+01 1.576399999999999935e+01 1.282958999999999961e+01 -8.826644871806895581e-03
1.339199999999999946e+01 2.644699999999999918e+01 -1.170299999999999896e+00 2.244259000000000004e+00 1.299374560245141474e-01
1.339700000000000024e+01 1.706299999999999883e+01 2.246799999999999997e+01 -1.320346999999999937e+00 -6.306030819225934281e-02
1.339700000000000024e+01 1.706299999999999883e+01 2.340800000000000125e+01 -2.085093999999999781e+00 -6.391948190726037815e-02
1.340000000000000036e+01 2.727400000000000091e+01 2.644099999999999895e+01 2.340250999999999859e+00 -1.912822300217545402e-01
1.340600000000000058e+01 3.686599999999999966e+01 2.259600000000000009e+01 1.106997999999999927e+01 8.265230093178416171e-02
1.340700000000000003e+01 1.852899999999999991e+01 1.335899999999999999e+01 5.083028000000000546e-01 -9.657455174610467263e-03
1.340799999999999947e+01 3.745300000000000296e+01 1.720700000000000074e+01 1.814408999999999850e+01 -9.386131613667540730e-02
1.340900000000000070e+01 1.074499999999999922e+01 1.185399999999999920e+01 1.238752999999999993e+01 1.974772733607468578e-01
1.341099999999999959e+01 2.246399999999999864e+01 2.578399999999999892e+01 1.274917999999999996e+00 -8.355029392403176547e-02
1.341099999999999959e+01 3.698199999999999932e+01 2.023199999999999932e+01 4.760500999999999650e+00 8.305757911543000527e-02
1.341099999999999959e+01 3.723599999999999710e+01 2.112600000000000122e+01 4.630612000000000172e+00 8.258903621880454848e-02
1.341099999999999959e+01 1.805900000000000105e+01 2.599299999999999944e+00 2.642424999999999913e-01 -7.271920868758702250e-02
1.341200000000000081e+01 1.233000000000000007e+01 1.870899999999999963e+01 -1.499065000000000092e+00 1.315335776540270118e-01
1.342099999999999937e+01 1.822700000000000031e+01 1.697200000000000131e+01 1.750632999999999839e+01 2.393542560316691548e-02
1.342099999999999937e+01 1.822700000000000031e+01 1.783699999999999974e+01 1.579505999999999943e+01 -7.592314883469172826e-02
1.342399999999999949e+01 3.486699999999999733e+01 2.368799999999999883e+01 -7.841707999999999457e-01 -1.840103637338753872e-01
1.344299999999999962e+01 3.801200000000000045e+01 1.382199999999999918e+01 1.258867000000000047e+01 -9.349167803499237872e-02
1.345199999999999996e+01 2.180399999999999849e+01 -1.151999999999999913e+00 -4.042637000000000036e+00 -5.904579691243898310e-02
1.345199999999999996e+01 2.203099999999999881e+01 -1.951100000000000056e+00 5.185395999999999894e-01 -5.759717561799485713e-02
1.345199999999999996e+01 2.332400000000000162e+01 -2.672000000000000153e+00 -6.803652999999999784e-02 -5.578464551917612646e-02
1.345599999999999952e+01 1.095500000000000007e+01 1.778800000000000026e+01 6.330436000000000396e-01 9.907263341645547450e-02
1.345599999999999952e+01 1.095500000000000007e+01 2.067999999999999972e+01 -1.781881000000000048e+00 5.755905060216305602e-02
1.345899999999999963e+01 1.695299999999999940e+01 1.491399999999999970e+01 5.501304000000000194e+00 -1.510191207371927233e-02
1.346000000000000085e+01 2.784799999999999898e+01 -1.594400000000000039e+00 6.096865000000000201e-01 1.300207094111853479e-01
1.347100000000000009e+01 3.495499999999999829e+01 3.903999999999999915e+00 -3.035487999999999964e+00 -8.820844326321670634e-03
1.347199999999999953e+01 8.266700000000000159e+00 1.962699999999999889e+01 5.255282000000000231e+00 1.339994602738480700e-01
1.347199999999999953e+01 8.266700000000000159e+00 2.132700000000000173e+01 -1.731921999999999962e+00 5.748861426265624436e-02
1.347199999999999953e+01 9.317299999999999471e+00 2.132700000000000173e+01 -5.999782999999999866e+00 5.616024985940938630e-02
1.347499999999999964e+01 2.584299999999999997e+01 -1.227999999999999980e+00 3.463360999999999912e+00 -5.611970294003341270e-02
1.348000000000000043e+01 3.484700000000000131e+01 4.849000000000000199e+00 -6.043828999999999674e+00 -8.090081783197301118e-03
1.348300000000000054e+01 8.610699999999999577e+00 8.426000000000000156e+00 1.679728000000000110e+00 -1.477503386214390133e-02
1.348300000000000054e+01 3.762199999999999989e+01 1.341699999999999893e+00 -1.780574000000000101e+00 -9.879511625204794728e-03
1.348300000000000054e+01 3.762199999999999989e+01 2.392300000000000093e+00 -5.845964999999999634e+00 -9.258122165922861094e-03
1.348600000000000065e+01 1.833200000000000074e+01 1.970299999999999940e+01 4.289462999999999582e+00 -6.243620832312331975e-02
1.349099999999999966e+01 3.287800000000000011e+01 2.751500000000000057e+01 2.538278000000000034e+00 -1.870216983246187903e-01
1.349600000000000044e+01 1.237899999999999956e+01 1.160299999999999976e+01 -2.059972999999999832e+00 1.831616905611512247e-01
1.350099999999999945e+01 3.796900000000000119e+01 1.043500000000000050e+01 2.429526999999999859e+01 -9.317113519231037810e-02
1.350500000000000078e+01 1.864300000000000068e+01 2.095400000000000063e+01 -1.816049000000000024e+00 -6.231277337544897238e-02
1.350600000000000023e+01 1.104100000000000037e+01 7.547600000000000087e+00 2.945088999999999846e+00 6.890894512663907345e-02
1.351299999999999990e+01 1.812300000000000111e+01 2.468400000000000105e+01 -3.300035999999999969e+00 -6.440288550716008475e-02
1.351500000000000057e+01 3.806600000000000250e+01 1.280700000000000038e+01 -8.863597999999999644e+00 -9.338785659319558119e-02
1.351699999999999946e+01 1.828000000000000114e+01 1.398399999999999999e+01 5.072316999999999965e+00 -8.777423315836771142e-03
1.352299999999999969e+01 9.526099999999999568e+00 1.867099999999999937e+01 2.326369000000000131e+00 9.806986228669097028e-02
1.352599999999999980e+01 1.236800000000000033e+01 1.980999999999999872e+01 -1.326662999999999926e+01 -6.811223039511769828e-02
1.352699999999999925e+01 3.624699999999999989e+01 3.313099999999999934e+00 2.912428999999999935e+00 -8.972014338914115900e-03
1.352999999999999936e+01 1.825700000000000145e+01 2.158800000000000097e+01 -2.038112999999999886e+01 -6.224056824124710868e-02
1.353899999999999970e+01 8.193500000000000227e+00 1.036200000000000010e+01 1.334708000000000006e+00 -4.821951147580223751e-02
1.354299999999999926e+01 7.898299999999999876e+00 2.047700000000000031e+01 1.636414999999999953e+00 2.724562614728899199e-02
1.354400000000000048e+01 3.465699999999999648e+01 1.932300000000000129e-01 4.025324000000000346e+00 1.101058429180082898e-01
1.356400000000000006e+01 1.373799999999999955e+01 2.145000000000000018e+00 2.530212999999999823e+00 -9.183102661897518670e-02
1.356400000000000006e+01 1.536800000000000033e+01 2.608000000000000096e+00 1.832818999999999976e+00 -8.377586003039047546e-02
1.357499999999999929e+01 2.920799999999999841e+01 -2.073599999999999888e+00 4.813125000000000320e+00 1.301184831906953276e-01
1.358699999999999974e+01 1.459600000000000009e+01 1.204499999999999993e+01 -1.921471999999999980e+01 1.738545837670434913e-01
1.359500000000000064e+01 1.541000000000000014e+01 1.924200000000000088e+01 8.447240000000000304e-01 -6.365413981701539825e-02
1.359900000000000020e+01 1.919500000000000028e+01 2.147800000000000153e+01 -5.882831000000000365e+00 -6.252062844006865683e-02
1.360200000000000031e+01 3.348799999999999955e+01 8.932299999999999685e-01 1.386781000000000041e+01 1.102773043538429754e-01
1.360599999999999987e+01 9.236900000000000333e+00 1.943599999999999994e+01 6.044494999999999729e-01 1.162536500079907470e-01
1.361299999999999955e+01 3.018100000000000094e+01 -2.096999999999999975e+00 4.448737999999999637e+00 1.298934669534535513e-01
1.361299999999999955e+01 3.657999999999999829e+01 1.940800000000000125e+01 8.482931999999999917e+00 8.444832347141571771e-02
1.361400000000000077e+01 1.971499999999999986e+01 1.584500000000000020e+00 2.708342000000000027e+00 -6.704147147653270744e-02
1.361400000000000077e+01 1.753699999999999903e+01 1.198900000000000077e+01 -6.652962999999999738e+01 -1.729968792874912037e-02
1.361400000000000077e+01 1.840299999999999869e+01 1.198900000000000077e+01 -1.379701000000000022e+01 -1.261335229026018523e-02
1.361500000000000021e+01 1.883399999999999963e+01 1.267399999999999949e+01 2.434677999999999898e+00 -9.115080170791000497e-03
1.361599999999999966e+01 1.926500000000000057e+01 1.335899999999999999e+01 3.824482000000000159e+00 -5.391277290862367920e-03
1.362400000000000055e+01 3.438900000000000290e+01 9.506799999999999695e-01 9.670897999999999328e+00 1.109537256851122616e-01
1.362500000000000000e+01 3.625699999999999790e+01 3.743299999999999961e-01 -1.229128999999999916e+00 -1.084509905112783154e-02
1.362800000000000011e+01 2.326999999999999957e+01 2.631400000000000006e+01 -3.229611999999999927e+00 -8.346289111536267513e-02
1.364100000000000001e+01 3.513300000000000267e+01 2.645299999999999940e+01 -8.614091999999999416e+00 -1.875715198892776159e-01
1.364199999999999946e+01 1.161700000000000088e+01 1.177999999999999936e+01 -5.274010999999999560e-01 1.863702965191952332e-01
1.364499999999999957e+01 2.545499999999999829e+01 2.550600000000000023e+01 -4.786271000000000164e+00 -8.356489064411404266e-02
1.364600000000000080e+01 8.480600000000000804e+00 1.101999999999999957e+01 5.676075000000000426e-01 -7.384320934360849575e-02
1.364600000000000080e+01 3.442499999999999716e+01 2.637900000000000134e+00 2.323640999999999845e+00 -9.983819844176688302e-03
1.364700000000000024e+01 2.013299999999999912e+01 2.194000000000000128e+01 -8.779297000000000351e-01 -7.584101119858027706e-02
1.365099999999999980e+01 3.531600000000000250e+01 3.906600000000000072e-01 1.338154000000000066e+00 1.108158997248171324e-01
1.365700000000000003e+01 3.638199999999999790e+01 8.608900000000000219e+00 -1.180913999999999930e+01 -9.295650355211443339e-02
1.365700000000000003e+01 3.670700000000000074e+01 9.346099999999999852e+00 -2.030110000000000170e+01 -9.303035137650783604e-02
1.365900000000000070e+01 9.671799999999999287e+00 2.053000000000000114e+01 -1.173892999999999986e+01 4.133865739433294217e-02
1.366300000000000026e+01 1.592300000000000004e+01 2.593900000000000095e+00 1.832818999999999976e+00 -8.122998747025007849e-02
1.366300000000000026e+01 1.744099999999999895e+01 2.593900000000000095e+00 -6.764691000000000010e+00 -7.519094501267874209e-02
1.366900000000000048e+01 1.389300000000000068e+01 1.168599999999999994e+01 -3.806483000000000061e+01 1.752625974426211264e-01
1.366999999999999993e+01 3.244200000000000017e+01 -1.704400000000000082e-01 -1.057033000000000023e+01 1.080835410015670989e-01
1.367099999999999937e+01 3.411800000000000210e+01 3.694999999999999840e+00 -4.288826000000000249e+00 -9.283245607199347091e-03
1.367500000000000071e+01 1.896099999999999852e+01 1.405899999999999928e+01 8.044658000000000087e+00 -4.334880327412716887e-03
1.368800000000000061e+01 2.420899999999999963e+01 2.621499999999999986e+01 -6.455200999999999745e+00 -8.348299739702477740e-02
1.369400000000000084e+01 9.939000000000000057e+00 1.181700000000000017e+01 2.702543999999999969e+01 2.024869310771917341e-01
1.369800000000000040e+01 2.160699999999999932e+01 2.850900000000000101e-01 3.009819999999999940e+00 -6.191756131919654710e-02
1.370400000000000063e+01 1.087800000000000011e+01 3.529999999999999805e+00 1.499357000000000051e+00 -9.589356688615564839e-02
1.371299999999999919e+01 1.784700000000000131e+01 1.491399999999999970e+01 1.855902000000000029e+01 -7.154917672282050563e-03
1.372499999999999964e+01 2.779899999999999949e+01 2.729100000000000037e+01 1.908802000000000110e+00 -1.902526728187809435e-01
1.372600000000000087e+01 3.379500000000000171e+01 2.648699999999999832e+00 1.920068000000000108e+00 -1.021474652333590784e-02
1.372600000000000087e+01 1.113799999999999990e+01 4.453299999999999592e+00 -2.297472000000000125e-01 4.800103623308908662e-02
1.372899999999999920e+01 3.442099999999999937e+01 4.394999999999999574e+00 -3.592745999999999995e+00 -8.655388859808311325e-03
1.373000000000000043e+01 3.857300000000000040e+01 1.639399999999999835e+01 1.622466999999999970e+01 -9.373029624441449326e-02
1.373399999999999999e+01 3.652000000000000313e+01 1.857600000000000051e+01 1.094924999999999926e+01 -9.403376056798336269e-02
1.373700000000000010e+01 3.146799999999999997e+01 -1.447300000000000031e+00 6.936331999999999498e-01 1.289974215944681979e-01
1.375600000000000023e+01 1.955999999999999872e+01 2.217899999999999849e+01 -7.490980999999999668e+00 -7.572924559530319621e-02
1.375799999999999912e+01 3.474499999999999744e+01 2.528399999999999892e+01 -3.448891999999999847e+00 -1.824525457996235001e-01
1.376299999999999990e+01 2.186499999999999844e+01 2.654400000000000048e+01 2.171639000000000053e+01 -8.342445643861090554e-02
1.376500000000000057e+01 3.699300000000000210e+01 1.783299999999999841e+01 1.795874999999999844e+01 -9.392553921271382111e-02
1.376500000000000057e+01 3.064499999999999957e+01 2.749699999999999989e+01 2.059216999999999942e+01 -1.883050527734626278e-01
1.377500000000000036e+01 1.124699999999999989e+01 2.680000000000000160e+00 4.995142999999999667e+00 1.357520473356479962e-02
1.377800000000000047e+01 2.514300000000000068e+01 -1.286299999999999999e+00 -1.831560999999999884e-01 -5.680331662291582262e-02
1.378200000000000003e+01 3.831799999999999784e+01 1.697599999999999909e+01 8.700067999999999913e+00 -9.379218235191900954e-02
1.379199999999999982e+01 3.522399999999999665e+01 2.816500000000000004e+00 -3.199056000000000122e-01 -9.671316166586271801e-03
1.379700000000000060e+01 8.791999999999999815e+00 2.047700000000000031e+01 1.061012999999999984e+00 3.903290804972060768e-02
1.379800000000000004e+01 3.392099999999999937e+01 1.822999999999999954e+00 1.009681999999999924e+01 -1.079039349398950610e-02
1.380499999999999972e+01 1.257799999999999940e+01 2.255700000000000038e+00 3.273041000000000089e+00 2.385275558629039103e-02
1.383200000000000074e+01 1.817200000000000060e+01 1.880900000000000105e+01 2.088213999999999793e+00 -7.576112151238376113e-02
1.384299999999999997e+01 1.892099999999999937e+01 2.761799999999999855e+01 -2.523188000000000031e+01 -8.295237680707565064e-02
1.384299999999999997e+01 2.044099999999999895e+01 2.761799999999999855e+01 -6.664561999999999387e+01 -8.309739894080700462e-02
1.384399999999999942e+01 1.875900000000000034e+01 2.331900000000000084e+00 3.012004000000000126e+00 -7.103190172229087440e-02
1.384399999999999942e+01 1.143399999999999928e+01 7.243800000000000239e+00 9.243672000000000555e-01 6.675418252304984867e-02
1.384600000000000009e+01 3.468999999999999773e+01 2.712999999999999901e+01 1.777662000000000131e-01 -1.874317613391835169e-01
1.384900000000000020e+01 3.194399999999999906e+01 -9.213799999999999768e-01 -5.463447000000000386e+00 1.284185278160094035e-01
1.385500000000000043e+01 3.609700000000000131e+01 2.301500000000000057e+01 4.439324000000000048e+00 -1.851160736745824653e-01
1.385500000000000043e+01 3.516100000000000136e+01 1.008099999999999996e+00 3.475448000000000093e+00 -1.090596308611964035e-02
1.385599999999999987e+01 2.086899999999999977e+01 2.194000000000000128e+01 2.312333000000000194e+00 -7.599247948059510704e-02
1.385699999999999932e+01 3.535799999999999699e+01 2.329200000000000159e+01 2.919345999999999997e+00 -1.851877684300319848e-01
1.386700000000000088e+01 1.782300000000000040e+01 2.217800000000000082e+01 -1.141170999999999935e+01 -6.172360735396963116e-02
1.386700000000000088e+01 1.782300000000000040e+01 2.369800000000000040e+01 -2.238230000000000075e+01 -6.309542505218164454e-02
1.386700000000000088e+01 1.876300000000000168e+01 2.217800000000000082e+01 -2.175096999999999881e+01 -6.217457505758448161e-02
1.386700000000000088e+01 1.962800000000000011e+01 2.077799999999999869e+01 -4.486217000000000121e-01 -7.578309795197631094e-02
1.386999999999999922e+01 3.461699999999999733e+01 1.866999999999999993e+00 4.406032999999999866e+00 -1.054405845733780503e-02
1.387700000000000067e+01 3.913499999999999801e+01 1.168999999999999950e+01 5.458708999999999811e+00 -9.327905783192674827e-02
1.387700000000000067e+01 2.730799999999999983e+01 -1.556999999999999940e+00 1.088707000000000008e-01 1.298079334288081976e-01
1.389100000000000001e+01 2.835699999999999932e+01 -2.218700000000000117e+00 8.738704000000000471e-01 1.302859811938449630e-01
1.389400000000000013e+01 3.310399999999999920e+01 2.785800000000000054e+01 1.396290999999999949e+00 -1.872949498193847706e-01
1.389799999999999969e+01 1.828600000000000136e+01 1.577899999999999991e+01 1.255648000000000053e+01 4.633349741147005027e-04
1.390300000000000047e+01 1.913500000000000156e+01 2.017899999999999849e+01 4.747578000000000076e-01 -7.572387115643058886e-02
1.391399999999999970e+01 2.056599999999999895e+01 2.123999999999999844e+01 1.831725000000000048e+00 -7.595685725633834207e-02
1.391399999999999970e+01 2.056599999999999895e+01 2.264000000000000057e+01 3.481218000000000146e+00 -7.595459369573377695e-02
1.391699999999999982e+01 1.865200000000000102e+01 1.479599999999999937e+01 8.649262999999999479e+00 -1.954862035687076911e-03
1.392099999999999937e+01 1.034099999999999930e+01 7.697000000000000064e+00 3.023730000000000029e+00 -4.499257199094330861e-02
