-1.617599999999999838e+01 -1.766700000000000159e+01 5.452100000000000080e+01 -8.797098000000000084e+00 -1.993063000215389291e-01
-1.617500000000000071e+01 4.355999999999999872e+00 4.938100000000000023e+01 4.178911999999999694e+01 -2.732635250313488195e-01
-1.617500000000000071e+01 5.802100000000000257e+00 4.678699999999999903e+01 1.157243000000000066e+01 -1.366861556741826023e-01
-1.617500000000000071e+01 5.802100000000000257e+00 4.857500000000000284e+01 1.938500000000000156e+01 -2.017005494030760515e-01
-1.617500000000000071e+01 6.056000000000000050e+00 4.768099999999999739e+01 2.100626000000000104e+01 -1.363523096376557942e-01
-1.617399999999999949e+01 -5.442900000000000515e-01 4.220199999999999818e+01 -2.119349999999999845e+00 2.277883021548567366e-01
-1.617299999999999827e+01 -2.233299999999999841e+01 3.119000000000000128e+01 -1.194402000000000008e+01 -3.644531577655459320e-01
-1.617099999999999937e+01 2.932199999999999918e+00 4.969299999999999784e+01 1.967264000000000124e+01 -2.741394990861306113e-01
-1.617000000000000171e+01 -3.516400000000000148e+01 4.369700000000000273e+01 8.494835000000000580e-02 -2.750127177661600419e-01
-1.616300000000000026e+01 -3.361899999999999977e+01 2.300000000000000000e+01 -1.177140999999999993e+00 -2.475403493814073153e-01
-1.615899999999999892e+01 5.370899999999999563e-01 6.019299999999999784e+01 6.476504000000000261e+00 -3.499999999999999778e-01
-1.615899999999999892e+01 5.370899999999999563e-01 6.105799999999999983e+01 -4.344085999999999892e+00 -3.499999999999999778e-01
-1.615800000000000125e+01 -2.032999999999999829e+01 4.433599999999999852e+01 -7.873574999999999768e+00 -2.610215465993436235e-01
-1.615599999999999881e+01 -4.687899999999999778e+01 1.851200000000000045e+01 -3.149857999999999825e-01 -2.472512477485560578e-01
-1.615599999999999881e+01 -4.543299999999999983e+01 1.770599999999999952e+01 -1.516688000000000036e+00 -2.473982895632445556e-01
-1.615599999999999881e+01 -3.511500000000000199e+01 4.693099999999999739e+01 -5.078808999999999685e+00 -1.844986352103252791e-01
-1.615500000000000114e+01 -1.796699999999999875e+01 3.150199999999999889e+01 1.272701000000000082e+00 -3.649157483011937209e-01
-1.615399999999999991e+01 7.315299999999999692e+00 5.403300000000000125e+01 -5.030369999999999564e+00 -2.554224305850402166e-01
-1.615399999999999991e+01 7.315299999999999692e+00 5.555299999999999727e+01 -3.542681999999999931e+01 -2.538895740013280000e-01
-1.615399999999999991e+01 8.254699999999999704e+00 5.403300000000000125e+01 -1.638079000000000107e+01 4.313803906588369735e-02
-1.615399999999999991e+01 8.254699999999999704e+00 5.555299999999999727e+01 -7.359676000000000329e+01 3.711749477252680035e-02
-1.615399999999999991e+01 -1.402599999999999980e+01 5.794100000000000250e+01 3.684111999999999831e+00 -2.725235114998335595e-01
-1.615399999999999991e+01 4.575300000000000367e+00 4.507600000000000051e+01 2.710794999999999733e-01 7.698370038846621966e-02
-1.614999999999999858e+01 -9.330500000000000682e+00 6.120300000000000296e+01 -1.103701000000000043e+01 -3.817222597783601068e-01
-1.614999999999999858e+01 -9.327299999999999258e+00 6.008700000000000330e+01 -9.558899000000000257e+00 -3.815755383361940090e-01
-1.614799999999999969e+01 -3.784400000000000119e+01 4.315400000000000347e+01 1.702087999999999934e-01 -2.749375705572794093e-01
-1.614399999999999835e+01 -4.879099999999999682e+01 2.485000000000000142e+01 1.982634000000000063e-01 -2.463611054387751520e-01
-1.614300000000000068e+01 -1.713500000000000156e+01 4.621200000000000330e+01 -1.864613999999999905e+01 -1.142452260013582521e-01
-1.614000000000000057e+01 -7.650999999999999801e+00 3.839399999999999835e+01 -1.215077999999999925e+01 -2.905231853507713735e-01
-1.613599999999999923e+01 -1.633999999999999986e+01 5.614699999999999847e+01 -4.420810000000000350e+00 -1.976484724840798513e-01
-1.613500000000000156e+01 -2.069099999999999895e+01 4.361399999999999721e+01 -4.410171000000000063e+00 -2.596545205418438473e-01
-1.613400000000000034e+01 6.041800000000000281e+00 5.708400000000000318e+01 -1.767107999999999990e+01 -3.499999999999999778e-01
-1.612999999999999901e+01 -1.712500000000000000e+01 3.378600000000000136e+01 2.058509000000000100e+01 -2.752958441224254704e-01
-1.611899999999999977e+01 -3.612100000000000222e+01 4.938499999999999801e+01 -2.219504000000000143e+00 -1.858716453333091878e-01
-1.611599999999999966e+01 -4.855199999999999960e+01 3.526700000000000301e+01 -1.444416999999999973e+01 -3.636479349349193702e-01
-1.611400000000000077e+01 -8.777599999999999625e+00 5.140599999999999881e+01 1.148948000000000036e+01 -2.809018474632391515e-01
-1.611400000000000077e+01 -7.912399999999999878e+00 5.140599999999999881e+01 1.064861999999999931e+01 -2.814473231113497897e-01
-1.611199999999999832e+01 1.503200000000000092e+00 6.370100000000000051e+01 -6.129807999999999701e+00 -3.499999999999999778e-01
-1.610099999999999909e+01 -1.498300000000000054e+01 3.474199999999999733e+01 5.952353999999999701e+00 -3.648706792591599468e-01
-1.609799999999999898e+01 -3.675500000000000256e+01 4.331099999999999994e+01 -1.875118000000000062e+00 -2.749774006536401250e-01
-1.609600000000000009e+01 5.579399999999999693e+00 5.635699999999999932e+01 -3.510661999999999949e+00 -3.499999999999999778e-01
-1.609100000000000108e+01 -1.891400000000000148e+01 4.704299999999999926e+01 -2.398404000000000025e+01 -1.907075029322380932e-01
-1.609100000000000108e+01 -1.025600000000000023e+01 6.272299999999999898e+01 -7.439059000000000310e+00 -3.816987172298744180e-01
-1.609100000000000108e+01 6.985899999999999999e+00 5.479299999999999926e+01 -3.886316000000000059e+01 -2.546396084456078457e-01
-1.609100000000000108e+01 8.584099999999999397e+00 5.479299999999999926e+01 -4.604377000000000209e+01 4.008582682648257484e-02
-1.608999999999999986e+01 -1.015799999999999947e+01 6.372399999999999665e+01 -1.033497999999999983e+01 -3.818451550657706584e-01
-1.608999999999999986e+01 -1.870400000000000063e+01 4.864500000000000313e+01 -2.561715999999999838e+01 -1.140880193431480089e-01
-1.608699999999999974e+01 -2.052599999999999980e+01 5.451400000000000290e+01 5.841007000000000282e+00 -2.328247267100730100e-01
-1.608699999999999974e+01 -2.376399999999999935e+01 3.162600000000000122e+01 -1.150742999999999938e+01 -3.643194236936423969e-01
-1.608200000000000074e+01 -4.443399999999999750e+01 3.948599999999999710e+01 2.281929999999999836e+01 -3.636232284454479213e-01
-1.608099999999999952e+01 2.145999999999999908e+00 5.909199999999999875e+01 -1.620525999999999911e-01 -3.500000000000000333e-01
-1.607799999999999940e+01 -1.664300000000000068e+01 5.544700000000000273e+01 -1.466594000000000086e+01 -1.982052317481062809e-01
-1.607300000000000040e+01 -1.828300000000000125e+01 4.692999999999999972e+01 -2.326032000000000011e+01 -1.141700673188827259e-01
-1.607199999999999918e+01 -4.949600000000000222e+01 3.305400000000000205e+01 -3.508325999999999834e+00 -3.636633770419248068e-01
-1.607000000000000028e+01 -4.197399999999999665e+01 1.974099999999999966e+01 -8.227995000000000170e-01 -2.474239502633279186e-01
-1.606599999999999895e+01 -1.989499999999999957e+01 3.659100000000000108e+01 6.952384000000000341e+00 -3.643342989912849994e-01
-1.606200000000000117e+01 -1.633399999999999963e+01 3.156099999999999994e+01 7.753075999999999857e-01 -3.652610741363808144e-01
-1.606200000000000117e+01 -3.323700000000000099e+00 4.002000000000000313e+01 1.053377000000000052e+01 1.621490170907235739e-01
-1.606099999999999994e+01 -1.569100000000000072e+01 5.742099999999999937e+01 2.281222000000000083e+00 -1.965379514568910690e-01
-1.605699999999999861e+01 -3.012999999999999901e+01 5.186200000000000188e+01 1.237832000000000043e+00 -1.888813650133270017e-01
-1.605699999999999861e+01 -2.028699999999999903e+01 4.302300000000000324e+01 3.883992999999999807e+00 -2.590255713550560501e-01
-1.605600000000000094e+01 -7.608999999999999986e+00 5.070600000000000307e+01 8.515513999999999584e+00 -2.833386714350781821e-01
-1.605399999999999849e+01 -1.983699999999999974e+01 4.702100000000000080e+01 -2.118553999999999959e+01 -1.905336243423089992e-01
-1.605199999999999960e+01 1.409799999999999942e-01 6.452400000000000091e+01 -4.162869999999999848e+00 -3.499999999999999778e-01
-1.604700000000000060e+01 2.339799999999999880e+00 4.362400000000000233e+01 2.124983999999999895e+01 2.982503296813325197e-02
-1.604100000000000037e+01 -4.867300000000000182e+01 3.436399999999999721e+01 1.280629000000000017e+00 -3.636581048144032491e-01
-1.603999999999999915e+01 -9.677400000000000446e+00 5.856199999999999761e+01 -8.085217999999999350e+00 -3.812396601397914919e-01
-1.603399999999999892e+01 3.308899999999999952e+00 5.391899999999999693e+01 -1.049948000000000015e+01 -2.588567713474391185e-01
-1.603300000000000125e+01 -1.860999999999999943e+01 4.774300000000000210e+01 -2.464861000000000146e+01 -1.141290533295903631e-01
-1.603099999999999881e+01 -4.585699999999999932e+01 3.894200000000000017e+01 5.350266999999999662e+00 -3.636245730489787720e-01
-1.602899999999999991e+01 -9.708999999999999631e+00 5.060099999999999909e+01 1.492010999999999932e+01 -2.819709275202539889e-01
-1.601300000000000168e+01 -3.996500000000000341e+01 4.363300000000000267e+01 -8.888458999999999943e-02 -2.754038942993016770e-01
-1.601099999999999923e+01 -2.471099999999999852e+01 5.255700000000000216e+01 -1.413261999999999929e+01 -2.227412090346836404e-01
-1.600600000000000023e+01 -5.037500000000000000e+01 3.257800000000000296e+01 -9.253470999999999336e+00 -2.441738779798141024e-01
-1.600400000000000134e+01 -1.081000000000000050e+01 5.780400000000000205e+01 -2.384670999999999985e+00 -2.718248602481126430e-01
-1.600300000000000011e+01 -4.433300000000000018e+00 3.894500000000000028e+01 -2.082941999999999894e+01 -2.771529296609865911e-01
-1.600000000000000000e+01 -2.863700000000000045e+01 5.182600000000000051e+01 9.021288999999999447e+00 -1.134396798130564016e-01
-1.599900000000000055e+01 -1.760300000000000153e+01 3.080099999999999838e+01 9.972374000000000516e-01 -3.653195191906690176e-01
-1.599900000000000055e+01 -1.666300000000000026e+01 3.080099999999999838e+01 7.314308999999999950e-01 -3.655736835227514914e-01
-1.599900000000000055e+01 -1.666300000000000026e+01 3.232099999999999795e+01 -2.755481000000000180e-01 -3.649348523174119618e-01
-1.599200000000000088e+01 1.079700000000000104e+00 6.442499999999999716e+01 -4.187049000000000021e+00 -3.499999999999999778e-01
-1.599200000000000088e+01 -4.163000000000000256e+01 4.346000000000000085e+01 -1.153888999999999943e+00 -2.890664611791847749e-01
-1.598700000000000010e+01 -2.581099999999999994e+01 5.182099999999999795e+01 -9.070956000000000685e+00 -2.245602449144876167e-01
-1.596899999999999942e+01 -4.654699999999999704e+01 3.775699999999999790e+01 1.043454999999999977e+01 -3.636371249511231585e-01
-1.596799999999999997e+01 -3.713000000000000256e+01 5.058700000000000330e+01 -2.535102999999999922e-03 -1.864079014084836228e-01
-1.596799999999999997e+01 -3.692099999999999937e+01 5.132300000000000040e+01 -1.896794000000000091e+00 -1.867972935125149503e-01
-1.596400000000000041e+01 -5.663000000000000256e+00 3.812199999999999989e+01 -3.125576999999999939e-01 -2.859564315425868752e-01
-1.596299999999999919e+01 -4.347500000000000142e+01 1.847800000000000153e+01 -2.555698000000000025e+00 -2.474614735818142786e-01
-1.596299999999999919e+01 -3.285600000000000165e+01 5.313600000000000279e+01 -7.011635000000000062e+00 -1.132725151519306250e-01
-1.596199999999999974e+01 5.090399999999999814e+00 4.583800000000000097e+01 4.659815000000000040e+00 -1.382625852568016289e-01
-1.596000000000000085e+01 5.255499999999999616e+00 4.940400000000000347e+01 9.592161000000000826e+00 -2.002058908537437676e-01
-1.596000000000000085e+01 -2.844099999999999895e+01 3.079799999999999827e+01 -2.906610000000000138e+00 -3.641268540046760371e-01
-1.595899999999999963e+01 8.543800000000000283e-01 6.139600000000000080e+01 -4.344085999999999892e+00 -3.499999999999999778e-01
-1.595299999999999940e+01 -3.616400000000000148e+01 2.205300000000000082e+01 -3.756178999999999935e+00 -2.476038357647011579e-01
-1.594800000000000040e+01 -4.694899999999999807e+01 2.263200000000000145e+01 1.249970000000000070e+01 -2.468973681114709218e-01
-1.594299999999999962e+01 -1.210399999999999920e+01 3.378099999999999881e+01 5.006707999999999714e+00 -2.751926520182814695e-01
-1.594200000000000017e+01 -2.767899999999999849e+01 5.179099999999999682e+01 1.530574000000000012e+01 -1.134640819964922026e-01
-1.593500000000000050e+01 -9.073999999999999844e+00 6.575000000000000000e+01 -5.335239999999999760e+00 -3.823514603884935470e-01
-1.593500000000000050e+01 -7.780999999999999694e+00 6.647100000000000364e+01 -2.805314999999999870e+01 -3.828985277966998613e-01
-1.593299999999999983e+01 -3.674799999999999756e+01 5.235199999999999676e+01 3.423900999999999861e+00 -1.873180425479065714e-01
-1.593200000000000038e+01 -1.280400000000000027e+01 3.425800000000000267e+01 5.067074999999999996e+00 -2.763868938051540214e-01
-1.593200000000000038e+01 -2.103000000000000114e+01 5.014300000000000068e+01 -3.181617999999999924e+01 -2.257866118111410414e-01
-1.593200000000000038e+01 -1.962999999999999901e+01 5.014300000000000068e+01 -2.759433999999999898e+01 -2.248043233717964551e-01
-1.592600000000000016e+01 -1.351200000000000045e+01 5.794700000000000273e+01 2.739177000000000195e+00 -2.721941039846408894e-01
-1.592600000000000016e+01 -3.939399999999999835e+01 4.353699999999999903e+01 5.139967999999999648e+00 -2.753953065352626739e-01
-1.592200000000000060e+01 -1.735700000000000021e+00 6.441700000000000159e+01 6.595851999999999826e+00 -3.499999999999999778e-01
-1.592200000000000060e+01 -3.357399999999999829e-01 6.441700000000000159e+01 -9.646611999999999298e+00 -3.499999999999999778e-01
-1.591999999999999993e+01 -1.792099999999999937e+01 4.313300000000000267e+01 -7.258028000000000368e+00 -2.614934047823102570e-01
-1.591600000000000037e+01 -2.598100000000000076e+00 6.519299999999999784e+01 -6.373477000000000281e+00 -3.845879141387206213e-01
-1.591099999999999959e+01 -8.861900000000000333e+00 5.060099999999999909e+01 3.006177999999999795e+00 -2.825318233180950100e-01
-1.590900000000000070e+01 -1.188899999999999935e+01 5.821200000000000330e+01 -2.106697000000000131e+01 -3.806647448042900228e-01
-1.590799999999999947e+01 -4.154299999999999926e+01 2.006200000000000117e+01 3.982812000000000019e+00 -2.474285175980286411e-01
-1.590499999999999936e+01 -5.036999999999999744e+01 2.987600000000000122e+01 9.398729000000000111e-01 -3.500000000000000333e-01
-1.590300000000000047e+01 -3.473199999999999932e+01 4.439699999999999847e+01 -2.710065999999999864e-01 -1.828837681411571436e-01
-1.590300000000000047e+01 -3.473199999999999932e+01 4.526200000000000045e+01 -2.557080000000000020e+00 -1.835208158520277577e-01
-1.590199999999999925e+01 -9.414899999999999380e+00 3.550999999999999801e+01 2.558492000000000033e+01 -2.856226525456334597e-01
-1.590199999999999925e+01 -2.725199999999999889e+01 3.130999999999999872e+01 -4.576895000000000380e+00 -3.641670184524166132e-01
-1.589799999999999969e+01 -3.433200000000000074e+01 5.381799999999999784e+01 8.637907000000000224e+00 -1.132186744771865594e-01
-1.589700000000000024e+01 -1.107000000000000028e+01 3.294500000000000028e+01 5.829578999999999844e+00 -2.752767632562035938e-01
-1.589700000000000024e+01 -9.519999999999999574e+00 3.294500000000000028e+01 6.440279999999999561e+00 -2.988691090852915178e-01
-1.589700000000000024e+01 -3.109499999999999886e+01 2.734600000000000009e+01 -1.010491999999999990e+01 -2.422943019074717819e-01
-1.589700000000000024e+01 -3.109499999999999886e+01 2.821199999999999974e+01 -1.294436999999999927e+01 -2.412103263822530930e-01
-1.589000000000000057e+01 -8.423299999999999343e+00 3.845300000000000296e+01 -4.648342999999999670e+00 -2.922930049886457438e-01
-1.588599999999999923e+01 -6.946699999999999875e+00 3.887299999999999756e+01 9.372476999999999947e+00 -2.903488335768124040e-01
-1.588499999999999979e+01 -2.624399999999999977e+01 3.129100000000000037e+01 -4.613008999999999915e+00 -3.642252822924178512e-01
-1.588499999999999979e+01 -2.519399999999999906e+01 3.129100000000000037e+01 -6.228208000000000411e+00 -3.642903312397534621e-01
-1.588400000000000034e+01 -1.905300000000000082e+01 4.237500000000000000e+01 6.265344999999999942e-01 -2.589989944647690390e-01
-1.588400000000000034e+01 -1.014000000000000012e+00 4.144200000000000017e+01 -1.414703999999999962e+00 2.160636893871561437e-01
-1.587899999999999956e+01 -6.541999999999999815e+00 6.601999999999999602e+01 -4.202772000000000219e+01 -3.832193808811145130e-01
-1.587899999999999956e+01 -5.142000000000000348e+00 6.601999999999999602e+01 -2.570280999999999949e+01 -3.837187078162863640e-01
-1.587899999999999956e+01 -3.621999999999999886e+00 6.601999999999999602e+01 -4.725728000000000151e+01 -3.842878813441430452e-01
-1.587500000000000000e+01 -4.763900000000000290e+01 2.283599999999999852e+01 6.289533999999999736e+00 -2.468354751052060370e-01
-1.587299999999999933e+01 -3.605899999999999750e+01 4.361200000000000188e+01 -4.245489000000000068e+00 -2.752986649123211893e-01
-1.587100000000000044e+01 -4.238799999999999812e+01 1.935600000000000165e+01 -5.871676999999999591e-01 -2.474509121905236753e-01
-1.586999999999999922e+01 -1.758099999999999952e+01 4.407999999999999829e+01 -1.122897999999999996e+01 -2.638816707701700515e-01
-1.586500000000000021e+01 -2.670599999999999952e+01 5.192000000000000171e+01 5.293181999999999832e+00 -1.134753974190263470e-01
-1.586400000000000077e+01 7.785000000000000142e+00 5.479299999999999926e+01 -1.690782000000000096e+01 3.987096141185761389e-02
-1.585999999999999943e+01 -3.065800000000000125e+01 2.342800000000000082e+01 5.934222000000000108e+00 -2.473953012733210721e-01
-1.585699999999999932e+01 -9.660399999999999210e+00 3.627000000000000313e+01 2.207036000000000087e+01 -2.871222455648171357e-01
-1.585500000000000043e+01 2.014299999999999979e+00 5.126700000000000301e+01 1.199877000000000038e+01 -2.676095406936042087e-01
-1.585100000000000087e+01 -3.718399999999999750e+01 2.115700000000000003e+01 1.030727000000000082e+01 -2.476633492881289977e-01
-1.584699999999999953e+01 -8.345000000000000639e+00 5.070600000000000307e+01 2.426219000000000126e+00 -2.826506676709595323e-01
-1.584699999999999953e+01 -2.474000000000000199e+00 4.088499999999999801e+01 -5.498870999999999620e-01 1.357412303004521537e-01
-1.584699999999999953e+01 3.348599999999999910e-01 4.300699999999999790e+01 5.251463000000000214e+00 2.558227783188292692e-01
-1.584500000000000064e+01 -3.002700000000000102e+01 3.010399999999999920e+01 -2.837190000000000101e+00 -3.640955450740772092e-01
-1.584299999999999997e+01 -3.875500000000000256e+01 2.014699999999999847e+01 7.325745000000000395e+00 -2.476585699742267221e-01
-1.584099999999999930e+01 -4.336500000000000199e+01 3.987599999999999767e+01 -2.280098999999999876e+00 -3.636302639615779375e-01
-1.583999999999999986e+01 -4.926599999999999824e+01 2.559100000000000108e+01 -4.522795999999999761e-02 -2.462073695014158348e-01
-1.583900000000000041e+01 -4.650600000000000023e+01 2.121300000000000097e+01 -1.797940000000000094e+00 -2.470463788220505774e-01
-1.582199999999999918e+01 1.328999999999999959e+00 6.261500000000000199e+01 -1.768171999999999855e+01 -3.499999999999999778e-01
-1.582000000000000028e+01 -9.970800000000000551e+00 3.713600000000000279e+01 1.257620999999999967e+01 -2.875272570096677471e-01
-1.580700000000000038e+01 3.096900000000000208e+00 4.442099999999999937e+01 1.005366000000000071e+01 6.113343375240681832e-02
-1.580400000000000027e+01 -5.049699999999999989e+01 2.740599999999999881e+01 -9.042424000000000017e-01 -3.499999999999999778e-01
-1.580400000000000027e+01 -5.026599999999999824e+01 2.659100000000000108e+01 -3.671319000000000110e-01 -3.500000000000000333e-01
-1.580400000000000027e+01 -5.026599999999999824e+01 2.822100000000000009e+01 1.562166999999999861e-01 -3.500000000000000888e-01
-1.580400000000000027e+01 -5.005599999999999739e+01 2.895700000000000074e+01 -2.512141999999999986e-01 -3.499999999999999778e-01
-1.580199999999999960e+01 1.493999999999999995e+00 4.363600000000000279e+01 2.011242999999999981e+01 2.879151528672019289e-02
-1.579800000000000004e+01 -4.780899999999999750e+01 3.648400000000000176e+01 5.751425999999999483e-01 -3.636480860430080231e-01
-1.579800000000000004e+01 -2.904400000000000048e+01 3.042099999999999937e+01 -1.219079000000000024e+00 -3.641330732529821645e-01
-1.579499999999999993e+01 -2.154200000000000159e+01 3.124299999999999855e+01 -1.576316000000000050e+00 -3.646431482314379524e-01
-1.578999999999999915e+01 3.697299999999999809e+00 4.501100000000000279e+01 3.194482999999999961e+00 7.799964067997117168e-02
-1.576999999999999957e+01 -2.291900000000000048e+01 3.149299999999999855e+01 -4.279383000000000159e+00 -3.644750867286634666e-01
-1.576699999999999946e+01 -2.087300000000000111e+01 4.751299999999999812e+01 -1.812501999999999924e+01 -1.909114204924168834e-01
-1.576299999999999990e+01 5.221700000000000230e+00 5.679299999999999926e+01 -1.277224000000000004e+01 -3.500000000000000333e-01
-1.576299999999999990e+01 5.221700000000000230e+00 5.831300000000000239e+01 -3.976641000000000048e+01 -3.500000000000000333e-01
-1.575699999999999967e+01 -5.175099999999999767e+01 1.339499999999999957e+01 -7.973964999999999748e+00 -2.473869165211807775e-01
-1.575699999999999967e+01 -5.175099999999999767e+01 1.491499999999999915e+01 -1.289779000000000053e+01 -2.472990410278447793e-01
-1.575699999999999967e+01 -5.081099999999999994e+01 1.339499999999999957e+01 -2.680448000000000164e+01 -2.474315576949581708e-01
-1.575699999999999967e+01 -5.081099999999999994e+01 1.491499999999999915e+01 -4.223814000000000135e+01 -2.473404280437067615e-01
-1.575600000000000023e+01 -9.346500000000000696e+00 3.841199999999999903e+01 -3.262967000000000173e+00 -2.907526354975897287e-01
-1.575200000000000067e+01 4.339299999999999713e+00 5.539099999999999824e+01 -3.955321000000000087e+00 -2.551777732393872844e-01
-1.574900000000000055e+01 -3.721099999999999852e+01 4.350500000000000256e+01 -1.548931999999999976e+00 -2.754103215046689312e-01
-1.574900000000000055e+01 2.576000000000000068e+00 5.316400000000000148e+01 -5.384732999999999770e+00 -2.606926180748854183e-01
-1.574499999999999922e+01 -1.414199999999999946e+01 3.501299999999999812e+01 1.338160000000000061e+01 -2.800492299464725776e-01
-1.574399999999999977e+01 -2.421799999999999997e+01 5.319899999999999807e+01 -1.703397000000000006e+01 -2.212441558851851175e-01
-1.574399999999999977e+01 -2.292500000000000071e+01 5.392000000000000171e+01 -3.152203000000000088e+01 -2.189642414586669139e-01
-1.574200000000000088e+01 -1.707700000000000173e+01 5.485799999999999699e+01 -2.908152000000000115e+01 -1.984723064434009143e-01
-1.572600000000000087e+01 1.237100000000000088e+00 5.992600000000000193e+01 7.005721999999999561e+00 -3.499999999999999778e-01
-1.572400000000000020e+01 -3.441499999999999915e+01 2.270200000000000173e+01 -5.976015000000000299e+00 -2.477035040719581249e-01
-1.572400000000000020e+01 -3.071099999999999852e+01 5.226200000000000045e+01 -2.218979000000000035e+00 -1.133351838244680554e-01
-1.572300000000000075e+01 -4.138200000000000323e+00 4.007500000000000284e+01 -1.589892000000000039e+01 -2.778036513175959343e-01
-1.572199999999999953e+01 -8.076900000000000190e+00 3.918399999999999750e+01 -1.881689000000000078e+01 -2.931823601221085762e-01
-1.571599999999999930e+01 -5.084499999999999886e+01 3.087800000000000011e+01 -1.013651999999999997e+00 -3.499999999999999778e-01
-1.571599999999999930e+01 -5.084499999999999886e+01 3.181800000000000139e+01 -5.806053999999999604e+00 -2.445352743425857900e-01
-1.571400000000000041e+01 -3.681799999999999784e+01 4.991700000000000159e+01 -4.935314000000000090e-01 -1.862534952333551597e-01
-1.570599999999999952e+01 -1.832700000000000173e+01 5.415299999999999869e+01 -1.750583999999999918e+01 -2.311382654580154683e-01
-1.570400000000000063e+01 -1.776599999999999824e+01 3.042299999999999827e+01 1.261317000000000021e+00 -3.656144178803112377e-01
-1.570199999999999996e+01 -2.138899999999999935e+01 5.428300000000000125e+01 -9.180253999999999692e+00 -2.168071022177768259e-01
-1.569999999999999929e+01 5.551099999999999923e+00 5.755299999999999727e+01 -1.774802000000000035e+01 -3.499999999999999778e-01
-1.569800000000000040e+01 -3.543599999999999994e+01 4.733200000000000074e+01 -2.789200000000000124e+00 -1.849900356181626848e-01
-1.569699999999999918e+01 -1.642500000000000071e+01 3.265299999999999869e+01 2.220263999999999793e+00 -3.650928023261951760e-01
-1.569699999999999918e+01 -1.642500000000000071e+01 3.405299999999999727e+01 1.440570999999999913e+01 -2.774849967591220268e-01
-1.569699999999999918e+01 -1.983899999999999864e+01 5.455799999999999983e+01 5.922899000000000136e+00 -2.321257617899238068e-01
-1.569400000000000084e+01 -5.207999999999999829e+01 1.415499999999999936e+01 -2.074514999999999887e+01 -2.473313676672629080e-01
-1.569400000000000084e+01 -5.048199999999999932e+01 1.415499999999999936e+01 -3.516246000000000294e+01 -2.474048225673598778e-01
-1.568500000000000050e+01 1.713400000000000034e+00 5.958299999999999841e+01 1.090892999999999891e+00 -3.500000000000000333e-01
-1.568500000000000050e+01 2.578599999999999781e+00 5.958299999999999841e+01 -3.375564999999999927e+00 -3.499999999999999778e-01
-1.568399999999999928e+01 -2.511100000000000065e+01 5.187899999999999778e+01 -1.322038000000000046e+01 -2.241342854212854674e-01
-1.568200000000000038e+01 2.351399999999999935e+00 5.014500000000000313e+01 2.036825999999999937e+01 -2.722902809465043705e-01
-1.568200000000000038e+01 3.542300000000000004e+00 4.948100000000000165e+01 1.983590999999999838e+01 -2.742229551350368610e-01
-1.566799999999999926e+01 9.336900000000000199e-01 6.062599999999999767e+01 2.334369000000000138e+00 -3.499999999999999778e-01
-1.566699999999999982e+01 -4.215500000000000114e+01 4.260999999999999943e+01 -4.029209000000000263e-01 -2.888445782455334454e-01
-1.566099999999999959e+01 -3.532600000000000051e+01 4.638000000000000256e+01 -1.830256000000000105e+00 -1.844057936368610762e-01
-1.566000000000000014e+01 -3.215599999999999881e+01 5.307800000000000296e+01 -2.915611000000000175e+00 -1.132590425273404949e-01
-1.566000000000000014e+01 -3.542399999999999949e+01 4.885300000000000153e+01 -3.994635999999999854e+00 -1.859365351369675623e-01
-1.566000000000000014e+01 -3.521500000000000341e+01 4.811699999999999733e+01 -2.628890000000000171e+00 -1.855305981947131255e-01
-1.565900000000000070e+01 -9.725500000000000256e+00 6.064500000000000313e+01 -8.746926999999999452e+00 -3.814301246789924549e-01
-1.565900000000000070e+01 -3.280400000000000205e+01 2.284799999999999898e+01 -1.110158999999999896e+00 -2.479014562444579739e-01
-1.565700000000000003e+01 -1.940399999999999991e+01 4.751200000000000045e+01 -2.184926000000000101e+01 -1.141295709047618345e-01
-1.565600000000000058e+01 -2.612699999999999889e+01 2.937900000000000134e+01 -5.384903999999999691e+00 -3.643766674762681235e-01
-1.565399999999999991e+01 -2.446399999999999864e+01 3.135800000000000054e+01 -5.871239000000000097e+00 -3.643812312108473672e-01
-1.564499999999999957e+01 -1.594299999999999962e+01 5.571399999999999864e+01 -8.756807000000000230e+00 -1.973388005489254138e-01
-1.564300000000000068e+01 -9.989399999999999835e+00 6.245000000000000284e+01 -2.074499000000000137e+01 -3.816313645255657860e-01
-1.564199999999999946e+01 -4.967399999999999949e+01 3.273400000000000176e+01 -1.344763000000000019e+01 -2.441169883383301209e-01
-1.563899999999999935e+01 -1.672800000000000153e+01 3.335300000000000153e+01 1.408948000000000000e+01 -2.762562217015834820e-01
-1.563400000000000034e+01 -4.814099999999999824e+01 3.577700000000000102e+01 -1.805442000000000036e+01 -3.636575624507140114e-01
-1.563299999999999912e+01 -1.784700000000000131e+01 4.639300000000000068e+01 -2.095835999999999899e+01 -1.142556270289683401e-01
-1.563100000000000023e+01 -4.628300000000000125e+01 1.803099999999999881e+01 1.642895999999999912e+00 -2.473478270930247191e-01
-1.562899999999999956e+01 -1.487599999999999945e+01 5.761599999999999966e+01 5.946360999999999564e+00 -1.956692889225872811e-01
-1.562500000000000000e+01 -2.942999999999999972e+01 5.159499999999999886e+01 2.562882999999999800e+00 -1.133981800948017093e-01
-1.562299999999999933e+01 -4.078000000000000114e+01 4.353099999999999881e+01 -1.471824000000000021e+00 -2.893640850506650208e-01
-1.562100000000000044e+01 -3.778000000000000025e+00 4.075500000000000256e+01 -6.600071999999999939e+00 -1.806665049098003448e-02
-1.562100000000000044e+01 -2.912799999999999834e+00 4.075500000000000256e+01 2.344376000000000015e+00 1.391411124344757444e-01
-1.561899999999999977e+01 -1.945700000000000074e+01 4.567600000000000193e+01 -1.895460999999999885e+01 -1.898620911449813153e-01
-1.561899999999999977e+01 -1.035700000000000065e+00 6.435899999999999466e+01 -3.768418000000000045e+00 -3.499999999999999778e-01
-1.561700000000000088e+01 -4.518699999999999761e+01 3.919800000000000040e+01 1.593143000000000065e+01 -3.636364719928079636e-01
-1.560800000000000054e+01 -1.037700000000000067e+01 5.829500000000000171e+01 -4.534237000000000073e+00 -3.808823931922628581e-01
-1.560800000000000054e+01 -3.973299999999999699e+01 2.010500000000000043e+01 -6.114927000000000001e-01 -2.475920045216653542e-01
-1.560500000000000043e+01 -4.084300000000000352e+01 2.012000000000000099e+01 4.426270000000000204e-02 -2.474962553082469263e-01
-1.560299999999999976e+01 -1.714900000000000091e+01 4.478000000000000114e+01 -9.150786000000000087e+00 -1.143679635746177314e-01
-1.560299999999999976e+01 -1.714900000000000091e+01 4.564500000000000313e+01 -1.263469000000000086e+01 -1.143321840867209255e-01
-1.560100000000000087e+01 -9.041000000000000369e+00 3.371999999999999886e+01 1.914397999999999911e+01 -2.120648674909008657e-01
-1.560100000000000087e+01 -9.041000000000000369e+00 3.467799999999999727e+01 5.039222999999999786e+01 -2.099236343830220286e-01
-1.559200000000000053e+01 -3.054299999999999926e+01 2.918700000000000117e+01 -9.635922000000000764e+00 -3.641259458966051854e-01
-1.558799999999999919e+01 -4.225099999999999767e+01 4.160199999999999676e+01 -3.445759999999999934e+00 -2.883643898729447708e-01
-1.558500000000000085e+01 4.010100000000000442e+00 5.922599999999999909e+01 -7.343037999999999954e+00 -3.499999999999999778e-01
-1.558399999999999963e+01 -4.776800000000000068e+01 2.372700000000000031e+01 5.903683000000000014e+00 -2.466416276408736064e-01
-1.558399999999999963e+01 -1.001600000000000001e+01 5.918500000000000227e+01 -7.377299999999999969e+00 -3.811070977640965696e-01
-1.557900000000000063e+01 -3.023400000000000176e+01 2.614799999999999969e+01 4.112407000000000146e+00 -2.438676512944434605e-01
-1.557499999999999929e+01 -1.872400000000000020e+01 3.050300000000000011e+01 1.601539999999999964e+00 -3.653885912832938732e-01
-1.557099999999999973e+01 -1.950000000000000000e+01 4.449199999999999733e+01 -1.291868999999999978e+01 -1.877161388110018536e-01
-1.556799999999999962e+01 -1.713299999999999912e+01 3.026800000000000068e+01 8.369510999999999479e-01 -3.660079322324176210e-01
-1.556499999999999950e+01 -4.825200000000000244e+01 2.433200000000000074e+01 2.364895999999999887e+00 -2.464950157356116944e-01
-1.556099999999999994e+01 -1.029499999999999993e+01 3.288000000000000256e+01 1.985860999999999876e+01 -2.852549395766607598e-01
-1.556099999999999994e+01 6.099999999999999867e-01 6.495799999999999841e+01 -6.706012999999999558e+00 -3.499999999999999778e-01
-1.555499999999999972e+01 -1.129299999999999926e+01 5.831300000000000239e+01 -1.584334999999999916e+01 -3.806717076596798921e-01
-1.555400000000000027e+01 -1.162500000000000000e+01 3.359799999999999898e+01 1.344913999999999987e+01 -2.815569206740938801e-01
-1.555000000000000071e+01 -4.381999999999999673e+00 6.608299999999999841e+01 -5.872729999999999961e+01 -3.840513747399597055e-01
-1.554800000000000004e+01 -4.729699999999999704e+01 3.738799999999999812e+01 2.114657999999999927e+00 -3.636476567259402382e-01
-1.554599999999999937e+01 -2.811199999999999832e+01 5.129999999999999716e+01 1.941860000000000142e+01 -1.134480742127974284e-01
-1.553999999999999915e+01 -4.895499999999999829e+01 3.340100000000000335e+01 1.442318999999999907e+00 -3.636775152058297489e-01
-1.553700000000000081e+01 -4.643399999999999750e+01 2.079599999999999937e+01 -5.266047000000000367e+00 -2.471017185658475890e-01
-1.553700000000000081e+01 -4.230700000000000216e+01 4.075500000000000256e+01 -7.617149999999999643e+00 -3.636313976029577066e-01
-1.553500000000000014e+01 -3.013299999999999912e+01 2.427799999999999869e+01 1.377506999999999948e+01 -2.465758993501141472e-01
-1.553400000000000070e+01 -1.013799999999999990e+01 6.139999999999999858e+01 -7.058837999999999724e+00 -3.814190787493138002e-01
-1.553400000000000070e+01 -1.010299999999999976e+01 3.844500000000000028e+01 1.239151999999999987e+01 -2.900739753398445808e-01
-1.553299999999999947e+01 -6.132699999999999818e+00 3.865500000000000114e+01 3.074046000000000056e+00 -2.928954309987971127e-01
-1.553299999999999947e+01 -5.193299999999999805e+00 3.865500000000000114e+01 -1.163516000000000084e+01 -2.882048597163196502e-01
-1.552899999999999991e+01 -1.590300000000000047e+01 3.109100000000000108e+01 1.000801999999999969e+00 -3.662758534005500777e-01
-1.552899999999999991e+01 -1.590300000000000047e+01 3.203099999999999881e+01 -2.563855000000000217e+00 -3.657243068059413127e-01
-1.552699999999999925e+01 -4.470300000000000296e+01 1.785399999999999920e+01 -1.856130000000000058e+00 -2.474636716182720131e-01
-1.552299999999999969e+01 5.457900000000000418e+00 4.641799999999999926e+01 9.117361999999999966e+00 -1.378846398755239899e-01
-1.552200000000000024e+01 -2.782700000000000173e+01 3.083800000000000097e+01 -4.524850999999999956e+00 -3.642099962373975819e-01
-1.552200000000000024e+01 -2.696099999999999852e+01 3.083800000000000097e+01 -4.487800000000000011e+00 -3.642614468800847716e-01
-1.552200000000000024e+01 1.839699999999999891e+00 6.413500000000000512e+01 -1.688261999999999929e+01 -3.499999999999999778e-01
-1.552200000000000024e+01 -9.458899999999999864e+00 6.401300000000000523e+01 -4.827382000000000062e+01 -3.819340223753260877e-01
-1.551999999999999957e+01 -3.546399999999999864e+01 2.232000000000000028e+01 -3.780387000000000164e+00 -2.476823135755590322e-01
-1.551600000000000001e+01 -4.624900000000000233e+01 2.149899999999999878e+01 1.602457000000000020e+00 -2.470457490374956822e-01
-1.551600000000000001e+01 -4.624900000000000233e+01 2.236499999999999844e+01 5.608846999999999916e+00 -2.469649070281816350e-01
-1.551500000000000057e+01 -2.999800000000000111e+01 2.529700000000000060e+01 4.251922999999999675e+00 -2.451019317526791641e-01
-1.550900000000000034e+01 -4.421000000000000085e+01 1.803699999999999903e+01 -2.335542999999999925e+00 -2.474804270011497498e-01
-1.550200000000000067e+01 -8.831099999999999284e+00 3.921300000000000097e+01 -2.350227999999999895e+01 -2.937161478324945008e-01
-1.550000000000000000e+01 -1.338499999999999979e+01 3.477300000000000324e+01 1.029346999999999923e+01 -2.822679031916212611e-01
-1.550000000000000000e+01 -1.904100000000000037e+01 4.821300000000000097e+01 -2.775052000000000163e+01 -1.141315076563202274e-01
-1.550000000000000000e+01 -2.544300000000000139e+01 3.021399999999999864e+01 -6.321623999999999910e+00 -3.644112069484305438e-01
-1.549900000000000055e+01 -2.173000000000000043e+01 4.900999999999999801e+01 -2.931368000000000151e+01 -1.922081942495897922e-01
-1.549900000000000055e+01 -2.152100000000000080e+01 4.827400000000000091e+01 -1.797798999999999836e+01 -1.916678558103116770e-01
-1.549900000000000055e+01 -2.152100000000000080e+01 4.974600000000000222e+01 -3.426731999999999800e+01 -2.270924397536739359e-01
-1.549900000000000055e+01 -2.032999999999999829e+01 5.040999999999999659e+01 -2.383323000000000036e+01 -2.245623472735416293e-01
-1.549900000000000055e+01 -1.913899999999999935e+01 4.974600000000000222e+01 -2.617948000000000164e+01 -2.255352258962025902e-01
-1.549900000000000055e+01 -1.892999999999999972e+01 4.900999999999999801e+01 -2.614699999999999847e+01 -1.140486767956484238e-01
-1.549399999999999977e+01 -1.281199999999999939e+01 5.821500000000000341e+01 -8.168673999999999324e+00 -3.803949595153713337e-01
-1.549300000000000033e+01 1.995200000000000085e+00 6.305700000000000216e+01 -3.774903000000000119e+00 -3.500000000000000333e-01
-1.549099999999999966e+01 -2.084199999999999875e+01 3.130199999999999960e+01 3.684810000000000141e+00 -3.648319301923169666e-01
-1.548700000000000010e+01 -1.948600000000000065e+01 4.286599999999999966e+01 -1.012744000000000089e+00 -2.611006206663483153e-01
-1.548700000000000010e+01 -1.862099999999999866e+01 4.286599999999999966e+01 -3.222430000000000128e+00 -2.618832183931165125e-01
-1.548199999999999932e+01 -9.791800000000000281e+00 6.330199999999999960e+01 -2.511671000000000120e+01 -3.817624299906140495e-01
-1.547799999999999976e+01 -4.694400000000000261e+01 3.818999999999999773e+01 4.313855000000000217e+00 -3.636422258077524061e-01
-1.547499999999999964e+01 5.860400000000000276e+00 4.887800000000000011e+01 2.002400000000000091e+01 -1.988393528814287881e-01
-1.547300000000000075e+01 -3.140200000000000102e+01 2.326099999999999923e+01 1.623887000000000080e+00 -2.479871810828415679e-01
-1.547000000000000064e+01 -3.543200000000000216e+01 4.412899999999999778e+01 -1.308951999999999893e+00 -1.829543811751921933e-01
-1.547000000000000064e+01 -3.543200000000000216e+01 4.552900000000000347e+01 -1.573447000000000040e+00 -1.839373756378273606e-01
-1.547000000000000064e+01 -4.863900000000000112e+00 3.941499999999999915e+01 -4.450986000000000331e+01 -2.849243383788789830e-01
-1.547000000000000064e+01 -3.678099999999999881e+01 2.163500000000000156e+01 2.815783999999999843e+00 -2.476654268279801507e-01
-1.546799999999999997e+01 1.250999999999999890e+00 6.096300000000000097e+01 -3.734766000000000030e+00 -3.500000000000000333e-01
-1.546700000000000053e+01 -5.128099999999999881e+01 1.415499999999999936e+01 -4.959098000000000184e+01 -2.473748408172766755e-01
-1.546700000000000053e+01 -2.221900000000000119e+01 3.143499999999999872e+01 -7.140659000000000312e+00 -3.646341434170078388e-01
-1.546599999999999930e+01 -1.563000000000000078e+01 3.438199999999999790e+01 1.074694000000000038e+01 -2.794945136573793176e-01
-1.546499999999999986e+01 -8.541000000000000369e+00 6.618099999999999739e+01 -6.536933000000000504e+01 -3.826192336370433100e-01
-1.546499999999999986e+01 -7.020999999999999908e+00 6.618099999999999739e+01 -8.598911999999999978e+01 -3.831131410109792079e-01
-1.546400000000000041e+01 -3.039499999999999957e+01 2.707900000000000063e+01 -5.658907000000000131e+00 -2.427507836359618365e-01
-1.546400000000000041e+01 -2.665800000000000125e+01 3.013800000000000168e+01 -4.842723000000000333e+00 -3.643271393353962884e-01
-1.546400000000000041e+01 -2.017299999999999827e+01 4.745400000000000063e+01 -1.632248999999999839e+01 -1.920339736602330594e-01
-1.545800000000000018e+01 4.107000000000000206e+00 5.504699999999999704e+01 -7.449069000000000385e-01 -2.551832493877678187e-01
-1.545100000000000051e+01 -2.727899999999999991e+01 5.135900000000000176e+01 1.454730999999999952e+01 -1.134582007105892354e-01
-1.544699999999999918e+01 -3.032000000000000028e+00 6.568300000000000693e+01 -1.163865000000000016e+01 -3.845484653138769859e-01
-1.544699999999999918e+01 -9.787399999999999878e+00 3.922800000000000153e+01 8.230612000000000705e+00 -2.911403601307905320e-01
-1.544400000000000084e+01 -8.527699999999999392e+00 3.991299999999999670e+01 -2.028301000000000087e+01 -1.774051045527547665e-01
-1.544400000000000084e+01 -7.662399999999999878e+00 3.991299999999999670e+01 -8.169482000000000355e+00 -2.923927367471950145e-01
-1.543900000000000006e+01 4.355999999999999872e+00 4.959000000000000341e+01 2.166579000000000121e+01 -2.717614493746878801e-01
-1.543800000000000061e+01 -4.287899999999999778e+01 1.895899999999999963e+01 -1.462974999999999914e+00 -2.474856880733085074e-01
-1.543599999999999994e+01 -2.818900000000000006e+01 3.013299999999999912e+01 -5.982497000000000398e+00 -3.642317268544531528e-01
-1.543500000000000050e+01 -5.132100000000000328e+00 4.017399999999999949e+01 -1.719696000000000069e+01 -2.843623585109238960e-01
-1.542900000000000027e+01 -2.692599999999999838e+01 2.937900000000000134e+01 -1.222076000000000029e+01 -3.643490928272160034e-01
-1.542900000000000027e+01 -2.532799999999999940e+01 2.937900000000000134e+01 -2.781157999999999930e+01 -3.644822924380100582e-01
-1.542900000000000027e+01 -1.978900000000000148e+01 4.356600000000000250e+01 1.956110999999999933e+00 -2.623174620972106297e-01
-1.542900000000000027e+01 -1.831700000000000017e+01 4.356600000000000250e+01 -3.565351999999999855e+00 -2.637708491145694945e-01
-1.542200000000000060e+01 -3.857900000000000063e+01 4.338499999999999801e+01 2.131284000000000134e+01 -1.825978688610320477e-01
-1.541499999999999915e+01 -4.633499999999999730e+00 4.099900000000000233e+01 -3.833994000000000124e+00 -2.809622520627438336e-01
-1.541399999999999970e+01 2.751799999999999802e+00 6.004500000000000171e+01 -1.003316000000000052e+01 -3.499999999999999223e-01
-1.541399999999999970e+01 -1.774000000000000021e+00 4.115200000000000102e+01 -1.024467000000000017e+00 1.060705427442145687e-01
-1.541399999999999970e+01 -4.810099999999999931e-01 4.187299999999999756e+01 -3.555007999999999946e+00 2.266841345154917420e-01
-1.541399999999999970e+01 -1.560499999999999943e-01 4.260999999999999943e+01 -1.638945999999999970e+01 2.496773464248964736e-01
-1.541300000000000026e+01 2.273800000000000043e+00 6.027300000000000324e+01 -6.572324000000000055e+00 -3.499999999999999778e-01
-1.541300000000000026e+01 -4.872200000000000131e+01 2.532300000000000040e+01 7.982922000000000073e-01 -2.462779755653339286e-01
-1.541200000000000081e+01 -3.512800000000000011e+01 4.482900000000000063e+01 -1.773735000000000062e+00 -1.834959478225412777e-01
-1.540700000000000003e+01 4.490400000000000169e+00 5.832099999999999795e+01 -1.295345000000000013e+01 -3.499999999999999778e-01
-1.540600000000000058e+01 -3.069800000000000040e+01 2.777899999999999991e+01 -2.767029000000000138e+01 -2.420202641611438332e-01
-1.540600000000000058e+01 4.190199999999999925e+00 4.549399999999999977e+01 4.935533999999999644e+00 9.751667635900776454e-02
-1.540000000000000036e+01 3.081999999999999851e+00 4.490400000000000347e+01 8.849702999999999875e+00 8.097150111796669325e-02
-1.539700000000000024e+01 -4.325900000000000034e+01 1.843499999999999872e+01 -3.158558999999999894e+00 -2.475146384091758966e-01
-1.539199999999999946e+01 -4.961500000000000199e+01 2.981299999999999883e+01 8.906261999999999901e+00 -3.500000000000000333e-01
-1.539000000000000057e+01 5.769100000000000339e-01 4.355400000000000205e+01 7.650965000000000238e+00 3.015067595853992283e-02
-1.537500000000000000e+01 4.813900000000000290e+00 5.755299999999999727e+01 -7.218905999999999601e+00 -3.499999999999999778e-01
-1.537299999999999933e+01 -3.518200000000000216e+01 5.349300000000000210e+01 3.238351000000000202e+00 -1.131880591043724904e-01
-1.537199999999999989e+01 -3.602700000000000102e+01 5.277000000000000313e+01 2.478694000000000036e-02 -1.879463365299295363e-01
-1.536899999999999977e+01 5.839400000000000368e+00 4.707200000000000273e+01 1.604740999999999929e+01 -1.371491658842076133e-01
-1.536899999999999977e+01 -1.019299999999999962e+01 5.976100000000000279e+01 -6.977790999999999855e+00 -3.810963117204712036e-01
-1.536899999999999977e+01 -5.623899999999999899e+00 6.560899999999999466e+01 -4.225435000000000230e+01 -3.835176668756085094e-01
-1.536599999999999966e+01 -2.659700000000000131e+01 2.861899999999999977e+01 -6.747821000000000069e+00 -3.644158061370751378e-01
-1.536599999999999966e+01 -2.565700000000000003e+01 2.861899999999999977e+01 -7.265884999999999927e+00 -3.644991742730677164e-01
-1.536500000000000021e+01 -6.479099999999999859e+00 3.938600000000000279e+01 3.393476999999999855e+00 -2.928746129179797819e-01
-1.536500000000000021e+01 -2.974399999999999977e+01 3.015399999999999991e+01 -8.976866999999999486e-01 -3.641548276410442320e-01
-1.536400000000000077e+01 -1.202399999999999913e+01 3.397500000000000142e+01 1.102131999999999934e+01 -2.843843635806847514e-01
-1.536299999999999955e+01 -3.129400000000000048e+01 5.294700000000000273e+01 4.945717000000000141e+00 -1.132510770092727270e-01
-1.536200000000000010e+01 -1.993900000000000006e+01 3.084700000000000131e+01 1.387032999999999916e+01 -3.651242705235692165e-01
-1.535999999999999943e+01 5.904300000000000104e+00 4.818500000000000227e+01 2.276202999999999932e+01 -2.018220003874377499e-01
-1.535500000000000043e+01 -2.215700000000000003e+01 5.420600000000000307e+01 -1.353149999999999942e+01 -2.175853956585893090e-01
-1.535200000000000031e+01 -3.677799999999999869e+01 4.399600000000000222e+01 -4.618831000000000131e+00 -1.829488695162693190e-01
-1.535100000000000087e+01 -2.376399999999999935e+01 3.141700000000000159e+01 -4.848798999999999637e+00 -3.644984950239534838e-01
-1.534800000000000075e+01 -1.636499999999999844e+01 5.499600000000000222e+01 -2.872692999999999941e+01 -1.977433448950106920e-01
-1.534099999999999930e+01 -4.840599999999999881e+01 3.479699999999999704e+01 2.217880999999999880e-01 -3.636731290482747569e-01
-1.533999999999999986e+01 -4.664699999999999847e+01 3.876200000000000045e+01 1.406622999999999912e+01 -3.636406588005662299e-01
-1.533399999999999963e+01 -1.046100000000000030e+01 6.052000000000000313e+01 -9.804251999999999967e+00 -3.811548250602710963e-01
-1.533300000000000018e+01 -3.344100000000000250e+01 5.352700000000000102e+01 1.836223999999999990e+01 -1.131954976152328013e-01
-1.533200000000000074e+01 -1.812699999999999889e+01 2.989199999999999946e+01 7.095928999999999931e+00 -3.658704977118419910e-01
-1.533099999999999952e+01 4.521700000000000053e+00 5.652600000000000335e+01 -4.005195999999999756e+00 -3.499999999999999778e-01
-1.532900000000000063e+01 -1.036700000000000088e+01 3.670300000000000296e+01 2.298923999999999879e+01 -2.893915306972988377e-01
-1.532499999999999929e+01 -4.972200000000000131e+01 2.615200000000000102e+01 -2.918171999999999988e-01 -2.461004219594702946e-01
-1.532399999999999984e+01 1.740099999999999980e+00 6.197999999999999687e+01 -5.565484999999999793e+00 -3.500000000000000333e-01
-1.532300000000000040e+01 -1.916000000000000014e+01 5.425600000000000023e+01 -6.265697000000000294e+00 -2.317767508872540516e-01
-1.532099999999999973e+01 2.019299999999999873e+00 4.423199999999999932e+01 2.928063999999999822e+01 5.871886477276927474e-02
-1.532000000000000028e+01 -1.009299999999999997e+01 3.586200000000000188e+01 3.109600999999999971e+01 -2.884721709722063987e-01
-1.531799999999999962e+01 -3.790500000000000114e+01 2.047200000000000131e+01 4.447810999999999737e+00 -2.477468037592132910e-01
-1.531700000000000017e+01 -4.020000000000000284e+01 4.332000000000000028e+01 1.125550000000000050e+00 -2.894774278016570834e-01
-1.530799999999999983e+01 -1.915700000000000003e+01 2.980300000000000082e+01 9.405535999999999675e+00 -3.655417410313933635e-01
-1.530700000000000038e+01 -1.051200000000000045e+01 3.761299999999999955e+01 1.390755000000000052e+01 -2.904662926940871914e-01
-1.530599999999999916e+01 -4.680799999999999983e+01 1.888100000000000023e+01 5.612250000000000405e+00 -2.472635083382593579e-01
-1.530599999999999916e+01 -4.680799999999999983e+01 1.993100000000000094e+01 7.075141000000000346e-01 -2.471732641529863772e-01
-1.530599999999999916e+01 -4.419899999999999807e+01 3.949799999999999756e+01 -4.596475999999999895e-01 -3.636472117210546862e-01
-1.530400000000000027e+01 -1.540099999999999980e+01 5.676599999999999824e+01 -3.386140000000000150e+00 -1.959910921728963695e-01
-1.530400000000000027e+01 -4.572200000000000131e+01 3.910600000000000165e+01 8.969324000000000296e+00 -3.636430736357644244e-01
-1.530300000000000082e+01 -1.963599999999999923e+01 3.014699999999999847e+01 1.026103999999999949e+01 -3.653471545410201804e-01
