4.637400000000000233e+01 5.216199999999999903e+01 3.681700000000000017e+01 -2.398934999999999818e+00 -2.082109570365962836e-02
4.638400000000000034e+01 3.907399999999999807e+01 3.004400000000000048e+01 -4.313566999999999929e+00 -2.013690042511220857e-01
4.638400000000000034e+01 3.907399999999999807e+01 3.151599999999999824e+01 -2.359618999999999911e+00 -2.918447369954091930e-01
4.638400000000000034e+01 3.928300000000000125e+01 3.078000000000000114e+01 -2.915265999999999913e+00 -1.995670526952908197e-01
4.638799999999999812e+01 3.878000000000000114e+01 7.736699999999999688e-01 -5.723488999999999827e+00 -5.961798732469370671e-03
4.639300000000000068e+01 3.377799999999999869e+01 6.591099999999999959e+00 3.189261000000000124e+00 -7.281251090800229184e-03
4.639500000000000313e+01 3.785199999999999676e+01 2.839699999999999847e+01 -3.240775999999999879e+00 -2.035044936056387699e-01
4.639699999999999847e+01 4.806400000000000006e+01 3.337400000000000144e+00 -4.662429000000000379e+00 -4.044589237989563296e-03
4.639900000000000091e+01 4.340500000000000114e+01 2.762199999999999989e+00 -8.517735999999999308e+00 -5.114432794634250247e-03
4.639900000000000091e+01 3.010399999999999920e+01 2.052299999999999791e+00 -3.570780000000000065e+00 -7.401307354463447508e-03
4.640599999999999881e+01 3.121399999999999864e+01 1.236299999999999955e+01 1.075115000000000087e+01 2.214996619136464645e-02
4.641299999999999670e+01 3.163500000000000156e+01 1.871399999999999864e+01 -4.620677000000000256e-01 -7.987073877240610797e-02
4.641400000000000148e+01 3.766599999999999682e+01 3.839500000000000313e+01 9.913323999999999359e+00 -2.810937878630489495e-01
4.641700000000000159e+01 4.960099999999999909e+01 1.977700000000000102e+01 -9.688565999999999789e+00 -1.982849752283308009e-01
4.642699999999999960e+01 3.058200000000000074e+01 5.118500000000000050e+00 -1.437608999999999915e+00 -7.620530658114114779e-03
4.642699999999999960e+01 4.164200000000000301e+01 1.935599999999999987e+00 -5.027879000000000431e+00 -5.460864621771140820e-03
4.643099999999999739e+01 5.311500000000000199e+01 3.671200000000000330e+01 -7.152848999999999791e+00 -1.994946952382136568e-02
4.643399999999999750e+01 4.488199999999999790e+01 2.783799999999999830e+00 -1.929745999999999961e+00 -4.786678940430790473e-03
4.643399999999999750e+01 4.596600000000000108e+01 2.783799999999999830e+00 -4.955319000000000251e+00 -4.540787468765968005e-03
4.643900000000000006e+01 3.087000000000000099e+01 1.297700000000000031e+01 6.635654999999999859e+00 2.218681673542286306e-02
4.645300000000000296e+01 3.265899999999999892e+01 7.544800000000000395e+00 -3.927046000000000148e-01 -7.562237043170390305e-03
4.645799999999999841e+01 3.904099999999999682e+01 3.931600000000000250e+01 9.743128999999999706e+00 -2.800927701876393949e-01
4.646399999999999864e+01 3.611500000000000199e+01 2.820400000000000063e+01 2.029943000000000097e+01 -2.008797072009188001e-01
4.646500000000000341e+01 5.061099999999999710e+01 3.621100000000000207e+00 -7.393036000000000385e+00 -3.418922473551488407e-03
4.646600000000000108e+01 3.756400000000000006e+01 3.574499999999999744e+01 1.521670999999999996e+00 -2.823378237711813288e-01
4.646699999999999875e+01 4.434100000000000108e+01 3.675399999999999778e+01 5.431017999999999901e+00 -2.986351384890350014e-01
4.646999999999999886e+01 5.066899999999999693e+01 1.861499999999999844e+01 -1.814184999999999937e+00 -1.984339686950237491e-01
4.646999999999999886e+01 5.158100000000000307e+01 1.861499999999999844e+01 7.308905000000000207e+00 -1.982719399979356312e-01
4.647200000000000131e+01 4.246000000000000085e+01 3.761800000000000210e+01 2.924840000000000106e+00 -2.929964813848182081e-01
4.647299999999999898e+01 3.127499999999999858e+01 1.135599999999999943e+00 -1.405306999999999995e+01 -7.166608331479779048e-03
4.647500000000000142e+01 4.750200000000000244e+01 3.341099999999999959e+00 -4.728983999999999632e+00 -4.178724306885006970e-03
4.649600000000000222e+01 3.001200000000000045e+01 2.924100000000000144e+00 -4.054425000000000168e+00 -7.484327933339235579e-03
4.650000000000000000e+01 5.094100000000000250e+01 2.599099999999999966e+01 7.483122999999999969e+00 -1.948753363027183327e-01
4.650200000000000244e+01 4.085300000000000153e+01 3.903600000000000136e+01 -4.466899999999999693e+01 -2.873622914568255693e-01
4.650300000000000011e+01 3.526800000000000068e+01 5.461000000000000298e+00 9.908329000000000164e+00 -6.908123163802172735e-03
4.650800000000000267e+01 3.474000000000000199e+01 2.728300000000000125e+01 -2.062819999999999931e-01 -2.009057461968823954e-01
4.650999999999999801e+01 3.453900000000000148e+01 2.680799999999999983e+01 1.561595999999999984e+00 -2.016928232332594606e-01
4.652499999999999858e+01 4.867999999999999972e+01 2.313899999999999935e+01 -2.379526999999999859e+01 -1.971072919461941408e-01
4.652499999999999858e+01 4.888900000000000290e+01 2.387500000000000000e+01 -1.918716000000000088e+00 -1.967100690988508593e-01
4.652799999999999869e+01 3.522800000000000153e+01 7.906600000000000072e+00 1.028264000000000067e+00 -7.148127277637609731e-03
4.653799999999999670e+01 3.212199999999999989e+01 1.954899999999999949e+01 1.498626999999999931e+00 -6.934213665305818952e-02
4.653799999999999670e+01 3.212199999999999989e+01 2.041400000000000148e+01 -1.461994000000000016e+00 -7.876543024589091613e-02
4.653900000000000148e+01 3.639999999999999858e+01 6.219199999999999839e+00 5.582023000000000401e+00 -6.764006721242631082e-03
4.653900000000000148e+01 3.639999999999999858e+01 7.084500000000000242e+00 4.360692000000000235e+00 -6.842306270729281263e-03
4.653999999999999915e+01 3.318200000000000216e+01 2.391199999999999903e+01 5.072154000000000273e+00 -2.055304384298682341e-01
4.654399999999999693e+01 3.389300000000000068e+01 8.482699999999999463e+00 -8.319520999999999944e+00 -7.451239293556765828e-03
4.654399999999999693e+01 5.166199999999999903e+01 1.334999999999999964e+01 -2.167815000000000047e+00 -2.648036946364674439e-03
4.654399999999999693e+01 4.289800000000000324e+01 2.570100000000000051e+00 -9.472084999999999866e+00 -5.215433507165613547e-03
4.655100000000000193e+01 3.728199999999999648e+01 3.682099999999999795e+01 3.685611000000000193e+00 -2.819791741443786748e-01
4.655100000000000193e+01 3.749099999999999966e+01 3.755700000000000216e+01 1.161124000000000045e+01 -2.815749676174658100e-01
4.655599999999999739e+01 3.157999999999999829e+01 1.771300000000000097e+01 -9.619832999999999856e-01 -7.040720471934017177e-02
4.655799999999999983e+01 3.271200000000000330e+01 9.864300000000000068e+00 -1.678762000000000043e+01 -7.814867893008160121e-03
4.655799999999999983e+01 3.271200000000000330e+01 1.073000000000000043e+01 -4.686525999999999748e+00 -7.924172236150012899e-03
4.656199999999999761e+01 3.991400000000000148e+01 3.913499999999999801e+01 -1.149704999999999977e+01 -2.851902324539198341e-01
4.657200000000000273e+01 5.212800000000000011e+01 2.692399999999999949e+01 1.155325000000000024e+01 -1.937064834089315679e-01
4.657200000000000273e+01 5.212800000000000011e+01 2.788200000000000145e+01 7.021287999999999974e-01 -1.929401465878372024e-01
4.657500000000000284e+01 4.859899999999999665e+01 2.209900000000000020e+01 1.355021000000000031e+00 -1.975389550000712091e-01
4.657800000000000296e+01 5.094100000000000250e+01 1.304100000000000037e+01 -1.685950000000000060e+00 -2.936490402682191345e-03
4.657900000000000063e+01 5.083100000000000307e+01 1.157199999999999918e+01 -2.740410999999999930e+01 -3.024881361080170201e-03
4.657999999999999829e+01 5.070400000000000063e+01 3.159700000000000131e+01 3.254355999999999938e+01 -1.683365718469202466e-01
4.658400000000000318e+01 4.978600000000000136e+01 2.460900000000000176e+01 4.659572999999999965e+00 -1.960441106255386146e-01
4.658400000000000318e+01 3.297500000000000142e+01 8.230600000000000804e+00 -1.389888999999999974e+01 -7.576500763835340366e-03
4.658800000000000097e+01 5.211500000000000199e+01 3.267799999999999727e+01 -2.967234999999999734e-01 -1.738933030214732597e-02
4.659100000000000108e+01 3.213400000000000034e+01 6.764999999999999680e+00 -2.038991000000000220e+00 -7.551090042893351950e-03
4.659100000000000108e+01 3.318399999999999750e+01 6.764999999999999680e+00 1.224355000000000082e+00 -7.383939318282075996e-03
4.659400000000000119e+01 4.653399999999999892e+01 3.265800000000000036e+00 -1.407530000000000037e+01 -4.407326520491808113e-03
4.659899999999999665e+01 3.348599999999999710e+01 2.461199999999999832e+01 5.881066999999999823e+00 -2.046100873289099786e-01
4.660699999999999932e+01 3.241799999999999926e+01 9.049400000000000333e+00 -1.862996000000000052e+01 -7.760398948609741054e-03
4.660999999999999943e+01 3.488499999999999801e+01 8.670400000000000773e+00 -4.874242999999999881e+00 -7.287411834028849171e-03
4.661500000000000199e+01 3.478099999999999881e+01 1.635100000000000095e-02 8.935722000000000165e+00 -6.574783445630207057e-03
4.662599999999999767e+01 4.883800000000000097e+01 2.112199999999999989e+01 2.212156999999999929e+00 -1.978378295508211315e-01
4.662599999999999767e+01 4.916599999999999682e+01 2.037699999999999889e+01 4.706907000000000174e+00 -1.980419373922762127e-01
4.662700000000000244e+01 4.750900000000000034e+01 7.125000000000000000e+00 1.987217000000000056e+01 -4.147339301003026210e-03
4.663700000000000045e+01 5.063799999999999812e+01 1.234099999999999930e+01 -4.540243000000000251e+00 -3.072153868789135461e-03
4.664099999999999824e+01 3.610799999999999699e+01 8.684899999999999842e-01 1.947708999999999913e+00 -6.416416721904072418e-03
4.664200000000000301e+01 3.224300000000000210e+01 2.359100000000000108e+01 -2.086403999999999925e+00 -2.047663007552393277e-01
4.664399999999999835e+01 3.814200000000000301e+01 1.030299999999999994e+00 -3.297070000000000167e+00 -6.078613941784452579e-03
4.664699999999999847e+01 4.883599999999999852e+01 3.395999999999999908e+00 -6.948165999999999620e+00 -3.858853739759153436e-03
4.664699999999999847e+01 4.977600000000000335e+01 3.395999999999999908e+00 -1.360810000000000031e+01 -3.632944466813221689e-03
4.665100000000000335e+01 5.348599999999999710e+01 3.498799999999999955e+01 -1.034975000000000023e+01 -1.801525037696793952e-02
4.665599999999999881e+01 5.057000000000000028e+01 2.988500000000000156e+01 5.262613000000000429e-01 -2.103795696526293002e-01
4.665599999999999881e+01 5.057000000000000028e+01 3.075000000000000000e+01 1.520734000000000030e+01 -1.686553554589235171e-01
4.665800000000000125e+01 4.121699999999999875e+01 3.833500000000000085e+01 -2.972118000000000038e+01 -2.893097318466080203e-01
4.666400000000000148e+01 4.775900000000000034e+01 4.122200000000000308e+00 -2.603094000000000108e+01 -4.106162638207374975e-03
4.666700000000000159e+01 3.090599999999999881e+01 2.155699999999999861e+01 -1.102734000000000103e+00 -2.063693991589618248e-01
4.666700000000000159e+01 3.090599999999999881e+01 2.267299999999999827e+01 -1.679475000000000051e+00 -2.046489970212527765e-01
4.667499999999999716e+01 5.039300000000000068e+01 3.788300000000000267e+01 7.756883000000000195e+00 -2.405615508529348329e-02
4.668900000000000006e+01 5.196200000000000330e+01 1.805799999999999983e+01 1.085492999999999952e+01 -1.982549381912233621e-01
4.670900000000000318e+01 4.742600000000000193e+01 3.686699999999999733e+01 5.827058000000000071e+00 -3.195083779727102002e-01
4.671000000000000085e+01 5.229200000000000159e+01 7.774700000000000166e+00 5.144021000000000399e+00 -2.753130365689570105e-03
4.672299999999999898e+01 4.838600000000000279e+01 4.980000000000000426e+00 -2.709854999999999947e+01 -3.935511654990900970e-03
4.672999999999999687e+01 3.093100000000000094e+01 1.411800000000000033e+01 -6.121546999999999628e+00 2.214898045365057064e-02
4.673100000000000165e+01 5.189000000000000057e+01 4.231700000000000017e+00 2.371018999999999988e+00 -3.078536140326312842e-03
4.673199999999999932e+01 4.867099999999999937e+01 3.773199999999999932e+01 6.356499000000000343e+00 -2.514694621661909754e-02
4.673799999999999955e+01 3.078399999999999892e+01 1.506199999999999939e+01 -1.372664999999999935e+01 -8.167759635223398318e-02
4.674300000000000210e+01 5.241700000000000159e+01 6.948000000000000398e+00 -5.266771000000000313e+00 -2.772150228222882568e-03
4.674499999999999744e+01 4.608200000000000074e+01 3.601599999999999824e+01 -4.410496000000000194e+00 -3.167041817649338675e-01
4.675600000000000023e+01 4.655100000000000193e+01 7.204799999999999649e+00 7.624896999999999814e+00 -4.412547685953963940e-03
4.676299999999999812e+01 3.838300000000000267e+01 3.484599999999999653e+01 7.130779999999999896e-01 -2.879844549026895351e-01
4.676299999999999812e+01 3.859199999999999875e+01 3.410999999999999943e+01 2.121494000000000213e+00 -2.890707585423368808e-01
4.676599999999999824e+01 3.827799999999999869e+01 3.302400000000000091e+01 5.745799000000000323e-01 -2.896334636738763235e-01
4.676899999999999835e+01 4.161699999999999733e+01 3.798400000000000176e+01 -1.417337000000000069e+00 -2.907819223453285140e-01
4.677100000000000080e+01 5.172999999999999687e+01 3.730799999999999983e+01 2.587635000000000129e+00 -2.226771377325211312e-02
4.678000000000000114e+01 4.063100000000000023e+01 1.149999999999999911e+00 -4.832063999999999915e+00 -5.620903578851805041e-03
4.679099999999999682e+01 3.826299999999999812e+01 2.902299999999999969e+01 -1.403200999999999965e+01 -2.021206369286110416e-01
4.679299999999999926e+01 4.789600000000000080e+01 4.769300000000000317e+00 -1.179737000000000080e+01 -4.063466681462823624e-03
4.679299999999999926e+01 4.789600000000000080e+01 6.380700000000000038e+00 5.159183999999999770e+00 -4.045234959974700409e-03
4.679399999999999693e+01 3.694800000000000040e+01 2.853099999999999881e+01 1.434045000000000014e+00 -2.010670919405250778e-01
4.679699999999999704e+01 3.854999999999999716e+01 3.196600000000000108e+01 -2.005171000000000037e-01 -2.909569279052012236e-01
4.680400000000000205e+01 3.369400000000000261e+01 5.830799999999999983e+00 -6.123943999999999832e+00 -7.193056460258376306e-03
4.680700000000000216e+01 3.456799999999999784e+01 5.519199999999999662e+00 2.824605000000000032e+00 -7.016811167712852688e-03
4.680700000000000216e+01 3.596800000000000352e+01 5.519199999999999662e+00 1.055499000000000009e+01 -6.768393057020960155e-03
4.680700000000000216e+01 3.596800000000000352e+01 7.784500000000000419e+00 3.228603999999999807e+00 -6.975322878215048372e-03
4.681099999999999994e+01 3.217600000000000193e+01 1.951199999999999879e-01 -3.030795000000000017e-01 -6.955661343460524046e-03
4.681099999999999994e+01 3.349499999999999744e+01 -5.400000000000000355e-01 1.183539000000000030e+01 -6.720517126969855273e-03
4.681400000000000006e+01 4.593900000000000006e+01 7.660000000000000142e+00 -1.546151000000000053e+00 -4.587212653821855397e-03
4.681499999999999773e+01 4.849000000000000199e+01 4.126599999999999824e+00 -1.044162000000000035e+01 -3.926638663686343386e-03
4.682000000000000028e+01 3.017200000000000060e+01 4.175500000000000433e+00 -6.628473999999999755e+00 -7.558607855637364085e-03
4.683100000000000307e+01 4.410499999999999687e+01 3.029599999999999849e+00 -1.932498999999999967e+01 -4.956472955435107727e-03
4.683299999999999841e+01 3.526500000000000057e+01 2.813299999999999912e+01 4.667576000000000391e+00 -1.993141594840922293e-01
4.683599999999999852e+01 4.824499999999999744e+01 7.125000000000000000e+00 8.325544999999999973e+00 -3.941877443214094646e-03
4.683899999999999864e+01 3.191400000000000148e+01 1.209600000000000009e+01 2.219421999999999784e+00 -8.210037187698502464e-03
4.684700000000000131e+01 5.113700000000000045e+01 3.229699999999999704e+01 3.586993000000000098e+00 -1.822383130136212559e-02
4.684899999999999665e+01 4.996999999999999886e+01 1.892800000000000082e+01 -6.801211999999999591e+00 -1.982487994520649166e-01
4.685999999999999943e+01 4.234199999999999875e+01 2.202999999999999847e+00 -7.565019999999999634e+00 -5.313655443093553629e-03
4.686800000000000210e+01 5.164900000000000091e+01 2.614900000000000091e+01 3.172679000000000116e+01 -1.942976095366543698e-01
4.686800000000000210e+01 5.164900000000000091e+01 2.865700000000000003e+01 5.934558000000000000e+00 -2.099099545802360911e-01
4.686899999999999977e+01 3.086400000000000077e+01 1.762000000000000011e+00 -7.613959999999999617e+00 -7.250693566509851078e-03
4.686999999999999744e+01 5.263600000000000279e+01 3.725600000000000023e+01 2.114055000000000017e+00 -2.159010042087790293e-02
4.687299999999999756e+01 4.371500000000000341e+01 3.711099999999999710e+01 2.231362999999999985e+00 -2.969421141146741938e-01
4.687299999999999756e+01 4.702300000000000324e+01 4.122200000000000308e+00 -2.491338000000000008e+01 -4.285309737430521328e-03
4.687400000000000233e+01 3.078600000000000136e+01 1.558999999999999986e+01 -8.026951999999999643e+00 -8.129088849512999815e-02
4.689399999999999835e+01 4.707600000000000051e+01 6.424999999999999822e+00 1.377246000000000059e+01 -4.265357890794850212e-03
4.689399999999999835e+01 4.707600000000000051e+01 7.825000000000000178e+00 8.829798000000000258e+00 -4.269652792881981941e-03
4.689399999999999835e+01 4.794200000000000017e+01 7.825000000000000178e+00 9.033400000000000318e+00 -4.022369868130323302e-03
4.689600000000000080e+01 3.101599999999999824e+01 5.609200000000000408e+00 -6.170677000000000412e+00 -7.576697321215962108e-03
4.689600000000000080e+01 3.713799999999999812e+01 3.597800000000000153e+01 9.963889999999999691e-01 -2.824310026608411461e-01
4.689800000000000324e+01 4.568599999999999994e+01 6.986100000000000421e+00 -1.210360000000000014e+01 -4.642414361925539974e-03
4.690400000000000347e+01 3.271699999999999875e+01 2.399699999999999989e+01 1.919712000000000085e+00 -2.044133999577833483e-01
4.690999999999999659e+01 4.542399999999999949e+01 3.324100000000000055e+00 -9.825222000000000122e+00 -4.661423967165645790e-03
4.690999999999999659e+01 5.389000000000000057e+01 3.545799999999999841e+01 2.227327999999999975e+01 -1.850100683438420796e-02
4.690999999999999659e+01 5.389000000000000057e+01 3.641599999999999682e+01 -1.294261000000000017e+01 -1.957332764146786294e-02
4.691599999999999682e+01 4.042499999999999716e+01 3.834400000000000119e+01 -1.369008000000000003e+01 -2.877826996724575648e-01
4.692799999999999727e+01 5.254299999999999926e+01 1.529499999999999993e+01 -2.439391000000000087e+00 -1.987667640668654978e-01
4.693099999999999739e+01 3.014199999999999946e+01 2.279500000000000171e+01 -3.500812999999999953e+00 -2.033648101012544840e-01
4.693200000000000216e+01 4.912199999999999989e+01 4.980000000000000426e+00 -1.232394999999999996e+01 -3.748801600403772229e-03
4.693299999999999983e+01 5.241400000000000148e+01 1.710000000000000142e+01 1.366191000000000066e+01 -1.983270895570504733e-01
4.693399999999999750e+01 3.362700000000000244e+01 2.508500000000000085e+01 2.414928000000000186e+00 -2.035673621043182224e-01
4.693900000000000006e+01 3.956600000000000250e+01 3.871999999999999886e+01 -2.373416000000000192e+00 -2.855224973560097079e-01
4.695799999999999841e+01 4.938000000000000256e+01 2.427199999999999847e+01 3.815357000000000109e+00 -1.961222798945076451e-01
4.696200000000000330e+01 3.140800000000000125e+01 1.306700000000000017e+01 1.964739000000000013e+00 2.208266119984434242e-02
4.696999999999999886e+01 3.142200000000000060e+01 2.068199999999999861e+01 -2.450760999999999967e+00 -7.776251564595766663e-02
4.696999999999999886e+01 3.142200000000000060e+01 2.354799999999999827e+01 -5.041400000000000325e+00 -2.035376863858314456e-01
4.697299999999999898e+01 5.255599999999999739e+01 1.456400000000000006e+01 -5.024453000000000280e+00 -1.989020477081680227e-01
4.697699999999999676e+01 5.103900000000000148e+01 1.802100000000000080e+01 2.231516999999999840e+01 -1.982717734153406630e-01
4.699000000000000199e+01 4.881900000000000261e+01 5.679999999999999716e+00 -6.631782000000000288e+00 -3.811079263212874876e-03
4.699499999999999744e+01 3.852900000000000347e+01 3.884499999999999886e+01 1.225568999999999953e+01 -2.806773348656598777e-01
4.700200000000000244e+01 3.552499999999999858e+01 1.826699999999999990e-01 -2.188054000000000110e-01 -6.452922191027088070e-03
4.700200000000000244e+01 4.863199999999999790e+01 6.380700000000000038e+00 2.284152000000000182e+00 -3.847255853342462176e-03
4.700399999999999778e+01 5.253600000000000136e+01 1.612099999999999866e+01 9.198931999999999221e+00 -1.985320229006751203e-01
4.700699999999999790e+01 3.445300000000000296e+01 9.161300000000000665e+00 -1.077901999999999916e+01 -7.390439296265519445e-03
4.701200000000000045e+01 5.153099999999999881e+01 1.270500000000000007e+01 -4.109992000000000090e+00 -2.750672808763171030e-03
4.701400000000000290e+01 5.242199999999999704e+01 1.364000000000000057e+01 -1.521504000000000012e+01 -1.990823295142906402e-01
4.701599999999999824e+01 5.108800000000000097e+01 3.757399999999999807e+01 5.251825000000000188e+00 -2.336415655459094659e-02
4.702000000000000313e+01 4.692199999999999704e+01 3.605299999999999727e+01 1.322026999999999930e+01 -3.182674984955133346e-01
4.702300000000000324e+01 4.520300000000000296e+01 7.660000000000000142e+00 -3.438136000000000081e+00 -4.785385812069918761e-03
4.702499999999999858e+01 3.050000000000000000e+01 2.463099999999999845e+00 -6.714019000000000403e+00 -7.348761888568043459e-03
4.703199999999999648e+01 3.272999999999999687e+01 6.029899999999999594e+00 -1.794637000000000171e+01 -7.352477556787048382e-03
4.703199999999999648e+01 3.169000000000000128e+01 1.927299999999999969e+01 -1.089417999999999997e+00 -6.900887062088652268e-02
4.703699999999999903e+01 3.016100000000000136e+01 2.188200000000000145e+01 -2.308653000000000066e+00 -2.047306376119000793e-01
4.703799999999999670e+01 5.189900000000000091e+01 8.671300000000000452e+00 1.772785000000000011e+01 -2.829783218528745224e-03
4.703799999999999670e+01 3.174399999999999977e+01 8.745199999999999640e-01 3.089472999999999914e+00 -7.053393077628003667e-03
4.704299999999999926e+01 3.558500000000000085e+01 8.403000000000000469e+00 2.028770000000000184e+00 -7.094565261202128229e-03
4.704500000000000171e+01 4.608299999999999841e+01 6.447300000000000253e+00 -2.001108999999999938e+01 -4.527367555541959680e-03
4.704800000000000182e+01 5.170100000000000051e+01 9.546400000000000219e+00 -1.864063000000000025e+00 -2.843720572759255490e-03
4.704800000000000182e+01 4.929599999999999937e+01 4.122200000000000308e+00 -1.698220999999999847e+01 -3.730384217271143135e-03
4.705599999999999739e+01 5.241499999999999915e+01 5.081699999999999662e+00 1.218098999999999954e+01 -2.904950781851841843e-03
4.706499999999999773e+01 3.411800000000000210e+01 2.632199999999999918e+01 -6.878343000000000651e-02 -2.015941206739952085e-01
4.707600000000000051e+01 3.744200000000000017e+01 1.297700000000000076e+00 2.763472000000000151e+00 -6.198126357054116291e-03
4.708100000000000307e+01 4.743099999999999739e+01 5.575000000000000178e+00 -1.006697999999999915e+01 -4.174146352667369372e-03
4.708100000000000307e+01 4.637199999999999989e+01 8.359999999999999432e+00 5.393677000000000277e+00 -4.474554902472864179e-03
4.708200000000000074e+01 3.979599999999999937e+01 5.387800000000000367e-01 -3.900243000000000126e+00 -5.743420910744812848e-03
4.708400000000000318e+01 3.901500000000000057e+01 3.034799999999999898e+01 -1.912871999999999906e+00 -1.994531538721860120e-01
4.708400000000000318e+01 3.901500000000000057e+01 3.121300000000000097e+01 -4.010264000000000051e-01 -2.923442164375493202e-01
4.708700000000000330e+01 4.946800000000000352e+01 3.791899999999999693e+01 8.234935000000000116e+00 -2.507508487084507062e-02
4.708899999999999864e+01 3.157199999999999918e+01 5.967900000000000205e+00 -8.741281000000000745e+00 -7.518762066490278576e-03
4.709300000000000352e+01 4.808800000000000097e+01 3.704699999999999704e+01 1.420997000000000021e+01 -2.489578649384125569e-02
4.710000000000000142e+01 5.103999999999999915e+01 4.160899999999999821e+00 2.983281999999999989e+00 -3.301175884845413029e-03
4.710199999999999676e+01 3.109400000000000119e+01 1.721499999999999986e+01 -1.722515000000000018e+00 -8.032023053373973931e-02
4.710699999999999932e+01 4.495000000000000284e+01 6.986100000000000421e+00 -8.071787999999999741e+00 -4.833512246981982487e-03
4.710799999999999699e+01 3.053000000000000114e+01 2.103200000000000003e+01 -1.863426999999999945e+00 -2.063239548739981277e-01
4.710900000000000176e+01 5.038199999999999790e+01 2.508999999999999986e+01 1.850140999999999991e+01 -1.952817913069019307e-01
4.711699999999999733e+01 4.954200000000000159e+01 1.947400000000000020e+01 -9.011882999999999200e+00 -1.980048824922315265e-01
4.712199999999999989e+01 4.930100000000000193e+01 2.026200000000000045e+01 -4.262939000000000256e+00 -1.977802414943665432e-01
4.712400000000000233e+01 5.270199999999999818e+01 3.335399999999999920e+01 -5.178219999999999601e+00 -1.794050675750304830e-02
4.712400000000000233e+01 5.302700000000000102e+01 3.409100000000000108e+01 -8.153741000000000128e+00 -1.820918661451298090e-02
4.712700000000000244e+01 3.064000000000000057e+01 4.815100000000000158e+00 -3.051544999999999952e+00 -7.536169169278465925e-03
4.713400000000000034e+01 4.548299999999999699e+01 6.216499999999999915e+00 -2.608542999999999878e+01 -4.678549177634461556e-03
4.713600000000000279e+01 5.254399999999999693e+01 6.039600000000000080e+00 3.716228999999999782e+00 -2.812642266753678788e-03
4.714800000000000324e+01 4.488300000000000267e+01 8.193099999999999383e+00 -6.675900000000000389e+00 -4.885726801406581679e-03
4.715100000000000335e+01 3.874499999999999744e+01 2.967800000000000082e+01 -7.749954999999999927e+00 -2.007803946422717090e-01
4.715100000000000335e+01 3.085300000000000153e+01 1.651200000000000045e+01 -2.357044000000000139e+00 -8.061718029113837392e-02
4.715500000000000114e+01 4.122999999999999687e+01 2.171699999999999875e+01 -7.676206999999999780e+00 -7.521835444809492344e-03
4.715500000000000114e+01 3.756199999999999761e+01 2.886700000000000088e+01 -4.201200000000000045e+00 -2.008332157213296443e-01
4.715899999999999892e+01 5.097599999999999909e+01 2.913100000000000023e+01 -1.037581999999999915e+01 -2.103276870813707566e-01
4.716599999999999682e+01 4.204999999999999716e+01 3.749300000000000210e+01 2.657595000000000152e+00 -2.926689279445343628e-01
4.716799999999999926e+01 5.039200000000000301e+01 4.129199999999999982e+00 -1.241483999999999988e+01 -3.462948686525261534e-03
4.718200000000000216e+01 3.122299999999999898e+01 1.817299999999999827e+01 1.293487000000000109e-01 -7.966865923255518622e-02
4.718599999999999994e+01 3.054700000000000060e+01 3.181700000000000195e+00 -9.857666000000000039e+00 -7.395258292582344677e-03
4.719299999999999784e+01 3.192299999999999827e+01 2.408899999999999864e+01 -1.581779999999999964e+00 -2.029948769189950930e-01
4.719599999999999795e+01 3.789200000000000301e+01 3.524300000000000210e+01 9.247956000000000509e-01 -2.871550358602811270e-01
4.720600000000000307e+01 5.341100000000000136e+01 3.719100000000000250e+01 -6.886071000000000275e-01 -2.129990877408548949e-02
4.721099999999999852e+01 5.351599999999999824e+01 3.462599999999999767e+01 -1.340398000000000067e+01 -1.838736139571887224e-02
4.721300000000000097e+01 4.112199999999999989e+01 1.546599999999999975e+00 -5.253860000000000419e+00 -5.527350453898310749e-03
4.721300000000000097e+01 4.472399999999999665e+01 3.265899999999999803e+00 -1.124721000000000082e+01 -4.815230475296217519e-03
4.722299999999999898e+01 4.088199999999999790e+01 3.754399999999999693e+01 -1.011142000000000074e+01 -2.900281932580312527e-01
4.722500000000000142e+01 4.894700000000000273e+01 2.357199999999999918e+01 -4.789484999999999992e+00 -1.964364273238102254e-01
4.722899999999999920e+01 3.141799999999999926e+01 1.709999999999999964e+00 -1.517567999999999984e+01 -7.152277798382904346e-03
4.723899999999999721e+01 3.645900000000000318e+01 5.915799999999999947e+00 6.223124000000000322e+00 -6.685137900277283995e-03
4.723899999999999721e+01 3.645900000000000318e+01 7.387900000000000134e+00 2.769340000000000135e+00 -6.813586261162604511e-03
4.723899999999999721e+01 3.666799999999999926e+01 6.651900000000000368e+00 2.869644999999999779e+00 -6.707543322501942525e-03
4.724099999999999966e+01 3.995900000000000318e+01 3.814300000000000068e+01 6.890600000000000058e-01 -2.874085432884386226e-01
4.724099999999999966e+01 5.244800000000000040e+01 6.655400000000000205e+00 -1.378492999999999924e+01 -2.802810507776383638e-03
4.724600000000000222e+01 3.424900000000000233e+01 5.150100000000000122e+00 -5.445364999999999789e+00 -7.010887915251204187e-03
4.724699999999999989e+01 4.619100000000000250e+01 3.821000000000000174e+00 -3.154530000000000101e+01 -4.482102640216071091e-03
4.724799999999999756e+01 4.598499999999999943e+01 9.104300000000000281e+00 -9.245461000000000651e-02 -4.599214225935977299e-03
4.725099999999999767e+01 3.722399999999999665e+01 3.712400000000000233e+01 4.335707000000000200e+00 -2.819817601713853761e-01
4.725300000000000011e+01 3.878000000000000114e+01 7.736699999999999688e-01 -3.309944999999999915e+00 -5.930236550025913024e-03
4.725600000000000023e+01 2.940500000000000114e+01 2.279500000000000171e+01 -2.502263000000000126e+00 -2.023248776264063298e-01
4.725800000000000267e+01 3.277100000000000080e+01 1.103299999999999947e+01 2.769101000000000035e+00 -7.888152621210915011e-03
4.725800000000000267e+01 3.297999999999999687e+01 1.029700000000000060e+01 -1.127591999999999928e+01 -7.761459149513092078e-03
4.725900000000000034e+01 3.067299999999999827e+01 2.365399999999999991e+01 -5.791680000000000383e+00 -2.022509069424364703e-01
4.726100000000000279e+01 3.225900000000000034e+01 5.834999999999999964e+00 -1.794637000000000171e+01 -7.390962449987113596e-03
4.726500000000000057e+01 3.791899999999999693e+01 3.805599999999999739e+01 5.791752999999999929e+00 -2.813333883173487759e-01
4.728000000000000114e+01 3.157700000000000173e+01 1.377899999999999991e+01 -2.987635000000000041e+00 2.203154803726463384e-02
4.728000000000000114e+01 5.033899999999999864e+01 1.807900000000000063e+01 3.820409999999999862e+00 -1.982128579796539891e-01
4.728999999999999915e+01 3.271999999999999886e+01 -2.439800000000000024e-01 6.281113000000000390e+00 -6.827296608421897992e-03
4.729299999999999926e+01 4.164200000000000301e+01 1.935599999999999987e+00 -5.525943999999999967e+00 -5.435706358119033778e-03
4.729599999999999937e+01 3.275000000000000000e+01 9.494799999999999685e+00 -5.280140000000000278e+00 -7.700948933324278101e-03
4.729899999999999949e+01 3.430400000000000205e+01 -3.553799999999999737e-01 6.164724999999999788e+00 -6.593198541151462817e-03
4.730199999999999960e+01 4.629699999999999704e+01 3.559799999999999898e+01 3.183946000000000276e-01 -3.170786946132360118e-01
4.730400000000000205e+01 5.195199999999999818e+01 1.288000000000000078e+01 -4.109992000000000090e+00 -1.991452682876619640e-01
4.731000000000000227e+01 3.515299999999999869e+01 9.102999999999999758e+00 -1.960255000000000081e+00 -7.230544222792532894e-03
4.731099999999999994e+01 4.509199999999999875e+01 9.293799999999999173e+00 -2.925384000000000206e+00 -4.861304403674479580e-03
4.731199999999999761e+01 4.497599999999999909e+01 6.146899999999999586e+00 -4.419608000000000203e+01 -4.803218145310135176e-03
4.731199999999999761e+01 4.652700000000000102e+01 4.596000000000000085e+00 -7.905002000000000351e+01 -4.402191537532441044e-03
4.731600000000000250e+01 4.750800000000000267e+01 8.410099999999999909e+00 1.363358000000000025e+01 -4.147557026581942877e-03
4.731900000000000261e+01 2.973400000000000176e+01 2.355499999999999972e+01 -3.138398000000000021e+00 -2.013584669369763991e-01
4.732200000000000273e+01 5.123799999999999955e+01 1.192200000000000060e+01 -5.198224999999999874e+00 -2.902085861062383716e-03
4.732600000000000051e+01 4.889600000000000080e+01 2.142500000000000071e+01 6.088032000000000166e-02 -1.973194870606653772e-01
4.732699999999999818e+01 4.864200000000000301e+01 7.557599999999999874e+00 7.050101999999999869e+00 -3.828600623242889300e-03
4.733100000000000307e+01 5.103199999999999648e+01 1.117999999999999972e+01 -1.947328999999999866e+01 -3.000661741460199181e-03
4.733100000000000307e+01 5.124099999999999966e+01 1.044400000000000084e+01 -3.485538999999999987e+01 -2.960715136589880947e-03
4.733299999999999841e+01 4.655499999999999972e+01 5.630799999999999805e+00 -5.169187000000000154e+01 -4.397108997701651596e-03
4.734700000000000131e+01 5.219299999999999784e+01 2.658800000000000097e+01 2.102342999999999851e+00 -1.935260465205931868e-01
4.734700000000000131e+01 5.219299999999999784e+01 2.821799999999999997e+01 4.811861000000000388e+00 -2.098892393433273718e-01
4.734700000000000131e+01 5.242399999999999949e+01 2.740299999999999869e+01 -3.319218000000000046e+01 -1.928146523515904542e-01
4.735199999999999676e+01 3.351599999999999824e+01 9.207599999999999341e+00 -8.584445999999999799e+00 -7.534153533831390581e-03
4.735600000000000165e+01 5.042099999999999937e+01 3.116499999999999915e+01 2.668366999999999933e+00 -1.686919447607832523e-01
4.735600000000000165e+01 5.063000000000000256e+01 3.190099999999999980e+01 3.914409000000000027e+00 -1.889091291380510379e-02
4.735799999999999699e+01 3.466899999999999693e+01 2.765200000000000102e+01 -3.825029999999999819e-01 -1.990930579959231672e-01
4.735799999999999699e+01 3.611500000000000199e+01 2.845799999999999841e+01 7.318916999999999895e+00 -1.992777937164968982e-01
4.736399999999999721e+01 4.049300000000000210e+01 2.171699999999999875e+01 -4.126159000000000354e+00 -7.739244265236781481e-03
4.736399999999999721e+01 4.196600000000000108e+01 2.171699999999999875e+01 -1.067219000000000051e+01 -7.226398192516686816e-03
4.736699999999999733e+01 3.313600000000000279e+01 2.468900000000000006e+01 4.326041000000000025e+00 -2.032565832704945896e-01
4.736999999999999744e+01 4.527900000000000347e+01 5.446900000000000297e+00 -4.250842999999999705e+01 -4.713842107654998836e-03
4.738700000000000045e+01 3.114199999999999946e+01 1.888500000000000156e+01 -1.189621000000000040e+00 -7.896052084937671411e-02
4.739399999999999835e+01 5.094899999999999807e+01 2.573000000000000043e+01 2.618381999999999987e+00 -1.945449577973179245e-01
4.739399999999999835e+01 4.778699999999999903e+01 3.628399999999999892e+01 1.226455999999999946e+01 -2.441710518316727099e-02
4.739500000000000313e+01 3.210799999999999699e+01 1.280000000000000071e+01 -8.044567000000000245e-01 -8.218475823894916960e-03
4.739800000000000324e+01 4.286500000000000199e+01 3.743599999999999994e+01 4.748249999999999638e+00 -2.948504384793465549e-01
4.740100000000000335e+01 3.636599999999999966e+01 3.641299999999999670e+01 4.589996000000000187e+00 -2.825938220050074334e-01
4.740599999999999881e+01 3.232800000000000296e+01 1.194400000000000084e+01 -1.150149000000000032e-01 -8.065725034458137016e-03
4.740699999999999648e+01 4.893599999999999994e+01 2.278699999999999903e+01 2.159762000000000182e+00 -1.967004527195549968e-01
4.740999999999999659e+01 4.289800000000000324e+01 2.570100000000000051e+00 -1.671971999999999881e+01 -5.194165333926273505e-03
4.741499999999999915e+01 3.431199999999999761e+01 2.684900000000000020e+01 -1.055924000000000085e+00 -2.003794139805866181e-01
4.742300000000000182e+01 4.079699999999999704e+01 2.101699999999999946e+01 -1.066003000000000078e+01 -7.495962571060025767e-03
4.742300000000000182e+01 4.079699999999999704e+01 2.241700000000000159e+01 -3.622949000000000197e+00 -7.766576108842015991e-03
4.742300000000000182e+01 4.166199999999999903e+01 2.101699999999999946e+01 -1.439554000000000045e+01 -7.198713278952752204e-03
4.742300000000000182e+01 4.166199999999999903e+01 2.241700000000000159e+01 -4.276965999999999823e+00 -7.462977516520913693e-03
4.742300000000000182e+01 4.951899999999999835e+01 5.412700000000000067e+00 -2.648286000000000140e+00 -3.641165806556930645e-03
4.742300000000000182e+01 5.229099999999999682e+01 5.412700000000000067e+00 3.787939999999999863e+00 -2.928840745568786659e-03
4.742799999999999727e+01 3.316299999999999670e+01 5.538999999999999702e+00 -2.988646999999999920e+01 -7.211266904325487788e-03
4.743599999999999994e+01 3.508599999999999852e+01 5.241200000000000081e+00 7.187801000000000329e+00 -6.865090642674318185e-03
4.744100000000000250e+01 4.435799999999999699e+01 3.672800000000000153e+01 -1.156579000000000024e+00 -2.991161252917522440e-01
4.745799999999999841e+01 3.119999999999999929e+01 2.195699999999999985e+00 -4.162567000000000128e+00 -7.208361736006399859e-03
4.745799999999999841e+01 3.512599999999999767e+01 3.559799999999999898e+01 6.819169000000000480e-01 -2.833332533035267664e-01
4.745799999999999841e+01 5.156400000000000006e+01 1.742500000000000071e+01 8.265313000000000798e+00 -1.981087791815888399e-01
4.746300000000000097e+01 3.832500000000000284e+01 3.367699999999999960e+01 1.940922000000000036e+00 -2.895680739594124198e-01
4.746300000000000097e+01 3.832500000000000284e+01 3.454299999999999926e+01 1.685559999999999947e+00 -2.887465278570830463e-01
4.746500000000000341e+01 3.098999999999999844e+01 2.040599999999999881e+01 -6.800322000000000422e+00 -7.749934241089959097e-02
4.746500000000000341e+01 3.904099999999999682e+01 3.830899999999999750e+01 4.127709000000000295e+00 -2.856732659442284827e-01
4.747999999999999687e+01 4.068900000000000006e+01 8.466099999999999737e-01 -1.255592000000000041e+01 -5.577863526652457500e-03
4.748799999999999955e+01 3.098600000000000065e+01 1.460399999999999920e+01 -3.195539999999999825e+00 -7.176939501520651632e-02
4.749199999999999733e+01 4.540400000000000347e+01 3.569299999999999784e+01 2.832342999999999833e+00 -3.156624943210156187e-01
4.749300000000000210e+01 4.902900000000000347e+01 6.813299999999999912e+00 1.461003999999999969e+00 -3.736476989975525461e-03
4.750900000000000034e+01 3.674199999999999733e+01 1.030299999999999994e+00 9.934234999999999260e+00 -6.284159401550857768e-03
4.750900000000000034e+01 3.814200000000000301e+01 1.030299999999999994e+00 -1.486742000000000008e+00 -6.045434657931291617e-03
4.752300000000000324e+01 3.129299999999999926e+01 1.970599999999999952e+01 -7.033096999999999710e+00 -7.833957974464647589e-02
4.752700000000000102e+01 3.615100000000000335e+01 5.399000000000000465e-01 9.249812999999999619e+00 -6.352232335835039656e-03
4.752900000000000347e+01 5.193299999999999983e+01 1.657499999999999929e+01 5.621380000000000265e+00 -1.982494418266912972e-01
4.753000000000000114e+01 3.927000000000000313e+01 4.880500000000000116e-02 -3.610558999999999852e+00 -5.803441796385544645e-03
4.754099999999999682e+01 5.023799999999999955e+01 3.789900000000000091e+01 7.864024999999999821e+00 -2.483519348085031983e-02
4.754099999999999682e+01 5.186800000000000210e+01 3.743599999999999994e+01 1.832498999999999967e+01 -2.307529586395061852e-02
4.754299999999999926e+01 5.210900000000000176e+01 1.570299999999999940e+01 -5.541699000000000375e+00 -1.984379664940051080e-01
4.754699999999999704e+01 4.972299999999999898e+01 1.836100000000000065e+01 -2.997730999999999923e+00 -1.980941841074757848e-01
4.754899999999999949e+01 3.354899999999999949e+01 5.208400000000000141e+00 -2.907207999999999970e+01 -7.112019415934744786e-03
4.755199999999999960e+01 4.046300000000000097e+01 3.732900000000000063e+01 2.455309000000000097e+01 -2.896846908448292846e-01
4.757300000000000040e+01 3.476100000000000279e+01 -2.515100000000000113e-01 1.350310999999999950e+01 -6.519879031423708379e-03
4.758299999999999841e+01 3.825399999999999778e+01 2.928099999999999881e+01 -6.220180000000000042e+00 -2.004534457112477630e-01
4.758599999999999852e+01 3.224099999999999966e+01 5.310200000000000475e-01 -9.840870999999999647e-02 -6.932894768883574206e-03
4.758899999999999864e+01 3.775600000000000023e+01 3.262299999999999756e+01 1.138409000000000004e+00 -2.897769645405802730e-01
4.759100000000000108e+01 5.027600000000000335e+01 3.026300000000000168e+01 2.444609999999999950e+00 -2.109484983175250183e-01
4.759199999999999875e+01 4.439300000000000068e+01 9.249599999999999156e+00 -2.176251000000000158e+00 -5.050029919283285061e-03
4.759400000000000119e+01 5.216899999999999693e+01 3.292300000000000182e+01 -1.855308000000000135e+01 -1.857383841369079219e-02
4.759400000000000119e+01 4.820900000000000318e+01 8.257600000000000051e+00 8.680517000000000039e+00 -3.947029306105906583e-03
4.759599999999999653e+01 4.234199999999999875e+01 1.993900000000000006e+00 -5.510296000000000305e+00 -5.288939802812350766e-03
4.759599999999999653e+01 3.600600000000000023e+01 3.554500000000000171e+01 8.587225000000000552e-01 -2.830578790902440467e-01
4.759700000000000131e+01 3.117299999999999827e+01 5.245700000000000252e+00 -1.683939000000000163e+01 -7.471887128173489157e-03
4.759799999999999898e+01 4.455299999999999727e+01 6.553399999999999892e+00 -2.185460000000000136e+01 -4.914322526596825655e-03
4.760000000000000142e+01 4.026599999999999824e+01 1.229999999999999982e-01 -4.153196000000000332e+00 -5.627108410989313352e-03
4.760699999999999932e+01 4.416899999999999693e+01 2.844899999999999984e+00 -1.052167999999999992e+01 -4.924868148271336829e-03
4.760699999999999932e+01 4.548599999999999710e+01 3.657599999999999962e+00 -1.603020000000000067e+01 -4.641300452242784133e-03
4.760900000000000176e+01 5.057099999999999795e+01 1.744699999999999918e+01 2.074693999999999861e+01 -1.981887907835748197e-01
4.761599999999999966e+01 3.690400000000000347e+01 3.549199999999999733e+01 8.251796000000000131e-01 -2.827864023531770354e-01
4.761899999999999977e+01 4.452000000000000313e+01 7.589599999999999902e+00 -4.863991000000000398e+00 -4.953081657964565447e-03
4.761999999999999744e+01 4.131499999999999773e+01 3.705299999999999727e+01 2.050475000000000048e+00 -2.918057004168975732e-01
4.762199999999999989e+01 4.879899999999999949e+01 3.723499999999999943e+01 3.750757000000000119e+00 -2.497077906386019688e-02
4.762599999999999767e+01 3.349499999999999744e+01 -3.085100000000000064e-01 1.272251999999999938e+01 -6.698950032019447380e-03
4.763300000000000267e+01 2.967999999999999972e+01 2.135699999999999932e+01 -3.109366000000000074e+00 -2.045245844864051199e-01
4.763400000000000034e+01 4.978600000000000136e+01 2.460900000000000176e+01 3.523463000000000012e+00 -1.954533562771994804e-01
4.764000000000000057e+01 4.578199999999999648e+01 4.596000000000000085e+00 -4.882267000000000223e+01 -4.578908817390651281e-03
4.764200000000000301e+01 4.463199999999999790e+01 1.018299999999999983e+01 -2.588534000000000113e+00 -5.022107707796095652e-03
4.764200000000000301e+01 4.549799999999999756e+01 1.018299999999999983e+01 2.001643000000000061e+00 -4.768336611962875962e-03
4.764600000000000080e+01 5.160499999999999687e+01 4.641200000000000436e+00 7.997042000000000428e+00 -3.152144042908693912e-03
4.764999999999999858e+01 4.620499999999999829e+01 9.582900000000000418e+00 2.135403999999999858e+00 -4.541649569170999427e-03
4.765400000000000347e+01 3.811999999999999744e+01 3.167999999999999972e+01 3.252225999999999728e-01 -2.910640772466879800e-01
4.765800000000000125e+01 3.269200000000000017e+01 5.344100000000000072e+00 -5.015030999999999750e+01 -7.252291853275662052e-03
4.766400000000000148e+01 5.225600000000000023e+01 9.131299999999999528e+00 1.694322999999999979e+01 -2.725374971093162506e-03
4.766599999999999682e+01 3.673100000000000165e+01 3.679999999999999716e+01 4.400520000000000209e+00 -2.823553810698638533e-01
4.767199999999999704e+01 5.013700000000000045e+01 4.660800000000000054e+00 -3.130685999999999858e+00 -3.514534122656236877e-03
4.768500000000000227e+01 5.263600000000000279e+01 3.748700000000000188e+01 5.488110999999999962e+01 -2.275757530175037333e-02
4.768500000000000227e+01 5.299600000000000222e+01 3.416400000000000148e+01 -4.290189000000000163e+01 -1.893905285259057589e-02
4.768500000000000227e+01 5.395499999999999829e+01 3.512199999999999989e+01 3.192047000000000168e+01 -1.911351926926696879e-02
4.768500000000000227e+01 5.395499999999999829e+01 3.675200000000000244e+01 -1.166205000000000069e+01 -2.090165713218968685e-02
4.768500000000000227e+01 5.418599999999999994e+01 3.593699999999999761e+01 3.490263000000000204e+01 -1.978984389582089456e-02
4.768999999999999773e+01 3.108999999999999986e+01 2.719399999999999817e+00 -9.380527000000000726e+00 -7.253280027230538107e-03
4.769100000000000250e+01 3.218399999999999750e+01 1.483800000000000008e+00 3.564456999999999987e+00 -7.004863431239937918e-03
4.769700000000000273e+01 4.688000000000000256e+01 8.868999999999999773e+00 1.205109999999999992e+01 -4.331845495221612816e-03
4.771200000000000330e+01 3.423199999999999932e+01 3.559799999999999898e+01 -1.586489000000000094e-01 -2.836784045706838286e-01
4.771300000000000097e+01 4.359799999999999898e+01 2.628299999999999859e+00 -1.502716999999999992e+01 -5.041376284122039454e-03
4.771500000000000341e+01 3.166300000000000026e+01 2.418100000000000094e+01 -3.226008000000000209e+00 -2.020786906139115102e-01
4.772299999999999898e+01 4.991299999999999670e+01 1.752499999999999858e+01 8.044523999999999120e+00 -1.982137950941662008e-01
4.772999999999999687e+01 3.591400000000000148e+01 7.871199999999999974e+00 1.849326999999999943e+00 -6.931507512444692529e-03
4.774300000000000210e+01 3.445300000000000296e+01 9.370400000000000063e+00 -3.175507000000000080e+00 -7.355663704164408338e-03
4.774300000000000210e+01 3.564399999999999835e+01 8.706400000000000361e+00 2.405229999999999979e+00 -7.063914658041731479e-03
4.774399999999999977e+01 3.571099999999999852e+01 3.656700000000000017e+01 2.796915999999999958e+00 -2.828230241190273775e-01
4.774900000000000233e+01 3.188100000000000023e+01 2.183800000000000185e+00 -3.580114000000000019e+00 -7.097768381743974064e-03
4.775000000000000000e+01 3.020400000000000063e+01 2.408800000000000097e+01 -1.684236999999999895e+01 -2.006036520856400718e-01
4.775099999999999767e+01 3.997599999999999909e+01 2.237399999999999878e+01 -3.713800999999999908e-01 -7.971449311632950591e-03
4.775399999999999778e+01 3.239200000000000301e+01 2.452199999999999847e+01 1.791087000000000096e+00 -2.022904474506253825e-01
4.777100000000000080e+01 4.483899999999999864e+01 3.594800000000000040e+01 5.059616000000000113e+00 -3.008037999802143370e-01
4.777300000000000324e+01 3.681499999999999773e+01 2.860699999999999932e+01 5.001769000000000354e+00 -1.995813071786005088e-01
4.777400000000000091e+01 4.938300000000000267e+01 3.368399999999999750e+01 1.111575999999999986e+01 -2.122133716424186300e-02
4.777400000000000091e+01 5.153600000000000136e+01 1.236200000000000010e+01 -3.774138999999999911e+00 -1.990779205895825688e-01
4.777400000000000091e+01 5.248499999999999943e+01 1.331099999999999994e+01 -1.898176000000000130e+01 -1.987951793370728859e-01
4.777400000000000091e+01 5.248499999999999943e+01 1.490900000000000070e+01 -5.075088999999999828e+01 -1.984618320207884590e-01
4.777400000000000091e+01 5.271200000000000330e+01 1.410999999999999943e+01 -1.799900999999999840e+01 -1.986049997070266637e-01
4.777700000000000102e+01 3.049599999999999866e+01 1.592200000000000060e+01 -1.141680000000000028e+00 -7.039979215124723966e-02
4.777700000000000102e+01 3.049599999999999866e+01 1.697200000000000131e+01 -1.192309999999999981e+00 -7.979971096041732492e-02
4.778300000000000125e+01 3.460099999999999909e+01 3.474799999999999756e+01 -4.201859000000000011e-01 -2.838095625453018189e-01
4.778300000000000125e+01 3.460099999999999909e+01 3.644800000000000040e+01 1.574056000000000066e-01 -2.832879610214565358e-01
4.778300000000000125e+01 3.565100000000000335e+01 3.474799999999999756e+01 -2.556706999999999730e-01 -2.834652537277217998e-01
4.778900000000000148e+01 2.897400000000000020e+01 2.232499999999999929e+01 -2.808549999999999880e+00 -2.022426757760292515e-01
4.778900000000000148e+01 2.897400000000000020e+01 2.326500000000000057e+01 -2.745694999999999997e+00 -2.007368631589439845e-01
4.779200000000000159e+01 3.586599999999999966e+01 5.519400000000000084e+00 7.305534999999999890e+00 -6.729844410132486583e-03
4.779200000000000159e+01 3.425099999999999767e+01 2.628300000000000125e+01 -7.188544999999999519e-01 -2.011671588227187946e-01
4.780199999999999960e+01 4.457900000000000063e+01 5.714299999999999713e+00 -5.465991000000000355e+01 -4.883131863278527413e-03
4.781900000000000261e+01 4.122999999999999687e+01 2.052599999999999980e+01 -1.915856000000000137e+01 -7.207493691175538390e-03
