1.272099999999999937e+02 2.921300000000000097e+01 7.737600000000000477e+01 1.809677999999999898e+00 2.011421031075136534e-01
1.272199999999999989e+02 1.151600000000000001e+01 1.039099999999999966e+02 4.146836999999999662e+00 3.406369793469263274e-01
1.272199999999999989e+02 4.768699999999999761e+01 9.088800000000000523e+01 8.722386999999999446e+00 -2.200993910867844183e-01
1.272199999999999989e+02 4.380199999999999960e+01 9.680100000000000193e+01 -3.708863000000000198e+01 -2.276087401783699060e-01
1.272199999999999989e+02 4.164600000000000080e+01 8.818999999999999773e+01 -6.648517000000000010e+00 4.502998107748275997e-02
1.272300000000000040e+02 1.826300000000000168e+01 1.027600000000000051e+02 3.350487999999999911e+00 2.602769537389698074e-01
1.272300000000000040e+02 4.261200000000000188e+01 9.758400000000000318e+01 -8.440345999999999904e+00 -2.294932316989632126e-01
1.272300000000000040e+02 3.829800000000000182e+01 8.421500000000000341e+01 -2.075158000000000058e+00 -2.738227513155349138e-02
1.272399999999999949e+02 4.555599999999999739e+01 9.525000000000000000e+01 -2.953709999999999880e+01 -2.244173554232319623e-01
1.272399999999999949e+02 3.223899999999999721e+01 7.781799999999999784e+01 -4.109424999999999883e+00 2.103852129840955709e-01
1.272399999999999949e+02 9.224000000000000199e+00 9.963200000000000500e+01 -1.815698000000000079e+01 2.628360542149824619e-01
1.272500000000000000e+02 9.989000000000000767e+00 7.839000000000000057e+01 2.662520999999999916e+00 1.874880911711288567e-01
1.272500000000000000e+02 3.851500000000000057e+01 1.022199999999999989e+02 1.360725000000000051e+01 -2.332067445585716547e-01
1.272500000000000000e+02 4.006499999999999773e+01 1.022199999999999989e+02 -1.999902000000000069e+00 -2.317586264628922754e-01
1.272600000000000051e+02 2.829700000000000060e+01 1.063599999999999994e+02 -8.545055000000000689e+01 2.164995548026410824e-02
1.272699999999999960e+02 3.867999999999999972e+01 8.598000000000000398e+01 -1.074513999999999969e+00 -2.106927650097423915e-02
1.272699999999999960e+02 4.902799999999999869e+01 9.296200000000000330e+01 1.320518000000000036e+01 -2.185140377238502241e-01
1.272900000000000063e+02 3.311500000000000199e+01 1.060699999999999932e+02 4.594344000000000250e+01 -2.357077284533857786e-01
1.272900000000000063e+02 1.708200000000000074e+01 1.035999999999999943e+02 1.626342999999999961e+01 3.402741475179561492e-01
1.272900000000000063e+02 1.450399999999999956e+01 7.818500000000000227e+01 -5.270527999999999658e+00 1.876462808801941662e-01
1.272900000000000063e+02 1.100600000000000023e+01 1.057800000000000011e+02 -8.530405000000000015e+00 3.407932476101659947e-01
1.272900000000000063e+02 1.975400000000000134e+01 1.040300000000000011e+02 -8.691240999999999772e+00 2.618251240362696186e-01
1.272900000000000063e+02 7.540000000000000036e+00 8.051999999999999602e+01 -3.411707999999999963e-01 1.868347899749941976e-01
1.272999999999999972e+02 2.082300000000000040e+01 7.349800000000000466e+01 -1.266137999999999941e+01 1.936274587268780878e-01
1.273100000000000023e+02 2.985800000000000054e+01 1.064699999999999989e+02 -5.045503000000000071e+00 -2.370082797137905428e-01
1.273100000000000023e+02 8.726000000000000867e+00 7.944199999999999307e+01 4.197244000000000419e+00 1.871383713666047166e-01
1.273199999999999932e+02 1.175200000000000067e+01 1.017800000000000011e+02 4.864033000000000051e+00 2.614960590289720499e-01
1.273299999999999983e+02 1.524000000000000021e+01 7.807200000000000273e+01 -2.925427000000000000e+00 1.877751072898690143e-01
1.273299999999999983e+02 4.563499999999999801e+01 9.076600000000000534e+01 -1.631718999999999919e+00 -2.261741045295083963e-01
1.273299999999999983e+02 5.679599999999999760e+00 8.670600000000000307e+01 -3.883987999999999996e+00 1.854263497695350371e-01
1.273400000000000034e+02 3.115800000000000125e+01 1.072000000000000028e+02 1.498188999999999993e+01 -2.362712169800168793e-01
1.273499999999999943e+02 3.545799999999999841e+01 1.042699999999999960e+02 -1.670842000000000027e+01 -2.349415141604928592e-01
1.273499999999999943e+02 4.935199999999999676e+01 9.041299999999999670e+01 -4.351791000000000409e+00 -2.182904746174373911e-01
1.273499999999999943e+02 5.031000000000000227e+01 9.041299999999999670e+01 -3.818921000000000010e+00 -2.176782360487575230e-01
1.273499999999999943e+02 5.031000000000000227e+01 9.196299999999999386e+01 9.094528999999999641e+00 -2.175935147989988550e-01
1.273599999999999994e+02 4.374699999999999811e+00 9.016899999999999693e+01 2.477253999999999845e+00 1.850521665064263077e-01
1.273599999999999994e+02 2.234199999999999875e+01 7.340000000000000568e+01 -4.683959999999999901e+00 1.952127368600147794e-01
1.273700000000000045e+02 4.975600000000000023e+01 9.440999999999999659e+01 -2.564984000000000108e+01 -2.189404764877443399e-01
1.273700000000000045e+02 5.069599999999999795e+01 9.440999999999999659e+01 -2.502577000000000140e+01 -2.185356452139275429e-01
1.273700000000000045e+02 4.820799999999999841e+01 9.300600000000000023e+01 2.161931999999999832e+01 -2.197012493342730133e-01
1.273700000000000045e+02 3.749699999999999989e+01 8.274699999999999989e+01 -1.143369999999999942e-01 9.035252055951203953e-02
1.273700000000000045e+02 4.321099999999999852e+01 8.790999999999999659e+01 -1.187386000000000053e+01 -2.520027473127447459e-01
1.273700000000000045e+02 1.333200000000000074e+01 9.706300000000000239e+01 6.684186999999999657e+00 2.622121769812845171e-01
1.273799999999999955e+02 4.859899999999999665e+01 9.099399999999999977e+01 2.702974000000000210e+00 -2.190688915972187623e-01
1.273799999999999955e+02 2.122100000000000009e+01 1.072300000000000040e+02 -1.450625000000000053e+00 2.643656021658809530e-01
1.273799999999999955e+02 2.292099999999999937e+01 1.072300000000000040e+02 -5.921007999999999605e+00 2.654086495826010195e-01
1.273799999999999955e+02 4.698100000000000165e+01 9.138599999999999568e+01 4.696846999999999994e+00 -2.219568342121721327e-01
1.273799999999999955e+02 1.228400000000000070e+01 1.009500000000000028e+02 1.134784999999999933e+01 2.614969975220876042e-01
1.273900000000000006e+02 3.610300000000000153e+01 8.189600000000000080e+01 -2.304545000000000066e+00 9.736327017019322239e-02
1.273900000000000006e+02 1.739199999999999946e+01 7.716299999999999670e+01 -7.262106000000000172e+00 1.887368793128827993e-01
1.273900000000000006e+02 4.593900000000000006e+01 9.146599999999999397e+01 -7.730821999999999694e-02 -2.247015337679711955e-01
1.273900000000000006e+02 5.135699999999999932e+01 9.589400000000000546e+01 -3.194837000000000060e+01 -3.793817618019357796e-01
1.274000000000000057e+02 9.589299999999999713e+00 9.893200000000000216e+01 -1.066225000000000023e+01 2.629453504619990722e-01
1.274000000000000057e+02 4.317199999999999704e+00 8.713899999999999579e+01 -2.515464999999999840e+00 1.855678291892461362e-01
1.274099999999999966e+02 3.184299999999999997e+01 1.073199999999999932e+02 1.696624999999999872e+01 -2.359565047114542402e-01
1.274200000000000017e+02 5.947000000000000064e+00 9.049200000000000443e+01 2.484762000000000082e-01 1.847400087401483981e-01
1.274200000000000017e+02 5.064600000000000080e+01 9.118800000000000239e+01 -9.568649999999999878e+00 -2.176275996943276836e-01
1.274300000000000068e+02 1.292099999999999937e+01 1.046700000000000017e+02 8.194853999999999417e+00 3.405984659856536867e-01
1.274300000000000068e+02 1.052399999999999913e+01 9.834399999999999409e+01 -6.561730999999999980e+00 2.628266681765624724e-01
1.274300000000000068e+02 1.124399999999999977e+01 7.887000000000000455e+01 4.031526999999999639e+00 1.873187836791257443e-01
1.274399999999999977e+02 8.015800000000000480e+00 9.472499999999999432e+01 3.942842000000000180e+00 1.838748431962464458e-01
1.274399999999999977e+02 1.355300000000000082e+01 9.993099999999999739e+01 8.291531000000000873e+00 2.612651170963365965e-01
1.274500000000000028e+02 2.796600000000000108e+01 7.636499999999999488e+01 -5.832939999999999792e+00 2.005301492402433161e-01
1.274500000000000028e+02 1.534299999999999997e+01 1.049399999999999977e+02 8.811000999999999195e+00 3.404897755390178249e-01
1.274599999999999937e+02 3.792399999999999949e+01 8.334999999999999432e+01 -3.102104999999999890e+00 -2.558010774210902130e-02
1.274699999999999989e+02 5.146300000000000097e+01 9.682800000000000296e+01 -2.876967000000000141e+01 -3.788359147739079336e-01
1.274800000000000040e+02 8.165499999999999758e+00 9.630500000000000682e+01 -8.445272000000000334e-01 2.642080225798242865e-01
1.274800000000000040e+02 4.175999999999999801e+01 1.007199999999999989e+02 2.573115999999999914e+01 -2.303056352724829614e-01
1.274899999999999949e+02 4.937500000000000000e+01 9.200100000000000477e+01 -5.575792999999999999e+00 -2.185361860463956030e-01
1.274899999999999949e+02 3.560399999999999920e+01 1.013400000000000034e+02 1.868074999999999974e+01 -2.360947158657595024e-01
1.275000000000000000e+02 4.304500000000000171e+01 9.688400000000000034e+01 -2.497797999999999874e+01 -2.292011389665952470e-01
1.275000000000000000e+02 3.396300000000000097e+01 1.048499999999999943e+02 2.318862000000000023e+01 -2.356778445659420684e-01
1.275000000000000000e+02 1.311700000000000088e+01 7.762099999999999511e+01 -1.022780000000000022e+01 1.879826892503726199e-01
1.275000000000000000e+02 1.997299999999999898e+01 1.048499999999999943e+02 -7.101562999999999626e+00 2.624665488588032725e-01
1.275100000000000051e+02 5.109000000000000341e+01 9.512199999999999989e+01 -2.588430999999999926e+01 -2.191186486517464616e-01
1.275100000000000051e+02 4.429200000000000159e+01 9.607599999999999341e+01 -1.859532000000000096e+01 -2.271560867840303755e-01
1.275100000000000051e+02 2.709700000000000131e+01 7.283499999999999375e+01 8.446145000000000458e-01 2.039816657767614116e-01
1.275199999999999960e+02 3.924000000000000199e+01 8.670600000000000307e+01 -1.474617999999999984e+00 -4.998021890017659459e-03
1.275199999999999960e+02 4.721500000000000341e+01 9.302800000000000580e+01 -8.389649999999999608e+00 -2.216227614197161522e-01
1.275300000000000011e+02 4.094599999999999795e+01 8.813200000000000500e+01 -3.061110999999999915e+00 3.207596695186998303e-02
1.275300000000000011e+02 8.889200000000000657e+00 9.840600000000000591e+01 -6.548974000000000295e+00 2.633326699445600605e-01
1.275300000000000011e+02 4.197699999999999676e+01 8.861799999999999500e+01 -1.157365000000000066e+01 5.071598974273307248e-02
1.275300000000000011e+02 4.284300000000000352e+01 8.861799999999999500e+01 -1.885113000000000127e+01 6.424591393620518454e-02
1.275300000000000011e+02 4.621800000000000352e+01 9.464400000000000546e+01 -6.564190999999999576e+01 -2.236328601007941119e-01
1.275400000000000063e+02 4.831799999999999784e+01 9.677299999999999613e+01 -1.189006000000000007e+01 -2.217823297165015251e-01
1.275400000000000063e+02 4.854500000000000171e+01 9.757200000000000273e+01 -9.977854000000000667e+00 -2.220766879053758802e-01
1.275400000000000063e+02 4.983800000000000097e+01 9.829300000000000637e+01 -2.975448000000000093e+01 -3.787994276220473244e-01
1.275400000000000063e+02 5.113100000000000023e+01 9.757200000000000273e+01 -3.004258000000000095e+01 -3.786288314340733319e-01
1.275499999999999972e+02 2.420599999999999952e+01 7.279399999999999693e+01 7.080726000000000520e-01 1.983450802276801039e-01
1.275499999999999972e+02 4.856300000000000239e+01 9.220900000000000318e+01 9.601646999999999821e+00 -2.195620876050374259e-01
1.275600000000000023e+02 4.941299999999999670e+01 9.485899999999999466e+01 -2.910632000000000019e+01 -2.197987856525147610e-01
1.275600000000000023e+02 2.563899999999999935e+01 7.203799999999999670e+01 1.201506000000000007e+01 2.014926126786726057e-01
1.275699999999999932e+02 2.449399999999999977e+01 1.047399999999999949e+02 -1.960615999999999914e+01 2.654111457271519647e-01
1.275699999999999932e+02 4.054399999999999693e+01 1.018499999999999943e+02 1.146427000000000085e+01 -2.314870880684568866e-01
1.275799999999999983e+02 4.683599999999999852e+01 9.215600000000000591e+01 2.421912999999999982e+00 -2.225882293681669677e-01
1.275799999999999983e+02 1.888200000000000145e+01 7.645999999999999375e+01 -7.234577999999999953e+00 1.898599442754057010e-01
1.275799999999999983e+02 3.059700000000000131e+01 7.792300000000000182e+01 4.227827999999999697e+00 2.035760040792988224e-01
1.275900000000000034e+02 4.933500000000000085e+01 9.099399999999999977e+01 -9.048469000000000761e+00 -2.188884639636408669e-01
1.275900000000000034e+02 3.928999999999999915e+01 1.022800000000000011e+02 1.388319000000000081e+01 -2.326027907467291822e-01
1.275900000000000034e+02 4.654699999999999704e+01 9.388400000000000034e+01 -5.491125000000000256e+01 -2.230699258578240085e-01
1.275900000000000034e+02 3.529399999999999693e+01 7.898900000000000432e+01 -1.617798999999999987e+00 4.370907995520179057e-02
1.275900000000000034e+02 3.529399999999999693e+01 7.992000000000000171e+01 4.227218999999999838e+00 1.205568217450996710e-01
1.275900000000000034e+02 3.529399999999999693e+01 8.085099999999999909e+01 7.091257999999999839e+00 2.769097464481391491e-01
1.275900000000000034e+02 2.035300000000000153e+01 7.425799999999999557e+01 -1.543482999999999983e+01 1.926984674961336186e-01
1.275999999999999943e+02 4.445600000000000307e+01 8.801200000000000045e+01 -1.285356999999999950e+01 -2.462493717950328398e-01
1.275999999999999943e+02 4.550600000000000023e+01 8.801200000000000045e+01 9.386234999999999218e+00 -2.419861480710085166e-01
1.275999999999999943e+02 3.679099999999999682e+01 1.001800000000000068e+02 1.189843999999999902e+00 -2.357866719150515100e-01
1.275999999999999943e+02 1.999699999999999989e+01 7.498999999999999488e+01 -7.043588999999999878e+00 1.917805695351392781e-01
1.275999999999999943e+02 4.852400000000000091e+01 9.574899999999999523e+01 -7.851496000000000031e+00 -2.211002301152066585e-01
1.276099999999999994e+02 2.641400000000000148e+01 1.049000000000000057e+02 -1.335082000000000058e+01 2.671323996868955053e-01
1.276099999999999994e+02 7.014700000000000379e+00 8.137000000000000455e+01 5.983884999999999899e+00 1.866942831607207309e-01
1.276200000000000045e+02 6.129999999999999893e+00 8.624299999999999500e+01 -2.488395000000000135e+00 1.855258537052774381e-01
1.276200000000000045e+02 3.529599999999999937e+01 7.840200000000000102e+01 -6.598713000000000051e+00 4.365791151189428454e-02
1.276200000000000045e+02 1.869600000000000151e+01 1.032500000000000000e+02 -2.479344000000000214e+00 2.608757472363690266e-01
1.276299999999999955e+02 6.738599999999999923e+00 9.152299999999999613e+01 1.122684000000000015e+00 1.845006945850156399e-01
1.276299999999999955e+02 5.140699999999999825e+00 8.679300000000000637e+01 -2.375961999999999907e+00 1.855635726483053360e-01
1.276299999999999955e+02 3.235099999999999909e+01 1.067500000000000000e+02 3.455391000000000190e+01 -2.359177537120888402e-01
1.276299999999999955e+02 2.158299999999999841e+01 7.343500000000000227e+01 -5.872672999999999810e+00 1.945140776848788278e-01
1.276299999999999955e+02 3.792300000000000182e+01 1.009399999999999977e+02 2.155819999999999936e+01 -2.343488365007588281e-01
1.276400000000000006e+02 3.592799999999999727e+01 1.025699999999999932e+02 -2.053493999999999886e+01 -2.353023934643156956e-01
1.276400000000000006e+02 3.592799999999999727e+01 1.035100000000000051e+02 -3.997406000000000148e+01 -2.349418319270684674e-01
1.276400000000000006e+02 3.819299999999999784e+01 1.017099999999999937e+02 2.156944000000000017e+01 -2.337907939643423805e-01
1.276400000000000006e+02 3.431600000000000250e+01 7.586700000000000443e+01 -5.953337000000000323e+00 4.196860305748625897e-02
1.276500000000000057e+02 1.201200000000000045e+01 7.872799999999999443e+01 -4.148983000000000310e+00 1.874531375849143033e-01
1.276500000000000057e+02 4.983100000000000307e+01 9.118800000000000239e+01 -3.972843999999999909e+01 -2.186391396202624071e-01
1.276599999999999966e+02 7.120700000000000252e+00 9.328799999999999670e+01 2.896697000000000077e+00 1.842337202403813989e-01
1.276700000000000017e+02 2.031400000000000006e+01 1.056200000000000045e+02 -7.122017999999999738e+00 2.631045813523379961e-01
1.276700000000000017e+02 2.382799999999999940e+01 1.056200000000000045e+02 -1.254045999999999950e+01 2.653505206870084843e-01
1.276700000000000017e+02 4.587500000000000000e+01 8.886199999999999477e+01 7.477230000000000132e+01 -2.293019250485897886e-01
1.276700000000000017e+02 3.272999999999999687e+01 7.742199999999999704e+01 -4.124174000000000007e+00 2.130090572759997802e-01
1.276800000000000068e+02 3.554599999999999937e+01 7.668999999999999773e+01 -7.967608000000000246e+00 4.298757598787997236e-02
1.276800000000000068e+02 3.554599999999999937e+01 7.762999999999999545e+01 -2.014468000000000103e+01 4.352383189921037177e-02
1.276800000000000068e+02 4.563000000000000256e+01 8.970799999999999841e+01 2.085362999999999900e+01 -2.286234079314550804e-01
1.276800000000000068e+02 3.298799999999999955e+01 7.662900000000000489e+01 -5.087899000000000171e+00 2.169529385508386921e-01
1.276800000000000068e+02 4.575999999999999801e+01 9.477599999999999625e+01 -5.558133000000000123e+01 -2.247472845365114102e-01
1.276899999999999977e+02 6.969699999999999562e+00 9.229500000000000171e+01 4.421795000000000364e+00 1.843766176631274900e-01
1.276899999999999977e+02 9.509999999999999787e+00 7.893399999999999750e+01 7.446876999999999525e-01 1.874121684635818297e-01
1.276899999999999977e+02 4.768299999999999983e+01 9.215600000000000591e+01 1.991727000000000025e+00 -2.212352378276818965e-01
1.277000000000000028e+02 2.069600000000000151e+01 1.063799999999999955e+02 -3.138799000000000117e+00 2.637102550130963063e-01
1.277000000000000028e+02 2.344600000000000151e+01 1.063799999999999955e+02 -1.488582999999999990e+00 2.654336136592305717e-01
1.277099999999999937e+02 6.493599999999999817e+00 8.539199999999999591e+01 -7.933957999999999844e-01 1.856885613085078601e-01
1.277099999999999937e+02 1.779799999999999827e+01 1.033100000000000023e+02 6.225189000000000306e+00 2.605376998357155638e-01
1.277099999999999937e+02 3.475699999999999790e+01 1.044300000000000068e+02 -2.987282000000000082e+01 -2.353935648644718270e-01
1.277199999999999989e+02 1.369800000000000040e+01 9.764400000000000546e+01 6.892850000000000144e+00 2.619440079349218409e-01
1.277199999999999989e+02 1.240000000000000036e+01 9.697499999999999432e+01 1.705877000000000088e+00 2.626844381623504310e-01
1.277199999999999989e+02 2.839900000000000091e+01 7.706499999999999773e+01 -1.201632000000000033e+01 1.999287892512494058e-01
1.277199999999999989e+02 4.462700000000000244e+01 9.553400000000000603e+01 -1.460637999999999970e+01 -2.268858574440494880e-01
1.277199999999999989e+02 1.380400000000000027e+01 7.791700000000000159e+01 -1.712137999999999849e+01 1.879462825168798090e-01
1.277199999999999989e+02 7.680399999999999672e+00 9.414400000000000546e+01 5.335537000000000418e+00 1.840587184870393911e-01
1.277300000000000040e+02 8.494999999999999218e+00 9.756900000000000261e+01 -9.379642000000000479e+00 2.637370297649393458e-01
1.277300000000000040e+02 8.304500000000000881e+00 8.038599999999999568e+01 1.885238999999999976e+01 1.869468787819039690e-01
1.277300000000000040e+02 2.301099999999999923e+01 7.337900000000000489e+01 -3.924004000000000048e+00 1.961679851222145055e-01
1.277300000000000040e+02 2.753699999999999903e+01 1.060699999999999932e+02 -3.882464000000000226e+01 2.009062738127195477e-02
1.277399999999999949e+02 3.072599999999999909e+01 1.067099999999999937e+02 2.248431000000000068e+01 -2.366356573541673336e-01
1.277399999999999949e+02 1.046299999999999919e+01 7.882899999999999352e+01 5.888269000000000197e+00 1.874517192659058140e-01
1.277399999999999949e+02 2.207100000000000151e+01 1.072999999999999972e+02 -5.785886999999999780e+00 2.649492202252637929e-01
1.277600000000000051e+02 1.593999999999999950e+01 7.780500000000000682e+01 -7.044068000000000218e+00 1.882197537388159980e-01
1.277699999999999960e+02 3.353000000000000114e+01 1.055499999999999972e+02 4.978958999999999691e+01 -2.357239553838756385e-01
1.277699999999999960e+02 2.910699999999999932e+01 1.061800000000000068e+02 -4.796750999999999721e+01 2.223398703602682061e-02
1.277800000000000011e+02 1.107699999999999996e+01 9.763899999999999579e+01 3.606589000000000311e+01 2.629345942667523084e-01
1.277800000000000011e+02 4.610000000000000142e+01 9.215600000000000591e+01 -5.770179999999999865e+00 -2.247939553254725276e-01
1.277900000000000063e+02 1.002200000000000024e+01 9.844100000000000250e+01 1.830606999999999829e+01 2.630244554060623408e-01
1.278100000000000023e+02 4.632399999999999807e+01 9.301999999999999602e+01 -9.173413999999999291e+00 -2.240377390908387112e-01
1.278100000000000023e+02 1.592600000000000016e+01 1.042500000000000000e+02 2.530691000000000024e+00 3.403584767297994640e-01
1.278199999999999932e+02 1.809199999999999875e+01 7.689600000000000080e+01 -6.738491999999999926e+00 1.893563601941147534e-01
1.278199999999999932e+02 1.449300000000000033e+01 1.050100000000000051e+02 1.240826999999999991e+01 3.405085892775766565e-01
1.278199999999999932e+02 3.144000000000000128e+01 7.808700000000000330e+01 3.434382999999999964e+00 2.055109287336427393e-01
1.278199999999999932e+02 1.643900000000000006e+01 1.039800000000000040e+02 5.357476000000000127e+00 3.403005254669765334e-01
1.278199999999999932e+02 4.523899999999999721e+01 9.033299999999999841e+01 -3.041148000000000184e+00 -2.292973582082290795e-01
1.278199999999999932e+02 4.523899999999999721e+01 9.119899999999999807e+01 -6.010404000000000302e-01 -2.280964173302135189e-01
1.278299999999999983e+02 9.108299999999999841e+00 7.965500000000000114e+01 1.011349000000000053e+01 1.871930013932212034e-01
1.278299999999999983e+02 3.547000000000000153e+00 8.864300000000000068e+01 -2.772892000000000134e+00 1.855142861228595286e-01
1.278299999999999983e+02 3.800899999999999945e+00 8.953700000000000614e+01 1.325318999999999914e+00 1.853375289692323347e-01
1.278299999999999983e+02 5.246999999999999886e+00 9.034300000000000352e+01 1.994293000000000093e+00 1.849827867366014011e-01
1.278299999999999983e+02 6.437899999999999956e+00 9.100700000000000500e+01 2.346651000000000042e+00 1.846758964317531393e-01
1.278299999999999983e+02 4.096300000000000097e+01 1.012099999999999937e+02 1.278125999999999962e+01 -2.312857501683321659e-01
1.278400000000000034e+02 2.761199999999999832e+01 7.347499999999999432e+01 1.024782000000000082e+01 2.045481706624404372e-01
1.278400000000000034e+02 2.774800000000000111e+01 7.521599999999999397e+01 7.860475000000000101e+00 2.024061310972006533e-01
1.278400000000000034e+02 2.786599999999999966e+01 7.436899999999999977e+01 1.812334999999999852e+01 2.040937952620215656e-01
1.278599999999999994e+02 6.622700000000000031e+00 8.280500000000000682e+01 1.621475000000000000e+00 1.863813949176536533e-01
1.278599999999999994e+02 1.239899999999999913e+01 1.041299999999999955e+02 4.093976999999999755e+00 3.405490545131172886e-01
1.278700000000000045e+02 3.978900000000000148e+01 8.723300000000000409e+01 -3.566781000000000201e+00 8.518775464947201531e-03
1.278700000000000045e+02 1.235100000000000087e+01 1.012900000000000063e+02 2.503677999999999848e+00 2.614924251326772309e-01
1.278700000000000045e+02 6.507799999999999585e+00 8.454200000000000159e+01 1.685162999999999967e+00 1.859359029182964529e-01
1.278700000000000045e+02 2.519399999999999906e+01 1.046800000000000068e+02 -2.845222000000000051e+01 2.660012134506768433e-01
1.278700000000000045e+02 4.206400000000000006e+01 9.973000000000000398e+01 3.329281999999999897e+01 -2.303069007972663729e-01
1.278799999999999955e+02 1.404400000000000048e+01 9.806300000000000239e+01 7.461816999999999922e+00 2.617013880264750236e-01
1.278799999999999955e+02 1.404400000000000048e+01 9.953499999999999659e+01 -3.126393000000000200e+00 2.612682336220438217e-01
1.278799999999999955e+02 1.425300000000000011e+01 9.879900000000000659e+01 -2.946015000000000050e+00 2.613874705115076802e-01
1.278900000000000006e+02 4.432500000000000284e+01 8.878199999999999648e+01 -1.320417999999999914e+01 -2.471523046543698532e-01
1.279000000000000057e+02 1.896399999999999864e+01 1.038100000000000023e+02 -8.503126999999999214e+00 2.614112576139830391e-01
1.279000000000000057e+02 3.731500000000000039e+00 8.767400000000000659e+01 -2.491309999999999913e+00 1.856646597748544125e-01
1.279000000000000057e+02 3.749099999999999966e+01 1.002399999999999949e+02 3.312902999999999931e+00 -2.351855314539275932e-01
1.279000000000000057e+02 3.710000000000000142e+01 8.232699999999999818e+01 8.547727999999999327e+00 9.364337537479079654e-02
1.279099999999999966e+02 1.313400000000000034e+01 1.006200000000000045e+02 1.228270000000000017e+01 2.613627607550834675e-01
1.279099999999999966e+02 4.220100000000000051e+01 9.879500000000000171e+01 3.878217999999999677e+01 -2.303350699504724819e-01
1.279200000000000017e+02 1.663200000000000145e+01 7.734199999999999875e+01 -1.065442000000000000e+01 1.887249064287522815e-01
1.279300000000000068e+02 4.234499999999999886e+01 9.801699999999999591e+01 7.860735000000000028e+00 -2.303488011124529833e-01
1.279300000000000068e+02 4.255400000000000205e+01 9.728100000000000591e+01 -4.180092000000000141e+00 -2.302686573642186707e-01
1.279300000000000068e+02 6.527499999999999858e+00 8.381300000000000239e+01 3.331382000000000065e+00 1.861365729352148779e-01
1.279399999999999977e+02 5.027100000000000080e+01 9.498900000000000432e+01 -1.968327000000000027e+01 -2.200823722520577341e-01
1.279399999999999977e+02 4.380100000000000193e+01 9.647299999999999898e+01 -2.053068000000000026e+01 -2.284548223876575190e-01
1.279699999999999989e+02 3.355599999999999739e+01 7.593000000000000682e+01 -5.361385000000000289e+00 4.180105591944504456e-02
1.279699999999999989e+02 3.507600000000000051e+01 7.593000000000000682e+01 -9.270806999999999576e+00 4.229822553556804310e-02
1.279800000000000040e+02 3.846500000000000341e+01 8.382800000000000296e+01 -4.088994999999999713e+00 -1.677887512003298220e-02
1.279800000000000040e+02 5.687299999999999578e+00 8.614199999999999591e+01 -4.928068999999999811e+00 1.857025206599260403e-01
1.279899999999999949e+02 3.520700000000000074e+01 1.009000000000000057e+02 1.329800000000000004e+01 -2.367308830667594621e-01
1.279899999999999949e+02 3.520700000000000074e+01 1.017699999999999960e+02 2.863609999999999989e+00 -2.362589995491820027e-01
1.279899999999999949e+02 4.032000000000000028e+01 8.777500000000000568e+01 -5.081000000000000405e+00 2.014507439968832997e-02
1.279899999999999949e+02 4.558599999999999852e+01 9.394199999999999307e+01 -2.819375000000000142e+01 -2.257247985708535354e-01
1.279899999999999949e+02 1.942599999999999838e+01 7.561799999999999500e+01 -5.718013000000000012e+00 1.910823082487462243e-01
1.280000000000000000e+02 4.505899999999999750e+01 9.476699999999999591e+01 -1.879138999999999982e+01 -2.266057407088280518e-01
1.280000000000000000e+02 3.023400000000000176e+01 1.064399999999999977e+02 1.892846000000000029e+00 -2.369394472718679145e-01
1.280000000000000000e+02 4.135000000000000142e+01 1.004599999999999937e+02 1.291562000000000054e+01 -2.310886779912910138e-01
1.280099999999999909e+02 4.907800000000000296e+01 9.554300000000000637e+01 -9.343626000000000431e+00 -2.212295531360647660e-01
1.280099999999999909e+02 4.907800000000000296e+01 9.800300000000000011e+01 -2.006068000000000140e+01 -2.225583969150597419e-01
1.280099999999999909e+02 5.059799999999999898e+01 9.800300000000000011e+01 -5.650122000000000355e+01 -3.787066555017172265e-01
1.280200000000000102e+02 2.989699999999999847e+01 7.765500000000000114e+01 -1.357310999999999934e+00 2.022840004170013695e-01
1.280200000000000102e+02 1.450399999999999956e+01 7.797599999999999909e+01 -5.708955999999999698e+00 1.880856952913382840e-01
1.280300000000000011e+02 1.268500000000000050e+01 7.809900000000000375e+01 -7.473131999999999664e+00 1.879124687212475053e-01
1.280300000000000011e+02 3.881099999999999994e+01 1.017399999999999949e+02 3.687433999999999656e+01 -2.333461798823832645e-01
1.280300000000000011e+02 3.976899999999999835e+01 1.017399999999999949e+02 -1.603295999999999921e+01 -2.324521498093848337e-01
1.280300000000000011e+02 4.502700000000000102e+01 8.877599999999999625e+01 1.538480999999999987e+00 -2.445792695878179490e-01
1.280399999999999920e+02 2.571399999999999864e+01 1.046299999999999955e+02 -2.509307000000000087e+01 2.664479226683844071e-01
1.280500000000000114e+02 1.932700000000000173e+01 1.045100000000000051e+02 -1.397198000000000029e+01 2.620358545876050327e-01
1.280600000000000023e+02 1.130000000000000071e+01 9.709000000000000341e+01 7.775081000000000131e+00 2.631031500626198616e-01
1.280600000000000023e+02 3.305100000000000193e+01 1.063299999999999983e+02 6.306710000000000349e+01 -2.357676688295267942e-01
1.280600000000000023e+02 1.191900000000000048e+01 1.021700000000000017e+02 1.026926000000000005e+00 2.614955138079108621e-01
1.280600000000000023e+02 1.191900000000000048e+01 1.032199999999999989e+02 2.130376000000000047e+00 2.612959745592008942e-01
1.280600000000000023e+02 2.829700000000000060e+01 1.061299999999999955e+02 -5.960549999999999926e+01 2.092287177659868727e-02
1.280600000000000023e+02 1.524000000000000021e+01 7.786299999999999955e+01 -4.407417999999999836e+00 1.882410709980130992e-01
1.280699999999999932e+02 2.619699999999999918e+01 7.249099999999999966e+01 1.088945999999999970e+01 2.022189010309045076e-01
1.280800000000000125e+02 4.546900000000000119e+01 9.306900000000000261e+01 -1.106526000000000032e+01 -2.264651211649098828e-01
1.280800000000000125e+02 3.850500000000000256e+01 8.558700000000000330e+01 2.904768999999999934e+00 -1.857681791741796692e-02
1.280800000000000125e+02 3.862299999999999756e+01 8.473999999999999488e+01 -1.754567999999999905e+00 -1.656194390002280539e-02
1.280800000000000125e+02 3.871399999999999864e+01 8.632299999999999329e+01 -8.992972000000000188e-01 -1.156128108407739399e-02
1.280800000000000125e+02 2.699099999999999966e+01 1.053700000000000045e+02 -8.538512000000000768e+00 1.842028268067017263e-02
1.280999999999999943e+02 2.368100000000000094e+01 7.335899999999999466e+01 -2.086028000000000215e+00 1.971833807900941204e-01
1.280999999999999943e+02 2.975600000000000023e+01 1.062199999999999989e+02 -2.160820999999999970e+01 -2.372005980043949136e-01
1.280999999999999943e+02 2.431899999999999906e+01 1.052300000000000040e+02 -2.159097999999999828e+01 2.655973552223731549e-01
1.280999999999999943e+02 5.068099999999999739e+01 9.547599999999999909e+01 -3.185814999999999841e+01 -2.204346438061289548e-01
1.281100000000000136e+02 3.516799999999999926e+01 1.037999999999999972e+02 -4.571871999999999758e+01 -2.354331199583510892e-01
1.281100000000000136e+02 4.233599999999999852e+01 8.919100000000000250e+01 -7.458466999999999736e+00 5.401712025204909173e-02
1.281100000000000136e+02 3.573599999999999710e+01 8.038500000000000512e+01 4.299282999999999966e+00 1.150132891155052767e-01
1.281200000000000045e+02 2.915599999999999881e+01 7.735500000000000398e+01 -1.720990000000000020e+00 2.011530532251066261e-01
1.281200000000000045e+02 2.205199999999999960e+01 7.386899999999999977e+01 -1.673809999999999931e+01 1.947645943671613700e-01
1.281200000000000045e+02 4.563499999999999801e+01 9.200499999999999545e+01 -1.669194000000000067e+00 -2.268099748298172680e-01
1.281299999999999955e+02 4.501500000000000057e+01 8.968500000000000227e+01 -6.841903999999999764e-01 -2.318360348295490925e-01
1.281399999999999864e+02 7.864700000000000024e+00 8.104500000000000171e+01 5.101859000000000144e+00 1.868708128197695828e-01
1.281399999999999864e+02 3.426599999999999824e+01 1.048299999999999983e+02 8.647185999999999595e+00 -2.356163014584285731e-01
1.281500000000000057e+02 1.320700000000000074e+01 9.724699999999999989e+01 5.821738999999999997e+00 2.623789227800953916e-01
1.281500000000000057e+02 2.769900000000000162e+01 7.593300000000000693e+01 3.474839999999999929e+00 2.009025099740338050e-01
1.281500000000000057e+02 2.790800000000000125e+01 7.666899999999999693e+01 -2.531731999999999871e+00 1.998143638458740601e-01
1.281599999999999966e+02 8.723000000000000753e+00 9.598199999999999932e+01 9.087351999999999208e+00 2.642896798357017296e-01
1.281599999999999966e+02 3.146300000000000097e+01 1.067300000000000040e+02 2.651974999999999838e+01 -2.363725623739683090e-01
1.281699999999999875e+02 3.549699999999999989e+01 1.030400000000000063e+02 -3.216709999999999781e+01 -2.355202908557147978e-01
1.281699999999999875e+02 2.508899999999999864e+01 7.247599999999999909e+01 1.580857999999999919e+01 2.001825350948426840e-01
1.281800000000000068e+02 1.320899999999999963e+01 1.042099999999999937e+02 5.435670000000000002e+00 3.404815485633563843e-01
1.281899999999999977e+02 3.838499999999999801e+01 8.328199999999999648e+01 -5.144023999999999930e+00 -1.382658213240740494e-02
1.281899999999999977e+02 4.013700000000000045e+01 1.010300000000000011e+02 9.209142000000000161e-01 -2.323399880682471552e-01
1.281899999999999977e+02 4.321099999999999852e+01 8.909999999999999432e+01 -1.605994000000000099e+01 6.456089704128283036e-02
1.281899999999999977e+02 7.970699999999999896e+00 9.361299999999999955e+01 2.272099000000000046e+01 1.841676144572046425e-01
1.281999999999999886e+02 9.269999999999999574e+00 9.786499999999999488e+01 8.805552000000000490e+00 2.635027931023099512e-01
1.281999999999999886e+02 1.022799999999999976e+01 9.786499999999999488e+01 1.427088999999999999e+02 2.632154743302783095e-01
1.282100000000000080e+02 9.989000000000000767e+00 7.934900000000000375e+01 1.242238000000000042e+01 1.873960752427947241e-01
1.282100000000000080e+02 9.125999999999999446e+00 8.026500000000000057e+01 2.857851000000000141e+01 1.870810873577833378e-01
1.282199999999999989e+02 3.565100000000000335e+01 7.939499999999999602e+01 4.050745000000000040e+00 1.247338799196620884e-01
1.282199999999999989e+02 8.571999999999999176e+00 9.529999999999999716e+01 -1.884900000000000020e+00 2.645928957341251442e-01
1.282199999999999989e+02 3.798199999999999932e+01 8.250499999999999545e+01 -3.871179999999999843e+00 9.697613647062178210e-02
1.282299999999999898e+02 2.154599999999999937e+01 1.067099999999999937e+02 -3.559137999999999913e+00 2.644362112486293159e-01
1.282299999999999898e+02 2.259600000000000009e+01 1.067099999999999937e+02 3.143320000000000114e+00 2.650855718594148369e-01
1.282299999999999898e+02 1.846499999999999986e+01 1.036299999999999955e+02 -4.715677000000000341e+00 2.611333639586849165e-01
1.282299999999999898e+02 1.739300000000000068e+01 7.704099999999999682e+01 -6.462060000000000137e+00 1.892656857351895927e-01
1.282299999999999898e+02 1.858399999999999963e+01 7.637699999999999534e+01 -6.070904999999999774e+00 1.901708405863325457e-01
1.282299999999999898e+02 1.322899999999999920e+01 1.012199999999999989e+02 1.733968000000000131e+01 2.612567800067130963e-01
1.282400000000000091e+02 6.068599999999999994e+00 8.529099999999999682e+01 -1.650925999999999894e+00 1.859059904609627334e-01
1.282500000000000000e+02 3.564000000000000057e+01 1.002000000000000028e+02 1.323048000000000002e+01 -2.368766529806746457e-01
1.282500000000000000e+02 3.214000000000000057e+01 7.781999999999999318e+01 -3.609755999999999965e+00 2.082192482317392623e-01
1.282500000000000000e+02 1.414799999999999969e+01 1.003299999999999983e+02 6.703626000000000307e-01 2.611089973792900532e-01
1.282599999999999909e+02 3.554999999999999716e+01 7.857500000000000284e+01 -1.294576999999999956e+01 4.370285334700114988e-02
1.282700000000000102e+02 8.822599999999999554e+00 8.096500000000000341e+01 3.172781000000000162e+01 1.868696915896003174e-01
1.282700000000000102e+02 8.934100000000000819e+00 9.709000000000000341e+01 -8.728680999999999912e+00 2.638632498990149955e-01
1.282700000000000102e+02 1.056400000000000006e+01 9.709000000000000341e+01 1.325509000000000128e+02 2.633833092685763932e-01
1.282700000000000102e+02 2.119699999999999918e+01 7.383100000000000307e+01 -6.948273000000000366e+00 1.940626792997891259e-01
1.282700000000000102e+02 7.160599999999999632e+00 9.214000000000000057e+01 3.563104000000000049e+00 1.845043076603353205e-01
1.282700000000000102e+02 4.050900000000000034e+01 1.004699999999999989e+02 2.517921000000000120e+01 -2.321433978802830700e-01
1.282899999999999920e+02 4.389200000000000301e+01 8.927299999999999613e+01 -6.140323999999999671e+00 -2.484395581907659079e-01
1.282899999999999920e+02 2.251999999999999957e+01 7.393800000000000239e+01 -5.709538000000000224e+00 1.952515017783120477e-01
1.282899999999999920e+02 2.041199999999999903e+01 7.456199999999999761e+01 -1.056268000000000029e+01 1.927877632535789365e-01
1.283000000000000114e+02 4.289399999999999658e+00 8.718300000000000693e+01 -2.668082000000000065e+00 1.857628055243025489e-01
1.283000000000000114e+02 1.697899999999999920e+01 1.032300000000000040e+02 -4.626246999999999998e-02 3.401421360745107147e-01
1.283000000000000114e+02 1.784400000000000119e+01 1.032300000000000040e+02 -3.762970999999999844e+00 2.606282540694384031e-01
1.283000000000000114e+02 3.093400000000000105e+01 1.064899999999999949e+02 1.416826999999999970e+01 -2.366782276714027855e-01
1.283000000000000114e+02 4.860799999999999699e+01 9.630299999999999727e+01 -4.288616000000000206e+00 -2.224394400751869560e-01
1.283000000000000114e+02 4.860799999999999699e+01 9.724299999999999500e+01 -4.355793000000000248e+00 -2.228737134806837439e-01
1.283000000000000114e+02 5.106799999999999784e+01 9.630299999999999727e+01 -3.125869000000000142e+01 -2.210394827762319214e-01
1.283000000000000114e+02 5.106799999999999784e+01 9.724299999999999500e+01 -6.463415000000000532e+01 -2.215431119124545156e-01
1.283000000000000114e+02 7.467500000000000249e+00 8.182599999999999341e+01 1.761206999999999967e+00 1.867005073386243941e-01
1.283000000000000114e+02 1.396799999999999997e+01 1.044099999999999966e+02 3.170519999999999783e+00 3.404443687077972625e-01
1.283000000000000114e+02 1.501800000000000068e+01 1.044099999999999966e+02 5.164890999999999899e+00 3.403832337162199795e-01
1.283199999999999932e+02 1.565399999999999991e+01 1.040799999999999983e+02 6.750535000000000174e+00 3.403120073459199313e-01
1.283199999999999932e+02 1.404800000000000004e+01 1.010900000000000034e+02 2.394303999999999988e+00 2.609887627746092509e-01
1.283300000000000125e+02 1.173300000000000054e+01 9.639000000000000057e+01 3.840498999999999885e+00 2.632686163199322027e-01
1.283300000000000125e+02 5.935999999999999943e+00 9.059499999999999886e+01 4.587879000000000040e+00 1.849456761871021426e-01
1.283300000000000125e+02 3.679099999999999682e+01 9.996899999999999409e+01 -3.077885000000000204e+00 -2.360892751334457418e-01
1.283300000000000125e+02 3.798100000000000165e+01 1.006299999999999955e+02 1.104330999999999996e+01 -2.346519742602097836e-01
1.283400000000000034e+02 4.983800000000000097e+01 9.548000000000000398e+01 -1.612458000000000169e+01 -2.212403718421930010e-01
1.283400000000000034e+02 4.983800000000000097e+01 9.806600000000000250e+01 -5.854211000000000098e+01 -2.225562484132936059e-01
1.283400000000000034e+02 1.979700000000000060e+01 1.052699999999999960e+02 -1.184856000000000087e+01 2.627530874838815977e-01
1.283499999999999943e+02 4.128900000000000148e+01 1.000300000000000011e+02 -4.514751000000000403e+00 -2.314387443310081949e-01
1.283600000000000136e+02 4.397000000000000242e+00 9.001800000000000068e+01 7.548574000000000339e+00 1.852879193493030541e-01
1.283600000000000136e+02 4.304500000000000171e+01 9.688400000000000034e+01 -1.745240000000000080e+01 -2.299966741295769168e-01
1.283600000000000136e+02 2.701599999999999824e+01 7.299399999999999977e+01 5.416546999999999557e+00 2.034520594621733180e-01
1.283700000000000045e+02 3.461399999999999721e+01 1.020499999999999972e+02 2.122221999999999831e+00 -2.365826525134686054e-01
1.283799999999999955e+02 3.681300000000000239e+01 8.193200000000000216e+01 -2.210373999999999839e+00 9.911443654316542951e-02
1.283799999999999955e+02 1.080199999999999960e+01 9.634300000000000352e+01 2.170899000000000001e+01 2.635993368188201402e-01
1.283899999999999864e+02 1.118200000000000038e+01 7.909499999999999886e+01 1.212477999999999945e+00 1.875446886263167356e-01
1.284000000000000057e+02 4.432600000000000051e+01 9.602200000000000557e+01 -2.021988999999999947e+01 -2.281827746468022833e-01
1.284000000000000057e+02 3.064099999999999824e+01 7.782200000000000273e+01 -5.616864000000000301e-01 2.036899077770718824e-01
1.284000000000000057e+02 4.185000000000000142e+01 9.845300000000000296e+01 1.188918999999999926e+01 -2.312323367020399922e-01
1.284000000000000057e+02 4.088100000000000023e+01 8.849599999999999511e+01 1.229353000000000051e+01 3.153150459817651019e-02
1.284099999999999966e+02 3.925099999999999767e+01 8.677800000000000580e+01 -7.669797999999999893e-01 -1.062482296132512402e-04
1.284099999999999966e+02 3.831700000000000017e+01 1.010600000000000023e+02 2.383505999999999858e+01 -2.341744527420059341e-01
1.284199999999999875e+02 4.456900000000000261e+01 9.523099999999999454e+01 -9.406933000000000433e+00 -2.279952071524055379e-01
1.284199999999999875e+02 1.407199999999999918e+01 7.748499999999999943e+01 -5.803687000000000040e+00 1.884899312031751706e-01
1.284300000000000068e+02 7.553799999999999848e+00 9.286400000000000432e+01 6.081960999999999729e+00 1.843874607053972159e-01
1.284399999999999977e+02 3.269800000000000040e+01 7.709799999999999898e+01 -4.327548000000000172e+00 2.120657591587895574e-01
1.284399999999999977e+02 3.302300000000000324e+01 7.636100000000000421e+01 -5.303154000000000146e+00 2.152090127517446994e-01
1.284399999999999977e+02 3.431600000000000250e+01 7.564000000000000057e+01 -5.562841999999999842e+00 4.190035908674901582e-02
1.284399999999999977e+02 3.560900000000000176e+01 7.636100000000000421e+01 -3.775383999999999673e+01 4.280277441696099527e-02
1.284399999999999977e+02 3.583599999999999852e+01 7.715999999999999659e+01 -2.737766999999999840e+01 4.334248242091319481e-02
1.284499999999999886e+02 3.928999999999999915e+01 1.010400000000000063e+02 3.444469999999999743e+01 -2.332800846152568996e-01
1.284499999999999886e+02 4.828899999999999970e+00 8.637099999999999511e+01 -2.594136999999999915e+00 1.858830367735832823e-01
1.284499999999999886e+02 7.104300000000000281e+00 8.332999999999999829e+01 8.848095999999999961e+00 1.863398552051876989e-01
1.284600000000000080e+02 3.483899999999999864e+01 1.029000000000000057e+02 -1.346058000000000021e+01 -2.360600492989336219e-01
1.284600000000000080e+02 1.567300000000000004e+01 7.737199999999999989e+01 -3.838805999999999941e+00 1.887896608655823816e-01
1.284600000000000080e+02 3.443599999999999994e+01 1.038100000000000023e+02 -2.026415000000000077e+00 -2.359352055435932072e-01
1.284600000000000080e+02 8.390000000000000568e+00 8.189499999999999602e+01 1.527241000000000071e+01 1.866483267119734557e-01
1.284600000000000080e+02 7.348700000000000010e+00 8.248399999999999466e+01 6.185130000000000017e+00 1.865586452184122002e-01
1.284699999999999989e+02 2.501399999999999935e+01 1.049000000000000057e+02 -2.941216999999999970e+01 2.660467899949451320e-01
1.284799999999999898e+02 6.979899999999999771e+00 8.426099999999999568e+01 8.172276999999999347e+00 1.861098494570729567e-01
1.284900000000000091e+02 2.782700000000000173e+01 1.055999999999999943e+02 -3.054923000000000144e+01 1.947764827232113805e-02
1.285000000000000000e+02 4.466199999999999903e+01 9.426699999999999591e+01 -2.077479999999999993e+00 -2.283038399053817780e-01
1.285000000000000000e+02 9.749000000000000554e+00 9.709000000000000341e+01 7.171612000000000364e+01 2.636725869651655452e-01
1.285099999999999909e+02 2.646799999999999997e+01 1.048799999999999955e+02 -1.347734999999999950e+01 2.672913054188217896e-01
1.285099999999999909e+02 1.068900000000000006e+01 7.929099999999999682e+01 2.167701000000000100e+00 1.875035991609156905e-01
1.285399999999999920e+02 3.227600000000000335e+01 1.066200000000000045e+02 6.109098999999999791e+01 -2.360997820374453882e-01
1.285399999999999920e+02 3.359499999999999886e+01 1.058900000000000006e+02 4.632424000000000319e+01 -2.356973489146945711e-01
1.285399999999999920e+02 3.392300000000000182e+01 1.051400000000000006e+02 4.012751000000000090e+01 -2.357626874511763726e-01
1.285399999999999920e+02 6.727999999999999758e+00 9.143999999999999773e+01 3.106469999999999843e+00 1.847412460089582209e-01
1.285500000000000114e+02 2.876599999999999824e+01 1.057000000000000028e+02 -7.645596000000000458e+01 2.075487201716175178e-02
1.285500000000000114e+02 7.494399999999999729e+00 8.414499999999999602e+01 1.628690999999999889e+01 1.860993501925094495e-01
1.285500000000000114e+02 8.501599999999999824e+00 8.251500000000000057e+01 1.606356999999999857e+01 1.864689757139970094e-01
1.285600000000000023e+02 9.826000000000000512e+00 9.637199999999999989e+01 3.385813000000000272e+01 2.639150159914916971e-01
1.285600000000000023e+02 2.419900000000000162e+01 7.291700000000000159e+01 4.890341000000000271e-01 1.984415143830169925e-01
1.285699999999999932e+02 4.507200000000000273e+01 9.158599999999999852e+01 2.840752000000000166e+00 -2.295374607377488885e-01
1.285699999999999932e+02 4.507200000000000273e+01 9.263599999999999568e+01 5.148928999999999867e+00 -2.285359578080134457e-01
1.285699999999999932e+02 4.507200000000000273e+01 9.350199999999999534e+01 -2.084306999999999910e+00 -2.279529274178803688e-01
1.285800000000000125e+02 1.398600000000000065e+01 9.836599999999999966e+01 -2.027015000000000067e-01 2.617993817385494415e-01
1.285800000000000125e+02 3.965599999999999881e+01 8.744899999999999807e+01 -2.761588000000000154e+00 1.003203917823068322e-02
1.285800000000000125e+02 2.839900000000000091e+01 7.706499999999999773e+01 -6.024485000000000312e+00 2.000691850127061522e-01
1.285800000000000125e+02 4.077600000000000335e+01 9.990500000000000114e+01 1.137821999999999889e+00 -2.321709300139452314e-01
1.285900000000000034e+02 1.276900000000000013e+01 1.018499999999999943e+02 3.619927000000000117e+00 2.613652406005466111e-01
1.285900000000000034e+02 1.276900000000000013e+01 1.035499999999999972e+02 7.537460000000000271e+00 2.610460169551947485e-01
1.285900000000000034e+02 1.381900000000000084e+01 1.018499999999999943e+02 5.822239999999999860e+00 2.609768726724214227e-01
1.285900000000000034e+02 1.110599999999999987e+01 9.558799999999999386e+01 1.279679999999999929e+01 2.638389167555882375e-01
1.285900000000000034e+02 4.156199999999999761e+01 8.921399999999999864e+01 1.238698000000000077e+00 4.216454108001845696e-02
1.285900000000000034e+02 2.321999999999999886e+01 7.387999999999999545e+01 -3.725759000000000043e+00 1.962161128811295840e-01
1.286100000000000136e+02 2.005499999999999972e+01 7.503400000000000603e+01 -5.377388999999999974e+00 1.922681531576319047e-01
1.286100000000000136e+02 7.975500000000000256e+00 8.259499999999999886e+01 1.155125999999999920e+01 1.865100313974447088e-01
1.286100000000000136e+02 1.536700000000000088e+01 1.010600000000000023e+02 7.404726999999999837e-01 2.605254059136823952e-01
1.286200000000000045e+02 3.887500000000000000e+01 8.375100000000000477e+01 -8.465493000000000379e+00 -7.335191614316961470e-03
1.286299999999999955e+02 4.461899999999999977e+01 9.011799999999999500e+01 -2.524618999999999946e+00 -2.331147596389702981e-01
1.286299999999999955e+02 1.487400000000000055e+01 1.017999999999999972e+02 4.301484000000000384e-03 2.605826091294400348e-01
1.286299999999999955e+02 4.489300000000000068e+01 9.095900000000000318e+01 -3.774043000000000259e-01 -2.309273627057583378e-01
1.286399999999999864e+02 2.775499999999999901e+01 7.535299999999999443e+01 7.585919999999999774e+00 2.020502591500819844e-01
1.286399999999999864e+02 3.638000000000000256e+01 8.123199999999999932e+01 -2.768619000000000163e+00 1.067864633602037677e-01
1.286500000000000057e+02 4.244800000000000040e+01 9.766899999999999693e+01 6.579895000000000049e-01 -2.308536044406378773e-01
1.286500000000000057e+02 4.380199999999999960e+01 9.680100000000000193e+01 -1.605592000000000041e+01 -2.291060671017042805e-01
1.286599999999999966e+02 1.240000000000000036e+01 1.027000000000000028e+02 3.454978000000000105e+00 2.613395194151694190e-01
1.286599999999999966e+02 2.748100000000000165e+01 1.048700000000000045e+02 -4.878056000000000125e+01 1.805977062833674998e-02
