-1.489499999999999957e+01 -3.029599999999999937e+01 -1.745700000000000074e+01 3.038572999999999968e-01 -8.888754998025233389e-02
-1.489300000000000068e+01 -3.745799999999999841e+01 -1.423499999999999943e+01 -2.737492999999999732e-01 -8.921690043444915896e-02
-1.489100000000000001e+01 -4.390999999999999903e-01 -2.338299999999999912e+01 1.019224999999999959e+01 -1.578480313918118605e-01
-1.489000000000000057e+01 -1.561800000000000033e+01 -1.103899999999999970e+01 2.571894999999999953e+01 -8.724950897165495434e-02
-1.488799999999999990e+01 -6.088499999999999801e+00 -1.151800000000000068e+01 9.957437999999999789e+00 -1.819270527084528855e-01
-1.488100000000000023e+01 -1.476600000000000001e+01 1.778000000000000114e+01 2.275591000000000008e+01 -1.746523681203244194e-01
-1.487899999999999956e+01 -6.308799999999999741e+00 -2.790800000000000125e+01 -1.949461999999999862e-01 2.384852461710565766e-02
-1.487700000000000067e+01 -1.648799999999999955e+01 1.909100000000000108e+01 1.471494999999999997e+01 -1.747782316599248986e-01
-1.487500000000000000e+01 6.435500000000000220e+00 -2.425600000000000023e+01 5.407755000000000223e+01 -3.638565259054926671e-01
-1.486999999999999922e+01 6.479000000000000092e+00 -3.416599999999999682e+01 6.157109000000000165e+00 -3.824164185983623954e-01
-1.486800000000000033e+01 -2.011499999999999844e+01 -1.341499999999999915e+01 8.462548999999999211e+00 -8.779695807141926767e-02
-1.486800000000000033e+01 -1.871499999999999986e+01 -1.341499999999999915e+01 2.681276000000000082e+01 -8.760512134556079633e-02
-1.486299999999999955e+01 -4.913899999999999935e+00 -2.693100000000000094e+01 4.006386000000000003e+00 2.536404506182637908e-02
-1.486200000000000010e+01 -2.436199999999999832e+01 2.146600000000000108e+01 1.009308000000000050e+01 -1.752146367392269921e-01
-1.485599999999999987e+01 1.282000000000000028e+01 -9.891999999999999460e+00 1.076042999999999950e+01 -1.696211951825326580e-01
-1.485200000000000031e+01 6.290300000000000225e+00 -1.758699999999999974e+01 3.067671999999999954e+01 -3.632991451639451252e-01
-1.484800000000000075e+01 -1.277299999999999969e+01 -7.913700000000000401e+00 1.132811000000000057e+01 -1.734270317020799590e-01
-1.484800000000000075e+01 -2.689399999999999835e+01 2.249500000000000099e+01 6.230522999999999811e+00 -1.752925414208728883e-01
-1.484500000000000064e+01 -1.589899999999999913e+01 1.853800000000000026e+01 8.542614000000000374e+00 -1.747358573484220079e-01
-1.484500000000000064e+01 -7.014999999999999680e+00 -2.795700000000000074e+01 6.608424000000000298e+00 2.363628239201389508e-02
-1.484200000000000053e+01 -1.842999999999999972e+00 -2.552599999999999980e+01 1.148103000000000096e+00 2.749293141786855396e-02
-1.484200000000000053e+01 -1.616000000000000103e+00 -2.632499999999999929e+01 -4.008619000000000376e+00 2.665267752297050333e-02
-1.484200000000000053e+01 -1.616000000000000103e+00 -2.472700000000000031e+01 -1.000460999999999956e+01 2.829699379223769157e-02
-1.484099999999999930e+01 -4.107399999999999807e+01 -4.451500000000000234e+00 -7.810074000000000183e+00 -8.926819584018155784e-02
-1.484099999999999930e+01 -3.836800000000000210e+01 -4.788900000000000101e-02 -1.490160000000000018e+01 -8.917491691854624591e-02
-1.484099999999999930e+01 -3.707500000000000284e+01 6.730000000000000426e-01 -1.601239999999999952e+01 -1.763106332035620227e-01
-1.484099999999999930e+01 -3.553999999999999915e+01 2.368999999999999995e-01 -1.446953000000000067e+01 -1.763167942060385740e-01
-1.484099999999999930e+01 -3.453699999999999903e+01 -1.551299999999999990e+01 1.594186000000000014e+01 -8.909941971592033605e-02
-1.483999999999999986e+01 -5.241399999999999615e+00 -9.746600000000000819e+00 5.126992000000000438e+00 -1.809347671769340193e-01
-1.483900000000000041e+01 -3.168499999999999872e+01 -1.654799999999999827e+01 2.176629000000000147e+00 -8.895674528589932184e-02
-1.483699999999999974e+01 -5.086999999999999744e+00 -2.548699999999999832e+01 1.389535000000000053e+01 2.695272450539012987e-02
-1.483600000000000030e+01 -7.855000000000000426e+00 -1.451299999999999990e+01 -1.670585000000000164e+01 -1.843938891229305876e-01
-1.483500000000000085e+01 -1.191200000000000081e+01 -2.205999999999999872e+01 5.044086000000000070e+00 -1.096102568382859022e-02
-1.483399999999999963e+01 -4.076100000000000279e+01 -9.608399999999999608e+00 1.941821999999999937e+00 -8.928897588988246592e-02
-1.482799999999999940e+01 3.937300000000000022e+00 -3.457999999999999829e+01 -6.315169999999999950e-01 -3.831263242637556465e-01
-1.482600000000000051e+01 -1.462599999999999945e+01 -1.851500000000000057e+01 1.565118999999999971e+01 -8.771601033051594498e-02
-1.482499999999999929e+01 -1.175099999999999945e+01 -7.834299999999999820e+00 4.537015999999999827e-01 -1.730504588118444154e-01
-1.482499999999999929e+01 -1.595899999999999963e+01 -1.696099999999999852e+01 1.425351000000000035e+01 -1.878458186232500882e-01
-1.482399999999999984e+01 1.012800000000000011e+01 -1.480300000000000082e+01 1.635777000000000037e+00 -3.623267512765454557e-01
-1.482399999999999984e+01 -1.115099999999999980e+01 1.074399999999999977e+01 7.743088000000000193e+00 -1.742368481550057580e-01
-1.482300000000000040e+01 -2.412500000000000089e+00 7.888700000000000045e+00 -1.106146000000000029e+01 -1.726617799658736740e-01
-1.482000000000000028e+01 -3.044699999999999918e+01 1.927799999999999869e+01 1.364756000000000036e+01 -1.755285288146056222e-01
-1.482000000000000028e+01 -1.006499999999999950e+01 -1.435599999999999987e+01 8.079627999999999588e+00 -1.850504084989907372e-01
-1.481499999999999950e+01 8.247999999999999332e+00 -1.518400000000000027e-01 -7.568615999999999566e+00 -3.770479641745085320e-01
-1.481199999999999939e+01 7.616500000000000270e+00 -2.509400000000000119e+01 -1.792144000000000048e+01 -3.636788596438388366e-01
-1.480700000000000038e+01 -1.343099999999999961e+00 6.421299999999999564e+00 -1.444336999999999982e+00 -2.783456580337789754e-01
-1.480499999999999972e+01 3.223500000000000032e+00 1.113699999999999912e+00 6.998827000000000353e+00 -2.994715623316497877e-01
-1.480499999999999972e+01 -5.890499999999999625e-01 4.031699999999999839e+00 1.593824000000000041e+01 -2.781382021584326014e-01
-1.480400000000000027e+01 -4.063700000000000045e+01 -1.053899999999999970e+01 4.139495000000000258e-01 -8.929281835035743353e-02
-1.480300000000000082e+01 -1.119999999999999929e+01 9.179100000000000037e+00 5.397539000000000087e+00 -1.742096263384979582e-01
-1.480000000000000071e+01 -5.243299999999999628e+00 -2.769099999999999895e+01 -3.660692999999999864e-01 2.433333710025965130e-02
-1.479700000000000060e+01 -8.473399999999999821e+00 -2.716000000000000014e+01 1.908327000000000107e+00 2.423883821697747284e-02
-1.479499999999999993e+01 -1.224000000000000021e+01 -2.530499999999999972e+01 9.241348000000000340e+00 -1.755995191452289564e-02
-1.479299999999999926e+01 -1.428700000000000081e+00 4.258099999999999774e+00 1.108472000000000079e+01 -2.785590906724818572e-01
-1.479299999999999926e+01 -3.207600000000000051e+01 -1.564600000000000080e+01 -2.273515000000000175e+00 -8.896147138440743674e-02
-1.479100000000000037e+01 -3.182300000000000040e+01 1.846300000000000097e+01 3.678954000000000057e+00 -1.755960382480755422e-01
-1.478400000000000070e+01 -3.325399999999999778e+01 -1.476900000000000013e+01 -1.382666999999999924e-01 -8.901518299050745209e-02
-1.477999999999999936e+01 1.817099999999999937e+00 -2.996000000000000085e+01 2.940784999999999982e+00 -7.663257877111402661e-02
-1.477999999999999936e+01 -1.040799999999999947e+01 1.539799999999999969e+01 1.381840000000000046e+01 -1.742026744393347926e-01
-1.477999999999999936e+01 1.216300000000000026e+01 -8.297000000000000597e+00 1.303776000000000046e+01 -1.710868611508540305e-01
-1.477999999999999936e+01 1.237199999999999989e+01 -9.032999999999999474e+00 8.648241000000000511e+00 -1.702960137148573083e-01
-1.477999999999999936e+01 1.237199999999999989e+01 -7.560900000000000176e+00 1.142289000000000065e+01 -1.723642749983055888e-01
-1.477999999999999936e+01 -1.125200000000000067e+01 9.923899999999999721e+00 5.099235000000000184e+00 -1.742291445615331003e-01
-1.477599999999999980e+01 4.846899999999999764e+00 -1.872500000000000142e+01 1.190370000000000061e+01 -3.636200030938859795e-01
-1.476999999999999957e+01 -7.537599999999999856e-02 -3.562399999999999789e+00 2.521202999999999861e+00 -2.783189570410463110e-01
-1.476699999999999946e+01 -1.197300000000000031e+00 -2.105199999999999960e+01 -3.618659000000000070e+00 -1.871940229456925675e-01
-1.476699999999999946e+01 2.738900000000000112e+00 -3.104500000000000171e+01 -1.186587000000000058e+00 -7.226829025177466947e-02
-1.475600000000000023e+01 -4.212500000000000355e+00 -9.124000000000000554e+00 4.096767999999999965e+00 -1.804354672273658644e-01
-1.475399999999999956e+01 -2.325900000000000034e+01 2.111799999999999855e+01 1.455874000000000024e+01 -1.751593770330352462e-01
-1.475399999999999956e+01 -7.563699999999999868e+00 -3.955799999999999983e+00 5.365243999999999680e+00 -1.721847279266001951e-01
-1.475099999999999945e+01 -1.775300000000000100e+00 -2.117000000000000171e+01 -1.985773999999999972e+01 -1.877082694841631649e-01
-1.474799999999999933e+01 -5.568599999999999994e+00 -3.617100000000000204e+00 2.678723000000000187e+00 -1.715604760946087548e-01
-1.474499999999999922e+01 -1.023499999999999943e+01 1.642699999999999960e+01 9.777443999999999136e+00 -1.741899605252384131e-01
-1.474399999999999977e+01 7.528500000000000192e+00 -1.560800000000000054e+01 7.947538999999999909e+00 -3.629421833938898945e-01
-1.473499999999999943e+01 -2.922000000000000153e+00 -7.915700000000000180e+00 5.750657999999999603e+00 -1.691474239364735010e-01
-1.473499999999999943e+01 -1.048499999999999943e+01 -7.200700000000000323e+00 2.453110000000000124e+00 -1.726423408938349557e-01
-1.473300000000000054e+01 -4.026800000000000068e+01 -1.138899999999999935e+01 7.727136999999999478e-01 -8.928720855435773318e-02
-1.473300000000000054e+01 -3.921800000000000352e+01 -1.138899999999999935e+01 1.363410999999999929e+00 -8.924821641641536574e-02
-1.473099999999999987e+01 -1.072300000000000075e+01 1.159200000000000053e+01 1.241501000000000055e+01 -1.741805336754338740e-01
-1.473099999999999987e+01 -2.329899999999999860e+00 -2.180999999999999872e+01 -2.217477999999999838e+01 -9.056497629570554875e-02
-1.473099999999999987e+01 -6.465100000000000013e-02 -2.267500000000000071e+01 2.238261999999999929e+01 -1.554625342198891480e-01
-1.473099999999999987e+01 -6.465100000000000013e-02 -2.180999999999999872e+01 1.809125999999999834e+01 -2.523659246221306440e-01
-1.473099999999999987e+01 6.689799999999999969e+00 -1.690200000000000102e+01 5.341796000000000433e+00 -3.631644717673001566e-01
-1.472400000000000020e+01 -1.111400000000000077e+01 1.815200000000000102e+01 1.634985999999999962e+01 -1.742898506401082404e-01
-1.472300000000000075e+01 -1.336599999999999966e+01 -7.924100000000000144e+00 1.917937999999999832e+01 -1.735955831098286162e-01
-1.472300000000000075e+01 1.773000000000000131e-01 6.243000000000000327e+00 1.090464000000000055e+01 -2.776306553712311609e-01
-1.472100000000000009e+01 -3.874699999999999989e+01 -5.316300000000000470e-01 -4.906732999999999789e-01 -8.918492199454175484e-02
-1.471599999999999930e+01 -9.783099999999999241e+00 7.949399999999999800e+00 2.717556000000000083e+00 -1.739368844637180500e-01
-1.471499999999999986e+01 -7.050699999999999967e+00 -1.390000000000000036e+01 -3.127955000000000041e+00 -1.837066501573972610e-01
-1.471400000000000041e+01 -3.628199999999999648e+01 -1.557300000000000040e+01 1.188563999999999954e+00 -8.918306530876289606e-02
-1.471299999999999919e+01 -3.786299999999999955e+01 -1.345800000000000018e+01 5.075427000000000355e+00 -8.921902294180439341e-02
-1.471199999999999974e+01 1.076600000000000001e+00 6.257799999999999585e+00 1.361378000000000021e+01 -2.771969106845866837e-01
-1.471000000000000085e+01 3.827999999999999847e+00 2.508000000000000229e-01 7.840228999999999893e+00 -2.985565321206202216e-01
-1.470899999999999963e+01 5.580199999999999605e+00 -2.201399999999999935e+01 -3.474152000000000129e+00 -3.637616958889897667e-01
-1.470800000000000018e+01 -1.283500000000000085e+01 1.802400000000000091e+01 1.078247000000000000e+01 -1.744542456018475796e-01
-1.470700000000000074e+01 -1.318699999999999939e+01 -1.866600000000000037e+01 6.564644999999999619e+00 -8.776840151234933940e-02
-1.470599999999999952e+01 5.165399999999999991e+00 -2.350400000000000134e+01 -2.799976000000000020e+00 -3.639536117446741104e-01
-1.470599999999999952e+01 5.165399999999999991e+00 -2.263899999999999935e+01 -6.035777999999999643e+00 -3.638811489661679666e-01
-1.470299999999999940e+01 1.248399999999999999e+01 -3.533900000000000041e+00 9.308790000000000120e+00 -1.764845736969787304e-01
-1.469899999999999984e+01 -3.429399999999999693e+01 1.007900000000000018e+00 1.031668999999999947e+01 -1.762628770579373894e-01
-1.469599999999999973e+01 -2.878000000000000114e+01 -1.767200000000000060e+01 5.845148000000000010e-01 -8.877869108106581364e-02
-1.469599999999999973e+01 -2.707999999999999829e+01 -1.767200000000000060e+01 3.501098999999999961e+00 -8.863879785048016380e-02
-1.469599999999999973e+01 -3.072899999999999920e+01 5.309899999999999842e+00 4.858876000000000417e+00 -1.760472520073131097e-01
-1.469400000000000084e+01 -4.223599999999999710e+01 -6.565699999999999648e+00 5.210261000000000475e-01 -8.931279755188759051e-02
-1.469400000000000084e+01 -4.223599999999999710e+01 -5.626299999999999635e+00 5.269882999999999651e-01 -8.930762492952559750e-02
-1.469299999999999962e+01 1.194699999999999918e+01 -1.397600000000000087e+01 2.064050999999999902e+01 -3.619157167124808505e-01
-1.468800000000000061e+01 1.334999999999999964e+01 -4.727199999999999847e+00 3.369693000000000183e+01 -1.765099015660867299e-01
-1.468699999999999939e+01 -1.449900000000000055e+01 -8.682399999999999451e+00 3.811341000000000179e+01 -1.738735504636273466e-01
-1.467399999999999949e+01 -1.102200000000000024e+01 1.246599999999999930e+01 2.308615999999999957e+01 -1.742258541173822284e-01
-1.467399999999999949e+01 -1.102200000000000024e+01 1.333099999999999952e+01 2.271876999999999924e+01 -1.742375089800513310e-01
-1.467399999999999949e+01 -3.231499999999999773e+01 1.428299999999999947e+01 1.970120000000000093e+00 -1.757530568448860131e-01
-1.467399999999999949e+01 -4.518500000000000405e+00 -2.589799999999999880e+00 7.542639999999999567e+00 -1.714392502690787468e-01
-1.467300000000000004e+01 -8.593500000000000583e+00 8.051999999999999602e+00 -1.837493999999999961e+00 -1.737365130620664444e-01
-1.467200000000000060e+01 -2.941600000000000037e+01 2.147400000000000020e+01 8.797926999999999609e+00 -1.754045037262746409e-01
-1.467099999999999937e+01 -1.205400000000000027e+01 -1.942500000000000071e+01 3.879802999999999891e+00 -8.806701416921695891e-02
-1.466999999999999993e+01 -3.151899999999999835e+01 9.260300000000000864e+00 7.396460000000000257e+00 -1.759211830746522931e-01
-1.466999999999999993e+01 -6.439499999999999780e+00 8.298400000000000887e+00 6.900398000000000032e+00 -1.733831406207758108e-01
-1.466900000000000048e+01 6.415300000000000225e+00 1.980000000000000093e-01 -4.786265999999999821e+01 -3.771122252436936995e-01
-1.466600000000000037e+01 -6.737000000000000099e+00 -3.959900000000000198e+00 -7.409514000000000378e-01 -1.718750452298093978e-01
-1.466300000000000026e+01 8.560299999999999798e+00 -1.473399999999999999e+01 7.174750000000000405e+00 -3.626984763016701807e-01
-1.466000000000000014e+01 3.232400000000000273e-01 -5.093799999999999883e+00 3.268874999999999975e+00 -2.780374846149551438e-01
-1.465799999999999947e+01 9.781100000000000350e+00 -2.670300000000000118e+00 1.183036000000000065e+01 -1.746853577843249794e-01
-1.465799999999999947e+01 -3.818200000000000216e+01 -1.144699999999999918e+01 8.383296000000000081e-01 -8.920632513213649917e-02
-1.465600000000000058e+01 -6.563100000000000378e+00 -1.370700000000000074e+01 -4.941586000000000034e+00 -1.834118668054924295e-01
-1.465499999999999936e+01 -2.199399999999999977e+01 -1.462700000000000067e+01 -5.532109000000000165e+00 -8.804146994839276430e-02
-1.465000000000000036e+01 -7.957800000000000429e-01 2.181000000000000050e+00 4.505960999999999927e+01 -2.783586950328812426e-01
-1.465000000000000036e+01 -1.164799999999999969e+01 -2.127700000000000102e+01 -1.333469999999999933e+00 -8.890133694246304952e-02
-1.464600000000000080e+01 -1.710000000000000131e-01 -2.934799999999999898e+01 7.056899999999999729e+00 2.429736909341848397e-02
-1.464300000000000068e+01 -2.564000000000000057e+00 -2.477700000000000014e+00 -5.415713000000000221e+00 -1.708461004628768487e-01
-1.463499999999999979e+01 1.323399999999999999e+01 -6.500700000000000145e+00 1.526623000000000019e+01 -1.747130109589888902e-01
-1.463499999999999979e+01 1.348799999999999955e+01 -5.607000000000000206e+00 1.010488999999999926e+01 -1.759102217478864250e-01
-1.463499999999999979e+01 -3.169200000000000017e+01 8.231400000000000716e+00 7.351220999999999783e+00 -1.759598705057755230e-01
-1.463400000000000034e+01 -2.031300000000000050e-01 5.328000000000000291e+00 1.131897000000000020e+01 -2.778429675571829627e-01
-1.463000000000000078e+01 -2.976399999999999935e+01 2.061100000000000065e+01 3.055207999999999924e+00 -1.754420332756289058e-01
-1.462800000000000011e+01 -3.119300000000000139e+01 6.411200000000000010e+00 3.830007999999999857e+00 -1.760115532365627289e-01
-1.462599999999999945e+01 5.168700000000000294e+00 -5.109599999999999698e-01 -1.676237000000000066e+01 -3.771990547604495703e-01
-1.462199999999999989e+01 -6.964599999999999902e+00 9.586199999999999832e+00 1.170525000000000038e+00 -1.735413622772294107e-01
-1.461800000000000033e+01 -1.812999999999999945e+00 2.329099999999999948e+00 4.422352999999999668e+01 -2.789230956619677682e-01
-1.461599999999999966e+01 1.129599999999999937e+01 -3.039899999999999824e+00 9.073066000000000741e+00 -1.756749895005008666e-01
-1.461500000000000021e+01 4.943100000000000271e+00 2.580099999999999838e+00 2.851391999999999882e+01 -3.770548858133683234e-01
-1.461500000000000021e+01 -8.290100000000000691e+00 8.752000000000000668e+00 -1.132560000000000011e+00 -1.737113887341631135e-01
-1.460800000000000054e+01 -2.944999999999999840e+00 -2.219800000000000040e+01 -9.769994000000000511e+00 -9.072588227198853661e-02
-1.460699999999999932e+01 -3.060999999999999943e+01 1.172799999999999976e+01 7.866098000000000257e-01 -1.757923993873682089e-01
-1.460699999999999932e+01 -3.060999999999999943e+01 1.259299999999999997e+01 -1.413275999999999932e+01 -1.757597346818295936e-01
-1.460399999999999920e+01 -1.164799999999999969e+01 -2.598400000000000176e+01 8.243574999999999875e+00 2.461354552120587763e-02
-1.460200000000000031e+01 -1.183500000000000085e+01 -2.019800000000000040e+01 -1.991551000000000071e+00 -8.841283477699121707e-02
-1.460200000000000031e+01 -8.490600000000000369e-01 -7.858200000000000074e+00 2.318245000000000111e+00 -2.794237873611389311e-01
-1.459900000000000020e+01 -3.787899999999999778e+01 -1.214700000000000024e+01 3.985186999999999813e+00 -8.920058252446354252e-02
-1.459699999999999953e+01 -2.169000000000000128e+01 -1.392699999999999960e+01 -3.551836000000000126e+01 -8.800180821775305251e-02
-1.458799999999999919e+01 -2.585500000000000043e+01 -1.655499999999999972e+01 4.713420000000000165e+00 -8.849562399759862419e-02
-1.458799999999999919e+01 -2.498900000000000077e+01 -1.655499999999999972e+01 7.209183000000000341e+00 -8.841008037818570697e-02
-1.458500000000000085e+01 -1.965000000000000080e+00 3.877299999999999969e+00 1.124046000000000056e+01 -1.720168579466238579e-01
-1.458300000000000018e+01 5.606099999999999639e+00 -2.010800000000000054e+01 -2.858872999999999998e+00 -3.635692140923996174e-01
-1.457699999999999996e+01 -1.546599999999999930e+01 1.783800000000000097e+01 1.582479999999999976e+01 -1.746790295356609457e-01
-1.457699999999999996e+01 -1.314499999999999957e+01 -2.385099999999999909e+01 5.659863999999999784e+00 -1.467558699825687041e-02
-1.457499999999999929e+01 5.732499999999999929e+00 -2.128600000000000136e+01 -1.112777999999999956e+01 -3.636441334942467352e-01
-1.456700000000000017e+01 4.110899999999999999e+00 -1.872500000000000142e+01 2.261482000000000170e+01 -3.636912047606384313e-01
-1.456600000000000072e+01 -3.238400000000000034e+01 1.781599999999999895e+01 3.763581999999999983e+00 -1.756135303314562413e-01
-1.456400000000000006e+01 8.288299999999999557e+00 -2.745299999999999940e+01 6.349731000000000236e+00 -2.464742517189905668e-01
-1.456400000000000006e+01 8.288299999999999557e+00 -2.640299999999999869e+01 -1.094725000000000037e+01 -2.447507165894951819e-01
-1.455899999999999928e+01 -2.390299999999999869e+01 -1.739199999999999946e+01 4.934919999999999973e+00 -8.831757291021966050e-02
-1.455799999999999983e+01 4.429299999999999571e+00 2.263700000000000045e+00 1.795767000000000024e+01 -3.770859815814731064e-01
-1.455599999999999916e+01 -3.980799999999999983e+01 -1.589900000000000091e+00 8.839646000000000114e+00 -8.921688954700904284e-02
-1.455300000000000082e+01 5.150299999999999656e+00 -1.948499999999999943e+01 5.190235000000000376e+00 -3.635935032814837098e-01
-1.455199999999999960e+01 -7.960700000000000109e+00 9.512000000000000455e+00 1.228595000000000104e+00 -1.736855646995358327e-01
-1.454800000000000004e+01 -5.930399999999999672e+00 -1.095599999999999952e+01 9.014283000000000712e+00 -1.817751603816850081e-01
-1.454800000000000004e+01 -1.461100000000000065e+01 -2.654700000000000060e+01 3.088067999999999813e+00 -1.959546899811210122e-02
-1.454700000000000060e+01 -1.021600000000000064e+00 4.847999999999999865e+00 1.040598999999999918e+01 -2.782678357688718185e-01
-1.454499999999999993e+01 -5.241600000000000037e+00 7.225299999999999834e+00 -4.117473000000000383e+00 -1.730693836208036518e-01
-1.454499999999999993e+01 7.004299999999999748e+00 -3.331600000000000250e+01 4.306152000000000157e+01 -3.826304206673727393e-01
-1.453800000000000026e+01 -2.495799999999999841e+01 2.143799999999999883e+01 4.436035999999999646e+00 -1.752139462660121105e-01
-1.453700000000000081e+01 -2.170700000000000074e+01 2.055399999999999849e+01 -2.207564000000000082e+00 -1.750683119593642867e-01
-1.453599999999999959e+01 -2.016000000000000014e+01 2.010999999999999943e+01 -3.127423999999999982e+00 -1.749845942379278929e-01
-1.453299999999999947e+01 -1.013599999999999923e+01 1.706400000000000006e+01 3.790348000000000050e-01 -1.741616750231509692e-01
-1.453200000000000003e+01 -8.554999999999999716e+00 -1.457099999999999973e+01 -6.785574999999999690e+00 -1.847815246145289303e-01
-1.452899999999999991e+01 -3.312899999999999778e+01 2.786300000000000221e+00 1.528231000000000073e+01 -1.761659969901073208e-01
-1.452899999999999991e+01 -1.564699999999999980e-01 3.215399999999999814e+00 2.370908999999999978e+01 -2.779076653775122141e-01
-1.452699999999999925e+01 -2.268400000000000194e+00 3.177299999999999791e+00 7.459304000000000379e+00 -1.719613748399614062e-01
-1.452399999999999913e+01 -3.106400000000000006e+01 1.326999999999999957e+01 -1.689183999999999841e+01 -1.757390279629907903e-01
-1.451600000000000001e+01 -1.693700000000000117e+01 -1.467999999999999972e+01 1.341244000000000014e+01 -1.865792294024903597e-01
-1.451299999999999990e+01 5.820100000000000273e-01 4.333000000000000185e+00 2.352985999999999933e+01 -2.774604620331679872e-01
-1.450900000000000034e+01 4.414299999999999891e+00 -1.942500000000000071e+01 1.879393999999999920e+01 -3.636923830844447370e-01
-1.450799999999999912e+01 -1.733800000000000097e+01 1.916199999999999903e+01 -1.270990999999999982e+00 -1.748037595440756764e-01
-1.450799999999999912e+01 -1.523700000000000010e+01 -1.308600000000000030e+01 6.283165999999999940e+01 -1.855222251437874392e-01
-1.450200000000000067e+01 -1.301399999999999935e+01 -2.322899999999999920e+01 4.970105000000000217e+00 -1.354770276939096761e-02
-1.450099999999999945e+01 -3.272999999999999687e+01 1.685600000000000165e+01 9.754459000000000657e+00 -1.756510190155798345e-01
-1.449900000000000055e+01 -3.331400000000000006e+01 1.607300000000000040e+01 7.657351000000000241e+00 -1.756936165263165150e-01
-1.449799999999999933e+01 -9.773600000000000065e-01 -2.418900000000000006e+01 -2.025087999999999866e+01 2.854886822705902591e-02
-1.449499999999999922e+01 2.337100000000000011e-01 -6.923300000000000232e+00 3.629653999999999936e+00 -2.781803159821244487e-01
-1.449099999999999966e+01 -5.631400000000000183e+00 -1.269500000000000028e+01 6.113617999999999775e+00 -1.825207111298779994e-01
-1.449099999999999966e+01 -5.631400000000000183e+00 -1.183000000000000007e+01 1.042398000000000025e+01 -1.820828229614040172e-01
-1.448399999999999999e+01 -2.116499999999999915e+01 -1.349399999999999977e+01 -1.640068000000000126e+01 -8.793975675016561799e-02
-1.448000000000000043e+01 -3.395400000000000063e+01 -1.482799999999999940e+01 1.808355999999999852e+01 -8.904911795127672114e-02
-1.448000000000000043e+01 -3.255400000000000205e+01 -1.482799999999999940e+01 -6.530515000000000292e+00 -8.896958533818509485e-02
-1.447899999999999920e+01 4.671999999999999709e+00 5.072000000000000064e+00 1.370164000000000044e+02 -3.769681078380232031e-01
-1.447700000000000031e+01 1.117099999999999982e+00 -2.990099999999999980e+01 2.705258999999999858e+00 -8.121002965384434280e-02
-1.447600000000000087e+01 -7.865000000000000213e+00 -2.788599999999999923e+01 5.248912999999999940e+00 2.351304123020482931e-02
-1.447199999999999953e+01 -3.538700000000000045e+01 -1.558399999999999963e+01 9.990726000000000440e+00 -8.913589351402821659e-02
-1.447100000000000009e+01 -2.286799999999999855e+01 -1.634799999999999898e+01 9.167638000000000176e+00 -8.817409656182459421e-02
-1.447100000000000009e+01 -2.265899999999999892e+01 -1.561200000000000010e+01 9.069601999999999720e+00 -8.813554530880671201e-02
-1.447000000000000064e+01 9.021399999999999864e+00 -1.822400000000000020e+00 1.511072000000000060e+01 -3.770997333467747126e-01
-1.446599999999999930e+01 2.658399999999999874e+00 6.271399999999999864e+00 1.523610000000000042e+01 -2.998407851230945331e-01
-1.446199999999999974e+01 -3.136899999999999977e+01 1.010100000000000087e+01 2.879194000000000031e+00 -1.758588346634379629e-01
-1.446199999999999974e+01 -9.344500000000000028e+00 -2.617599999999999838e+01 3.767560000000000020e+00 2.496601714321786472e-02
-1.446199999999999974e+01 -3.165899999999999892e+01 3.391399999999999970e+00 1.115933000000000064e+01 -1.761028177957691399e-01
-1.445899999999999963e+01 5.743900000000000006e+00 -3.460699999999999932e+01 -8.462290000000000090e-02 -3.826395802007563907e-01
-1.445700000000000074e+01 -1.377599999999999980e+01 -1.858599999999999852e+01 5.090107999999999855e+00 -8.781484972403866274e-02
-1.445599999999999952e+01 -1.964999999999999858e+01 -1.313799999999999990e+01 1.618190999999999846e+01 -8.775069177378279350e-02
-1.445500000000000007e+01 8.767300000000000537e+00 -1.013600000000000056e+00 -1.836527000000000021e+00 -3.770679501485382223e-01
-1.445400000000000063e+01 -3.917999999999999972e+01 -1.231600000000000028e+00 -1.820578000000000030e+00 -8.919454783288552346e-02
-1.445100000000000051e+01 -8.263700000000000045e+00 -4.014100000000000001e+00 1.176275000000000048e+01 -1.723476944257144594e-01
-1.444800000000000040e+01 -1.946699999999999875e+01 1.983999999999999986e+01 -4.438882000000000438e+00 -1.749363625469827765e-01
-1.444800000000000040e+01 -1.827599999999999980e+01 1.917599999999999838e+01 -1.256318000000000046e+00 -1.748669366016252780e-01
-1.444500000000000028e+01 -1.001500000000000057e+01 -6.440699999999999648e+00 -2.349645999999999901e+01 -1.725250070411276926e-01
-1.443800000000000061e+01 5.597999999999999865e+00 -2.420400000000000063e+01 8.716120999999999341e+00 -3.638902265280676285e-01
-1.443699999999999939e+01 -1.372199999999999953e+01 -1.320199999999999996e+01 5.078945000000000221e+01 -1.853258064909168723e-01
-1.443599999999999994e+01 -1.822400000000000020e+01 -1.381199999999999939e+01 3.875950999999999880e+01 -8.754972968002608380e-02
-1.443500000000000050e+01 -3.221299999999999830e+00 7.698999999999999844e+00 -2.611277000000000115e+01 -1.727336632999615929e-01
-1.442800000000000082e+01 4.427900000000000169e+00 -1.789300000000000068e+01 6.461471999999999660e+00 -3.635721261472144583e-01
-1.442800000000000082e+01 7.011999999999999567e+00 -3.237599999999999767e+01 2.264926000000000172e+01 -2.651746211706255130e-01
-1.442800000000000082e+01 -1.079800000000000004e+01 1.450799999999999912e+01 2.811035000000000039e+01 -1.741939536039064929e-01
-1.442600000000000016e+01 -4.035600000000000165e+01 -3.285099999999999909e+00 7.766233000000000164e-01 -8.923465077670639234e-02
-1.442500000000000071e+01 -3.152700000000000102e+01 7.508000000000000007e+00 5.194535000000000124e+00 -1.759531336171888394e-01
-1.442500000000000071e+01 -9.391500000000000403e-01 5.328000000000000291e+00 2.544367999999999963e+00 -2.781768984918226439e-01
-1.442300000000000004e+01 1.331099999999999994e+01 -1.028899999999999970e+01 1.536101999999999990e+01 -1.697439932125052731e-01
-1.441999999999999993e+01 -1.406600000000000072e+01 -7.982400000000000162e+00 2.791789999999999949e+01 -1.737275075702008897e-01
-1.441300000000000026e+01 5.529500000000000526e-01 5.385399999999999743e+00 1.307853000000000065e+01 -2.774356700438758150e-01
-1.440799999999999947e+01 -4.058299999999999841e+01 -4.054899999999999949e+00 -1.166409999999999947e+01 -8.924369276074528567e-02
-1.440799999999999947e+01 5.415300000000000225e+00 -1.788400000000000034e+01 1.149652999999999992e+01 -3.634166347613950743e-01
-1.440700000000000003e+01 -1.399900000000000055e+01 1.748699999999999832e+01 5.021730000000000160e+01 -1.745319317802496162e-01
-1.440600000000000058e+01 -4.753299999999999748e-01 -2.107499999999999929e+01 6.187649999999999650e+00 -1.868032590555120664e-01
-1.440600000000000058e+01 -1.124499999999999922e+01 -7.264000000000000234e+00 1.792289000000000021e+00 -1.728315743244531189e-01
-1.440499999999999936e+01 -3.101200000000000045e+01 1.090399999999999991e+01 1.068127999999999966e+00 -1.758112055898854720e-01
-1.440499999999999936e+01 -1.232399999999999984e+01 -1.326099999999999923e+01 1.475154000000000032e+01 -1.850627238429516652e-01
-1.440499999999999936e+01 -1.084800000000000075e+01 -1.394299999999999962e+01 2.302918999999999983e+01 -1.851017046136240185e-01
-1.440399999999999991e+01 -4.176599999999999824e+01 -4.866299999999999848e+00 -3.660115999999999925e+00 -8.928464550496596763e-02
-1.440300000000000047e+01 1.617399999999999949e+00 5.963199999999999612e+00 9.731196999999999875e+00 -2.769021408673569828e-01
-1.440300000000000047e+01 -4.186500000000000199e+01 -7.385799999999999699e+00 2.609070000000000000e-01 -8.930117228288078635e-02
-1.439700000000000024e+01 4.407000000000000028e+00 -3.511299999999999955e+01 -6.489873000000000447e-01 -3.829356615770599381e-01
-1.439300000000000068e+01 -2.948000000000000043e+01 -1.761400000000000077e+01 1.076551000000000036e+00 -8.882476483028049763e-02
-1.439199999999999946e+01 -4.218499999999999694e+00 -2.301899999999999835e+01 2.182293000000000038e+00 -9.105437834325977309e-02
-1.438700000000000045e+01 -2.995599999999999952e+01 1.967399999999999949e+01 8.917182999999999637e+00 -1.754585918393291588e-01
-1.438299999999999912e+01 -3.871399999999999864e+01 -1.208099999999999952e+01 2.235341000000000133e-01 -8.922966805076421037e-02
-1.438299999999999912e+01 6.945100000000000051e+00 -1.629400000000000048e+01 4.942942000000000391e+00 -3.630457427020695182e-01
-1.438000000000000078e+01 3.066300000000000026e+00 -3.326299999999999812e+01 -2.389549000000000145e+00 -3.837465789979297992e-01
-1.437500000000000000e+01 -1.834000000000000075e+00 6.817899999999999849e+00 -3.951914000000000016e+01 -2.784770244674309447e-01
-1.437100000000000044e+01 -3.783500000000000085e+01 3.827099999999999946e-01 -2.178119999999999834e+01 -8.915069812340786770e-02
-1.437100000000000044e+01 3.425199999999999800e+00 5.826999999999999957e+00 1.986599000000000004e+01 -3.769525055382237921e-01
-1.436999999999999922e+01 -9.893700000000000827e+00 -5.538400000000000212e+00 -9.010754999999999626e+00 -1.726239722471228921e-01
-1.436899999999999977e+01 -5.713000000000000078e+00 -2.822400000000000020e+01 -1.452528000000000041e+00 2.351673983046587840e-02
-1.436599999999999966e+01 -1.506900000000000084e+01 -1.036500000000000021e+01 5.403667000000000087e+01 -1.842349190217681953e-01
-1.436599999999999966e+01 -1.483799999999999919e+01 -9.550000000000000711e+00 1.545091999999999928e+02 -1.737751713030963319e-01
-1.436299999999999955e+01 -1.293999999999999950e+01 -2.503800000000000026e+01 1.652323000000000164e+01 -1.705332778028419843e-02
-1.436200000000000010e+01 -5.407300000000000439e-01 2.802799999999999958e+00 3.109202000000000155e+01 -2.781204160187588093e-01
-1.436100000000000065e+01 -3.680899999999999750e+01 -1.470400000000000063e+01 7.527192999999999801e-01 -8.918503515001699467e-02
-1.436100000000000065e+01 -8.496000000000000218e-01 -2.760800000000000054e+01 1.652630999999999961e+00 2.517680898199359252e-02
-1.435899999999999999e+01 -3.627799999999999869e+01 4.926800000000000068e-01 -8.115866000000000469e+00 -1.762421577034253839e-01
-1.435800000000000054e+01 3.177299999999999791e+00 -3.428999999999999915e+01 -1.379497999999999891e+00 -3.834754702084185451e-01
-1.435699999999999932e+01 3.149599999999999955e+00 -3.210699999999999932e+01 -3.029797000000000184e-01 -2.878014957206435076e-01
-1.435399999999999920e+01 -1.342700000000000005e+00 -2.067899999999999849e+01 -5.136271999999999949e+00 -1.869516416426686423e-01
-1.435299999999999976e+01 -3.292300000000000182e+01 1.500900000000000034e+01 3.001774999999999860e+00 -1.757080992991403023e-01
-1.435299999999999976e+01 -1.203800000000000026e+01 1.821099999999999852e+01 1.510571000000000108e+00 -1.743396906022672554e-01
-1.435299999999999976e+01 1.838599999999999957e-01 -5.881400000000000183e+00 3.482562000000000157e+00 -2.781301398057330898e-01
-1.435100000000000087e+01 -3.105799999999999983e+01 1.859700000000000131e+01 1.102877999999999936e+01 -1.755277694090283669e-01
-1.435100000000000087e+01 -1.246599999999999930e+01 -1.869200000000000017e+01 3.671262000000000025e+00 -8.787301226523892839e-02
-1.434999999999999964e+01 -6.499800000000000022e-01 -2.857300000000000040e+01 2.533747999999999934e+01 2.461416926256948870e-02
-1.434900000000000020e+01 -1.055300000000000082e+01 8.521699999999999164e+00 8.036267999999999745e+00 -1.740212350322069002e-01
-1.434099999999999930e+01 -2.386400000000000077e+01 2.100499999999999901e+01 1.020405000000000051e+01 -1.751548222685700984e-01
-1.434099999999999930e+01 1.426299999999999990e+01 -1.307799999999999940e+01 3.008054000000000006e+00 -1.663257138525185141e-01
-1.434099999999999930e+01 1.426299999999999990e+01 -1.104199999999999982e+01 3.599480999999999931e+00 -1.702487041872704776e-01
-1.433999999999999986e+01 6.904700000000000060e+00 -3.130000000000000071e+01 2.179849000000000103e+01 -2.669955782949939294e-01
-1.433600000000000030e+01 -3.649900000000000144e+00 -2.525300000000000100e+00 4.129012000000000349e+00 -1.711259148569704014e-01
-1.433399999999999963e+01 2.248000000000000220e+00 -3.064799999999999969e+01 -4.648224000000000244e-01 -7.429353321960843748e-02
-1.433300000000000018e+01 7.073000000000000398e+00 -2.465500000000000114e+01 6.114976999999999663e+01 -3.636421490297775394e-01
-1.433099999999999952e+01 1.210200000000000031e+01 -3.002600000000000158e+00 1.416778000000000048e+01 -1.763838978515004652e-01
-1.433000000000000007e+01 -4.483299999999999841e+00 -2.740099999999999980e+01 8.547106999999999621e-02 2.472177460554862011e-02
-1.432600000000000051e+01 -1.766999999999999904e+00 -2.431000000000000050e+00 -6.392380000000000173e+00 -2.794065213937172998e-01
-1.432399999999999984e+01 1.109699999999999953e+01 -1.404700000000000060e+01 1.092267999999999972e+01 -3.621069558667839861e-01
-1.432199999999999918e+01 4.468700000000000117e+00 -4.526700000000000168e-01 4.709568000000000154e+01 -2.974091731673508820e-01
-1.432199999999999918e+01 5.868699999999999584e+00 -4.526700000000000168e-01 -2.234784000000000148e+01 -3.771683178672261549e-01
-1.431799999999999962e+01 -1.535100000000000087e+01 -1.751099999999999923e+01 7.075610000000000177e+00 -8.757815969429789960e-02
-1.431799999999999962e+01 -2.475299999999999834e+00 -2.143799999999999883e+01 -2.819018000000000157e+01 -9.032937317932593357e-02
-1.431600000000000072e+01 -4.977000000000000313e+00 -9.257699999999999818e+00 5.022073999999999927e+00 -1.809348752600321297e-01
-1.431600000000000072e+01 -1.157200000000000006e+00 -2.682600000000000051e+01 -3.766421999999999937e+00 2.589561021598200258e-02
-1.431400000000000006e+01 -3.108899999999999864e+01 -1.702899999999999991e+01 1.371340000000000003e+00 -8.891964138445036803e-02
-1.430899999999999928e+01 7.906600000000000072e+00 -1.648300000000000043e-01 -3.187580000000000169e+01 -3.770657525497884688e-01
-1.430199999999999960e+01 -1.050900000000000034e+01 1.766700000000000159e+01 -5.372689000000000270e+00 -1.741805608439149777e-01
-1.430000000000000071e+01 -2.252400000000000091e+01 2.067699999999999960e+01 1.220537000000000027e+01 -1.750885679504406156e-01
-1.429299999999999926e+01 -3.835300000000000153e+01 -1.298799999999999955e+01 1.329602000000000006e-01 -8.922464701296463352e-02
-1.428999999999999915e+01 -9.420999999999999375e+00 -4.803200000000000358e+00 6.429698000000000135e+00 -1.725663097987676919e-01
-1.428999999999999915e+01 -5.619600000000000151e-01 -3.188000000000000167e+00 2.026504000000000083e+00 -2.785661135610740247e-01
-1.428899999999999970e+01 -4.020499999999999829e+01 -2.617999999999999883e+00 5.681728000000000334e-01 -8.922644794603072638e-02
-1.427500000000000036e+01 5.073899999999999938e-02 -2.344000000000000128e+01 7.667545999999999529e-01 -1.543580184740427352e-01
-1.427500000000000036e+01 -1.713800000000000168e+01 -5.122799999999999798e+00 4.923297000000000168e+01 -1.747371578196838526e-01
-1.427200000000000024e+01 -1.559500000000000064e+01 -2.654700000000000060e+01 6.560515999999999792e+00 -1.936527153491104589e-02
-1.427100000000000080e+01 8.044399999999999551e+00 -1.517099999999999937e+01 6.939396999999999593e+00 -3.627792228411841902e-01
-1.426999999999999957e+01 -4.121900000000000119e+01 -1.002899999999999991e+01 1.297952999999999912e+00 -8.929821529241192823e-02
-1.426699999999999946e+01 -3.478499999999999659e+01 6.113100000000000200e-01 1.282463000000000086e+01 -1.762120163540697726e-01
-1.425699999999999967e+01 1.278700000000000081e+01 -1.364199999999999946e+01 8.274926000000000670e+00 -1.619899214030776635e-01
-1.425699999999999967e+01 -3.149699999999999989e+01 1.397000000000000064e+01 8.349246000000000167e-01 -1.756966267708240381e-01
-1.425600000000000023e+01 -5.535000000000000142e+00 7.573699999999999655e+00 3.727720000000000145e+00 -1.731095827101783446e-01
-1.425200000000000067e+01 -3.974300000000000210e+01 -1.198499999999999943e+01 9.241776999999999909e-01 -8.926559928417245049e-02
-1.425099999999999945e+01 6.797399999999999665e+00 -3.026500000000000057e+01 4.645452000000000226e+01 -4.000297501053952653e-01
-1.425000000000000000e+01 1.321799999999999997e+01 -3.814099999999999824e+00 2.324076000000000164e+01 -1.769063982696437720e-01
-1.424699999999999989e+01 -3.599000000000000199e+00 -8.309900000000000730e+00 3.980110999999999954e+00 -1.802808700329349700e-01
-1.424099999999999966e+01 -7.541599999999999859e+00 -1.429700000000000060e+01 -1.703286999999999907e+01 -1.843195630821258812e-01
-1.423900000000000077e+01 -2.889999999999999858e+01 2.208399999999999963e+01 7.995125999999999955e+00 -1.753289599485282901e-01
-1.423900000000000077e+01 -9.084199999999999164e+00 8.521000000000000796e+00 4.105822000000000083e-01 -1.737716035080752452e-01
-1.423600000000000065e+01 -9.323100000000000165e+00 -1.463199999999999967e+01 4.479585000000000150e+00 -1.851517625004514001e-01
-1.423600000000000065e+01 -2.645400000000000063e+01 -1.731500000000000128e+01 4.543268000000000306e+00 -8.856858185674156003e-02
-1.423600000000000065e+01 -4.373899999999999899e+00 -2.660900000000000176e+01 3.133042999999999978e+01 2.560829015413130377e-02
-1.423199999999999932e+01 -8.653600000000000181e-01 -2.487999999999999989e+00 -5.306135000000000268e+00 -2.787218308772952957e-01
-1.423099999999999987e+01 9.260300000000000864e+00 -1.446700000000000053e+01 2.373804000000000158e+01 -3.625125999912528485e-01
-1.423099999999999987e+01 -2.348600000000000065e+01 -1.734900000000000020e+01 8.263821999999999335e+00 -8.827179780728081071e-02
-1.422600000000000087e+01 1.048099999999999987e+01 -2.937699999999999978e+00 1.931627999999999901e+01 -1.749450747350502489e-01
-1.422400000000000020e+01 -6.064000000000000057e+00 -1.339499999999999957e+01 -4.599925999999999737e-01 -1.831978926613545000e-01
-1.421700000000000053e+01 -1.234800000000000075e+01 -2.241000000000000014e+01 7.178795000000000037e+00 -1.216685194153399249e-02
-1.421599999999999930e+01 -2.462999999999999901e+01 -1.719800000000000040e+01 6.005247999999999919e+00 -8.838955025662269260e-02
-1.421299999999999919e+01 5.285499999999999643e-01 -2.976699999999999946e+01 9.229203000000000046e+00 2.418995546607687758e-02
-1.421000000000000085e+01 -2.072000000000000064e+00 -7.591000000000000192e+00 -3.125053999999999998e+00 -2.804441405949534283e-01
-1.420800000000000018e+01 -3.373700000000000188e+01 2.060299999999999798e+00 1.036749999999999972e+01 -1.761491717869584916e-01
-1.420800000000000018e+01 -4.111800000000000210e+01 -1.106400000000000006e+01 3.253130000000000188e-01 -8.930376873076981137e-02
-1.420599999999999952e+01 7.796299999999999564e+00 -2.884700000000000131e+01 3.730449999999999733e+01 -2.489795966697834761e-01
-1.420100000000000051e+01 -1.104299999999999926e+01 1.370400000000000063e+01 3.561249999999999716e+01 -1.741835188012784696e-01
-1.419599999999999973e+01 -5.031299999999999883e+00 -3.130599999999999827e+00 6.709500000000000242e+00 -1.713975101384527522e-01
-1.419599999999999973e+01 -1.255300000000000082e+01 -2.578200000000000003e+01 1.215492000000000061e+01 -1.861736465596753459e-02
-1.419500000000000028e+01 -3.122599999999999909e+01 4.091400000000000148e+00 -3.859820000000000029e+00 -1.760264588949310427e-01
-1.418999999999999950e+01 -2.242200000000000060e+01 -1.511599999999999966e+01 8.784238999999999464e+00 -8.810422777676954476e-02
-1.418599999999999994e+01 -2.617000000000000171e+01 2.207400000000000162e+01 2.492401999999999873e+01 -1.752174532621789960e-01
-1.418299999999999983e+01 5.150999999999999801e+00 3.338999999999999968e+00 2.204625000000000057e+01 -3.770176629908675858e-01
-1.418299999999999983e+01 5.150999999999999801e+00 4.296999999999999709e+00 3.393142000000000280e+01 -3.769814131179368699e-01
-1.417900000000000027e+01 -1.379400000000000048e+01 -2.651500000000000057e+01 5.021777000000000157e+00 2.372903666859323135e-02
-1.417600000000000016e+01 -1.662099999999999911e+00 -2.584799999999999898e+01 -1.111766000000000076e+01 2.679428583515562970e-02
-1.417399999999999949e+01 -1.918499999999999872e+01 -1.318699999999999939e+01 2.046905999999999892e+01 -8.769937647155119642e-02
-1.417099999999999937e+01 -2.792999999999999972e+01 -1.799699999999999989e+01 7.261384999999999756e+00 -8.871342683145540253e-02
-1.416799999999999926e+01 -1.656899999999999906e+01 -5.036599999999999966e+00 5.682806999999999675e+01 -1.745844042544078822e-01
-1.416600000000000037e+01 -1.122199999999999953e+01 -2.620599999999999952e+01 4.457565999999999917e+00 2.444195859228719819e-02
-1.416399999999999970e+01 -2.239000000000000057e+01 -1.419400000000000084e+01 1.966326999999999936e+00 -8.809232152621869483e-02
-1.416099999999999959e+01 -2.111800000000000122e+00 -2.073699999999999832e+01 -1.762639000000000067e+01 -1.874982870343844532e-01
-1.415900000000000070e+01 1.004700000000000060e+01 -1.429400000000000048e+01 2.117948000000000164e+01 -3.623339694867935279e-01
-1.415700000000000003e+01 -4.129500000000000171e+01 -9.021399999999999864e+00 4.826077999999999868e+00 -8.929010912329972405e-02
-1.415499999999999936e+01 -1.516000000000000014e+01 -2.732199999999999918e+01 7.260011999999999688e+00 2.298770745521589234e-02
-1.415499999999999936e+01 -1.516000000000000014e+01 -2.577199999999999847e+01 1.144917000000000051e+01 -1.815886331181541455e-02
-1.415499999999999936e+01 -1.420199999999999996e+01 -2.732199999999999918e+01 4.642444000000000237e+00 2.308184164616356587e-02
-1.414799999999999969e+01 -1.764499999999999957e+01 -1.452200000000000024e+01 2.011888000000000076e+01 -8.747574588637799242e-02
-1.414100000000000001e+01 -2.187399999999999878e+01 -1.346499999999999986e+01 5.022681999999999647e+00 -8.803090006722857908e-02
-1.413599999999999923e+01 -1.476600000000000001e+01 1.745200000000000173e+01 4.317533000000000243e+01 -1.745717319532678058e-01
-1.413499999999999979e+01 -2.769900000000000162e+01 2.261799999999999855e+01 8.874314000000000036e+00 -1.752588141943204336e-01
-1.413199999999999967e+01 4.890200000000000102e-02 -3.727100000000000080e+00 2.228963999999999945e+00 -2.780722744299539140e-01
-1.413199999999999967e+01 2.579899999999999971e-01 -4.463099999999999845e+00 2.718265999999999849e+00 -2.779332913792704196e-01
-1.412599999999999945e+01 3.729299999999999837e+00 1.131099999999999994e+00 5.988038999999999668e+00 -2.985805198621394596e-01
-1.412599999999999945e+01 3.938400000000000123e+00 1.867099999999999982e+00 7.676746999999999765e+00 -2.984362144421755514e-01
-1.412100000000000044e+01 -7.490999999999999659e+00 1.004499999999999993e+01 -5.762479000000000351e-01 -1.735771281546677203e-01
-1.411999999999999922e+01 -2.442099999999999937e+01 2.086100000000000065e+01 5.788515000000000299e+00 -1.751661300327696236e-01
-1.411899999999999977e+01 5.970100000000000406e+00 -1.717500000000000071e+01 1.289915000000000056e+01 -3.632418358498420430e-01
-1.411800000000000033e+01 -3.239399999999999835e+01 3.226700000000000124e+00 6.402663000000000437e+00 -1.760732570600092306e-01
-1.411400000000000077e+01 -1.721600000000000019e+00 4.580599999999999561e+00 -6.770831000000000488e-01 -2.785706972647400415e-01
-1.411400000000000077e+01 -1.447899999999999920e+01 -1.309900000000000020e+01 5.685009000000000157e+01 -1.854621332944264844e-01
-1.411200000000000010e+01 1.281600000000000072e+01 -3.092999999999999972e+00 1.754209000000000174e+01 -1.769555221175421467e-01
-1.411200000000000010e+01 -1.277299999999999969e+01 -7.704600000000000115e+00 1.428956999999999944e+01 -1.732328933101292823e-01
-1.410999999999999943e+01 1.463599999999999923e+01 -1.247499999999999964e+01 8.322374999999999190e+00 -1.684429626679289360e-01
-1.410999999999999943e+01 1.463599999999999923e+01 -1.164499999999999957e+01 8.423064000000000107e+00 -1.699600202326074505e-01
-1.410699999999999932e+01 4.905899999999999928e+00 -1.993799999999999883e+01 -2.440161000000000158e+01 -3.635948720025968250e-01
-1.410500000000000043e+01 -3.553999999999999915e+01 4.459899999999999975e-01 -8.743655999999999651e+00 -1.761995443766218306e-01
-1.410399999999999920e+01 -1.329899999999999949e+01 1.754500000000000171e+01 2.798216000000000037e+01 -1.744325070784149001e-01
-1.410200000000000031e+01 -1.194500000000000028e+01 -7.322300000000000253e+00 6.848175000000000345e+00 -1.729942166581479035e-01
-1.410100000000000087e+01 -6.471899999999999764e+00 -2.825900000000000034e+01 7.288421000000000483e-01 2.331513203010890031e-02
-1.409800000000000075e+01 7.880499999999999616e+00 -2.785699999999999932e+01 2.362540999999999869e+01 -2.475225188136117027e-01
-1.409800000000000075e+01 -1.296599999999999930e+01 -1.312800000000000011e+01 1.445613999999999955e+01 -1.851896581336619774e-01
-1.409500000000000064e+01 7.855500000000000149e+00 -2.584199999999999875e+01 -1.263752000000000031e+01 -2.445967228463102605e-01
-1.409500000000000064e+01 -1.337299999999999933e+01 -2.573799999999999955e+01 1.881054999999999922e+01 -1.840082783931665245e-02
-1.408699999999999974e+01 -2.073199999999999932e+01 -1.300300000000000011e+01 3.421518999999999977e+01 -8.789838246930031795e-02
-1.408699999999999974e+01 -3.963000000000000078e+00 7.527999999999999581e+00 -5.241559999999999775e+00 -1.728014861169561156e-01
