8.003700000000000614e+01 3.385399999999999920e+01 6.351200000000000045e+01 -5.668654000000000082e+00 -1.152195392708262878e-01
8.003900000000000148e+01 6.104899999999999949e+01 5.651899999999999835e+01 4.269035999999999831e+00 -3.032702414743755279e-02
8.004000000000000625e+01 2.856800000000000139e+01 5.103699999999999903e+01 -4.086946000000000190e+00 -3.896933519092996012e-02
8.004000000000000625e+01 5.637199999999999989e+01 5.042699999999999960e+01 1.566736000000000040e+01 5.049706799376042776e-02
8.004300000000000637e+01 3.447999999999999687e+01 5.503999999999999915e+01 3.222894000000000148e+00 -1.205139703659944689e-01
8.004900000000000659e+01 3.021600000000000108e+01 4.734499999999999886e+01 -1.947728000000000037e+01 5.869206552382318087e-02
8.005100000000000193e+01 3.977000000000000313e+01 6.632899999999999352e+01 6.113146000000000413e+00 4.065090667557626491e-01
8.005800000000000693e+01 3.813499999999999801e+01 6.597499999999999432e+01 5.006891000000000425e+00 2.071814773341504878e-01
8.005800000000000693e+01 3.813499999999999801e+01 6.737500000000000000e+01 6.058139999999999858e+00 4.096037807740442460e-01
8.005800000000000693e+01 3.900000000000000000e+01 6.597499999999999432e+01 2.852805000000000035e+00 4.092892645456399636e-01
8.006000000000000227e+01 5.691299999999999670e+01 7.087699999999999534e+01 -5.209626999999999697e+01 1.109137804979744429e-01
8.006100000000000705e+01 6.618600000000000705e+01 5.935499999999999687e+01 -1.116511000000000031e+01 -1.370895378215515048e-01
8.006100000000000705e+01 6.618600000000000705e+01 6.029500000000000171e+01 -1.581809999999999938e+01 -1.243603399752429561e-01
8.006300000000000239e+01 5.164800000000000324e+01 6.325699999999999790e+01 9.818789000000000655e+00 2.907442006474386664e-01
8.006399999999999295e+01 3.164999999999999858e+01 5.645300000000000296e+01 -7.886432000000000109e+00 -1.043781049025850061e-01
8.006600000000000250e+01 4.644800000000000040e+01 5.527600000000000335e+01 6.251097999999999821e+00 1.196895166524242216e-02
8.006600000000000250e+01 4.731400000000000006e+01 5.527600000000000335e+01 6.652109000000000494e-01 1.227526222325259209e-02
8.006999999999999318e+01 3.371099999999999852e+01 6.628900000000000148e+01 -3.817750999999999895e+00 1.117112284759604404e-02
8.007399999999999807e+01 3.058599999999999852e+01 7.097100000000000364e+01 -1.824181000000000052e+00 -3.340663714128062067e-01
8.007399999999999807e+01 3.083999999999999986e+01 7.007699999999999818e+01 -1.530820999999999987e+00 -2.039591803058418973e-01
8.007399999999999807e+01 3.083999999999999986e+01 7.186499999999999488e+01 -1.368384999999999962e+00 -3.304199711419902874e-01
8.007399999999999807e+01 3.184700000000000131e+01 7.287199999999999989e+01 3.727275000000000116e+00 -3.234780442601400408e-01
8.007399999999999807e+01 3.228600000000000136e+01 6.927100000000000080e+01 -4.425932000000000421e+00 9.652969711048696444e-02
8.007399999999999807e+01 3.347699999999999676e+01 6.860699999999999932e+01 -5.657085999999999615e+00 7.511039688291713812e-02
8.007999999999999829e+01 3.315299999999999869e+01 5.583400000000000318e+01 -1.657075000000000031e+01 -9.899712843098501525e-02
8.008400000000000318e+01 4.867900000000000205e+01 8.351999999999999602e+01 -1.706156000000000006e+01 -4.065273223922809542e-01
8.008400000000000318e+01 5.019899999999999807e+01 8.351999999999999602e+01 -9.600381000000000142e+01 -3.528374376930850098e-01
8.008499999999999375e+01 5.194899999999999807e+01 6.278399999999999892e+01 1.094918999999999976e+01 2.996825369993263988e-01
8.008499999999999375e+01 5.566199999999999903e+01 7.167900000000000205e+01 -7.445829999999999416e+01 6.768886231712188672e-02
8.009000000000000341e+01 5.291400000000000148e+01 6.141400000000000148e+01 4.888479000000000241e+00 1.412477253470285389e-02
8.009000000000000341e+01 5.312299999999999756e+01 6.067799999999999727e+01 8.766379999999999839e+00 8.874817228836985594e-02
8.009099999999999397e+01 3.684400000000000119e+01 8.172899999999999920e+01 -2.448576000000000086e+00 -1.818813316244832501e-01
8.009600000000000364e+01 3.531799999999999784e+01 5.492799999999999727e+01 -4.398107999999999684e+00 -1.201214503070235223e-01
8.009699999999999420e+01 5.988000000000000256e+01 5.721900000000000119e+01 2.220545999999999864e+01 4.439388448872619297e-02
8.009699999999999420e+01 6.074600000000000222e+01 5.581900000000000261e+01 7.322027999999999870e-02 -4.649995975770249840e-02
8.009699999999999420e+01 6.074600000000000222e+01 5.721900000000000119e+01 4.909022000000000219e+00 1.166007638214336048e-02
8.009900000000000375e+01 5.668200000000000216e+01 4.893999999999999773e+01 2.574940999999999924e+00 7.935908767378638262e-02
8.010399999999999920e+01 5.015899999999999892e+01 5.673799999999999955e+01 -1.207128999999999941e+01 -6.838019723944741002e-02
8.010800000000000409e+01 3.242399999999999949e+01 4.726100000000000279e+01 -4.164109999999999978e+00 -1.800269357687742378e-01
8.010800000000000409e+01 3.405400000000000205e+01 4.772399999999999665e+01 -6.244297000000000430e+00 -1.869568468305232711e-01
8.011499999999999488e+01 4.369500000000000028e+01 5.434100000000000108e+01 -2.174504000000000214e+00 2.204981850673868871e-01
8.011599999999999966e+01 3.783100000000000307e+01 6.667499999999999716e+01 7.131148999999999738e+00 1.943292241482219018e-01
8.012000000000000455e+01 5.761200000000000188e+01 4.838799999999999812e+01 9.647543999999999897e+00 9.383181063987286463e-02
8.012699999999999534e+01 5.029800000000000182e+01 6.402200000000000557e+01 -3.819389999999999841e+00 1.815473346337619920e-01
8.013200000000000500e+01 5.355299999999999727e+01 5.416199999999999903e+01 4.195096000000000241e-02 -4.180692041097564676e-02
8.013200000000000500e+01 5.380700000000000216e+01 5.505599999999999739e+01 6.216966000000000214e+00 -2.433280637555595427e-01
8.013599999999999568e+01 5.231900000000000261e+01 6.215699999999999648e+01 9.327156000000000446e+00 3.101706300299915675e-01
8.013899999999999579e+01 2.747200000000000131e+01 5.329599999999999937e+01 -4.380213999999999608e+00 -7.682578865997655160e-02
8.014000000000000057e+01 2.757100000000000151e+01 5.581600000000000250e+01 -5.067595000000000027e+01 1.341952133637131731e-03
8.014199999999999591e+01 3.851700000000000301e+01 5.464099999999999824e+01 1.010510000000000019e+01 5.379529889624863614e-02
8.014199999999999591e+01 3.991700000000000159e+01 5.464099999999999824e+01 -6.368548999999999793e+00 5.599333540147902882e-02
8.014300000000000068e+01 3.037399999999999878e+01 5.567000000000000171e+01 -1.912505999999999928e-01 7.367560137193158998e-02
8.014700000000000557e+01 6.105499999999999972e+01 6.635200000000000387e+01 -3.585227000000000164e+00 1.994295154695697181e-01
8.015099999999999625e+01 5.560300000000000153e+01 7.722299999999999898e+01 -3.805311999999999806e+00 8.124509727707734941e-02
8.015300000000000580e+01 3.822500000000000142e+01 6.061599999999999966e+01 -1.074391999999999925e+01 6.217528103668827633e-02
8.016500000000000625e+01 3.710399999999999920e+01 6.153699999999999903e+01 -5.954248999999999903e+00 2.563273677589753864e-03
8.017400000000000659e+01 5.377700000000000102e+01 5.941700000000000159e+01 1.175423000000000107e+00 1.087811005030692446e-01
8.017600000000000193e+01 6.441800000000000637e+01 5.426899999999999835e+01 5.288452000000000153e-01 -1.419394900257161807e-01
8.017799999999999727e+01 3.901400000000000290e+01 5.983200000000000074e+01 -1.386994999999999933e+01 -5.798263136284760935e-03
8.018500000000000227e+01 5.369100000000000250e+01 5.328199999999999648e+01 -2.436634999999999884e+00 2.768151376663331442e-01
8.018800000000000239e+01 4.371300000000000097e+01 8.230800000000000693e+01 -8.449695999999999430e+00 -3.868458203470733769e-01
8.018800000000000239e+01 4.490400000000000347e+01 8.164400000000000546e+01 -1.318585999999999991e+01 -3.957050414602766297e-01
8.019100000000000250e+01 6.078799999999999670e+01 4.924799999999999756e+01 -3.251173000000000091e+00 6.795715080872989644e-02
8.022100000000000364e+01 3.607099999999999795e+01 4.681199999999999761e+01 -3.117757999999999807e+00 -2.781308205527378563e-01
8.022100000000000364e+01 5.439699999999999847e+01 7.361799999999999500e+01 3.212084999999999724e+01 1.326959704789599515e-01
8.022299999999999898e+01 3.381300000000000239e+01 7.999099999999999966e+01 2.791788000000000025e+01 -1.154810240207403138e-01
8.023000000000000398e+01 5.679699999999999704e+01 4.996000000000000085e+01 1.245275999999999961e+01 7.110465808244303965e-02
8.023900000000000432e+01 5.503199999999999648e+01 7.204500000000000171e+01 -1.125352999999999959e+01 4.206617954407732007e-02
8.024299999999999500e+01 5.550900000000000034e+01 5.662500000000000000e+01 6.580498000000000181e-01 -2.011426776252944193e-01
8.024299999999999500e+01 5.550900000000000034e+01 5.809700000000000131e+01 -8.457470999999999961e+00 4.109202322564549370e-02
8.024299999999999500e+01 5.571800000000000352e+01 5.736099999999999710e+01 -3.880691999999999808e+00 3.543592276081437842e-02
8.025700000000000500e+01 3.124699999999999989e+01 7.634300000000000352e+01 4.739944000000000379e+00 -2.666263631012572022e-01
8.025900000000000034e+01 5.438300000000000267e+01 7.450700000000000500e+01 1.641116999999999848e+01 2.317933380870682569e-01
8.026000000000000512e+01 3.150199999999999889e+01 7.558100000000000307e+01 2.919596999999999998e+00 -2.742691915273144931e-01
8.026300000000000523e+01 5.310999999999999943e+01 8.135200000000000387e+01 -2.135323999999999955e+01 -3.854329149679927569e-01
8.026399999999999579e+01 3.713400000000000034e+01 5.531700000000000017e+01 -1.191921999999999926e+01 -1.214836438856553291e-01
8.026999999999999602e+01 3.829599999999999937e+01 4.782999999999999829e+01 -6.113935999999999815e+00 -2.975665358998188514e-01
8.027299999999999613e+01 6.278099999999999881e+01 5.316700000000000159e+01 -1.017353999999999914e+01 2.785601819226616871e-01
8.028400000000000603e+01 6.243900000000000006e+01 6.572700000000000387e+01 -9.533124000000000819e+00 5.357182727992404470e-02
8.028400000000000603e+01 6.467199999999999704e+01 6.603600000000000136e+01 -3.033412999999999826e+01 -3.300559950912363566e-02
8.028600000000000136e+01 3.886500000000000199e+01 8.370199999999999818e+01 -1.614849999999999852e+01 -1.161633927384162074e-01
8.029000000000000625e+01 3.101599999999999824e+01 7.714900000000000091e+01 -1.011217999999999950e+00 -2.625683709676790434e-01
8.029399999999999693e+01 5.807500000000000284e+01 5.659300000000000352e+01 -1.035397999999999996e+01 5.719339995393595000e-02
8.029500000000000171e+01 5.913199999999999790e+01 4.898700000000000188e+01 -3.221023000000000192e+00 7.454390952997783093e-02
8.029800000000000182e+01 5.251599999999999824e+01 5.858400000000000318e+01 1.387988000000000069e-02 1.251894035340020417e-01
8.030100000000000193e+01 3.114600000000000080e+01 7.821299999999999386e+01 2.429005000000000081e+00 6.551798946238135413e-02
8.030200000000000671e+01 6.547400000000000375e+01 5.499699999999999989e+01 1.663221000000000060e+00 -1.056599934726686341e-01
8.030500000000000682e+01 3.613900000000000290e+01 6.270100000000000051e+01 1.486458999999999975e+00 -7.048563029622252618e-02
8.030800000000000693e+01 5.593900000000000006e+01 5.112700000000000244e+01 8.952614999999999768e+00 5.002685986886444558e-02
8.031799999999999784e+01 3.933700000000000330e+01 6.702899999999999636e+01 2.858389999999999986e+00 4.066961036334280633e-01
8.032399999999999807e+01 4.594599999999999795e+01 5.482500000000000284e+01 6.433271999999999657e+00 4.509034585959589315e-03
8.032500000000000284e+01 3.856700000000000017e+01 6.667499999999999716e+01 -8.060846000000000400e-01 4.095494369306903470e-01
8.032500000000000284e+01 4.287199999999999989e+01 8.320300000000000296e+01 2.828126999999999924e+01 -3.862002091728726216e-01
8.032800000000000296e+01 3.235199999999999676e+01 7.922799999999999443e+01 5.241509999999999891e+00 -8.059736532618697047e-02
8.032800000000000296e+01 5.191400000000000148e+01 8.169199999999999307e+01 -2.264132000000000033e+01 -3.833029303372030849e-01
8.033499999999999375e+01 4.738799999999999812e+01 5.466700000000000159e+01 1.542278999999999956e+00 4.503454994662583685e-03
8.034300000000000352e+01 3.812700000000000244e+01 4.719800000000000040e+01 -1.509735999999999967e+00 -2.904162409456799154e-01
8.034399999999999409e+01 5.276700000000000301e+01 5.975500000000000256e+01 8.779270000000000351e+00 1.186962420216181452e-01
8.034399999999999409e+01 3.037399999999999878e+01 5.849099999999999966e+01 -1.443683000000000050e+00 -8.904404895922074514e-02
8.034900000000000375e+01 4.035999999999999943e+01 5.902300000000000324e+01 -1.004353000000000051e+01 -1.371137113382320805e-01
8.034900000000000375e+01 4.621099999999999852e+01 8.123199999999999932e+01 -1.074398000000000053e+01 -4.073688368628800016e-01
8.035200000000000387e+01 5.837899999999999778e+01 5.729299999999999926e+01 -8.330069999999999197e+00 1.942863007135856301e-01
8.035200000000000387e+01 6.560599999999999454e+01 5.779899999999999949e+01 7.531588000000000171e-01 -1.578001845930330771e-01
8.035200000000000387e+01 6.581499999999999773e+01 5.853499999999999659e+01 -8.789403000000000077e+00 -1.442955879435356692e-01
8.035200000000000387e+01 6.581499999999999773e+01 6.111500000000000199e+01 -3.064772999999999925e+01 -1.076303972213316362e-01
8.035899999999999466e+01 4.995400000000000063e+01 5.861699999999999733e+01 5.115047999999999817e+00 3.778458877140793148e-02
8.035899999999999466e+01 5.135399999999999920e+01 5.861699999999999733e+01 2.251254000000000133e+01 4.574576576399611710e-02
8.036199999999999477e+01 3.332900000000000063e+01 6.436199999999999477e+01 -5.787080999999999698e+00 -2.797741768298773329e-02
8.036199999999999477e+01 3.332900000000000063e+01 6.541200000000000614e+01 8.222179000000000570e+00 6.686480769867502935e-04
8.036400000000000432e+01 5.504999999999999716e+01 5.864000000000000057e+01 -1.991098999999999952e+00 -1.982142763335107416e-01
8.037300000000000466e+01 4.811099999999999710e+01 8.282099999999999795e+01 -5.739336999999999911e+00 -4.086992684837921219e-01
8.037300000000000466e+01 5.076700000000000301e+01 8.282099999999999795e+01 -6.037369999999999948e+01 -3.547273965088157399e-01
8.037300000000000466e+01 6.584300000000000352e+01 5.584700000000000131e+01 6.190039999999999765e+00 -8.213414102382853021e-02
8.037300000000000466e+01 6.100300000000000011e+01 6.927700000000000102e+01 2.524748000000000214e+00 -7.594261209138880586e-02
8.037999999999999545e+01 2.779100000000000037e+01 5.262100000000000222e+01 -3.166058000000000039e+00 -9.039715992435193304e-02
8.038200000000000500e+01 4.785300000000000153e+01 8.202800000000000580e+01 -5.560590999999999617e+00 -4.117953854988763984e-01
8.038500000000000512e+01 6.559799999999999898e+01 5.669299999999999784e+01 1.073025999999999947e+01 -6.657443187060838041e-02
8.039199999999999591e+01 3.465100000000000335e+01 6.332500000000000284e+01 -4.480317000000000327e+00 1.228631779267198576e-01
8.039900000000000091e+01 5.220000000000000284e+01 5.761800000000000210e+01 -1.450871000000000022e+00 5.266885699689408812e-02
8.040000000000000568e+01 4.139399999999999835e+01 5.813499999999999801e+01 -1.068862000000000023e+01 -1.657642198221144225e-01
8.040000000000000568e+01 4.160300000000000153e+01 5.739900000000000091e+01 -9.857630000000000337e+00 -1.795841883373396064e-01
8.040300000000000580e+01 4.462700000000000244e+01 5.453099999999999881e+01 3.819423000000000123e-01 2.372351718630968942e-01
8.040500000000000114e+01 5.947899999999999920e+01 5.479800000000000182e+01 -1.385675999999999952e+01 2.038906771566659226e-01
8.040699999999999648e+01 5.085900000000000176e+01 5.679699999999999704e+01 2.967325999999999991e-02 4.829769138588082406e-02
8.040900000000000603e+01 4.892300000000000182e+01 6.020700000000000074e+01 3.154001999999999839e+01 4.967319698436158115e-02
8.040900000000000603e+01 4.913199999999999790e+01 5.947099999999999653e+01 1.553706000000000031e+01 -2.787567403160813306e-01
8.040900000000000603e+01 4.121600000000000108e+01 8.331100000000000705e+01 -1.167378999999999944e+00 -7.705114101687654538e-02
8.041299999999999670e+01 4.943900000000000006e+01 8.358299999999999841e+01 -7.102707999999999799e+01 -4.066940554155072940e-01
8.041400000000000148e+01 6.062199999999999989e+01 6.705200000000000671e+01 -4.373700999999999617e+00 1.941521430306057394e-01
8.042400000000000659e+01 3.677199999999999847e+01 4.637199999999999989e+01 -2.679628000000000121e+00 -2.772170021594883571e-01
8.042700000000000671e+01 2.822800000000000153e+01 5.599699999999999989e+01 -2.366459000000000046e+01 2.395312542565633074e-04
8.043000000000000682e+01 2.710099999999999909e+01 5.505599999999999739e+01 -1.989547999999999917e+01 -1.383720634522893345e-02
8.043999999999999773e+01 4.325000000000000000e+01 5.362100000000000222e+01 -3.090587000000000195e+00 1.854157973336135190e-01
8.044299999999999784e+01 4.157000000000000028e+01 5.193099999999999739e+01 -3.382162000000000113e+00 4.388137810431382013e-02
8.044499999999999318e+01 3.921699999999999875e+01 5.458299999999999841e+01 -8.185036000000000200e+00 5.818727800672936906e-02
8.045199999999999818e+01 4.038499999999999801e+01 5.520600000000000307e+01 -8.904104999999999492e+00 4.524198405118496497e-02
8.045399999999999352e+01 2.704400000000000048e+01 5.404200000000000159e+01 -9.068327000000000027e+00 -4.617288249606051054e-02
8.046200000000000330e+01 5.831300000000000239e+01 5.556900000000000261e+01 -6.957480999999999582e+00 3.109676617698111430e-03
8.047499999999999432e+01 6.181499999999999773e+01 5.203600000000000136e+01 -9.075644999999999740e+00 5.620014929138705817e-02
8.047599999999999909e+01 3.378000000000000114e+01 5.530700000000000216e+01 -6.895126999999999562e+00 -9.754590278120738034e-02
8.048099999999999454e+01 3.772500000000000142e+01 4.647699999999999676e+01 2.558657999999999877e+00 -2.818460599407133782e-01
8.049200000000000443e+01 3.126999999999999957e+01 5.851700000000000301e+01 -6.227422999999999931e+00 -8.788543741971385770e-02
8.049299999999999500e+01 5.642199999999999704e+01 7.127299999999999613e+01 -3.450956000000000046e+01 7.988212438908369462e-02
8.049299999999999500e+01 5.761299999999999955e+01 7.060899999999999466e+01 -1.726716000000000051e+01 1.153427912668389121e-01
8.049299999999999500e+01 5.880299999999999727e+01 7.127299999999999613e+01 -5.330866999999999578e+00 1.121334959210175952e-01
8.049500000000000455e+01 5.392499999999999716e+01 8.129500000000000171e+01 -1.936156000000000077e+01 -3.851064553752707176e-01
8.049500000000000455e+01 5.537100000000000222e+01 8.048900000000000432e+01 -8.864568000000000225e+00 -2.559729271852727583e-01
8.049500000000000455e+01 5.562500000000000000e+01 7.959499999999999886e+01 -8.476368000000000791e+00 -2.576815326161214781e-01
8.049599999999999511e+01 5.094800000000000040e+01 6.352499999999999858e+01 6.426222000000000101e+00 2.734354269050252029e-01
8.049699999999999989e+01 4.138900000000000290e+01 5.614300000000000068e+01 -8.730081000000000202e+00 9.901822879631047569e-02
8.049699999999999989e+01 4.159799999999999898e+01 5.687899999999999778e+01 -9.090154999999999319e+00 1.216900754456598233e-01
8.049699999999999989e+01 4.289300000000000068e+01 5.281799999999999784e+01 -3.545821000000000112e+00 1.653083541602250461e-01
8.049899999999999523e+01 5.460000000000000142e+01 5.165500000000000114e+01 -3.310035000000000061e-01 5.065241138273172267e-02
8.050100000000000477e+01 2.804700000000000060e+01 5.153499999999999659e+01 -3.148324000000000122e+00 -7.821485121507748550e-02
8.050400000000000489e+01 6.006799999999999784e+01 7.094299999999999784e+01 -2.735669999999999824e+00 -1.954158987735130082e-01
8.050700000000000500e+01 3.298599999999999710e+01 6.900400000000000489e+01 -9.392768000000000228e+00 8.409399221577122663e-02
8.051300000000000523e+01 6.073499999999999943e+01 5.790999999999999659e+01 5.407872000000000234e+00 -2.246665182068384170e-01
8.051399999999999579e+01 4.916299999999999670e+01 6.281300000000000239e+01 9.603552999999999784e+00 -5.716811489764426352e-02
8.051600000000000534e+01 5.717900000000000205e+01 4.887899999999999778e+01 2.649226000000000081e+00 1.049377508292177186e-01
8.051800000000000068e+01 4.048799999999999955e+01 8.347499999999999432e+01 -2.600235999999999947e+01 -8.742006125463522292e-02
8.051800000000000068e+01 2.990599999999999881e+01 5.936299999999999955e+01 -5.453509000000000384e+00 -1.859706014851134626e-01
8.051800000000000068e+01 6.365500000000000114e+01 5.423499999999999943e+01 -4.971460000000000434e+00 -1.476487435471363630e-01
8.052100000000000080e+01 4.883400000000000318e+01 5.551800000000000068e+01 -6.400064999999999671e+00 1.127534390074610635e-02
8.052599999999999625e+01 5.481499999999999773e+01 7.520699999999999363e+01 2.034059999999999846e+01 2.538323346240756728e-01
8.052899999999999636e+01 3.601800000000000068e+01 5.519500000000000028e+01 -9.017613000000000767e+00 -1.226748874826407015e-01
8.052899999999999636e+01 3.804999999999999716e+01 5.519500000000000028e+01 -2.310356000000000076e+00 5.548554741980447208e-02
8.053000000000000114e+01 6.144599999999999795e+01 5.608599999999999852e+01 -1.571779999999999955e+00 -5.787845507039342946e-02
8.053000000000000114e+01 6.144599999999999795e+01 5.695199999999999818e+01 3.892034000000000216e+00 -2.640196864450120029e-02
8.053100000000000591e+01 2.817099999999999937e+01 5.060399999999999920e+01 -4.507164000000000392e+00 -5.109493884891001120e-02
8.053300000000000125e+01 3.609700000000000131e+01 8.159699999999999420e+01 -3.617436000000000096e+00 -1.599854568114681963e-01
8.053600000000000136e+01 3.540100000000000335e+01 4.710499999999999687e+01 -3.921955000000000080e+00 -2.766162812429354689e-01
8.053799999999999670e+01 5.942600000000000193e+01 5.795400000000000063e+01 9.569575999999999638e+00 1.582117192938176653e-01
8.053900000000000148e+01 2.983500000000000085e+01 5.765200000000000102e+01 -1.442161000000000026e+00 -1.907838688359386747e-01
8.053900000000000148e+01 3.091300000000000026e+01 5.765200000000000102e+01 -4.272014000000000422e+00 -9.003124655097584361e-02
8.054000000000000625e+01 2.994099999999999895e+01 5.616100000000000136e+01 -1.084415000000000084e+01 8.218879461648682938e-02
8.054000000000000625e+01 3.080699999999999861e+01 5.616100000000000136e+01 -9.021276000000000295e+00 1.105267114592514976e-01
8.054000000000000625e+01 3.068499999999999872e+01 4.777900000000000347e+01 -2.992448999999999870e+01 6.229049504863524989e-02
8.054200000000000159e+01 3.948499999999999943e+01 4.900600000000000023e+01 -2.499750999999999834e+00 8.741809184672648392e-03
8.054200000000000159e+01 3.948499999999999943e+01 5.005599999999999739e+01 -2.446464000000000194e+00 6.475399330361736316e-02
8.054200000000000159e+01 3.948499999999999943e+01 5.092199999999999704e+01 -4.104981999999999687e+00 5.677098761648850106e-02
8.054399999999999693e+01 2.837500000000000000e+01 4.971800000000000352e+01 -5.218668000000000085e+00 -2.268371158920374012e-02
8.054399999999999693e+01 2.885900000000000176e+01 4.873899999999999721e+01 -6.661456000000000266e+00 8.647820851790262095e-03
8.054699999999999704e+01 6.519100000000000250e+01 6.245600000000000307e+01 3.496844999999999715e+01 -3.927898908836921499e-02
8.054699999999999704e+01 6.519100000000000250e+01 6.332099999999999795e+01 2.007825000000000060e+01 -8.063062185691922956e-03
8.054999999999999716e+01 3.368299999999999983e+01 6.828400000000000603e+01 -5.380202999999999847e+00 5.752927231238776778e-02
8.054999999999999716e+01 3.389200000000000301e+01 6.754800000000000182e+01 -2.137248000000000037e+00 3.307063242021537203e-02
8.054999999999999716e+01 2.955000000000000071e+01 5.692300000000000182e+01 -8.518050999999999817e+00 9.647801691637737653e-02
8.054999999999999716e+01 3.119800000000000040e+01 5.692300000000000182e+01 -8.973891000000000062e+00 -9.203905309805819612e-02
8.055100000000000193e+01 4.964699999999999847e+01 6.353699999999999903e+01 1.499416000000000082e-01 -9.751555324978908312e-02
8.055299999999999727e+01 3.834899999999999665e+01 8.345399999999999352e+01 -4.866488000000000369e+00 -1.349230676672999174e-01
8.055400000000000205e+01 6.495999999999999375e+01 5.512500000000000000e+01 5.118526000000000131e+00 -1.080808827796501115e-01
8.056600000000000250e+01 5.240999999999999659e+01 8.141100000000000136e+01 -2.812762999999999991e+01 -3.836102535900928201e-01
8.056900000000000261e+01 2.948900000000000077e+01 5.868599999999999994e+01 -5.121633000000000102e+00 -1.844491423680224562e-01
8.056900000000000261e+01 3.132499999999999929e+01 7.242400000000000659e+01 4.039290000000000269e+00 -3.348095322038568966e-01
8.056999999999999318e+01 3.474799999999999756e+01 8.003199999999999648e+01 3.349237999999999715e+01 -1.384133501143103850e-01
8.057699999999999818e+01 6.375099999999999767e+01 6.915699999999999648e+01 -1.941273000000000026e+00 2.671769146890429214e-02
8.057800000000000296e+01 4.061800000000000210e+01 5.167999999999999972e+01 -5.689835999999999672e+00 5.365149154875163001e-02
8.057999999999999829e+01 6.547299999999999898e+01 6.183200000000000074e+01 -1.866473000000000049e+00 -1.559122531513366938e-02
8.058700000000000330e+01 5.558700000000000330e+01 7.749099999999999966e+01 -2.880166000000000004e+00 5.427607601256793229e-02
8.058700000000000330e+01 5.558700000000000330e+01 7.910299999999999443e+01 -1.233511999999999986e+01 -2.587013209760647969e-01
8.058700000000000330e+01 5.569899999999999807e+01 7.829699999999999704e+01 -1.396584000000000003e+01 5.548540448645121470e-02
8.058899999999999864e+01 3.970000000000000284e+01 8.407999999999999829e+01 -2.259258000000000166e+01 -8.259248831793217227e-02
8.059900000000000375e+01 3.143599999999999994e+01 6.959600000000000364e+01 5.323890000000000011e-01 -8.077383504777299605e-02
8.060500000000000398e+01 5.415200000000000102e+01 5.263499999999999801e+01 -3.807779000000000025e+00 2.741013176052136679e-01
8.060699999999999932e+01 2.828699999999999903e+01 5.964900000000000091e+01 -5.165346999999999689e+00 -1.749929261528001267e-01
8.061700000000000443e+01 5.999799999999999756e+01 4.882999999999999829e+01 -6.061912999999999663e+00 9.162942951293348570e-02
8.061799999999999500e+01 3.309899999999999665e+01 7.946500000000000341e+01 1.369275999999999938e+00 -8.738777672107699013e-02
8.062099999999999511e+01 4.420400000000000063e+01 8.191100000000000136e+01 -1.356616999999999962e+00 -3.920405107962801061e-01
8.063299999999999557e+01 3.327400000000000091e+01 4.758599999999999852e+01 -5.586788999999999561e+00 -2.662396903538278847e-01
8.063299999999999557e+01 3.467399999999999949e+01 4.758599999999999852e+01 -4.687648000000000259e+00 -2.756725833622571953e-01
8.063500000000000512e+01 3.204099999999999682e+01 5.687199999999999989e+01 -1.076809000000000083e+01 -9.158147282115516874e-02
8.063800000000000523e+01 3.755700000000000216e+01 8.204300000000000637e+01 -8.803834000000000160e+00 -1.641630793382334585e-01
8.063899999999999579e+01 3.666499999999999915e+01 6.203300000000000125e+01 -9.906826999999999994e-02 1.975286376975432245e-01
8.063899999999999579e+01 3.762400000000000233e+01 6.107500000000000284e+01 -7.072929000000000244e+00 2.574098248217172591e-01
8.064199999999999591e+01 4.835300000000000153e+01 5.469700000000000273e+01 -5.540507999999999544e-01 4.071165629201872749e-03
8.065200000000000102e+01 3.179299999999999926e+01 5.842000000000000171e+01 -6.607730000000000103e+00 -8.733228193926576011e-02
8.065300000000000580e+01 5.166599999999999682e+01 5.682800000000000296e+01 -4.211581999999999826e-01 6.185543089696426966e-02
8.065300000000000580e+01 2.959100000000000108e+01 5.995600000000000307e+01 -5.579411999999999594e+00 -1.818693824710274909e-01
8.066200000000000614e+01 3.845400000000000063e+01 6.044200000000000017e+01 -1.457155999999999985e+01 6.179527322846445347e-02
8.066200000000000614e+01 3.978499999999999659e+01 5.952000000000000313e+01 -1.163091000000000008e+01 -1.268279289926524389e-01
8.066200000000000614e+01 5.065400000000000347e+01 5.855899999999999750e+01 4.230604999999999727e+00 5.846344953139621936e-02
8.066500000000000625e+01 6.155499999999999972e+01 5.049000000000000199e+01 -2.327329999999999899e+01 7.827931628980118461e-02
8.066899999999999693e+01 3.089900000000000091e+01 5.934100000000000108e+01 -6.310539999999999594e+00 -1.990819470024519089e-01
8.067199999999999704e+01 5.454099999999999682e+01 7.244199999999999307e+01 7.669819000000000386e+00 6.253221999412654497e-02
8.067400000000000659e+01 6.129699999999999704e+01 4.969700000000000273e+01 -5.538893999999999984e+00 8.493252162073791633e-02
8.067499999999999716e+01 5.501800000000000068e+01 5.622800000000000153e+01 5.620195999999999970e+00 -2.280273493657453410e-01
8.068600000000000705e+01 4.345499999999999829e+01 8.251800000000000068e+01 -2.241039999999999921e+01 -3.875982685236842862e-01
8.068800000000000239e+01 2.982999999999999829e+01 4.774099999999999966e+01 -2.906099999999999994e+01 3.861350424297892159e-02
8.069299999999999784e+01 5.036099999999999710e+01 5.653399999999999892e+01 -1.696944000000000008e+00 -6.053295472731427818e-02
8.069400000000000261e+01 4.202199999999999847e+01 8.327400000000000091e+01 2.036229000000000156e+01 -3.909863628326706864e-01
8.070600000000000307e+01 6.064399999999999835e+01 6.749899999999999523e+01 -4.417398999999999631e+00 1.873941853681022063e-01
8.070600000000000307e+01 6.064399999999999835e+01 6.836499999999999488e+01 -3.871557000000000137e+00 8.888206366819589865e-02
8.070799999999999841e+01 5.877900000000000347e+01 5.485600000000000165e+01 -1.783146999999999949e+01 -2.873334625193419561e-02
8.070799999999999841e+01 6.017900000000000205e+01 5.485600000000000165e+01 -1.938211000000000084e+01 2.079797313829762628e-01
8.071599999999999397e+01 6.495699999999999363e+01 6.582200000000000273e+01 -1.170404000000000089e+01 -2.343318950480177340e-02
8.071599999999999397e+01 6.173899999999999721e+01 6.599500000000000455e+01 -4.345353000000000243e+00 3.390039087019240671e-02
8.071800000000000352e+01 2.908500000000000085e+01 5.964900000000000091e+01 -5.354182999999999915e+00 -1.786682962610240399e-01
8.071899999999999409e+01 5.179500000000000171e+01 6.236699999999999733e+01 9.069494000000000611e+00 2.962600756116027245e-01
8.071899999999999409e+01 6.510200000000000387e+01 5.605100000000000193e+01 1.376910999999999952e+01 -8.017746838336968496e-02
8.072100000000000364e+01 4.637899999999999778e+01 5.433400000000000318e+01 1.229538999999999938e+00 -4.957563821170942776e-03
8.073499999999999943e+01 4.908899999999999864e+01 6.083299999999999841e+01 1.549849999999999994e+01 1.555180013910294201e-02
8.073499999999999943e+01 4.908899999999999864e+01 6.169899999999999807e+01 1.374747999999999948e+01 -1.607921091349613640e-02
8.073799999999999955e+01 3.905299999999999727e+01 4.811999999999999744e+01 -4.423862999999999879e+00 -2.988718242869153330e-01
8.073999999999999488e+01 5.642999999999999972e+01 5.072999999999999687e+01 9.156610999999999834e+00 8.392799303404874234e-02
8.074299999999999500e+01 6.224799999999999756e+01 5.273599999999999710e+01 -8.505055999999999727e+00 -4.458801077384610956e-02
8.074500000000000455e+01 4.548100000000000165e+01 8.149200000000000443e+01 -3.305689999999999795e+00 -4.021541213780012169e-01
8.074800000000000466e+01 5.881099999999999994e+01 5.778399999999999892e+01 -5.824148000000000103e-01 1.799081679173777926e-01
8.074899999999999523e+01 5.537199999999999989e+01 7.625000000000000000e+01 1.194815999999999967e+01 2.742175194029432550e-01
8.074899999999999523e+01 5.558100000000000307e+01 7.698600000000000421e+01 1.184209999999999985e+00 4.576960602755512919e-02
8.075400000000000489e+01 3.149899999999999878e+01 4.758299999999999841e+01 -5.413543999999999912e+00 7.362215388783600878e-02
8.075499999999999545e+01 3.403399999999999892e+01 7.950300000000000011e+01 5.070662000000000091e+01 -1.020085337340634196e-01
8.075600000000000023e+01 3.332699999999999818e+01 5.604099999999999682e+01 -2.555121000000000109e+01 -1.264432903587578427e-01
8.076699999999999591e+01 5.826700000000000301e+01 4.873499999999999943e+01 -8.392188000000000425e-01 1.318652285666529478e-01
8.076800000000000068e+01 6.420499999999999829e+01 6.675700000000000500e+01 -1.415948000000000029e+01 -2.478318315764252780e-02
8.076999999999999602e+01 3.171900000000000119e+01 5.768500000000000227e+01 -6.267127999999999588e+00 -8.877604180408940615e-02
8.077599999999999625e+01 4.686299999999999955e+01 5.393200000000000216e+01 7.099404000000000270e-01 -4.503731478615370827e-03
8.077599999999999625e+01 4.791299999999999670e+01 5.393200000000000216e+01 4.132023000000000224e+00 -5.568533357789326021e-04
8.077599999999999625e+01 2.871999999999999886e+01 5.881400000000000006e+01 -7.710987000000000258e+00 -1.767093603979750793e-01
8.077700000000000102e+01 5.236999999999999744e+01 6.175300000000000011e+01 9.265482000000000440e+00 2.529585693231532068e-02
8.078000000000000114e+01 3.447999999999999687e+01 5.524900000000000233e+01 -1.062219999999999942e+01 -1.253551224796512209e-01
8.078300000000000125e+01 3.394599999999999795e+01 6.692100000000000648e+01 -4.650229999999999642e+00 1.195579387459415159e-02
8.079000000000000625e+01 5.285600000000000165e+01 6.024499999999999744e+01 1.024450000000000038e+01 1.410790893778836597e-01
8.079000000000000625e+01 5.285600000000000165e+01 6.111099999999999710e+01 8.402542999999999651e+00 4.404821717843179080e-02
8.079200000000000159e+01 3.540400000000000347e+01 6.303799999999999670e+01 4.767125000000000057e+00 1.259710540623605601e-01
8.079399999999999693e+01 4.543399999999999750e+01 5.428900000000000148e+01 1.688433999999999990e+00 2.295443136516336913e-01
8.079600000000000648e+01 5.455899999999999750e+01 5.903699999999999903e+01 -1.835158000000000067e+00 1.318822624865559900e-01
8.079699999999999704e+01 6.088400000000000034e+01 6.997899999999999920e+01 -3.356092999999999993e+00 -1.838427183864398129e-01
8.079699999999999704e+01 6.101299999999999812e+01 5.538600000000000279e+01 -8.527366000000000668e+00 -6.065369399579836202e-02
8.080200000000000671e+01 6.518500000000000227e+01 6.493600000000000705e+01 -3.376626999999999867e+01 -1.472043099696863575e-02
8.080299999999999727e+01 5.762599999999999767e+01 5.707600000000000051e+01 -1.213264000000000031e+01 1.595946513356925334e-01
8.080599999999999739e+01 6.520900000000000318e+01 6.400000000000000000e+01 4.826201000000000185e+00 -9.282547492340937484e-03
8.080700000000000216e+01 3.037399999999999878e+01 5.686099999999999710e+01 -6.765867000000000075e+00 -9.211119191210910551e-02
8.080800000000000693e+01 6.146399999999999864e+01 6.915699999999999648e+01 -3.589322000000000124e+00 1.331189684742508095e-01
8.080800000000000693e+01 6.293599999999999994e+01 6.915699999999999648e+01 -5.113776999999999795e+00 1.611769636624586222e-01
8.080800000000000693e+01 6.456600000000000250e+01 6.915699999999999648e+01 7.610012000000000398e+01 3.017330186215446200e-02
8.081399999999999295e+01 4.736200000000000188e+01 8.163200000000000500e+01 -8.522998000000000518e-01 -4.112409866222163091e-01
8.081499999999999773e+01 5.432800000000000296e+01 7.325799999999999557e+01 2.040360000000000085e+01 1.069975477106955009e-01
8.082099999999999795e+01 3.724600000000000222e+01 4.588100000000000023e+01 1.407618999999999954e+00 -2.739781799140777463e-01
8.082099999999999795e+01 6.624899999999999523e+01 5.902600000000000335e+01 -1.613712999999999909e+01 -1.234788047592201982e-01
8.082099999999999795e+01 6.624899999999999523e+01 6.062400000000000233e+01 -6.353623999999999938e+01 -1.036510627426505404e-01
8.082099999999999795e+01 6.647599999999999909e+01 5.982500000000000284e+01 -2.012849999999999895e+01 -1.134051495327825093e-01
8.082299999999999329e+01 3.461599999999999966e+01 7.867000000000000171e+01 2.373837999999999937e+01 -9.377447725954599078e-02
8.082599999999999341e+01 6.319599999999999795e+01 6.599399999999999977e+01 -1.157831000000000010e+01 -7.022739978288773666e-02
8.082599999999999341e+01 3.199599999999999866e+01 7.853799999999999670e+01 1.181142999999999965e+01 -6.501038364525615898e-02
8.083199999999999363e+01 5.340400000000000347e+01 5.457699999999999818e+01 9.434768999999999517e-01 -1.356290151447320756e-02
8.083199999999999363e+01 5.374900000000000233e+01 5.535900000000000176e+01 4.836788999999999561e+00 -2.277940555807952960e-01
8.083299999999999841e+01 3.531799999999999784e+01 5.513700000000000045e+01 -9.687732000000000454e+00 -1.246754479214075007e-01
8.083400000000000318e+01 2.748799999999999955e+01 5.964900000000000091e+01 -4.559734999999999872e+00 -1.690372834755226039e-01
8.083400000000000318e+01 2.902299999999999969e+01 5.811399999999999721e+01 -4.141706000000000110e+00 -1.796290288849261285e-01
8.083499999999999375e+01 4.392699999999999960e+01 5.426299999999999812e+01 -3.543254999999999821e+00 2.057085588414510613e-01
8.083899999999999864e+01 2.741400000000000148e+01 5.299300000000000210e+01 -2.860212000000000199e+00 -9.246783129174471205e-02
8.084099999999999397e+01 3.200800000000000267e+01 7.497599999999999909e+01 2.783021000000000189e+00 -1.423272438950126673e-01
8.084199999999999875e+01 3.878399999999999892e+01 5.507399999999999807e+01 -1.543211999999999939e+01 6.193447590859839369e-02
8.084199999999999875e+01 3.964999999999999858e+01 5.507399999999999807e+01 -1.102820000000000000e+01 4.343535393034071018e-02
8.084900000000000375e+01 3.217499999999999716e+01 7.319899999999999807e+01 6.048486999999999725e+00 -1.881825923952678836e-01
8.084900000000000375e+01 3.238400000000000034e+01 7.393500000000000227e+01 7.542074000000000389e+00 -1.672928604182400136e-01
8.085500000000000398e+01 5.182800000000000296e+01 5.905599999999999739e+01 7.701315999999999917e+01 -2.919483595074074539e-02
8.085500000000000398e+01 3.855700000000000216e+01 4.677799999999999869e+01 2.833845000000000169e+00 -2.819149860040698341e-01
8.085999999999999943e+01 2.871900000000000119e+01 5.639399999999999835e+01 -1.800649999999999906e+01 9.568386542349163748e-03
8.086100000000000421e+01 2.906700000000000017e+01 5.750600000000000023e+01 -4.426191000000000209e+00 -1.814528075062664392e-01
8.086100000000000421e+01 5.792900000000000205e+01 5.777600000000000335e+01 -2.543759999999999977e+01 1.654839895304845154e-01
8.087000000000000455e+01 4.097800000000000153e+01 5.865299999999999869e+01 -1.459474999999999945e+01 -1.563302592869177388e-01
8.087300000000000466e+01 6.327199999999999847e+01 6.838200000000000500e+01 -4.441761999999999766e+00 1.074016650742259937e-02
8.087300000000000466e+01 6.327199999999999847e+01 6.993200000000000216e+01 -9.617978000000000638e-02 1.764412267379021904e-01
8.087300000000000466e+01 6.423000000000000398e+01 6.838200000000000500e+01 -3.285803000000000029e+00 -9.800281964061087481e-02
8.087300000000000466e+01 6.423000000000000398e+01 6.993200000000000216e+01 2.075087999999999866e+01 1.813675774441134980e-01
8.087600000000000477e+01 3.656400000000000006e+01 5.584599999999999653e+01 -2.075474000000000174e+01 -1.248051392140593768e-01
8.087600000000000477e+01 3.750399999999999778e+01 5.584599999999999653e+01 -2.875659999999999883e+01 -1.240621412406965052e-01
8.089700000000000557e+01 2.781700000000000017e+01 5.888900000000000290e+01 -4.775864000000000331e+00 -1.697449936119341252e-01
8.089700000000000557e+01 2.781700000000000017e+01 6.040899999999999892e+01 -7.487739999999999618e+00 -3.290238444743013302e-01
8.089799999999999613e+01 4.889699999999999847e+01 8.316700000000000159e+01 -3.870459999999999923e+01 -4.071170215355779942e-01
8.089799999999999613e+01 4.998100000000000165e+01 8.316700000000000159e+01 -5.813542000000000343e+01 -4.054180918375465126e-01
8.090099999999999625e+01 6.516100000000000136e+01 5.708500000000000085e+01 1.386792999999999942e+01 -1.557912625653970484e-01
8.090500000000000114e+01 3.799000000000000199e+01 8.274299999999999500e+01 -7.594807999999999559e+00 -1.303599849465628124e-01
8.091500000000000625e+01 5.757900000000000063e+01 5.584899999999999665e+01 -1.674763000000000002e+00 -2.220396393207428043e-01
8.092199999999999704e+01 6.007999999999999829e+01 5.842300000000000182e+01 7.347948999999999842e+00 -1.198944391843912022e-01
8.092300000000000182e+01 3.404999999999999716e+01 6.394400000000000261e+01 -6.562049000000000021e+00 1.992085108431815577e-01
8.092400000000000659e+01 3.091100000000000136e+01 7.044599999999999795e+01 -8.513876000000000221e-01 -1.765167310262293066e-01
8.092400000000000659e+01 3.091100000000000136e+01 7.149599999999999511e+01 -1.432515999999999901e+00 -2.137340929014190927e-01
8.092600000000000193e+01 5.691299999999999670e+01 7.087699999999999534e+01 -2.579431999999999903e+01 8.000833428306629302e-02
8.092600000000000193e+01 5.831300000000000239e+01 7.087699999999999534e+01 -1.785859999999999914e+01 8.469153405477339303e-02
8.092799999999999727e+01 6.409499999999999886e+01 5.489399999999999835e+01 2.976942999999999984e+01 -1.152851443418790589e-01
8.093000000000000682e+01 4.089800000000000324e+01 5.574699999999999989e+01 -9.749689000000000050e+00 7.556225684901327067e-02
8.093000000000000682e+01 5.685499999999999687e+01 5.026299999999999812e+01 9.516016000000000474e+00 1.110958661707057427e-01
8.093099999999999739e+01 5.421500000000000341e+01 5.563499999999999801e+01 1.084215999999999980e+01 -2.295480549239200252e-01
8.093300000000000693e+01 4.099399999999999977e+01 5.167399999999999949e+01 -7.994116000000000000e+00 4.092090171921202585e-02
8.093800000000000239e+01 5.377000000000000313e+01 5.355299999999999727e+01 1.434055999999999997e+00 -4.653853192533449756e-02
8.094299999999999784e+01 5.545100000000000051e+01 5.692799999999999727e+01 2.332248000000000099e-01 -2.019069180288268761e-01
8.094299999999999784e+01 5.545100000000000051e+01 5.779299999999999926e+01 -1.723611000000000004e+00 3.106406160482302198e-02
8.094499999999999318e+01 4.251500000000000057e+01 5.230799999999999983e+01 -3.353438999999999837e+00 1.461958242977720590e-01
8.094499999999999318e+01 3.401400000000000290e+01 6.577299999999999613e+01 3.507306000000000035e-01 -1.562209710176951614e-02
8.094599999999999795e+01 6.143500000000000227e+01 5.764300000000000068e+01 3.004693000000000058e+00 -2.403498800244368017e-01
8.095000000000000284e+01 3.999699999999999989e+01 8.387199999999999989e+01 -1.577909999999999968e+01 -8.195307066699554499e-02
8.095099999999999341e+01 5.566199999999999903e+01 7.167900000000000205e+01 -2.328376000000000090e+01 3.729478777367460918e-01
8.095399999999999352e+01 2.778900000000000148e+01 5.546300000000000097e+01 -1.743419000000000096e+01 -8.107974535633688876e-03
8.095499999999999829e+01 4.083299999999999841e+01 4.562800000000000011e+01 -4.947389000000000259e+00 -2.584118140560126564e-01
8.095900000000000318e+01 5.920100000000000051e+01 4.885099999999999909e+01 -6.536953999999999709e+00 1.130431631779695578e-01
8.095900000000000318e+01 5.411500000000000199e+01 7.407399999999999807e+01 2.211364999999999981e+01 1.947802651630449189e-01
8.095900000000000318e+01 5.432500000000000284e+01 7.481000000000000227e+01 2.670055999999999941e+01 2.308330319343337433e-01
8.095999999999999375e+01 3.155600000000000094e+01 7.777299999999999613e+01 5.515156000000000169e+00 -2.730890213696945401e-01
8.096299999999999386e+01 6.072899999999999920e+01 4.899799999999999756e+01 -6.019809999999999661e+00 1.027879710167831362e-01
8.096800000000000352e+01 3.589200000000000301e+01 4.670799999999999841e+01 -8.530472000000000055e-01 -2.752218745065980188e-01
8.097199999999999420e+01 3.231099999999999994e+01 5.755700000000000216e+01 -5.003776000000000224e+00 -1.272250627530299438e-01
8.097299999999999898e+01 2.895799999999999841e+01 6.042799999999999727e+01 -1.344295999999999935e+01 -3.371605542178733872e-01
8.097499999999999432e+01 4.018500000000000227e+01 5.118900000000000006e+01 -7.984291999999999945e+00 -7.467505211214829630e-02
8.097499999999999432e+01 3.274399999999999977e+01 5.681600000000000250e+01 -1.759185000000000088e+01 -1.276317577911884604e-01
8.097599999999999909e+01 2.836799999999999855e+01 4.913499999999999801e+01 -5.162512000000000434e+00 -1.927351898075402997e-02
8.097899999999999920e+01 3.479299999999999926e+01 7.946500000000000341e+01 4.619774000000000314e+01 -1.200896844707478317e-01
8.098199999999999932e+01 3.319200000000000017e+01 6.868000000000000682e+01 -5.675300000000000011e+00 6.892528329910699303e-02
8.098399999999999466e+01 6.130599999999999739e+01 6.669499999999999318e+01 -6.136116999999999599e+00 1.730246804595148569e-01
8.098600000000000421e+01 3.859700000000000131e+01 8.413500000000000512e+01 -8.407311999999999230e+00 -9.918287654035463918e-02
8.098799999999999955e+01 3.368599999999999994e+01 6.488700000000000045e+01 -4.631844000000000072e+00 1.139123784909515241e-01
8.099699999999999989e+01 3.342399999999999949e+01 7.866200000000000614e+01 8.537273000000000778e+00 -6.731518207583306324e-02
8.099899999999999523e+01 5.191899999999999693e+01 8.180700000000000216e+01 -3.316667000000000343e+01 -3.806163226842763092e-01
8.100100000000000477e+01 5.017600000000000193e+01 6.271000000000000085e+01 7.198907000000000167e+00 4.357433524744727671e-02
8.100100000000000477e+01 5.104200000000000159e+01 6.271000000000000085e+01 7.509723000000000148e+00 2.788645690122931731e-01
8.100199999999999534e+01 3.242399999999999949e+01 4.751500000000000057e+01 -5.483812000000000353e+00 6.772174949952346201e-02
8.100300000000000011e+01 3.523899999999999721e+01 8.042900000000000205e+01 7.662882999999999889e+00 -1.551322923188212799e-01
8.100300000000000011e+01 3.556400000000000006e+01 8.116599999999999682e+01 -4.285699000000000147e+00 -1.734378549958779936e-01
8.100400000000000489e+01 6.293500000000000227e+01 5.400000000000000000e+01 -2.048000000000000043e+01 -8.396601834262670816e-02
8.100900000000000034e+01 3.259599999999999653e+01 5.836299999999999955e+01 -6.654353999999999658e+00 -1.270644816291933155e-01
8.101500000000000057e+01 3.908400000000000318e+01 8.470300000000000296e+01 -5.940151000000000181e+00 -7.277876473455879847e-02
8.101800000000000068e+01 6.220000000000000284e+01 6.915699999999999648e+01 -3.301682000000000006e+00 1.556035551219939195e-01
8.101999999999999602e+01 5.477499999999999858e+01 8.096999999999999886e+01 1.954053000000000040e+01 -2.570230832796704945e-01
8.102299999999999613e+01 6.528300000000000125e+01 5.789500000000000313e+01 7.809422000000000308e-01 -1.374724224214114721e-01
8.102599999999999625e+01 3.043900000000000006e+01 5.996699999999999875e+01 -7.245912999999999826e+00 -1.933858811933023003e-01
8.102800000000000580e+01 5.061099999999999710e+01 8.260500000000000398e+01 -6.985369000000000028e+01 -3.537261952361553385e-01
8.103300000000000125e+01 6.271800000000000352e+01 5.349600000000000222e+01 -3.246376999999999668e+01 -6.619183923114577150e-02
8.103499999999999659e+01 3.792600000000000193e+01 6.112400000000000233e+01 -1.185577999999999932e+01 2.565423752147384939e-01
8.104399999999999693e+01 3.795199999999999818e+01 8.388599999999999568e+01 -5.121400000000000396e+00 -9.058336256518105534e-02
8.105100000000000193e+01 5.311500000000000199e+01 8.111100000000000421e+01 -1.162673999999999985e+01 -3.830714158205606457e-01
8.105400000000000205e+01 3.558400000000000318e+01 7.865099999999999625e+01 1.168636000000000053e+01 -1.322276809345917514e-01
8.105500000000000682e+01 6.368999999999999773e+01 6.758299999999999841e+01 -4.357808999999999600e+00 -6.066623984283085746e-03
8.105700000000000216e+01 5.948299999999999699e+01 7.144199999999999307e+01 -7.182966999999999658e+00 -2.015845745865717797e-01
8.105899999999999750e+01 6.469599999999999795e+01 6.716400000000000148e+01 -7.072861999999999760e+00 -5.427917714884648859e-03
8.106100000000000705e+01 3.925399999999999778e+01 8.645399999999999352e+01 -4.842019999999999769e+00 -2.720455107947584161e-01
8.106900000000000261e+01 3.395199999999999818e+01 7.798999999999999488e+01 1.374399000000000015e+01 -5.467868157750403746e-02
8.107200000000000273e+01 3.617499999999999716e+01 6.242999999999999972e+01 -5.485496999999999623e+00 1.512888402267053567e-01
8.107999999999999829e+01 3.222699999999999676e+01 5.921300000000000097e+01 -7.501274999999999693e+00 -2.142023900113902424e-01
8.108199999999999363e+01 4.779500000000000171e+01 8.233199999999999363e+01 -5.651887999999999579e+00 -4.090912569716658176e-01
