4.659799999999999898e+01 4.622399999999999842e+00 2.207499999999999929e+01 -5.516553000000000040e+00 -1.539326612781584669e-01
4.661200000000000188e+01 1.601200000000000045e+01 3.144000000000000128e+01 -5.187101000000000184e+00 -2.389951595376752225e-01
4.665100000000000335e+01 4.900400000000000311e+00 4.494899999999999807e+01 -4.998814000000000313e+00 -1.576919200303695534e-01
4.665400000000000347e+01 3.507299999999999862e+00 3.383400000000000318e+01 -3.844337999999999766e+01 -1.761307324251314699e-01
4.665999999999999659e+01 2.819999999999999840e+00 3.863799999999999812e+01 -1.727709000000000117e+01 -1.490864615700775164e-01
4.666400000000000148e+01 4.003300000000000303e+00 3.944899999999999807e+01 -1.475586000000000020e+01 -1.364988401237387794e-01
4.669100000000000250e+01 1.111599999999999966e+01 4.395300000000000296e+01 -1.162589999999999968e+01 -1.225934501874669826e-02
4.670000000000000284e+01 1.458900000000000041e+01 4.438600000000000279e+01 -5.072605000000000253e+00 1.675355589663865830e-01
4.670600000000000307e+01 4.200499999999999901e+00 4.286699999999999733e+01 -5.100961000000000212e+01 -6.507164016942876272e-02
4.670900000000000318e+01 6.314600000000000435e+00 4.526299999999999812e+01 -3.880680999999999869e+01 -1.575892059666640921e-01
4.672699999999999676e+01 4.293300000000000338e+00 4.072800000000000153e+01 -6.511394000000000126e+00 -1.409470793314429315e-01
4.674000000000000199e+01 8.721000000000000085e+00 4.603099999999999881e+01 -9.224783000000000399e+00 -9.789560809109854739e-03
4.675300000000000011e+01 2.736899999999999888e+00 3.611099999999999710e+01 -6.641509000000000107e+00 -1.508299846683693324e-01
4.676200000000000045e+01 1.649800000000000111e+01 4.454599999999999937e+01 -1.266810000000000080e+01 1.612867208888831283e-01
4.678799999999999670e+01 8.807000000000000384e+00 1.951200000000000045e+01 6.240487000000000117e-01 -1.445576055570355067e-01
4.684400000000000119e+01 1.783800000000000097e+01 3.945300000000000296e+01 1.075909000000000049e+01 -9.780987581980776779e-02
4.685499999999999687e+01 4.196900000000000297e+00 4.003900000000000148e+01 -5.968772999999999662e+00 -1.388711157151409914e-01
4.685600000000000165e+01 2.968999999999999861e+00 3.069800000000000040e+01 -1.460858999999999908e+00 -2.632751558487914090e-01
4.685799999999999699e+01 1.844200000000000017e+01 4.004299999999999926e+01 2.230283000000000015e+00 -1.017518767326191648e-01
4.686500000000000199e+01 5.881000000000000227e+00 2.275100000000000122e+01 -5.279593000000000202e+00 -1.546034338478743941e-01
4.686500000000000199e+01 8.146300000000000097e+00 2.188599999999999923e+01 5.710493999999999915e+01 -1.563112358158652848e-01
4.686500000000000199e+01 8.146300000000000097e+00 2.275100000000000122e+01 2.581172000000000111e+01 -1.561331569456499424e-01
4.687800000000000011e+01 1.368399999999999928e+01 2.361799999999999855e+01 -6.534988000000000241e+00 -2.336702913963660255e-01
4.688600000000000279e+01 4.132799999999999585e+00 4.161500000000000199e+01 -1.028190000000000026e+01 -5.921729217889317581e-02
4.688799999999999812e+01 1.694000000000000128e+01 3.621999999999999886e+01 1.263709000000000060e+01 -8.554737351470689810e-02
4.688900000000000290e+01 1.612399999999999878e+01 2.894800000000000040e+01 1.375614000000000026e+01 -2.410191572889681111e-01
4.689200000000000301e+01 1.629700000000000060e+01 3.469400000000000261e+01 9.615477999999999525e+00 -8.027320808990473511e-02
4.689200000000000301e+01 1.641499999999999915e+01 3.384700000000000131e+01 -5.053239999999999732e+00 -7.853221727690835874e-02
4.690100000000000335e+01 7.013700000000000045e+00 2.350900000000000034e+01 3.994761000000000006e+00 -1.552007165756800200e-01
4.690200000000000102e+01 1.753500000000000014e+01 3.875300000000000011e+01 2.557482999999999951e+00 -9.478581369587922578e-02
4.691499999999999915e+01 1.050900000000000034e+01 1.945799999999999841e+01 8.273388999999999882e-01 -1.444917302765152956e-01
4.691599999999999682e+01 1.612399999999999878e+01 3.220100000000000051e+01 -1.077524999999999977e+01 -7.527186919255519915e-02
4.691700000000000159e+01 1.331400000000000006e+01 4.416899999999999693e+01 -6.353383000000000003e+00 1.637712323799631609e-01
4.691899999999999693e+01 7.967699999999999783e-01 2.817399999999999949e+01 -2.535165000000000113e+00 -2.632381216785728562e-01
4.691899999999999693e+01 7.967699999999999783e-01 2.928600000000000136e+01 -2.816466999999999832e+00 -2.636635239825027011e-01
4.692199999999999704e+01 1.598099999999999987e+01 2.617099999999999937e+01 2.319764999999999855e+00 -2.431036043171527772e-01
4.692399999999999949e+01 1.265000000000000036e+01 1.967999999999999972e+01 -1.013743999999999978e+00 -1.516341748477814666e-01
4.692399999999999949e+01 1.109999999999999964e+01 1.952799999999999869e+01 5.055821999999999816e-01 -1.423546055640578234e-01
4.694299999999999784e+01 1.475500000000000078e+01 2.533399999999999963e+01 -2.763406999999999947e+00 -2.437744558630759728e-01
4.694400000000000261e+01 3.833000000000000185e+00 2.224299999999999855e+01 -3.549907999999999841e+00 -1.531569496482392267e-01
4.694400000000000261e+01 5.352999999999999758e+00 2.224299999999999855e+01 -2.337422000000000111e+00 -1.543535094372866234e-01
4.695000000000000284e+01 2.350299999999999834e+00 3.693800000000000239e+01 -4.639948000000000405e+00 -1.499473914168001354e-01
4.695000000000000284e+01 2.350299999999999834e+00 3.787800000000000011e+01 -4.872940999999999967e+00 -1.493230270059967280e-01
4.697200000000000131e+01 1.191799999999999926e+01 4.388400000000000034e+01 -2.717224999999999824e+01 -1.340980375333531219e-02
4.697800000000000153e+01 9.283799999999999386e+00 4.578999999999999915e+01 -2.089196000000000097e+01 -1.008855672550353945e-02
4.698199999999999932e+01 1.832400000000000162e+01 4.163600000000000279e+01 -4.320539999999999736e+01 -1.047696733006580755e-01
4.698899999999999721e+01 1.737300000000000111e+01 3.711599999999999966e+01 1.156427000000000049e+01 -8.950348420218892653e-02
4.699399999999999977e+01 2.882699999999999818e+00 2.360500000000000043e+01 -3.790629000000000026e+00 -1.516729267860197627e-01
4.699399999999999977e+01 2.882699999999999818e+00 2.447100000000000009e+01 -2.710100000000000176e+00 -1.512329472393310892e-01
4.699799999999999756e+01 1.625700000000000145e+01 3.293500000000000227e+01 -5.333404999999999951e+00 -7.682143434940121030e-02
4.700500000000000256e+01 4.697600000000000442e+00 4.384100000000000108e+01 -1.985900000000000176e+01 -7.145538891748910715e-02
4.700800000000000267e+01 7.962100000000000399e+00 4.606600000000000250e+01 -9.832535999999999277e+00 -3.820587077004972132e-03
4.701500000000000057e+01 3.878600000000000048e+00 3.492099999999999937e+01 -7.142090999999999745e+00 -1.538348629067963491e-01
4.701899999999999835e+01 1.756400000000000006e+01 4.364300000000000068e+01 1.270311000000000057e+01 1.592789379498709690e-01
4.704099999999999682e+01 2.146500000000000075e+00 3.031700000000000017e+01 -7.485458000000000389e+00 -2.634220076872748062e-01
4.705400000000000205e+01 1.799399999999999977e+01 4.259400000000000119e+01 -6.126790999999999876e+00 1.601459685484877271e-01
4.705400000000000205e+01 3.532399999999999984e+00 3.877600000000000335e+01 -4.978226999999999691e+01 -1.512839277689223272e-01
4.708400000000000318e+01 8.327999999999999403e+00 2.028699999999999903e+01 9.549943000000000737e+00 -1.432250815198988225e-01
4.708400000000000318e+01 8.176399999999999224e+00 2.124500000000000099e+01 8.584335000000000093e+01 -1.563766454188569299e-01
4.708700000000000330e+01 4.207300000000000040e+00 3.270100000000000051e+01 -4.786537000000000042e+00 -2.627312013770560783e-01
4.708700000000000330e+01 4.207300000000000040e+00 3.356600000000000250e+01 -1.253701000000000043e+01 -1.769815262429407232e-01
4.709700000000000131e+01 1.837000000000000099e+01 3.896000000000000085e+01 -3.601441000000000225e-01 -9.850415268443628303e-02
4.712400000000000233e+01 9.582000000000000739e+00 1.944699999999999918e+01 -1.789053000000000004e+00 -1.448888801537927262e-01
4.714900000000000091e+01 1.848699999999999832e+01 4.073400000000000176e+01 -2.118496000000000024e+01 -1.035011465785499879e-01
4.716299999999999670e+01 2.395300000000000207e+00 2.514699999999999847e+01 -2.548957999999999835e+00 -2.618743274998593384e-01
4.716299999999999670e+01 7.048399999999999999e+00 4.554299999999999926e+01 -2.500306000000000139e+01 6.247354881384300715e-03
4.716899999999999693e+01 1.060299999999999976e+01 4.449399999999999977e+01 -7.453818000000000055e+00 -9.680926550032284764e-03
4.717699999999999960e+01 2.397699999999999942e+00 2.578900000000000148e+01 3.325493999999999950e+00 -2.620397789385811582e-01
4.718500000000000227e+01 1.407300000000000040e+01 4.420400000000000063e+01 -8.848371000000000208e+00 1.673644561124310315e-01
4.719899999999999807e+01 5.766000000000000014e+00 4.479200000000000159e+01 -2.721640000000000015e+01 -7.495316305655820577e-02
4.720600000000000307e+01 1.801000000000000156e+01 3.831799999999999784e+01 3.705721000000000043e+00 -9.537036839609132344e-02
4.720600000000000307e+01 3.470699999999999896e+00 3.583100000000000307e+01 -5.261201999999999934e+00 -1.527924503220830510e-01
4.720900000000000318e+01 1.752499999999999858e+01 4.163600000000000279e+01 -5.519749999999999801e+01 -1.017464776386464848e-01
4.721200000000000330e+01 1.301999999999999957e+01 2.221399999999999864e+01 7.225440999999999292e+01 -2.339017651630152239e-01
4.721999999999999886e+01 1.312899999999999956e+01 2.045499999999999829e+01 6.255376000000000047e+00 -1.356917017815290338e-01
4.721999999999999886e+01 1.312899999999999956e+01 2.141300000000000026e+01 1.675429000000000030e+02 -1.348074034530278298e-01
4.723499999999999943e+01 2.419599999999999973e+00 2.669000000000000128e+01 2.689817999999999820e+00 -2.622686820526726192e-01
4.725999999999999801e+01 1.187500000000000000e+01 1.961499999999999844e+01 1.578343000000000107e-01 -1.532759126021666918e-01
4.726400000000000290e+01 4.719699999999999562e+00 4.254399999999999693e+01 -2.728670999999999935e+01 -6.577981378103456289e-02
4.726400000000000290e+01 1.770599999999999952e+01 3.761800000000000210e+01 4.312447999999999837e+00 -9.234913422860681342e-02
4.729699999999999704e+01 1.574300000000000033e+01 4.451100000000000279e+01 -1.748586999999999847e+01 1.632271728787971776e-01
4.729800000000000182e+01 6.581000000000000405e+00 2.301800000000000068e+01 -5.327257000000000353e+00 -1.549152808896561706e-01
4.729800000000000182e+01 7.446299999999999919e+00 2.301800000000000068e+01 7.748429999999999929e+00 -1.554960458112480681e-01
4.734599999999999653e+01 3.447599999999999998e+00 3.107400000000000162e+01 3.596639999999999837e+00 -2.628738758021079147e-01
4.734799999999999898e+01 1.335699999999999932e+01 2.329899999999999949e+01 1.239819000000000004e+00 -2.336572928411896066e-01
4.734799999999999898e+01 1.430599999999999916e+01 2.424800000000000111e+01 -3.191066999999999876e+00 -2.442112369214994305e-01
4.734799999999999898e+01 1.463100000000000023e+01 2.498499999999999943e+01 -1.433807000000000009e+01 -2.438064461466701582e-01
4.734899999999999665e+01 1.883899999999999864e+01 3.960999999999999943e+01 -1.606397999999999993e+00 -1.021052582385208185e-01
4.735600000000000165e+01 7.749699999999999811e+00 2.231800000000000139e+01 1.060403999999999947e+01 -1.558255717408245089e-01
4.735799999999999699e+01 3.715599999999999792e+00 3.190599999999999881e+01 -2.740763999999999978e+00 -2.628067074389540125e-01
4.736099999999999710e+01 1.548300000000000054e+01 3.018599999999999994e+01 4.522789000000000392e+00 -2.401348550065185439e-01
4.736200000000000188e+01 1.664000000000000057e+01 2.658099999999999952e+01 3.974607999999999919e+00 4.077348666550756340e-02
4.736500000000000199e+01 1.789000000000000057e+01 4.093599999999999994e+01 -2.757544000000000040e+01 -1.016345167237909103e-01
4.736599999999999966e+01 3.224800000000000111e+00 2.260900000000000176e+01 -3.791151000000000160e+00 -1.524418530557795359e-01
4.737599999999999767e+01 1.524600000000000044e+01 2.573000000000000043e+01 5.677266000000000368e+00 -2.432992026023135801e-01
4.737800000000000011e+01 5.942999999999999616e+00 2.257999999999999829e+01 -5.279593000000000202e+00 -1.545709960421979556e-01
4.738600000000000279e+01 1.626999999999999957e+01 3.496300000000000097e+01 9.615477999999999525e+00 -8.197749713609661648e-02
4.738600000000000279e+01 1.647899999999999920e+01 3.569899999999999807e+01 1.955987000000000009e+01 -8.412470389311550722e-02
4.740500000000000114e+01 1.558399999999999963e+01 3.100600000000000023e+01 -8.684264999999999901e+00 -2.394462014088602486e-01
4.740800000000000125e+01 3.161300000000000221e+00 3.659400000000000119e+01 -7.451980999999999966e+00 -1.521915211109614308e-01
4.741400000000000148e+01 4.592999999999999972e+00 2.195299999999999940e+01 -2.703317000000000192e+00 -1.537865004430029048e-01
4.741799999999999926e+01 1.678900000000000148e+01 4.163600000000000279e+01 -9.521217000000000041e+00 -9.932531265957615652e-02
4.742000000000000171e+01 3.110300000000000065e+00 3.816799999999999926e+01 -1.753404000000000096e+01 -1.515043241396722418e-01
4.744700000000000273e+01 1.746099999999999852e+01 4.286299999999999955e+01 -7.034350000000000325e-01 1.611183462986025550e-01
4.744700000000000273e+01 1.657700000000000173e+01 2.844000000000000128e+01 8.232504000000000488e+00 3.945063859557114416e-02
4.747099999999999653e+01 1.852400000000000091e+01 3.805899999999999750e+01 7.972799000000000191e+00 -9.653450626750273433e-02
4.747500000000000142e+01 1.696800000000000086e+00 2.782999999999999829e+01 -2.551817999999999920e+00 -2.626793880886840737e-01
4.747500000000000142e+01 1.696800000000000086e+00 2.962999999999999901e+01 -3.781419000000000086e+00 -2.631776700497748811e-01
4.747599999999999909e+01 8.721000000000000085e+00 4.624000000000000199e+01 -4.660240999999999900e+01 -6.175787383892870908e-03
4.747599999999999909e+01 1.709199999999999875e+01 4.093599999999999994e+01 1.383902999999999928e+01 -9.892913108462600413e-02
4.747599999999999909e+01 1.709199999999999875e+01 4.233599999999999852e+01 -7.212729000000000390e+00 1.636709511880041212e-01
4.748299999999999699e+01 2.780899999999999928e+00 3.740800000000000125e+01 -8.831915999999999656e+00 -1.514446577683588036e-01
4.748499999999999943e+01 1.571299999999999919e+01 3.196399999999999864e+01 -6.783011000000000124e+00 -7.605282554672826434e-02
4.748499999999999943e+01 2.486099999999999977e+00 2.403800000000000026e+01 -6.247766999999999626e+00 -1.510977241746312427e-01
4.749499999999999744e+01 5.094199999999999839e+00 4.340899999999999892e+01 -2.012998999999999938e+01 -7.073785397885004600e-02
4.751500000000000057e+01 9.950699999999999434e+00 4.541700000000000159e+01 -3.672003999999999735e+01 -8.574829274131673049e-03
4.751599999999999824e+01 4.243599999999999817e+00 3.902499999999999858e+01 -1.197803000000000040e+01 -5.319719136891630507e-02
4.753300000000000125e+01 1.561999999999999922e+01 2.953600000000000136e+01 7.643443999999999683e+00 -2.405481054684029396e-01
4.754999999999999716e+01 1.306699999999999973e+00 2.873000000000000043e+01 -2.922940000000000094e+00 -2.630112210795519934e-01
4.755599999999999739e+01 1.134699999999999953e+01 4.432699999999999818e+01 -5.423562999999999690e+00 -1.003655489947391163e-02
4.757399999999999807e+01 1.886499999999999844e+01 3.873400000000000176e+01 5.324280999999999597e-01 -9.976945314246954410e-02
4.759100000000000108e+01 2.821000000000000174e+00 2.673100000000000165e+01 6.989017999999999731e+00 -2.621107462164627977e-01
4.760799999999999699e+01 2.685599999999999987e+00 2.971199999999999974e+01 -5.255512000000000405e+00 -2.628175402795698834e-01
4.763300000000000267e+01 6.355999999999999872e+00 4.512899999999999778e+01 -4.006790000000000163e+01 -7.673155297901966543e-02
4.763799999999999812e+01 1.813700000000000045e+01 3.731499999999999773e+01 5.612840000000000051e-01 -9.315344996036847847e-02
4.763799999999999812e+01 1.753600000000000136e+01 3.666199999999999903e+01 8.201408999999999949e+00 -8.954527728422649602e-02
4.764000000000000057e+01 1.574300000000000033e+01 4.143500000000000227e+01 5.110286000000000328e+00 -9.602536701574457267e-02
4.764999999999999858e+01 2.517599999999999838e+00 2.743100000000000094e+01 1.496334000000000053e+00 -2.623287897863957330e-01
4.765299999999999869e+01 1.331400000000000006e+01 4.437800000000000011e+01 -1.618244999999999933e+01 1.628365443441183724e-01
4.765800000000000125e+01 8.997899999999999565e+00 2.019399999999999906e+01 6.294111000000000011e+00 -1.433318498204313174e-01
4.766199999999999903e+01 2.772899999999999920e+00 2.788899999999999935e+01 -2.280521999999999938e+00 -2.623777327567713979e-01
4.768099999999999739e+01 6.642999999999999794e+00 2.263800000000000168e+01 -4.262819000000000358e+00 -1.549598891799497391e-01
4.769899999999999807e+01 1.235399999999999920e+01 2.015899999999999892e+01 -1.319646999999999970e+01 -1.372884959950156636e-01
4.774199999999999733e+01 1.608999999999999986e+01 3.332200000000000273e+01 -1.669827000000000083e+01 -7.914698556289742615e-02
4.774499999999999744e+01 2.426800000000000068e+00 2.301099999999999923e+01 -4.778946000000000360e+00 -1.515695993182550050e-01
4.774499999999999744e+01 4.448699999999999655e+00 4.032600000000000051e+01 -8.019382000000000232e+00 -5.873129488702415191e-02
4.774499999999999744e+01 4.448699999999999655e+00 4.133400000000000318e+01 -1.168668000000000085e+01 -6.283019535430120484e-02
4.774799999999999756e+01 1.493699999999999939e+01 4.433899999999999864e+01 -1.279129999999999967e+01 1.653045668955332448e-01
4.775999999999999801e+01 1.066900000000000048e+01 1.984900000000000020e+01 3.263799999999999812e+00 -2.488036156254806452e-01
4.775999999999999801e+01 1.701600000000000001e+00 2.395200000000000173e+01 -4.128128000000000242e+00 -1.504487508687384900e-01
4.776800000000000068e+01 4.166199999999999903e+00 3.445600000000000307e+01 -6.700866999999999685e+00 -1.554635784477603200e-01
4.777199999999999847e+01 3.924599999999999866e+00 3.528000000000000114e+01 -3.781573999999999991e+00 -1.545757837795774248e-01
4.777799999999999869e+01 1.626800000000000068e+01 4.391499999999999915e+01 -5.040115000000000123e+00 1.624028096340674743e-01
4.778099999999999881e+01 1.512199999999999989e+01 2.538200000000000145e+01 -5.210399999999999920e+00 -2.433600200472528230e-01
4.778399999999999892e+01 7.908999999999999808e+00 2.167800000000000082e+01 1.199047999999999981e+01 -1.559203134738475216e-01
4.778699999999999903e+01 4.265600000000000058e+00 3.239800000000000324e+01 -1.801201999999999970e+00 -2.623847448687225969e-01
4.778699999999999903e+01 4.265600000000000058e+00 3.386999999999999744e+01 -7.067662000000000333e+00 -1.760951667226917094e-01
4.778699999999999903e+01 4.474700000000000344e+00 3.313400000000000034e+01 -6.772084000000000437e+00 -1.776729507009501829e-01
4.780299999999999727e+01 3.876999999999999780e+00 3.645600000000000307e+01 -5.904524999999999579e+00 -1.537645212204488410e-01
4.780400000000000205e+01 5.480800000000000338e+00 2.184199999999999875e+01 -1.727103000000000055e+00 -1.543778039366520693e-01
4.780499999999999972e+01 7.961000000000000298e+00 4.617699999999999960e+01 -1.549328000000000038e+01 2.625688301548148151e-04
4.780499999999999972e+01 9.480999999999999872e+00 4.617699999999999960e+01 -3.737868000000000279e+01 -7.837050296805290334e-03
4.780799999999999983e+01 3.518100000000000005e+00 3.740800000000000125e+01 -4.127163000000000181e+01 -1.529794786917781091e-01
4.781600000000000250e+01 1.278899999999999970e+01 2.089300000000000068e+01 -1.207511000000000001e+00 -1.356804936250337879e-01
4.781700000000000017e+01 1.387199999999999989e+01 2.375700000000000145e+01 -3.328911999999999871e+00 -2.442919409090352489e-01
4.781900000000000261e+01 1.696999999999999886e+01 3.609599999999999653e+01 1.408544000000000018e+01 -8.692516279983586447e-02
4.781900000000000261e+01 2.253000000000000114e+00 2.873000000000000043e+01 -7.897286000000000250e+00 -2.626468592122281343e-01
4.782600000000000051e+01 1.439999999999999947e+00 2.318400000000000105e+01 -4.244286999999999921e+00 -1.506412204158155688e-01
4.782999999999999829e+01 1.623400000000000176e+01 3.439500000000000313e+01 -1.346865999999999897e+00 -8.161497775389896236e-02
4.784199999999999875e+01 6.937100000000000044e+00 4.535000000000000142e+01 -2.368807999999999936e+01 -7.714811575654850762e-02
4.784899999999999665e+01 1.500699999999999967e+01 4.143500000000000227e+01 3.396298999999999779e+01 -9.432536711102341986e-02
4.784899999999999665e+01 1.663700000000000045e+01 4.306499999999999773e+01 -9.585148999999999475e+00 1.630155150308813805e-01
4.785900000000000176e+01 1.204700000000000060e+01 4.426899999999999835e+01 -1.469796000000000014e+01 -1.086928707762572187e-02
4.789200000000000301e+01 1.567600000000000016e+01 2.563800000000000168e+01 -1.186890999999999918e+00 -2.430946991156132386e-01
4.789300000000000068e+01 1.934400000000000119e+01 3.956600000000000250e+01 1.531260999999999983e+00 -1.036887067130602552e-01
4.789500000000000313e+01 1.628699999999999903e+01 4.229099999999999682e+01 -8.732915999999999457e+00 1.657750271142720278e-01
4.790200000000000102e+01 1.960999999999999943e+01 3.873400000000000176e+01 -1.638833999999999902e+00 -1.024781666650364659e-01
4.790699999999999648e+01 1.531000000000000050e+01 4.073499999999999943e+01 1.765165999999999968e+01 -9.378793364030474367e-02
4.790699999999999648e+01 1.531000000000000050e+01 4.213499999999999801e+01 -7.263051999999999842e-01 1.688327706397969308e-01
4.790699999999999648e+01 1.531000000000000050e+01 4.399499999999999744e+01 -1.124032000000000053e+01 1.648385283383305144e-01
4.790699999999999648e+01 1.617599999999999838e+01 4.073499999999999943e+01 1.129039000000000037e+01 -9.597696816327530578e-02
4.792000000000000171e+01 1.286200000000000010e+01 2.184600000000000009e+01 7.921613999999999578e+01 -1.346052871063544987e-01
4.792000000000000171e+01 1.307099999999999973e+01 2.258200000000000074e+01 1.511402000000000001e+01 -2.337393435754416549e-01
4.792099999999999937e+01 1.255499999999999972e+01 4.441299999999999670e+01 -7.574595000000000411e+00 -1.242051390483498233e-02
4.792300000000000182e+01 5.886300000000000310e+00 4.436899999999999977e+01 -6.296309000000000111e+01 -7.543353364622923385e-02
4.793500000000000227e+01 2.477899999999999991e+00 2.552100000000000080e+01 7.217316000000000287e+00 -2.618134103426844050e-01
4.794400000000000261e+01 3.842999999999999972e+00 2.807499999999999929e+01 -2.477578999999999976e+00 -2.620818636404582680e-01
4.794800000000000040e+01 1.545800000000000018e+01 3.139600000000000080e+01 -1.676333999999999946e+01 -7.626082300608814923e-02
4.794899999999999807e+01 1.053999999999999915e+01 4.508100000000000307e+01 -8.939441000000000415e+00 -7.613503412759596231e-03
4.795400000000000063e+01 1.694500000000000028e+01 2.665500000000000114e+01 7.086550999999999823e-01 3.992515799257190939e-02
4.796399999999999864e+01 4.777999999999999581e+00 4.224099999999999966e+01 -1.167824000000000062e+01 -6.778483188253636715e-02
4.796399999999999864e+01 1.749500000000000099e+01 4.036800000000000210e+01 5.701937000000000211e+01 -9.910207253152299167e-02
4.796500000000000341e+01 3.586800000000000210e+00 2.220799999999999841e+01 -3.902912999999999855e+00 -1.528558593851764569e-01
4.796600000000000108e+01 3.372500000000000053e+00 2.728200000000000003e+01 4.916705000000000325e+00 -2.620281183181988327e-01
4.796699999999999875e+01 1.927400000000000091e+01 3.795900000000000318e+01 -1.297088999999999936e+00 -9.899766083071018241e-02
4.796999999999999886e+01 1.411100000000000065e+01 4.442499999999999716e+01 -1.086894000000000027e+01 1.662643737854136161e-01
4.797200000000000131e+01 1.598099999999999987e+01 2.892099999999999937e+01 1.848567999999999856e+01 -2.407985233226753174e-01
4.799699999999999989e+01 4.332799999999999763e+00 3.863700000000000045e+01 -3.758837999999999901e+00 -5.508615534537097957e-02
4.800300000000000011e+01 3.539600000000000080e+00 2.877499999999999858e+01 1.504696999999999951e+00 -2.622568491080151665e-01
4.800600000000000023e+01 1.801999999999999957e+01 4.034899999999999665e+01 3.979491000000000156e+01 -1.007594269197403802e-01
4.805299999999999727e+01 6.408899999999999597e-01 2.318400000000000105e+01 -1.014730999999999916e+01 -1.500026376617426271e-01
4.805599999999999739e+01 1.909000000000000030e+00 2.232499999999999929e+01 -5.016079999999999650e+00 -1.514948550066925193e-01
4.807000000000000028e+01 1.902299999999999969e+01 3.751100000000000279e+01 -6.645299999999999541e-01 -9.684010415843898045e-02
4.807800000000000296e+01 6.210399999999999920e+00 2.214699999999999847e+01 -4.775948999999999778e+00 -1.547138680320854220e-01
4.808200000000000074e+01 3.217600000000000016e+00 2.629799999999999827e+01 1.080850000000000044e+01 -2.618317683270460772e-01
4.808700000000000330e+01 3.445300000000000029e+00 3.007400000000000162e+01 8.239594000000000307e+00 -2.624364735763203282e-01
4.809700000000000131e+01 9.707599999999999341e+00 2.036400000000000077e+01 -1.567941999999999947e+00 -2.494960534632157945e-01
4.810499999999999687e+01 1.531700000000000017e+01 3.057300000000000040e+01 -8.779031999999999947e-01 -2.398006516831679702e-01
4.810699999999999932e+01 1.434099999999999930e+01 2.451599999999999824e+01 -1.010305999999999926e+01 -2.437885761571165766e-01
4.811599999999999966e+01 9.702899999999999858e-01 2.242399999999999949e+01 -3.819450999999999929e+00 -1.507059935293842412e-01
4.811599999999999966e+01 9.702899999999999858e-01 2.394399999999999906e+01 -6.866750999999999827e+00 -2.616152248890272203e-01
4.813000000000000256e+01 1.352800000000000047e+01 2.329700000000000060e+01 -1.876438000000000050e+00 -2.335880394946518168e-01
4.813900000000000290e+01 3.875700000000000145e+00 3.150799999999999912e+01 -6.420780999999999850e-01 -2.623746168758425701e-01
4.814999999999999858e+01 8.460100000000000620e+00 2.088899999999999935e+01 2.435775000000000023e+00 -1.562463480701402618e-01
4.818500000000000227e+01 1.565499999999999936e+01 3.226700000000000301e+01 -1.194597000000000087e+01 -7.803339536639891660e-02
4.819500000000000028e+01 5.152499999999999858e+00 4.310499999999999687e+01 -1.070398999999999923e+01 -7.223474417154443494e-02
4.820600000000000307e+01 1.583399999999999963e+01 4.306499999999999773e+01 -1.189647000000000077e+01 1.649672226705868328e-01
4.821399999999999864e+01 1.199200000000000088e+01 2.074200000000000088e+01 -1.858068999999999971e+00 -1.372551718246627639e-01
4.821600000000000108e+01 4.511000000000000121e+00 3.945799999999999841e+01 -6.914251000000000147e-01 -5.850256763362229190e-02
4.821699999999999875e+01 7.208999999999999631e+00 2.194500000000000028e+01 3.090129999999999821e+00 -1.553450481414149487e-01
4.821999999999999886e+01 1.658099999999999952e+01 3.534700000000000131e+01 1.012213000000000029e+01 -8.501380896916951868e-02
4.822200000000000131e+01 1.142099999999999937e+01 4.474699999999999989e+01 6.574961000000000055e+00 -8.605311900041264644e-03
4.826700000000000301e+01 4.238199999999999967e+00 3.707300000000000040e+01 -7.752019999999999911e+00 -1.546472185084844242e-01
4.827000000000000313e+01 1.569599999999999973e+01 3.288100000000000023e+01 -1.623820999999999870e+01 -7.915474019580326370e-02
4.827499999999999858e+01 7.427999999999999936e+00 4.574600000000000222e+01 -3.140236000000000161e+01 -7.880400535860382361e-02
4.827499999999999858e+01 8.721000000000000085e+00 4.646699999999999875e+01 -3.300025999999999726e+01 -2.829707321550084184e-03
4.827499999999999858e+01 1.001399999999999935e+01 4.574600000000000222e+01 -8.985384000000000526e+01 -6.198840210157407701e-03
4.827900000000000347e+01 1.642000000000000171e+01 2.580499999999999972e+01 2.531055999999999973e+00 3.878666872927768322e-02
4.827900000000000347e+01 1.597000000000000064e+01 3.372200000000000131e+01 -1.216513999999999918e+01 -8.088442134282738949e-02
4.828999999999999915e+01 3.971600000000000019e+00 3.778999999999999915e+01 -9.810112000000000165e+00 -1.543112742851172059e-01
4.829099999999999682e+01 1.671999999999999886e+01 4.039999999999999858e+01 5.857486000000000104e+01 -9.695556533305539626e-02
4.830400000000000205e+01 1.574300000000000033e+01 4.024399999999999977e+01 1.411449999999999960e+01 -9.413906746666933500e-02
4.832600000000000051e+01 1.020400000000000063e+01 2.033699999999999974e+01 1.012024000000000035e+00 -2.485115230257457508e-01
4.833299999999999841e+01 2.067800000000000082e+00 2.505999999999999872e+01 -5.842540999999999762e+00 -2.616989762635989480e-01
4.833400000000000318e+01 4.839500000000000135e+00 2.163899999999999935e+01 -2.613766000000000034e+00 -1.539119510791276679e-01
4.833800000000000097e+01 1.780300000000000082e+01 3.622899999999999920e+01 4.121894999999999865e-01 -8.995941220905764868e-02
4.834000000000000341e+01 1.460999999999999943e+01 4.100300000000000011e+01 1.769747999999999877e+01 -9.302640171975409822e-02
4.834000000000000341e+01 1.460999999999999943e+01 4.186800000000000210e+01 9.116134000000000626e+00 1.703099732970384528e-01
4.834400000000000119e+01 1.128400000000000070e+01 2.064999999999999858e+01 1.632819999999999894e+01 -2.466335034044650487e-01
4.835000000000000142e+01 2.785000000000000142e+00 2.559799999999999898e+01 2.668791000000000135e+00 -2.617072789916546904e-01
4.836599999999999966e+01 2.681999999999999940e+00 2.236499999999999844e+01 -4.165119999999999933e+00 -1.520830712504195603e-01
4.837100000000000222e+01 1.486999999999999922e+01 2.521300000000000097e+01 -6.650687999999999711e+00 -2.432800769164968346e-01
4.837400000000000233e+01 7.686099999999999710e+00 2.111599999999999966e+01 3.593760000000000066e+00 -1.557467407403239079e-01
4.839399999999999835e+01 1.882799999999999940e+01 4.015899999999999892e+01 3.544651999999999958e+01 -1.029451904319782229e-01
4.840500000000000114e+01 1.549000000000000021e+01 2.931800000000000139e+01 9.479298000000000002e+00 -2.405865021687257632e-01
4.841599999999999682e+01 4.295499999999999652e+00 3.603499999999999659e+01 -3.457777000000000100e+00 -1.553193968069662700e-01
4.841799999999999926e+01 4.363100000000000200e+00 2.761299999999999955e+01 1.156306999999999974e+01 -2.617757314736814944e-01
4.843500000000000227e+01 4.239600000000000257e+00 2.850799999999999912e+01 4.140037000000000411e+00 -2.619215934301902804e-01
4.844599999999999795e+01 2.004899999999999949e+01 3.825500000000000256e+01 -1.280041999999999902e+00 -1.024564866524885487e-01
4.844599999999999795e+01 2.004899999999999949e+01 3.921300000000000097e+01 -1.469300000000000050e+00 -1.049884522967754058e-01
4.845199999999999818e+01 1.331400000000000006e+01 4.460499999999999687e+01 -1.784704999999999941e+01 1.619798449512153682e-01
4.846000000000000085e+01 6.553200000000000358e+00 4.474199999999999733e+01 -4.586590000000000344e+01 -7.738137371995183755e-02
4.847299999999999898e+01 9.217599999999999127e+00 2.084299999999999997e+01 3.527534999999999865e+00 -1.565134629594550353e-01
4.847599999999999909e+01 4.059700000000000308e+00 2.691300000000000026e+01 2.056621000000000166e+01 -2.617124039189990259e-01
4.848199999999999932e+01 1.392400000000000082e+00 2.455199999999999960e+01 -5.064447000000000365e+00 -2.616488791316865514e-01
4.848799999999999955e+01 1.466399999999999970e+01 4.397800000000000153e+01 -2.972907000000000011e+01 1.657952585186244221e-01
4.850800000000000267e+01 4.230100000000000193e+00 3.273899999999999721e+01 -4.714296000000000042e+00 -2.620608497119228941e-01
4.852499999999999858e+01 4.457799999999999763e+00 3.375200000000000244e+01 -1.349685999999999986e+01 -1.570302434287242921e-01
4.854699999999999704e+01 1.439999999999999947e+00 2.189099999999999824e+01 -3.575556000000000179e+00 -1.513794324621404175e-01
4.856000000000000227e+01 4.296999999999999709e+00 4.082999999999999829e+01 -3.504653999999999936e+00 -6.522232553130921651e-02
4.856000000000000227e+01 4.415000000000000036e+00 4.167699999999999960e+01 -5.862338000000000271e+00 -6.864293847837824036e-02
4.856499999999999773e+01 4.352699999999999569e+00 3.481099999999999994e+01 -4.938245000000000218e+00 -1.562626507192196590e-01
4.858599999999999852e+01 2.102900000000000047e-01 2.271399999999999864e+01 -7.785160000000000302e+00 -1.500390631842739575e-01
4.858599999999999852e+01 2.102900000000000047e-01 2.365399999999999991e+01 -1.381451000000000029e+01 -2.615606835112937456e-01
4.859599999999999653e+01 4.162799999999999834e+00 3.180799999999999983e+01 -9.198121999999999687e-01 -2.620984576324901227e-01
4.860099999999999909e+01 1.053999999999999915e+01 4.508100000000000307e+01 -1.551397000000000048e+01 -4.581665634672893624e-03
4.860699999999999932e+01 1.504299999999999926e+01 4.030299999999999727e+01 1.930322000000000093e+00 -9.288116283540273632e-02
4.861099999999999710e+01 1.242500000000000071e+01 2.123300000000000054e+01 2.229794000000000054e+00 -1.357130960662188690e-01
4.861299999999999955e+01 4.435200000000000031e+00 3.995000000000000284e+01 3.335058000000000078e+00 -6.217502120950495204e-02
4.861800000000000210e+01 1.185399999999999920e+01 4.425600000000000023e+01 1.284210000000000074e+00 -6.875232075513551359e-03
4.861999999999999744e+01 1.312899999999999956e+01 2.227799999999999869e+01 1.979656000000000082e+00 -2.337461659481613885e-01
4.862899999999999778e+01 1.507900000000000063e+01 4.262500000000000000e+01 -2.072178999999999860e+01 1.672404907211059166e-01
4.864800000000000324e+01 5.917799999999999727e+00 4.389999999999999858e+01 -1.439611000000000018e+01 -7.592505481724136362e-02
4.866400000000000148e+01 4.719699999999999562e+00 4.254399999999999693e+01 -4.352098999999999940e+00 -7.247737594652936544e-02
4.867699999999999960e+01 6.766300000000000203e+00 2.133599999999999852e+01 -4.583056999999999825e-01 -1.551205281681404258e-01
4.868299999999999983e+01 1.501699999999999946e+01 3.094200000000000017e+01 -2.325495000000000090e+00 -7.708926109951361183e-02
4.868399999999999750e+01 1.409399999999999942e+01 2.392299999999999827e+01 -1.120423000000000080e+01 -2.438972832904817145e-01
4.869700000000000273e+01 4.600100000000000300e+00 3.907000000000000028e+01 1.032629000000000019e+01 -5.993897771392460438e-02
4.870000000000000284e+01 1.749500000000000099e+01 4.015899999999999892e+01 4.388499999999999801e+01 -9.874011473446019094e-02
4.870300000000000296e+01 3.806999999999999940e+00 2.920799999999999841e+01 3.015228000000000019e+00 -2.620256977666609588e-01
4.870400000000000063e+01 1.325000000000000000e+01 3.770600000000000307e+01 1.155364000000000058e+00 -8.535555381089263149e-02
4.870400000000000063e+01 1.325000000000000000e+01 3.870199999999999818e+01 -1.218229999999999968e+01 -8.703916870151079399e-02
4.870499999999999829e+01 4.490999999999999659e+00 3.731099999999999994e+01 -1.197821999999999942e+00 -1.555300619614048419e-01
4.870499999999999829e+01 4.490999999999999659e+00 3.826899999999999835e+01 3.865717999999999677e+01 -5.807530704545647154e-02
4.870600000000000307e+01 5.789299999999999891e+00 2.131899999999999906e+01 -1.411105000000000054e+00 -1.545465776305303129e-01
4.871300000000000097e+01 1.507000000000000028e+01 4.329500000000000171e+01 -2.926054999999999851e+01 1.658499621422716008e-01
4.872999999999999687e+01 1.511599999999999966e+01 2.981099999999999994e+01 6.887916999999999845e+00 -2.403298993466835010e-01
4.873700000000000188e+01 1.515900000000000070e+01 3.169800000000000040e+01 -6.898475000000000357e+00 -7.808788864500817994e-02
4.873799999999999955e+01 1.736799999999999855e+01 3.559599999999999653e+01 4.678514999999999979e+00 -8.793813853747688147e-02
4.874199999999999733e+01 1.801999999999999957e+01 4.014000000000000057e+01 3.650059999999999860e+01 -1.002373998648510706e-01
4.874199999999999733e+01 1.957000000000000028e+01 3.747999999999999687e+01 -1.033558999999999894e+00 -9.863931635706300882e-02
4.874199999999999733e+01 1.957000000000000028e+01 3.998799999999999955e+01 9.008141000000000531e+01 -1.048554536984041829e-01
4.874499999999999744e+01 7.961000000000000298e+00 4.617699999999999960e+01 -2.921181999999999945e+01 4.764941444533909651e-03
4.874499999999999744e+01 9.480999999999999872e+00 4.617699999999999960e+01 -9.202397999999999456e+01 -3.175539851245015675e-03
4.874600000000000222e+01 1.543299999999999983e+01 3.253900000000000148e+01 -2.972055999999999809e+00 -7.939002877599066199e-02
4.875999999999999801e+01 1.865200000000000102e+01 3.645499999999999829e+01 -3.127500999999999753e-01 -9.317089042619328132e-02
4.878199999999999648e+01 3.275900000000000034e+00 2.599500000000000099e+01 4.603247999999999784e+00 -2.616271020812269699e-01
4.878600000000000136e+01 1.613299999999999912e+01 3.490200000000000102e+01 6.172931000000000168e+00 -8.429906504732437300e-02
4.878699999999999903e+01 3.503600000000000048e+00 2.977100000000000080e+01 9.383708999999999634e+00 -2.621280077824136301e-01
4.879699999999999704e+01 9.974999999999999645e+00 2.079700000000000060e+01 -3.552800999999999876e-01 -2.479904120044091886e-01
4.880400000000000205e+01 1.437899999999999956e+01 2.481599999999999895e+01 -1.467812999999999946e+01 -2.434091765542007180e-01
4.880400000000000205e+01 1.557000000000000028e+01 2.548000000000000043e+01 -6.219476999999999922e-01 3.689319921385774553e-02
4.880400000000000205e+01 1.701599999999999824e+01 2.628600000000000136e+01 4.684109000000000300e+00 3.835168022397396348e-02
4.880400000000000205e+01 1.701599999999999824e+01 2.807400000000000162e+01 8.668511999999999773e+00 3.734533110839864667e-02
4.880400000000000205e+01 1.726999999999999957e+01 2.717999999999999972e+01 3.473270999999999997e+00 3.826559647554138993e-02
4.882999999999999829e+01 1.358699999999999974e+01 2.299399999999999977e+01 -5.818656999999999968e+00 -2.442884542391155767e-01
4.883400000000000318e+01 3.772400000000000198e+00 3.060099999999999909e+01 6.446320000000000050e+00 -2.621009679207761400e-01
4.883899999999999864e+01 3.934000000000000163e+00 3.120499999999999829e+01 1.270790000000000042e+01 -2.620732006760062016e-01
4.884400000000000119e+01 1.180700000000000038e+01 2.134600000000000009e+01 6.338192000000000270e+00 -1.367867410652680582e-01
4.884599999999999653e+01 5.432199999999999918e+00 2.721999999999999886e+01 1.864575999999999922e+01 -2.614426049992431556e-01
4.887500000000000000e+01 1.568500000000000050e+01 2.899599999999999866e+01 7.113678000000000168e+00 3.460648594922127730e-02
4.887599999999999767e+01 6.800000000000000488e-01 2.195400000000000063e+01 -3.791351000000000138e+00 -1.508346247019709818e-01
4.887599999999999767e+01 6.800000000000000488e-01 2.441400000000000148e+01 -9.094523000000000579e+00 -2.616343023680624547e-01
4.887599999999999767e+01 2.200000000000000178e+00 2.195400000000000063e+01 -4.009024000000000143e+00 -1.519153314798364907e-01
4.889000000000000057e+01 3.938699999999999868e+00 2.190399999999999991e+01 -2.990612000000000048e+00 -1.531484903189138935e-01
4.890400000000000347e+01 1.420899999999999963e+01 4.060499999999999687e+01 -3.893311999999999884e+00 -9.197965378921277302e-02
4.890899999999999892e+01 4.759699999999999598e+00 2.717999999999999972e+01 1.413932999999999929e+01 -2.615389409039560742e-01
4.891299999999999670e+01 1.251399999999999935e+01 3.770600000000000307e+01 -3.512140000000000040e+00 -3.499999999999999778e-01
4.891299999999999670e+01 1.251399999999999935e+01 3.870199999999999818e+01 -2.114684000000000097e+01 -3.499999999999999778e-01
4.891299999999999670e+01 1.398600000000000065e+01 3.770600000000000307e+01 1.500652999999999970e+01 -8.659628698074496589e-02
4.891299999999999670e+01 1.398600000000000065e+01 3.870199999999999818e+01 9.204651000000000138e+00 -8.835020272051494206e-02
4.891499999999999915e+01 1.365600000000000058e+01 3.596900000000000119e+01 1.406357999999999997e+01 -8.323540440792973061e-02
4.891499999999999915e+01 1.465199999999999925e+01 3.596900000000000119e+01 2.925416999999999845e+01 -8.441153521428602924e-02
4.892199999999999704e+01 1.115399999999999991e+01 4.431499999999999773e+01 4.218693999999999988e+01 -3.195142485996784690e-03
4.892199999999999704e+01 1.255400000000000027e+01 4.431499999999999773e+01 -4.144514999999999816e+01 -8.162486034464094820e-03
4.892199999999999704e+01 1.407399999999999984e+01 4.431499999999999773e+01 -6.794929000000000485e+01 1.659994597901094937e-01
4.893800000000000239e+01 8.464700000000000557e+00 2.112999999999999901e+01 6.054987999999999815e+00 -1.559874992653047243e-01
4.894599999999999795e+01 1.447000000000000064e+01 3.967999999999999972e+01 8.487379999999999924e+00 -9.091719588168474531e-02
4.894599999999999795e+01 1.533600000000000030e+01 3.967999999999999972e+01 8.401305000000000689e+00 -9.260044344164469754e-02
4.894899999999999807e+01 1.322199999999999953e+01 2.159299999999999997e+01 2.636343000000000103e+00 -2.338746878671114082e-01
4.897200000000000131e+01 1.281799999999999962e+01 3.700600000000000023e+01 4.894528000000000212e+00 -3.500000000000000333e-01
4.897200000000000131e+01 1.281799999999999962e+01 3.940200000000000102e+01 -4.778291999999999717e+01 -3.499999999999999223e-01
4.897200000000000131e+01 1.368299999999999983e+01 3.700600000000000023e+01 9.734851000000000809e+00 -8.506559320277568004e-02
4.897200000000000131e+01 1.368299999999999983e+01 3.940200000000000102e+01 -1.330875999999999948e+01 -8.913967407082393213e-02
4.898899999999999721e+01 5.245000000000000107e+00 4.339399999999999835e+01 -5.866759000000000057e+00 -7.638479736866235492e-02
4.899399999999999977e+01 1.419100000000000072e+01 4.180100000000000193e+01 -1.299793000000000021e+01 -9.388080375598253924e-02
4.901100000000000279e+01 4.879599999999999937e+00 2.798300000000000054e+01 1.379251999999999967e+01 -2.615883083236593687e-01
4.901400000000000290e+01 1.552899999999999991e+01 3.326800000000000068e+01 -1.193317000000000050e+01 -8.106665078943012248e-02
4.903499999999999659e+01 7.491299999999999848e+00 4.541700000000000159e+01 -1.977185000000000059e+01 -7.948128590702098484e-02
4.903499999999999659e+01 9.950699999999999434e+00 4.541700000000000159e+01 -9.524851999999999919e+01 -1.329799006368169879e-03
4.903600000000000136e+01 1.671999999999999886e+01 4.007200000000000273e+01 1.678632999999999953e+01 -9.656041430048024898e-02
4.903600000000000136e+01 1.444299999999999962e+01 3.665400000000000347e+01 2.244172999999999973e+01 -8.552987409486112469e-02
4.905499999999999972e+01 6.168199999999999683e+00 2.721999999999999886e+01 3.635158999999999807e+00 -2.612870709696342164e-01
4.907399999999999807e+01 8.721000000000000085e+00 4.624000000000000199e+01 -1.144054000000000002e+02 1.728556571031542814e-03
4.911299999999999955e+01 1.809900000000000020e+01 3.575000000000000000e+01 -1.753080999999999945e-01 -9.036191816717406566e-02
4.911299999999999955e+01 4.999500000000000277e+00 2.651999999999999957e+01 4.561576999999999771e+01 -2.613831354879764257e-01
4.911299999999999955e+01 5.864799999999999791e+00 2.651999999999999957e+01 1.401052999999999926e+01 -2.612558657815168273e-01
4.911299999999999955e+01 5.864799999999999791e+00 2.792000000000000171e+01 5.653088000000000335e+00 -2.613870850347461694e-01
4.912199999999999989e+01 1.561400000000000077e+01 3.425800000000000267e+01 -6.273012999999999728e+00 -8.296882114988271550e-02
4.912400000000000233e+01 1.291999999999999993e+01 3.596900000000000119e+01 8.366856000000000293e+00 -8.283312452506161327e-02
4.912400000000000233e+01 1.538799999999999990e+01 3.596900000000000119e+01 2.609530000000000172e+01 -8.575839973722068632e-02
4.913499999999999801e+01 4.297900000000000276e+00 2.881099999999999994e+01 4.339248000000000438e+00 -2.617537354497137536e-01
4.913900000000000290e+01 1.389799999999999969e+01 4.001599999999999824e+01 -3.672023999999999955e+00 -9.065435125155449358e-02
4.915699999999999648e+01 1.102599999999999980e+01 2.130499999999999972e+01 -1.080554000000000014e+00 -2.456927406908602785e-01
4.917900000000000205e+01 7.850999999999999979e+00 2.118599999999999994e+01 1.854068000000000049e+00 -1.556157045349619295e-01
4.918200000000000216e+01 1.322300000000000075e+01 3.526899999999999835e+01 3.552610000000000046e+00 -8.215895449166778219e-02
4.918200000000000216e+01 1.415399999999999991e+01 3.526899999999999835e+01 3.051450000000000173e+01 -8.305209932122373240e-02
4.918200000000000216e+01 1.508500000000000085e+01 3.526899999999999835e+01 2.371209999999999951e+01 -8.414909720190423548e-02
4.918200000000000216e+01 1.508500000000000085e+01 3.666899999999999693e+01 2.308913000000000082e+01 -8.668851809905947503e-02
4.919100000000000250e+01 4.709900000000000198e+00 3.540100000000000335e+01 -4.271419999999999995e+00 -1.569221446556737787e-01
4.919200000000000017e+01 7.127799999999999692e+00 4.471600000000000108e+01 -1.207581000000000060e+01 -7.828683858371857096e-02
4.919700000000000273e+01 1.420199999999999996e+01 3.931600000000000250e+01 -3.078418000000000099e+00 -9.004374717092149261e-02
4.920100000000000051e+01 6.559099999999999930e+00 4.435300000000000153e+01 -1.316512999999999955e+01 -7.810093394507365561e-02
4.921200000000000330e+01 1.454400000000000048e+01 4.261500000000000199e+01 -2.898368999999999929e+01 1.676594281783482521e-01
4.921200000000000330e+01 1.454400000000000048e+01 4.355499999999999972e+01 -3.445501999999999754e+01 1.659866883124255788e-01
4.921800000000000352e+01 1.662399999999999878e+01 3.529899999999999949e+01 1.106034999999999968e+01 -8.657341879744505364e-02
4.921900000000000119e+01 1.486999999999999922e+01 2.533099999999999952e+01 -3.731177999999999884e+00 -2.429675187441143469e-01
4.922099999999999653e+01 1.879500000000000171e+01 4.028399999999999892e+01 1.653301000000000087e+01 -1.026924652977248831e-01
4.922099999999999653e+01 1.915500000000000114e+01 3.696099999999999852e+01 -4.764971000000000068e-01 -9.613689332122403453e-02
4.922099999999999653e+01 2.011400000000000077e+01 3.791899999999999693e+01 1.001392000000000060e+01 -1.014168134064699772e-01
4.922099999999999653e+01 2.011400000000000077e+01 3.954899999999999949e+01 3.219050999999999885e+00 -1.052853508187945042e-01
4.922099999999999653e+01 2.034499999999999886e+01 3.873400000000000176e+01 1.349076999999999948e+01 -1.041698079407211985e-01
4.924300000000000210e+01 6.301000000000000156e+00 2.084799999999999898e+01 -1.345115999999999978e+00 -1.548589217551115116e-01
4.924900000000000233e+01 4.930100000000000371e+00 3.778999999999999915e+01 8.609688000000000230e+00 -5.974373226954123733e-02
4.925099999999999767e+01 1.331400000000000006e+01 4.437800000000000011e+01 -4.378866000000000014e+01 -5.641658781583546931e-03
4.925099999999999767e+01 4.867600000000000371e+00 2.160399999999999920e+01 -3.744479000000000113e+00 -1.538149267856035729e-01
4.925600000000000023e+01 2.785000000000000142e+00 2.559799999999999898e+01 -6.477831000000000117e+00 -2.615433420006416099e-01
4.926400000000000290e+01 1.407699999999999996e+01 2.346300000000000097e+01 -1.363945999999999970e+01 -2.439227747458806717e-01
4.926500000000000057e+01 4.620000000000000107e+00 3.437800000000000011e+01 -1.049280000000000079e+01 -1.574606084213160395e-01
4.927600000000000335e+01 9.275000000000000355e+00 2.119999999999999929e+01 2.941600000000000215e+00 -1.562618966126299302e-01
4.927799999999999869e+01 4.893099999999999561e+00 3.620100000000000051e+01 -3.472250999999999976e+00 -1.568678380485299118e-01
4.928399999999999892e+01 5.201100000000000279e+00 3.702300000000000324e+01 -1.668609000000000009e+00 -1.569492231191298159e-01
4.928900000000000148e+01 1.537400000000000055e+01 2.907600000000000051e+01 7.093867000000000367e+00 3.338938241692990944e-02
4.928999999999999915e+01 4.408599999999999852e+00 2.650400000000000134e+01 4.386704000000000292e+01 -2.614383860743900723e-01
4.929599999999999937e+01 4.221099999999999852e+00 3.150499999999999901e+01 4.813066000000000066e+00 -2.618363116221244513e-01
4.929599999999999937e+01 4.318999999999999950e+00 3.303900000000000148e+01 -3.830811000000000188e+00 -2.617126094270582071e-01
4.929599999999999937e+01 4.430100000000000371e+00 3.224099999999999966e+01 -1.988456999999999919e+00 -2.617551538740395811e-01
4.930199999999999960e+01 1.038299999999999912e+01 4.471699999999999875e+01 -2.817340000000000089e+01 2.004313728822992489e-04
4.930299999999999727e+01 1.487599999999999945e+01 3.735399999999999920e+01 2.636380000000000123e+01 -8.777635603685358945e-02
