4.896699999999999875e+01 2.662500000000000000e+01 3.913700000000000045e+01 -1.525206000000000017e+01 -9.857036774936657822e-03
4.896800000000000352e+01 3.492699999999999960e+01 4.384400000000000119e+01 1.430669999999999931e+01 -9.296737270588792401e-02
4.896999999999999886e+01 2.786199999999999832e+01 3.984400000000000119e+01 -5.250113999999999947e+01 -6.681146797268056048e-03
4.896999999999999886e+01 2.772200000000000131e+01 2.380199999999999960e+01 -4.971184000000000047e+00 -5.796502695873460148e-02
4.897200000000000131e+01 2.944300000000000139e+01 3.988799999999999812e+01 -3.306589000000000311e+01 -4.765781966538647912e-03
4.899499999999999744e+01 2.027599999999999980e+01 2.781800000000000139e+01 -3.180222999999999800e+00 3.638228699452443482e-02
4.901299999999999812e+01 3.169500000000000028e+01 2.462300000000000111e+01 1.583506000000000036e+01 6.754946520600527138e-02
4.901599999999999824e+01 4.175099999999999767e+01 3.204999999999999716e+01 1.284599000000000046e+00 6.713614752859954626e-02
4.903999999999999915e+01 3.925800000000000267e+01 3.445700000000000074e+01 2.697287000000000212e+00 5.997119817707141642e-02
4.904399999999999693e+01 2.020899999999999963e+01 3.113200000000000145e+01 -5.323978999999999928e+01 -1.995375776423050085e-01
4.904500000000000171e+01 2.364699999999999847e+01 2.505399999999999849e+01 3.198799000000000170e+00 -6.986862051991751810e-02
4.905799999999999983e+01 2.520499999999999829e+01 3.944599999999999795e+01 -1.469959000000000060e+01 -1.154134884810320387e-02
4.905899999999999750e+01 4.070799999999999841e+01 3.054100000000000037e+01 1.136001999999999956e+00 6.811887689925134881e-02
4.906499999999999773e+01 2.273999999999999844e+01 3.977799999999999869e+01 -2.579347999999999885e+01 -9.400085487586883060e-02
4.908599999999999852e+01 3.781400000000000006e+01 3.455799999999999983e+01 5.935056000000000331e+00 -9.329625264903032567e-02
4.908599999999999852e+01 1.875700000000000145e+01 2.948799999999999955e+01 -3.977358000000000171e+00 5.122669913554252913e-02
4.908599999999999852e+01 1.898400000000000176e+01 2.868900000000000006e+01 -2.962597000000000147e+00 4.640768454505881518e-02
4.908599999999999852e+01 1.898400000000000176e+01 3.028699999999999903e+01 -3.639371999999999829e+00 5.380147699144480905e-02
4.908899999999999864e+01 2.162699999999999889e+01 2.672100000000000009e+01 -1.128276000000000057e+00 2.493418054300815950e-02
4.908899999999999864e+01 2.257600000000000051e+01 2.577199999999999847e+01 9.853085999999999789e-01 1.243972630978516652e-01
4.909700000000000131e+01 2.127499999999999858e+01 3.217099999999999937e+01 -4.041103999999999807e-01 -2.024361360960464096e-01
4.909899999999999665e+01 3.845100000000000051e+01 4.221699999999999875e+01 5.934474999999999945e+00 -9.352790483755682449e-02
4.910799999999999699e+01 3.760199999999999676e+01 4.529399999999999693e+01 -2.424669000000000096e+01 -9.344257498811950335e-02
4.910799999999999699e+01 3.044500000000000028e+01 2.383399999999999963e+01 2.925658999999999921e+01 -5.293449966706782750e-02
4.912599999999999767e+01 2.425900000000000034e+01 3.987599999999999767e+01 -3.391810000000000258e+01 -1.210909436436658458e-02
4.914000000000000057e+01 3.382399999999999807e+01 4.249099999999999966e+01 8.812680999999999543e+00 -9.267147449034390805e-02
4.917399999999999949e+01 4.050999999999999801e+01 3.527499999999999858e+01 -1.407328000000000046e+01 7.387437802091251227e-02
4.918200000000000216e+01 2.582300000000000040e+01 2.390599999999999881e+01 -1.287509999999999932e+00 -6.197392450605654357e-02
4.918299999999999983e+01 3.915400000000000347e+01 2.907300000000000040e+01 -6.162438999999999556e-01 8.496787788866398683e-02
4.919800000000000040e+01 3.352100000000000080e+01 4.179099999999999682e+01 6.303016000000000396e+00 -9.257024383932795086e-02
4.919800000000000040e+01 3.515100000000000335e+01 4.342099999999999937e+01 3.846672999999999831e+01 -9.297860934373394781e-02
4.920000000000000284e+01 4.173299999999999699e+01 3.564200000000000301e+01 -2.046227000000000018e+01 7.138134217517830282e-02
4.920000000000000284e+01 4.302600000000000335e+01 3.332300000000000040e+01 -1.069420999999999999e+01 6.570625730871573755e-02
4.920000000000000284e+01 4.302600000000000335e+01 3.492099999999999937e+01 -7.486623000000000161e+01 6.758439858537999834e-02
4.920000000000000284e+01 4.325300000000000011e+01 3.412199999999999989e+01 -2.109775000000000134e+01 6.612942388786617609e-02
4.920900000000000318e+01 3.088400000000000034e+01 4.014399999999999835e+01 -8.595309999999999562e+00 -3.401356001517101026e-03
4.921500000000000341e+01 3.420600000000000307e+01 4.333200000000000074e+01 1.561813000000000073e+01 -9.278409169323811878e-02
4.922399999999999665e+01 4.008299999999999841e+01 2.996600000000000108e+01 1.497959999999999958e+00 6.918985800755926563e-02
4.923799999999999955e+01 2.482100000000000151e+01 2.455699999999999861e+01 2.157334999999999781e+00 -6.579335223094205654e-02
4.926500000000000057e+01 3.672099999999999653e+01 4.374699999999999989e+01 6.524526000000000181e+01 -9.326409715338562778e-02
4.927100000000000080e+01 3.792000000000000171e+01 3.758800000000000097e+01 -1.286958000000000046e+00 -9.334840093859177179e-02
4.927400000000000091e+01 2.842200000000000060e+01 2.374399999999999977e+01 4.092825000000000379e+00 -5.590061525132360154e-02
4.928799999999999670e+01 2.854799999999999827e+01 4.002900000000000347e+01 -1.618016000000000076e+01 -5.917567334078085821e-03
4.929500000000000171e+01 2.214900000000000091e+01 3.744500000000000028e+01 -4.925106000000000428e+00 -9.864737443303422948e-02
4.929699999999999704e+01 3.569700000000000273e+01 4.366799999999999926e+01 1.640556000000000125e+01 -9.308066039164465677e-02
4.929899999999999949e+01 3.231400000000000006e+01 4.094599999999999795e+01 4.600461000000000134e-01 -9.246181125376450038e-02
4.930599999999999739e+01 3.937899999999999778e+01 3.768099999999999739e+01 4.478627000000000358e+00 -9.356762640123011954e-02
4.931700000000000017e+01 3.239500000000000313e+01 2.456500000000000128e+01 1.559786000000000072e+01 6.810919048636794593e-02
4.932699999999999818e+01 3.944200000000000017e+01 4.103300000000000125e+01 -3.793109999999999982e+00 -9.362327554786417649e-02
4.934400000000000119e+01 2.190800000000000125e+01 3.381900000000000261e+01 -4.346745000000000192e-01 -2.029498020740342634e-01
4.934499999999999886e+01 4.060900000000000176e+01 3.850399999999999778e+01 -8.498307999999999751e+00 -9.373187729174184413e-02
4.934499999999999886e+01 4.060900000000000176e+01 3.944400000000000261e+01 -1.837687000000000026e+01 -9.374487475718143448e-02
4.934700000000000131e+01 3.895799999999999841e+01 2.829100000000000037e+01 1.530471999999999966e+01 8.679864157443521744e-02
4.935499999999999687e+01 2.226999999999999957e+01 3.901800000000000068e+01 -5.418487999999999971e+00 -9.522365438101801360e-02
4.937800000000000011e+01 2.205600000000000094e+01 3.640500000000000114e+01 -6.852439999999999642e+00 -1.006232589177177700e-01
4.938400000000000034e+01 4.123299999999999699e+01 3.139099999999999824e+01 1.299690999999999930e+00 6.793966424414263350e-02
4.938900000000000290e+01 2.165700000000000003e+01 3.304800000000000182e+01 1.781416000000000111e+00 -2.024787942574851896e-01
4.938900000000000290e+01 3.851400000000000290e+01 3.450000000000000000e+01 5.042774999999999785e+00 6.422881498311293347e-02
4.939399999999999835e+01 2.350000000000000000e+01 3.984100000000000108e+01 -8.279214000000000340e+01 -1.350838883869967012e-02
4.939600000000000080e+01 3.885600000000000165e+01 2.730900000000000105e+01 1.262026000000000003e+01 8.881289664622671332e-02
4.939600000000000080e+01 2.213599999999999923e+01 3.809400000000000119e+01 -5.057813999999999588e+00 -9.712323059907743139e-02
4.939999999999999858e+01 2.732499999999999929e+01 3.940400000000000347e+01 -1.380162999999999940e+01 -8.695234551239440848e-03
4.940100000000000335e+01 2.581899999999999906e+01 3.889099999999999824e+01 -1.415135000000000076e+01 -1.200716118656544248e-02
4.940200000000000102e+01 2.221199999999999974e+01 3.451899999999999835e+01 -3.350394000000000094e+00 -2.028498501088103478e-01
4.941499999999999915e+01 2.110099999999999909e+01 2.738599999999999923e+01 -2.491652000000000200e+00 3.040009317171496472e-02
4.941700000000000159e+01 3.419899999999999807e+01 2.344300000000000139e+01 2.638849000000000000e+00 -3.719965582986739516e-02
4.943999999999999773e+01 3.423100000000000165e+01 4.187199999999999989e+01 1.058112000000000030e+01 -9.271907165181016153e-02
4.944800000000000040e+01 3.165399999999999991e+01 2.490399999999999991e+01 1.517802000000000007e+01 6.756233837748218396e-02
4.944800000000000040e+01 3.783400000000000318e+01 2.456099999999999994e+01 4.050181000000000253e+00 4.560648870717124576e-02
4.944899999999999807e+01 3.871800000000000352e+01 2.642899999999999849e+01 2.096348000000000056e+01 9.076853268988109569e-02
4.945799999999999841e+01 3.557000000000000028e+01 2.407900000000000063e+01 2.889247000000000121e+00 1.786118720298978668e-01
4.946099999999999852e+01 2.196199999999999974e+01 3.529099999999999682e+01 -4.254914000000000307e+00 -9.925048256800420021e-02
4.946200000000000330e+01 4.096500000000000341e+01 3.570799999999999841e+01 -1.180971000000000082e+01 7.328893649104199770e-02
4.946399999999999864e+01 3.531000000000000227e+01 4.292399999999999949e+01 2.764087999999999923e+01 -9.297265690343885225e-02
4.946399999999999864e+01 3.713400000000000034e+01 4.292399999999999949e+01 3.515802000000000049e+01 -9.329584314833577752e-02
4.947299999999999898e+01 3.995799999999999841e+01 3.472500000000000142e+01 -1.379016999999999982e+01 5.732429356373913709e-02
4.949699999999999989e+01 3.462700000000000244e+01 4.254800000000000182e+01 2.074709999999999965e+01 -9.282294926140444158e-02
4.950099999999999767e+01 3.363000000000000256e+01 4.113000000000000256e+01 6.845940999999999832e+00 -9.255548464588103652e-02
4.951100000000000279e+01 2.658299999999999841e+01 2.384299999999999997e+01 -4.164398000000000266e+00 -5.939497542944016661e-02
4.951200000000000045e+01 3.018400000000000105e+01 4.008599999999999852e+01 -1.091051000000000037e+01 -4.449504974075863331e-03
4.951299999999999812e+01 3.806700000000000017e+01 4.234700000000000131e+01 1.895696999999999832e+01 -9.342638865159101635e-02
4.953099999999999881e+01 2.951699999999999946e+01 2.355799999999999983e+01 9.516954999999999387e+00 -5.315988198818916155e-02
4.953199999999999648e+01 3.723700000000000188e+01 3.555400000000000205e+01 -1.695405999999999835e+01 -9.317029234381116187e-02
4.953199999999999648e+01 3.723700000000000188e+01 3.642000000000000171e+01 -2.102568000000000126e+01 -9.318413883069226467e-02
4.953799999999999670e+01 3.748700000000000188e+01 3.688799999999999812e+01 -1.715634000000000015e+01 -9.323496773081139943e-02
4.954099999999999682e+01 2.412099999999999866e+01 2.461499999999999844e+01 2.875299000000000049e+00 -6.635447109073062955e-02
4.955599999999999739e+01 1.951699999999999946e+01 2.825799999999999912e+01 -3.162157000000000107e+00 4.097645293360675789e-02
4.955599999999999739e+01 1.951699999999999946e+01 3.071799999999999997e+01 -6.677895000000000358e+00 -1.962905986185093932e-01
4.955799999999999983e+01 2.206099999999999994e+01 2.623000000000000043e+01 -7.071033000000000179e-02 1.239976480196764153e-01
4.957500000000000284e+01 2.474200000000000088e+01 3.936699999999999733e+01 -2.746718999999999866e+01 -1.276739385744163346e-02
4.958899999999999864e+01 2.276699999999999946e+01 2.539000000000000057e+01 1.381412000000000084e+00 1.268750309002688870e-01
4.959599999999999653e+01 2.023400000000000176e+01 3.125600000000000023e+01 -1.166454000000000057e+01 -1.983398175398933538e-01
4.961399999999999721e+01 2.523300000000000054e+01 2.424299999999999855e+01 2.413739000000000079e+00 -6.304509341933473010e-02
4.964900000000000091e+01 3.496699999999999875e+01 4.187199999999999989e+01 3.295172999999999774e+01 -9.285899669861182038e-02
4.965599999999999881e+01 4.004399999999999693e+01 3.021499999999999986e+01 5.765296000000000198e+00 6.975810378251334765e-02
4.965699999999999648e+01 3.959300000000000352e+01 2.956899999999999906e+01 1.210515000000000008e+01 7.020455912470686954e-02
4.965999999999999659e+01 3.880700000000000216e+01 3.756400000000000006e+01 6.756972000000000200e+00 -9.344392993611735920e-02
4.967000000000000171e+01 4.249300000000000210e+01 3.289200000000000301e+01 -3.326192000000000348e+01 6.680919447123176425e-02
4.967000000000000171e+01 4.249300000000000210e+01 3.535199999999999676e+01 -1.013194000000000017e+02 6.952144031455816109e-02
4.970400000000000063e+01 2.511899999999999977e+01 3.895000000000000284e+01 -2.022472000000000136e+01 -1.314956818828836790e-02
4.970400000000000063e+01 2.651899999999999835e+01 3.895000000000000284e+01 -1.393694999999999951e+01 -1.098939490147641043e-02
4.970600000000000307e+01 2.772200000000000131e+01 2.401099999999999923e+01 -2.210373999999999839e+00 -5.730865160577255230e-02
4.970700000000000074e+01 3.466400000000000148e+01 4.117199999999999704e+01 1.771593000000000018e+01 -9.277117058945447137e-02
4.971000000000000085e+01 3.861500000000000199e+01 4.176299999999999812e+01 2.491152000000000033e+00 -9.347622732505064813e-02
4.973799999999999955e+01 3.622200000000000131e+01 4.293299999999999983e+01 3.830053000000000196e+01 -9.311713864356320480e-02
4.974900000000000233e+01 4.002199999999999847e+01 4.052300000000000324e+01 -6.827078000000000202e+00 -9.364075980175032288e-02
4.975099999999999767e+01 3.235399999999999920e+01 2.484600000000000009e+01 3.650959000000000287e+01 6.809700668423881997e-02
4.975399999999999778e+01 3.151500000000000057e+01 4.075500000000000256e+01 -2.936526000000000192e+00 -9.248625898760107211e-02
4.977300000000000324e+01 3.835900000000000176e+01 2.541100000000000136e+01 1.692210999999999999e+01 4.648213661400547869e-02
4.977600000000000335e+01 3.925800000000000267e+01 3.466599999999999682e+01 1.154557000000000055e+00 6.086436172033331260e-02
4.978199999999999648e+01 3.110900000000000176e+01 2.525700000000000145e+01 1.924342000000000041e+01 -5.467446304688948489e-02
4.978199999999999648e+01 3.197400000000000020e+01 2.525700000000000145e+01 1.078603000000000023e+01 6.715865248282917865e-02
4.980400000000000205e+01 3.752600000000000335e+01 4.242900000000000205e+01 1.253947999999999929e+01 -9.331538402070392590e-02
4.981700000000000017e+01 3.698400000000000176e+01 2.448999999999999844e+01 8.602306000000000452e+00 1.691524382950694294e-01
4.982500000000000284e+01 2.303000000000000114e+01 3.930799999999999983e+01 -3.444679000000000002e+01 -9.483242140895764560e-02
4.984300000000000352e+01 4.014699999999999847e+01 3.500600000000000023e+01 -1.067880000000000074e+01 5.743162112900803556e-02
4.984300000000000352e+01 4.014699999999999847e+01 3.738799999999999812e+01 2.915157000000000220e+00 -9.360082713253542464e-02
4.984599999999999653e+01 1.904700000000000060e+01 2.901800000000000068e+01 -7.482130999999999865e+00 4.571737997414283133e-02
4.984599999999999653e+01 1.904700000000000060e+01 2.995799999999999841e+01 -2.353579999999999828e+01 4.966607861165898280e-02
4.987700000000000244e+01 2.334600000000000009e+01 2.467999999999999972e+01 2.382864000000000093e+00 -6.673589436508450823e-02
4.988499999999999801e+01 2.396900000000000119e+01 3.940699999999999648e+01 -2.862224000000000146e+01 -1.396928416394830653e-02
4.988799999999999812e+01 2.270100000000000051e+01 3.854800000000000182e+01 -1.329842000000000013e+01 -9.613177052966744018e-02
4.989600000000000080e+01 3.342399999999999949e+01 2.373900000000000077e+01 1.920805999999999969e+01 -3.839183512935086945e-02
4.989600000000000080e+01 3.497399999999999665e+01 2.373900000000000077e+01 1.333906000000000036e+00 -3.712378423404814887e-02
4.989800000000000324e+01 3.319800000000000040e+01 4.063900000000000290e+01 4.135877999999999943e+00 -9.252181989981808630e-02
4.990699999999999648e+01 2.161400000000000077e+01 2.698400000000000176e+01 -2.110046000000000088e+00 2.662866028100569979e-02
4.991899999999999693e+01 2.992999999999999972e+01 2.421499999999999986e+01 5.292320000000000135e+01 -5.389794320451628262e-02
4.994100000000000250e+01 3.605299999999999727e+01 2.446000000000000085e+01 1.019624999999999915e+01 1.683912803510079215e-01
4.994700000000000273e+01 2.085900000000000176e+01 3.175700000000000145e+01 -3.069029000000000007e+00 -1.990536067739394066e-01
4.994700000000000273e+01 2.120400000000000063e+01 3.253999999999999915e+01 -2.271279999999999966e+00 -2.000452499346256907e-01
4.996000000000000085e+01 4.296300000000000097e+01 3.365200000000000102e+01 -3.070881999999999934e+01 6.681317852860266249e-02
4.996000000000000085e+01 4.296300000000000097e+01 3.459199999999999875e+01 -5.855223999999999762e+01 6.783244508331932876e-02
4.996600000000000108e+01 3.579599999999999937e+01 4.228999999999999915e+01 4.402420000000000044e+01 -9.300660973851998525e-02
4.997999999999999687e+01 4.075200000000000244e+01 3.191600000000000037e+01 -1.353577999999999948e+00 6.995801983965180271e-02
4.998199999999999932e+01 3.818699999999999761e+01 3.496999999999999886e+01 7.422077999999999953e+00 -9.327507815532334878e-02
4.998199999999999932e+01 2.482100000000000151e+01 2.422899999999999920e+01 6.078394000000000297e+00 -6.280278982887041450e-02
4.998400000000000176e+01 2.838800000000000168e+01 2.411499999999999844e+01 2.529993999999999854e+00 -5.599409146318220371e-02
4.999000000000000199e+01 2.227499999999999858e+01 3.735399999999999920e+01 -5.040176999999999907e+00 -9.812017158208878598e-02
4.999300000000000210e+01 2.020899999999999963e+01 2.784400000000000119e+01 -2.936765999999999988e+00 3.569580677102410921e-02
4.999900000000000233e+01 4.173299999999999699e+01 3.541499999999999915e+01 -7.577495000000000402e+01 7.137639950373407538e-02
4.999900000000000233e+01 3.417699999999999960e+01 4.064399999999999835e+01 9.824324000000000723e+00 -9.263711828963246131e-02
5.000000000000000000e+01 4.047399999999999665e+01 3.106299999999999883e+01 1.836869000000000085e+00 6.975173836483158918e-02
5.000200000000000244e+01 2.611400000000000077e+01 2.427700000000000102e+01 -5.574533000000000404e-01 -6.048693621892876904e-02
5.000200000000000244e+01 2.705199999999999960e+01 2.427700000000000102e+01 -1.484154000000000018e+01 -5.875075232317241575e-02
5.000600000000000023e+01 3.005399999999999849e+01 4.033400000000000318e+01 -7.491782999999999859e+00 -4.809803780457617452e-03
5.002400000000000091e+01 2.854799999999999827e+01 4.023799999999999955e+01 -5.228729999999999656e+00 -6.424683457908576985e-03
5.006400000000000006e+01 4.178099999999999881e+01 3.275399999999999778e+01 -8.170251999999999626e+00 6.852309665521419402e-02
5.007200000000000273e+01 2.708999999999999986e+01 3.944100000000000250e+01 -6.695319999999999716e+00 -9.531940428108644919e-03
5.010000000000000142e+01 4.094299999999999784e+01 3.263900000000000290e+01 -6.106444999999999901e+00 7.031053008305340746e-02
5.010499999999999687e+01 4.067199999999999704e+01 3.817499999999999716e+01 -3.419166999999999845e+00 -9.364596435762552462e-02
5.010499999999999687e+01 4.067199999999999704e+01 3.977300000000000324e+01 -4.070392999999999972e+01 -9.366724292197209367e-02
5.010499999999999687e+01 4.089900000000000091e+01 3.897399999999999665e+01 -4.421459000000000117e+01 -9.368228611022449970e-02
5.010900000000000176e+01 3.071799999999999997e+01 4.056799999999999784e+01 -3.581986000000000114e+00 -4.087865289023392447e-03
5.012100000000000222e+01 3.935000000000000142e+01 4.132200000000000273e+01 9.063449999999999562e+00 -9.352541193762259342e-02
5.013100000000000023e+01 3.915400000000000347e+01 2.907300000000000040e+01 3.950941999999999865e+01 8.541391708849550846e-02
5.013700000000000045e+01 2.581899999999999906e+01 3.868200000000000216e+01 -1.880439000000000149e+01 -1.280108925188408811e-02
5.014000000000000057e+01 3.536399999999999721e+01 4.143900000000000006e+01 2.594215000000000160e+01 -9.289099180617137186e-02
5.016599999999999682e+01 3.243999999999999773e+01 4.071900000000000119e+01 -4.419185999999999948e-01 -9.253296626501451849e-02
5.017799999999999727e+01 3.829399999999999693e+01 3.721399999999999864e+01 1.093321000000000076e+01 -9.330874578655797003e-02
5.019200000000000017e+01 3.294500000000000028e+01 2.451399999999999935e+01 4.138259999999999650e+01 -4.032058284056407038e-02
5.021099999999999852e+01 3.870400000000000063e+01 2.781299999999999883e+01 3.419534000000000162e+01 8.834297650998057527e-02
5.021099999999999852e+01 3.891299999999999670e+01 2.854899999999999949e+01 2.387627000000000166e+01 8.672978181815362009e-02
5.021300000000000097e+01 2.343799999999999883e+01 3.854800000000000182e+01 -6.821997000000000355e+01 -9.622948571168873921e-02
5.021500000000000341e+01 3.040899999999999892e+01 2.498999999999999844e+01 5.758749999999999858e+01 -5.468413627161835405e-02
5.021500000000000341e+01 3.267399999999999949e+01 2.498999999999999844e+01 2.531287999999999982e+01 6.839532927960768893e-02
5.022099999999999653e+01 2.167200000000000060e+01 3.576100000000000279e+01 -3.847398999999999791e+00 -9.766044718253261148e-02
5.022099999999999653e+01 2.189900000000000091e+01 3.349000000000000199e+01 -2.508138000000000201e+00 -2.003991798931844814e-01
5.022099999999999653e+01 2.189900000000000091e+01 3.496200000000000330e+01 -4.301332999999999629e+00 -1.999645752068451021e-01
5.022099999999999653e+01 2.189900000000000091e+01 3.656000000000000227e+01 -1.552665999999999968e+01 -9.871184874707086832e-02
5.022099999999999653e+01 2.210800000000000054e+01 3.422599999999999909e+01 -3.890327000000000091e+00 -2.005101087514843672e-01
5.023199999999999932e+01 3.419899999999999807e+01 2.367399999999999949e+01 3.866261000000000170e+00 -3.752577152476828382e-02
5.024300000000000210e+01 3.665500000000000114e+01 4.235900000000000176e+01 2.108523999999999887e+01 -9.313489127759570774e-02
5.024600000000000222e+01 3.853099999999999881e+01 2.678399999999999892e+01 1.647610999999999848e+01 9.045382250999831064e-02
5.025200000000000244e+01 1.950600000000000023e+01 3.056700000000000017e+01 -1.175383000000000067e+01 4.913640539664730633e-02
5.025500000000000256e+01 2.915500000000000114e+01 2.414999999999999858e+01 6.627430999999999628e+00 -5.451859070138768276e-02
5.026700000000000301e+01 3.163100000000000023e+01 2.595799999999999841e+01 1.797981000000000051e+01 6.631863580472885378e-02
5.027700000000000102e+01 3.551500000000000057e+01 2.441499999999999915e+01 1.261963000000000079e+01 1.772948554795480414e-01
5.028699999999999903e+01 4.000800000000000267e+01 3.163899999999999935e+01 2.131378999999999913e+00 7.149750944415450560e-02
5.029699999999999704e+01 3.288799999999999812e+01 2.546699999999999875e+01 2.150703999999999994e+01 6.735999987426649627e-02
5.029800000000000182e+01 3.750900000000000034e+01 2.508599999999999852e+01 1.411012000000000022e+01 4.511233973141819120e-02
5.030299999999999727e+01 3.500399999999999778e+01 4.073400000000000176e+01 1.031821000000000055e+01 -9.279240190558654677e-02
5.030499999999999972e+01 2.541400000000000148e+01 2.421900000000000119e+01 3.513710999999999807e+00 -6.091385537694795488e-02
5.031099999999999994e+01 2.474200000000000088e+01 3.915800000000000125e+01 -1.569542000000000037e+01 -1.349074928208906198e-02
5.031300000000000239e+01 2.300000000000000000e+01 3.771399999999999864e+01 -1.320021999999999984e+01 -9.748777269440503379e-02
5.035499999999999687e+01 3.258500000000000085e+01 2.616700000000000159e+01 1.225198999999999927e+01 6.593766482746912794e-02
5.035600000000000165e+01 2.247400000000000020e+01 2.586400000000000077e+01 9.864458000000000837e+00 1.267574948217967123e-01
5.035600000000000165e+01 2.280199999999999960e+01 2.511899999999999977e+01 2.452605000000000146e+00 -6.688091518614244779e-02
5.035600000000000165e+01 2.412099999999999866e+01 2.438400000000000034e+01 8.586964999999999293e+00 -6.338435738348792425e-02
5.036200000000000188e+01 2.935800000000000054e+01 4.030799999999999983e+01 -3.374137999999999860e+00 -5.863932630263788727e-03
5.036299999999999955e+01 3.787299999999999756e+01 4.179899999999999949e+01 5.726950999999999681e+00 -9.330407125567415083e-02
5.037100000000000222e+01 4.009499999999999886e+01 3.266199999999999903e+01 -9.254769999999999663e-02 7.232737359256070919e-02
5.038300000000000267e+01 3.651899999999999835e+01 2.497800000000000153e+01 2.462530999999999892e+01 1.681962955951792071e-01
5.039300000000000068e+01 2.769800000000000040e+01 4.016700000000000159e+01 -4.263658000000000392e+00 -7.836245828696207505e-03
5.039600000000000080e+01 3.374399999999999977e+01 4.015299999999999869e+01 5.002571999999999797e+00 -9.255815884835534579e-02
5.039900000000000091e+01 2.233599999999999852e+01 2.671099999999999852e+01 -4.712470999999999743e-01 1.241397058604928744e-01
5.040400000000000347e+01 3.328699999999999903e+01 2.646799999999999997e+01 8.855249000000000592e+00 6.538710981233711306e-02
5.041700000000000159e+01 2.071799999999999997e+01 2.782799999999999940e+01 -2.720988000000000184e+00 3.345472062778080680e-02
5.042199999999999704e+01 1.943599999999999994e+01 2.857900000000000063e+01 -3.800945000000000018e+00 4.120931607611864889e-02
5.042399999999999949e+01 2.771600000000000108e+01 2.444999999999999929e+01 -7.471398999999999679e-01 -5.731787249029436648e-02
5.042999999999999972e+01 4.039800000000000324e+01 3.336200000000000188e+01 -2.230893000000000015e+00 7.235525332851734659e-02
5.042999999999999972e+01 4.126299999999999812e+01 3.336200000000000188e+01 -1.065459000000000067e+01 7.046123497306666650e-02
5.042999999999999972e+01 4.126299999999999812e+01 3.488199999999999790e+01 -4.228130000000000166e+01 7.196962522305913601e-02
5.042999999999999972e+01 4.220300000000000296e+01 3.336200000000000188e+01 -6.388142000000000209e+00 6.843755095450129722e-02
5.042999999999999972e+01 4.220300000000000296e+01 3.488199999999999790e+01 -5.292206000000000188e+01 6.998164908024212538e-02
5.043200000000000216e+01 3.794899999999999807e+01 2.585099999999999909e+01 1.576291999999999938e+01 4.582798078332302183e-02
5.043200000000000216e+01 3.952799999999999869e+01 2.990500000000000114e+01 9.560196000000000538e+01 7.097369772536386845e-02
5.044500000000000028e+01 3.786099999999999710e+01 3.564900000000000091e+01 -6.129592999999999847e+00 -9.319428242663152506e-02
5.044500000000000028e+01 3.786099999999999710e+01 3.651400000000000290e+01 -1.252907000000000082e+01 -9.320698600320158345e-02
5.048100000000000165e+01 3.899399999999999977e+01 3.489099999999999824e+01 1.254377999999999993e+00 6.296483028353902500e-02
5.048100000000000165e+01 3.899399999999999977e+01 3.727300000000000324e+01 3.989903000000000333e+01 -9.338212898446442145e-02
5.048199999999999932e+01 3.084199999999999875e+01 2.569000000000000128e+01 2.118542000000000058e+01 -5.520022235230078594e-02
5.049300000000000210e+01 4.253199999999999648e+01 3.412199999999999989e+01 -5.819346000000000174e+01 6.855429801009078894e-02
5.049600000000000222e+01 3.927199999999999847e+01 3.163899999999999935e+01 -8.003441999999999723e+00 7.318953605747711977e-02
5.050500000000000256e+01 2.165700000000000003e+01 3.304800000000000182e+01 -2.105021999999999949e+00 -1.993354893127531058e-01
5.052600000000000335e+01 3.575000000000000000e+01 2.499299999999999855e+01 5.189480999999999966e+01 1.770130550508750011e-01
5.053699999999999903e+01 3.958500000000000085e+01 3.085800000000000054e+01 1.004350999999999949e+01 7.176615874662860273e-02
5.055499999999999972e+01 3.957500000000000284e+01 3.233899999999999864e+01 3.977419999999999956e+00 7.319817050009089221e-02
5.055899999999999750e+01 3.928699999999999903e+01 2.939000000000000057e+01 4.830349999999999966e+01 7.108258923201302149e-02
5.057000000000000028e+01 2.511899999999999977e+01 3.895000000000000284e+01 -1.310318000000000005e+01 -1.343817421303757954e-02
5.057000000000000028e+01 2.651899999999999835e+01 3.895000000000000284e+01 -9.739907999999999788e+00 -1.149297081730158918e-02
5.057399999999999807e+01 4.023799999999999955e+01 4.026400000000000290e+01 -5.353262000000000143e+01 -9.357375530194655955e-02
5.057500000000000284e+01 4.013900000000000290e+01 3.774399999999999977e+01 9.275062999999999391e+00 -9.352786332050286311e-02
5.057900000000000063e+01 4.014699999999999847e+01 3.479699999999999704e+01 -1.104954000000000036e+01 5.722665879740649469e-02
5.061299999999999955e+01 3.402300000000000324e+01 2.646799999999999997e+01 6.317315999999999931e+00 1.722568965349957348e-01
5.061899999999999977e+01 3.613900000000000290e+01 4.173499999999999943e+01 9.815452000000000510e+01 -9.300550449449437873e-02
5.062100000000000222e+01 1.919300000000000139e+01 2.948799999999999955e+01 -7.701158000000000392e+00 4.531707352850288667e-02
5.063400000000000034e+01 2.993799999999999883e+01 4.042999999999999972e+01 -3.471030999999999977e+00 -5.458568581257465351e-03
5.063400000000000034e+01 3.156800000000000139e+01 4.089300000000000068e+01 6.959893000000000329e-02 -3.701236587323851988e-03
5.063499999999999801e+01 3.435699999999999932e+01 4.004099999999999682e+01 5.666920000000000179e+00 -9.263044432612928258e-02
5.064600000000000080e+01 3.850000000000000000e+01 4.164699999999999847e+01 1.051478999999999964e+01 -9.336490983851167269e-02
5.064600000000000080e+01 3.994599999999999795e+01 4.084100000000000108e+01 -1.282976000000000028e+01 -9.353910625527649125e-02
5.065899999999999892e+01 2.417899999999999849e+01 3.891700000000000159e+01 -1.944834000000000174e+01 -1.483274323862302478e-02
5.066599999999999682e+01 2.198600000000000065e+01 2.739499999999999957e+01 -3.268428000000000111e+00 2.745102439164830502e-02
5.067099999999999937e+01 3.285499999999999687e+01 2.716799999999999926e+01 6.272549999999999848e+00 2.460042782616714552e-01
5.067099999999999937e+01 3.371999999999999886e+01 2.421799999999999997e+01 3.181925000000000026e+01 -3.885602170723906346e-02
5.067099999999999937e+01 3.371999999999999886e+01 2.576800000000000068e+01 2.550328999999999979e+01 -4.153373368682480860e-02
5.067099999999999937e+01 3.371999999999999886e+01 2.716799999999999926e+01 3.300456000000000056e+00 1.711281240428437767e-01
5.067099999999999937e+01 3.467799999999999727e+01 2.421799999999999997e+01 7.555450000000000443e+00 -3.808559835538779387e-02
5.067600000000000193e+01 3.709199999999999875e+01 4.184000000000000341e+01 1.686957999999999913e+01 -9.315912471363781144e-02
5.068399999999999750e+01 3.580299999999999727e+01 4.096000000000000085e+01 3.969592999999999705e+01 -9.292404417403572758e-02
5.069100000000000250e+01 2.243199999999999861e+01 3.699099999999999966e+01 -3.878699000000000296e+01 -9.804683923632884213e-02
5.069899999999999807e+01 3.304399999999999693e+01 4.021099999999999852e+01 1.227454999999999963e+00 -9.256899555583429640e-02
5.070400000000000063e+01 2.383500000000000085e+01 3.811500000000000199e+01 -2.413369000000000142e+01 -9.670996205427051517e-02
5.071999999999999886e+01 4.173299999999999699e+01 3.412199999999999989e+01 -7.404274999999999807e+01 7.032321124124438216e-02
5.073599999999999710e+01 3.338400000000000034e+01 2.499299999999999855e+01 5.653963000000000250e+01 -4.053603260579909107e-02
5.073599999999999710e+01 3.501400000000000290e+01 2.499299999999999855e+01 1.400116999999999905e+02 -3.912626046449659695e-02
5.073799999999999955e+01 2.611400000000000077e+01 2.448600000000000065e+01 3.071241000000000110e+00 -5.948558494205365144e-02
5.075099999999999767e+01 2.962900000000000134e+01 2.458899999999999864e+01 5.565120999999999896e+01 -5.433682066424828927e-02
5.075300000000000011e+01 2.697700000000000031e+01 2.448499999999999943e+01 -2.661979999999999791e+00 -5.806283400535966477e-02
5.076299999999999812e+01 2.231500000000000128e+01 3.447699999999999676e+01 -4.556758000000000308e+00 -1.992423447741802633e-01
5.076299999999999812e+01 2.006500000000000128e+01 3.092299999999999827e+01 -8.278183000000000291e+00 4.715233490349288181e-02
5.076700000000000301e+01 2.853099999999999881e+01 2.448400000000000176e+01 9.113384999999999181e+00 -5.563775775846481475e-02
5.079399999999999693e+01 3.531700000000000017e+01 2.569300000000000139e+01 9.838025000000000375e+01 1.753801650817103097e-01
5.079399999999999693e+01 3.618299999999999983e+01 2.569300000000000139e+01 2.127674000000000021e+01 1.769909514208017343e-01
5.079699999999999704e+01 2.127499999999999858e+01 3.217099999999999937e+01 1.450158000000000058e+00 -1.978642503163272059e-01
5.082300000000000040e+01 3.467799999999999727e+01 2.576800000000000068e+01 6.252015000000000100e+01 1.740217371104372246e-01
5.082900000000000063e+01 3.784599999999999653e+01 2.642299999999999827e+01 1.033736999999999995e+01 4.569993583571806822e-02
5.083299999999999841e+01 2.703900000000000148e+01 3.975699999999999790e+01 -5.216793000000000013e+00 -9.611607541619427569e-03
5.083299999999999841e+01 2.329299999999999926e+01 2.457600000000000051e+01 2.437392000000000003e+00 -6.373949373876867941e-02
5.084400000000000119e+01 4.082600000000000051e+01 3.412199999999999989e+01 -9.668043000000000831e+00 7.225570734587695443e-02
5.085199999999999676e+01 3.559799999999999898e+01 4.000200000000000244e+01 1.051701000000000086e+01 -9.285476404375328507e-02
5.085199999999999676e+01 1.997299999999999898e+01 2.813899999999999935e+01 -3.449495000000000200e+00 3.696018226871271989e-02
5.085499999999999687e+01 3.942600000000000193e+01 3.500099999999999767e+01 -3.373076000000000185e+00 6.125491098938205120e-02
5.086200000000000188e+01 3.969800000000000040e+01 3.309499999999999886e+01 1.544383000000000061e+00 7.367886787861124831e-02
5.086500000000000199e+01 4.060900000000000176e+01 3.850399999999999778e+01 -9.818213000000000079e+00 -9.356427048431671667e-02
5.086500000000000199e+01 4.060900000000000176e+01 3.944400000000000261e+01 -2.466338999999999970e+01 -9.357644556306650430e-02
5.087299999999999756e+01 2.581899999999999906e+01 3.889099999999999824e+01 -1.580274999999999963e+01 -1.267240123141928632e-02
5.087400000000000233e+01 3.925800000000000267e+01 3.030199999999999960e+01 2.660428999999999888e+01 7.205271779434338497e-02
5.087400000000000233e+01 2.472700000000000031e+01 2.419500000000000028e+01 1.997087999999999974e+00 -6.066508976938308345e-02
5.087800000000000011e+01 3.856099999999999994e+01 3.538199999999999790e+01 3.187787000000000148e+00 -9.325794388826282033e-02
5.090200000000000102e+01 3.392499999999999716e+01 3.934100000000000108e+01 3.810468000000000188e+00 -6.109071645433904879e-03
5.090500000000000114e+01 2.457700000000000173e+01 3.915699999999999648e+01 -1.063836000000000048e+01 -1.385757994492827459e-02
5.090899999999999892e+01 3.688600000000000279e+01 2.579500000000000171e+01 1.676278999999999897e+01 1.675977407755722681e-01
5.091599999999999682e+01 2.239000000000000057e+01 3.347899999999999920e+01 -4.796443000000000012e+00 -1.991089616777155513e-01
5.091799999999999926e+01 2.854799999999999827e+01 4.049199999999999733e+01 -3.663006000000000206e+00 -6.929524738273021116e-03
5.092799999999999727e+01 3.215400000000000347e+01 2.677899999999999991e+01 8.518750999999999962e+00 3.087473394531497009e-02
5.093599999999999994e+01 3.825699999999999790e+01 3.608200000000000074e+01 -7.943834999999999980e+00 -9.321955890220529062e-02
5.095799999999999841e+01 2.279700000000000060e+01 3.378600000000000136e+01 -4.796443000000000012e+00 -1.993135131038883956e-01
5.096699999999999875e+01 3.419899999999999807e+01 2.499299999999999855e+01 1.019558999999999926e+01 -3.971836405593573427e-02
5.096900000000000119e+01 3.942699999999999960e+01 3.760600000000000165e+01 9.524191000000000074e+00 -9.339943961397448313e-02
5.097999999999999687e+01 3.019999999999999929e+01 2.521499999999999986e+01 2.729167999999999950e+01 -5.465393266082720775e-02
5.098100000000000165e+01 2.196199999999999974e+01 3.529099999999999682e+01 -7.795260999999999996e+00 -9.607428497558995195e-02
5.098100000000000165e+01 2.196199999999999974e+01 3.623100000000000165e+01 -1.319481999999999999e+01 -9.698426068362565877e-02
5.098700000000000188e+01 3.887500000000000000e+01 3.207099999999999795e+01 4.447594999999999743e+00 7.448502228466660768e-02
5.101100000000000279e+01 3.881799999999999784e+01 3.115099999999999980e+01 5.049450000000000216e+00 7.377267160373994492e-02
5.103199999999999648e+01 3.494200000000000017e+01 3.926400000000000290e+01 7.831728000000000023e-01 -5.104637227718067036e-03
5.105499999999999972e+01 2.313299999999999912e+01 3.714699999999999847e+01 -4.847232000000000340e+01 -9.769787043137481697e-02
5.105499999999999972e+01 3.145200000000000173e+01 2.659900000000000020e+01 1.376365000000000016e+01 3.070627737273798341e-02
5.106199999999999761e+01 2.155399999999999849e+01 2.788599999999999923e+01 -2.392419999999999991e+00 3.075338321201680908e-02
5.106700000000000017e+01 3.663499999999999801e+01 4.085300000000000153e+01 1.070259000000000071e+01 -9.303730075357406759e-02
5.106700000000000017e+01 3.858599999999999852e+01 3.683899999999999864e+01 -1.024107000000000056e+01 -9.326662146911372797e-02
5.106799999999999784e+01 3.328699999999999903e+01 2.765899999999999892e+01 -2.803409999999999958e+00 2.464266967601565772e-01
5.107699999999999818e+01 3.832099999999999795e+01 2.718100000000000094e+01 9.050677000000000305e+00 9.014494243891077452e-02
5.108500000000000085e+01 4.040100000000000335e+01 3.994700000000000273e+01 -2.715208000000000155e+01 -9.353793370951168917e-02
5.109000000000000341e+01 3.511099999999999710e+01 2.646799999999999997e+01 2.228143000000000029e+01 1.742045730504187817e-01
5.109799999999999898e+01 2.268599999999999994e+01 2.712800000000000011e+01 8.393924000000000385e-01 1.241908099683997346e-01
5.110399999999999920e+01 3.442000000000000171e+01 2.690099999999999980e+01 1.185765999999999920e+01 1.725558742689711766e-01
5.113000000000000256e+01 4.013100000000000023e+01 3.379500000000000171e+01 -4.128529000000000337e+00 7.344131116990047781e-02
5.115899999999999892e+01 3.071799999999999997e+01 4.056799999999999784e+01 -5.002280000000000060e-01 -5.179549718225123778e-03
5.115899999999999892e+01 3.241799999999999926e+01 4.056799999999999784e+01 -1.244243999999999906e+00 -9.260687073261639202e-02
5.115999999999999659e+01 2.771600000000000108e+01 2.465899999999999892e+01 2.858410999999999813e+00 -5.670083224832937058e-02
5.116499999999999915e+01 2.275600000000000023e+01 2.544600000000000151e+01 3.127663000000000082e+00 1.293457848151477463e-01
5.116700000000000159e+01 2.353300000000000125e+01 3.378600000000000136e+01 -1.535153000000000034e+01 -9.567655719268994274e-02
5.117000000000000171e+01 3.938100000000000023e+01 3.277900000000000347e+01 2.943064999999999820e+00 7.407580193125974655e-02
5.117099999999999937e+01 3.935000000000000142e+01 4.132200000000000273e+01 4.071484999999999843e+01 -9.342311202411687776e-02
5.117999999999999972e+01 3.641899999999999693e+01 4.004500000000000171e+01 2.203071999999999875e+01 -9.297800352816774916e-02
5.122500000000000142e+01 2.322899999999999920e+01 3.308599999999999852e+01 -8.120962000000000458e+00 -1.989562366536799243e-01
5.122500000000000142e+01 2.322899999999999920e+01 3.448599999999999710e+01 -2.814509999999999934e+01 -9.614751036015369012e-02
5.124199999999999733e+01 4.000900000000000034e+01 3.446500000000000341e+01 -6.722871999999999737e+00 5.728950719892893229e-02
5.125900000000000034e+01 3.876599999999999824e+01 2.806299999999999883e+01 3.559711999999999676e+01 8.801416067954252742e-02
5.125900000000000034e+01 3.902000000000000313e+01 2.895700000000000074e+01 4.341107999999999834e+01 8.625353605430792492e-02
5.126800000000000068e+01 2.404599999999999937e+01 2.426099999999999923e+01 6.918211999999999584e+00 -6.090447358369534964e-02
5.127000000000000313e+01 2.625199999999999889e+01 3.938199999999999790e+01 -1.544542999999999999e+01 -1.142339385581506508e-02
5.128799999999999670e+01 3.872599999999999909e+01 3.613400000000000034e+01 -9.687751999999999697e+00 -9.325804265980466856e-02
5.128799999999999670e+01 3.893500000000000227e+01 3.539800000000000324e+01 -6.066883999999999943e+00 6.461500083011979811e-02
5.129500000000000171e+01 3.765400000000000347e+01 4.140500000000000114e+01 5.212607000000000212e+00 -9.318717206647895990e-02
5.130599999999999739e+01 3.570700000000000074e+01 2.628600000000000136e+01 1.306123000000000012e+01 1.752931621041850796e-01
5.131400000000000006e+01 3.891400000000000148e+01 3.759599999999999653e+01 5.264531000000000072e-01 -9.330200446818889826e-02
5.132200000000000273e+01 2.212500000000000000e+01 3.249600000000000222e+01 9.883577999999999975e+00 -1.977704373345748889e-01
5.132399999999999807e+01 1.926599999999999824e+01 2.947200000000000131e+01 -4.849007000000000289e+00 4.361079606792909319e-02
5.132399999999999807e+01 1.949299999999999855e+01 2.867299999999999827e+01 -3.416767999999999805e+00 4.001986900880431797e-02
5.132399999999999807e+01 1.949299999999999855e+01 3.027100000000000080e+01 -4.418521000000000143e+00 4.562422052878982448e-02
5.132399999999999807e+01 2.078600000000000136e+01 2.795200000000000173e+01 -2.474759000000000153e+00 3.328115436760182427e-02
5.133100000000000307e+01 3.743599999999999994e+01 2.634499999999999886e+01 7.239653999999999812e+00 4.510701125744219497e-02
5.133100000000000307e+01 2.535000000000000142e+01 3.940599999999999881e+01 -1.029125999999999941e+01 -1.251909014113492501e-02
5.133500000000000085e+01 3.984899999999999665e+01 3.821399999999999864e+01 4.499094999999999622e+00 -9.342777483210319700e-02
5.136500000000000199e+01 3.886200000000000188e+01 2.986899999999999977e+01 2.085270999999999830e+01 7.260314735347075943e-02
5.136599999999999966e+01 2.071799999999999997e+01 3.111599999999999966e+01 -5.175766000000000133e+01 4.445259496795771204e-02
5.137100000000000222e+01 3.258700000000000330e+01 2.760099999999999909e+01 -4.371705000000000396e+00 2.865094329782293461e-02
5.137100000000000222e+01 3.398700000000000188e+01 2.760099999999999909e+01 -1.163789000000000051e+01 2.462661829462405305e-01
5.137700000000000244e+01 2.376500000000000057e+01 3.309000000000000341e+01 -1.000843000000000060e+01 -1.988694323211118442e-01
5.138100000000000023e+01 2.330699999999999861e+01 3.014900000000000091e+01 -7.648838999999999722e+00 3.376291737506523921e-02
5.139399999999999835e+01 2.248499999999999943e+01 2.782199999999999918e+01 -1.244204000000000088e+00 2.788226266131857423e-02
5.139800000000000324e+01 4.017799999999999727e+01 3.897399999999999665e+01 -2.305978999999999957e+01 -9.347118340598850605e-02
5.144299999999999784e+01 2.769800000000000040e+01 4.016700000000000159e+01 -4.232725000000000293e+00 -8.668635530919382298e-03
5.145100000000000051e+01 2.272200000000000131e+01 3.500099999999999767e+01 -9.972113000000000227e+00 -9.581914170457715707e-02
5.145900000000000318e+01 2.326999999999999957e+01 2.947200000000000131e+01 -4.293319999999999581e+00 3.158983598902261741e-02
5.147299999999999898e+01 2.311799999999999855e+01 3.251800000000000068e+01 2.071753999999999873e+00 -1.982234263469279667e-01
5.147699999999999676e+01 3.056599999999999895e+01 2.574599999999999866e+01 3.188551999999999964e+01 -5.469571547452826282e-02
5.148400000000000176e+01 3.294299999999999784e+01 3.971800000000000352e+01 3.471315999999999846e+00 -7.836566167604062244e-03
5.148799999999999955e+01 3.096099999999999852e+01 2.620299999999999940e+01 2.565887999999999991e+01 -5.497677370637876759e-02
5.149199999999999733e+01 2.387800000000000011e+01 2.962999999999999901e+01 1.854074000000000000e+00 3.057101786101153532e-02
5.149399999999999977e+01 2.937800000000000011e+01 4.029500000000000171e+01 -3.947106999999999921e+00 -6.904947348822342360e-03
5.149499999999999744e+01 2.315399999999999991e+01 3.083099999999999952e+01 -1.002987000000000073e+01 3.628816803639498684e-02
5.149600000000000222e+01 3.987500000000000000e+01 4.047200000000000131e+01 9.715087999999999724e+00 -9.344638492728601920e-02
5.150200000000000244e+01 3.842099999999999937e+01 3.071799999999999997e+01 1.309802000000000000e+01 7.423408978223389187e-02
5.150200000000000244e+01 3.842099999999999937e+01 3.158299999999999841e+01 9.494889999999999830e+00 7.497849261812078447e-02
5.150300000000000011e+01 3.377700000000000102e+01 3.844400000000000261e+01 1.589522999999999975e+01 -7.805000894689479926e-03
5.150300000000000011e+01 3.471300000000000097e+01 3.844400000000000261e+01 1.585904000000000025e+01 -6.606048577696689746e-03
5.150300000000000011e+01 2.690099999999999980e+01 2.469300000000000139e+01 4.241971000000000380e+00 -5.742717967780019972e-02
5.150300000000000011e+01 2.853099999999999881e+01 2.469300000000000139e+01 5.746934999999999683e+00 -5.519418215034228858e-02
5.151400000000000290e+01 2.239300000000000068e+01 3.576100000000000279e+01 -2.082860000000000156e+01 -9.610375434784391990e-02
5.151800000000000068e+01 2.651899999999999835e+01 3.989800000000000324e+01 -6.814119999999999955e+00 -1.040297153962996268e-02
5.152799999999999869e+01 3.156800000000000139e+01 4.063900000000000290e+01 4.723238000000000159e-01 -4.843685733373064885e-03
5.153099999999999881e+01 2.391100000000000136e+01 3.773400000000000176e+01 -5.395991000000000426e+00 -9.657223767457871755e-02
5.153300000000000125e+01 2.273100000000000165e+01 3.658200000000000074e+01 -1.937716999999999956e+01 -9.707124704101641188e-02
5.153699999999999903e+01 3.595900000000000318e+01 3.941899999999999693e+01 5.306327999999999712e+00 -9.286847198515271740e-02
5.153999999999999915e+01 3.850000000000000000e+01 4.139300000000000068e+01 2.094904000000000011e+01 -9.328454334168487239e-02
5.154800000000000182e+01 2.923499999999999943e+01 2.482400000000000162e+01 1.644369999999999976e+01 -5.451284559438383803e-02
5.156400000000000006e+01 2.188299999999999912e+01 3.161700000000000088e+01 -4.548735999999999891e+00 4.214851928052384955e-02
5.158599999999999852e+01 2.450100000000000122e+01 3.309000000000000341e+01 -1.438551999999999964e+01 -9.491177841357992251e-02
5.159000000000000341e+01 2.257100000000000151e+01 3.014900000000000091e+01 -2.039500999999999920e+01 3.566263496705154162e-02
5.159000000000000341e+01 2.404299999999999926e+01 3.014900000000000091e+01 -4.971621999999999986e+00 3.182757566586383313e-02
5.159100000000000108e+01 3.651299999999999812e+01 2.632300000000000040e+01 1.120223000000000013e+01 1.764321508663367899e-01
5.160399999999999920e+01 3.996000000000000085e+01 3.948199999999999932e+01 -2.281184999999999974e+01 -9.343429848467027510e-02
5.161299999999999955e+01 3.711899999999999977e+01 4.031300000000000239e+01 1.190328000000000053e+01 -9.306581759395127218e-02
5.163499999999999801e+01 2.338599999999999923e+01 3.188800000000000168e+01 3.604703999999999908e+00 3.866818549932100890e-02
5.163700000000000045e+01 3.495799999999999841e+01 3.732900000000000063e+01 3.041788000000000025e+01 -7.356586726872208284e-03
5.164000000000000057e+01 3.792399999999999949e+01 2.711499999999999844e+01 7.776157000000000430e+00 4.577015771701966468e-02
5.164500000000000313e+01 2.419800000000000040e+01 3.378999999999999915e+01 -1.197047000000000061e+01 -9.545734182419141067e-02
5.164699999999999847e+01 2.264999999999999858e+01 3.164600000000000080e+01 7.764687000000000117e-01 3.996131459311701162e-02
5.165800000000000125e+01 2.392899999999999849e+01 3.421900000000000119e+01 -9.951225000000000875e+00 -9.572237657289639490e-02
5.166799999999999926e+01 2.253399999999999892e+01 2.947200000000000131e+01 -2.309280000000000044e+01 3.349757256562038016e-02
5.167399999999999949e+01 3.951800000000000068e+01 3.324399999999999977e+01 1.799072999999999922e+00 7.422744414671506030e-02
5.168699999999999761e+01 3.881700000000000017e+01 3.237500000000000000e+01 7.439436999999999856e+00 7.486689455176673280e-02
5.168999999999999773e+01 3.678199999999999648e+01 3.974499999999999744e+01 1.646252000000000137e+01 -9.299894264708798153e-02
5.169100000000000250e+01 3.911699999999999733e+01 3.820600000000000307e+01 8.025425000000000253e+00 -9.330656677644236230e-02
5.170100000000000051e+01 2.461400000000000077e+01 2.962999999999999901e+01 1.141493000000000091e+00 2.888433043013287696e-02
5.170400000000000063e+01 2.241799999999999926e+01 3.083099999999999952e+01 -1.293140000000000001e+01 3.814221631772897469e-02
5.172099999999999653e+01 2.328099999999999881e+01 2.488299999999999912e+01 4.875085999999999586e+00 -6.217029544678415176e-02
