5.917999999999999972e+01 7.015200000000000102e+00 1.904799999999999898e+02 1.784164000000000083e+00 -2.586191812153669778e-01
5.918699999999999761e+01 -1.209699999999999953e+01 1.824600000000000080e+02 8.949825999999999615e-01 -2.515673582934515595e-01
5.918699999999999761e+01 -1.209699999999999953e+01 1.835200000000000102e+02 7.133047000000000137e-01 -2.505617487131345245e-01
5.919800000000000040e+01 -1.273900000000000032e+00 1.704499999999999886e+02 1.163343999999999934e+00 -1.867408310348873945e-01
5.920300000000000296e+01 -1.134600000000000053e+00 1.725900000000000034e+02 4.883885000000000254e+00 -1.858783173312176518e-01
5.921000000000000085e+01 8.412699999999999179e+00 1.886699999999999875e+02 -2.783783000000000118e+00 -1.584020705225617776e-01
5.922699999999999676e+01 -7.600399999999999601e+00 1.861399999999999864e+02 3.365869000000000000e+00 -1.496864072192534700e-01
5.922899999999999920e+01 8.339299999999999713e+00 1.896200000000000045e+02 -1.567711999999999994e+00 -1.566711300943246787e-01
5.924600000000000222e+01 -2.359999999999999876e+00 1.676800000000000068e+02 1.578330999999999928e+00 -1.877966700795145050e-01
5.924600000000000222e+01 4.230300000000000171e-01 1.906800000000000068e+02 4.784893999999999892e+01 -1.555943085065127629e-01
5.924799999999999756e+01 -3.410000000000000253e-01 1.938499999999999943e+02 2.723323999999999856e+01 -2.565512064906195766e-01
5.924799999999999756e+01 9.775099999999999900e-01 1.931100000000000136e+02 3.865404999999999802e+01 -2.551731532282543458e-01
5.924799999999999756e+01 1.209000000000000075e+00 1.923000000000000114e+02 6.339193000000000211e+01 -2.546665154161555922e-01
5.926299999999999812e+01 1.132799999999999940e+01 1.741699999999999875e+02 -2.243287999999999949e-01 -1.578504650341626403e-01
5.926800000000000068e+01 -7.759599999999999831e+00 1.687299999999999898e+02 -3.742710000000000203e+00 -1.891179114088595292e-01
5.926899999999999835e+01 -1.164199999999999946e+01 1.799199999999999875e+02 -4.344050000000000189e+00 -1.419712939022990950e-01
5.927100000000000080e+01 1.005799999999999983e+01 1.807899999999999920e+02 2.598339999999999872e+00 -5.260959277622072328e-02
5.927300000000000324e+01 -1.282499999999999929e+01 1.791100000000000136e+02 -1.959347999999999956e+01 -1.441903906408135982e-01
5.927400000000000091e+01 9.655799999999999272e+00 1.711200000000000045e+02 1.165661000000000058e+00 -1.987442928103353712e-01
5.927799999999999869e+01 -8.755000000000000782e+00 1.687100000000000080e+02 -2.874795000000000211e+00 -1.892953394361041874e-01
5.928999999999999915e+01 -9.846700000000000452e-01 1.685999999999999943e+02 3.446423000000000125e-01 -1.871167590341232256e-01
5.928999999999999915e+01 -9.846700000000000452e-01 1.696500000000000057e+02 -4.319295000000000218e-01 -1.868443459734426271e-01
5.929299999999999926e+01 -3.134500000000000064e-01 1.873100000000000023e+02 -7.299514000000000280e+00 -1.532695869269608269e-01
5.929299999999999926e+01 -1.043599999999999944e-01 1.865800000000000125e+02 -5.189226999999999812e+00 -1.533251644971886374e-01
5.929299999999999926e+01 -1.043599999999999944e-01 1.880500000000000114e+02 -1.767501999999999995e+01 -1.536878593386446501e-01
5.929299999999999926e+01 -1.095599999999999952e+01 1.688300000000000125e+02 -5.233698999999999657e+00 -1.895439899380135240e-01
5.929500000000000171e+01 -6.569700000000000095e+00 1.695200000000000102e+02 -1.485543000000000058e+00 -1.887118644786901223e-01
5.929899999999999949e+01 9.540599999999999525e+00 1.728799999999999955e+02 -2.580731000000000108e+00 -1.991313254561749291e-01
5.929899999999999949e+01 9.651799999999999713e+00 1.720800000000000125e+02 6.828804000000000540e-01 -1.988993946227945453e-01
5.930199999999999960e+01 1.050599999999999978e+00 1.914199999999999875e+02 4.307612000000000307e+01 -1.566393396288700557e-01
5.930599999999999739e+01 -3.883000000000000007e+00 1.910000000000000000e+02 -1.862086000000000041e+01 -2.646629110055768175e-01
5.930899999999999750e+01 1.007099999999999973e+01 1.745000000000000000e+02 4.790131999999999834e+00 -1.588533871872723768e-01
5.931499999999999773e+01 1.015900000000000070e+01 1.789199999999999875e+02 1.896419000000000077e+00 -1.621644010234992994e-01
5.931499999999999773e+01 1.015900000000000070e+01 1.799699999999999989e+02 1.910518000000000072e+01 -1.630243011796943531e-01
5.931700000000000017e+01 -1.103500000000000014e+01 1.853000000000000114e+02 1.026732999999999951e-01 -2.540756708952742193e-01
5.931700000000000017e+01 -9.984700000000000131e+00 1.853000000000000114e+02 1.331287999999999916e-01 -1.511226853746736321e-01
5.931799999999999784e+01 7.894999999999999574e+00 1.904300000000000068e+02 2.936233999999999966e+01 -2.464225303107707155e-01
5.932000000000000028e+01 8.014599999999999724e+00 1.761100000000000136e+02 3.037577999999999889e+00 -9.442610086426782290e-02
5.932200000000000273e+01 -1.401099999999999923e+01 1.756800000000000068e+02 1.103233999999999959e+01 -1.503096070253963634e-01
5.932600000000000051e+01 6.682000000000000384e+00 1.766699999999999875e+02 1.901585999999999999e+00 -9.385691604408960553e-02
5.933100000000000307e+01 -1.289199999999999946e+01 1.679499999999999886e+02 1.452879000000000032e+00 -1.896907458729430729e-01
5.933800000000000097e+01 1.987700000000000022e+00 1.800800000000000125e+02 2.775603999999999871e+01 -2.574099328405916043e-01
5.936099999999999710e+01 -8.164999999999999147e+00 1.892800000000000011e+02 -1.178766999999999898e+00 -2.595315180471370886e-01
5.936099999999999710e+01 -7.937999999999999723e+00 1.900800000000000125e+02 -1.723177000000000092e+01 -2.607841449304236781e-01
5.936099999999999710e+01 -6.644999999999999574e+00 1.908000000000000114e+02 -1.799780000000000157e+01 -2.627077222938816181e-01
5.937100000000000222e+01 2.544099999999999806e+00 1.752500000000000000e+02 7.311360999999999777e+00 -1.831407890108435743e-01
5.937199999999999989e+01 1.261700000000000088e+01 1.734600000000000080e+02 1.195007999999999981e+01 -1.567123503249963912e-01
5.937500000000000000e+01 -1.426699999999999946e+01 1.688700000000000045e+02 1.880611000000000033e+00 -1.896050538641820271e-01
5.937500000000000000e+01 -1.426699999999999946e+01 1.699199999999999875e+02 4.049729000000000134e+00 -1.894954020600313482e-01
5.937500000000000000e+01 1.176700000000000079e+00 1.743300000000000125e+02 6.573229000000000433e+00 -1.841006284693247341e-01
5.939500000000000313e+01 5.379800000000000360e+00 1.774399999999999977e+02 1.393947000000000003e+01 -2.003090455928021874e-01
5.939900000000000091e+01 1.248199999999999932e+01 1.706699999999999875e+02 2.029653000000000063e+01 -2.753704948322090451e-01
5.941599999999999682e+01 -3.042699999999999960e+00 1.919000000000000057e+02 -9.582425999999999888e+00 -2.660720028603195120e-01
5.941700000000000159e+01 9.128099999999999881e+00 1.873300000000000125e+02 -2.940761999999999876e+00 -5.311807797814321885e-02
5.941799999999999926e+01 -1.152800000000000047e+01 1.845099999999999909e+02 2.527955000000000063e-01 -1.525383734007028369e-01
5.942000000000000171e+01 5.475200000000000067e+00 1.827500000000000000e+02 3.568885000000000218e+01 -1.555223346196211998e-01
5.943999999999999773e+01 -9.041200000000000625e-02 1.836399999999999864e+02 2.699158999999999864e+01 -1.536824208205816722e-01
5.943999999999999773e+01 -3.330900000000000194e+00 1.799099999999999966e+02 2.243763999999999825e+01 -2.402829285559693329e-01
5.944200000000000017e+01 -1.392999999999999972e+01 1.727100000000000080e+02 3.220451000000000175e+00 -1.864711146515277140e-01
5.945100000000000051e+01 5.384199999999999875e+00 1.837700000000000102e+02 1.475112999999999985e+01 -1.541820973156191876e-01
5.945900000000000318e+01 3.489599999999999813e+00 1.818499999999999943e+02 1.819087000000000032e+01 -2.604115881500056462e-01
5.946500000000000341e+01 -1.357799999999999896e+00 1.936800000000000068e+02 1.127058000000000071e+01 -2.681646856039975324e-01
5.946699999999999875e+01 6.615199999999999747e+00 1.897299999999999898e+02 -1.326295000000000002e+01 -1.668614798752259543e-01
5.947399999999999665e+01 -1.369100000000000072e+01 1.769799999999999898e+02 -1.179737000000000036e+00 -1.481689406965948363e-01
5.947500000000000142e+01 8.580999999999999517e+00 1.766500000000000057e+02 3.982475999999999794e-01 -1.614034791211175768e-01
5.948299999999999699e+01 1.082600000000000051e+01 1.705699999999999932e+02 9.967311000000000476e+00 -2.758884514605945970e-01
5.948499999999999943e+01 4.460099999999999731e+00 1.819099999999999966e+02 1.856099000000000032e+01 -1.528424072167403891e-01
5.948599999999999710e+01 2.913699999999999957e+00 1.760699999999999932e+02 7.957008000000000081e+00 -1.972234354100794174e-01
5.949000000000000199e+01 -1.133999999999999986e+01 1.806999999999999886e+02 3.948135999999999868e+00 -1.400630336856971692e-01
5.949399999999999977e+01 -1.394500000000000028e+01 1.764300000000000068e+02 6.136034999999999684e+00 -1.490650077506853188e-01
5.949399999999999977e+01 -8.032999999999999474e+00 1.854399999999999977e+02 9.027790999999999455e-01 -1.503054276858192539e-01
5.949499999999999744e+01 -2.680299999999999905e+00 1.926399999999999864e+02 1.105205999999999911e+00 -2.669479452920687224e-01
5.949699999999999989e+01 8.878000000000000114e+00 1.879199999999999875e+02 -3.528252000000000166e+00 -1.595611524994776098e-01
5.950099999999999767e+01 9.719200000000000728e+00 1.818300000000000125e+02 -8.741906000000000398e-01 -5.267492461133791576e-02
5.950800000000000267e+01 -2.115000000000000213e+00 1.815500000000000114e+02 3.384358000000000288e+01 -2.507016020752954044e-01
5.951800000000000068e+01 -1.523900000000000077e+01 1.746299999999999955e+02 2.317823000000000189e+00 -1.516413763222632938e-01
5.952000000000000313e+01 4.323299999999999921e-01 1.845699999999999932e+02 1.084163000000000032e+01 -1.539604390198352213e-01
5.952100000000000080e+01 4.135799999999999699e+00 1.772800000000000011e+02 4.935269000000000261e+01 -1.988128506587946986e-01
5.953399999999999892e+01 2.238900000000000057e-01 1.784499999999999886e+02 4.959808999999999912e+01 -2.842428699792546865e-01
5.953499999999999659e+01 -1.377800000000000047e+01 1.708300000000000125e+02 3.327627999999999808e+00 -1.887037268313395688e-01
5.953799999999999670e+01 3.699300000000000033e+00 1.872599999999999909e+02 9.983463999999999672e+00 -1.618010515597833043e-01
5.954999999999999716e+01 7.390200000000000102e-01 1.854199999999999875e+02 7.802533000000000385e+00 -1.541708251931211970e-01
5.956499999999999773e+01 3.767999999999999794e+00 1.881599999999999966e+02 6.123160999999999632e+00 -1.618279015508575780e-01
5.956499999999999773e+01 3.995000000000000107e+00 1.889600000000000080e+02 7.786929000000000212e-01 -1.622348780006061253e-01
5.956499999999999773e+01 5.288000000000000256e+00 1.896800000000000068e+02 -1.371157999999999966e+01 -1.646197969607195999e-01
5.956600000000000250e+01 1.216300000000000026e+01 1.738000000000000114e+02 2.900173000000000112e+00 -1.572306667733014973e-01
5.957099999999999795e+01 -1.521100000000000030e+01 1.737700000000000102e+02 2.466420999999999975e+00 -1.845755000103612153e-01
5.958800000000000097e+01 -9.528000000000000469e+00 1.687500000000000000e+02 -9.718415000000000248e-01 -1.892591471667593173e-01
5.958800000000000097e+01 -3.448799999999999866e+00 1.786599999999999966e+02 1.537945999999999991e+01 -2.427793989933684227e-01
5.958800000000000097e+01 -3.239700000000000024e+00 1.779300000000000068e+02 7.296611000000000402e+00 -2.441176971244121696e-01
5.958800000000000097e+01 -2.048799999999999955e+00 1.772599999999999909e+02 8.763199999999999434e+00 -2.450505711944580278e-01
5.958800000000000097e+01 -5.338800000000000212e-01 1.778400000000000034e+02 3.287295000000000300e+01 -2.437747712653597909e-01
5.959100000000000108e+01 -6.420400000000000551e-01 1.730099999999999909e+02 8.467605000000000715e+00 -1.854118101265629370e-01
5.959400000000000119e+01 -1.347400000000000020e+01 1.715300000000000011e+02 3.759733000000000214e+00 -1.879304095723258461e-01
5.959700000000000131e+01 -1.025600000000000023e+01 1.688799999999999955e+02 -1.635747000000000062e+00 -1.893289093747531349e-01
5.960300000000000153e+01 -4.549900000000000055e+00 1.687100000000000080e+02 1.202117000000000047e-01 -1.881696720941238299e-01
5.960499999999999687e+01 1.555099999999999927e+00 1.793799999999999955e+02 5.075059000000000253e+01 -2.565527514064503967e-01
5.960900000000000176e+01 9.435499999999999332e+00 1.835099999999999909e+02 5.200427999999999606e+00 -5.278683757737906435e-02
5.960900000000000176e+01 9.644600000000000506e+00 1.827800000000000011e+02 3.970247000000000082e-01 -5.274022117478125576e-02
5.961500000000000199e+01 -3.209999999999999964e+00 1.677500000000000000e+02 6.266144000000000158e-01 -1.879260212593500401e-01
5.961500000000000199e+01 -1.510000000000000009e+00 1.677500000000000000e+02 3.680222000000000215e-01 -1.873796776554741972e-01
5.962400000000000233e+01 7.741999999999999993e+00 1.889300000000000068e+02 -2.785954999999999959e-01 -1.570628488015702873e-01
5.963900000000000290e+01 -7.609900000000000553e-01 1.824499999999999886e+02 4.152376000000000289e+01 -1.537178014147662086e-01
5.965400000000000347e+01 -1.094400000000000084e+01 1.814399999999999977e+02 9.632141000000000730e+00 -1.535808974979487596e-01
5.967000000000000171e+01 9.038199999999999790e+00 1.775699999999999932e+02 -2.122602999999999795e+00 -1.618283992730011611e-01
5.967399999999999949e+01 6.864899999999999558e+00 1.891800000000000068e+02 -1.245257999999999932e+01 -1.540221816268417254e-01
5.967499999999999716e+01 -1.370899999999999963e+01 1.779199999999999875e+02 -1.184334999999999916e+01 -1.464971320546568923e-01
5.968099999999999739e+01 5.097599999999999909e+00 1.842500000000000000e+02 1.594055000000000000e+01 -1.524371124172222980e-01
5.968399999999999750e+01 4.486200000000000188e+00 1.855900000000000034e+02 1.194321000000000055e+01 -1.636593578557710982e-01
5.968399999999999750e+01 4.695299999999999585e+00 1.848499999999999943e+02 1.318314999999999948e+01 -1.504143186907661023e-01
5.970000000000000284e+01 -1.374200000000000088e+01 1.680200000000000102e+02 1.246505999999999892e+00 -1.895380991649495694e-01
5.970000000000000284e+01 -1.204199999999999982e+01 1.680200000000000102e+02 4.785777999999999643e+00 -1.894992367332289374e-01
5.970600000000000307e+01 -1.076200000000000045e+01 1.845500000000000114e+02 3.749702999999999786e-01 -1.522188019767560518e-01
5.970900000000000318e+01 9.510300000000000864e+00 1.854000000000000057e+02 1.551185000000000080e+01 -5.296522705374569207e-02
5.970900000000000318e+01 9.510300000000000864e+00 1.864499999999999886e+02 1.336115999999999993e+01 -5.309752633858567938e-02
5.971200000000000330e+01 -1.124699999999999989e+01 1.838400000000000034e+02 1.796686000000000005e+00 -1.527594149049758820e-01
5.971399999999999864e+01 -9.551999999999999602e+00 1.848100000000000023e+02 1.514956000000000080e-01 -1.514104178845579463e-01
5.971500000000000341e+01 2.550300000000000011e+00 1.817599999999999909e+02 1.887777000000000172e+01 -2.579237892945074329e-01
5.971600000000000108e+01 7.581999999999999851e+00 1.765999999999999943e+02 5.216477999999999948e-01 -9.439258452964416346e-02
5.972099999999999653e+01 2.230399999999999938e+00 1.809499999999999886e+02 2.532236999999999938e+01 -2.574671892698326969e-01
5.972200000000000131e+01 5.391299999999999981e-01 1.909900000000000091e+02 2.964336000000000126e+01 -1.560986666288317060e-01
5.972399999999999665e+01 1.300699999999999967e+01 1.715200000000000102e+02 8.761468000000000700e+00 -1.557057525771918249e-01
5.972500000000000142e+01 -6.989399999999999835e+00 1.690000000000000000e+02 -4.735515000000000363e+00 -1.887057891115003216e-01
5.972599999999999909e+01 3.865500000000000047e-01 1.861800000000000068e+02 2.304715999999999987e+00 -1.540039153056113608e-01
5.972699999999999676e+01 4.339999999999999969e-01 1.935500000000000114e+02 2.127381000000000029e+02 -2.555978046576499740e-01
5.973299999999999699e+01 9.315200000000000813e+00 1.845999999999999943e+02 5.199251000000000289e+00 -5.286892004296519371e-02
5.973700000000000188e+01 1.056000000000000050e+01 1.740300000000000011e+02 -1.199762999999999913e+01 -1.583519261955794732e-01
5.973799999999999955e+01 -4.583000000000000185e+00 1.907299999999999898e+02 -9.143136999999999404e+00 -2.637516974348727006e-01
5.973799999999999955e+01 -3.392100000000000115e+00 1.914000000000000057e+02 -2.497496999999999900e+01 -2.651379079986697085e-01
5.974300000000000210e+01 -1.335800000000000054e+01 1.786800000000000068e+02 -5.176646999999999998e+00 -1.450143122685546015e-01
5.974300000000000210e+01 -1.213299999999999912e+01 1.795300000000000011e+02 -2.328913000000000011e+01 -1.428945485018045525e-01
5.975300000000000011e+01 3.346299999999999830e+00 1.767700000000000102e+02 9.701332000000000733e+00 -1.977774025998881857e-01
5.975500000000000256e+01 -1.471100000000000030e+01 1.754099999999999966e+02 7.673600000000000421e+00 -1.504279935382171474e-01
5.976800000000000068e+01 1.041099999999999959e+01 1.708499999999999943e+02 -6.039210999999999885e-01 -1.981466578918739119e-01
5.976899999999999835e+01 -8.285999999999999588e+00 1.682700000000000102e+02 -5.734637000000000207e+00 -1.890410689825943180e-01
5.976899999999999835e+01 6.106700000000000017e+00 1.774300000000000068e+02 2.721530000000000005e+00 -9.388347777819169848e-02
5.977000000000000313e+01 -1.120299999999999940e+01 1.822100000000000080e+02 4.212494000000000405e+00 -1.534161824630383975e-01
5.977499999999999858e+01 -2.547600000000000087e+00 1.808499999999999943e+02 3.018466000000000093e+01 -2.506785575260909726e-01
5.978300000000000125e+01 -1.161599999999999966e+01 1.829900000000000091e+02 2.281651999999999791e+00 -1.533545938799670272e-01
5.978499999999999659e+01 3.980000000000000204e-01 1.743000000000000114e+02 1.884124999999999872e+01 -1.843811555438925609e-01
5.978799999999999670e+01 1.312599999999999945e+01 1.725200000000000102e+02 6.779651000000000316e+00 -1.561237510860739308e-01
5.980299999999999727e+01 -1.098500000000000032e+00 1.722500000000000000e+02 4.056926999999999950e+00 -1.858635066060408125e-01
5.981300000000000239e+01 -1.440799999999999947e+01 1.761100000000000136e+02 6.132417000000000229e+00 -1.493876036929693008e-01
5.982000000000000028e+01 -2.154999999999999805e+00 1.934900000000000091e+02 3.518898000000000081e+00 -2.675995047490652423e-01
5.983100000000000307e+01 -7.405000000000000249e+00 1.905099999999999909e+02 -2.727045999999999992e+01 -2.617176021754942239e-01
5.983299999999999841e+01 -5.413199999999999790e+00 1.688799999999999955e+02 -7.031277999999999695e-01 -1.882891410163946289e-01
5.984899999999999665e+01 -1.485899999999999999e+01 1.726599999999999966e+02 2.341844000000000037e+00 -1.858790129369963517e-01
5.985000000000000142e+01 -1.461800000000000033e+01 1.765699999999999932e+02 6.017689999999999984e+00 -1.487434613769594294e-01
5.985300000000000153e+01 2.951999999999999957e+00 1.824900000000000091e+02 2.232077999999999918e+01 -2.585568837712354240e-01
5.985300000000000153e+01 3.910000000000000142e+00 1.824900000000000091e+02 3.052481999999999829e+01 -1.500765638652139522e-01
5.985300000000000153e+01 4.775199999999999889e+00 1.824900000000000091e+02 2.889620999999999995e+01 -1.529003534817946763e-01
5.986099999999999710e+01 -2.421399999999999941e-01 1.892599999999999909e+02 -1.638313000000000130e+01 -1.544988780998847733e-01
5.986099999999999710e+01 -1.310000000000000053e-01 1.884600000000000080e+02 -4.150871999999999673e+01 -1.542122360235389511e-01
5.986099999999999710e+01 -3.305099999999999705e-02 1.899900000000000091e+02 7.100020999999999693e-01 -1.550787352967041288e-01
5.989099999999999824e+01 -1.124300000000000077e+00 1.714699999999999989e+02 4.591929999999999623e+00 -1.861461641657088661e-01
5.989200000000000301e+01 -5.886099999999999888e+00 1.906100000000000136e+02 -1.087010000000000076e+01 -2.628026991841879156e-01
5.989600000000000080e+01 1.947999999999999954e+00 1.747700000000000102e+02 8.595471999999999113e+00 -1.835894457844954863e-01
5.990899999999999892e+01 -1.431499999999999950e+01 1.772700000000000102e+02 2.396020000000000039e+00 -1.475896597236856234e-01
5.990999999999999659e+01 -1.466000000000000014e+01 1.707599999999999909e+02 1.538586000000000009e+00 -1.880888335420728141e-01
5.991100000000000136e+01 5.078599999999999781e+00 1.831899999999999977e+02 2.839386999999999972e+01 -1.531560875213462680e-01
5.991400000000000148e+01 1.148000000000000043e+01 1.707100000000000080e+02 4.317642000000000202e+00 -2.758530280265290568e-01
5.992699999999999960e+01 -7.542099999999999582e+00 1.858400000000000034e+02 4.018241999999999869e+00 -1.506764489264255102e-01
5.992699999999999960e+01 -7.333000000000000185e+00 1.865800000000000125e+02 1.333797000000000033e+01 -1.506104867169358319e-01
5.992900000000000205e+01 -1.551099999999999923e+01 1.752599999999999909e+02 3.727716000000000030e+00 -1.505868402972213860e-01
5.993500000000000227e+01 -1.005799999999999983e+01 1.845099999999999909e+02 -3.264174000000000242e-01 -1.520027345046726652e-01
5.995499999999999829e+01 4.554000000000000270e+00 1.777899999999999920e+02 1.033081999999999923e+01 -1.985111164195245970e-01
5.996800000000000352e+01 -1.435699999999999932e+01 1.714600000000000080e+02 2.566473999999999922e+00 -1.873449569122053737e-01
5.997399999999999665e+01 9.749299999999999855e+00 1.793600000000000136e+02 2.312879999999999825e+01 -1.627180174098696308e-01
5.997800000000000153e+01 8.323399999999999466e+00 1.883700000000000045e+02 7.289716999999999558e+00 -1.587370780272776005e-01
5.999300000000000210e+01 -4.607499999999999790e-02 1.868799999999999955e+02 -5.123269999999999769e+00 -1.539118746892838285e-01
5.999300000000000210e+01 -4.607499999999999790e-02 1.877400000000000091e+02 -1.857188000000000017e+01 -1.541146187037338300e-01
5.999900000000000233e+01 9.807999999999999829e+00 1.724399999999999977e+02 -1.893299999999999983e+00 -1.989066365403387437e-01
5.999900000000000233e+01 1.132799999999999940e+01 1.739600000000000080e+02 -2.989645000000000152e+01 -1.579333689897649828e-01
5.999900000000000233e+01 1.262100000000000044e+01 1.732400000000000091e+02 -4.784621999999999709e+00 -1.568220752279202435e-01
6.000600000000000023e+01 -1.599900000000000055e+01 1.743199999999999932e+02 2.854732999999999965e+00 -1.516744038205317391e-01
6.001500000000000057e+01 1.012999999999999901e+00 1.917500000000000000e+02 5.211854999999999905e+01 -1.570531957499684550e-01
6.001500000000000057e+01 9.891999999999999460e+00 1.804099999999999966e+02 7.389859999999999651e+00 -5.262436668195656642e-02
6.001700000000000301e+01 -8.852000000000000313e+00 1.848700000000000045e+02 9.398175999999999752e-02 -1.513896638404304551e-01
6.002000000000000313e+01 1.134700000000000042e+00 1.859799999999999898e+02 9.509961999999999804e+00 -1.547698349556923259e-01
6.002100000000000080e+01 -2.748800000000000132e+00 1.775300000000000011e+02 1.205518000000000089e+00 -2.444967905904791294e-01
6.002300000000000324e+01 9.939500000000000668e+00 1.716100000000000136e+02 -1.910754999999999981e+00 -1.986777624807438136e-01
6.002300000000000324e+01 9.129800000000000137e-01 1.927800000000000011e+02 5.631530999999999665e+01 -2.548660805513114358e-01
6.002300000000000324e+01 -2.839700000000000113e+00 1.800699999999999932e+02 2.455828999999999951e+01 -2.506169924270752469e-01
6.002600000000000335e+01 8.961000000000000298e+00 1.783499999999999943e+02 -1.172738999999999976e+01 -1.624523615486439809e-01
6.003199999999999648e+01 -7.468099999999999739e+00 1.682599999999999909e+02 -2.379379000000000133e+00 -1.887768618312174185e-01
6.003499999999999659e+01 4.527999999999999581e+00 1.893899999999999864e+02 -3.110063999999999940e+00 -1.631516179140333755e-01
6.003799999999999670e+01 2.045999999999999819e+00 1.797700000000000102e+02 2.964236999999999966e+01 -2.574008101946988480e-01
6.003799999999999670e+01 2.255100000000000104e+00 1.805099999999999909e+02 2.760452000000000083e+01 -2.575835154647105885e-01
6.004699999999999704e+01 9.959799999999999542e+00 1.733100000000000023e+02 -1.075141999999999953e+01 -1.583282530365508756e-01
6.004999999999999716e+01 -1.287400000000000100e+00 1.820000000000000000e+02 4.162295000000000300e+01 -1.538254732614390552e-01
6.005400000000000205e+01 1.016600000000000037e+01 1.813199999999999932e+02 -5.231537999999999577e+00 -6.693308461617138161e-02
6.005599999999999739e+01 -1.291299999999999892e+00 1.775500000000000114e+02 1.685791000000000039e+01 -2.441704050066836051e-01
6.005899999999999750e+01 8.199999999999999512e-01 1.789399999999999977e+02 5.512091999999999814e+01 -2.837106527792521704e-01
6.006199999999999761e+01 -6.276500000000000412e+00 1.690399999999999920e+02 -1.686998999999999915e+00 -1.883870888458326898e-01
6.007500000000000284e+01 -3.076599999999999890e-01 1.937199999999999989e+02 7.540838999999999714e+01 -2.677056777997168235e-01
6.008200000000000074e+01 -1.113599999999999923e+01 1.802299999999999898e+02 3.787171999999999983e+00 -1.409678436790254563e-01
6.008400000000000318e+01 9.264400000000000190e+00 1.790500000000000114e+02 -8.586464999999999792e-01 -1.627862395369933934e-01
6.009100000000000108e+01 1.005599999999999916e+01 1.822700000000000102e+02 -8.419219000000000008e+00 -5.273948657941955609e-02
6.009199999999999875e+01 -4.297200000000000325e-02 1.782400000000000091e+02 3.597829000000000121e+01 -2.428562550493562622e-01
6.009400000000000119e+01 -7.562000000000000277e+00 1.872899999999999920e+02 3.086936000000000124e+00 -1.509718076822166855e-01
6.009799999999999898e+01 -9.045999999999999375e+00 1.683400000000000034e+02 -1.261624999999999996e+00 -1.890087667509013636e-01
6.010000000000000142e+01 -1.123099999999999987e+00 1.706899999999999977e+02 5.856794999999999973e+00 -1.863561355142106524e-01
6.010099999999999909e+01 6.105900000000000105e+00 1.894699999999999989e+02 -4.174463000000000079e+01 -1.657871666774286545e-01
6.010999999999999943e+01 -1.003899999999999970e+01 1.685399999999999920e+02 -1.058529000000000053e+00 -1.891114546182547373e-01
6.011599999999999966e+01 3.995299999999999851e+00 1.859900000000000091e+02 1.115600000000000058e+01 -1.625583199111309551e-01
6.012100000000000222e+01 -1.529199999999999982e+01 1.762899999999999920e+02 2.284241000000000188e+00 -1.490944079710596615e-01
6.012100000000000222e+01 -7.874699999999999811e+00 1.888100000000000023e+02 -1.181150000000000055e+01 -2.593300892576241301e-01
6.012100000000000222e+01 -7.874699999999999811e+00 1.897500000000000000e+02 -1.548845999999999989e+01 -2.604563042358603031e-01
6.012800000000000011e+01 -1.083300000000000018e+01 1.829900000000000091e+02 1.513335000000000008e+01 -1.531205245926712255e-01
6.014000000000000057e+01 -2.359999999999999876e+00 1.674300000000000068e+02 4.686101999999999768e-01 -1.875413159232566240e-01
6.014000000000000057e+01 -9.138899999999999801e-01 1.682299999999999898e+02 -1.011741000000000029e-01 -1.869302061785754199e-01
6.014000000000000057e+01 -9.138899999999999801e-01 1.700200000000000102e+02 1.455905999999999922e+00 -1.864758315358578666e-01
6.014000000000000057e+01 -6.600000000000000311e-01 1.691299999999999955e+02 1.624721000000000082e+00 -1.866318721821688398e-01
6.014500000000000313e+01 -1.054700000000000060e+01 1.810099999999999909e+02 2.186431999999999931e+01 -1.538980752350256331e-01
6.014500000000000313e+01 -1.054700000000000060e+01 1.841100000000000136e+02 2.329082000000000097e+00 -1.525913888520687156e-01
6.015299999999999869e+01 2.670799999999999841e+00 1.761699999999999875e+02 1.774636999999999887e+01 -2.876586443241719304e-01
6.015999999999999659e+01 -1.141600000000000037e+01 1.683799999999999955e+02 -3.362537000000000109e+00 -1.892348074228542842e-01
6.015999999999999659e+01 -6.644999999999999574e+00 1.905699999999999932e+02 -1.467420000000000080e+01 -2.622316076190397416e-01
6.016199999999999903e+01 -3.981799999999999784e+00 1.681699999999999875e+02 4.190421999999999758e-01 -1.878872195177104798e-01
6.016799999999999926e+01 -1.469500000000000028e+01 1.693400000000000034e+02 1.358411000000000035e+00 -1.891774339997226995e-01
6.017099999999999937e+01 -3.883000000000000007e+00 1.910000000000000000e+02 -1.114575999999999922e+01 -2.642352721938150961e-01
6.017799999999999727e+01 9.077500000000000568e+00 1.870099999999999909e+02 2.330710999999999977e+00 -5.309385905429335473e-02
6.019299999999999784e+01 4.337500000000000355e+00 1.830800000000000125e+02 4.430158999999999736e+01 -1.505304733100046310e-01
6.019500000000000028e+01 -5.186099999999999710e+00 1.906699999999999875e+02 1.607625000000000026e-01 -2.631906039312462697e-01
6.021300000000000097e+01 -1.282499999999999929e+01 1.791100000000000136e+02 -3.002571999999999974e+01 -1.438551532872761607e-01
6.021800000000000352e+01 -9.291099999999999359e-02 1.739000000000000057e+02 4.541264000000000323e+01 -1.847067636539800051e-01
6.021999999999999886e+01 3.740399999999999836e-01 1.848700000000000045e+02 1.712291000000000096e+01 -1.542958430312784679e-01
6.022099999999999653e+01 2.473300000000000054e+00 1.756200000000000045e+02 1.525930999999999926e+01 -2.881388496704281321e-01
6.022399999999999665e+01 -1.562299999999999933e+01 1.730000000000000000e+02 1.946784000000000070e+00 -1.849288449288198910e-01
6.022500000000000142e+01 -1.433799999999999919e+01 1.685000000000000000e+02 1.565074999999999994e+00 -1.892910570312748841e-01
6.022500000000000142e+01 -1.289199999999999946e+01 1.676899999999999977e+02 3.083082999999999796e+00 -1.893347801768796301e-01
6.022599999999999909e+01 8.138199999999999434e+00 1.772299999999999898e+02 6.032030000000000447e-01 -1.620760314675814551e-01
6.023599999999999710e+01 5.701100000000000279e+00 1.779600000000000080e+02 3.453732000000000024e+00 -1.588435231962129213e-01
6.023799999999999955e+01 -1.604700000000000060e+01 1.751100000000000136e+02 4.737604000000000148e+00 -1.506161345674160434e-01
6.024000000000000199e+01 -2.267399999999999971e-01 1.838400000000000034e+02 2.332195000000000107e+01 -1.540225698139966182e-01
6.025099999999999767e+01 4.640900000000000247e+00 1.837800000000000011e+02 2.120319999999999894e+01 -1.507877278496789208e-01
6.025200000000000244e+01 2.564799999999999858e-01 1.903799999999999955e+02 1.413494000000000028e+01 -1.557293778172172682e-01
6.025600000000000023e+01 4.563600000000000101e+00 1.846500000000000057e+02 1.480241000000000007e+01 -1.638966031281065827e-01
6.025900000000000034e+01 3.854000000000000092e+00 1.777299999999999898e+02 8.945047999999999888e+00 -1.971196999764489310e-01
6.026200000000000045e+01 8.744300000000000850e+00 1.874799999999999898e+02 1.685268999999999906e+01 -1.601695786533479660e-01
6.026299999999999812e+01 -7.508700000000000152e+00 1.881800000000000068e+02 7.752050999999999803e-01 -2.588708622711518581e-01
6.026500000000000057e+01 1.098000000000000087e+00 1.746999999999999886e+02 1.234924999999999962e+01 -1.839065552631747313e-01
6.028399999999999892e+01 2.098700000000000010e+00 1.822199999999999989e+02 2.191309000000000040e+01 -2.563691684561623663e-01
6.028799999999999670e+01 -3.108400000000000052e+00 1.922100000000000080e+02 6.679241000000000206e-01 -2.657873057523419957e-01
6.028799999999999670e+01 -3.181400000000000006e+00 1.782299999999999898e+02 7.483896999999999800e+00 -2.432467520378112924e-01
6.029099999999999682e+01 -1.507199999999999918e+01 1.773100000000000023e+02 4.860229999999999606e+00 -1.475206054714021109e-01
6.029099999999999682e+01 -1.386400000000000077e+01 1.782800000000000011e+02 -1.548685000000000089e+00 -1.456510574919662182e-01
6.029200000000000159e+01 3.431000000000000050e+00 1.830300000000000011e+02 1.112409999999999997e+02 -1.624614546908194346e-01
6.029699999999999704e+01 -1.574300000000000033e+01 1.758100000000000023e+02 3.506486999999999910e+00 -1.496865609488460536e-01
6.029800000000000182e+01 6.934400000000000119e+00 1.773799999999999955e+02 -3.489129999999999732e-01 -9.436465977973551578e-02
6.030299999999999727e+01 -1.048700000000000010e+01 1.821999999999999886e+02 1.470223999999999975e+01 -1.533938259683629846e-01
6.030499999999999972e+01 9.028700000000000614e+00 1.859300000000000068e+02 1.029316000000000031e+01 -5.297619120359352285e-02
6.030599999999999739e+01 7.368999999999999773e+00 1.884000000000000057e+02 6.352507000000000126e+00 -1.554621326228715350e-01
6.032200000000000273e+01 -1.699699999999999989e+00 1.810999999999999943e+02 4.365290999999999855e+01 -2.507426886888283746e-01
6.032399999999999807e+01 -2.048799999999999955e+00 1.774699999999999989e+02 1.879750999999999950e+00 -2.443107255130892719e-01
6.032500000000000284e+01 4.058300000000000018e+00 1.886299999999999955e+02 1.280142000000000024e+01 -1.622832322552759943e-01
6.034199999999999875e+01 8.743999999999999773e+00 1.851200000000000045e+02 2.295120999999999967e+00 -5.291355883404433996e-02
6.034499999999999886e+01 -2.751100000000000101e+00 1.930099999999999909e+02 3.368946999999999914e+00 -2.666204645210606961e-01
6.034499999999999886e+01 -1.304999999999999938e+00 1.938100000000000023e+02 1.503040999999999983e+01 -2.675191367067614179e-01
6.034899999999999665e+01 -1.156900000000000084e+01 1.795300000000000011e+02 -2.044369000000000014e+01 -1.425319658045191562e-01
6.035399999999999920e+01 -1.698300000000000054e+01 1.766299999999999955e+02 6.486383000000000010e+00 -1.488724656908150812e-01
6.035799999999999699e+01 -6.774900000000000366e-01 1.727400000000000091e+02 8.770517999999999148e+00 -1.853957596417883658e-01
6.035799999999999699e+01 -3.491900000000000004e-01 1.734799999999999898e+02 3.215241000000000327e+01 -1.849676655497121958e-01
6.035999999999999943e+01 -8.032999999999999474e+00 1.854399999999999977e+02 1.094070000000000098e+00 -1.513868652258146263e-01
6.036099999999999710e+01 -7.837800000000000322e-01 1.828100000000000023e+02 3.589927999999999741e+01 -1.540063479104419042e-01
6.036200000000000188e+01 -3.146399999999999864e+00 1.792299999999999898e+02 1.125677999999999912e+01 -2.414258512897416720e-01
6.036299999999999955e+01 -1.680199999999999960e+01 1.743199999999999932e+02 5.102933000000000163e+00 -1.514799936060164942e-01
6.036399999999999721e+01 5.288000000000000256e+00 1.894600000000000080e+02 -1.813889999999999958e+01 -1.643819032442021544e-01
6.036800000000000210e+01 3.212200000000000166e+00 1.861800000000000068e+02 8.817356999999999445e+00 -1.610287149278847585e-01
6.038199999999999790e+01 9.685100000000000264e+00 1.830900000000000034e+02 -1.888289999999999935e+01 -5.279135928856504290e-02
6.038400000000000034e+01 4.427999999999999936e+00 1.852899999999999920e+02 1.239484999999999992e+01 -1.634616402444110661e-01
6.038400000000000034e+01 3.045300000000000118e+00 1.770399999999999920e+02 1.352952999999999939e+01 -1.964095085427908782e-01
6.039699999999999847e+01 8.783699999999999619e+00 1.864600000000000080e+02 -2.906464000000000159e+00 -5.301318156110531449e-02
6.040200000000000102e+01 1.485999999999999988e+00 1.863799999999999955e+02 7.697687000000000168e+00 -1.552744157302366201e-01
6.041899999999999693e+01 -8.991099999999999648e-01 1.717700000000000102e+02 7.074052000000000007e+00 -1.858329694511332841e-01
6.042199999999999704e+01 -1.515799999999999947e+01 1.712800000000000011e+02 1.153774999999999995e+00 -1.868773918489455288e-01
6.042600000000000193e+01 6.539199999999999458e-01 1.866100000000000136e+02 6.860983000000000054e+00 -1.546885844665718546e-01
6.042900000000000205e+01 3.563099999999999934e+00 1.878300000000000125e+02 6.161102999999999774e+00 -1.614224678282318859e-01
6.042900000000000205e+01 -1.617699999999999960e+01 1.764600000000000080e+02 2.061881000000000075e+00 -1.488666900606185617e-01
6.043399999999999750e+01 -1.643299999999999983e+01 1.734699999999999989e+02 1.343965999999999994e+00 -1.522764802662576744e-01
6.043399999999999750e+01 -8.612299999999999400e+00 1.677500000000000000e+02 -5.801779000000000241e-01 -1.888633385843964951e-01
6.043399999999999750e+01 -7.959699999999999775e+00 1.677500000000000000e+02 -1.298262999999999945e+00 -1.887574895884975568e-01
6.043399999999999750e+01 -1.540300000000000047e+01 1.721299999999999955e+02 2.518289999999999917e+00 -1.858466018163134614e-01
6.045600000000000307e+01 -2.139699999999999935e+00 1.803400000000000034e+02 3.206542999999999921e+01 -2.506664766947661049e-01
6.045900000000000318e+01 -6.709100000000000286e+00 1.685500000000000114e+02 -6.360514000000000223e+00 -1.884022839340916133e-01
6.045900000000000318e+01 -5.843899999999999650e+00 1.685500000000000114e+02 -2.863936000000000259e-01 -1.882038317331586608e-01
6.046000000000000085e+01 2.654599999999999849e+00 1.870800000000000125e+02 5.804199999999999804e+00 -1.562849369745294426e-01
6.046300000000000097e+01 -1.071599999999999930e+01 1.684399999999999977e+02 -2.162074000000000051e+00 -1.890422107989113143e-01
6.046600000000000108e+01 1.215700000000000003e+01 1.711100000000000136e+02 -1.096611000000000002e+00 -2.759623095557152683e-01
6.046900000000000119e+01 1.056799999999999962e+01 1.712100000000000080e+02 -2.318922999999999845e+00 -1.981825028907076569e-01
6.046900000000000119e+01 1.056799999999999962e+01 1.736699999999999875e+02 -3.244639000000000095e+01 -1.583024418522123722e-01
6.046900000000000119e+01 1.208799999999999919e+01 1.736699999999999875e+02 -9.915721000000000629e+01 -1.574829105517066841e-01
6.046999999999999886e+01 1.555099999999999927e+00 1.793799999999999955e+02 3.379592999999999847e+01 -2.563019713473261296e-01
6.047399999999999665e+01 -4.583000000000000185e+00 1.909399999999999977e+02 -3.306826000000000043e+00 -2.637168063839586685e-01
6.048400000000000176e+01 3.505199999999999982e-01 1.873100000000000023e+02 3.552287000000000194e+00 -1.546245940123684715e-01
6.050600000000000023e+01 -1.647899999999999920e+01 1.758100000000000023e+02 2.664473000000000091e+00 -1.496800193719324545e-01
6.051700000000000301e+01 4.889499999999999957e+00 1.781200000000000045e+02 4.941383000000000081e+00 -1.981039400766788916e-01
6.051700000000000301e+01 -7.012500000000000178e+00 1.678499999999999943e+02 -1.612519999999999953e+00 -1.885366576085588664e-01
6.051700000000000301e+01 -5.716799999999999660e-01 1.832500000000000000e+02 3.589927999999999741e+01 -1.541043638004835903e-01
6.051700000000000301e+01 8.564399999999999125e+00 1.787800000000000011e+02 -7.540529000000000259e+00 -5.255309149844390737e-02
6.052400000000000091e+01 -5.338800000000000212e-01 1.778400000000000034e+02 2.426823999999999870e+01 -2.434043935111999402e-01
6.052600000000000335e+01 2.392999999999999794e+00 1.863199999999999932e+02 8.236969000000000207e+00 -1.559940992445977004e-01
6.052799999999999869e+01 -8.235500000000000043e+00 1.671399999999999864e+02 -1.179510000000000003e-01 -1.888222882346666520e-01
6.054299999999999926e+01 -9.339000000000000412e+00 1.682700000000000102e+02 -1.352444999999999897e+00 -1.888682937631451231e-01
6.054899999999999949e+01 2.137100000000000111e-01 1.931899999999999977e+02 4.617159000000000191e+01 -2.669760390180481169e-01
6.055199999999999960e+01 -1.337500000000000000e+01 1.784600000000000080e+02 -8.734344999999999359e+00 -1.450812603964589942e-01
6.055299999999999727e+01 -4.827200000000000379e+00 1.682899999999999920e+02 9.124562000000000506e-01 -1.879554666254539819e-01
6.055799999999999983e+01 -1.024300000000000033e+01 1.814099999999999966e+02 2.442136999999999958e+01 -1.538165948119590287e-01
6.056799999999999784e+01 3.980000000000000204e-01 1.746399999999999864e+02 1.884253999999999962e+01 -1.841619070047399997e-01
6.057999999999999829e+01 -1.487899999999999956e+01 1.704699999999999989e+02 1.447778000000000009e+00 -1.876425710973466665e-01
6.059100000000000108e+01 -7.114700000000000024e+00 1.900399999999999920e+02 -4.951139999999999652e+00 -2.612726136792170584e-01
6.060799999999999699e+01 -1.787699999999999889e+01 1.766299999999999955e+02 1.064745000000000053e+00 -1.489376842083298125e-01
6.060799999999999699e+01 -3.518699999999999939e+00 1.917700000000000102e+02 -3.350115000000000176e-01 -2.650027798865456363e-01
6.061999999999999744e+01 9.743399999999999395e+00 1.801999999999999886e+02 -2.401781000000000166e+00 -5.264119670726352673e-02
6.062500000000000000e+01 8.460900000000000531e+00 1.841399999999999864e+02 1.288528999999999947e+01 -5.284837794755424534e-02
6.062800000000000011e+01 2.656000000000000139e+00 1.829600000000000080e+02 2.411460999999999899e+01 -1.611211506812483263e-01
6.062800000000000011e+01 4.619800000000000295e-02 1.785600000000000023e+02 3.087946000000000168e+01 -2.421902996039929368e-01
6.062899999999999778e+01 -2.739199999999999968e-01 1.889300000000000068e+02 -3.550184000000000140e+01 -1.548027140993396555e-01
6.062899999999999778e+01 -6.482599999999999474e-02 1.881999999999999886e+02 -2.592512999999999934e+01 -1.546648625312248837e-01
6.062899999999999778e+01 -6.482599999999999474e-02 1.896699999999999875e+02 -4.297622999999999749e+00 -1.553024306102006591e-01
6.063000000000000256e+01 -8.508599999999999497e+00 1.848300000000000125e+02 -1.457003999999999966e+00 -1.519401779771326066e-01
6.063499999999999801e+01 -9.791000000000000369e+00 1.840800000000000125e+02 -9.573741999999999530e-01 -1.526365356532444484e-01
6.065100000000000335e+01 -6.176000000000000156e+00 1.901399999999999864e+02 3.515447000000000344e+01 -2.619181726349528727e-01
6.065100000000000335e+01 3.478000000000000203e+00 1.777400000000000091e+02 1.040680000000000049e+01 -1.961285991115389871e-01
6.065299999999999869e+01 6.405800000000000161e+00 1.779600000000000080e+02 -1.839834999999999943e-01 -1.600123230410248065e-01
6.065299999999999869e+01 8.649499999999999966e-01 1.852700000000000102e+02 1.273972999999999978e+01 -1.548804228635747293e-01
6.065800000000000125e+01 -1.196199999999999974e+01 1.678899999999999864e+02 1.334913000000000061e+01 -1.891075417134799874e-01
6.066499999999999915e+01 -1.510000000000000009e+00 1.677500000000000000e+02 1.871704999999999897e-01 -1.870695596992789922e-01
6.066899999999999693e+01 -1.489600000000000080e+01 1.695200000000000102e+02 1.502208999999999905e+00 -1.884516858822752883e-01
6.067699999999999960e+01 -7.820999999999999730e+00 1.664399999999999977e+02 1.323569999999999913e+00 -1.887511478509236729e-01
6.067900000000000205e+01 -1.750799999999999912e+01 1.757800000000000011e+02 1.047905000000000086e+00 -1.497886946180583823e-01
6.067900000000000205e+01 -1.750799999999999912e+01 1.774799999999999898e+02 1.334993000000000096e+00 -1.477961583075553531e-01
6.067900000000000205e+01 -1.645799999999999841e+01 1.774799999999999898e+02 1.435750000000000082e+00 -1.474882485070251326e-01
6.067900000000000205e+01 -1.559200000000000053e+01 1.774799999999999898e+02 4.026181999999999678e-02 -1.472342668374950203e-01
6.068699999999999761e+01 -1.609400000000000119e+01 1.726200000000000045e+02 1.142039000000000026e+00 -1.849082910668311264e-01
6.068900000000000006e+01 3.863599999999999923e+00 1.835200000000000102e+02 2.964717999999999876e+01 -1.629663899189164877e-01
6.070100000000000051e+01 -7.527099999999999902e+00 1.670500000000000114e+02 2.363021999999999900e-01 -1.886444582107273393e-01
6.071099999999999852e+01 -7.538199999999999790e+00 1.892800000000000011e+02 -3.585968999999999962e+00 -2.601767075835158538e-01
6.071900000000000119e+01 -3.318900000000000183e+00 1.676599999999999966e+02 7.142714999999999481e-01 -1.875951125470027292e-01
6.072099999999999653e+01 -2.481399999999999828e+00 1.779600000000000080e+02 1.194579999999999975e+00 -2.434186950954689566e-01
6.072299999999999898e+01 8.546899999999999498e-01 1.924699999999999989e+02 3.229757000000000033e+01 -1.576469335300134389e-01
6.072599999999999909e+01 -6.276500000000000412e+00 1.678499999999999943e+02 -1.750172000000000117e-01 -1.883018661473089550e-01
6.073799999999999955e+01 1.987700000000000022e+00 1.800800000000000125e+02 2.402648999999999901e+01 -2.568932570326357134e-01
6.073799999999999955e+01 1.987700000000000022e+00 1.809399999999999977e+02 2.307514000000000109e+01 -2.565303146694113967e-01
6.074300000000000210e+01 8.011000000000000343e-01 1.908600000000000136e+02 1.967733000000000132e+01 -1.565878268808008345e-01
6.074600000000000222e+01 1.623299999999999965e+00 1.753000000000000114e+02 1.265759000000000079e+01 -2.879473868538205972e-01
6.074699999999999989e+01 4.166999999999999815e+00 1.842199999999999989e+02 1.810140000000000171e+01 -1.632419155689479595e-01
6.075000000000000000e+01 -1.374200000000000088e+01 1.680200000000000102e+02 1.835264000000000006e+00 -1.891248889704050251e-01
6.075399999999999778e+01 -6.456999999999999851e+00 1.670999999999999943e+02 5.090543000000000262e+00 -1.884172805937043005e-01
6.075600000000000023e+01 8.622800000000000464e-01 1.919699999999999989e+02 2.286189999999999856e+01 -1.573235935460136070e-01
6.075900000000000034e+01 1.009800000000000075e+01 1.719699999999999989e+02 -3.167870999999999881e+00 -1.986925796530250588e-01
6.075900000000000034e+01 1.009800000000000075e+01 1.729099999999999966e+02 -5.154264000000000401e+00 -1.581869656328599716e-01
6.075900000000000034e+01 1.255799999999999983e+01 1.719699999999999989e+02 -7.494245000000000267e+00 -1.565041780632877022e-01
6.075900000000000034e+01 1.255799999999999983e+01 1.729099999999999966e+02 -1.225928000000000040e+01 -1.569410787868742163e-01
6.075999999999999801e+01 -1.458999999999999986e+01 1.780000000000000000e+02 -3.437227000000000032e+00 -1.461398499830382502e-01
6.077300000000000324e+01 1.861299999999999899e-01 1.841200000000000045e+02 2.937746999999999886e+01 -1.545653540524699887e-01
6.078199999999999648e+01 -4.930299999999999905e+00 1.906399999999999864e+02 3.089965999999999990e+00 -2.631085048641415014e-01
6.078699999999999903e+01 7.894300000000000317e+00 1.878100000000000023e+02 2.943805000000000049e+01 -1.568414930033073251e-01
6.078999999999999915e+01 -1.097799999999999976e+01 1.798600000000000136e+02 2.313776999999999973e+01 -1.416206073484634342e-01
6.079299999999999926e+01 7.709900000000000198e+00 1.776800000000000068e+02 1.237846000000000002e+00 -5.251925345807256784e-02
6.079500000000000171e+01 -2.446400000000000130e+00 1.795000000000000000e+02 1.141112000000000037e+01 -2.407946739558898541e-01
6.079500000000000171e+01 4.818299999999999805e+00 1.889199999999999875e+02 8.548334000000000543e+00 -1.635290120964683624e-01
6.079500000000000171e+01 5.757699999999999818e+00 1.889199999999999875e+02 -1.155400999999999989e+01 -1.650328093073858138e-01
6.079800000000000182e+01 1.132799999999999940e+01 1.711500000000000057e+02 -5.156723000000000390e+00 -2.763052243110385442e-01
6.079800000000000182e+01 1.132799999999999940e+01 1.737400000000000091e+02 -1.427139000000000024e+01 -1.580115387756357848e-01
6.081000000000000227e+01 -8.906399999999999650e+00 1.675699999999999932e+02 -6.832304000000000155e-01 -1.887716657522388319e-01
6.081499999999999773e+01 -6.941200000000000259e+00 1.663899999999999864e+02 3.437088999999999839e+00 -1.885519672628545862e-01
6.081600000000000250e+01 1.058000000000000052e+00 1.870800000000000125e+02 5.319430999999999798e+00 -1.552803647824854971e-01
6.081600000000000250e+01 1.923300000000000010e+00 1.870800000000000125e+02 -4.433736999999999817e+00 -1.558968260462299527e-01
6.081600000000000250e+01 2.862699999999999800e+00 1.855500000000000114e+02 1.307639999999999914e+00 -1.605683924083999292e-01
6.081600000000000250e+01 3.728000000000000203e+00 1.855500000000000114e+02 6.814039000000000179e+00 -1.621156057198536726e-01
6.082000000000000028e+01 4.189499999999999780e+00 1.780600000000000023e+02 2.983823999999999810e+00 -2.620271539946487094e-01
6.082099999999999795e+01 2.946800000000000086e+00 1.875699999999999932e+02 6.640973000000000015e-01 -1.567217363652510798e-01
6.082800000000000296e+01 -1.233899999999999997e+00 1.777800000000000011e+02 6.177514000000000394e+00 -2.434812408802943529e-01
6.082999999999999829e+01 -1.733800000000000097e+01 1.748499999999999943e+02 1.555962000000000067e+00 -1.506800585958525118e-01
6.083299999999999841e+01 8.347400000000000375e+00 1.855500000000000114e+02 -3.029699000000000142e-01 -1.597470630904727906e-01
6.083700000000000330e+01 -1.011700000000000088e+01 1.828199999999999932e+02 -1.377532999999999896e+00 -1.533568920258874535e-01
6.083700000000000330e+01 -1.011700000000000088e+01 1.835500000000000114e+02 -4.399124999999999730e+00 -1.531125037367686847e-01
