8.598000000000000398e+01 6.306899999999999729e+00 2.743299999999999983e+01 1.390419999999999945e+01 -9.535192610434209404e-02
8.598499999999999943e+01 1.120599999999999952e+01 2.741600000000000037e+01 -1.298745000000000083e+01 -9.199782824107444190e-02
8.600199999999999534e+01 1.970599999999999952e+01 2.060800000000000054e+01 1.279379000000000044e+00 -8.698924187277315423e-02
8.600199999999999534e+01 2.118199999999999861e+01 2.128999999999999915e+01 1.825179999999999936e+01 -8.833410429237395500e-02
8.601000000000000512e+01 1.520700000000000074e+01 3.770199999999999818e+01 3.034480999999999895e+01 -1.710884521601174768e-01
8.601900000000000546e+01 1.444400000000000084e+01 2.563899999999999935e+01 4.730506000000000100e+00 -9.146552569763055640e-02
8.603199999999999648e+01 1.946099999999999852e+01 3.379800000000000182e+01 1.723207000000000022e+01 -1.733339931457331118e-01
8.603600000000000136e+01 1.188499999999999979e+01 3.060000000000000142e+01 -5.455710999999999977e+00 -9.331185252753984583e-02
8.603600000000000136e+01 1.335699999999999932e+01 3.060000000000000142e+01 -1.765760999999999914e+00 -9.371806366011541101e-02
8.604000000000000625e+01 2.299500000000000099e+01 2.731899999999999906e+01 2.071070999999999884e+01 -7.678852166511879185e-02
8.604099999999999682e+01 9.298000000000000043e+00 3.471800000000000352e+01 4.113221000000000238e-02 -9.374630601327840762e-02
8.604800000000000182e+01 6.198999999999999844e+00 3.251299999999999812e+01 -2.508371999999999957e+01 -9.292620438660710580e-02
8.605100000000000193e+01 1.595400000000000063e+01 3.666100000000000136e+01 3.008256999999999959e+00 -1.716399745630033391e-01
8.605100000000000193e+01 1.187400000000000055e+01 3.839099999999999824e+01 -6.002532000000000423e+00 -1.717620514204353799e-01
8.605500000000000682e+01 1.713700000000000045e+01 3.585000000000000142e+01 -1.978978000000000037e+01 -1.718569914752341998e-01
8.608100000000000307e+01 1.574200000000000088e+01 2.245700000000000074e+01 1.410978999999999983e+00 -8.955332066905155597e-02
8.608499999999999375e+01 3.290199999999999791e-01 3.359899999999999665e+01 8.648570999999999742e+01 -9.273234516662384741e-02
8.608499999999999375e+01 3.290199999999999791e-01 3.455700000000000216e+01 1.014464000000000077e+01 -9.284863862978190441e-02
8.608499999999999375e+01 2.837000000000000188e+00 3.455700000000000216e+01 1.703164999999999907e+02 -9.298778821477078627e-02
8.609399999999999409e+01 1.218800000000000061e+01 2.989999999999999858e+01 -4.026354999999999684e+00 -9.315692621418576735e-02
8.609399999999999409e+01 1.218800000000000061e+01 3.130000000000000071e+01 -5.907086999999999755e+00 -9.361200360033336554e-02
8.609399999999999409e+01 1.305400000000000027e+01 2.989999999999999858e+01 2.729182000000000219e+00 -9.338419423910618300e-02
8.609399999999999409e+01 1.305400000000000027e+01 3.130000000000000071e+01 -5.765032999999999852e+00 -9.385894552860675477e-02
8.610800000000000409e+01 1.546599999999999930e+01 3.705400000000000205e+01 6.262786000000000186e+00 -1.715204390751219887e-01
8.612500000000000000e+01 1.582999999999999963e+00 3.275900000000000034e+01 3.213252999999999915e+00 -9.267468661873139169e-02
8.612500000000000000e+01 1.582999999999999963e+00 3.539699999999999847e+01 -1.794264000000000081e+01 -9.301721570467194611e-02
8.614600000000000080e+01 2.283699999999999974e+01 2.823100000000000165e+01 1.551950000000000074e+01 -7.659006822218786259e-02
8.614700000000000557e+01 1.318200000000000038e+01 3.882000000000000028e+01 -4.360643999999999743e+00 -1.711282937386457981e-01
8.615600000000000591e+01 3.789400000000000102e+00 2.748600000000000065e+01 3.939970999999999890e+00 -9.546143364339314263e-02
8.615800000000000125e+01 1.345800000000000018e+01 2.650799999999999912e+01 2.056251000000000051e+00 -9.189222820945783243e-02
8.616400000000000148e+01 7.393399999999999750e+00 3.306199999999999761e+01 -1.004359999999999964e+01 -9.317045363819057013e-02
8.617199999999999704e+01 1.470599999999999952e+01 3.880599999999999739e+01 1.817248999999999981e+01 -1.705368747229721038e-01
8.617499999999999716e+01 2.288700000000000045e+01 2.631400000000000006e+01 1.277175000000000082e+01 -7.712697210268486259e-02
8.618999999999999773e+01 2.893600000000000172e+00 3.360399999999999920e+01 1.792137999999999920e+01 -9.286570273235630890e-02
8.620399999999999352e+01 1.269500000000000028e+01 2.707400000000000162e+01 3.182244000000000184e-01 -9.208091930421835603e-02
8.623499999999999943e+01 1.883399999999999963e+01 2.055199999999999960e+01 1.178166000000000047e+00 -8.756036953474828632e-02
8.625199999999999534e+01 1.755699999999999861e+01 2.117099999999999937e+01 1.923224000000000045e-01 -8.844231904420821189e-02
8.626000000000000512e+01 5.569200000000000372e+00 2.736100000000000065e+01 1.637452000000000041e+01 -9.538840975290500956e-02
8.627400000000000091e+01 2.060600000000000165e+01 3.311099999999999710e+01 4.345739000000000019e+00 -1.738788866956174628e-01
8.631000000000000227e+01 2.310500000000000043e+01 2.542099999999999937e+01 8.903902999999999679e+00 -7.746019159128084142e-02
8.631100000000000705e+01 8.125600000000000378e+00 3.382900000000000063e+01 -3.983633999999999786e-01 -9.342602776836239631e-02
8.632099999999999795e+01 5.408999999999999808e+00 3.232500000000000284e+01 -2.353481999999999985e+01 -9.284667915918282111e-02
8.632099999999999795e+01 9.835000000000000853e+00 2.682600000000000051e+01 -1.794929999999999914e+00 -9.173830898562497504e-02
8.634000000000000341e+01 1.405599999999999916e+01 2.627599999999999980e+01 5.572796999999999557e+00 -9.191850688643804501e-02
8.634099999999999397e+01 1.140399999999999991e+01 3.763100000000000023e+01 -2.929091000000000022e+01 -1.689830285037635105e-01
8.634399999999999409e+01 3.970299999999999940e+00 3.161499999999999844e+01 -4.643152999999999864e+00 -9.262696580839388516e-02
8.637099999999999511e+01 1.618400000000000105e+01 2.203099999999999881e+01 1.378997000000000028e+00 -8.943024872534269254e-02
8.637900000000000489e+01 2.206599999999999895e+01 3.266499999999999915e+01 -3.637877999999999901e+01 -1.732607316788135621e-01
8.637900000000000489e+01 7.440699999999999648e+00 2.776800000000000068e+01 9.262696000000000041e+00 -9.195533677657197202e-02
8.637999999999999545e+01 1.263400000000000034e+01 3.845400000000000063e+01 -2.056581999999999866e+01 -1.715502469959192255e-01
8.638100000000000023e+01 1.077399999999999913e+01 2.692500000000000071e+01 -1.171411999999999942e+01 -9.184084929339374204e-02
8.638599999999999568e+01 1.128700000000000081e+01 3.660199999999999676e+01 -1.701940999999999871e-01 -7.659384662050360004e-02
8.640600000000000591e+01 9.889099999999999113e+00 3.494400000000000261e+01 3.339364999999999917e+00 -9.392898894976946245e-02
8.640600000000000591e+01 1.108000000000000007e+01 3.560799999999999699e+01 -4.654334000000000415e+00 -7.661157120350484129e-02
8.643399999999999750e+01 2.291700000000000159e+01 2.145700000000000074e+01 3.175711999999999868e+00 -9.187389917907576309e-02
8.643399999999999750e+01 2.423600000000000065e+01 2.219200000000000017e+01 7.534906000000000326e+00 -9.696664426011966653e-02
8.643399999999999750e+01 2.423600000000000065e+01 2.382199999999999918e+01 -7.993896000000000335e+00 -7.818983930289437334e-02
8.643399999999999750e+01 2.446699999999999875e+01 2.300700000000000145e+01 -1.008727000000000018e+01 -1.007897438326715439e-01
8.643899999999999295e+01 1.427299999999999969e+01 3.810600000000000165e+01 1.695316000000000045e+01 -1.712353803778446648e-01
8.645099999999999341e+01 2.218299999999999983e+01 3.015099999999999980e+01 -2.546926000000000023e+00 -7.641398325731081631e-02
8.645300000000000296e+01 8.107100000000000861e+00 2.762500000000000000e+01 -8.215410000000000323e+00 -9.194835211126298202e-02
8.645399999999999352e+01 6.826999999999999957e+00 2.789600000000000080e+01 1.509531999999999918e+01 -9.198114768937469543e-02
8.648000000000000398e+01 1.182099999999999973e+01 2.965800000000000125e+01 -1.862678999999999974e+01 -9.305624404286158557e-02
8.648399999999999466e+01 3.010800000000000143e+00 2.833399999999999963e+01 3.119188999999999989e+00 -9.557549515576427290e-02
8.649099999999999966e+01 1.262100000000000044e+01 2.940899999999999892e+01 -3.047933000000000003e+00 -9.315650813533297991e-02
8.649099999999999966e+01 1.262100000000000044e+01 3.179100000000000037e+01 -1.698418999999999901e+00 -9.393216814571361817e-02
8.650000000000000000e+01 2.188200000000000145e+01 2.155699999999999861e+01 7.533927000000000263e+00 -9.055621164306271176e-02
8.650700000000000500e+01 1.199499999999999922e+01 2.713200000000000145e+01 -9.664980999999999156e+00 -9.207900484584653766e-02
8.652500000000000568e+01 1.767000000000000171e+01 3.541899999999999693e+01 -2.314132999999999996e+01 -1.721423398768381907e-01
8.652500000000000568e+01 1.799500000000000099e+01 3.468200000000000216e+01 -2.010576999999999970e+01 -1.729536906620962877e-01
8.652700000000000102e+01 1.148799999999999955e+01 3.103300000000000125e+01 -5.730855000000000032e+00 -9.342825327103435051e-02
8.652700000000000102e+01 1.375399999999999956e+01 3.016700000000000159e+01 3.198389999999999844e+00 -9.379076776228965906e-02
8.652700000000000102e+01 1.375399999999999956e+01 3.103300000000000125e+01 -6.066907999999999745e+00 -9.408415075911405467e-02
8.652700000000000102e+01 2.055600000000000094e+01 2.093299999999999983e+01 3.020821999999999896e+00 -8.858298663492973624e-02
8.653499999999999659e+01 1.641100000000000136e+01 3.625099999999999767e+01 -1.937215000000000131e+01 -1.718907328753609687e-01
8.655299999999999727e+01 4.666999999999999815e+00 3.203999999999999915e+01 -1.359863000000000000e+01 -9.276036900899747861e-02
8.655800000000000693e+01 6.681000000000000050e+00 3.292399999999999949e+01 -1.423127000000000031e+01 -9.309820157655590567e-02
8.656100000000000705e+01 2.203000000000000114e+01 2.936899999999999977e+01 7.694734000000000407e+00 -7.653141346821083768e-02
8.656399999999999295e+01 1.104000000000000092e+00 3.330299999999999727e+01 2.059691000000000116e+01 -9.275514890200571572e-02
8.656399999999999295e+01 1.104000000000000092e+00 3.485300000000000153e+01 7.325407000000000224e+00 -9.294951232320336487e-02
8.656399999999999295e+01 2.061999999999999833e+00 3.330299999999999727e+01 3.741395999999999944e+00 -9.280119383791246568e-02
8.656399999999999295e+01 2.061999999999999833e+00 3.485300000000000153e+01 1.224162000000000035e+02 -9.300584282023333094e-02
8.656900000000000261e+01 3.556700000000000195e+00 2.690700000000000003e+01 3.547072000000000003e+00 -9.543873580673002677e-02
8.657299999999999329e+01 1.471299999999999919e+01 3.734100000000000108e+01 2.051833999999999847e+01 -1.716567214792250329e-01
8.657299999999999329e+01 1.939099999999999824e+01 3.338000000000000256e+01 1.414437000000000033e+01 -1.743444359017703171e-01
8.660099999999999909e+01 1.803600000000000136e+01 2.073199999999999932e+01 1.015422000000000047e+00 -8.842901172304620805e-02
8.660899999999999466e+01 1.825900000000000034e+01 3.413799999999999812e+01 1.718524000000000029e+01 -1.736530662285707127e-01
8.661400000000000432e+01 1.531499999999999950e+01 2.293599999999999994e+01 1.958855000000000013e+00 -9.018574356450013985e-02
8.662900000000000489e+01 7.681200000000000250e-01 3.407800000000000296e+01 1.087162999999999968e+01 -9.284192385397445346e-02
8.662900000000000489e+01 2.397899999999999920e+00 3.407800000000000296e+01 7.318940999999999519e+01 -9.293011035489948113e-02
8.664600000000000080e+01 4.756000000000000227e+00 2.710500000000000043e+01 4.052349999999999675e+00 -9.541468104386038873e-02
8.665800000000000125e+01 1.975799999999999912e+01 2.058099999999999952e+01 1.771287999999999974e+00 -8.823610359489487964e-02
8.666899999999999693e+01 2.253600000000000136e+01 3.096499999999999986e+01 -1.132920000000000016e+01 -7.632899564815701088e-02
8.666899999999999693e+01 2.253600000000000136e+01 3.190500000000000114e+01 -1.760667000000000115e+01 -1.753898600492153625e-01
8.668999999999999773e+01 1.321000000000000085e+01 3.805299999999999727e+01 -3.086867000000000161e+01 -1.716669574446844371e-01
8.669199999999999307e+01 1.679200000000000159e+01 2.130499999999999972e+01 1.226696999999999926e+00 -8.916311674181871816e-02
8.669400000000000261e+01 2.223799999999999955e+01 2.873000000000000043e+01 1.304092999999999947e+01 -7.662760727347281420e-02
8.669599999999999795e+01 8.794000000000000483e+00 3.462500000000000000e+01 5.455470000000000041e+00 -9.370531859977873634e-02
8.670399999999999352e+01 3.074100000000000055e+00 2.710300000000000153e+01 3.547072000000000003e+00 -9.548036626225311907e-02
8.670799999999999841e+01 2.130600000000000094e+01 3.272800000000000153e+01 -1.377313000000000009e+01 -1.742679260282541387e-01
8.673999999999999488e+01 1.479199999999999982e+01 2.368100000000000094e+01 1.286081000000000074e+01 -9.062832919311562818e-02
8.673999999999999488e+01 1.479199999999999982e+01 2.463899999999999935e+01 5.098432999999999993e+01 -9.108606246139487606e-02
8.673999999999999488e+01 1.479199999999999982e+01 2.550400000000000134e+01 1.479743000000000031e+01 -9.170253641118701615e-02
8.675700000000000500e+01 6.126999999999999780e+00 2.783800000000000097e+01 2.399015999999999948e+01 -9.198770964725505594e-02
8.677500000000000568e+01 3.523499999999999854e+00 3.019600000000000151e+01 2.186043000000000180e+00 -9.239605318420177071e-02
8.677500000000000568e+01 3.732600000000000140e+00 3.093199999999999861e+01 -4.582387999999999906e+00 -9.253272193638556464e-02
8.679399999999999693e+01 1.192099999999999937e+01 3.173300000000000054e+01 -4.447669000000000317e+00 -9.376762004257509220e-02
8.679399999999999693e+01 1.332099999999999973e+01 2.671699999999999875e+01 6.366679000000000421e+00 -9.216151948601357391e-02
8.679399999999999693e+01 1.332099999999999973e+01 2.946699999999999875e+01 3.959745999999999988e+00 -9.343634197655334428e-02
8.679399999999999693e+01 1.332099999999999973e+01 3.173300000000000054e+01 -4.514010999999999996e+00 -9.418230567433676093e-02
8.680200000000000671e+01 2.040399999999999991e+01 3.278499999999999659e+01 -2.731491999999999809e+00 -1.750176589014233730e-01
8.680800000000000693e+01 1.519899999999999984e+01 3.662100000000000222e+01 1.863218000000000041e+00 -1.721060896426980513e-01
8.680800000000000693e+01 2.356599999999999895e+01 2.489999999999999858e+01 2.027833000000000041e+01 -7.783773057134020512e-02
8.681100000000000705e+01 1.216399999999999970e+01 3.792099999999999937e+01 -3.021770000000000067e+01 -1.720460317972427322e-01
8.681199999999999761e+01 1.030400000000000027e+01 2.639199999999999946e+01 -1.522354999999999903e+00 -9.169283256773162749e-02
8.685999999999999943e+01 1.582999999999999963e+00 3.407800000000000296e+01 -7.074424999999999741e+00 -9.289728129367727516e-02
8.686899999999999977e+01 4.180900000000000283e+00 2.672400000000000020e+01 4.090578999999999965e+00 -9.541327046253575417e-02
8.687399999999999523e+01 1.183500000000000085e+01 3.716100000000000136e+01 -1.322437000000000040e+01 -7.658420643061387978e-02
8.687699999999999534e+01 1.869099999999999895e+01 3.343800000000000239e+01 2.145673999999999992e+01 -1.746793974812153316e-01
8.687699999999999534e+01 1.225399999999999956e+01 2.916700000000000159e+01 -1.279467999999999961e+01 -9.304891472552018206e-02
8.689000000000000057e+01 2.267000000000000171e+01 2.784400000000000119e+01 1.952981000000000122e+01 -7.681495048331114794e-02
8.689000000000000057e+01 1.567699999999999960e+01 3.629599999999999937e+01 2.166653000000000162e+01 -1.722284089706823673e-01
8.689199999999999591e+01 4.117499999999999716e+00 3.139399999999999835e+01 -9.756936999999999971e-01 -9.264204028971564919e-02
8.691299999999999670e+01 2.369200000000000017e+01 2.175300000000000011e+01 2.166227999999999909e+01 -9.478106650983822434e-02
8.691299999999999670e+01 1.112100000000000044e+01 2.992500000000000071e+01 -2.056271999999999878e+01 -9.307251223351573066e-02
8.691299999999999670e+01 1.112100000000000044e+01 3.078999999999999915e+01 -1.098662000000000027e+01 -9.333401902612990797e-02
8.691700000000000159e+01 5.368100000000000094e+00 3.219599999999999795e+01 -4.604733999999999838e+01 -9.287188181436009660e-02
8.692199999999999704e+01 8.757799999999999585e+00 2.725000000000000000e+01 -5.924724000000000323e+00 -9.193467319292067397e-02
8.693099999999999739e+01 1.174099999999999966e+01 3.625900000000000034e+01 -2.841072000000000042e+00 -7.659909121751337646e-02
8.693800000000000239e+01 7.521600000000000286e+00 3.339999999999999858e+01 -2.649456999999999951e+01 -9.332249763742642146e-02
8.696699999999999875e+01 1.346799999999999997e+01 3.721999999999999886e+01 -1.852532000000000068e+01 -1.722041620012427499e-01
8.696899999999999409e+01 2.276599999999999824e+01 2.683599999999999852e+01 1.557417000000000051e+01 -7.710817799523494998e-02
8.697799999999999443e+01 2.214999999999999858e+01 2.165299999999999869e+01 5.063436000000000270e+00 -9.197227198864441067e-02
8.698900000000000432e+01 1.045899999999999963e+01 3.500699999999999790e+01 1.960520000000000040e+00 -7.663513115105541340e-02
8.699399999999999977e+01 2.605100000000000193e+00 2.786199999999999832e+01 1.854956999999999923e+01 -9.557098874283494194e-02
8.699500000000000455e+01 1.713700000000000045e+01 3.585000000000000142e+01 -3.580393000000000114e+01 -1.720118071794247139e-01
8.700000000000000000e+01 2.105699999999999861e+01 2.949500000000000099e+01 1.237176999999999971e+00 -7.662684701074302940e-02
8.702500000000000568e+01 1.159200000000000053e+01 3.576599999999999824e+01 -2.677357000000000209e+00 -7.660999241850864616e-02
8.702800000000000580e+01 6.091000000000000192e+00 3.258700000000000330e+01 -2.943543000000000021e+01 -9.301746236054810046e-02
8.702899999999999636e+01 2.336899999999999977e+00 2.710300000000000153e+01 2.020267000000000035e+00 -9.552168541182792794e-02
8.703499999999999659e+01 2.123000000000000043e+01 2.167699999999999960e+01 1.099803999999999959e+01 -9.097223611547053390e-02
8.705800000000000693e+01 2.135999999999999943e+01 2.879500000000000171e+01 1.201098999999999961e+01 -7.670892751723454306e-02
8.709199999999999875e+01 2.666300000000000114e+00 2.634299999999999997e+01 2.521295999999999982e+00 -9.545373517420155385e-02
8.709199999999999875e+01 3.605700000000000127e+00 2.634299999999999997e+01 3.880589000000000066e+00 -9.541527094915874807e-02
8.709399999999999409e+01 1.421199999999999974e+01 2.637699999999999889e+01 9.879224999999999923e+00 -9.225460387199546641e-02
8.711499999999999488e+01 7.440699999999999648e+00 2.797700000000000031e+01 9.188907000000000380e+00 -9.211017221449155357e-02
8.712600000000000477e+01 1.888599999999999923e+01 2.040700000000000003e+01 1.550192999999999932e+00 -8.884403193009068889e-02
8.713899999999999579e+01 2.177599999999999980e+01 3.067500000000000071e+01 -1.004235000000000078e+01 -7.646627722801631333e-02
8.713899999999999579e+01 2.177599999999999980e+01 3.219500000000000028e+01 -5.341230000000000189e+01 -1.754962831075379259e-01
8.714100000000000534e+01 9.544000000000000483e+00 2.645499999999999829e+01 -7.117786000000000390e-01 -9.174706761526582599e-02
8.714100000000000534e+01 1.106400000000000006e+01 2.645499999999999829e+01 -4.126127000000000322e+00 -9.183396849450634059e-02
8.714199999999999591e+01 1.235399999999999920e+01 2.705900000000000105e+01 -5.573686000000000362e+00 -9.224776791508307316e-02
8.715699999999999648e+01 1.472300000000000075e+01 3.651700000000000301e+01 6.145550000000000068e+00 -1.724071466762577831e-01
8.716400000000000148e+01 2.961599999999999788e+00 2.867699999999999960e+01 3.035114999999999785e+00 -9.563547835591032498e-02
8.718000000000000682e+01 1.155400000000000027e+01 2.922500000000000142e+01 -2.546638000000000090e+01 -9.297213979858273691e-02
8.719899999999999807e+01 2.083699999999999974e+01 3.229399999999999693e+01 -9.101805000000000589e+00 -1.760773507156288553e-01
8.720199999999999818e+01 2.057000000000000028e+01 2.989999999999999858e+01 -3.985946000000000211e+00 -7.662365918177410640e-02
8.720199999999999818e+01 2.210500000000000043e+01 3.143499999999999872e+01 -2.987433000000000050e+01 -7.638672477912895886e-02
8.720900000000000318e+01 2.417099999999999937e+01 2.252799999999999869e+01 1.326160000000000139e+02 -9.892303549838267485e-02
8.720900000000000318e+01 2.417099999999999937e+01 2.348600000000000065e+01 -2.357616000000000156e+01 1.532768256109309779e-01
8.721200000000000330e+01 1.262400000000000055e+01 3.719500000000000028e+01 -2.853463999999999956e+01 -7.657616115213836117e-02
8.721699999999999875e+01 1.619600000000000151e+01 2.178600000000000136e+01 1.662036999999999987e+00 -8.994173573662350707e-02
8.721699999999999875e+01 1.752700000000000102e+01 2.086400000000000077e+01 5.402169999999999472e-01 -8.932053047109772548e-02
8.722100000000000364e+01 8.197900000000000631e+00 3.414399999999999835e+01 7.931939999999999991e+00 -9.357639687170279941e-02
8.722100000000000364e+01 9.644000000000000128e+00 3.495000000000000284e+01 1.377895999999999965e+01 -9.395891111471674217e-02
8.722700000000000387e+01 1.381199999999999939e+01 2.986400000000000077e+01 8.923028000000000404e+00 -9.383666662979316120e-02
8.722700000000000387e+01 1.381199999999999939e+01 3.133599999999999852e+01 -9.448176999999999381e+00 -9.431348233128530878e-02
8.722700000000000387e+01 1.402100000000000080e+01 3.060000000000000142e+01 -4.324597999999999942e+00 -9.416872661509621822e-02
8.724399999999999977e+01 3.090700000000000003e+00 2.963500000000000156e+01 3.759141000000000066e+00 -9.232546163972299436e-02
8.724899999999999523e+01 2.291700000000000159e+01 2.168799999999999883e+01 8.060105999999999327e+00 -9.367338965040122867e-02
8.725700000000000500e+01 1.226900000000000013e+01 3.646099999999999852e+01 -1.290374000000000088e+01 -7.659266914084476852e-02
8.726000000000000512e+01 2.087300000000000111e+01 3.060000000000000142e+01 -4.633221999999999952e+00 -7.654660936953276706e-02
8.727400000000000091e+01 1.583900000000000041e+01 2.258899999999999864e+01 2.403301999999999938e-01 -9.039000399340846315e-02
8.728400000000000603e+01 1.523099999999999987e+01 2.416000000000000014e+01 3.433323000000000036e+01 -9.110126941823402935e-02
8.728499999999999659e+01 1.760699999999999932e+01 3.509000000000000341e+01 -1.951971999999999952e+01 -1.727311507092292309e-01
8.728700000000000614e+01 1.501699999999999946e+01 2.566600000000000037e+01 1.269810000000000016e+01 -9.207878716096065674e-02
8.729200000000000159e+01 1.115900000000000070e+01 3.506600000000000250e+01 -5.443523999999999585e-01 -7.663031508969184169e-02
8.730899999999999750e+01 1.939099999999999824e+01 3.301899999999999835e+01 2.511692000000000036e+01 -7.649150255514002017e-02
8.730899999999999750e+01 1.820100000000000051e+01 3.383500000000000085e+01 1.989014999999999844e+01 -7.651329748670801512e-02
8.731199999999999761e+01 1.244899999999999984e+01 3.203699999999999903e+01 2.120394000000000112e+00 -9.406384917616804342e-02
8.731900000000000261e+01 1.550200000000000067e+01 2.339300000000000068e+01 8.078594999999999970e+00 -9.079269281700540206e-02
8.732399999999999807e+01 1.637699999999999889e+01 3.591299999999999670e+01 1.010480999999999963e+00 -1.723708846440104026e-01
8.732500000000000284e+01 4.608399999999999608e+00 3.178999999999999915e+01 -3.677821999999999925e+00 -9.277790499747116948e-02
8.732999999999999829e+01 2.044600000000000151e+01 2.124899999999999878e+01 3.147790999999999784e+00 -9.035404810112737661e-02
8.733599999999999852e+01 1.513199999999999967e+01 2.506599999999999895e+01 1.897615000000000052e+01 -9.170713879190102447e-02
8.734300000000000352e+01 1.310599999999999987e+01 2.926099999999999923e+01 5.621222000000000385e+00 -9.340133190487964754e-02
8.735500000000000398e+01 1.285200000000000031e+01 2.714999999999999858e+01 -2.768530999999999853e+00 -9.243274506972062876e-02
8.736199999999999477e+01 5.639599999999999724e+00 2.743499999999999872e+01 1.379438999999999993e+01 -9.546075920674193527e-02
8.736199999999999477e+01 6.830499999999999794e+00 2.809900000000000020e+01 1.978989999999999938e+01 -9.214693658524195086e-02
8.736599999999999966e+01 2.311299999999999955e+01 2.540800000000000125e+01 1.439242999999999917e+01 -7.765112844991375884e-02
8.740600000000000591e+01 2.073900000000000077e+01 2.868100000000000094e+01 5.841890000000000249e+00 -7.677424761190057567e-02
8.741500000000000625e+01 2.182000000000000028e+01 2.816900000000000048e+01 1.940352000000000032e+01 -7.683409530094439943e-02
8.742900000000000205e+01 2.130600000000000094e+01 3.143499999999999872e+01 -7.851321999999999690e+00 -7.646663761354782762e-02
8.743200000000000216e+01 2.166199999999999903e+01 2.216799999999999926e+01 5.702303999999999817e+00 -9.265373422320861974e-02
8.743399999999999750e+01 1.114499999999999957e+01 3.131599999999999895e+01 4.910511999999999766e+00 -9.355810088770838417e-02
8.748600000000000421e+01 2.218900000000000006e+01 2.731899999999999906e+01 1.650425999999999860e+01 -7.702397212604464305e-02
8.749800000000000466e+01 6.681000000000000050e+00 3.292399999999999949e+01 -1.528969999999999985e+01 -9.318346969653104606e-02
8.750400000000000489e+01 1.414600000000000080e+01 3.639399999999999835e+01 2.736181999999999892e+00 -7.656655917361868124e-02
8.751300000000000523e+01 4.445500000000000007e+00 2.651899999999999835e+01 1.312027999999999972e+00 -9.542096794269297466e-02
8.751600000000000534e+01 2.231299999999999883e+01 2.638800000000000168e+01 1.675656999999999996e+01 -7.726474169294096639e-02
8.751699999999999591e+01 1.275600000000000023e+01 3.653000000000000114e+01 -3.449060999999999932e+00 -7.658780216127319962e-02
8.751699999999999591e+01 1.351999999999999957e+01 3.653000000000000114e+01 -7.868049000000000293e-01 -7.657560571362566348e-02
8.752299999999999613e+01 3.136000000000000121e+00 2.580999999999999872e+01 -6.454372999999999916e-01 -9.188395771330387651e-02
8.753000000000000114e+01 4.826500000000000234e+00 2.684600000000000009e+01 4.786388999999999783e+00 -9.543858008926692227e-02
8.754699999999999704e+01 1.764300000000000068e+01 3.440299999999999869e+01 -1.553201999999999972e+00 -1.736917232923188559e-01
8.755400000000000205e+01 1.515600000000000058e+01 3.602600000000000335e+01 1.212791999999999959e+01 -1.727516086011700869e-01
8.755400000000000205e+01 1.458399999999999963e+01 2.636599999999999966e+01 5.305615000000000414e+00 -9.249766390164693153e-02
8.756199999999999761e+01 1.906300000000000106e+00 2.663299999999999912e+01 1.263711999999999946e+00 -9.552644784754896201e-02
8.756199999999999761e+01 1.906300000000000106e+00 2.757300000000000040e+01 1.582664000000000071e+00 -9.559454708320007377e-02
8.757599999999999341e+01 1.586999999999999922e+01 2.363800000000000168e+01 7.310393000000000363e+00 -9.106628987186420054e-02
8.758199999999999363e+01 3.490699999999999914e+00 3.054100000000000037e+01 5.705327999999999733e+00 -9.252258353018896764e-02
8.759399999999999409e+01 7.669699999999999740e+00 3.346200000000000330e+01 -2.021087999999999951e+01 -9.341438107106306288e-02
8.760899999999999466e+01 2.015099999999999980e+01 2.782400000000000162e+01 1.014465000000000039e+01 -7.690451859097677256e-02
8.761100000000000421e+01 9.010999999999999233e+00 2.688599999999999923e+01 -1.950391999999999959e-01 -9.194808732311857136e-02
8.761100000000000421e+01 1.030400000000000027e+01 2.616499999999999915e+01 -5.300977999999999524e-01 -9.177192975120965213e-02
8.761100000000000421e+01 1.165399999999999991e+01 2.679200000000000159e+01 -2.232676000000000016e+01 -9.213931967791402777e-02
8.761299999999999955e+01 8.140700000000000713e+00 2.771000000000000085e+01 6.415505000000000235e-01 -9.214440988708712255e-02
8.761299999999999955e+01 1.085399999999999920e+01 3.035800000000000054e+01 -5.570700000000000429e+00 -9.325742996364372317e-02
8.761299999999999955e+01 1.106300000000000061e+01 2.962199999999999989e+01 -7.268265000000000420e+00 -9.307806225406578537e-02
8.761499999999999488e+01 2.000300000000000011e+01 2.868100000000000094e+01 -9.495630000000000237e+00 -7.679994671809989293e-02
8.762199999999999989e+01 2.044800000000000040e+01 2.731899999999999906e+01 2.121821999999999875e+01 -7.698055994390611001e-02
8.763800000000000523e+01 2.057000000000000028e+01 3.143499999999999872e+01 -7.421356999999999537e-01 -7.652583994836198444e-02
8.765099999999999625e+01 1.601800000000000068e+01 2.436400000000000077e+01 1.641253000000000029e+01 -9.153749768879801407e-02
8.765099999999999625e+01 1.803600000000000136e+01 2.073199999999999932e+01 1.069825999999999944e+00 -8.971574605615176279e-02
8.765099999999999625e+01 1.973600000000000065e+01 2.073199999999999932e+01 8.015542999999999196e+00 -9.005004727223196725e-02
8.765200000000000102e+01 1.994600000000000151e+01 3.236599999999999966e+01 2.508564999999999934e+00 -7.650722449115064661e-02
8.765800000000000125e+01 2.349500000000000099e+01 2.453099999999999881e+01 2.174821000000000026e+01 -7.799981983420713194e-02
8.765900000000000603e+01 1.355199999999999960e+01 2.709100000000000108e+01 3.189986999999999906e+00 -9.264186203841102973e-02
8.767700000000000671e+01 1.868299999999999983e+01 3.317699999999999960e+01 8.587749999999999773e+01 -7.652903179424044855e-02
8.768000000000000682e+01 1.314899999999999913e+01 3.187399999999999878e+01 -3.787523999999999891e+00 -9.429221573190622874e-02
8.768300000000000693e+01 1.229100000000000037e+01 2.888200000000000145e+01 -2.113633000000000095e+01 -9.310569016471981207e-02
8.768800000000000239e+01 2.339600000000000080e+01 2.223199999999999932e+01 9.545484999999999332e+01 -9.640658047573302802e-02
8.769299999999999784e+01 2.017299999999999827e+01 2.946699999999999875e+01 -2.667370999999999981e+01 -7.671516258388248743e-02
8.769299999999999784e+01 2.017299999999999827e+01 3.033200000000000074e+01 -1.595140999999999920e+01 -7.663262502663896469e-02
8.770099999999999341e+01 1.157699999999999996e+01 3.201599999999999824e+01 6.596859000000000250e+00 -9.387291815684523089e-02
8.772499999999999432e+01 1.165000000000000036e+01 3.546200000000000330e+01 2.206599000000000199e+00 -7.662313790462317586e-02
8.773499999999999943e+01 2.096199999999999974e+01 2.210900000000000176e+01 4.131355000000000111e+00 -9.222383730286995429e-02
8.773999999999999488e+01 2.129500000000000171e+01 2.731899999999999906e+01 2.123564000000000007e+01 -7.701736241296899821e-02
8.774200000000000443e+01 1.679200000000000159e+01 2.130499999999999972e+01 1.643993999999999955e+00 -9.010060151200774414e-02
8.774500000000000455e+01 2.244300000000000139e+01 2.212699999999999889e+01 8.220523999999999276e+00 -9.415610706412445852e-02
8.774599999999999511e+01 8.794000000000000483e+00 3.462500000000000000e+01 1.235281999999999947e+01 -9.379958328579990345e-02
8.774899999999999523e+01 1.575699999999999967e+01 2.526800000000000068e+01 1.545759999999999934e+01 -9.221055024959831647e-02
8.775300000000000011e+01 2.373199999999999932e+01 2.300700000000000145e+01 3.308964999999999890e+01 -9.950561226906406986e-02
8.777700000000000102e+01 1.045400000000000063e+01 3.476599999999999824e+01 1.927787999999999968e+01 -7.664838389997753743e-02
8.777899999999999636e+01 1.617999999999999972e+01 3.566899999999999693e+01 1.651559999999999917e+00 -1.727678350033614030e-01
8.778300000000000125e+01 5.368100000000000094e+00 3.219599999999999795e+01 -2.170476999999999990e+01 -9.294733433997807992e-02
8.778400000000000603e+01 2.274599999999999866e+01 2.568799999999999883e+01 1.375731999999999999e+01 -7.753275342266435777e-02
8.781499999999999773e+01 1.807600000000000051e+01 3.370300000000000296e+01 2.052316000000000074e+01 -7.653715828816889943e-02
8.781799999999999784e+01 1.941499999999999915e+01 2.782400000000000162e+01 7.191685999999999801e+00 -7.690573220962665379e-02
8.782500000000000284e+01 1.690299999999999869e+01 3.545400000000000063e+01 -2.030781999999999954e+01 -1.727047786550116037e-01
8.785200000000000387e+01 2.375999999999999890e+00 2.587300000000000111e+01 1.164190000000000058e+00 -9.195151413774292626e-02
8.785200000000000387e+01 3.895999999999999908e+00 2.587300000000000111e+01 2.495071000000000094e-01 -9.189840026193851763e-02
8.785299999999999443e+01 2.276899999999999924e+00 2.839300000000000068e+01 2.701674000000000131e+00 -9.565915017465961845e-02
8.786199999999999477e+01 7.382100000000000328e+00 3.307999999999999829e+01 -4.239361999999999853e+01 -9.333175065772668366e-02
8.788200000000000500e+01 1.220599999999999952e+01 2.718799999999999883e+01 -2.215383999999999887e+01 -9.245311584961102280e-02
8.788899999999999579e+01 2.001500000000000057e+01 2.661899999999999977e+01 3.636446000000000112e+01 -7.707190596518510850e-02
8.788899999999999579e+01 2.087999999999999901e+01 2.661899999999999977e+01 4.352579999999999671e+01 -7.712486386527507565e-02
8.788899999999999579e+01 2.171000000000000085e+01 2.661899999999999977e+01 2.717468999999999824e+01 -7.718740051357000920e-02
8.790000000000000568e+01 1.457900000000000063e+01 3.590299999999999869e+01 1.481033000000000044e+01 -7.657338495755336427e-02
8.790500000000000114e+01 2.024899999999999878e+01 3.202499999999999858e+01 -2.566339000000000148e+00 -7.652188543274100752e-02
8.791400000000000148e+01 1.395299999999999940e+01 3.603900000000000148e+01 7.354976999999999876e+00 -7.658240557809595228e-02
8.792700000000000671e+01 1.375399999999999956e+01 3.103300000000000125e+01 -1.129795000000000016e+01 -9.431642680260179934e-02
8.793800000000000239e+01 1.395800000000000018e+01 2.956400000000000006e+01 4.593500999999999834e+00 -9.391675227450432817e-02
8.793800000000000239e+01 1.395800000000000018e+01 3.042899999999999849e+01 -6.901176999999999673e+00 -9.421309337902851466e-02
8.795699999999999363e+01 1.253599999999999959e+01 3.602799999999999869e+01 8.528971999999999554e+00 -7.660504343696850071e-02
8.796699999999999875e+01 6.134000000000000341e+00 2.782499999999999929e+01 1.863600999999999885e+01 -9.213175372709191124e-02
8.797599999999999909e+01 2.026099999999999923e+01 2.158200000000000074e+01 2.723073000000000121e+01 -9.148113887361404573e-02
8.798600000000000421e+01 1.159099999999999930e+01 2.894000000000000128e+01 -3.268162000000000234e+01 -9.302483080216369937e-02
8.800799999999999557e+01 6.198999999999999844e+00 3.251299999999999812e+01 -9.366087999999999525e+00 -9.310299181832294713e-02
8.801999999999999602e+01 1.888599999999999923e+01 2.066100000000000136e+01 7.194443999999999839e+00 -9.024301373629464718e-02
8.803700000000000614e+01 2.662599999999999856e+00 2.920100000000000051e+01 3.794137999999999789e+00 -9.230996720286199775e-02
8.804800000000000182e+01 2.159799999999999898e+01 2.242500000000000071e+01 4.274968999999999575e+00 -9.364727477487114204e-02
8.806600000000000250e+01 1.519999999999999929e+01 2.586400000000000077e+01 3.632315999999999878e+00 -9.255797702603763000e-02
8.806699999999999307e+01 1.626699999999999946e+01 2.215500000000000114e+01 4.775065999999999811e+00 -9.073565488524731881e-02
8.806699999999999307e+01 1.626699999999999946e+01 2.320499999999999829e+01 6.354696999999999818e+00 -9.120499744302854039e-02
8.807099999999999795e+01 8.268700000000000827e+00 3.377499999999999858e+01 5.265360999999999514e-01 -9.360181312539270215e-02
8.808100000000000307e+01 9.544000000000000483e+00 2.645499999999999829e+01 -3.049410000000000176e-01 -9.192314789497116334e-02
8.808100000000000307e+01 1.106400000000000006e+01 2.645499999999999829e+01 -7.013376000000000055e+00 -9.204151148797842796e-02
8.809099999999999397e+01 1.404299999999999926e+01 2.669500000000000028e+01 3.391967999999999872e+00 -9.269066052571660330e-02
8.809399999999999409e+01 3.019899999999999807e+00 3.000400000000000134e+01 6.142095000000000304e+00 -9.245751403145417713e-02
8.809399999999999409e+01 4.027099999999999902e+00 3.101099999999999923e+01 6.208728999999999942e+00 -9.267307162801241560e-02
8.810500000000000398e+01 1.312599999999999945e+01 2.844500000000000028e+01 6.199349999999999916e+00 -9.324128062098090142e-02
8.810599999999999454e+01 1.960699999999999932e+01 2.911299999999999955e+01 -3.362120000000000175e+01 -7.678538786108260461e-02
8.811100000000000421e+01 7.440699999999999648e+00 2.797700000000000031e+01 9.403031000000000361e+00 -9.224596656908999603e-02
8.811100000000000421e+01 8.631600000000000605e+00 2.731299999999999883e+01 -2.438819000000000070e+00 -9.213814309451115458e-02
8.811499999999999488e+01 9.644000000000000128e+00 3.469599999999999795e+01 7.218811999999999784e+00 -9.399963995456063481e-02
8.812699999999999534e+01 2.306200000000000117e+01 2.509199999999999875e+01 -2.819840999999999909e+01 -7.776415021643034997e-02
8.813100000000000023e+01 1.917099999999999937e+01 3.266299999999999670e+01 3.325934999999999775e+01 -7.654799462620871797e-02
8.813299999999999557e+01 1.115000000000000036e+01 3.479200000000000159e+01 1.538953000000000060e+01 -7.664568790397749409e-02
8.813400000000000034e+01 1.087700000000000067e+01 3.088400000000000034e+01 9.902993999999999630e+00 -9.348086085469765882e-02
8.813400000000000034e+01 1.108600000000000030e+01 3.162000000000000099e+01 1.280387999999999948e+01 -9.371368919938441455e-02
8.813400000000000034e+01 1.227699999999999925e+01 3.228399999999999892e+01 9.189130999999999716e+00 -9.417920748164214373e-02
8.813400000000000034e+01 1.346799999999999997e+01 3.162000000000000099e+01 -5.891834000000000238e+00 -9.440061220440207346e-02
8.815900000000000603e+01 1.655600000000000094e+01 2.399899999999999878e+01 4.667267999999999972e+00 -9.166776125298711775e-02
8.816100000000000136e+01 2.347500000000000142e+01 2.410900000000000176e+01 -1.247468000000000021e+00 -7.805090581234880309e-02
8.818099999999999739e+01 1.645700000000000074e+01 2.500000000000000000e+01 6.487963999999999842e+00 -9.246995608160832325e-02
8.818200000000000216e+01 1.755699999999999861e+01 2.117099999999999937e+01 7.864427999999999974e-01 -9.046486117691716899e-02
8.818300000000000693e+01 1.229499999999999993e+01 2.829899999999999949e+01 -2.350666000000000011e+01 -9.298527186741124828e-02
8.818600000000000705e+01 1.531799999999999962e+01 3.577199999999999847e+01 7.821645000000000181e+00 -7.656636788079021483e-02
8.820699999999999363e+01 2.291700000000000159e+01 2.264699999999999847e+01 1.553630000000000067e+01 -9.675732642516222948e-02
8.822700000000000387e+01 1.310899999999999999e+01 3.609199999999999875e+01 9.983708999999999278e+00 -7.659952136013517543e-02
8.823300000000000409e+01 2.060300000000000153e+01 2.231099999999999994e+01 5.196958999999999662e+00 -9.265761032463294689e-02
8.823300000000000409e+01 2.060300000000000153e+01 2.600100000000000122e+01 4.183444000000000074e+01 -7.721187867870181465e-02
8.823300000000000409e+01 2.146799999999999997e+01 2.600100000000000122e+01 3.850200000000000244e+01 -7.729994554383624872e-02
8.823300000000000409e+01 2.213599999999999923e+01 2.600100000000000122e+01 1.327877999999999936e+01 -7.738455276581804321e-02
8.823699999999999477e+01 1.929299999999999926e+01 2.415599999999999881e+01 -1.112057999999999991e+00 -9.358129549443303108e-02
8.824299999999999500e+01 2.333500000000000085e+01 2.344000000000000128e+01 9.665452000000000155e+00 -9.961825517137770647e-02
8.824699999999999989e+01 1.758500000000000085e+01 3.410000000000000142e+01 6.198155999999999999e+00 -7.655275425246987897e-02
8.824899999999999523e+01 4.588400000000000034e+00 3.179799999999999827e+01 5.037612000000000340e-02 -9.285621973719283828e-02
8.828600000000000136e+01 4.485999999999999766e+00 2.621000000000000085e+01 -9.779144999999999754e+00 -9.196498126140367768e-02
8.830899999999999750e+01 1.901800000000000068e+01 2.739199999999999946e+01 3.757688000000000272e+01 -7.696397402986795977e-02
8.830899999999999750e+01 1.901800000000000068e+01 2.825700000000000145e+01 -8.244134000000000739e+00 -7.687912738162318294e-02
8.831900000000000261e+01 1.686899999999999977e+01 3.510900000000000176e+01 -8.733617000000000630e+00 -1.731795237130426823e-01
8.832200000000000273e+01 1.616000000000000103e+00 2.710300000000000153e+01 5.405149999999999677e-01 -9.211693010213957422e-02
8.832200000000000273e+01 1.842999999999999972e+00 2.630399999999999849e+01 8.945364999999999567e-01 -9.204905774785795969e-02
8.832200000000000273e+01 1.842999999999999972e+00 2.790200000000000102e+01 8.844956000000000484e-01 -9.565422823307261069e-02
8.832200000000000273e+01 3.136000000000000121e+00 2.558299999999999841e+01 3.415464000000000278e-01 -9.195076250839237519e-02
8.832200000000000273e+01 1.931500000000000128e+01 2.688599999999999923e+01 2.427026000000000039e+01 -7.702691752194770758e-02
8.832500000000000284e+01 1.860000000000000142e+01 2.423000000000000043e+01 -5.963485000000000369e+00 -9.310421749048508611e-02
8.833799999999999386e+01 7.836000000000000298e+00 3.307500000000000284e+01 -2.096634999999999849e+01 -9.343820862637031155e-02
8.837600000000000477e+01 1.985800000000000054e+01 2.573799999999999955e+01 2.734605000000000175e+01 -9.608690447014971159e-02
8.838899999999999579e+01 1.165099999999999980e+01 3.524399999999999977e+01 8.024953000000000003e+00 -7.663542768021200380e-02
8.839499999999999602e+01 5.057999999999999829e+00 2.647200000000000131e+01 9.448279000000000538e-01 -9.199208997436612856e-02
8.839600000000000080e+01 1.950700000000000145e+01 3.237500000000000000e+01 1.821394000000000091e+01 -7.655929419035524541e-02
8.839600000000000080e+01 1.985200000000000031e+01 3.159299999999999997e+01 1.667969000000000079e+01 -7.658947034620652849e-02
8.839600000000000080e+01 1.996999999999999886e+01 3.074500000000000099e+01 1.083000999999999969e+01 -7.664477774171080116e-02
8.840999999999999659e+01 1.030400000000000027e+01 2.639199999999999946e+01 -1.390203999999999951e+01 -9.201877881071862664e-02
8.841899999999999693e+01 1.089100000000000001e+01 3.007300000000000040e+01 5.319106999999999807e+00 -9.330248506315888535e-02
8.841899999999999693e+01 1.109999999999999964e+01 2.933699999999999974e+01 -2.595327999999999857e+00 -9.312681158439463369e-02
8.843099999999999739e+01 7.405000000000000249e+00 3.279399999999999693e+01 -1.770540000000000092e+01 -9.333615679743664795e-02
8.844499999999999318e+01 1.160399999999999920e+01 2.715899999999999892e+01 -4.848969000000000307e+01 -9.246452740267055437e-02
8.844599999999999795e+01 2.002899999999999991e+01 2.415599999999999881e+01 1.868422999999999945e+00 -9.453923077678318132e-02
8.844799999999999329e+01 6.886800000000000033e+00 3.251700000000000301e+01 -2.432460999999999984e+01 -9.322173976331377121e-02
8.844899999999999807e+01 1.602400000000000091e+01 2.569999999999999929e+01 7.857383999999999702e+00 -9.291401296063837856e-02
8.846999999999999886e+01 1.159399999999999942e+01 2.815399999999999991e+01 -6.129876000000000147e+01 -9.283896073822581196e-02
8.850100000000000477e+01 1.836100000000000065e+01 2.125700000000000145e+01 3.555699000000000165e+00 -9.097705931565401583e-02
8.850100000000000477e+01 1.941100000000000136e+01 2.125700000000000145e+01 2.253168000000000148e+01 -9.138261988204496311e-02
8.850400000000000489e+01 1.885999999999999943e+01 2.345599999999999952e+01 -5.070995999999999837e-01 -9.254506808518402072e-02
8.850400000000000489e+01 1.972500000000000142e+01 2.345599999999999952e+01 1.086743999999999932e+00 -9.330856912876231424e-02
8.850400000000000489e+01 1.972500000000000142e+01 2.485600000000000165e+01 9.340894999999999726e+00 -9.504225895632756327e-02
8.851600000000000534e+01 8.284200000000000230e+00 2.781400000000000006e+01 2.121481999999999868e+00 -9.231736853630286010e-02
8.852400000000000091e+01 1.972400000000000020e+01 3.024800000000000111e+01 1.813579999999999970e+00 -7.669911392195900846e-02
8.852500000000000568e+01 1.384600000000000009e+01 2.698400000000000176e+01 2.690420000000000034e+00 -9.290003706253133209e-02
8.853400000000000603e+01 1.786400000000000077e+01 2.423000000000000043e+01 2.508706999999999798e+00 -9.270977958582718448e-02
8.853799999999999670e+01 1.382600000000000051e+01 2.871199999999999974e+01 3.122834999999999894e+01 -9.366112623130873338e-02
8.854699999999999704e+01 6.182299999999999685e+00 2.763500000000000156e+01 2.221631000000000000e+01 -9.216265495769010441e-02
8.856399999999999295e+01 1.867999999999999972e+01 3.305899999999999750e+01 1.797711999999999932e+01 -7.656476855882490828e-02
8.856499999999999773e+01 2.257700000000000173e+01 2.541000000000000014e+01 1.423704000000000081e+00 -7.758993661214032278e-02
8.856699999999999307e+01 1.157699999999999996e+01 3.201599999999999824e+01 1.697438999999999965e+01 -9.398049551017294279e-02
8.856699999999999307e+01 1.297700000000000031e+01 3.201599999999999824e+01 4.262539000000000300e+00 -7.670103596383986977e-02
8.857299999999999329e+01 1.142600000000000016e+01 2.881400000000000006e+01 -1.430343000000000053e+01 -9.305158279401030963e-02
8.858499999999999375e+01 1.912199999999999989e+01 2.573799999999999955e+01 1.148053999999999952e+01 -9.526464270537286783e-02
8.858599999999999852e+01 1.730199999999999960e+01 3.440899999999999892e+01 1.729363000000000028e+01 -7.656073991853604155e-02
8.859199999999999875e+01 1.711700000000000088e+01 2.182999999999999829e+01 8.118287000000000475e+00 -9.106963730168521343e-02
8.859199999999999875e+01 1.816700000000000159e+01 2.353000000000000114e+01 -1.268623000000000056e+00 -9.222411737202815263e-02
8.859600000000000364e+01 9.118700000000000472e+00 3.410000000000000142e+01 2.235605000000000064e+00 -9.384810077688945928e-02
8.861599999999999966e+01 8.565899999999999181e+00 3.355100000000000193e+01 -1.077857000000000065e+00 -9.366137448492908857e-02
8.862900000000000489e+01 1.981099999999999994e+01 2.212600000000000122e+01 1.044079999999999941e+01 -9.231595777922416146e-02
8.862999999999999545e+01 2.103500000000000014e+01 2.280199999999999960e+01 3.452351000000000170e+00 -9.401564182990711227e-02
8.862999999999999545e+01 2.103500000000000014e+01 2.551000000000000156e+01 1.183601000000000028e+02 -7.733730182910200646e-02
8.863500000000000512e+01 2.263400000000000034e+01 2.282799999999999940e+01 1.154045999999999950e+01 -9.677772028662058601e-02
8.863599999999999568e+01 3.486800000000000122e+00 3.053500000000000014e+01 9.749985999999999819e+00 -9.261087520300996523e-02
8.863599999999999568e+01 1.457900000000000063e+01 3.569400000000000261e+01 1.525433999999999957e+00 -7.658983714539793763e-02
8.863800000000000523e+01 1.401600000000000001e+01 3.073300000000000054e+01 -4.321407999999999916e+00 -9.443762077933519350e-02
8.863800000000000523e+01 1.422499999999999964e+01 2.999699999999999989e+01 -5.882439999999999891e+00 -9.429560175300095992e-02
8.864300000000000068e+01 2.028999999999999915e+01 2.503800000000000026e+01 1.687763999999999953e+01 -9.605528193513862556e-02
8.865000000000000568e+01 1.695200000000000173e+01 2.443100000000000094e+01 4.214284000000000141e+00 -9.245814191204214383e-02
8.866299999999999670e+01 1.674800000000000111e+01 2.267999999999999972e+01 2.037471999999999994e+01 -9.143454548160775963e-02
8.867100000000000648e+01 1.228800000000000026e+01 3.565699999999999648e+01 9.111145000000000493e+00 -7.662430265595253365e-02
8.867400000000000659e+01 1.939000000000000057e+01 2.292200000000000060e+01 2.347811000000000092e+00 -9.257957016258303029e-02
8.867499999999999716e+01 5.377600000000000158e+00 3.221600000000000108e+01 -4.331190000000000317e+00 -9.302882215990440629e-02
8.868000000000000682e+01 1.807600000000000051e+01 3.370300000000000296e+01 2.245747000000000071e+01 -7.656349143467280904e-02
8.868099999999999739e+01 1.010899999999999999e+01 3.420799999999999841e+01 8.270915999999999713e+00 -7.667139757765364938e-02
8.868999999999999773e+01 1.826099999999999923e+01 2.513100000000000023e+01 6.901377000000000095e+00 -9.393171850190011607e-02
8.870199999999999818e+01 2.009100000000000108e+01 2.286400000000000077e+01 3.503426000000000151e+00 -9.306800566101167127e-02
8.870399999999999352e+01 1.703900000000000148e+01 2.350799999999999912e+01 1.018422999999999945e+01 -9.189244009405454772e-02
8.873199999999999932e+01 4.078899999999999970e+00 3.134900000000000020e+01 9.650090999999999530e-01 -9.278680962107146990e-02
8.874299999999999500e+01 1.810999999999999943e+01 2.180799999999999983e+01 3.123428999999999789e+00 -9.141629258685281256e-02
8.875900000000000034e+01 1.888899999999999935e+01 2.872200000000000131e+01 -1.433103999999999978e+01 -7.685291389046963739e-02
