5.873599999999999710e+01 7.209399999999999409e+01 -2.640600000000000058e+00 -2.194335000000000147e+00 -2.501219606910983773e-01
5.874199999999999733e+01 3.919899999999999807e+01 -1.064300000000000068e+01 1.913346999999999909e+01 6.343530368927488561e-02
5.874300000000000210e+01 7.325199999999999534e+01 -5.999999999999999778e-02 7.503771999999999665e-01 -2.506988559221829949e-01
5.874300000000000210e+01 7.504000000000000625e+01 -5.999999999999999778e-02 -7.058518999999999766e-01 -2.492152489422831130e-01
5.874399999999999977e+01 4.325000000000000000e+01 -6.584399999999999586e+00 8.563925000000000010e-01 -8.331055253727197296e-02
5.874499999999999744e+01 4.377900000000000347e+01 -3.225299999999999834e+00 -9.737712000000000145e+00 -5.365913031888398799e-02
5.874600000000000222e+01 5.817600000000000193e+01 6.139800000000000146e+00 1.818326000000000064e+01 -1.471486273593528571e-01
5.875000000000000000e+01 6.172299999999999898e+01 -2.398100000000000165e+01 2.829667000000000154e+00 1.423060910410748059e-01
5.875399999999999778e+01 7.858599999999999852e+01 -4.048000000000000043e+00 9.067427999999999599e+00 -2.460387350819952523e-01
5.875399999999999778e+01 4.920900000000000318e+01 -2.023400000000000176e+01 2.236796000000000006e+01 -1.306824278714051879e-01
5.875600000000000023e+01 7.345600000000000307e+01 -1.811099999999999932e+00 -2.679975999999999914e+00 -2.494752359891529991e-01
5.875900000000000034e+01 4.842199999999999704e+01 -2.354700000000000060e+01 4.084592999999999918e+00 -1.221627271131783959e-01
5.876800000000000068e+01 6.848699999999999477e+01 -1.347199999999999953e+01 -1.680990999999999902e+00 -2.477856526606493082e-01
5.877600000000000335e+01 6.682200000000000273e+01 -8.677500000000000213e-01 1.219990999999999914e+01 -2.581614052816413318e-01
5.877700000000000102e+01 5.317799999999999727e+01 -2.723600000000000065e+01 -2.211476999999999915e+00 -1.196291534116419031e-01
5.877700000000000102e+01 5.317799999999999727e+01 -2.571600000000000108e+01 -3.949749999999999872e+00 -1.210524835424313245e-01
5.877700000000000102e+01 5.411800000000000210e+01 -2.723600000000000065e+01 -6.254525000000000112e+00 -1.200778705739287827e-01
5.877700000000000102e+01 5.411800000000000210e+01 -2.571600000000000108e+01 -1.214315000000000033e+01 -1.214063900493115578e-01
5.878000000000000114e+01 6.690699999999999648e+01 -1.881800000000000139e+01 -1.130054999999999943e+01 -1.795066479332192988e-01
5.878199999999999648e+01 5.603099999999999881e+01 -1.820299999999999940e+01 -1.315004000000000062e+01 1.482830467165749400e-01
5.879800000000000182e+01 6.683499999999999375e+01 -1.791000000000000014e+01 -9.035273000000000110e+00 -1.931513987259199649e-01
5.880100000000000193e+01 4.948400000000000176e+01 -2.527600000000000069e+00 -9.642001999999999740e+00 -2.583111763447801801e-01
5.880199999999999960e+01 3.852000000000000313e+01 -6.394700000000000273e+00 1.965153000000000105e+01 1.319915515537977979e-01
5.880400000000000205e+01 7.581499999999999773e+01 -8.979200000000000514e+00 -7.637880000000000003e+00 -2.457489893041964746e-01
5.881400000000000006e+01 7.362099999999999511e+01 7.900000000000000355e-01 5.051468000000000069e-01 -2.509706028896516172e-01
5.881400000000000006e+01 7.467100000000000648e+01 7.900000000000000355e-01 1.170574000000000003e+00 -2.500428038167635814e-01
5.882200000000000273e+01 5.617099999999999937e+01 5.451900000000000190e+00 -4.139046999999999699e+00 -1.431724427353993079e-01
5.883100000000000307e+01 6.103199999999999648e+01 4.063500000000000334e+00 -1.503667000000000087e+01 -1.588603506230648055e-01
5.883299999999999841e+01 5.862800000000000011e+01 -1.930799999999999983e+01 1.092200000000000060e+01 1.453763951793169140e-01
5.883299999999999841e+01 6.710699999999999932e+01 -1.595599999999999952e+01 5.795537999999999634e+00 -2.479323803927468428e-01
5.883299999999999841e+01 6.710699999999999932e+01 -1.509099999999999930e+01 1.232695000000000007e+01 -2.481291662509283180e-01
5.883599999999999852e+01 7.954200000000000159e+01 -4.136599999999999611e+00 1.298079000000000072e+01 -2.458617006841672947e-01
5.883700000000000330e+01 4.276599999999999824e+01 -1.550000000000000000e+01 5.293505999999999823e+00 1.500499816214053150e-01
5.884300000000000352e+01 6.058899999999999864e+01 -2.455999999999999872e+01 -8.017634999999999623e-01 1.429802567775367295e-01
5.884599999999999653e+01 6.205199999999999960e+01 -2.356800000000000139e+01 2.898514000000000035e+00 1.423981133777991182e-01
5.885499999999999687e+01 3.789399999999999835e+01 -1.037500000000000000e+01 6.017066999999999943e+00 8.928882924269669619e-02
5.885699999999999932e+01 6.732099999999999795e+01 2.228299999999999947e+00 9.785911000000000470e+00 -2.584627510413665119e-01
5.885900000000000176e+01 4.534799999999999898e+01 -3.145500000000000185e+00 -1.351825000000000010e+01 1.297963640415549236e-01
5.885900000000000176e+01 4.621399999999999864e+01 -3.145500000000000185e+00 -8.163864000000000232e+00 -8.089733519649167093e-02
5.886399999999999721e+01 4.268200000000000216e+01 -2.536199999999999832e+01 8.498336999999999364e+00 -1.730778071466666235e-01
5.886399999999999721e+01 4.268200000000000216e+01 -2.285399999999999920e+01 5.287349999999999994e+01 -1.901139707099208098e-01
5.886399999999999721e+01 4.423199999999999932e+01 -2.536199999999999832e+01 2.032721000000000089e+01 -1.805553425148666846e-01
5.886500000000000199e+01 6.902200000000000557e+01 1.877399999999999902e-01 6.088265999999999956e-01 -2.567165130158138853e-01
5.886800000000000210e+01 4.257500000000000284e+01 -1.711700000000000088e+01 1.172766999999999982e+01 1.435235109845600099e-01
5.886800000000000210e+01 4.257500000000000284e+01 -1.615899999999999892e+01 1.294888000000000083e+01 1.458694736158828165e-01
5.887500000000000000e+01 4.177400000000000091e+01 -1.330400000000000027e+01 -1.011557000000000039e+00 1.300988058643111622e-01
5.887700000000000244e+01 4.807300000000000040e+01 -2.577799999999999869e+00 -1.260300999999999938e+01 -1.812431731327835416e-01
5.888199999999999790e+01 7.654900000000000659e+01 -8.327700000000000102e+00 -1.203505000000000003e+01 -2.457374989385444908e-01
5.888199999999999790e+01 7.806399999999999295e+01 -8.211999999999999744e+00 1.186587999999999948e-01 -2.453976187137438814e-01
5.889600000000000080e+01 5.764099999999999824e+01 -1.826899999999999835e+01 -1.054307000000000016e+01 1.466100399067651883e-01
5.889999999999999858e+01 4.423299999999999699e+01 -2.178200000000000003e+01 1.981341000000000108e+01 -1.258102258059871081e-01
5.890100000000000335e+01 5.911800000000000210e+01 -2.359799999999999898e+01 -1.188949000000000034e+00 1.442790413042240594e-01
5.890500000000000114e+01 7.715099999999999625e+01 -3.549300000000000122e+00 -4.513544999999999918e-01 -2.467965501859848698e-01
5.891299999999999670e+01 6.374900000000000233e+01 -4.709500000000000242e+00 3.618409999999999682e-02 -2.581130321477606016e-01
5.891299999999999670e+01 6.475700000000000500e+01 -8.144900000000000473e-01 1.308043999999999940e+01 -2.598513043652893595e-01
5.891499999999999915e+01 7.165300000000000580e+01 -1.290799999999999947e+01 -3.856816999999999940e+00 -2.466201979712537573e-01
5.891899999999999693e+01 6.001700000000000301e+01 -2.148199999999999932e+01 9.800744999999999596e-01 1.441884110784542594e-01
5.891899999999999693e+01 6.001700000000000301e+01 -2.061700000000000088e+01 2.071305999999999869e+00 1.443197580707086813e-01
5.892300000000000182e+01 6.596899999999999409e+01 3.120600000000000041e+00 6.992537999999999698e+00 -2.599085621697592163e-01
5.892399999999999949e+01 7.075499999999999545e+01 -8.070000000000000506e-01 -9.166064999999999685e+00 -2.532067890160973334e-01
5.892600000000000193e+01 6.551000000000000512e+01 -5.837600000000000122e+00 -8.556692999999999216e+00 -2.552833059099225421e-01
5.892600000000000193e+01 4.021600000000000108e+01 -6.311600000000000321e+00 1.874664999999999893e+01 1.234218478977594097e-01
5.892699999999999960e+01 8.111499999999999488e+01 -4.703000000000000291e+00 2.999542999999999893e+01 -2.455251696642178350e-01
5.893399999999999750e+01 5.016700000000000159e+01 -1.556599999999999984e+00 9.778347000000000122e+00 -2.594223109266693417e-01
5.893399999999999750e+01 5.016700000000000159e+01 -6.913300000000000001e-01 1.133831999999999951e+01 -2.594310001279606093e-01
5.893399999999999750e+01 5.016700000000000159e+01 3.593299999999999828e-01 1.352579000000000065e+01 -2.594230830099142904e-01
5.893599999999999994e+01 4.432300000000000040e+01 -1.894900000000000162e+01 1.176309999999999967e+00 1.543014416258746135e-01
5.893699999999999761e+01 5.188600000000000279e+01 1.756000000000000005e+00 -5.391251999999999711e+00 -1.513159695834552787e-01
5.895100000000000051e+01 5.569299999999999784e+01 5.261499999999999844e+00 -1.287481999999999971e+01 -1.431595421061741813e-01
5.895199999999999818e+01 7.524800000000000466e+01 -1.182199999999999918e+01 2.684487999999999985e+00 -2.456356284678479773e-01
5.895300000000000296e+01 6.384400000000000119e+01 4.328000000000000291e+00 2.102190999999999832e+01 -2.623110280935349037e-01
5.895300000000000296e+01 7.957899999999999352e+01 -8.327700000000000102e+00 4.288109999999999644e+00 -2.451738946156070964e-01
5.895600000000000307e+01 6.948300000000000409e+01 -3.943300000000000277e-02 -2.242881000000000125e+00 -2.558115633794927346e-01
5.895600000000000307e+01 8.137800000000000011e+01 -8.295299999999999230e+00 1.069242999999999988e+01 -2.449587534853369386e-01
5.896099999999999852e+01 7.497400000000000375e+01 -1.273399999999999999e+01 2.244514000000000120e+00 -2.456209559794547137e-01
5.896900000000000119e+01 7.040000000000000568e+01 -7.321600000000000330e-02 -5.045538999999999774e+00 -2.543830296462909479e-01
5.897599999999999909e+01 7.337500000000000000e+01 -1.362500000000000000e+01 -3.220013999999999932e-01 -2.459894074190202562e-01
5.898100000000000165e+01 5.926200000000000045e+01 -2.254500000000000171e+01 5.768606999999999901e-02 1.446717426395627282e-01
5.898100000000000165e+01 6.201200000000000045e+01 -2.254500000000000171e+01 1.951608999999999927e+00 1.428535934925818651e-01
5.898100000000000165e+01 5.084899999999999665e+01 -1.929599999999999937e+01 -1.311700000000000088e+00 1.589004738764749902e-01
5.898100000000000165e+01 5.211299999999999955e+01 -1.962600000000000122e+01 -3.771498999999999935e+00 1.555003656773161214e-01
5.898599999999999710e+01 6.292099999999999937e+01 -3.851399999999999935e+00 3.108296999999999866e+00 -2.590389735082135880e-01
5.898599999999999710e+01 6.292099999999999937e+01 -2.986099999999999977e+00 4.696063999999999794e+00 -2.596624399110253334e-01
5.898700000000000188e+01 5.441199999999999903e+01 2.624299999999999855e+00 8.030469000000000079e+00 -1.492270425185011629e-01
5.899799999999999756e+01 4.674799999999999756e+01 -3.229699999999999793e+00 -1.411809000000000047e+01 -8.027446705574362018e-02
5.901299999999999812e+01 6.806900000000000261e+01 -4.758799999999999919e+00 -1.558535000000000004e+00 -2.532409957153968771e-01
5.901299999999999812e+01 6.806900000000000261e+01 -3.893499999999999961e+00 -1.984245999999999954e+00 -2.540784672598657146e-01
5.901800000000000068e+01 6.531999999999999318e+01 3.646100000000000119e+00 -3.292063000000000073e-01 -2.605866632605880473e-01
5.902600000000000335e+01 7.531199999999999761e+01 -1.066300000000000026e+01 -2.761426000000000158e+00 -2.458329227732067024e-01
5.903000000000000114e+01 8.309600000000000364e+01 -6.706999999999999851e+00 1.673940000000000055e+02 -2.450586294331048021e-01
5.903000000000000114e+01 8.309600000000000364e+01 -5.748999999999999666e+00 4.062257999999999925e+01 -2.451927483282002052e-01
5.903300000000000125e+01 4.884400000000000119e+01 -2.112199999999999989e+01 1.658029000000000153e+01 -1.276713751413850184e-01
5.903499999999999659e+01 4.330899999999999750e+01 -4.924699999999999633e+00 -1.130001999999999995e+01 1.311659448739774247e-01
5.903499999999999659e+01 4.330899999999999750e+01 -3.985300000000000065e+00 -1.280743000000000009e+01 1.269925473519824821e-01
5.903699999999999903e+01 5.502199999999999847e+01 -1.903800000000000026e+01 4.420383000000000173e+00 1.506721917768183705e-01
5.904299999999999926e+01 7.600300000000000011e+01 -2.727899999999999991e+00 -2.569318000000000168e+01 -2.477456327112751155e-01
5.905299999999999727e+01 4.539099999999999824e+01 -2.417299999999999827e+01 1.825664000000000087e+01 -1.166486993546887174e-01
5.906000000000000227e+01 5.279800000000000182e+01 1.831900000000000084e+00 1.827809999999999846e+01 -1.510281892857833208e-01
5.906000000000000227e+01 6.109499999999999886e+01 9.987999999999999545e+00 2.665138999999999925e+00 -2.624772284046742454e-01
5.906199999999999761e+01 6.121900000000000119e+01 -2.479599999999999937e+01 -7.129027999999999476e-01 1.430267979660527766e-01
5.906199999999999761e+01 6.515900000000000603e+01 -2.043599999999999994e+01 -1.670635000000000092e+00 -4.154224169489498242e-02
5.906499999999999773e+01 4.296900000000000119e+01 -1.795400000000000063e+01 2.082533000000000190e+00 1.482321965896204186e-01
5.907099999999999795e+01 7.538200000000000500e+01 -9.679199999999999804e+00 -1.274592999999999954e+01 -2.460121862992476205e-01
5.907200000000000273e+01 5.541599999999999682e+01 4.206400000000000361e+00 -6.324131999999999643e+00 -1.457298576298249881e-01
5.907399999999999807e+01 4.453900000000000148e+01 -3.161999999999999922e+00 -2.606505999999999901e+01 1.267260731204678526e-01
5.908100000000000307e+01 4.744700000000000273e+01 -3.141000000000000014e+00 -1.554836000000000062e+01 -7.973927956365510494e-02
5.908200000000000074e+01 8.187500000000000000e+01 -4.802999999999999936e+00 5.134830999999999790e+01 -2.455220426566190883e-01
5.908400000000000318e+01 6.846699999999999875e+01 9.313799999999999857e-01 1.211345000000000027e+01 -2.572539044140593756e-01
5.908800000000000097e+01 6.380899999999999750e+01 -1.971099999999999852e+01 -1.761865000000000014e+00 1.420190994565458942e-01
5.909100000000000108e+01 6.730899999999999750e+01 -1.867699999999999960e+01 -1.398298999999999959e+00 -1.932638377684154085e-01
5.909100000000000108e+01 6.730899999999999750e+01 -1.714300000000000068e+01 4.956532000000000160e+00 -1.930168338342449774e-01
5.909199999999999875e+01 3.761299999999999955e+01 -8.002399999999999736e+00 1.637545000000000073e+01 -9.685025108442449349e-02
5.909400000000000119e+01 4.687299999999999756e+01 -2.341300000000000026e+01 1.176833000000000062e+01 -1.204011815496616178e-01
5.909899999999999665e+01 6.060000000000000142e+01 4.763499999999999623e+00 4.714921000000000362e+00 -1.566455052190209307e-01
5.910099999999999909e+01 6.754000000000000625e+01 -1.439100000000000001e+01 5.018042999999999587e+00 -2.483318801091264072e-01
5.910199999999999676e+01 5.147699999999999676e+01 1.310300000000000020e+00 1.009900999999999982e+01 -1.524890855331468287e-01
5.910300000000000153e+01 3.992099999999999937e+01 -1.066600000000000037e+01 1.988492000000000104e+01 9.582801848482339069e-02
5.911800000000000210e+01 4.301899999999999835e+01 -1.484500000000000064e+01 4.053143000000000384e+00 1.591775930122960869e-01
5.911800000000000210e+01 4.301899999999999835e+01 -1.398000000000000043e+01 -1.025047999999999931e-01 1.584502428035091115e-01
5.911800000000000210e+01 6.229800000000000182e+01 -1.968499999999999872e+01 -1.064222999999999963e+01 1.430324407213265370e-01
5.911999999999999744e+01 6.254599999999999937e+01 -2.386599999999999966e+01 1.444679999999999964e+01 1.426132849911944667e-01
5.912599999999999767e+01 6.757999999999999829e+01 -1.791000000000000014e+01 5.470246999999999638e+00 -1.930039504861179589e-01
5.912700000000000244e+01 3.799499999999999744e+01 -7.244699999999999918e+00 7.805997999999999770e+00 1.306112691069393483e-01
5.912700000000000244e+01 4.074499999999999744e+01 -7.244699999999999918e+00 4.900195999999999685e+01 -5.426279709504405746e-02
5.913000000000000256e+01 4.210399999999999920e+01 -8.066700000000000870e+00 5.955271999999999899e+00 1.098008602890991892e-01
5.913300000000000267e+01 6.234199999999999875e+01 -2.298000000000000043e+01 7.336148999999999809e+00 1.429000515423305695e-01
5.913300000000000267e+01 7.166100000000000136e+01 -2.149700000000000166e+00 -4.872024999999999828e+00 -2.513938173798331843e-01
5.913499999999999801e+01 6.173199999999999932e+01 4.005200000000000315e+00 -1.744359000000000037e+01 -1.600950935231796601e-01
5.914099999999999824e+01 5.975099999999999767e+01 -2.450300000000000011e+01 1.178921000000000108e+00 1.441489732232032472e-01
5.914800000000000324e+01 4.889200000000000301e+01 -2.211700000000000088e+01 -1.996250999999999998e+00 -1.247098730100399122e-01
5.915100000000000335e+01 3.741499999999999915e+01 -9.599999999999999645e+00 9.954774000000000456e+00 -9.508520772173245650e-02
5.915100000000000335e+01 3.741499999999999915e+01 -8.641999999999999460e+00 1.400375999999999976e+01 -9.603658847020028755e-02
5.915899999999999892e+01 5.343200000000000216e+01 -1.969800000000000040e+01 -7.121241999999999628e+00 1.537171179336413174e-01
5.915899999999999892e+01 7.083899999999999864e+01 -1.275600000000000023e+01 -5.376269999999999882e+00 -2.472136106509079667e-01
5.915999999999999659e+01 4.257999999999999829e+01 -1.326699999999999946e+01 -6.624378000000000100e+00 1.501420208954969693e-01
5.916199999999999903e+01 6.917900000000000205e+01 -1.296199999999999974e+01 -2.345590000000000064e+00 -2.479469087809703376e-01
5.916400000000000148e+01 4.360300000000000153e+01 -5.924299999999999677e+00 3.030846999999999847e-01 -8.189732187649526041e-02
5.916700000000000159e+01 4.379800000000000182e+01 -2.201999999999999957e+01 2.349411999999999878e+01 -1.223324152912865503e-01
5.916799999999999926e+01 4.466599999999999682e+01 -2.108200000000000074e+01 1.097564000000000028e+01 -1.285883715883772427e-01
5.916799999999999926e+01 4.466599999999999682e+01 -2.021600000000000108e+01 3.820088999999999846e+00 -1.343291785365056945e-01
5.917099999999999937e+01 3.936999999999999744e+01 -6.323900000000000077e+00 1.627847999999999828e+01 1.204932978321835851e-01
5.918699999999999761e+01 4.970000000000000284e+01 -1.983699999999999974e+01 3.783113000000000170e+00 1.593100899270071813e-01
5.918800000000000239e+01 7.275600000000000023e+01 -2.078500000000000014e+00 -2.906102999999999881e+00 -2.504570982263664702e-01
5.919100000000000250e+01 6.217699999999999960e+01 -2.471600000000000108e+01 1.658647999999999900e+00 1.427771019261617480e-01
5.919100000000000250e+01 3.866899999999999693e+01 -1.043999999999999950e+01 9.172613000000000127e+00 6.229445250654407074e-02
5.919100000000000250e+01 7.135800000000000409e+01 -1.449699999999999989e+00 -1.180756000000000050e+01 -2.523032093954663546e-01
5.919200000000000017e+01 4.918399999999999750e+01 -2.314399999999999835e+01 -7.078100000000000058e+00 -1.223121891871268990e-01
5.919500000000000028e+01 5.894599999999999795e+01 -2.418599999999999994e+01 -7.759089000000000125e-01 1.449292539956034132e-01
5.919599999999999795e+01 7.274399999999999977e+01 -6.182199999999999918e-01 -3.365597999999999868e+00 -2.514043616818887883e-01
5.919800000000000040e+01 6.197500000000000142e+01 9.935200000000000031e+00 8.204511000000000109e+00 -2.630100270485913883e-01
5.920499999999999829e+01 7.122400000000000375e+01 -1.902899999999999869e-01 -2.478575999999999979e+01 -2.534536420826395964e-01
5.920799999999999841e+01 5.364800000000000324e+01 -2.776899999999999835e+01 -2.774166000000000132e+00 -1.189472133791357883e-01
5.920799999999999841e+01 5.364800000000000324e+01 -2.518299999999999983e+01 -1.875009000000000015e+01 -1.212222533488291204e-01
5.920799999999999841e+01 7.785099999999999909e+01 -3.607600000000000140e+00 4.995461999999999847e+00 -2.468353493466028947e-01
5.921200000000000330e+01 6.163799999999999812e+01 -2.167999999999999972e+01 8.274400999999999229e+00 1.436646928617320573e-01
5.921200000000000330e+01 6.163799999999999812e+01 -2.081500000000000128e+01 2.068786999999999932e+00 1.437029933023074579e-01
5.921500000000000341e+01 5.673100000000000165e+01 -1.793599999999999994e+01 -1.859065999999999974e+01 1.488853005030691956e-01
5.922099999999999653e+01 7.273900000000000432e+01 5.461099999999999843e-01 5.588435999999999959e-01 -2.522122984078868368e-01
5.922500000000000142e+01 5.931099999999999994e+01 6.269899999999999807e+00 1.614317000000000135e+01 -1.510669475027705266e-01
5.922899999999999920e+01 6.232800000000000296e+01 1.082199999999999918e+01 9.730795999999999779e+00 -2.610457179803941097e-01
5.923400000000000176e+01 4.878399999999999892e+01 -2.794900000000000162e+00 -3.336057000000000050e-01 -1.794441688713128702e-01
5.923400000000000176e+01 4.997500000000000142e+01 -2.130999999999999783e+00 1.615275999999999934e+00 -2.593554952717653239e-01
5.923400000000000176e+01 6.156300000000000239e+01 1.085999999999999943e+01 9.776429000000000258e+00 -2.605742897690765392e-01
5.923499999999999943e+01 4.364600000000000080e+01 -7.017000000000000348e+00 -3.193563999999999847e+00 -8.080631854598405162e-02
5.923799999999999955e+01 6.030299999999999727e+01 6.212399999999999700e+00 8.557867999999999142e+00 -1.539501501246002269e-01
5.924000000000000199e+01 6.137299999999999756e+01 8.481999999999999318e+00 7.595692999999999806e+00 -2.667143962389040279e-01
5.924099999999999966e+01 6.614100000000000534e+01 -5.915899999999999492e-01 5.058156000000000319e+00 -2.586938622386479869e-01
5.924399999999999977e+01 6.769499999999999318e+01 -3.029300000000000104e+00 -2.522383000000000042e+00 -2.558084474953618570e-01
5.924399999999999977e+01 6.053900000000000148e+01 9.177699999999999747e+00 5.252413999999999916e+00 -2.644360318721076242e-01
5.924399999999999977e+01 6.165100000000000335e+01 9.177699999999999747e+00 8.270065000000000666e+00 -2.648719915622964050e-01
5.924699999999999989e+01 7.306000000000000227e+01 -1.378500000000000059e+00 -3.163625999999999827e+00 -2.506845208298817407e-01
5.924699999999999989e+01 5.241799999999999926e+01 -2.694600000000000151e+01 -2.291958000000000162e+00 -1.188464288082539122e-01
5.924699999999999989e+01 5.241799999999999926e+01 -2.600600000000000023e+01 -5.144584000000000046e+00 -1.197426370636189563e-01
5.924699999999999989e+01 5.487800000000000011e+01 -2.694600000000000151e+01 2.106438999999999950e+00 -1.201242190863823084e-01
5.924699999999999989e+01 5.487800000000000011e+01 -2.600600000000000023e+01 -5.320838000000000179e+00 -1.208804667645719533e-01
5.924900000000000233e+01 5.732500000000000284e+01 5.869799999999999685e+00 5.519449000000000183e+01 -1.460833204463962420e-01
5.925300000000000011e+01 6.335399999999999920e+01 -4.551400000000000112e+00 6.988812000000000246e+00 -2.583068330309533644e-01
5.925300000000000011e+01 6.335399999999999920e+01 -2.286099999999999799e+00 9.335905000000000342e+00 -2.597923820902202641e-01
5.925500000000000256e+01 4.578099999999999881e+01 -3.636400000000000077e+00 -7.709547999999999845e+00 -8.047714385069471010e-02
5.927900000000000347e+01 6.585999999999999943e+01 -3.343800000000000239e+01 8.007479999999999265e+00 -1.205805396663876816e-01
5.928000000000000114e+01 6.468099999999999739e+01 -5.403500000000000192e+00 -3.261233999999999966e+00 -2.572624626875704701e-01
5.928000000000000114e+01 6.763700000000000045e+01 -5.458800000000000097e+00 -2.966010999999999953e+00 -2.534435888396106007e-01
5.928000000000000114e+01 4.272599999999999909e+01 -7.910599999999999632e+00 1.942425000000000068e+00 -8.153278306688202526e-02
5.928300000000000125e+01 4.131700000000000017e+01 -8.164600000000000080e+00 2.262285999999999930e+01 1.084983088462931899e-01
5.928900000000000148e+01 4.484899999999999665e+01 -2.498900000000000077e+01 8.160997999999999308e+00 -1.128464322860152774e-01
5.929299999999999926e+01 6.789100000000000534e+01 -1.395299999999999940e+01 6.261910000000000531e-01 -2.484475626843627438e-01
5.929500000000000171e+01 7.414600000000000080e+01 1.386100000000000110e+00 1.314779999999999985e-03 -2.514008588084640228e-01
5.930599999999999739e+01 7.557399999999999807e+01 -1.692199999999999926e+00 -1.873056000000000054e+01 -2.487172409467433842e-01
5.931400000000000006e+01 6.020100000000000051e+01 9.987999999999999545e+00 7.812382999999999633e+00 -2.619673359174586325e-01
5.931499999999999773e+01 4.125200000000000244e+01 -1.276500000000000057e+01 5.053495000000000070e-01 3.684895216554744807e-02
5.932300000000000040e+01 6.759900000000000375e+01 -2.020999999999999908e+00 -3.063562999999999814e+00 -2.571332499875120803e-01
5.932300000000000040e+01 6.733199999999999363e+01 -1.285199999999999898e+00 3.985980000000000079e+00 -2.575444101179523715e-01
5.932500000000000284e+01 8.052800000000000580e+01 -8.366099999999999426e+00 7.122688999999999826e-01 -2.453293335040653833e-01
5.933100000000000307e+01 5.994599999999999795e+01 -2.508999999999999986e+01 -1.180317999999999978e+00 1.442540922240527768e-01
5.933100000000000307e+01 6.081099999999999994e+01 -2.508999999999999986e+01 -1.329545999999999895e+00 1.437221619078136448e-01
5.933899999999999864e+01 7.552100000000000080e+01 -5.853300000000000169e-01 -4.006320999999999799e+00 -2.493060691714888422e-01
5.933899999999999864e+01 7.552100000000000080e+01 4.653300000000000214e-01 1.200862000000000052e+01 -2.498237404393993111e-01
5.934300000000000352e+01 4.190699999999999648e+01 -2.410800000000000054e+01 3.197335999999999956e+00 -1.731225173553083141e-01
5.934300000000000352e+01 4.213799999999999812e+01 -2.492299999999999827e+01 2.599840000000000018e+01 -1.702654055885423623e-01
5.934300000000000352e+01 4.213799999999999812e+01 -2.329299999999999926e+01 2.177841000000000093e+01 -1.810207998220393633e-01
5.934300000000000352e+01 4.345700000000000074e+01 -2.565800000000000125e+01 6.585300000000000153e+00 -1.748746424221594986e-01
5.934499999999999886e+01 6.426600000000000534e+01 -1.211100000000000065e+00 1.048076000000000008e+01 -2.598110177253245556e-01
5.934499999999999886e+01 6.545699999999999363e+01 -5.471200000000000507e-01 7.787179000000000073e+00 -2.592231992562475940e-01
5.935199999999999676e+01 6.040999999999999659e+01 8.491899999999999338e+00 4.635627999999999638e+00 -2.663037041029118757e-01
5.935399999999999920e+01 6.713400000000000034e+01 -1.938899999999999935e+01 -2.382896000000000125e+00 -3.345834043833863236e-02
5.935399999999999920e+01 6.618600000000000705e+01 -2.048000000000000043e+01 -1.393626000000000031e+00 -3.852466018174130480e-02
5.935499999999999687e+01 6.424200000000000443e+01 -2.041100000000000136e+01 -8.792248000000000285e-01 1.422570281239696477e-01
5.935900000000000176e+01 6.620999999999999375e+01 -6.105000000000000426e+00 -6.077761999999999887e+00 -2.546078379265336866e-01
5.935999999999999943e+01 8.041500000000000625e+01 -4.435599999999999987e+00 1.772052000000000049e+01 -2.460663373200190074e-01
5.936800000000000210e+01 4.362299999999999756e+01 -1.868199999999999861e+01 1.919065000000000021e+00 1.539987392428656121e-01
5.936800000000000210e+01 4.302799999999999869e+01 -2.225700000000000145e+01 2.638569000000000031e+01 -1.181112535580812334e-01
5.936999999999999744e+01 6.905500000000000682e+01 6.530000000000000249e-01 -6.034822000000000131e+00 -2.567499593527468593e-01
5.936999999999999744e+01 6.992000000000000171e+01 6.530000000000000249e-01 -1.224192000000000036e+01 -2.561671714113708531e-01
5.936999999999999744e+01 7.085999999999999943e+01 6.530000000000000249e-01 -1.511148999999999987e+01 -2.548196734915196826e-01
5.937299999999999756e+01 5.409199999999999875e+01 -3.062199999999999989e+01 -1.015522000000000036e+00 -1.173756012884820954e-01
5.937400000000000233e+01 8.193899999999999295e+01 -7.573999999999999844e+00 1.464076000000000022e+01 -2.452971927215052417e-01
5.937800000000000011e+01 5.128199999999999648e+01 -1.978699999999999903e+01 -7.435938000000000159e+00 1.585687113887820632e-01
5.938000000000000256e+01 5.557699999999999818e+01 -1.838500000000000156e+01 -1.190485999999999933e+01 1.513436915816465944e-01
5.938499999999999801e+01 6.057000000000000028e+01 1.083799999999999919e+01 5.558485000000000120e+00 -2.600806222068275941e-01
5.938499999999999801e+01 6.186500000000000199e+01 -2.038500000000000156e+01 4.700883000000000145e-01 1.438953064944108740e-01
5.938600000000000279e+01 7.605800000000000693e+01 -8.724299999999999500e+00 -1.440743999999999936e+01 -2.462835587928828840e-01
5.938600000000000279e+01 7.724899999999999523e+01 -8.060299999999999798e+00 -3.108794000000000057e+00 -2.460723883688591962e-01
5.939200000000000301e+01 6.086899999999999977e+01 7.667099999999999582e+00 4.884265000000000079e+00 -2.687524708998107470e-01
5.939600000000000080e+01 4.032500000000000284e+01 -1.001099999999999923e+01 2.894818000000000069e+01 9.561119066015566492e-02
5.940299999999999869e+01 6.006099999999999994e+01 7.687000000000000277e+00 4.395224999999999937e+00 -2.684459613837152925e-01
5.940999999999999659e+01 5.961999999999999744e+01 -2.105000000000000071e+01 5.381455000000000544e-01 1.458136839966173159e-01
5.941299999999999670e+01 7.199500000000000455e+01 -5.579300000000000370e-01 -6.965473000000000248e+00 -2.525032603134643727e-01
5.941700000000000159e+01 6.540699999999999648e+01 -2.995100000000000051e+01 -3.051823999999999870e+00 -5.327268245742923514e-02
5.942000000000000171e+01 5.490299999999999869e+01 3.020900000000000141e+00 -2.101443000000000172e+00 -1.489842272920319510e-01
5.942099999999999937e+01 6.299799999999999756e+01 -1.962699999999999889e+01 -3.408204000000000011e+00 1.431380441643310686e-01
5.942699999999999960e+01 4.392600000000000193e+01 -1.938200000000000145e+01 1.613817000000000057e+00 -1.408477675891345871e-01
5.942699999999999960e+01 7.007999999999999829e+01 -1.279100000000000037e+01 -5.456771999999999956e+00 -2.478012687478032272e-01
5.943500000000000227e+01 4.627499999999999858e+01 -3.745600000000000041e+00 -7.709547999999999845e+00 -7.976609615680643750e-02
5.944400000000000261e+01 5.449099999999999966e+01 -2.777299999999999969e+01 -8.260954999999999826e-01 -1.191316426049347232e-01
5.944599999999999795e+01 7.392600000000000193e+01 -1.383000000000000007e+01 4.253069999999999906e-01 -2.461984488859918496e-01
5.945000000000000284e+01 4.344200000000000017e+01 -1.394100000000000072e+01 -4.501601000000000075e-01 1.692653055232049841e-01
5.945400000000000063e+01 4.926700000000000301e+01 -2.053699999999999903e+01 5.069986000000000104e+00 -1.279307296764849444e-01
5.945600000000000307e+01 7.232399999999999807e+01 -1.378500000000000059e+00 -6.254341000000000150e+00 -2.516402503094780641e-01
5.945600000000000307e+01 5.860499999999999687e+01 -2.313500000000000156e+01 -4.762790000000000079e-01 1.462358612404384695e-01
5.945600000000000307e+01 5.236500000000000199e+01 1.340999999999999970e+00 2.056929999999999925e+00 -1.523851113830413939e-01
5.945700000000000074e+01 6.302900000000000347e+01 4.176300000000000345e+00 1.225163000000000046e+01 -1.617913642859140355e-01
5.945900000000000318e+01 7.987800000000000011e+01 -3.994200000000000195e+00 1.058505000000000074e+01 -2.463737237208056263e-01
5.945900000000000318e+01 5.101700000000000301e+01 6.840000000000000524e-01 1.451567000000000007e+01 -1.539258167281531142e-01
5.946000000000000085e+01 6.314300000000000068e+01 1.082199999999999918e+01 9.586479999999999890e+00 -2.614278152307586978e-01
5.946999999999999886e+01 5.364200000000000301e+01 2.183199999999999807e+00 2.395176000000000016e+01 -1.505400712563509380e-01
5.947099999999999653e+01 5.282999999999999829e+01 -2.517000000000000171e+01 -6.540835999999999650e+00 -1.205215599493871109e-01
5.947200000000000131e+01 7.563899999999999579e+01 -1.121499999999999986e+01 2.683424000000000031e+00 -2.460609375682529243e-01
5.947599999999999909e+01 7.649399999999999977e+01 -3.124499999999999833e+00 -1.884916000000000125e+01 -2.478196057277758102e-01
5.947599999999999909e+01 5.440699999999999648e+01 -2.514799999999999969e+01 -1.205971000000000082e+01 -1.212099729438708140e-01
5.947800000000000153e+01 4.701400000000000290e+01 -3.632000000000000117e+00 8.206789000000000445e-02 -7.925404867572614920e-02
5.947800000000000153e+01 6.469400000000000261e+01 4.003300000000000303e+00 1.357285000000000075e+01 -2.609040828881746821e-01
5.949000000000000199e+01 7.530100000000000193e+01 -1.290900000000000070e+01 2.131918000000000202e+00 -2.459596485139456945e-01
5.949099999999999966e+01 5.039999999999999858e+01 -1.977899999999999991e+01 -3.194749999999999979e+00 1.596320790616683749e-01
5.949099999999999966e+01 5.493900000000000006e+01 -3.062199999999999989e+01 -1.283093999999999957e+00 -1.177413849723550066e-01
5.949300000000000210e+01 5.974300000000000210e+01 6.969899999999999984e+00 5.127870999999999846e+00 -2.702227507889338187e-01
5.949300000000000210e+01 6.075099999999999767e+01 6.969899999999999984e+00 4.853252999999999595e+00 -2.704770641943645137e-01
5.949399999999999977e+01 6.226700000000000301e+01 8.481999999999999318e+00 9.432854000000000738e+00 -2.666355090534310301e-01
5.950000000000000000e+01 7.250199999999999534e+01 -1.332600000000000051e+01 4.590380000000000016e-01 -2.467625729922254263e-01
5.950200000000000244e+01 4.321399999999999864e+01 -7.716999999999999638e+00 -6.796931000000000500e-02 -7.992625100469206989e-02
5.950500000000000256e+01 4.406900000000000261e+01 -3.694999999999999840e+00 -1.355728000000000044e+01 1.236776799067828697e-01
5.950500000000000256e+01 4.500900000000000034e+01 -3.694999999999999840e+00 -4.211142000000000252e+01 1.260136118819032425e-01
5.950800000000000267e+01 4.313799999999999812e+01 -1.324099999999999966e+01 -1.009800000000000075e+01 1.638797424445040951e-01
5.950900000000000034e+01 5.519200000000000017e+01 -3.016300000000000026e+01 -1.037441999999999975e+00 -1.180667052182642340e-01
5.950900000000000034e+01 8.232099999999999795e+01 -7.003000000000000114e+00 1.744988999999999990e+01 -2.454301147890284029e-01
5.950900000000000034e+01 8.232099999999999795e+01 -5.453000000000000291e+00 2.532967999999999904e+02 -2.456711238448006929e-01
5.950999999999999801e+01 6.504500000000000171e+01 -3.343800000000000239e+01 1.680449000000000082e+00 -1.203185100998952206e-01
5.950999999999999801e+01 6.667499999999999716e+01 -3.343800000000000239e+01 2.009536999999999907e+00 -1.206571328464746962e-01
5.951299999999999812e+01 4.077199999999999847e+01 -1.185500000000000043e+01 3.031716999999999995e+00 3.279483697728914626e-02
5.951400000000000290e+01 4.814699999999999847e+01 -2.873699999999999921e+00 3.649335999999999913e+00 -1.830822934143536695e-01
5.951700000000000301e+01 4.992099999999999937e+01 -2.314399999999999835e+01 -3.856081000000000092e+00 -1.218938715483132568e-01
5.951700000000000301e+01 7.920900000000000318e+01 -7.862499999999999822e+00 6.377043999999999713e+00 -2.457719280018700603e-01
5.952000000000000313e+01 4.865299999999999869e+01 -2.400300000000000011e+01 -1.195786000000000016e+00 -1.193886994511852151e-01
5.952100000000000080e+01 7.566599999999999682e+01 -1.231300000000000061e+01 3.000141000000000169e+00 -2.459569799578165128e-01
5.952499999999999858e+01 6.184899999999999665e+01 1.159699999999999953e+01 7.050315000000000332e+00 -2.592777640575337772e-01
5.952499999999999858e+01 6.280700000000000216e+01 1.004700000000000060e+01 6.016466999999999565e+00 -2.629930846566199687e-01
5.952499999999999858e+01 6.280700000000000216e+01 1.159699999999999953e+01 1.010075999999999929e+01 -2.597784169826332645e-01
5.953000000000000114e+01 5.064800000000000324e+01 -1.660000000000000087e-01 2.179010999999999854e+01 -1.554825599578000539e-01
5.953099999999999881e+01 4.597200000000000131e+01 -2.369300000000000139e+01 1.286286999999999914e+01 -1.169477361082731093e-01
5.953099999999999881e+01 6.129999999999999716e+01 4.496100000000000207e+00 -1.137771000000000043e+01 -1.583422716772305838e-01
5.953300000000000125e+01 5.868699999999999761e+01 -1.900499999999999901e+01 2.399973999999999996e-01 1.472957329383612901e-01
5.953300000000000125e+01 6.684000000000000341e+01 -1.552299999999999969e+01 3.816472999999999782e+00 -2.487356443259819971e-01
5.953300000000000125e+01 6.704900000000000659e+01 -1.625900000000000034e+01 9.752333999999999392e+00 -1.935364196693919459e-01
5.953300000000000125e+01 6.704900000000000659e+01 -1.478700000000000081e+01 -3.162421999999999844e+00 -2.488409981376003832e-01
5.953399999999999892e+01 5.164600000000000080e+01 -2.048799999999999955e+01 -3.831898999999999944e+00 8.333177543595184089e-02
5.953399999999999892e+01 5.258599999999999852e+01 -2.048799999999999955e+01 -3.928711999999999982e+00 8.269245779484507564e-02
5.953699999999999903e+01 5.288799999999999812e+01 -2.770599999999999952e+01 -3.747908999999999935e+00 -1.181510802956861478e-01
5.953799999999999670e+01 5.892799999999999727e+01 -1.979299999999999926e+01 -5.792422000000000404e-01 1.469828538526246064e-01
5.954800000000000182e+01 6.171699999999999875e+01 -2.534199999999999875e+01 -7.312212000000000156e-01 1.435443567843328883e-01
5.955100000000000193e+01 4.071500000000000341e+01 -8.575699999999999434e+00 2.789449000000000112e+01 1.032218463123859287e-01
5.955700000000000216e+01 4.214699999999999847e+01 -1.277599999999999980e+01 -1.034747999999999912e+01 5.443115559043106705e-02
5.955700000000000216e+01 7.327200000000000557e+01 1.387399999999999967e+00 3.182169000000000247e-01 -2.525668823836886290e-01
5.956199999999999761e+01 7.577899999999999636e+01 -1.011200000000000010e+01 -1.930468999999999991e+00 -2.462711957661998796e-01
5.956499999999999773e+01 6.189800000000000324e+01 7.631999999999999673e+00 4.873358999999999774e+00 -2.686936588995383901e-01
5.956600000000000250e+01 5.542399999999999949e+01 -3.097800000000000153e+01 -1.343788999999999900e+00 -1.177841840033126281e-01
5.956600000000000250e+01 5.829200000000000159e+01 6.397800000000000153e+00 1.198975000000000080e+01 -1.484625577471108127e-01
5.956799999999999784e+01 6.814600000000000080e+01 1.532399999999999984e+00 1.098292000000000002e+01 -2.575101232398923079e-01
5.956799999999999784e+01 4.374000000000000199e+01 -4.455000000000000071e+00 -2.970626999999999995e+01 1.247252052797487021e-01
5.956799999999999784e+01 4.711200000000000188e+01 -2.346000000000000085e+01 6.941930000000000156e+00 -1.189208638526392942e-01
5.956900000000000261e+01 4.251899999999999835e+01 -2.249399999999999977e+01 4.225183000000000355e+00 -1.137335736756477089e-01
5.957399999999999807e+01 8.265699999999999648e+01 -6.227999999999999758e+00 4.100460999999999956e+01 -2.455524103743088327e-01
5.957500000000000284e+01 6.538100000000000023e+01 -3.421300000000000097e+01 5.278739000000000070e-01 -1.201834855927990109e-01
5.957500000000000284e+01 6.538100000000000023e+01 -3.266299999999999670e+01 2.027576999999999963e+00 -1.205633591325519227e-01
5.957500000000000284e+01 6.633899999999999864e+01 -3.421300000000000097e+01 6.442598000000000491e-01 -1.203883278684250990e-01
5.957500000000000284e+01 6.633899999999999864e+01 -3.266299999999999670e+01 4.849826000000000192e+00 -1.207578427925306980e-01
5.957600000000000051e+01 6.685999999999999943e+01 -6.410900000000000487e-01 1.041942000000000057e+01 -2.580334623508343528e-01
5.957999999999999829e+01 4.959199999999999875e+01 -2.390399999999999991e+01 -1.537555999999999923e+00 -1.201666126239079313e-01
5.957999999999999829e+01 4.959199999999999875e+01 -2.238400000000000034e+01 -5.999139999999999695e+00 -1.231422975683400950e-01
5.958500000000000085e+01 4.395499999999999829e+01 -6.129599999999999937e+00 -2.976646999999999821e+00 -8.017472672952459523e-02
5.958800000000000097e+01 5.197500000000000142e+01 7.637699999999999489e-01 2.747813000000000017e+01 -1.536462719030506352e-01
5.958899999999999864e+01 6.099600000000000222e+01 5.196100000000000385e+00 2.813317000000000068e+00 -1.568178875601939914e-01
5.959199999999999875e+01 5.052799999999999869e+01 -1.216399999999999926e+00 6.950594999999999857e+00 -2.605247310950015160e-01
5.959499999999999886e+01 5.670100000000000051e+01 5.815299999999999692e+00 1.007164999999999999e+01 -1.455660356836297464e-01
5.959499999999999886e+01 6.114099999999999824e+01 6.155000000000000249e+00 6.888723999999999847e+00 -2.722687068617836714e-01
5.960000000000000142e+01 5.948499999999999943e+01 8.517300000000000537e+00 2.869504000000000055e+00 -2.655565707551144072e-01
5.960000000000000142e+01 4.396600000000000108e+01 -1.994900000000000162e+01 2.829088000000000047e+00 -1.344429872236502788e-01
5.960300000000000153e+01 4.400800000000000267e+01 -5.213899999999999757e+00 -1.035870000000000068e+01 -8.075567450794188251e-02
5.960499999999999687e+01 4.106099999999999994e+01 -1.001099999999999923e+01 2.723329000000000022e+01 5.044473622278689007e-02
5.960699999999999932e+01 7.201300000000000523e+01 5.712199999999999500e-01 -3.278137000000000079e+00 -2.535104196480614802e-01
5.960999999999999943e+01 4.240400000000000347e+01 -1.746499999999999986e+01 2.434089000000000169e+00 1.479593693138633870e-01
5.962400000000000233e+01 6.273799999999999955e+01 -2.254700000000000060e+01 1.503622999999999976e+01 1.436109234445888672e-01
5.962700000000000244e+01 5.319800000000000040e+01 -3.062199999999999989e+01 -1.262715000000000032e+00 -1.165800970586737817e-01
5.963000000000000256e+01 3.818999999999999773e+01 -9.896000000000000796e+00 6.595792999999999573e+00 6.507197165548109230e-02
5.963000000000000256e+01 3.914800000000000324e+01 -9.896000000000000796e+00 2.566122000000000014e+01 5.174315629222620005e-02
5.963600000000000279e+01 7.841599999999999682e+01 -3.552000000000000046e+00 4.284183999999999770e+00 -2.470699980008545515e-01
5.963600000000000279e+01 7.942400000000000659e+01 -3.552000000000000046e+00 3.443929999999999936e+00 -2.467606727927778021e-01
5.963900000000000290e+01 4.928799999999999670e+01 -2.168400000000000105e+01 -1.293337000000000003e+01 -1.245107652834553102e-01
5.964200000000000301e+01 4.072200000000000131e+01 -1.078800000000000026e+01 1.080953000000000053e+01 4.108751839319717269e-02
5.964300000000000068e+01 4.227900000000000347e+01 -1.663800000000000168e+01 1.226432999999999929e+01 1.495476680640610845e-01
5.964300000000000068e+01 4.250999999999999801e+01 -1.582300000000000040e+01 5.532657000000000380e+00 1.575810585756626248e-01
5.964399999999999835e+01 6.460800000000000409e+01 -2.995100000000000051e+01 -1.142054000000000080e+01 -1.211790165611686121e-01
5.964399999999999835e+01 6.620600000000000307e+01 -2.995100000000000051e+01 -1.931214999999999904e+01 -5.348373642799687799e-02
5.964500000000000313e+01 6.233800000000000097e+01 -2.194800000000000040e+01 1.006620999999999988e+01 1.439765146676951768e-01
5.965200000000000102e+01 3.884499999999999886e+01 -6.919999999999999929e+00 1.288006000000000029e+01 1.119783202508380648e-01
5.965200000000000102e+01 3.989500000000000313e+01 -6.919999999999999929e+00 1.188021999999999956e+01 1.115297383566917488e-01
5.965200000000000102e+01 6.535200000000000387e+01 -2.113700000000000045e+01 2.608044000000000029e+00 -4.250908009689884082e-02
5.965599999999999881e+01 5.842499999999999716e+01 -2.368799999999999883e+01 -1.164193999999999951e+00 1.466814377882825760e-01
5.965699999999999648e+01 5.916700000000000159e+01 7.687000000000000277e+00 8.783490999999999715e+00 -1.761821091744656953e-01
5.965899999999999892e+01 4.426899999999999835e+01 -2.064900000000000091e+01 9.024739999999999540e+00 -1.283457636080252151e-01
5.966400000000000148e+01 7.499599999999999511e+01 1.315299999999999914e+00 5.851117999999999597e+00 -2.510147010590108030e-01
5.967000000000000171e+01 6.801900000000000546e+01 -1.838899999999999935e+01 -8.650124999999999176e+00 -1.933365550802227939e-01
5.967000000000000171e+01 6.801900000000000546e+01 -1.743100000000000094e+01 8.818004000000000531e+01 -1.931963546716475577e-01
5.967399999999999949e+01 6.315599999999999881e+01 -2.347299999999999898e+01 2.326445999999999970e+01 1.433357359979522960e-01
5.967499999999999716e+01 4.272899999999999920e+01 -1.865200000000000102e+01 3.457794999999999952e+00 1.480655078666480717e-01
5.967699999999999960e+01 6.150200000000000244e+01 6.818100000000000271e+00 9.661635999999999669e+00 -2.705618712113068147e-01
5.967999999999999972e+01 4.175000000000000000e+01 -8.655499999999999972e+00 8.316860999999999393e+00 6.012734420130085716e-02
5.968099999999999739e+01 6.693500000000000227e+01 2.318000000000000060e+00 -8.173747999999999791e+00 -2.585704546457215924e-01
5.968599999999999994e+01 5.854899999999999949e+01 -2.461899999999999977e+01 -4.676329000000000180e-01 -1.225273515281538883e-01
5.968599999999999994e+01 6.265400000000000347e+01 -3.418699999999999850e+00 9.683203000000000671e+00 -2.591925887852105648e-01
5.968599999999999994e+01 6.286299999999999955e+01 -4.154799999999999827e+00 6.452509000000000050e+00 -2.586303514505427503e-01
5.968599999999999994e+01 6.286299999999999955e+01 -2.682700000000000085e+00 6.658694999999999808e+00 -2.595853968234093090e-01
5.969500000000000028e+01 3.785399999999999920e+01 -9.121000000000000441e+00 2.686307000000000045e+01 -9.581203925422271395e-02
5.969800000000000040e+01 5.356700000000000017e+01 -3.147200000000000131e+01 -1.731761000000000106e+00 -1.164202588982144182e-01
5.969800000000000040e+01 5.356700000000000017e+01 -2.977199999999999847e+01 9.090626999999999569e+00 -1.171386548977164238e-01
5.969800000000000040e+01 5.461699999999999733e+01 -2.977199999999999847e+01 1.004058999999999990e+01 -1.177703959527186817e-01
5.970300000000000296e+01 8.163599999999999568e+01 -5.442099999999999937e+00 5.122838999999999743e+01 -2.459158601613580797e-01
5.970300000000000296e+01 6.203399999999999892e+01 -2.124800000000000111e+01 6.549506000000000050e+00 1.443627235425060107e-01
5.970700000000000074e+01 6.493699999999999761e+01 -3.071099999999999852e+01 -2.471889000000000003e+00 -1.209732060939467668e-01
5.970700000000000074e+01 6.493699999999999761e+01 -2.919099999999999895e+01 -1.087622000000000000e+01 -5.300557453057107293e-02
5.970700000000000074e+01 6.587699999999999534e+01 -3.211099999999999710e+01 2.631175999999999959e+01 -1.207598663328488947e-01
5.970700000000000074e+01 6.587699999999999534e+01 -3.071099999999999852e+01 -1.040277999999999992e+01 -1.211550876980379138e-01
5.970700000000000074e+01 6.587699999999999534e+01 -2.919099999999999895e+01 -3.045738000000000056e+01 -5.380316495272023658e-02
5.971000000000000085e+01 5.188300000000000267e+01 -2.649599999999999866e+01 -3.162611000000000061e+00 -1.182503301132603879e-01
5.971099999999999852e+01 6.845199999999999818e+01 -1.323199999999999932e+01 1.912705000000000100e-01 -2.487489979561174069e-01
5.971200000000000330e+01 6.418999999999999773e+01 -5.006899999999999906e+00 1.205081000000000069e+00 -2.575982521070699360e-01
5.971300000000000097e+01 6.812800000000000011e+01 -5.062199999999999811e+00 -8.332078000000000539e-01 -2.537350523060716290e-01
5.971600000000000108e+01 6.302700000000000102e+01 -2.439099999999999824e+01 2.211212000000000089e+01 1.433235606519291105e-01
5.971600000000000108e+01 5.879399999999999693e+01 7.042399999999999771e+00 1.223287999999999975e+01 -1.753756621817504358e-01
5.971699999999999875e+01 7.164400000000000546e+01 -1.313700000000000045e+01 -1.188811000000000062e+00 -2.473055588080724232e-01
5.971800000000000352e+01 6.334599999999999653e+01 -2.753200000000000003e+01 -1.747449000000000030e+00 -5.324859909443781236e-02
5.972099999999999653e+01 6.129399999999999693e+01 -2.605399999999999849e+01 4.387556000000000234e-01 -1.221322371855311506e-01
5.972299999999999898e+01 3.847599999999999909e+01 -7.769999999999999574e+00 9.957416999999999518e+00 1.135259972875435758e-01
5.972299999999999898e+01 4.026400000000000290e+01 -7.769999999999999574e+00 2.337312999999999974e+01 2.794178224384814002e-01
5.972399999999999665e+01 5.014900000000000091e+01 -1.960299999999999931e+00 9.828568999999999889e+00 -2.599737815885202474e-01
5.972599999999999909e+01 6.740000000000000568e+01 -1.434999999999999964e+01 -7.386495999999999340e-02 -2.489579997674153944e-01
5.972999999999999687e+01 6.675000000000000000e+01 -2.018700000000000117e+01 1.005957999999999991e-01 -3.644945508392180566e-02
5.974099999999999966e+01 4.095300000000000296e+01 -9.293599999999999639e+00 1.241221999999999959e+01 5.236161109436913985e-02
5.975000000000000000e+01 6.037899999999999778e+01 -2.578999999999999915e+01 -2.444021000000000221e+00 -1.220879451190158144e-01
5.975699999999999790e+01 5.891799999999999926e+01 -2.546900000000000119e+01 -6.569013000000000213e-01 -1.219770800992484305e-01
