-2.837399999999999878e+01 -2.605799999999999894e+00 3.095400000000000151e+00 1.802841000000000093e+01 -9.701847934451252042e-02
-2.837099999999999866e+01 4.256099999999999994e+00 -4.558099999999999596e+00 -1.983635999999999910e+01 -9.677328553307412706e-02
-2.836599999999999966e+01 1.555700000000000038e+01 -5.012100000000000222e+00 4.907206999999999653e+00 -9.661396157584620226e-02
-2.836400000000000077e+01 2.400300000000000011e+01 4.972000000000000419e+00 -5.430552999999999741e+01 7.199564524163076795e-02
-2.836400000000000077e+01 2.560099999999999909e+01 4.972000000000000419e+00 -8.767083999999999833e+01 7.177322522532511573e-02
-2.836299999999999955e+01 -4.182699999999999640e+00 8.334199999999999164e+00 -1.239514999999999922e+00 -9.714833028869218623e-02
-2.836199999999999832e+01 1.009800000000000075e+01 -3.944500000000000117e+00 -1.007500999999999980e+00 -9.669869770882816296e-02
-2.836199999999999832e+01 1.149799999999999933e+01 -3.944500000000000117e+00 -4.043099999999999916e+00 -9.667963942066296057e-02
-2.835200000000000031e+01 2.462699999999999889e+01 3.778000000000000025e+00 -2.860267999999999944e+01 7.217926563585287669e-02
-2.835200000000000031e+01 2.651800000000000068e+01 -6.293300000000000338e+00 -1.761384000000000061e+00 -9.658702524143139567e-02
-2.834600000000000009e+01 2.765599999999999881e+01 9.213699999999999335e+00 -7.271147000000000027e-01 8.449742977935001398e-02
-2.834299999999999997e+01 2.661199999999999832e+01 -7.331999999999999851e+00 -1.305097999999999914e+01 -9.657315725747393775e-02
-2.834299999999999997e+01 2.821000000000000085e+01 -7.331999999999999851e+00 -6.384756000000000142e+01 -9.660504901375691067e-02
-2.834299999999999997e+01 5.045700000000000074e+00 7.599999999999999645e+00 -5.645453999999999750e-01 -9.696714783174079089e-02
-2.832900000000000063e+01 2.427100000000000080e+01 4.213099999999999845e+00 -3.869890999999999792e+01 7.213070846961475158e-02
-2.832499999999999929e+01 1.270999999999999908e+00 4.854899999999999771e+00 -4.642439999999999900e-01 -9.698440600356653118e-02
-2.832300000000000040e+01 -7.944899999999999629e+00 -5.259999999999999787e+00 2.678296000000000010e+00 -9.694478734602267334e-02
-2.832199999999999918e+01 -3.894400000000000084e+00 -3.544799999999999951e+00 4.499286999999999814e+00 -9.691477157405195553e-02
-2.832000000000000028e+01 -3.312300000000000022e+00 7.316499999999999559e+00 -6.834662000000000237e-01 -9.711295453433993474e-02
-2.832000000000000028e+01 -1.381699999999999928e+00 7.316499999999999559e+00 -1.181378000000000039e+00 -9.707827620627731968e-02
-2.831800000000000139e+01 3.340399999999999814e+00 -4.539500000000000313e+00 -1.147729999999999961e+01 -9.678679324988362365e-02
-2.831800000000000139e+01 1.662700000000000067e+00 5.565900000000000070e+00 -8.523131000000000457e-01 -9.699064318626694770e-02
-2.831400000000000006e+01 -1.048199999999999932e+01 -1.255300000000000082e+01 1.416301999999999950e+00 -9.685242439151467431e-02
-2.831400000000000006e+01 -1.048199999999999932e+01 -1.100300000000000011e+01 2.141382999999999814e+00 -9.687832308658114733e-02
-2.831400000000000006e+01 -9.523999999999999133e+00 -1.255300000000000082e+01 1.179273999999999933e+00 -9.683980309930098618e-02
-2.831400000000000006e+01 -9.523999999999999133e+00 -1.100300000000000011e+01 6.153474000000000110e+00 -9.686542734353194295e-02
-2.831400000000000006e+01 -8.658799999999999386e+00 -1.100300000000000011e+01 4.452757000000000076e+00 -9.685369863956742875e-02
-2.831200000000000117e+01 2.004500000000000171e+01 1.183300000000000018e+01 3.667504000000000097e+00 2.398286398941809061e-01
-2.830999999999999872e+01 -7.027400000000000091e+00 -9.316100000000000492e+00 8.963077999999999435e+00 -9.685947669875949462e-02
-2.830999999999999872e+01 2.503500000000000014e+01 1.193800000000000061e+01 -2.723456000000000210e-01 8.402971017072846660e-02
-2.830999999999999872e+01 2.503500000000000014e+01 1.280400000000000027e+01 -2.104055999999999982e-01 8.393395510333184761e-02
-2.830300000000000082e+01 2.400100000000000122e+01 6.500899999999999457e-01 -9.884318999999999633e+00 5.658308905084867557e-02
-2.830000000000000071e+01 6.509999999999999787e+00 1.173700000000000010e+01 -2.795376999999999779e+00 -8.000000000000000167e-02
-2.830000000000000071e+01 6.737000000000000099e+00 1.093800000000000061e+01 -1.572270000000000056e+00 -8.000000000000000167e-02
-2.829599999999999937e+01 6.511000000000000121e+00 7.711800000000000210e+00 -4.418306000000000289e+00 -9.694279551139262097e-02
-2.829599999999999937e+01 1.829899999999999949e+01 -6.532000000000000028e+00 -3.484541999999999806e+00 -9.656383074811712708e-02
-2.829100000000000037e+01 3.383500000000000174e+00 7.288000000000000256e+00 3.159661999999999749e-01 -9.699139056274509729e-02
-2.828600000000000136e+01 -3.989700000000000024e+00 -2.046499999999999986e+00 1.874401999999999902e+00 -9.694367955001984005e-02
-2.828099999999999881e+01 1.304499999999999993e+01 -4.657000000000000028e+00 -3.432036000000000087e+00 -9.664882660507839729e-02
-2.828099999999999881e+01 -5.510600000000000165e+00 -1.102299999999999969e+01 5.017224999999999824e+00 -9.681004890617858627e-02
-2.828000000000000114e+01 2.185500000000000043e+01 3.107899999999999885e+00 -7.227601000000000164e-01 5.656574336449912005e-02
-2.828000000000000114e+01 2.325499999999999901e+01 3.107899999999999885e+00 -6.748420999999999559e+00 5.597960229663984100e-02
-2.827799999999999869e+01 1.711000000000000076e+00 -6.573299999999999699e+00 4.818203999999999709e+00 -9.677818009736187388e-02
-2.826300000000000168e+01 -4.350500000000000256e+00 -2.768400000000000194e+00 2.599950999999999901e+00 -9.693591889439859277e-02
-2.826099999999999923e+01 1.699899999999999878e+01 -5.765399999999999636e+00 -5.993509000000000420e+00 -9.658674909342905568e-02
-2.825400000000000134e+01 2.412500000000000000e+01 3.323300000000000143e+00 -1.439010999999999996e+01 7.235177849699513108e-02
-2.825100000000000122e+01 2.982499999999999929e+01 1.258699999999999974e+01 -6.395633000000000123e+01 5.391317368519482622e-02
-2.825100000000000122e+01 -5.933799999999999741e+00 -2.889800000000000146e+00 5.051079999999999792e+00 -9.695835522770777926e-02
-2.825100000000000122e+01 -5.933799999999999741e+00 -2.024500000000000188e+00 9.679661000000000515e-01 -9.697473145763790825e-02
-2.825100000000000122e+01 -1.667000000000000037e+00 -2.889800000000000146e+00 -4.536468000000000167e+00 -9.689143592650663328e-02
-2.825100000000000122e+01 -1.667000000000000037e+00 -2.024500000000000188e+00 -2.309887999999999941e-01 -9.690697000730333355e-02
-2.824899999999999878e+01 -4.385600000000000165e+00 -1.094699999999999918e+01 7.178497999999999823e-01 -9.679552931827634099e-02
-2.824299999999999855e+01 1.648499999999999943e+01 1.303400000000000070e+01 1.127535999999999916e+01 7.244122523183159357e-02
-2.824099999999999966e+01 6.643600000000000172e+00 1.257099999999999973e+01 -5.049720999999999904e+00 -8.000000000000000167e-02
-2.823600000000000065e+01 -9.308899999999999952e-01 -9.624700000000000699e+00 1.077514000000000038e+01 -9.676794680953670902e-02
-2.823199999999999932e+01 -8.390100000000000335e+00 -1.021700000000000053e+01 2.345947999999999922e+01 -9.686281557703486922e-02
-2.822700000000000031e+01 2.404799999999999827e+01 1.028400000000000070e+01 -2.680156999999999901e+00 7.071123195913997517e-02
-2.822500000000000142e+01 4.053700000000000081e+00 7.535000000000000142e+00 7.541972999999999594e+00 -9.698364562272793199e-02
-2.821999999999999886e+01 2.748400000000000176e+01 -7.578899999999999526e-01 5.081040999999999919e+00 5.607392677842736040e-02
-2.821799999999999997e+01 2.836199999999999832e+01 1.420400000000000063e+01 -4.888376000000000232e+01 5.349780021868257018e-02
-2.821399999999999864e+01 -2.799599999999999866e+00 -3.648000000000000131e+00 -2.455601000000000145e+00 -9.689546242752222760e-02
-2.821199999999999974e+01 1.927799999999999869e+01 1.395299999999999940e+01 -4.297404000000000224e+00 2.393609521576816057e-01
-2.821000000000000085e+01 2.272599999999999909e+01 -6.308600000000000207e+00 -2.011883999999999784e+00 -1.134552176102823634e-01
-2.821000000000000085e+01 -8.525399999999999423e+00 -1.266200000000000081e+01 4.092463000000000406e+00 -9.682421828238477191e-02
-2.819399999999999906e+01 1.458600000000000030e+01 -4.767800000000000260e+00 -1.538057999999999925e+00 -9.662702375587590986e-02
-2.819200000000000017e+01 2.121999999999999886e+01 -6.213099999999999845e+00 -4.071464000000000194e-01 -9.653578015515548727e-02
-2.818799999999999883e+01 2.878300000000000125e+01 -4.100500000000000256e+00 5.553640999999999828e+00 5.678405645821562459e-02
-2.818799999999999883e+01 2.878300000000000125e+01 -1.181499999999999995e+00 5.544208000000000247e+00 7.294636640463592059e-02
-2.818700000000000117e+01 -2.819900000000000073e+00 -7.009499999999999620e-01 4.614434000000000147e+00 -9.694968892654080850e-02
-2.818700000000000117e+01 -1.954599999999999893e+00 -7.009499999999999620e-01 4.395270000000000010e+00 -9.693558274885816228e-02
-2.818700000000000117e+01 2.937999999999999901e+01 1.321199999999999974e+01 -3.386919000000000324e+01 5.377497425844963985e-02
-2.818599999999999994e+01 -2.872300000000000075e+00 6.551999999999999602e+00 6.529080999999999690e+00 -9.709042270160470056e-02
-2.818599999999999994e+01 -1.821700000000000097e+00 6.551999999999999602e+00 2.189092000000000038e+00 -9.707161721690317491e-02
-2.818499999999999872e+01 1.150500000000000078e+01 1.390499999999999936e+01 4.207634999999999792e+00 7.496399418248625435e-02
-2.818100000000000094e+01 -1.205300000000000038e+00 4.638499999999999623e+00 9.486902000000000612e+00 -9.702374811841471547e-02
-2.817899999999999849e+01 -5.736299999999999732e-01 -8.822100000000000719e+00 1.898069999999999879e+01 -9.677496260676948792e-02
-2.817800000000000082e+01 1.670599999999999952e+01 -5.008000000000000007e+00 1.219994000000000023e+00 -9.659831903793045238e-02
-2.817599999999999838e+01 2.093700000000000117e+00 6.304299999999999571e+00 7.006958000000000020e+00 -9.699642635682084735e-02
-2.817399999999999949e+01 2.881900000000000017e-01 5.009500000000000064e+00 1.383253000000000066e+00 -9.700443762949872983e-02
-2.817399999999999949e+01 2.391000000000000014e+01 9.403999999999999915e+00 -3.411147000000000151e+00 7.094453719540128045e-02
-2.817299999999999827e+01 -7.887399999999999967e-02 -8.092599999999999127e+00 1.586766000000000076e+01 -9.677931914209723929e-02
-2.816600000000000037e+01 7.703700000000000436e+00 1.355599999999999916e+01 -1.632893999999999934e+01 -8.000000000000000167e-02
-2.815800000000000125e+01 1.996399999999999864e+01 1.285699999999999932e+01 1.035924999999999985e+00 2.394780677067505636e-01
-2.815700000000000003e+01 -5.783000000000000362e+00 7.403300000000000436e-01 -2.298665000000000180e+00 -9.702572153306270042e-02
-2.815599999999999881e+01 2.593400000000000105e+01 -1.096000000000000085e+00 -6.133232999999999713e+00 5.643099843286079886e-02
-2.814699999999999847e+01 -6.164100000000000357e+00 -3.351599999999999913e+00 3.107235000000000191e+00 -9.695298712944534769e-02
-2.814300000000000068e+01 2.578200000000000003e+01 -6.293300000000000338e+00 2.931538999999999895e+00 -9.657156125257614077e-02
-2.814199999999999946e+01 -2.115699999999999914e+00 3.817299999999999915e+00 2.286706000000000127e+00 -9.702384471418315504e-02
-2.814099999999999824e+01 1.288000000000000078e+01 1.482600000000000051e+01 1.548940999999999946e+01 7.386845497760270718e-02
-2.813700000000000045e+01 -8.056300000000000239e+00 -9.281000000000000583e+00 1.697869000000000028e+01 -9.687371703813665857e-02
-2.813700000000000045e+01 2.480199999999999960e+01 4.972000000000000419e+00 -2.605637000000000114e+01 7.187790106015295999e-02
-2.812900000000000134e+01 -1.651200000000000001e+00 -1.400900000000000034e+00 3.310740000000000016e+00 -9.691758613308001924e-02
-2.811599999999999966e+01 2.741100000000000136e+01 -7.331999999999999851e+00 -1.892415000000000092e+01 -9.658886702466731866e-02
-2.811299999999999955e+01 1.967500000000000071e+01 -6.207200000000000273e+00 -5.692027999999999643e+00 -9.655069358010508196e-02
-2.810999999999999943e+01 1.389199999999999946e+01 1.444899999999999984e+01 7.431874999999999787e+00 7.340881069354736332e-02
-2.810699999999999932e+01 -3.525399999999999867e+00 2.005500000000000060e+00 -1.887183000000000055e+00 -9.701288013952459599e-02
-2.810699999999999932e+01 -3.180400000000000116e+00 2.788100000000000023e+00 3.221576000000000217e+00 -9.702222752199933520e-02
-2.810300000000000153e+01 5.014999999999999680e+00 -4.522999999999999687e+00 -1.578825999999999929e+01 -9.676054213117411817e-02
-2.808899999999999864e+01 2.410099999999999909e+01 8.438700000000000756e+00 -2.650281999999999805e+00 7.115038830604170084e-02
-2.808899999999999864e+01 2.711899999999999977e+01 8.438700000000000756e+00 -1.510262999999999911e+00 8.454759552825524827e-02
-2.808500000000000085e+01 2.608500000000000085e+01 -5.593300000000000161e+00 1.056705999999999968e+01 -9.658858033982253843e-02
-2.808500000000000085e+01 2.694999999999999929e+01 -5.593300000000000161e+00 8.461142999999999859e-01 -9.660630677243375874e-02
-2.807900000000000063e+01 2.808899999999999864e+01 9.913700000000000401e+00 9.168091000000000435e+00 5.394601434716489452e-02
-2.807199999999999918e+01 -7.402899999999999814e+00 -4.383099999999999774e+00 -1.961572000000000093e+00 -9.695237168906697955e-02
-2.807100000000000151e+01 -4.658000000000000362e+00 1.247200000000000086e+00 2.564934000000000047e+00 -9.701706671761514689e-02
-2.806700000000000017e+01 2.571499999999999986e+01 7.605599999999999916e+00 -4.374331999999999887e+00 7.113094457125422598e-02
-2.805900000000000105e+01 1.079800000000000004e+01 -3.886200000000000099e+00 -4.139672000000000018e+00 -9.668701662607416536e-02
-2.805300000000000082e+01 -7.088199999999999612e+00 -1.307199999999999918e+01 1.201424999999999965e+00 -9.679759055215730879e-02
-2.804299999999999926e+01 8.901799999999999713e+00 1.301999999999999957e+01 -4.348787000000000091e+01 -8.000000000000001554e-02
-2.803300000000000125e+01 1.024600000000000044e+01 1.232300000000000040e+01 2.521602999999999817e+00 -8.000000000000000167e-02
-2.802899999999999991e+01 -2.821000000000000174e+00 -1.070100000000000051e+01 -3.321737999999999857e+00 -9.677614924373345584e-02
-2.802899999999999991e+01 6.943599999999999994e+00 8.411799999999999500e+00 -5.671161999999999814e+00 -9.694649292555485021e-02
-2.801200000000000045e+01 2.102400000000000091e+01 9.222099999999999298e+00 -3.947587000000000046e+01 7.140138863198156050e-02
-2.801200000000000045e+01 2.125100000000000122e+01 8.423000000000000043e+00 -2.479635999999999996e+01 5.470609252263065880e-02
-2.801099999999999923e+01 1.829899999999999949e+01 -3.703899999999999970e+00 8.055008000000000834e+00 -9.659381872397339308e-02
-2.800000000000000000e+01 7.764999999999999680e+00 -4.123199999999999754e+00 -4.078932000000000002e+00 -9.672566984203637142e-02
-2.799800000000000111e+01 1.728800000000000026e+01 1.325900000000000034e+01 7.908784999999999954e+00 7.191243071878729298e-02
-2.799699999999999989e+01 1.137800000000000011e+01 1.308099999999999952e+01 1.559591999999999956e+01 -7.999999999999998779e-02
-2.799299999999999855e+01 5.810999999999999943e+00 7.653500000000000192e+00 -1.571747000000000050e+01 -9.695347764171688421e-02
-2.798900000000000077e+01 2.351200000000000045e+01 -6.634100000000000108e+00 3.081766000000000227e-01 -1.134328663931947478e-01
-2.798799999999999955e+01 2.574200000000000088e+01 1.536100000000000065e+01 -1.414120999999999917e+01 8.369803211457424452e-02
-2.797700000000000031e+01 2.114699999999999847e+01 4.030400000000000205e+00 3.216256000000000004e+00 5.650852170681101155e-02
-2.797700000000000031e+01 2.114699999999999847e+01 4.895699999999999719e+00 4.431859000000000215e+00 5.617073838426053095e-02
-2.797700000000000031e+01 2.114699999999999847e+01 5.946299999999999919e+00 3.954028999999999794e+00 5.575432430344266777e-02
-2.797599999999999909e+01 1.703200000000000003e+01 -4.480100000000000193e+00 1.978971000000000036e+00 -9.659869188303540910e-02
-2.797400000000000020e+01 -9.096500000000000696e+00 -1.040700000000000003e+01 3.260696999999999690e+01 -9.686809196989168425e-02
-2.796999999999999886e+01 7.178300000000000125e+00 8.973200000000000287e+00 -2.344284000000000034e+00 -9.695188940044725812e-02
-2.795499999999999829e+01 2.701000000000000156e+01 -8.836399999999999810e-01 2.647717000000000098e+00 5.618135752376313130e-02
-2.795499999999999829e+01 1.508000000000000007e+01 1.359600000000000009e+01 1.022666000000000075e+01 7.300017977359569976e-02
-2.795299999999999940e+01 2.111700000000000088e+01 7.588700000000000223e+00 -2.711248000000000147e+01 5.510191795755316896e-02
-2.795299999999999940e+01 2.236299999999999955e+00 -5.723300000000000054e+00 2.919699999999999918e+01 -9.678158713363906041e-02
-2.794399999999999906e+01 -3.858999999999999986e+00 1.058900000000000041e+01 1.470756000000000085e+01 -7.999999999999998779e-02
-2.793799999999999883e+01 -5.765699999999999825e+00 -1.208799999999999919e+01 2.968408999999999853e+00 -9.679441205605900100e-02
-2.792599999999999838e+01 2.908800000000000097e+01 1.258699999999999974e+01 -2.729532999999999987e+01 5.380601295080428281e-02
-2.792200000000000060e+01 3.773099999999999898e+00 -4.048600000000000421e+00 -1.647450999999999866e+01 -9.678528886327755765e-02
-2.791700000000000159e+01 -1.764999999999999902e+00 1.096100000000000030e+01 -9.220501000000000502e+00 -8.000000000000000167e-02
-2.791700000000000159e+01 -4.720099999999999851e-01 8.641899999999999693e+00 -1.101659000000000077e+01 -9.708774252371518698e-02
-2.791700000000000159e+01 -4.720099999999999851e-01 1.024000000000000021e+01 -5.260855999999999710e+01 -8.000000000000000167e-02
-2.791700000000000159e+01 -2.449999999999999956e-01 9.441000000000000725e+00 -1.601307999999999865e+01 -9.709885580723784382e-02
-2.791499999999999915e+01 2.751800000000000068e+01 1.541900000000000048e+01 -4.153788999999999731e+01 8.382277853567052239e-02
-2.790899999999999892e+01 4.333000000000000185e+00 8.019199999999999662e+00 1.995332999999999968e-01 -9.698681210993409518e-02
-2.790800000000000125e+01 1.753900000000000148e+01 -4.043899999999999828e+00 5.624430000000000263e+00 -9.659733751305368821e-02
-2.790700000000000003e+01 2.202599999999999980e+01 -6.250399999999999956e+00 -1.339050999999999991e+00 -1.134688521501169001e-01
-2.790399999999999991e+01 -5.113000000000000433e+00 8.791000000000000369e+00 -1.007381000000000082e+00 -9.717608710410483019e-02
-2.790399999999999991e+01 -5.113000000000000433e+00 9.749000000000000554e+00 -9.310175000000000534e-01 -8.000000000000001554e-02
-2.789900000000000091e+01 2.450900000000000034e+01 1.332900000000000063e+01 -1.035523999999999889e+00 8.383657662959867474e-02
-2.789099999999999824e+01 2.645200000000000173e+01 -1.005900000000000016e+00 -2.495373999999999856e-03 5.629363203939953542e-02
-2.788899999999999935e+01 4.046799999999999842e-01 -7.385799999999999699e+00 2.725739000000000090e+01 -9.678146764284091541e-02
-2.788500000000000156e+01 1.608200000000000074e+01 -4.416000000000000369e+00 1.085626000000000069e+01 -9.660979678259910830e-02
-2.788400000000000034e+01 -7.716899999999999871e+00 -8.430199999999999250e+00 7.925747999999999571e+00 -9.688257100754864293e-02
-2.787699999999999889e+01 2.433500000000000085e+01 1.167099999999999937e+01 -2.218723999999999918e+00 8.401146985090354735e-02
-2.787500000000000000e+01 -1.000300000000000011e+01 -1.045899999999999963e+01 8.525332000000000576e+00 -9.687922181319510995e-02
-2.787399999999999878e+01 -9.916800000000000281e+00 -1.333200000000000074e+01 1.190706999999999960e+00 -9.682996970473214948e-02
-2.787399999999999878e+01 2.353500000000000014e+01 3.022200000000000220e+00 -7.630493999999999666e+00 5.587901911359081236e-02
-2.787300000000000111e+01 6.278999999999999915e+00 -4.205199999999999605e+00 -9.025807000000000357e+00 -9.674495522842128936e-02
-2.787199999999999989e+01 1.737500000000000000e+01 -5.177500000000000213e+00 -2.200757000000000119e+01 -9.658502609637469039e-02
-2.787099999999999866e+01 9.687400000000000233e+00 -4.570000000000000284e+00 -4.743966999999999601e+00 -9.669075159115839146e-02
-2.786899999999999977e+01 -2.377099999999999991e+00 -1.578999999999999959e+00 2.813213000000000186e+00 -9.692514391492954018e-02
-2.786700000000000088e+01 2.448999999999999844e+01 6.743000000000000105e-01 -1.088024000000000058e+01 5.636373848924545321e-02
-2.786499999999999844e+01 1.782900000000000063e+01 -5.998999999999999666e+00 -4.321969000000000172e+00 -9.657006531480859246e-02
-2.785500000000000043e+01 -4.065100000000000158e+00 7.604099999999999859e+00 -6.235108000000000317e-01 -9.713354954960048970e-02
-2.785099999999999909e+01 2.619000000000000217e+00 7.154300000000000104e+00 1.127645000000000053e+01 -9.700228705993133027e-02
-2.784799999999999898e+01 2.136400000000000077e+01 3.504500000000000171e+00 -2.838630999999999793e-01 5.661393200384682439e-02
-2.784799999999999898e+01 2.255499999999999972e+01 2.840500000000000025e+00 -3.324129999999999807e+00 5.635745614686031579e-02
-2.784600000000000009e+01 -3.154300000000000104e+00 1.064400000000000013e+01 -1.823539000000000021e+00 -8.000000000000000167e-02
-2.784400000000000119e+01 -5.306000000000000050e+00 1.339299999999999935e+00 -1.089660999999999991e+00 -9.702958471575415245e-02
-2.784100000000000108e+01 6.139599999999999502e-01 5.585799999999999876e+00 -1.671268999999999894e+00 -9.700921610500885806e-02
-2.783800000000000097e+01 9.464900000000000535e-01 -6.706999999999999851e+00 2.731154000000000082e+01 -9.678403532700871614e-02
-2.783500000000000085e+01 -1.125699999999999967e+01 -1.225699999999999967e+01 2.579216000000000175e+00 -9.686524953898886792e-02
-2.783500000000000085e+01 -1.125699999999999967e+01 -1.129899999999999949e+01 3.612610999999999795e+00 -9.688157373751241086e-02
-2.783099999999999952e+01 7.170899999999999608e+00 1.044699999999999918e+01 -6.079404000000000474e-01 -9.697750545506197972e-02
-2.783099999999999952e+01 7.379999999999999893e+00 9.711199999999999832e+00 8.549784000000000717e+00 -9.696074365669073158e-02
-2.781899999999999906e+01 2.463800000000000168e+01 1.237100000000000044e+01 -9.243495999999999935e-01 8.395345242820372034e-02
-2.781800000000000139e+01 -3.232200000000000184e+00 -3.157099999999999795e+00 2.042660000000000142e+00 -9.690954763938999794e-02
-2.781800000000000139e+01 -3.232200000000000184e+00 -1.757100000000000106e+00 5.245993000000000350e+00 -9.693552925735236803e-02
-2.781800000000000139e+01 -2.366999999999999993e+00 -3.157099999999999795e+00 -1.425230999999999915e+00 -9.689580914143872126e-02
-2.781200000000000117e+01 -9.574899999999999523e-01 5.383499999999999730e+00 6.697365999999999708e+00 -9.703361869014212604e-02
-2.781200000000000117e+01 -9.224200000000000454e-02 5.383499999999999730e+00 6.093060000000000365e+00 -9.701805117390943645e-02
-2.780999999999999872e+01 2.005799999999999983e+01 1.035299999999999976e+01 -9.916095000000000326e+00 7.137192585940346778e-02
-2.780199999999999960e+01 1.903500000000000014e+01 -3.703899999999999970e+00 -8.715818999999999761e+00 -9.658299701208343524e-02
-2.780199999999999960e+01 2.437199999999999989e+01 1.666299999999999892e+00 -6.705237000000000336e+00 5.604345227863329754e-02
-2.779899999999999949e+01 5.714999999999999858e+00 -4.581299999999999706e+00 -1.801871999999999829e+01 -9.674681654232575312e-02
-2.779200000000000159e+01 2.035000000000000142e+01 -6.277099999999999902e+00 -3.361400999999999861e+00 -9.653906361273402459e-02
-2.778600000000000136e+01 -9.161799999999999944e-01 6.890299999999999869e+00 -6.225074000000000440e-01 -9.706217525379737254e-02
-2.777400000000000091e+01 -8.738699999999999690e+00 -1.351399999999999935e+01 1.308429999999999982e+00 -9.681086342390578248e-02
-2.776399999999999935e+01 7.212100000000000399e+00 1.304299999999999926e+01 -1.328717999999999932e+01 -7.999999999999998779e-02
-2.776000000000000156e+01 -3.535600000000000076e+00 -2.457100000000000062e+00 2.855386000000000202e+00 -9.692713680349826499e-02
-2.776000000000000156e+01 -2.063600000000000101e+00 -2.457100000000000062e+00 1.756263000000000130e-01 -9.690347164920426470e-02
-2.775799999999999912e+01 2.427100000000000080e+01 2.486099999999999977e+00 -7.103171999999999819e+00 5.577488522624916151e-02
-2.775400000000000134e+01 2.861400000000000077e+01 1.076399999999999935e+01 3.794650000000000034e+01 5.394255912635924355e-02
-2.775300000000000011e+01 -1.260899999999999910e+00 6.083499999999999908e+00 -3.645205999999999724e-01 -9.705274405177438668e-02
-2.775000000000000000e+01 1.217099999999999937e+01 -4.468499999999999694e+00 -4.112945999999999991e+00 -9.665726294798501761e-02
-2.774399999999999977e+01 1.786599999999999966e+01 -3.003899999999999793e+00 3.881338999999999828e+01 -9.660453913395820880e-02
-2.774399999999999977e+01 1.873199999999999932e+01 -4.403900000000000148e+00 -4.892866999999999678e+01 -9.657736712147779734e-02
-2.774399999999999977e+01 1.873199999999999932e+01 -3.003899999999999793e+00 1.463221000000000105e+00 -9.659433181761556408e-02
-2.774299999999999855e+01 1.393699999999999939e+00 6.036999999999999922e+00 1.258350000000000080e+00 -9.700355902585551526e-02
-2.774099999999999966e+01 -8.426099999999999701e-01 7.834600000000000009e+00 -2.792140999999999984e+00 -9.707926418025034088e-02
-2.773600000000000065e+01 2.667599999999999838e+01 -5.132799999999999585e+00 1.529208999999999996e+01 -9.660758951914778792e-02
-2.773000000000000043e+01 1.968499999999999872e+01 1.126399999999999935e+01 4.181427000000000049e+01 2.401351006266392307e-01
-2.773000000000000043e+01 1.094599999999999973e+01 1.238100000000000023e+01 7.715557999999999694e+00 -8.000000000000000167e-02
-2.772299999999999898e+01 2.387599999999999945e+00 -4.902400000000000091e+00 -3.278903000000000123e+00 -9.679094674578167523e-02
-2.772299999999999898e+01 2.927100000000000080e+01 -3.534699999999999953e+00 5.114110000000000156e+00 7.348431491815354821e-02
-2.772299999999999898e+01 2.927100000000000080e+01 -1.747300000000000075e+00 3.900790999999999897e+00 7.318370220201834975e-02
-2.772299999999999898e+01 2.952499999999999858e+01 -2.641000000000000014e+00 9.513806000000000207e-01 7.337838082711346799e-02
-2.771499999999999986e+01 1.873199999999999932e+01 1.398399999999999999e+01 -2.091204999999999981e+00 2.395281585382861844e-01
-2.771300000000000097e+01 -1.962800000000000100e+00 4.349099999999999966e+00 -3.235608000000000040e+00 -9.703138258913204806e-02
-2.771300000000000097e+01 -1.962800000000000100e+00 5.749100000000000321e+00 -1.386052999999999980e+00 -9.705891331579992454e-02
-2.771199999999999974e+01 -3.617999999999999883e+00 -1.065399999999999991e+01 -6.755508999999999542e-01 -9.678577881782915449e-02
-2.771099999999999852e+01 -1.526999999999999913e+00 -1.010599999999999987e+01 4.321203999999999823e+00 -9.676489252524025919e-02
-2.770700000000000074e+01 -4.718799999999999883e+00 7.954200000000000159e+00 4.000967999999999886e-02 -9.715295390240184792e-02
-2.770400000000000063e+01 -7.460200000000000387e+00 -1.345899999999999963e+01 9.233114000000000043e-01 -9.679422819905338093e-02
-2.769500000000000028e+01 -8.934100000000000819e+00 -9.528000000000000469e+00 9.658571999999999491e+00 -9.687975364104883802e-02
-2.768400000000000105e+01 8.495699999999999363e+00 -4.948999999999999844e+00 -1.145245000000000068e+01 -9.670011804080101692e-02
-2.768400000000000105e+01 9.226300000000000168e+00 -4.948999999999999844e+00 -1.309267999999999965e+01 -9.668988570711585517e-02
-2.767500000000000071e+01 2.472299999999999898e+01 1.395199999999999996e+01 3.459534000000000109e+00 8.377977757181395702e-02
-2.767399999999999949e+01 -4.225399999999999601e+00 1.738099999999999978e+00 -5.821606000000000058e+00 -9.701920825191182041e-02
-2.766700000000000159e+01 1.496499999999999986e+01 -4.441399999999999793e+00 -2.539792999999999967e+00 -9.662076366463538679e-02
-2.766199999999999903e+01 1.036599999999999966e+01 -4.377100000000000435e+00 -5.224281000000000397e+00 -9.668207960842839510e-02
-2.766100000000000136e+01 -3.722300000000000164e+00 6.876699999999999591e+00 1.176797000000000004e+01 -9.711330794828398894e-02
-2.766000000000000014e+01 1.235500000000000043e+01 1.423000000000000043e+01 1.242422000000000004e+01 7.433388603621048085e-02
-2.765500000000000114e+01 -1.659399999999999986e+00 5.049100000000000144e+00 -3.699149999999999938e+00 -9.703969768368593540e-02
-2.765200000000000102e+01 2.794000000000000128e+01 -4.456699999999999662e+00 3.428171999999999997e+00 5.701671721422234274e-02
-2.764900000000000091e+01 2.476000000000000156e+01 8.028700000000000614e+00 -4.242715999999999710e+00 7.113980057014852865e-02
-2.764900000000000091e+01 2.646000000000000085e+01 8.028700000000000614e+00 -2.548064999999999802e+00 8.455524386322556263e-02
-2.764600000000000080e+01 1.983699999999999974e+01 1.327500000000000036e+01 -1.405631999999999948e+01 2.393266804817943127e-01
-2.764600000000000080e+01 2.869900000000000162e+01 1.175399999999999956e+01 3.819135000000000169e+00 5.384689434443499373e-02
-2.763800000000000168e+01 -1.086299999999999955e+01 -1.309399999999999942e+01 2.722688999999999915e+00 -9.684507649644749638e-02
-2.763200000000000145e+01 -6.633000000000000007e+00 -6.350000000000000089e-01 1.101102000000000025e+00 -9.701208182933143687e-02
-2.763200000000000145e+01 -6.379100000000000215e+00 -1.528699999999999948e+00 3.979346000000000050e+00 -9.699033724734539008e-02
-2.763200000000000145e+01 -6.379100000000000215e+00 2.587400000000000255e-01 -2.745403000000000038e+00 -9.702575732102783346e-02
-2.762999999999999901e+01 -7.801599999999999646e+00 -7.818699999999999761e+00 3.418334999999999901e+00 -9.689356346658464791e-02
-2.762800000000000011e+01 2.803300000000000125e+01 1.461700000000000088e+01 -1.600672000000000139e+01 8.394769867685808462e-02
-2.762600000000000122e+01 2.856500000000000128e+01 1.334299999999999997e+01 -7.949486000000000274e+00 5.364348826487812250e-02
-2.762600000000000122e+01 8.861000000000000654e+00 -5.649000000000000021e+00 -6.140984000000000442e+00 -9.668431985892000924e-02
-2.762199999999999989e+01 -6.919900000000000162e+00 -3.873600000000000154e+00 -1.259172000000000047e+01 -9.695345346457667768e-02
-2.761799999999999855e+01 2.528000000000000114e+01 -6.030000000000000249e+00 2.451864000000000043e+00 -9.656403798177339015e-02
-2.761799999999999855e+01 4.472999999999999865e+00 -4.106900000000000439e+00 -1.419872999999999941e+01 -9.677141511483207392e-02
-2.761799999999999855e+01 -4.519599999999999618e+00 -1.071100000000000030e+01 2.460846999999999785e+00 -9.679692031192996260e-02
-2.761599999999999966e+01 -3.922000000000000153e+00 2.438099999999999934e+00 -9.257555999999999230e+00 -9.702787527103536036e-02
-2.761599999999999966e+01 -3.576999999999999957e+00 3.220800000000000107e+00 -6.686955999999999456e-01 -9.703746966513335237e-02
-2.761400000000000077e+01 1.392699999999999960e+01 -4.411400000000000432e+00 -6.487889000000000017e+00 -9.663369240120525672e-02
-2.761299999999999955e+01 -6.291000000000000369e+00 -1.293800000000000061e+01 1.564275000000000082e+00 -9.678600556869090821e-02
-2.760999999999999943e+01 1.342200000000000060e+01 1.435899999999999999e+01 1.329851999999999990e+01 7.366505922205876522e-02
-2.760999999999999943e+01 2.508699999999999974e+01 1.483000000000000007e+01 1.718394999999999895e+00 8.370594247446554170e-02
-2.760800000000000054e+01 -4.634000000000000341e+00 1.052399999999999913e+01 1.610929000000000144e+01 -8.000000000000000167e-02
-2.760699999999999932e+01 2.435300000000000153e+01 -6.709100000000000286e+00 2.271849000000000007e+00 -1.134088231446653550e-01
-2.760399999999999920e+01 1.803099999999999881e+01 1.353700000000000081e+01 3.581205000000000083e-01 2.399840624122852317e-01
-2.759600000000000009e+01 5.378400000000000070e+00 8.144399999999999196e+00 -4.992567000000000199e+00 -9.696921087523899252e-02
-2.759600000000000009e+01 6.243599999999999817e+00 8.144399999999999196e+00 -8.720250999999999308e+00 -9.695328435171676751e-02
-2.759400000000000119e+01 1.969099999999999895e+01 1.227699999999999925e+01 6.121540999999999677e+00 2.397518482596843192e-01
-2.758099999999999952e+01 1.575300000000000011e+01 1.329299999999999926e+01 3.268303999999999832e+01 7.268487457022113074e-02
-2.757700000000000173e+01 -7.821799999999999642e+00 -6.920799999999999841e+00 2.478568999999999800e+00 -9.690993656666602174e-02
-2.757499999999999929e+01 1.829899999999999949e+01 -5.238999999999999879e+00 -1.452434000000000047e+01 -9.657032630495342163e-02
-2.757400000000000162e+01 -2.904199999999999893e+00 3.677000000000000046e+00 -1.419623999999999997e+00 -9.703474613984927610e-02
-2.757100000000000151e+01 1.664199999999999946e+01 -3.267999999999999794e+00 6.855755000000000265e+00 -9.661406532447890105e-02
-2.756899999999999906e+01 6.979000000000000092e+00 -4.146899999999999586e+00 2.574943000000000204e+00 -9.673293372446055416e-02
-2.755399999999999849e+01 2.525700000000000145e+01 -8.337099999999999511e-01 -8.762074999999999392e+00 5.659040919650950435e-02
-2.755099999999999838e+01 -2.799599999999999866e+00 -2.457100000000000062e+00 5.290314000000000405e+00 -9.691450799157716456e-02
-2.754799999999999827e+01 -8.090700000000000003e+00 -4.790300000000000225e+00 -4.856602999999999781e+00 -9.695374921210839214e-02
-2.754700000000000060e+01 2.744000000000000128e+01 -4.705899999999999750e+00 1.284383999999999970e+00 -9.663000751819564305e-02
-2.754400000000000048e+01 -5.248699999999999477e-01 6.083499999999999908e+00 -3.378182999999999936e+00 -9.703937492946942966e-02
-2.754200000000000159e+01 2.049099999999999966e+01 9.652699999999999392e+00 -3.787671000000000276e+01 5.448274418798134539e-02
-2.753999999999999915e+01 6.800300000000000011e+00 1.126699999999999946e+01 -2.368122000000000060e+00 -8.000000000000000167e-02
-2.753999999999999915e+01 6.800300000000000011e+00 1.220700000000000074e+01 -2.013520000000000110e+01 -8.000000000000001554e-02
-2.753900000000000148e+01 -1.077800000000000047e+01 -1.052399999999999913e+01 6.945594999999999963e+00 -9.688726584095098959e-02
-2.753699999999999903e+01 2.946699999999999875e+00 -4.154700000000000060e+00 -4.357375000000000220e+00 -9.679335298409012800e-02
-2.753600000000000136e+01 1.904400000000000048e+01 -5.726799999999999891e+00 -8.461807000000000301e+00 -9.655594503207648449e-02
-2.753500000000000014e+01 2.380499999999999972e+01 1.185500000000000043e+01 -3.263234000000000190e+00 8.395378159371048865e-02
-2.751800000000000068e+01 2.830399999999999849e+01 1.390099999999999980e+01 -1.058901999999999965e+01 5.353860247901898184e-02
-2.750700000000000145e+01 1.648499999999999943e+01 1.324300000000000033e+01 1.261304999999999943e+01 7.228936630062457458e-02
-2.750300000000000011e+01 2.412900000000000134e+01 1.262299999999999933e+01 -4.338147000000000197e+00 8.388830007858028015e-02
-2.750100000000000122e+01 -5.825800000000000090e+00 1.047400000000000109e+00 -1.083695999999999993e+00 -9.703236126601727518e-02
-2.750100000000000122e+01 8.029999999999999361e+00 1.302999999999999936e+01 -4.048718000000000217e+01 -8.000000000000001554e-02
-2.748199999999999932e+01 2.742500000000000071e+01 9.588200000000000500e+00 5.763387999999999955e+00 8.445334430311543517e-02
-2.748000000000000043e+01 2.677299999999999969e+01 1.573000000000000043e+01 -1.260026000000000046e+01 8.372928611486792072e-02
-2.747599999999999909e+01 1.927799999999999869e+01 1.416200000000000081e+01 -1.510818000000000083e+01 2.392082323074354588e-01
-2.747400000000000020e+01 2.376099999999999923e+01 1.068399999999999928e+01 -3.552643000000000217e+00 7.060607829846052286e-02
-2.746499999999999986e+01 3.778200000000000003e+00 8.276699999999999946e+00 -2.634726000000000123e+00 -9.700120869892034370e-02
-2.746199999999999974e+01 -3.080899999999999958e-02 6.420499999999999652e+00 -5.018253999999999770e+00 -9.703685761905390950e-02
-2.745700000000000074e+01 9.326599999999999113e+00 1.230000000000000071e+01 -3.397625000000000028e+01 -8.000000000000000167e-02
-2.745100000000000051e+01 4.801999999999999602e+00 8.534100000000000463e+00 -4.926605999999999597e+00 -9.698674975926065145e-02
-2.744900000000000162e+01 1.197700000000000031e+01 1.358000000000000007e+01 1.724884000000000128e+01 7.475622285347462148e-02
-2.744699999999999918e+01 -1.004999999999999893e+00 1.067099999999999937e+01 -4.907124999999999915e+01 -8.000000000000000167e-02
-2.744699999999999918e+01 -6.199300000000000033e+00 -2.373800000000000132e+00 1.110541999999999918e+00 -9.697059448388548053e-02
-2.744600000000000151e+01 -2.395399999999999974e+00 5.049100000000000144e+00 -3.297808999999999990e+00 -9.705299418645529919e-02
-2.744300000000000139e+01 9.220199999999999507e-01 6.373099999999999987e+00 -5.528243999999999936e+00 -9.701834296083874931e-02
-2.741700000000000159e+01 -9.263999999999999346e+00 -1.414000000000000057e+01 1.378843999999999959e+00 -9.680567666793790660e-02
-2.741700000000000159e+01 2.380699999999999861e+01 9.727399999999999380e+00 -3.666665000000000063e+00 7.083896680493721731e-02
-2.741499999999999915e+01 2.185500000000000043e+01 3.107899999999999885e+00 -3.827179000000000109e+00 5.654209514781377566e-02
-2.740899999999999892e+01 2.121999999999999886e+01 -6.558099999999999596e+00 -9.633515000000000272e-01 -9.652250057581097942e-02
-2.740700000000000003e+01 -4.658000000000000362e+00 2.438099999999999934e+00 -6.822608999999999924e+00 -9.704052569614499135e-02
-2.739799999999999969e+01 6.679999999999999716e+00 8.578500000000000014e+00 -4.372100999999999793e+00 -9.695246476901486776e-02
-2.739300000000000068e+01 7.408999999999999808e+00 1.020299999999999940e+01 1.377014999999999922e+01 -9.696781451604115365e-02
-2.738599999999999923e+01 -2.523899999999999810e+00 1.076900000000000013e+01 -1.393205000000000027e+01 -8.000000000000000167e-02
-2.738599999999999923e+01 -1.001700000000000035e+00 -9.256299999999999528e+00 1.560138000000000069e+01 -9.676825753771449434e-02
-2.738500000000000156e+01 1.484900000000000109e+00 -6.137500000000000178e+00 1.818409000000000120e+01 -9.678186796074259024e-02
-2.738500000000000156e+01 2.581800000000000139e+01 -5.160599999999999632e+00 1.487648000000000081e+01 -9.658874058795821615e-02
-2.736599999999999966e+01 1.903500000000000014e+01 -5.238999999999999879e+00 -1.823599000000000103e+01 -9.655964681528686477e-02
-2.735900000000000176e+01 9.963499999999999801e+00 -4.948999999999999844e+00 -7.780084999999999695e+00 -9.667642469054536780e-02
-2.735099999999999909e+01 2.078999999999999915e+01 4.490400000000000169e+00 3.516491999999999951e+00 5.646632396892022066e-02
-2.735099999999999909e+01 2.078999999999999915e+01 6.351600000000000357e+00 9.521806999999999910e-01 5.571507720980303086e-02
-2.734700000000000131e+01 1.829899999999999949e+01 -2.512999999999999901e+00 6.982591000000000214e+00 -9.660103566319190593e-02
-2.734600000000000009e+01 2.412300000000000111e+01 8.801199999999999690e+00 -4.393886000000000180e+00 7.102363079098936161e-02
-2.734199999999999875e+01 -2.376999999999999780e+00 -1.017699999999999960e+01 -2.642748999999999793e+00 -9.677304853326738898e-02
-2.734199999999999875e+01 1.129100000000000037e+01 -4.200000000000000178e+00 -4.211869000000000085e+00 -9.666863811072810841e-02
-2.733800000000000097e+01 -8.495400000000000063e+00 -8.717900000000000205e+00 4.689434999999999576e+00 -9.688623030115077472e-02
-2.733699999999999974e+01 2.078699999999999903e+01 5.438500000000000334e+00 1.925753000000000048e+00 5.608715017333230218e-02
-2.733500000000000085e+01 1.304499999999999993e+01 -4.388200000000000323e+00 -7.031283000000000172e+00 -9.664241586659653993e-02
-2.732400000000000162e+01 2.698499999999999943e+01 8.878700000000000259e+00 1.224939999999999962e+01 8.450279239322827651e-02
-2.732100000000000151e+01 2.555499999999999972e+01 1.558799999999999919e+01 -1.415456999999999965e+00 8.365166875720217443e-02
-2.731700000000000017e+01 -3.576599999999999779e-01 -7.604099999999999859e+00 3.849369000000000085e+01 -9.678494947873461651e-02
-2.731099999999999994e+01 1.943199999999999861e+01 -4.136499999999999844e+00 -9.517948999999999771e+00 -9.656757963300141578e-02
-2.731099999999999994e+01 1.943199999999999861e+01 -3.271199999999999886e+00 -4.213559000000000054e+00 -9.657797713475116397e-02
-2.730699999999999861e+01 -5.259299999999999642e+00 8.442500000000000782e+00 -3.518299999999999761e-01 -9.717447083760327731e-02
-2.730600000000000094e+01 -8.726099999999999968e-01 -8.298400000000000887e+00 1.711455000000000126e+01 -9.678116190169028243e-02
-2.730099999999999838e+01 8.061899999999999622e+00 -5.649000000000000021e+00 -5.598201999999999678e+00 -9.669227989025119818e-02
-2.730099999999999838e+01 9.660099999999999909e+00 -5.649000000000000021e+00 -5.186903000000000041e+00 -9.667003912454681658e-02
-2.728999999999999915e+01 -2.804199999999999804e+00 4.534699999999999953e+00 -2.502702000000000204e+00 -9.705011683132711009e-02
-2.728900000000000148e+01 1.041200000000000081e+01 1.193599999999999994e+01 2.004605999999999888e+00 -8.000000000000000167e-02
-2.728200000000000003e+01 1.416999999999999993e+01 1.382099999999999973e+01 1.864595000000000002e+00 7.337971615034014072e-02
-2.728000000000000114e+01 2.560999999999999943e+01 7.957900000000000418e+00 -4.096675000000000288e+00 7.102424574073426533e-02
-2.727700000000000102e+01 2.108899999999999864e+01 3.726999999999999869e+00 6.148164000000000406e+00 5.663317878164926544e-02
-2.727499999999999858e+01 1.459999999999999909e-01 -6.859700000000000131e+00 5.895918999999999954e+01 -9.678934554421174397e-02
-2.726699999999999946e+01 1.552100000000000080e+01 -3.406000000000000139e+00 2.485888000000000098e+00 -9.662285508795749600e-02
-2.726200000000000045e+01 -6.437700000000000422e+00 -3.218900000000000095e+00 2.378124000000000071e-01 -9.695753392937597748e-02
-2.726200000000000045e+01 1.728800000000000026e+01 1.346899999999999942e+01 6.758580000000000254e+00 7.174799758714807407e-02
-2.726099999999999923e+01 2.373100000000000165e+01 2.729299999999999837e+00 -6.579412999999999734e+00 5.588246958284559529e-02
-2.725799999999999912e+01 -7.621000000000000441e+00 -4.030300000000000438e+00 -4.922597999999999807e+00 -9.696040502702460429e-02
-2.725300000000000011e+01 2.085000000000000142e+01 7.155999999999999694e+00 -1.493152000000000079e+01 5.535110609427830453e-02
-2.725300000000000011e+01 2.105900000000000105e+01 8.953900000000000858e+00 -7.066868999999999801e+01 7.143434353016694938e-02
-2.725300000000000011e+01 1.154499999999999993e+01 1.269400000000000084e+01 1.826238000000000028e+01 7.529156483474679085e-02
-2.725199999999999889e+01 2.096099999999999852e+01 7.953299999999999592e+00 -4.601182000000000016e+01 5.496913023307792301e-02
-2.724500000000000099e+01 2.333599999999999852e+01 1.109600000000000009e+01 -3.329537000000000191e+00 7.054602189093858722e-02
-2.724099999999999966e+01 2.221000000000000085e+01 -6.802100000000000257e+00 -5.999927000000000454e-01 -1.134542413520826382e-01
-2.723799999999999955e+01 8.391299999999999315e+00 -6.408999999999999808e+00 -5.199290999999999663e+00 -9.667604002601110080e-02
-2.723799999999999955e+01 9.330700000000000216e+00 -6.408999999999999808e+00 -5.124869000000000341e+00 -9.666315770708355792e-02
-2.723499999999999943e+01 -4.067400000000000126e+00 3.484100000000000197e+00 -3.406118000000000201e+00 -9.705141846116079052e-02
-2.723400000000000176e+01 -5.393200000000000216e+00 1.747400000000000064e+00 -2.163317000000000156e+00 -9.703916151633019960e-02
-2.723300000000000054e+01 1.974399999999999977e+01 -5.785099999999999909e+00 -6.355902000000000385e+00 -9.654405962674288133e-02
-2.723000000000000043e+01 5.041500000000000092e+00 -4.102800000000000225e+00 -2.239755999999999858e+01 -9.675971642870227762e-02
-2.722899999999999920e+01 2.776399999999999935e+01 1.043900000000000006e+01 9.189766000000000545e+00 5.386252949041177990e-02
-2.722800000000000153e+01 -4.422299999999999898e+00 7.144000000000000128e+00 -9.864713000000000509e-01 -9.713272586488594373e-02
-2.722700000000000031e+01 1.500600000000000023e+01 -4.019000000000000128e+00 -3.635965999999999809e+00 -9.662085370302676834e-02
-2.722100000000000009e+01 -4.086999999999999744e+00 -1.022000000000000064e+01 -9.809563999999999950e+00 -9.679600285795586512e-02
-2.721799999999999997e+01 -3.307599999999999874e+00 -1.020700000000000074e+01 -1.450055000000000049e+01 -9.678498861313514223e-02
-2.721300000000000097e+01 2.824699999999999989e+01 1.109600000000000009e+01 2.306824999999999903e+01 5.386407487389906212e-02
-2.721000000000000085e+01 1.846799999999999997e+00 -5.379500000000000171e+00 9.993887000000000853e+00 -9.678753547021499981e-02
-2.721000000000000085e+01 2.306800000000000139e+01 1.185500000000000043e+01 -2.889902000000000193e+00 8.390203080103192379e-02
-2.720799999999999841e+01 -7.934000000000000163e+00 -1.389799999999999969e+01 1.240124999999999922e+00 -9.679036804408600037e-02
-2.720100000000000051e+01 -1.124699999999999989e+01 -1.277200000000000024e+01 3.248334999999999972e+00 -9.685328485579416946e-02
-2.719800000000000040e+01 2.867500000000000071e+01 -4.016300000000000203e+00 7.411902999999999686e+00 7.353216280232996449e-02
-2.719800000000000040e+01 2.867500000000000071e+01 -1.265700000000000047e+00 7.335402000000000200e+00 7.306050199592120653e-02
-2.718900000000000006e+01 1.952299999999999924e+00 6.848700000000000010e+00 6.242257000000000389e+00 -9.700810854887392809e-02
-2.718799999999999883e+01 2.670700000000000074e+00 7.444700000000000095e+00 5.649829000000000434e+00 -9.700602206840558406e-02
-2.718499999999999872e+01 -5.219599999999999795e+00 -1.097799999999999976e+01 1.576528000000000063e+01 -9.679954437101788434e-02
-2.718299999999999983e+01 -1.073499999999999943e+01 -1.374099999999999966e+01 5.622869999999999813e+00 -9.683022708714980609e-02
-2.717699999999999960e+01 -5.299100000000000144e+00 2.649000000000000021e+00 -1.557652000000000037e+01 -9.705595757976011317e-02
-2.717699999999999960e+01 2.747299999999999898e+01 1.567200000000000060e+01 -1.287184000000000106e+00 8.378696477871039328e-02
-2.717500000000000071e+01 1.707499999999999929e+01 -2.777099999999999902e+00 7.239654999999999951e+00 -9.661058911888657785e-02
-2.716300000000000026e+01 -2.976399999999999935e+00 5.408900000000000041e+00 -3.468243999999999883e+00 -9.707096523243875785e-02
-2.715700000000000003e+01 -5.352900000000000436e-01 8.105999999999999872e+00 9.103559000000000623e+00 -9.707960563779613472e-02
-2.715700000000000003e+01 -5.352900000000000436e-01 8.971299999999999386e+00 -1.032747999999999955e+01 -9.709673410517760672e-02
-2.715700000000000003e+01 -5.352900000000000436e-01 9.910700000000000287e+00 -4.086003000000000185e+01 -8.000000000000001554e-02
-2.715500000000000114e+01 2.645200000000000173e+01 -1.215000000000000080e+00 6.336229999999999585e+00 5.638205008925213646e-02
-2.714699999999999847e+01 2.339699999999999847e+01 1.261500000000000021e+01 -1.076582999999999934e+01 8.383611687089399800e-02
-2.714099999999999824e+01 1.210200000000000031e+01 -4.151099999999999568e+00 -5.793801000000000201e+00 -9.665617733918854815e-02
-2.713500000000000156e+01 -9.505300000000000082e+00 -9.918599999999999639e+00 1.920478999999999914e+01 -9.687835471146750976e-02
-2.713500000000000156e+01 1.982700000000000173e+01 1.369299999999999962e+01 -3.745192999999999728e+01 2.391208462371924859e-01
-2.712900000000000134e+01 -5.408999999999999808e+00 9.269999999999999574e+00 8.483971000000000151e-01 -7.656354218882494012e-02
-2.712900000000000134e+01 -5.177500000000000213e+00 1.008500000000000085e+01 1.498998999999999970e+00 -8.000000000000001554e-02
-2.712900000000000134e+01 -3.858999999999999986e+00 1.082000000000000028e+01 1.052753000000000014e+02 -7.999999999999998779e-02
-2.712800000000000011e+01 2.400300000000000011e+01 1.366999999999999993e+01 -4.448191999999999702e+00 8.375629263068948283e-02
-2.712800000000000011e+01 2.825700000000000145e+01 1.222000000000000064e+01 -1.121533999999999942e+01 5.373733375089904257e-02
-2.711799999999999855e+01 5.777499999999999858e+00 8.506899999999999906e+00 -9.579477999999999938e+00 -9.696725311300108396e-02
