2.683599999999999852e+01 -6.844599999999999795e+00 3.340500000000000114e+01 1.817229000000000028e+01 -6.269811243930042965e-02
2.684900000000000020e+01 -1.484200000000000053e+01 2.720799999999999841e+01 -5.955696999999999797e+00 -5.457752537935724874e-02
2.686100000000000065e+01 -1.476099999999999923e+01 3.115700000000000003e+01 -5.490387000000000128e+00 -3.344181398624233581e-01
2.686799999999999855e+01 3.188000000000000167e+00 3.407200000000000273e+01 -4.871855000000000047e+01 -1.256192560532284341e-01
2.686799999999999855e+01 4.480999999999999872e+00 3.175300000000000011e+01 -8.892547000000000423e+00 2.499339561331418991e-01
2.686799999999999855e+01 4.480999999999999872e+00 3.335099999999999909e+01 -2.046290000000000120e+01 2.412534487143919437e-01
2.686799999999999855e+01 4.708000000000000185e+00 3.255199999999999960e+01 -2.423980999999999852e+01 2.450032899941003151e-01
2.687099999999999866e+01 1.669299999999999951e-01 2.310800000000000054e+01 -1.672519000000000133e+01 4.572481724128384800e-02
2.688200000000000145e+01 -2.055800000000000072e+00 1.565700000000000003e+01 -4.012236999999999831e+00 -3.710499440492689288e-02
2.688200000000000145e+01 -1.190499999999999892e+00 1.565700000000000003e+01 -3.231037000000000159e+00 -3.434735584510881928e-02
2.689099999999999824e+01 1.020699999999999941e+00 1.941799999999999926e+01 7.281516000000000099e-01 -4.868039611289610297e-02
2.689300000000000068e+01 5.605099999999999527e-01 2.648799999999999955e+01 -4.875104999999999578e+00 4.087278637514654006e-02
2.690599999999999881e+01 -7.968300000000000161e+00 3.598599999999999710e+01 3.295885999999999871e+00 -2.548461308979738105e-01
2.690599999999999881e+01 4.351099999999999968e-01 2.386700000000000088e+01 -5.807191999999999688e+00 4.506341317814410719e-02
2.691600000000000037e+01 1.781000000000000083e-01 2.489999999999999858e+01 -5.006312000000000317e+00 4.286782465972836798e-02
2.692200000000000060e+01 2.191500000000000004e+00 1.636799999999999855e+01 -3.343045000000000044e+00 -2.508230472883391654e-02
2.693799999999999883e+01 -9.435000000000000497e+00 3.589300000000000068e+01 -1.594662000000000024e+00 -2.544691059756076790e-01
2.694099999999999895e+01 -2.359199999999999964e+00 1.495700000000000074e+01 -4.562808000000000419e+00 -3.548349214058544449e-02
2.694800000000000040e+01 6.773900000000000476e-01 2.024699999999999989e+01 -8.412713000000000108e+00 4.983538933401109733e-02
2.695200000000000173e+01 2.571100000000000052e-01 2.578800000000000026e+01 -3.697753000000000068e+00 4.145378690255305254e-02
2.696000000000000085e+01 1.622900000000000009e+00 1.564199999999999946e+01 -1.296294000000000057e+00 -2.409998915834321923e-02
2.696300000000000097e+01 -1.553299999999999947e+01 2.810699999999999932e+01 -1.998440999999999912e+00 -5.244726941407612530e-02
2.697100000000000009e+01 -1.060800000000000054e+01 1.444100000000000072e+01 1.403007999999999988e+01 -2.548626990678378723e-01
2.697800000000000153e+01 -1.105000000000000071e+01 3.431700000000000017e+01 -1.455959999999999921e+00 -2.539981252633146669e-01
2.698600000000000065e+01 -1.078899999999999970e+01 3.511800000000000210e+01 -3.371331000000000078e+00 -2.541180495548139295e-01
2.698799999999999955e+01 -8.618900000000000006e+00 1.566200000000000081e+01 6.147111999999999910e+00 -2.555445116336754752e-01
2.698900000000000077e+01 -1.480899999999999928e+01 2.807900000000000063e+01 -1.864087000000000049e+00 -5.257725452375143493e-02
2.698900000000000077e+01 1.990000000000000102e-01 1.483000000000000007e+01 -2.694713000000000136e+00 -2.644070399570168026e-02
2.698900000000000077e+01 -4.024000000000000021e+00 3.842900000000000205e+01 -6.963588999999999807e+00 -7.420616997038478879e-02
2.698900000000000077e+01 -2.504000000000000004e+00 3.842900000000000205e+01 -8.154678000000000537e+00 -8.111751856715168629e-02
2.699299999999999855e+01 2.105999999999999872e+00 1.932300000000000040e+01 1.989260000000000028e+00 -4.393376050442370645e-02
2.700300000000000011e+01 -1.453800000000000026e+01 1.651699999999999946e+01 2.229429999999999978e+01 -2.569513782083191478e-01
2.700300000000000011e+01 -1.367999999999999972e+01 1.392699999999999960e+01 6.172437000000000040e+01 -2.550869292440526293e-01
2.702199999999999847e+01 -1.203100000000000058e+01 1.389700000000000024e+01 1.285619999999999941e+01 -2.547295990475373917e-01
2.702400000000000091e+01 -9.751500000000000057e+00 1.490399999999999991e+01 1.531489000000000011e+01 -2.550244042005448963e-01
2.702400000000000091e+01 -7.486200000000000188e+00 1.490399999999999991e+01 6.823379000000000250e-02 -4.781189200177442949e-02
2.703699999999999903e+01 3.481300000000000061e+00 1.735200000000000031e+01 1.604502000000000095e+00 -2.451882213710617625e-02
2.703699999999999903e+01 3.481300000000000061e+00 1.840200000000000102e+01 -5.425614000000000381e+00 -3.131138469342852754e-02
2.704599999999999937e+01 -1.410899999999999999e+01 3.176399999999999935e+01 -1.053581999999999930e+01 -3.342210743295156439e-01
2.704599999999999937e+01 -1.282699999999999996e+01 3.251500000000000057e+01 -2.921959999999999980e+01 -2.537187654861403074e-01
2.707799999999999940e+01 -6.882100000000000328e+00 3.709700000000000131e+01 5.475643000000000038e-01 -2.552981971796442484e-01
2.707799999999999940e+01 -5.435999999999999943e+00 3.790299999999999869e+01 1.801092999999999833e+01 -6.910961507941390525e-02
2.709700000000000131e+01 1.073399999999999910e+00 2.305199999999999960e+01 -9.339733000000000729e+00 4.751966667734530692e-02
2.710300000000000153e+01 -4.405000000000000249e+00 1.348700000000000010e+01 -2.862232999999999805e+00 -3.699603994196234980e-02
2.710300000000000153e+01 -2.958899999999999864e+00 1.429299999999999926e+01 -1.073984999999999940e-01 -3.488881917598797566e-02
2.710300000000000153e+01 -1.703600000000000136e+01 2.257000000000000028e+01 1.298524999999999929e+00 -6.196344145553761562e-02
2.710399999999999920e+01 -5.453999999999999737e+00 3.143400000000000105e+01 1.061763999999999974e+01 -6.150141153736010668e-02
2.712000000000000099e+01 -1.265199999999999925e+01 1.954799999999999827e+01 4.237864000000000075e+00 3.583889434293638376e-02
2.712000000000000099e+01 -1.265199999999999925e+01 2.041400000000000148e+01 3.060678999999999927e+00 3.547594360117953954e-02
2.712699999999999889e+01 -1.616300000000000026e+01 2.769900000000000162e+01 -4.261096000000000217e+00 -5.307190047285019474e-02
2.713400000000000034e+01 2.342000000000000082e+00 2.400100000000000122e+01 8.157363999999999393e+00 4.867300827789776407e-02
2.713400000000000034e+01 1.316100000000000048e+00 3.364500000000000313e+01 -7.087958000000000425e+00 -1.052475973428182721e-01
2.714499999999999957e+01 9.467799999999999550e-01 2.495299999999999940e+01 -4.170633999999999730e+00 4.376515026981232792e-02
2.714699999999999847e+01 -1.350600000000000023e+01 1.757700000000000173e+01 1.496181999999999945e+01 -2.576510678945878596e-01
2.715599999999999881e+01 -1.378500000000000014e+01 2.117200000000000060e+01 7.628534000000000148e+00 3.480101144705467775e-02
2.716300000000000026e+01 -5.294100000000000250e+00 3.406300000000000239e+01 3.351926999999999879e+01 -6.549236083194259761e-02
2.716499999999999915e+01 -1.760399999999999920e+01 2.519800000000000040e+01 -1.239062000000000108e+00 -5.727444142584890707e-02
2.716499999999999915e+01 -1.737699999999999889e+01 2.599699999999999989e+01 -1.757390000000000008e+00 -5.596676789105990701e-02
2.716499999999999915e+01 -1.642800000000000082e+01 2.694600000000000151e+01 -5.563202000000000425e+00 -5.446318061722114912e-02
2.717000000000000171e+01 -4.241500000000000270e+00 3.231600000000000250e+01 -8.939308000000000254e-01 -6.535256259502754406e-02
2.717299999999999827e+01 1.612700000000000022e+00 2.737099999999999866e+01 -2.003915999999999897e+01 4.025716247099283412e-02
2.717299999999999827e+01 1.612700000000000022e+00 2.831099999999999994e+01 -2.511510000000000176e+01 2.598458519086105367e-01
2.717299999999999827e+01 1.612700000000000022e+00 2.917599999999999838e+01 -1.068660999999999994e+01 2.606037688757933957e-01
2.718700000000000117e+01 -7.008300000000000196e+00 1.435500000000000043e+01 -9.911952000000000540e-01 -4.517169129396413074e-02
2.719900000000000162e+01 -4.161500000000000199e+00 3.330400000000000205e+01 1.856307999999999936e+01 -6.723829012750326406e-02
2.720599999999999952e+01 -5.637699999999999712e+00 1.383099999999999952e+01 -2.231170000000000098e+00 -4.073574147042155480e-02
2.720899999999999963e+01 -8.668300000000000338e+00 3.592799999999999727e+01 5.567517999999999745e+01 -2.543935291623355410e-01
2.723100000000000165e+01 -1.046200000000000047e-01 3.488100000000000023e+01 1.580739999999999945e+01 -9.471360814309229270e-02
2.723300000000000054e+01 -6.411999999999999922e+00 3.151399999999999935e+01 -7.692898999999999710e+00 -5.958364310694790056e-02
2.724800000000000111e+01 -1.288899999999999935e+01 1.898900000000000077e+01 5.134667999999999566e+00 3.590572449056820409e-02
2.725199999999999889e+01 1.494899999999999896e+00 2.400100000000000122e+01 -1.570084000000000035e+00 4.657114540806346625e-02
2.725400000000000134e+01 3.766000000000000014e+00 2.457000000000000028e+01 -1.292891999999999930e+00 5.037696054718271421e-02
2.726899999999999835e+01 -7.544599999999999973e+00 3.227199999999999847e+01 9.807899000000000811e+00 -5.901785567404260746e-02
2.726899999999999835e+01 -7.544599999999999973e+00 3.313700000000000045e+01 1.128462000000000032e+01 -2.541984922924059864e-01
2.727199999999999847e+01 3.221799999999999997e+00 2.394800000000000040e+01 3.299195999999999795e+00 5.073814821542568104e-02
2.727400000000000091e+01 -1.021000000000000085e+01 3.582800000000000296e+01 -5.110091999999999857e+00 -2.540759005949345672e-01
2.727899999999999991e+01 -1.314000000000000057e+01 1.818400000000000105e+01 1.415347000000000044e+01 3.610379627197315283e-02
2.728000000000000114e+01 -1.448600000000000065e+01 1.416099999999999959e+01 3.152867999999999782e+00 -2.552200189669073804e-01
2.728600000000000136e+01 1.838400000000000034e+00 2.481599999999999895e+01 -3.586146999999999974e+00 4.556138118206818494e-02
2.728800000000000026e+01 -1.469100000000000072e+00 3.669100000000000250e+01 -6.007088999999999679e+00 1.462151720589779588e-02
2.728800000000000026e+01 -4.618900000000000228e-01 3.568399999999999750e+01 1.040855999999999959e+01 -9.315510480854101438e-02
2.729100000000000037e+01 -9.318899999999999295e+00 1.560399999999999920e+01 1.352144000000000013e+01 -2.553639096537458908e-01
2.729100000000000037e+01 -7.918899999999999828e+00 1.560399999999999920e+01 2.297719999999999985e+00 -5.018049352347438846e-02
2.730600000000000094e+01 -1.553299999999999947e+01 3.118299999999999983e+01 -4.469560000000000421e+00 -3.334923668996395696e-01
2.730799999999999983e+01 2.810099999999999820e+00 2.487300000000000111e+01 -1.089690999999999965e+00 4.745421050450070177e-02
2.733800000000000097e+01 3.947999999999999954e+00 3.132199999999999918e+01 -1.378175000000000061e+01 2.566132852122466890e-01
2.733800000000000097e+01 3.947999999999999954e+00 3.378199999999999648e+01 -5.953703999999999752e+01 -1.352694593932400047e-01
2.735000000000000142e+01 2.391000000000000014e+00 3.389200000000000301e+01 -8.753702000000000538e+00 -1.181744980961430685e-01
2.735000000000000142e+01 -6.203100000000000058e+00 3.395000000000000284e+01 2.709837999999999880e+01 -6.264371546603529628e-02
2.735000000000000142e+01 -1.690800000000000125e+01 2.921199999999999974e+01 -1.807377000000000011e+00 -3.340308933077523745e-01
2.735000000000000142e+01 -1.690800000000000125e+01 3.026200000000000045e+01 -2.037157999999999802e+00 -3.333337182814207211e-01
2.735000000000000142e+01 8.771299999999999653e-01 2.575900000000000034e+01 -5.682384999999999797e-01 4.167891304043158662e-02
2.735800000000000054e+01 -6.510000000000000231e-01 1.490099999999999980e+01 -2.893435999999999897e+00 -2.808489260637767743e-02
2.735800000000000054e+01 1.048999999999999932e+00 1.490099999999999980e+01 2.021078999999999848e+00 -2.177548865466526901e-02
2.736199999999999832e+01 2.955999999999999961e+00 1.650199999999999889e+01 1.202069999999999972e+00 -1.998254989702431816e-02
2.736199999999999832e+01 2.955999999999999961e+00 1.925199999999999889e+01 -4.871569000000000038e+00 -3.821976406434961920e-02
2.736299999999999955e+01 1.858999999999999986e+00 2.307199999999999918e+01 -4.370035999999999810e+00 4.910187633736737972e-02
2.737699999999999889e+01 -1.123399999999999999e+01 1.408399999999999963e+01 8.636748000000000758e+00 -2.544378946382132023e-01
2.738299999999999912e+01 7.114500000000000268e-01 2.139199999999999946e+01 -2.669769000000000148e+01 4.868244938235907066e-02
2.738299999999999912e+01 7.114500000000000268e-01 2.225700000000000145e+01 -2.427495000000000047e+01 4.757447844540414750e-02
2.738400000000000034e+01 1.505400000000000071e+00 1.996099999999999852e+01 -2.236146999999999885e+00 -5.011796103868536301e-02
2.739999999999999858e+01 -1.549300000000000033e+01 2.185200000000000031e+01 5.685991999999999713e+00 -6.433601456694156007e-02
2.740700000000000003e+01 -4.753999999999999559e+00 3.149200000000000088e+01 3.660484999999999989e+00 -6.167700302477835406e-02
2.741900000000000048e+01 1.381599999999999939e+00 2.511199999999999832e+01 -4.170633999999999730e+00 4.373708449978387647e-02
2.741900000000000048e+01 1.381599999999999939e+00 2.651200000000000045e+01 -7.270681999999999867e+00 4.089640776144803230e-02
2.742699999999999960e+01 2.980999999999999872e+00 3.051300000000000168e+01 -4.087348999999999677e+00 2.621111781779818517e-01
2.743400000000000105e+01 -1.295599999999999952e+01 1.393299999999999983e+01 2.514050999999999902e+01 -2.546912372101171607e-01
2.743700000000000117e+01 1.034100000000000019e+00 2.080900000000000105e+01 -6.153179999999999872e+00 5.003243923627739148e-02
2.744000000000000128e+01 -1.171700000000000053e+01 3.320700000000000074e+01 3.369187000000000154e+00 -2.535196184825586618e-01
2.745899999999999963e+01 2.867300000000000182e+00 2.315099999999999980e+01 -1.903620000000000090e+00 5.151006057967665031e-02
2.745899999999999963e+01 -3.263999999999999790e+00 3.871900000000000119e+01 -2.340709999999999980e+01 -7.543455435558382716e-02
2.745899999999999963e+01 -1.971000000000000085e+00 3.799799999999999756e+01 -2.066912999999999911e+01 -8.255475580746399200e-02
2.746099999999999852e+01 -1.525500000000000078e+01 1.506900000000000084e+01 9.008333999999999619e+00 -2.558051772505539612e-01
2.746699999999999875e+01 -4.594100000000000072e+00 3.400399999999999778e+01 4.349647999999999826e+01 -6.603308950445220538e-02
2.747599999999999909e+01 -2.430699999999999861e+00 1.497499999999999964e+01 -5.461364999999999803e+00 -3.407711691100035606e-02
2.749200000000000088e+01 -1.505899999999999928e+01 1.600600000000000023e+01 5.634820999999999636e+00 -2.563770378913620696e-01
2.749299999999999855e+01 -1.385800000000000054e+01 1.701899999999999835e+01 1.456598999999999933e+01 -2.570200556841972239e-01
2.750799999999999912e+01 4.659699999999999953e+00 2.457000000000000028e+01 -2.502603999999999829e+00 5.197069482803841345e-02
2.751000000000000156e+01 2.173299999999999788e+00 1.606400000000000006e+01 -2.409038999999999930e+00 -2.029333843430953382e-02
2.751099999999999923e+01 -6.365800000000000125e+00 3.770700000000000074e+01 7.814218999999999582e+00 -2.552631162494310990e-01
2.751099999999999923e+01 -4.735999999999999766e+00 3.817000000000000171e+01 7.758116000000000234e+00 -6.948453994851871984e-02
2.751500000000000057e+01 -1.480899999999999928e+01 3.149699999999999989e+01 -5.672399999999999665e+00 -3.335022083790279979e-01
2.751599999999999824e+01 -1.351900000000000013e+01 3.210099999999999909e+01 -1.118781000000000070e+01 -3.338841463007935495e-01
2.751699999999999946e+01 -7.542399999999999771e+00 3.650999999999999801e+01 9.949687999999999866e-01 -2.545064728904857798e-01
2.752499999999999858e+01 -1.463499999999999979e+01 2.124299999999999855e+01 6.017184999999999562e+00 3.436150286204990578e-02
2.753600000000000136e+01 -7.112000000000000099e+00 3.383700000000000330e+01 1.554964000000000013e+01 -2.540824468673284486e-01
2.755300000000000082e+01 -1.335200000000000031e+01 2.068100000000000094e+01 6.306129999999999569e+00 3.488854003359270761e-02
2.756500000000000128e+01 2.017100000000000115e+00 2.936599999999999966e+01 -6.574348999999999776e+00 2.642902712459360703e-01
2.757000000000000028e+01 -5.182900000000000063e+00 1.337500000000000000e+01 -1.690752999999999950e+00 -3.777373095264921488e-02
2.757700000000000173e+01 4.082799999999999763e+00 1.780900000000000105e+01 -1.531806000000000001e+00 -2.090013724823015784e-02
2.757900000000000063e+01 3.240699999999999914e+00 2.542000000000000171e+01 1.243068000000000062e+00 4.636794298771092226e-02
2.757900000000000063e+01 4.291299999999999670e+00 2.371999999999999886e+01 1.013106000000000062e+00 5.374532688214654630e-02
2.757900000000000063e+01 4.291299999999999670e+00 2.542000000000000171e+01 9.208204000000000278e+00 4.836235032229912328e-02
2.758200000000000074e+01 -1.781099999999999994e+01 2.286599999999999966e+01 -1.660959000000000074e+00 -6.080774708506768433e-02
2.758200000000000074e+01 -1.781099999999999994e+01 2.382400000000000162e+01 -6.446872000000000158e-01 -5.927783756128133380e-02
2.759299999999999997e+01 -6.381999999999999673e+00 1.399799999999999933e+01 -1.367642000000000024e+00 -4.219578565902603468e-02
2.761799999999999855e+01 4.371300000000000185e-01 3.433800000000000097e+01 5.532512999999999792e+00 -9.772944125751822919e-02
2.761799999999999855e+01 1.627999999999999892e+00 3.367399999999999949e+01 -3.410254000000000119e+00 -1.088078123511328210e-01
2.762300000000000111e+01 -1.637500000000000000e+01 2.196799999999999997e+01 3.186154999999999848e+00 -6.326619944798173023e-02
2.762800000000000011e+01 4.417699999999999960e+00 3.208200000000000074e+01 -2.065217000000000169e+01 2.525193900951701043e-01
2.762800000000000011e+01 4.417699999999999960e+00 3.302199999999999847e+01 -7.709488000000000341e+01 2.459007414001559977e-01
2.762800000000000011e+01 -3.555000000000000160e+00 1.381199999999999939e+01 6.046329000000000065e+00 -3.400448669058113438e-02
2.766199999999999903e+01 1.943100000000000049e+00 2.596600000000000108e+01 -4.525127000000000344e+00 4.232577200987829025e-02
2.766700000000000159e+01 3.188000000000000167e+00 3.384499999999999886e+01 -3.155020000000000024e+01 -1.287556462587218786e-01
2.767500000000000071e+01 2.479000000000000092e+00 1.985099999999999909e+01 -6.199680999999999997e+00 -4.416619804582366110e-02
2.767500000000000071e+01 -1.638299999999999912e+01 3.111199999999999832e+01 -1.761552999999999924e+00 -3.327342531189378949e-01
2.770200000000000173e+01 -1.651800000000000068e+01 2.685000000000000142e+01 -8.390703999999999496e+00 -5.427313502667848594e-02
2.770200000000000173e+01 -1.630900000000000105e+01 2.758599999999999852e+01 -7.277400000000000091e+00 -3.351838387039871581e-01
2.772400000000000020e+01 -9.809799999999999187e+00 1.520800000000000018e+01 1.469514000000000031e+01 -2.547399149419317665e-01
2.772400000000000020e+01 -8.618900000000000006e+00 1.587100000000000044e+01 2.873264999999999958e+00 -2.550956605780185238e-01
2.772400000000000020e+01 -7.427999999999999936e+00 1.520800000000000018e+01 -1.643371999999999888e-01 -4.750247822912186113e-02
2.775300000000000011e+01 -1.098499999999999943e+01 3.457399999999999807e+01 -2.830262999999999973e+00 -2.534432137987453482e-01
2.775300000000000011e+01 -1.075399999999999956e+01 3.538900000000000290e+01 -4.473863999999999841e+00 -2.535767259970688747e-01
2.775300000000000011e+01 -9.435000000000000497e+00 3.612400000000000233e+01 4.506306999999999618e+00 -2.538306638124597781e-01
2.775799999999999912e+01 -7.154499999999999638e+00 3.152299999999999969e+01 -4.562266000000000332e+01 -5.679936522454117481e-02
2.776099999999999923e+01 -1.768599999999999994e+01 2.478099999999999881e+01 -1.662295000000000078e+00 -5.765664900576893126e-02
2.777799999999999869e+01 -6.940400000000000347e+00 3.739999999999999858e+01 -1.401078000000000046e+00 -2.546878012691345394e-01
2.779100000000000037e+01 2.465500000000000025e+00 2.253800000000000026e+01 -3.077351999999999865e+00 5.137117618700486055e-02
2.781299999999999883e+01 -1.224499999999999922e+01 3.252499999999999858e+01 -2.659781999999999869e+01 -2.532068506716803058e-01
2.781299999999999883e+01 -1.058000000000000052e+00 3.616499999999999915e+01 8.784950000000000259e+00 1.334309740144512188e-02
2.781599999999999895e+01 1.411399999999999988e+00 2.252499999999999858e+01 -1.281475999999999971e+01 4.840164741973916607e-02
2.782199999999999918e+01 3.582300000000000040e+00 1.889499999999999957e+01 -6.825135000000000396e+00 -2.925054448528128376e-02
2.783699999999999974e+01 -1.060800000000000054e+01 1.444100000000000072e+01 1.610378000000000043e+01 -5.091364656585071341e-02
2.783800000000000097e+01 -8.002800000000000580e+00 3.628199999999999648e+01 3.831193999999999988e+01 -2.540170698967191831e-01
2.784400000000000119e+01 3.598700000000000010e+00 1.688500000000000156e+01 6.536285000000000345e+00 -1.551987212570588894e-02
2.784600000000000009e+01 2.469899999999999984e+00 3.009100000000000108e+01 -1.378727000000000036e+00 2.667079223989073933e-01
2.785200000000000031e+01 -5.671999999999999709e+00 3.809899999999999665e+01 7.124391000000000140e+00 -6.525758804255260559e-02
2.786400000000000077e+01 -6.166699999999999626e+00 3.120400000000000063e+01 -6.790765999999999636e+00 -5.697218229222222874e-02
2.786499999999999844e+01 2.027499999999999858e+00 2.693400000000000105e+01 -9.245210999999999402e+00 3.975951320629430435e-02
2.787000000000000099e+01 -4.183200000000000252e+00 3.201200000000000045e+01 -3.215148999999999924e-01 -6.164116293418574200e-02
2.787399999999999878e+01 1.108000000000000096e+00 2.182499999999999929e+01 -1.030457000000000001e+01 4.866555195196520939e-02
2.787800000000000011e+01 -1.733200000000000074e+01 2.209100000000000108e+01 2.225560000000000205e+00 -6.223085934573584221e-02
2.787999999999999901e+01 -1.281799999999999962e+01 3.225699999999999790e+01 -2.184232000000000085e+01 -3.338771928672262801e-01
2.788299999999999912e+01 1.990000000000000102e-01 1.457600000000000051e+01 -2.367913999999999852e+00 -2.160012903703564108e-02
2.788299999999999912e+01 1.645100000000000007e+00 1.538199999999999967e+01 1.044242999999999988e+01 -1.783019197701297964e-02
2.789199999999999946e+01 1.643999999999999906e+00 2.110399999999999920e+01 -4.693757999999999875e+00 5.108154228495862675e-02
2.789900000000000091e+01 -5.294100000000000250e+00 3.427199999999999847e+01 1.907982000000000156e+01 -2.543299471189077732e-01
2.789900000000000091e+01 -4.103200000000000180e+00 3.360799999999999699e+01 6.472606999999999999e+00 -6.478195585939515444e-02
2.789900000000000091e+01 -3.894099999999999895e+00 3.287199999999999989e+01 -7.834157000000000259e+00 -6.395760893025213834e-02
2.790200000000000102e+01 -1.208399999999999963e+01 1.375900000000000034e+01 1.416496000000000066e+01 -5.149460440253884885e-02
2.790899999999999892e+01 -1.730699999999999905e+00 1.524200000000000088e+01 -3.745004999999999917e+00 -3.099789458705269271e-02
2.791000000000000014e+01 2.180000000000000160e+00 2.038299999999999912e+01 -4.870486999999999789e+00 -5.000852109310598148e-02
2.792500000000000071e+01 -1.731400000000000006e+01 2.566799999999999926e+01 -2.327158000000000015e+01 -5.614748218650974371e-02
2.792500000000000071e+01 -1.455799999999999983e+01 1.427800000000000047e+01 1.094358000000000075e+01 -2.549506586982791534e-01
2.792500000000000071e+01 -1.455799999999999983e+01 1.675199999999999889e+01 1.382179999999999964e+01 -2.566231837182776365e-01
2.792500000000000071e+01 -1.336700000000000088e+01 1.741600000000000037e+01 1.429991000000000057e+01 -2.570572392567905262e-01
2.792899999999999849e+01 -4.024000000000000021e+00 3.842900000000000205e+01 -1.561186999999999969e+01 -7.014133435291967922e-02
2.792899999999999849e+01 -2.504000000000000004e+00 3.842900000000000205e+01 -2.395073000000000008e+01 -7.719010415393874613e-02
2.793299999999999983e+01 1.903000000000000025e+00 2.784100000000000108e+01 -4.309884000000000270e+01 -4.080189473313269172e-02
2.793599999999999994e+01 2.835399999999999920e+00 2.604599999999999937e+01 -2.863653999999999922e+00 4.291156192456783980e-02
2.793599999999999994e+01 3.831300000000000150e+00 2.309400000000000119e+01 -2.558901999999999788e+00 5.408737088621269617e-02
2.794300000000000139e+01 -1.369899999999999984e+01 3.175499999999999901e+01 -2.884021999999999863e+01 -3.336023002243230229e-01
2.794900000000000162e+01 -2.946600000000000108e+00 1.453800000000000026e+01 2.671227000000000018e+00 -3.302449998470077808e-02
2.795200000000000173e+01 -1.124900000000000055e+01 3.374300000000000210e+01 6.236404000000000281e+00 -2.531840334839868811e-01
2.796900000000000119e+01 -6.411999999999999922e+00 3.410499999999999687e+01 1.335727999999999938e+01 -2.537881954344710644e-01
2.798499999999999943e+01 -1.526099999999999923e+01 2.160000000000000142e+01 1.325975000000000037e+01 -6.480778148982171971e-02
2.799399999999999977e+01 3.527899999999999814e+00 2.239399999999999835e+01 -3.546024000000000065e+00 5.480312282859652051e-02
2.800400000000000134e+01 -5.460399999999999920e+00 3.124399999999999977e+01 -8.412874999999999659e-01 -5.728652444619940221e-02
2.802799999999999869e+01 -1.261100000000000065e+01 1.943799999999999883e+01 6.605649999999999800e+00 3.535849247634700876e-02
2.803399999999999892e+01 3.087000000000000188e+00 2.185099999999999909e+01 -3.932587999999999973e+00 5.439804140427049323e-02
2.803699999999999903e+01 -1.309399999999999942e+01 1.786100000000000065e+01 2.709819999999999851e+01 -2.573525018457906155e-01
2.803900000000000148e+01 -4.290099999999999802e+00 1.337100000000000044e+01 -1.745654999999999957e+00 -3.417155746622691642e-02
2.804100000000000037e+01 -1.514400000000000013e+01 1.455400000000000027e+01 3.876294000000000128e+00 -2.551645848470364131e-01
2.805300000000000082e+01 -7.008300000000000196e+00 1.435500000000000043e+01 -8.103061999999999765e-01 -4.375804037164117422e-02
2.805600000000000094e+01 -1.373300000000000054e+01 1.423099999999999987e+01 2.873813999999999869e+00 -2.546769932611384069e-01
2.805999999999999872e+01 3.766000000000000014e+00 2.601599999999999824e+01 1.364639999999999986e+01 4.422568164047256667e-02
2.807000000000000028e+01 4.746299999999999741e+00 2.569999999999999929e+01 1.402809000000000061e+01 4.697541158935473332e-02
2.807199999999999918e+01 -1.271199999999999974e+01 1.861799999999999855e+01 1.178716999999999970e+01 3.564581232546532030e-02
2.807900000000000063e+01 -1.557600000000000051e+01 1.551500000000000057e+01 3.486336000000000102e+00 -2.558086556666446243e-01
2.808299999999999841e+01 1.844100000000000072e+00 2.182499999999999929e+01 -5.804764999999999731e+00 5.052491075353519878e-02
2.808899999999999864e+01 3.149700000000000166e+00 1.959499999999999886e+01 -2.467195999999999945e+00 -3.607039410697737702e-02
2.809199999999999875e+01 9.280399999999999761e-01 3.394100000000000250e+01 6.577358000000000260e+00 -1.009877685006540099e-01
2.809799999999999898e+01 3.657700000000000173e+00 3.331199999999999761e+01 -3.291331999999999880e+01 -1.348598185727844789e-01
2.809900000000000020e+01 1.770799999999999930e+00 2.878600000000000136e+01 -3.005127999999999844e+01 2.676330618261927308e-01
2.810399999999999920e+01 5.141300000000000203e+00 2.404500000000000171e+01 6.218886000000000358e+00 5.439740895330602566e-02
2.810399999999999920e+01 5.141300000000000203e+00 2.509499999999999886e+01 2.272752000000000105e+00 5.004672819521642502e-02
2.810699999999999932e+01 4.822000000000000064e+00 1.796999999999999886e+01 -1.654541000000000039e+00 -3.385278690322185424e-01
2.810800000000000054e+01 -1.521000000000000085e+01 1.649299999999999855e+01 6.897496000000000294e+00 -2.563974353675431139e-01
2.811199999999999832e+01 -1.273600000000000065e+01 2.012099999999999866e+01 5.706939000000000206e+00 3.496431644021193164e-02
2.812999999999999901e+01 -6.526500000000000412e+00 3.785000000000000142e+01 2.327393999999999963e+00 -6.209989481969514780e-02
2.813800000000000168e+01 -5.326699999999999768e-01 3.531499999999999773e+01 1.190850999999999971e+01 -8.931435427799309934e-02
2.815599999999999881e+01 -9.318899999999999295e+00 1.560399999999999920e+01 1.176800000000000068e+01 -5.145882124241928091e-02
2.815599999999999881e+01 -7.918899999999999828e+00 1.560399999999999920e+01 4.813826999999999967e-01 -4.899695603182291359e-02
2.815800000000000125e+01 2.718999999999999861e+00 3.341100000000000136e+01 -1.771170000000000044e+01 -1.226570617277985831e-01
2.816100000000000136e+01 3.987099999999999866e+00 3.255199999999999960e+01 -1.775025000000000119e+01 2.535461483362866919e-01
2.816100000000000136e+01 -1.378500000000000014e+01 2.082700000000000173e+01 7.594719000000000442e+00 3.435019820947290969e-02
2.816700000000000159e+01 -6.866699999999999804e+00 3.126300000000000168e+01 -3.809212000000000131e+01 -4.056827996124316021e-02
2.817099999999999937e+01 -6.923899999999999721e+00 3.406300000000000239e+01 7.870057999999999776e-01 -2.533851833307331214e-01
2.817699999999999960e+01 2.612600000000000033e+00 2.108299999999999841e+01 -8.440440999999999860e+00 5.389232098894632117e-02
2.819999999999999929e+01 -1.723300000000000054e+01 2.973699999999999832e+01 -3.714748000000000161e+00 -3.328176971726966582e-01
2.819999999999999929e+01 -1.697899999999999920e+01 2.884299999999999997e+01 -1.335773000000000099e+00 -3.335576605293261165e-01
2.819999999999999929e+01 -1.697899999999999920e+01 3.063100000000000023e+01 -1.121431999999999984e+00 -3.323160341232147541e-01
2.819999999999999929e+01 -1.553299999999999947e+01 3.143700000000000117e+01 -6.169025999999999677e+00 -3.324401049682920162e-01
2.820299999999999940e+01 4.189499999999999780e+00 2.255099999999999838e+01 -6.467716000000000243e+00 5.654507693013664793e-02
2.820700000000000074e+01 -8.056499999999999773e+00 3.243900000000000006e+01 -2.868152999999999953e-01 -2.530152669893509509e-01
2.820700000000000074e+01 -8.056499999999999773e+00 3.330400000000000205e+01 2.881816000000000155e+00 -2.530622105151633106e-01
2.821900000000000119e+01 -2.034299999999999997e+00 3.766899999999999693e+01 -3.261690999999999718e+01 -7.884288406245013037e-02
2.823100000000000165e+01 5.729000000000000092e+00 1.796999999999999886e+01 -3.194945000000000146e+00 -3.399363052371138227e-01
2.823199999999999932e+01 -1.021000000000000085e+01 3.582800000000000296e+01 -7.876089999999999591e+00 -2.532910136748187102e-01
2.825100000000000122e+01 3.086599999999999788e+00 2.038800000000000168e+01 -4.914604999999999890e+00 -4.459257117964182671e-02
2.825799999999999912e+01 -3.263999999999999790e+00 3.849199999999999733e+01 -2.219403000000000148e+01 -7.171296395274925906e-02
2.826099999999999923e+01 3.886099999999999888e+00 2.185099999999999909e+01 -1.272823999999999955e+01 5.703381479343091337e-02
2.826500000000000057e+01 1.958900000000000086e+00 2.966900000000000048e+01 -3.172505000000000130e+00 2.701015553292153148e-01
2.826500000000000057e+01 2.966099999999999959e+00 3.067599999999999838e+01 -1.503816000000000042e+00 2.693801359946795815e-01
2.826800000000000068e+01 -4.913199999999999790e+00 3.814200000000000301e+01 -3.040068000000000215e+00 -6.540720784557114975e-02
2.827299999999999969e+01 -4.753999999999999559e+00 3.149200000000000088e+01 -2.533116000000000256e-01 -5.744025381085827997e-02
2.827700000000000102e+01 -1.450500000000000078e+01 2.595499999999999829e+01 -1.652556999999999832e+01 -5.648627732389536332e-02
2.828600000000000136e+01 -1.172899999999999920e+01 3.296200000000000330e+01 -6.088485000000000147e-01 -2.528668186117826733e-01
2.828800000000000026e+01 -1.333000000000000007e+01 3.175900000000000034e+01 -1.580523999999999951e+01 -3.334856877422617827e-01
2.829899999999999949e+01 4.315000000000000391e+00 1.717899999999999849e+01 -1.636452000000000018e+00 -9.906307843100101498e-03
2.831599999999999895e+01 2.136000000000000121e+00 1.577899999999999991e+01 1.045844999999999969e-01 -1.408320702335577601e-02
2.832000000000000028e+01 -6.575700000000000323e+00 1.365499999999999936e+01 -1.947619999999999907e+00 -4.054598841236441154e-02
2.832400000000000162e+01 3.556700000000000195e+00 2.109100000000000108e+01 -7.438488000000000433e+00 -5.184422774108127241e-02
2.833200000000000074e+01 -4.594100000000000072e+00 3.400399999999999778e+01 5.505360999999999727e+00 -6.198478669516491874e-02
2.834100000000000108e+01 -2.430699999999999861e+00 1.497499999999999964e+01 -4.427914000000000350e+00 -3.123625807287075395e-02
2.834799999999999898e+01 4.734200000000000408e+00 2.316300000000000026e+01 -2.609278000000000208e+00 5.646837846578740827e-02
2.835099999999999909e+01 1.071299999999999919e+00 1.475000000000000000e+01 -1.014283999999999963e+00 -1.590472066975544621e-02
2.835200000000000031e+01 3.063600000000000101e+00 1.641700000000000159e+01 1.659739999999999993e+00 -1.172712515194225535e-02
2.835699999999999932e+01 -1.810699999999999932e+01 2.334499999999999886e+01 1.441246999999999945e+00 -5.957785201181391155e-02
2.835699999999999932e+01 -1.787600000000000122e+01 2.253000000000000114e+01 1.601433000000000106e+00 -6.100429273665277513e-02
2.835699999999999932e+01 -1.787600000000000122e+01 2.416000000000000014e+01 3.830976000000000159e+00 -5.834914438364683514e-02
2.835699999999999932e+01 -1.766600000000000037e+01 2.489600000000000080e+01 6.739351999999999565e-01 -5.717267602732471060e-02
2.835699999999999932e+01 -1.655699999999999861e+01 2.179500000000000171e+01 6.858073000000000086e+00 -6.314358264734612480e-02
2.835800000000000054e+01 -1.385800000000000054e+01 1.701899999999999835e+01 1.901091999999999871e+01 -2.565142233069448996e-01
2.836599999999999966e+01 2.603000000000000203e+00 2.670799999999999841e+01 -1.975400000000000045e+00 3.925439598017073373e-02
2.837600000000000122e+01 -1.439899999999999913e+01 3.148799999999999955e+01 -1.248005000000000031e+01 -3.328875632843663612e-01
2.837999999999999901e+01 3.335700000000000109e+00 3.149899999999999878e+01 6.376178999999999597e-01 2.653875866306437681e-01
2.839399999999999835e+01 -5.384999999999999787e+00 1.297300000000000075e+01 -1.553261999999999921e+00 -3.573590472981229282e-02
2.839499999999999957e+01 -1.655399999999999849e+01 2.595799999999999841e+01 -2.975159999999999982e+01 -5.556726779076998080e-02
2.840299999999999869e+01 -7.555100000000000371e+00 3.671399999999999864e+01 2.776371000000000144e+00 -2.536417167294936492e-01
2.840299999999999869e+01 -6.108999999999999986e+00 3.411999999999999744e+01 4.476753000000000426e+00 -2.532791967366996855e-01
2.840500000000000114e+01 -1.000500000000000000e-01 3.461500000000000199e+01 2.115271999999999863e+01 -9.063797298163980831e-02
2.840599999999999881e+01 -1.547499999999999964e+01 2.689799999999999969e+01 -1.612087000000000003e+01 -5.391760279638636855e-02
2.840700000000000003e+01 -5.415000000000000036e+00 3.418500000000000227e+01 4.234793999999999947e+00 -2.535065171452773880e-01
2.840700000000000003e+01 -4.224000000000000199e+00 3.204899999999999949e+01 -1.463834999999999997e+00 -5.872796719446413821e-02
2.840800000000000125e+01 -6.510000000000000231e-01 1.490099999999999980e+01 -2.422228000000000048e+00 -2.357005984855923067e-02
2.841000000000000014e+01 -1.910400000000000098e+00 3.659300000000000352e+01 -1.570785000000000053e+01 -7.907644296459379052e-02
2.841199999999999903e+01 -1.590600000000000058e+01 2.776300000000000168e+01 -6.013487999999999722e+00 -3.347796545799263668e-01
2.841799999999999926e+01 5.257299999999999862e+00 1.715700000000000003e+01 -2.465215000000000156e+00 -3.369849681108899597e-01
2.842200000000000060e+01 -3.462499999999999911e+00 1.410100000000000087e+01 5.619060999999999639e-01 -3.222316543657911814e-02
2.844099999999999895e+01 -1.124499999999999922e+01 1.395400000000000063e+01 1.006570999999999927e+01 -5.022573975984254840e-02
2.844600000000000151e+01 -9.787000000000000810e+00 1.484699999999999953e+01 1.387756000000000078e+01 -4.993698722790557848e-02
2.845799999999999841e+01 6.528100000000000236e+00 1.796999999999999886e+01 -2.826570999999999945e+00 -3.410158187105635230e-01
2.846000000000000085e+01 -8.618900000000000006e+00 1.566200000000000081e+01 2.616867000000000054e+00 -5.006756000348353691e-02
2.846499999999999986e+01 -1.308500000000000085e+01 2.076899999999999835e+01 7.280947000000000280e+00 3.434789023765424942e-02
2.847299999999999898e+01 -7.142400000000000304e+00 1.465099999999999980e+01 -7.567502999999999869e-01 -4.416186851098242300e-02
2.847400000000000020e+01 -7.623899999999999899e+00 3.173900000000000077e+01 -2.007289000000000101e+01 -5.397884453507608565e-02
2.847400000000000020e+01 -7.623899999999999899e+00 3.400399999999999778e+01 -2.464960000000000040e+00 -2.528743595908790609e-01
2.848600000000000065e+01 -1.376900000000000013e+01 2.595499999999999829e+01 -6.115450000000000053e+00 -5.675776313817526564e-02
2.850300000000000011e+01 1.879499999999999948e+00 3.351299999999999812e+01 -2.422991000000000117e+00 -1.114201331566054415e-01
2.850400000000000134e+01 -1.535800000000000054e+01 2.150000000000000000e+01 4.724872000000000405e+00 -6.470940502453320642e-02
2.850799999999999912e+01 -1.543599999999999994e+01 2.597700000000000031e+01 -5.303058999999999656e+01 -5.585388988882308142e-02
2.851099999999999923e+01 -1.289000000000000057e+01 1.397600000000000087e+01 3.297633999999999954e+00 -5.244627087932342974e-02
2.851899999999999835e+01 -7.343700000000000117e+00 3.749399999999999977e+01 -3.014154000000000000e+00 -2.538423352040374836e-01
2.852100000000000080e+01 4.394000000000000128e+00 1.873000000000000043e+01 -1.014143000000000017e+00 -1.777227485485327607e-02
2.852100000000000080e+01 5.259299999999999642e+00 1.873000000000000043e+01 7.651938000000000351e-01 -3.418520203143732283e-01
2.852100000000000080e+01 6.198699999999999655e+00 1.721000000000000085e+01 -2.580934000000000061e+00 -3.382186232822479988e-01
2.852100000000000080e+01 6.198699999999999655e+00 1.873000000000000043e+01 -1.844025000000000025e+00 -3.433906153101894398e-01
2.852199999999999847e+01 3.849699999999999900e+00 1.932799999999999940e+01 -5.259407000000000387e-01 -2.632615828651502926e-02
2.852799999999999869e+01 -1.068900000000000006e+01 3.505299999999999727e+01 -1.153908999999999985e+01 -2.528827943357673247e-01
2.853900000000000148e+01 3.065999999999999837e+00 2.641900000000000048e+01 4.275965000000000321e-02 3.993889094925087702e-02
2.854400000000000048e+01 -1.493800000000000061e+01 2.525499999999999901e+01 1.912368000000000023e+01 -5.764705942916929088e-02
2.854400000000000048e+01 -1.493800000000000061e+01 2.665500000000000114e+01 -2.274200000000000088e+01 -5.450953570047595287e-02
2.854400000000000048e+01 -1.407199999999999918e+01 2.525499999999999901e+01 9.512748999999999455e+00 -5.820597309961426935e-02
2.854400000000000048e+01 -1.407199999999999918e+01 2.665500000000000114e+01 -8.311451999999999174e+00 -5.483156293678984744e-02
2.856800000000000139e+01 -9.435000000000000497e+00 3.589300000000000068e+01 -7.555655999999999928e+00 -2.530314066271268092e-01
2.857100000000000151e+01 3.320000000000000173e-01 3.428099999999999881e+01 5.216064999999999685e+01 -9.370401315306080281e-02
2.857499999999999929e+01 -1.463499999999999979e+01 2.124299999999999855e+01 9.994192999999999216e+00 -6.593145263682477497e-02
2.857999999999999829e+01 3.546300000000000008e+00 2.002799999999999869e+01 -6.279196999999999917e+00 -3.554393823339093567e-02
2.859100000000000108e+01 -1.263000000000000078e+01 3.181700000000000017e+01 -1.871066000000000074e+01 -3.336193631541438664e-01
2.859199999999999875e+01 -8.437099999999999156e+00 3.331900000000000261e+01 2.165763999999999800e+00 -2.525861287124936960e-01
2.859400000000000119e+01 -1.601099999999999923e+01 1.601000000000000156e+01 1.666922999999999933e+00 -2.559134966144014367e-01
2.860000000000000142e+01 -6.166699999999999626e+00 3.099500000000000099e+01 -3.427827000000000179e+00 -4.064549033071056250e-02
2.862000000000000099e+01 3.240000000000000213e+00 3.271200000000000330e+01 -1.613525999999999883e+01 2.566585148933827609e-01
2.862600000000000122e+01 -5.908000000000000362e+00 3.829500000000000171e+01 -3.717302000000000106e+00 -6.120042379681167599e-02
2.865099999999999980e+01 -8.133699999999999264e+00 3.401899999999999835e+01 -6.692319999999999602e+00 -2.526158988306558273e-01
2.866100000000000136e+01 -1.455799999999999983e+01 1.406900000000000084e+01 1.883300999999999892e+00 -2.544087672959454705e-01
2.866100000000000136e+01 -1.455799999999999983e+01 1.696099999999999852e+01 1.516089999999999982e+01 -2.563621459184650675e-01
2.866300000000000026e+01 -1.382700000000000040e+00 3.564000000000000057e+01 2.717755000000000010e+01 -8.058260114411650021e-02
2.867800000000000082e+01 -8.390000000000000568e+00 3.279999999999999716e+01 4.058377000000000123e+00 -2.524509476343022585e-01
2.868900000000000006e+01 -2.794299999999999784e+00 3.795900000000000318e+01 -3.135765999999999920e+01 -7.168530425807671802e-02
2.869300000000000139e+01 1.612700000000000022e+00 2.831099999999999994e+01 -3.120148999999999972e+01 2.706950220287770437e-01
2.869300000000000139e+01 1.612700000000000022e+00 2.917599999999999838e+01 5.064369000000000121e+00 2.726487401488077444e-01
2.870100000000000051e+01 1.969200000000000061e+00 2.757900000000000063e+01 -1.079592000000000063e+01 -4.544538229953216935e-02
2.870499999999999829e+01 -1.593299999999999983e+01 1.499000000000000021e+01 3.041878000000000082e+00 -2.552169808288210495e-01
2.871000000000000085e+01 -1.710200000000000031e+01 2.535600000000000165e+01 -1.790777000000000063e+00 -5.635983284415637534e-02
2.871900000000000119e+01 4.438299999999999912e+00 2.228399999999999892e+01 -2.398410000000000153e+01 5.815645526461331316e-02
2.871900000000000119e+01 -1.521400000000000041e+01 3.145400000000000063e+01 -1.131648000000000032e+01 -3.320638455022352775e-01
2.872500000000000142e+01 -1.638299999999999912e+01 2.836199999999999832e+01 -5.280578000000000216e-01 -3.337934485663011652e-01
2.872500000000000142e+01 -1.638299999999999912e+01 3.111199999999999832e+01 2.004872999999999905e+00 -3.317478856999862558e-01
2.873000000000000043e+01 1.990000000000000102e-01 1.469400000000000084e+01 -1.915003999999999929e+00 -1.768792532914899296e-02
2.873499999999999943e+01 4.067300000000000360e+00 2.060900000000000176e+01 -6.051193999999999740e+00 -3.961312720019181249e-02
2.873600000000000065e+01 -8.086600000000000676e+00 3.210000000000000142e+01 -3.109633999999999787e+00 -2.523806927355404239e-01
2.874899999999999878e+01 -3.733000000000000096e+00 3.805799999999999983e+01 -1.992984999999999829e+01 -6.694940688474433632e-02
2.875199999999999889e+01 -2.464900000000000091e+00 3.719899999999999807e+01 -2.644952999999999932e+01 -7.325903471871154926e-02
2.875900000000000034e+01 -1.121299999999999919e+01 3.339900000000000091e+01 -8.503486999999999574e-01 -2.524896174880175703e-01
2.875900000000000034e+01 -1.100399999999999956e+01 3.413499999999999801e+01 -1.054452000000000028e-01 -2.525568904712853779e-01
2.876099999999999923e+01 -2.688499999999999890e+00 3.642999999999999972e+01 -1.779700000000000060e+01 -7.197599982839349153e-02
2.876300000000000168e+01 -6.235000000000000320e+00 1.304400000000000048e+01 -2.141125000000000167e+00 -3.751210274679311202e-02
2.876300000000000168e+01 -4.535000000000000142e+00 1.304400000000000048e+01 4.743842999999999810e-01 -3.250687243368687029e-02
2.876999999999999957e+01 5.013600000000000279e+00 2.613200000000000145e+01 7.135896999999999935e+00 4.281365713176225885e-02
2.877199999999999847e+01 -1.265399999999999991e+01 1.831500000000000128e+01 1.812528999999999968e+01 -2.572671424649649041e-01
2.877199999999999847e+01 -1.244500000000000028e+01 1.905099999999999838e+01 1.046114999999999995e+01 3.511675461915506058e-02
2.878800000000000026e+01 -8.795600000000000307e+00 3.595199999999999818e+01 3.103324999999999889e+00 -2.528528080468823158e-01
2.878999999999999915e+01 2.370000000000000107e+00 3.019500000000000028e+01 -3.121389999999999887e+00 2.759868870767699378e-01
2.879400000000000048e+01 4.316699999999999982e+00 2.138100000000000023e+01 -1.199977999999999945e+01 -5.041044965282726054e-02
2.879500000000000171e+01 -1.544100000000000072e+01 1.701800000000000068e+01 2.787532999999999817e+00 -2.564158783241536343e-01
2.879599999999999937e+01 -1.208399999999999963e+01 1.401299999999999990e+01 6.628053000000000416e+00 -5.123295256125124514e-02
2.880900000000000105e+01 -1.604200000000000159e+01 2.526599999999999824e+01 -2.929355999999999938e+01 -5.689749744651474705e-02
2.881400000000000006e+01 -2.376100000000000101e+00 3.566199999999999903e+01 -8.287625000000000242e+00 -7.294925404810054248e-02
2.881800000000000139e+01 3.910699999999999843e+00 2.635099999999999909e+01 5.138564999999999827e+00 4.002353414697683298e-02
2.882100000000000151e+01 -1.643400000000000105e+01 1.686799999999999855e+01 2.005393000000000203e+00 -2.563932806330181946e-01
2.882999999999999829e+01 -9.955699999999999550e-01 3.489600000000000080e+01 1.872764000000000095e+01 -8.078063826776929468e-02
2.883599999999999852e+01 -1.733200000000000074e+01 2.209100000000000108e+01 3.812164000000000108e+00 -6.189120973316160346e-02
2.883899999999999864e+01 5.581699999999999662e+00 2.550600000000000023e+01 8.359275999999999929e-01 -2.275664386250206006e-01
2.883999999999999986e+01 -4.714999999999999858e+00 3.165200000000000102e+01 -4.719928000000000345e+00 -5.465732847523050580e-02
2.883999999999999986e+01 -4.714999999999999858e+00 3.391799999999999926e+01 -9.376115999999999673e+00 -5.884699749908085809e-02
2.884100000000000108e+01 -1.350999999999999979e+00 1.516799999999999926e+01 -2.552175999999999778e+00 -2.557541042898365397e-02
2.884900000000000020e+01 3.078100000000000058e+00 1.634400000000000119e+01 -2.877065999999999790e-01 -7.231024615243513212e-03
2.885300000000000153e+01 4.403200000000000003e+00 2.002400000000000091e+01 -3.009647999999999879e+00 -2.852136496354076151e-02
2.885600000000000165e+01 -9.051500000000000767e+00 1.517099999999999937e+01 3.895096000000000114e+00 -4.900234571415217066e-02
2.885800000000000054e+01 4.827399999999999913e+00 1.932000000000000028e+01 9.460514999999999119e+00 -3.431606312972698136e-01
2.889699999999999847e+01 5.569399999999999906e+00 2.451399999999999935e+01 1.848667999999999978e+00 -2.289503624142406601e-01
2.889699999999999847e+01 2.406800000000000050e+00 3.300399999999999778e+01 -3.422419999999999796e+00 -1.168154679932635609e-01
2.889699999999999847e+01 -1.507900000000000063e+01 2.733099999999999952e+01 -7.972819999999999574e+00 -5.265913173008682918e-02
2.889699999999999847e+01 -1.259399999999999942e+01 2.037199999999999989e+01 9.914918999999999372e+00 3.436861089255078411e-02
2.889699999999999847e+01 -1.238499999999999979e+01 1.963599999999999923e+01 9.601516000000000162e+00 3.478006557899569057e-02
2.890099999999999980e+01 -1.578999999999999915e+01 2.199099999999999966e+01 3.040640000000000143e+01 -6.329249485372570594e-02
2.890599999999999881e+01 -7.633300000000000196e+00 1.504800000000000004e+01 -7.863987999999999534e-01 -4.570529195736804107e-02
2.894099999999999895e+01 -1.450500000000000078e+01 2.476399999999999935e+01 6.804490000000000371e+00 -5.878698420743707492e-02
2.894099999999999895e+01 -1.450500000000000078e+01 2.714600000000000080e+01 -5.391713000000000200e+00 -5.317557169574392562e-02
2.894399999999999906e+01 -1.378500000000000014e+01 2.117200000000000060e+01 1.058283999999999914e+01 3.370812274042777473e-02
2.895200000000000173e+01 8.727500000000000258e-01 3.360499999999999687e+01 -5.900508999999999560e+00 -9.633844472803756998e-02
2.895200000000000173e+01 5.729000000000000092e+00 1.667699999999999960e+01 -2.671870000000000189e+00 -3.360562903300685078e-01
2.895200000000000173e+01 5.729000000000000092e+00 1.926300000000000168e+01 2.745204999999999984e+01 -3.452415194040260871e-01
2.895400000000000063e+01 5.212100000000000399e+00 2.367599999999999838e+01 4.720734000000000208e+00 -1.544824142889281507e-02
2.895899999999999963e+01 -6.919299999999999784e+00 3.430400000000000205e+01 -5.001965000000000217e+00 -2.523573236590367919e-01
