8.983399999999999608e+00 6.600400000000000489e+01 7.238299999999999557e+01 1.776033999999999935e+01 1.003394537464624703e-01
8.983800000000000452e+00 4.323799999999999955e+01 5.077799999999999869e+01 3.678978999999999999e-01 3.474004871075546397e-02
8.984099999999999753e+00 6.818000000000000682e+01 4.976400000000000290e+01 6.703310000000000102e+00 -7.330505062885024625e-02
8.984500000000000597e+00 4.353099999999999881e+01 4.691299999999999670e+01 5.057684000000000069e+00 5.037703139224768145e-02
8.986499999999999488e+00 6.392900000000000205e+01 4.905199999999999960e+01 6.653501999999999583e+00 -2.683339342436687480e-01
8.987500000000000711e+00 2.498499999999999943e+01 5.053199999999999648e+01 4.501318999999999626e+00 -3.508170323616647823e-01
8.987500000000000711e+00 2.622299999999999898e+01 5.053199999999999648e+01 5.788821000000000438e+00 -5.363333569780329851e-02
8.996299999999999741e+00 4.548599999999999710e+01 4.878999999999999915e+01 3.646463999999999928e+00 -8.652292615690114139e-03
9.000099999999999767e+00 4.524799999999999756e+01 6.777299999999999613e+01 5.502533999999999814e+00 -2.747949835703664134e-01
9.002900000000000347e+00 6.714400000000000546e+01 5.272099999999999653e+01 1.152394999999999925e+01 -7.744389088478635663e-02
9.002900000000000347e+00 6.801000000000000512e+01 5.272099999999999653e+01 7.989499999999999602e+00 -7.863029364739675120e-02
9.004899999999999238e+00 5.852799999999999869e+01 6.347099999999999653e+01 7.047949999999999493e-01 -2.747601109736211855e-01
9.010300000000000864e+00 6.047599999999999909e+01 6.526300000000000523e+01 -1.095121000000000011e+00 -2.748730353618347166e-01
9.011699999999999378e+00 6.222299999999999898e+01 7.399200000000000443e+01 1.356217999999999968e+01 -2.735384019590414439e-01
9.011900000000000688e+00 2.965700000000000003e+01 7.723900000000000432e+01 -2.773113999999999990e+01 -2.731066619896915237e-01
9.013099999999999667e+00 6.982200000000000273e+01 7.462699999999999534e+01 2.493574999999999875e+01 -9.293946692052021397e-02
9.019199999999999662e+00 7.118699999999999761e+01 7.281999999999999318e+01 7.359397000000000411e+00 -1.748767724238772803e-01
9.019399999999999196e+00 6.487099999999999511e+01 7.162500000000000000e+01 -5.471446000000000254e+00 -8.007853326628687485e-02
9.019999999999999574e+00 2.767699999999999960e+01 5.128999999999999915e+01 8.919449000000000183e+00 -5.785480260586990664e-02
9.021499999999999631e+00 2.845200000000000173e+01 7.288899999999999579e+01 -2.090002000000000137e+00 -2.730978837967529271e-01
9.021499999999999631e+00 6.590900000000000603e+01 6.489100000000000534e+01 2.524678999999999895e+00 1.009411343856362747e-01
9.023799999999999599e+00 6.120900000000000318e+01 7.077100000000000080e+01 4.943166999999999867e+00 -2.737837225443940925e-01
9.023799999999999599e+00 6.120900000000000318e+01 7.163700000000000045e+01 7.762675999999999910e+00 -2.736471982491137100e-01
9.028600000000000847e+00 2.922200000000000131e+01 5.124199999999999733e+01 1.392689000000000021e+01 -1.470936340395631592e-01
9.036199999999999122e+00 5.098799999999999955e+01 4.615500000000000114e+01 4.424843000000000082e+00 -3.802240663037596002e-01
9.036300000000000665e+00 4.288799999999999812e+01 6.181499999999999773e+01 3.601436000000000348e+01 -7.154827319868492519e-02
9.036400000000000432e+00 3.397399999999999665e+01 5.450999999999999801e+01 1.228345000000000020e+01 -1.826872352490151452e-01
9.038899999999999935e+00 6.193099999999999739e+01 7.529399999999999693e+01 1.094370999999999938e+01 -2.733313236319449002e-01
9.039300000000000779e+00 5.703499999999999659e+01 6.841299999999999670e+01 3.466512999999999955e+00 -2.730733253011950468e-01
9.039899999999999380e+00 5.877600000000000335e+01 7.380500000000000682e+01 3.890302000000000149e+00 -2.728777234635179072e-01
9.041999999999999815e+00 3.570900000000000318e+01 5.072599999999999909e+01 5.317167000000000421e+00 -9.843421765927898304e-02
9.043200000000000571e+00 7.031000000000000227e+01 5.524399999999999977e+01 1.375062999999999924e+00 -8.326349401365022718e-02
9.051000000000000156e+00 5.603399999999999892e+01 7.301600000000000534e+01 5.126046999999999798e+00 -2.723803417574053309e-01
9.052500000000000213e+00 5.200300000000000011e+01 7.830899999999999750e+01 2.565109000000000083e+00 -3.631431440504211960e-01
9.052500000000000213e+00 6.886799999999999500e+01 4.917699999999999960e+01 1.673477000000000103e+01 -7.358827486803774798e-02
9.052500000000000213e+00 6.886799999999999500e+01 5.028699999999999903e+01 2.494258999999999915e+01 -7.612911216061320208e-02
9.052599999999999980e+00 5.067499999999999716e+01 7.913500000000000512e+01 9.419418000000000291e+01 -3.631760602394605852e-01
9.053000000000000824e+00 7.107599999999999341e+01 7.378700000000000614e+01 1.183522999999999996e+02 -1.748122124081788187e-01
9.055500000000000327e+00 4.523100000000000165e+01 6.610299999999999443e+01 1.752907999999999911e+00 -7.041668020028360453e-02
9.057700000000000529e+00 3.281700000000000017e+01 5.521399999999999864e+01 9.594982999999999151e+00 -1.759885182348068233e-01
9.059400000000000119e+00 6.740699999999999648e+01 7.525600000000000023e+01 -7.049088000000000243e+00 -9.379033160458351281e-02
9.061199999999999477e+00 6.684099999999999397e+01 5.202100000000000080e+01 1.285174999999999912e+01 -7.599089151756019400e-02
9.061299999999999244e+00 2.374500000000000099e+01 5.123700000000000188e+01 8.438325000000000742e+00 -2.622746258662226326e-01
9.061999999999999389e+00 6.374199999999999733e+01 7.192199999999999704e+01 2.306561999999999912e+01 -2.741313220230172654e-01
9.064099999999999824e+00 6.651699999999999591e+01 6.365699999999999648e+01 5.077050999999999981e+00 1.007309636681125165e-01
9.069599999999999440e+00 4.171900000000000119e+01 5.250800000000000267e+01 -8.766496000000000288e-01 -6.391001683636823860e-02
9.070999999999999730e+00 5.343800000000000239e+01 4.990599999999999881e+01 -2.164126999999999867e+01 -2.902007762226047616e-01
9.080399999999999139e+00 2.151999999999999957e+01 5.290899999999999892e+01 6.493165000000000298e+00 -2.829825265359978137e-01
9.082200000000000273e+00 5.066400000000000148e+01 4.701800000000000068e+01 1.467218000000000089e+01 -3.815174265919288876e-01
9.084300000000000708e+00 5.304800000000000182e+01 7.655700000000000216e+01 -1.344915999999999912e+01 -3.631186711453651128e-01
9.084300000000000708e+00 5.444800000000000040e+01 7.655700000000000216e+01 -1.102433000000000085e+01 -2.719494285872742223e-01
9.091599999999999682e+00 4.822999999999999687e+01 7.134999999999999432e+01 4.350209000000000437e+00 -2.714733602873440899e-01
9.091699999999999449e+00 2.801200000000000045e+01 7.467600000000000193e+01 -3.257776999999999923e+00 -2.738458053484768007e-01
9.092599999999999127e+00 3.306900000000000261e+01 7.465600000000000591e+01 6.016890999999999767e-01 -2.702650836812795498e-01
9.092599999999999127e+00 3.393399999999999750e+01 7.465600000000000591e+01 -8.496976000000000528e-01 -1.770653374961677629e-01
9.093199999999999505e+00 5.064699999999999847e+01 4.536899999999999977e+01 6.129141999999999868e+00 -1.383237473599231160e-01
9.094400000000000261e+00 5.218200000000000216e+01 4.597899999999999920e+01 -4.083049000000000262e-01 -3.786365904006013250e-01
9.099099999999999966e+00 4.932500000000000284e+01 7.732099999999999795e+01 4.372165999999999997e+00 -3.632293518077853167e-01
9.099299999999999500e+00 6.932699999999999818e+01 5.724099999999999966e+01 4.538579000000000008e+01 -8.344939139940288353e-02
9.107900000000000773e+00 6.792700000000000671e+01 5.040500000000000114e+01 -1.099688000000000088e+01 -7.472845179656911752e-02
9.109999999999999432e+00 5.580799999999999983e+01 4.919400000000000261e+01 1.469097000000000097e+00 -2.992211358165392521e-01
9.110699999999999577e+00 5.914500000000000313e+01 7.295499999999999829e+01 6.082068999999999726e+00 -2.730150919733377313e-01
9.110699999999999577e+00 5.914500000000000313e+01 7.465500000000000114e+01 1.133937000000000062e+01 -2.728610478606200984e-01
9.110699999999999577e+00 5.170000000000000284e+01 7.900900000000000034e+01 5.480984000000000300e+00 -3.631418290643271818e-01
9.111100000000000421e+00 4.382999999999999829e+01 4.778199999999999648e+01 4.057623999999999675e+00 4.691148041309541050e-02
9.111900000000000333e+00 6.613800000000000523e+01 6.648600000000000421e+01 6.720523999999999942e-01 1.006146745906099510e-01
9.112199999999999633e+00 6.734600000000000364e+01 5.127199999999999847e+01 2.773131999999999930e+00 -7.552562920151384418e-02
9.114000000000000767e+00 2.816300000000000026e+01 7.368300000000000693e+01 -4.716896000000000200e+00 -2.735602752803752979e-01
9.114000000000000767e+00 6.619799999999999329e+01 6.304699999999999704e+01 5.313282000000000060e+00 1.009518828915579175e-01
9.114499999999999602e+00 2.608599999999999852e+01 6.759399999999999409e+01 -1.815069000000000043e+00 -2.743236531011358226e-01
9.114499999999999602e+00 2.629500000000000171e+01 6.832999999999999829e+01 -6.630521999999999805e-01 -2.742444289752842268e-01
9.115500000000000824e+00 4.557999999999999829e+01 7.330700000000000216e+01 4.002537000000000234e+00 -2.734628446977033778e-01
9.119099999999999540e+00 5.794100000000000250e+01 5.808800000000000097e+01 1.098803999999999981e+01 -7.181632906895255020e-02
9.124100000000000321e+00 3.854899999999999949e+01 4.988799999999999812e+01 6.642935999999999730e+00 -6.644164464672005881e-03
9.124900000000000233e+00 3.220900000000000318e+01 7.567499999999999716e+01 -7.835280000000000022e+00 -2.711624907188824318e-01
9.127700000000000813e+00 3.685300000000000153e+01 5.020499999999999829e+01 8.966469999999999274e+00 -1.154872999704901516e-02
9.133200000000000429e+00 5.976700000000000301e+01 5.782699999999999818e+01 -7.015534999999999854e+00 -7.378229216229291454e-02
9.133399999999999963e+00 4.606300000000000239e+01 7.540000000000000568e+01 8.357255999999999574e+00 -2.729100822250080660e-01
9.133399999999999963e+00 4.692900000000000205e+01 7.540000000000000568e+01 7.233678000000000274e+00 -2.723254121089980218e-01
9.135099999999999554e+00 7.016899999999999693e+01 4.841299999999999670e+01 7.612834000000000323e+00 -7.508846131162717763e-02
9.135999999999999233e+00 5.708400000000000318e+01 4.869800000000000040e+01 1.578089000000000075e+00 -3.058958972762981787e-01
9.135999999999999233e+00 5.853000000000000114e+01 4.950399999999999778e+01 3.663292999999999910e+00 -1.844091641952134708e-01
9.135999999999999233e+00 5.887500000000000000e+01 5.028699999999999903e+01 -2.263170999999999822e+00 -1.846191328121886965e-01
9.140700000000000713e+00 6.234599999999999653e+01 4.920199999999999818e+01 8.615957999999999117e+00 -2.710827736834395263e-01
9.150999999999999801e+00 6.537199999999999989e+01 4.944800000000000040e+01 8.342052999999999940e+00 -6.867101305527620325e-02
9.152300000000000324e+00 5.251599999999999824e+01 4.677600000000000335e+01 -2.847904999999999909e+00 -3.795777487488297686e-01
9.152799999999999159e+00 3.142899999999999849e+01 5.360999999999999943e+01 2.063031000000000148e+01 -1.689994578426028959e-01
9.152799999999999159e+00 3.163800000000000168e+01 5.434599999999999653e+01 2.083160000000000167e+01 -1.702239292879791088e-01
9.152799999999999159e+00 3.422899999999999920e+01 5.360999999999999943e+01 1.320752000000000059e+01 -8.660204016269125449e-02
9.156299999999999883e+00 5.589600000000000080e+01 6.949099999999999966e+01 5.107257999999999853e+00 -2.725971617064131269e-01
9.157400000000000873e+00 4.473899999999999721e+01 6.186399999999999721e+01 1.246024000000000065e+01 -6.765966651175443769e-02
9.162200000000000344e+00 2.140299999999999869e+01 5.427400000000000091e+01 2.859236999999999806e+00 -2.843723897641488585e-01
9.163299999999999557e+00 6.691200000000000614e+01 4.900399999999999778e+01 4.713568000000000424e+00 -6.854279137465205118e-02
9.163299999999999557e+00 6.785200000000000387e+01 4.900399999999999778e+01 4.201107999999999620e+00 -7.098088394323304184e-02
9.163299999999999557e+00 6.871699999999999875e+01 5.192399999999999949e+01 7.918764999999999610e+00 -7.897455435175762539e-02
9.166199999999999903e+00 6.909600000000000364e+01 5.110499999999999687e+01 8.878788999999999376e+00 -7.835239918787932634e-02
9.170899999999999608e+00 3.082900000000000063e+01 5.049199999999999733e+01 9.740700999999999610e+00 -1.646607530753649573e-01
9.170899999999999608e+00 6.686199999999999477e+01 7.466100000000000136e+01 1.613534999999999897e+01 -9.434297896808074846e-02
9.172000000000000597e+00 6.691200000000000614e+01 5.911500000000000199e+01 -3.994733000000000089e+01 -8.259423867398238417e-02
9.173700000000000188e+00 4.912400000000000233e+01 4.521300000000000097e+01 1.429720000000000013e+01 -1.509413761274577825e-01
9.175000000000000711e+00 4.944800000000000040e+01 7.823300000000000409e+01 1.933020000000000138e+01 -3.632079406098969176e-01
9.175000000000000711e+00 7.142300000000000182e+01 4.925300000000000011e+01 2.819255000000000067e+01 -7.939000847003041539e-02
9.175000000000000711e+00 7.142300000000000182e+01 5.021099999999999852e+01 3.548293999999999926e+01 -8.072042180568494985e-02
9.177400000000000446e+00 5.824399999999999977e+01 5.878799999999999670e+01 1.133022000000000062e+01 -7.288503010493947720e-02
9.181499999999999773e+00 5.766799999999999926e+01 6.320799999999999841e+01 -5.105697000000000152e+00 -2.744102497499057436e-01
9.182700000000000529e+00 2.600499999999999901e+01 6.920300000000000296e+01 -8.017813999999999774e-01 -2.748283486747530313e-01
9.184499999999999886e+00 5.842099999999999937e+01 5.725800000000000267e+01 3.142415999999999876e+00 -7.188105228238067523e-02
9.184499999999999886e+00 5.928600000000000136e+01 5.865800000000000125e+01 -1.140428999999999915e+00 -7.393201026825958755e-02
9.184900000000000730e+00 3.091900000000000048e+01 7.743699999999999761e+01 -2.552223000000000042e+01 -2.724373276353911910e-01
9.191499999999999559e+00 5.946300000000000097e+01 5.712700000000000244e+01 -1.729052000000000089e-01 -7.312308411414847331e-02
9.194300000000000139e+00 4.021600000000000108e+01 5.086299999999999955e+01 1.154584000000000010e+01 -7.351157964596058414e-02
9.195999999999999730e+00 6.536899999999999977e+01 6.033100000000000307e+01 -1.772224999999999895e+01 1.019456749324196554e-01
9.195999999999999730e+00 6.536899999999999977e+01 6.119599999999999795e+01 -1.393928999999999974e+00 1.017432557397345699e-01
9.196500000000000341e+00 6.831799999999999784e+01 7.146699999999999875e+01 -2.867564999999999920e+00 -9.468265766322106480e-02
9.196600000000000108e+00 3.767900000000000205e+01 7.552700000000000102e+01 3.080609000000000108e+01 -2.715891823262608917e-01
9.198999999999999844e+00 5.226200000000000045e+01 4.751400000000000290e+01 -1.042723999999999984e+00 -3.806284950894918695e-01
9.198999999999999844e+00 5.379699999999999704e+01 4.597899999999999920e+01 -2.578196999999999850e+00 -2.823781354104646923e-01
9.200499999999999901e+00 4.125600000000000023e+01 6.838200000000000500e+01 1.186731999999999898e+00 -2.737674833381711359e-01
9.207700000000000884e+00 6.671699999999999875e+01 6.901200000000000045e+01 -1.320586000000000038e+00 1.001662811342921983e-01
9.208999999999999631e+00 4.572299999999999898e+01 6.401699999999999591e+01 1.501674000000000042e+01 -2.751910741845354780e-01
9.208999999999999631e+00 4.572299999999999898e+01 6.488299999999999557e+01 1.996528999999999954e+01 -2.749127452481444633e-01
9.216100000000000847e+00 6.289900000000000091e+01 7.290500000000000114e+01 1.644841999999999871e+01 -2.737671472846354703e-01
9.216699999999999449e+00 5.822699999999999676e+01 6.797400000000000375e+01 -1.460328999999999944e+01 -2.734236231605130518e-01
9.216699999999999449e+00 5.909300000000000352e+01 6.797400000000000375e+01 -8.187241999999999464e+00 -2.736752083505145650e-01
9.216799999999999216e+00 4.725900000000000034e+01 4.465400000000000347e+01 4.274967999999999790e+01 -1.702932282696391353e-01
9.217999999999999972e+00 2.175700000000000145e+01 5.346099999999999852e+01 5.291374000000000244e+00 -2.823685904411337155e-01
9.222500000000000142e+00 4.138600000000000279e+01 7.476999999999999602e+01 1.495350000000000001e+01 -2.729652201855023441e-01
9.224000000000000199e+00 3.214900000000000091e+01 7.661400000000000432e+01 -4.604012000000000171e+01 -2.715107037906335785e-01
9.228899999999999437e+00 4.425699999999999790e+01 7.529399999999999693e+01 4.282033000000000200e+00 -2.735331671812393228e-01
9.230600000000000804e+00 6.664499999999999602e+01 6.489100000000000534e+01 2.512790999999999997e+00 1.004358167279205266e-01
9.235699999999999577e+00 6.012400000000000233e+01 6.881399999999999295e+01 3.255911000000000222e+00 -2.737961346484655833e-01
9.239399999999999835e+00 6.074199999999999733e+01 7.544199999999999307e+01 1.567107000000000028e+01 -2.730603560262934160e-01
9.242000000000000881e+00 3.771800000000000352e+01 7.048999999999999488e+01 2.782936999999999994e+00 -8.893480073803748664e-02
9.242000000000000881e+00 3.792699999999999960e+01 6.975400000000000489e+01 -1.127754000000000012e+01 -8.909403627575052109e-02
9.242000000000000881e+00 3.792699999999999960e+01 7.122599999999999909e+01 4.399967999999999790e+01 -8.905426304843572227e-02
9.242000000000000881e+00 3.911800000000000210e+01 7.189000000000000057e+01 3.695492000000000132e+01 -8.974441276727671002e-02
9.247999999999999332e+00 2.577100000000000080e+01 6.581900000000000261e+01 -4.611684999999999590e+00 -2.744024486845512145e-01
9.254300000000000637e+00 4.085399999999999920e+01 6.414499999999999602e+01 3.683911999999999853e+00 -2.747273269829800801e-01
9.254300000000000637e+00 4.106300000000000239e+01 6.488200000000000500e+01 -5.084155999999999676e-01 -2.745774076557706556e-01
9.254500000000000171e+00 4.113000000000000256e+01 6.328999999999999915e+01 1.106298999999999921e+01 -2.751669307230283912e-01
9.257999999999999119e+00 4.456900000000000261e+01 4.475300000000000011e+01 3.231777999999999906e+01 6.359029198054941268e-02
9.257999999999999119e+00 4.588799999999999812e+01 4.401800000000000068e+01 5.095221999999999696e+00 2.187486515125998121e-01
9.258499999999999730e+00 4.550500000000000256e+01 6.537399999999999523e+01 2.046781999999999879e+00 -2.750141609490200367e-01
9.261799999999999145e+00 6.643999999999999773e+01 6.552800000000000580e+01 3.651762999999999870e+00 1.004661825314161205e-01
9.262299999999999756e+00 5.252799999999999869e+01 4.521900000000000119e+01 2.817063999999999790e+00 -3.764840047708089554e-01
9.262299999999999756e+00 5.346800000000000352e+01 4.521900000000000119e+01 2.010338000000000125e-01 -2.767444870241075328e-01
9.262299999999999756e+00 5.346800000000000352e+01 4.673899999999999721e+01 -7.209696000000000105e+00 -2.835193739010997138e-01
9.268299999999999983e+00 5.089500000000000313e+01 4.486899999999999977e+01 6.247154000000000096e+00 -1.353120105651042793e-01
9.269000000000000128e+00 4.422399999999999665e+01 4.531499999999999773e+01 8.556984999999999175e+00 5.872374599065526002e-02
9.270300000000000651e+00 6.757699999999999818e+01 5.202100000000000080e+01 7.017581999999999987e+00 -7.771518523875252382e-02
9.273699999999999832e+00 5.933700000000000330e+01 6.341100000000000136e+01 4.989486999999999561e+00 -2.749874420821878385e-01
9.273699999999999832e+00 5.933700000000000330e+01 6.481100000000000705e+01 -7.332938000000000400e+00 -2.745089145797728336e-01
9.273699999999999832e+00 6.020300000000000296e+01 6.341100000000000136e+01 1.757787999999999906e+00 -7.689842335893949665e-02
9.273699999999999832e+00 6.020300000000000296e+01 6.481100000000000705e+01 -2.536900000000000155e+00 -2.748199476983919087e-01
9.283099999999999241e+00 2.603900000000000148e+01 6.657800000000000296e+01 -1.964322999999999908e+01 -2.742683755075540075e-01
9.283699999999999619e+00 5.954800000000000182e+01 5.221300000000000097e+01 -6.931916000000000189e-01 -6.813886613151394489e-02
9.283699999999999619e+00 6.094800000000000040e+01 5.221300000000000097e+01 4.562840999999999703e+00 -7.177281865199580668e-02
9.284900000000000375e+00 3.748100000000000165e+01 4.975300000000000011e+01 5.486684000000000339e+00 -1.008682094995528959e-02
9.286699999999999733e+00 5.696300000000000097e+01 7.431399999999999295e+01 2.593576999999999799e+00 -2.724277633501816509e-01
9.288299999999999557e+00 3.492199999999999704e+01 5.082000000000000028e+01 5.723360999999999699e+00 -9.553965718149814990e-02
9.288899999999999935e+00 6.036999999999999744e+01 7.230100000000000193e+01 8.560173999999999950e+00 -2.733030918952447652e-01
9.294000000000000483e+00 3.972899999999999920e+01 7.568500000000000227e+01 1.932827999999999946e+01 -2.725373922923334802e-01
9.295999999999999375e+00 2.965500000000000114e+01 5.054200000000000159e+01 7.396643000000000079e+00 -1.517982132542476104e-01
9.299699999999999633e+00 4.462599999999999767e+01 7.444400000000000261e+01 4.391056999999999988e+00 -2.737224872821150679e-01
9.299699999999999633e+00 4.462599999999999767e+01 7.614400000000000546e+01 5.975995000000000168e+00 -2.735256631450230236e-01
9.299699999999999633e+00 4.567600000000000193e+01 7.614400000000000546e+01 8.118135999999999797e+00 -2.730519922021226731e-01
9.304999999999999716e+00 2.567699999999999960e+01 6.491700000000000159e+01 -2.556141000000000219e+00 -2.743260772269119352e-01
9.305799999999999628e+00 4.666299999999999670e+01 6.847100000000000364e+01 9.891363000000000127e+00 -2.730175686831282644e-01
9.307999999999999829e+00 3.987700000000000244e+01 7.210500000000000398e+01 1.179765000000000086e+01 -2.728490236649628864e-01
9.307999999999999829e+00 4.132300000000000040e+01 7.291100000000000136e+01 8.707556000000000296e+00 -2.731478006968258709e-01
9.313399999999999679e+00 5.787599999999999767e+01 6.840399999999999636e+01 7.355420999999999765e-01 -2.732184633525932549e-01
9.314700000000000202e+00 6.787199999999999989e+01 5.795900000000000318e+01 -4.113799000000000206e+00 -8.305215263101456413e-02
9.321099999999999497e+00 5.283299999999999841e+01 4.900999999999999801e+01 -9.591138000000000829e+00 -2.870039709209956102e-01
9.323000000000000398e+00 2.257799999999999940e+01 6.268999999999999773e+01 2.748416000000000192e+00 -2.797910976805946803e-01
9.323000000000000398e+00 2.387099999999999866e+01 6.341100000000000136e+01 -2.307295999999999836e+01 -2.772119234664300325e-01
9.327999999999999403e+00 6.765000000000000568e+01 6.476000000000000512e+01 -9.789940000000000309e-01 9.987955972545180250e-02
9.328400000000000247e+00 5.703000000000000114e+01 7.537199999999999989e+01 -1.259332000000000029e+01 -2.723741560801380968e-01
9.329000000000000625e+00 5.271999999999999886e+01 4.812800000000000011e+01 -2.004217000000000137e+00 -2.845766107327262762e-01
9.329900000000000304e+00 4.693399999999999750e+01 7.274599999999999511e+01 6.496770999999999852e+00 -2.723804399043225910e-01
9.332000000000000739e+00 5.903399999999999892e+01 6.411100000000000421e+01 2.041233000000000075e+00 -2.745933137705686145e-01
9.332000000000000739e+00 6.050600000000000023e+01 6.411100000000000421e+01 2.749653000000000236e-01 -7.738343568805686190e-02
9.332000000000000739e+00 6.655599999999999739e+01 6.685200000000000387e+01 2.360856000000000066e-02 1.002802018737436046e-01
9.332000000000000739e+00 6.655599999999999739e+01 6.771800000000000352e+01 7.788734000000000490e-01 1.002307261164466085e-01
9.333000000000000185e+00 2.089900000000000091e+01 5.653000000000000114e+01 3.955048000000000119e+00 2.408683755123624051e-02
9.333000000000000185e+00 2.089900000000000091e+01 5.748799999999999955e+01 3.942219000000000140e+00 -2.859587356653278123e-01
9.333999999999999631e+00 4.541499999999999915e+01 6.292000000000000171e+01 1.025996999999999915e+01 -6.758628940545313712e-02
9.334899999999999309e+00 6.254800000000000182e+01 7.533599999999999852e+01 1.244555000000000078e+01 -2.733728719013422404e-01
9.335300000000000153e+00 5.258899999999999864e+01 7.823099999999999454e+01 4.178898000000000224e+00 -3.630972615166577211e-01
9.344099999999999184e+00 6.672299999999999898e+01 7.003900000000000148e+01 -1.486909999999999954e+01 1.000591835415015202e-01
9.344099999999999184e+00 6.693200000000000216e+01 7.077500000000000568e+01 -1.250502999999999965e+01 9.996532530422928831e-02
9.344599999999999795e+00 5.220600000000000307e+01 7.899399999999999977e+01 4.551606999999999736e+00 -3.631043894798923199e-01
9.345599999999999241e+00 4.715899999999999892e+01 7.586799999999999500e+01 5.386607999999999841e+00 -2.720816562411224604e-01
9.348399999999999821e+00 5.159199999999999875e+01 4.687599999999999767e+01 1.150570000000000093e+00 -3.801100299748627620e-01
9.348699999999999122e+00 7.099099999999999966e+01 5.106199999999999761e+01 6.223817999999999984e+01 -8.164459135092400066e-02
9.348699999999999122e+00 6.904699999999999704e+01 7.471399999999999864e+01 2.126345000000000152e+00 -9.388728333621101929e-02
9.349000000000000199e+00 7.059699999999999420e+01 7.456199999999999761e+01 7.183974999999999511e+01 -9.334831594494913398e-02
9.350600000000000023e+00 5.653099999999999881e+01 6.922799999999999443e+01 2.405200999999999922e+00 -2.727275849956055098e-01
9.351499999999999702e+00 7.065000000000000568e+01 7.195000000000000284e+01 -4.656128999999999962e+00 -9.389932510072222793e-02
9.351699999999999235e+00 5.261500000000000199e+01 7.725700000000000500e+01 2.585064000000000251e-01 -3.630990147807552915e-01
9.352899999999999991e+00 4.498700000000000188e+01 6.728700000000000614e+01 3.022854999999999848e+00 -7.167958391822458475e-02
9.355000000000000426e+00 5.174499999999999744e+01 7.956600000000000250e+01 5.154442000000000412e+00 -3.631140632916194377e-01
9.355000000000000426e+00 5.626800000000000068e+01 7.061299999999999955e+01 7.896207000000000420e+00 -2.725229245871222394e-01
9.355000000000000426e+00 5.626800000000000068e+01 7.162099999999999511e+01 9.793722999999999956e+00 -2.724420909640511423e-01
9.362000000000000099e+00 2.720200000000000173e+01 7.185599999999999454e+01 2.944987999999999939e+00 -2.741977618020277063e-01
9.362700000000000244e+00 3.401800000000000068e+01 5.133899999999999864e+01 1.053472999999999971e+01 -8.983828651763203776e-02
9.362999999999999545e+00 4.820600000000000307e+01 6.974800000000000466e+01 4.516149999999999665e+00 -2.713838297110052200e-01
9.362999999999999545e+00 4.841499999999999915e+01 7.048399999999999466e+01 5.198387999999999565e+00 -2.711895076345786082e-01
9.364499999999999602e+00 5.816299999999999670e+01 7.461299999999999955e+01 5.377208999999999683e+00 -2.726189572252969984e-01
9.365399999999999281e+00 6.444199999999999307e+01 7.186299999999999955e+01 2.497331000000000145e+01 -8.010007416311244743e-02
9.366099999999999426e+00 2.220200000000000173e+01 5.276299999999999812e+01 6.620929000000000286e+00 -2.796057657174654820e-01
9.368399999999999395e+00 5.626899999999999835e+01 4.864099999999999824e+01 1.517101999999999951e+00 -3.022206508921269630e-01
9.371499999999999275e+00 3.147899999999999920e+01 5.309799999999999898e+01 1.185445999999999955e+01 -1.704063313141490621e-01
9.371499999999999275e+00 3.407000000000000028e+01 5.236200000000000188e+01 1.337293000000000021e+01 -8.832607080601045935e-02
9.371499999999999275e+00 3.427900000000000347e+01 5.309799999999999898e+01 1.490676000000000023e+01 -8.821196591734162262e-02
9.372999999999999332e+00 5.173100000000000165e+01 4.521999999999999886e+01 3.945999000000000034e+00 -3.770995538411326953e-01
9.374399999999999622e+00 5.413799999999999812e+01 4.996500000000000341e+01 -3.943506999999999874e+00 -2.930845238050777124e-01
9.383599999999999497e+00 3.451400000000000290e+01 7.534699999999999420e+01 -4.219349000000000238e+00 -1.777300930184913808e-01
9.387700000000000600e+00 5.374799999999999756e+01 7.649899999999999523e+01 -3.160200000000000120e+00 -2.717746606324133452e-01
9.388999999999999346e+00 4.430499999999999972e+01 4.828399999999999892e+01 4.328549999999999898e+00 4.453816254582412121e-02
9.389099999999999113e+00 5.785000000000000142e+01 7.421699999999999875e+01 4.321391000000000204e+00 -2.725797353909904519e-01
9.389400000000000190e+00 2.161100000000000065e+01 6.147599999999999909e+01 3.933082000000000278e+01 -2.822571740174351640e-01
9.390200000000000102e+00 4.418299999999999983e+01 4.985999999999999943e+01 7.788732000000000433e-01 3.834659776937092424e-02
9.392400000000000304e+00 6.932800000000000296e+01 7.152899999999999636e+01 -2.124595999999999929e+00 -9.469097264427177307e-02
9.396000000000000796e+00 5.538600000000000279e+01 7.684999999999999432e+01 -1.500792999999999999e+01 -2.720271747184038746e-01
9.396000000000000796e+00 5.667900000000000205e+01 7.612900000000000489e+01 -4.874859000000000009e+01 -2.722641102035325278e-01
9.397600000000000620e+00 4.856900000000000261e+01 7.639499999999999602e+01 6.219702999999999982e+00 -3.632328278392305543e-01
9.401300000000000878e+00 2.860200000000000031e+01 7.651099999999999568e+01 -1.302862999999999971e+01 -2.738569400027359158e-01
9.405699999999999505e+00 6.112899999999999778e+01 7.618600000000000705e+01 1.723281000000000063e+01 -2.730297485760382337e-01
9.405699999999999505e+00 6.217900000000000205e+01 7.618600000000000705e+01 1.140241999999999933e+01 -2.732101428956974498e-01
9.407999999999999474e+00 2.173499999999999943e+01 5.908599999999999852e+01 1.484775999999999918e+01 -2.827305568478367115e-01
9.408899999999999153e+00 5.622800000000000153e+01 6.992799999999999727e+01 6.066323999999999828e+00 -2.725585222000692642e-01
9.416000000000000369e+00 6.530400000000000205e+01 7.211599999999999966e+01 1.407952000000000048e+01 1.003967600200981886e-01
9.419999999999999929e+00 3.586399999999999721e+01 7.597400000000000375e+01 -1.537622000000000000e+01 -1.788387050941956102e-01
9.421300000000000452e+00 3.967099999999999937e+01 6.891200000000000614e+01 -8.682373000000000118e+00 -2.732039151846308300e-01
9.424899999999999167e+00 2.188200000000000145e+01 6.070900000000000318e+01 3.121262000000000114e+01 -2.819013831431907979e-01
9.430099999999999483e+00 7.070600000000000307e+01 5.198100000000000165e+01 1.505893999999999977e+01 -8.242509687184321199e-02
9.430699999999999861e+00 6.828400000000000603e+01 5.122399999999999665e+01 7.134517999999999915e+00 -7.802369874012457518e-02
9.436299999999999244e+00 4.236999999999999744e+01 6.225699999999999790e+01 2.461752000000000162e+00 -7.333108430640565556e-02
9.438299999999999912e+00 6.642900000000000205e+01 7.396099999999999852e+01 2.032384000000000057e+01 9.999362384010872240e-02
9.441499999999999559e+00 7.110299999999999443e+01 5.393299999999999983e+01 -6.778667999999999694e+00 -8.413875295512561470e-02
9.441900000000000404e+00 5.305299999999999727e+01 4.753499999999999659e+01 3.327171999999999907e-01 -2.844410350373050567e-01
9.447300000000000253e+00 4.460799999999999699e+01 4.898400000000000176e+01 5.977932000000000023e+00 4.221538700351488982e-02
9.448199999999999932e+00 5.666899999999999693e+01 7.330100000000000193e+01 4.996290000000000120e+00 -2.723896364618039745e-01
9.450300000000000367e+00 7.084199999999999875e+01 5.308599999999999852e+01 6.615422999999999831e+00 -8.345666537215765124e-02
9.462400000000000588e+00 6.285000000000000142e+01 7.344899999999999807e+01 1.482062999999999953e+01 -2.736230973025360891e-01
9.463400000000000034e+00 6.580200000000000671e+01 5.963100000000000023e+01 -2.336493000000000109e+01 1.015119385360054027e-01
9.466100000000000847e+00 6.580800000000000693e+01 6.215699999999999648e+01 4.684241000000000099e+00 1.010482676662594753e-01
9.471000000000000085e+00 4.992699999999999960e+01 7.900799999999999557e+01 8.393720000000000425e+01 -3.631579071957510840e-01
9.471000000000000085e+00 6.939400000000000546e+01 4.847800000000000153e+01 6.716929999999999623e+00 -7.461057774854536195e-02
9.471000000000000085e+00 7.094400000000000261e+01 4.847800000000000153e+01 7.948800999999999561e+00 -7.821182506785454014e-02
9.479699999999999349e+00 5.519700000000000273e+01 4.973799999999999955e+01 2.326088000000000114e-02 -2.971968534915312987e-01
9.479699999999999349e+00 5.748899999999999721e+01 6.914799999999999613e+01 3.666265000000000107e+00 -2.729503257995394283e-01
9.483299999999999841e+00 2.560399999999999920e+01 5.008700000000000330e+01 4.339686999999999628e+00 -5.536481080509838421e-02
9.483800000000000452e+00 6.719700000000000273e+01 6.556100000000000705e+01 -1.575572000000000084e-01 9.996837673190317464e-02
9.491099999999999426e+00 2.703699999999999903e+01 5.084300000000000352e+01 9.583800000000000097e+00 -5.800685028169699775e-02
9.492900000000000560e+00 5.826800000000000068e+01 7.324699999999999989e+01 3.644044000000000061e+00 -2.727090732191553846e-01
9.496700000000000585e+00 6.721699999999999875e+01 6.392499999999999716e+01 8.056868000000000363e-01 1.000256704499392635e-01
9.502599999999999270e+00 6.261999999999999744e+01 7.442499999999999716e+01 1.766517999999999944e+01 -2.734493161169236908e-01
9.505900000000000460e+00 3.611999999999999744e+01 5.030100000000000193e+01 3.539645000000000152e+00 -1.049350955219727766e-01
9.508300000000000196e+00 4.100800000000000267e+01 5.255400000000000205e+01 -5.236714000000000091e+00 -6.997729541161917810e-02
9.508300000000000196e+00 4.240800000000000125e+01 5.255400000000000205e+01 -1.611472999999999933e+00 2.690224167981195014e-02
9.514300000000000423e+00 3.167899999999999849e+01 7.737399999999999523e+01 -7.416165000000000340e+00 -2.721063466134288622e-01
9.520200000000000884e+00 4.795900000000000318e+01 4.471200000000000330e+01 2.148046000000000078e+01 -1.628124986644183259e-01
9.520699999999999719e+00 5.958500000000000085e+01 7.531399999999999295e+01 1.044424000000000063e+01 -2.727983880873329214e-01
9.528000000000000469e+00 4.309199999999999875e+01 4.643399999999999750e+01 6.250885000000000247e+00 4.365055802155204390e-02
9.528000000000000469e+00 4.309199999999999875e+01 4.739200000000000301e+01 5.314430999999999905e+00 4.134359440007581710e-02
9.529500000000000526e+00 4.381400000000000006e+01 6.157200000000000273e+01 7.436332000000000164e+00 -6.964835143863672140e-02
9.530900000000000816e+00 4.953000000000000114e+01 4.458700000000000330e+01 5.532219000000000442e+00 -1.477329759435567769e-01
9.531200000000000117e+00 2.414600000000000080e+01 5.088400000000000034e+01 4.634567999999999799e+00 -2.600824543577043846e-01
9.532999999999999474e+00 2.552199999999999847e+01 6.425799999999999557e+01 -1.066097999999999990e+00 -2.746319071299513359e-01
9.533699999999999619e+00 3.045499999999999829e+01 5.029200000000000159e+01 1.046622999999999948e+01 -1.629786143056676517e-01
9.538500000000000867e+00 4.787599999999999767e+01 7.194299999999999784e+01 5.989664000000000321e+00 -2.715637577812306525e-01
9.541000000000000369e+00 5.977000000000000313e+01 6.411100000000000421e+01 1.703032000000000101e+00 -2.747826488162333769e-01
9.541499999999999204e+00 2.847400000000000020e+01 5.118399999999999750e+01 1.013153999999999932e+01 -1.430773216694499195e-01
9.541900000000000048e+00 5.643099999999999739e+01 7.258299999999999841e+01 2.507568000000000019e+00 -2.723602280172072732e-01
9.547499999999999432e+00 4.153699999999999903e+01 6.564900000000000091e+01 -1.657477000000000089e+01 -2.746352376609911827e-01
9.551099999999999923e+00 5.911500000000000199e+01 5.057699999999999818e+01 3.275412999999999908e+00 -6.599695082583915962e-02
9.551099999999999923e+00 5.911500000000000199e+01 5.151299999999999812e+01 2.869104999999999794e+00 -6.786331365451510333e-02
9.551099999999999923e+00 6.138000000000000256e+01 5.057699999999999818e+01 6.287912000000000390e+00 -7.355359923026869029e-02
9.551099999999999923e+00 6.138000000000000256e+01 5.151299999999999812e+01 1.247029999999999994e+01 -7.434542736439961330e-02
9.552899999999999281e+00 4.496500000000000341e+01 7.359300000000000352e+01 3.892170999999999825e+00 -2.737232012311721641e-01
9.554999999999999716e+00 6.691400000000000148e+01 6.629500000000000171e+01 -1.647016000000000105e-02 1.000245056533112520e-01
9.554999999999999716e+00 6.844899999999999807e+01 6.476000000000000512e+01 -7.054489999999999927e-01 9.934308458276197573e-02
9.560299999999999798e+00 5.817199999999999704e+01 5.675699999999999790e+01 7.014312000000000324e+00 -7.262315384059835066e-02
9.565400000000000347e+00 5.034799999999999898e+01 4.402799999999999869e+01 3.451747000000000121e+00 -1.399481917922041907e-01
9.569000000000000838e+00 6.863500000000000512e+01 5.765500000000000114e+01 -4.314638000000000084e-01 -8.390004148405402762e-02
9.569000000000000838e+00 6.985999999999999943e+01 5.681000000000000227e+01 1.215822000000000003e+02 -8.450084001045886362e-02
9.569200000000000372e+00 4.333200000000000074e+01 5.094800000000000040e+01 2.195199999999999818e+00 3.230969446641711318e-02
9.570100000000000051e+00 2.755099999999999838e+01 7.260599999999999454e+01 -1.225741000000000053e-01 -2.741426469482571848e-01
9.573999999999999844e+00 5.867699999999999960e+01 5.927900000000000347e+01 6.343140000000000001e+00 -7.488792531277894959e-02
9.575100000000000833e+00 5.840800000000000125e+01 6.856100000000000705e+01 -4.534784000000000037e-01 -2.732546864274146281e-01
9.580700000000000216e+00 2.693900000000000006e+01 6.660099999999999909e+01 -1.688767999999999958e+01 -2.733048792110429615e-01
9.583000000000000185e+00 2.565299999999999869e+01 6.962699999999999534e+01 -3.352217000000000113e-01 -2.756019477226881453e-01
9.583000000000000185e+00 2.565299999999999869e+01 7.067700000000000671e+01 1.974472999999999923e+00 -2.757109213400494863e-01
9.583700000000000330e+00 6.607200000000000273e+01 4.917999999999999972e+01 -1.905836000000000086e+00 -6.854650094037355312e-02
9.585399999999999920e+00 3.212899999999999778e+01 5.474300000000000210e+01 1.074713999999999992e+01 -1.743255653972528019e-01
9.585399999999999920e+00 3.352900000000000347e+01 5.474300000000000210e+01 1.001610999999999940e+01 -1.817097598640018963e-01
9.586399999999999366e+00 2.194600000000000151e+01 5.971300000000000097e+01 6.408057999999999588e+00 -2.823118132485903931e-01
9.587099999999999511e+00 6.024799999999999756e+01 5.227199999999999847e+01 -2.315770000000000106e+00 -7.225178282864906654e-02
9.587999999999999190e+00 4.184700000000000131e+01 6.642199999999999704e+01 -3.878210999999999853e+00 -2.745421930627303664e-01
9.588100000000000733e+00 5.903000000000000114e+01 5.663600000000000279e+01 4.622201999999999700e+00 -7.378847024737268667e-02
9.589999999999999858e+00 4.522999999999999687e+01 6.226100000000000279e+01 8.054845000000000255e+00 -6.743540419758259352e-02
9.589999999999999858e+00 6.451999999999999602e+01 4.916299999999999670e+01 8.549134000000000455e+00 -7.122290531728578400e-02
9.591200000000000614e+00 4.070300000000000296e+01 7.552200000000000557e+01 2.260076000000000107e+01 -2.728192008778291267e-01
9.592299999999999827e+00 5.967000000000000171e+01 7.235899999999999466e+01 1.138893999999999984e+01 -2.730644035817176851e-01
9.593899999999999650e+00 6.738200000000000500e+01 4.847099999999999653e+01 4.541285000000000238e+00 -6.948956945406749297e-02
9.598800000000000665e+00 5.209599999999999653e+01 4.462899999999999778e+01 6.424970000000000070e+00 -3.748003359938660850e-01
9.599500000000000810e+00 2.652799999999999869e+01 6.588700000000000045e+01 -1.711825999999999937e+01 -2.736528474880389750e-01
9.604900000000000659e+00 2.776599999999999824e+01 7.325000000000000000e+01 -6.807950999999999864e-01 -2.740873677680981668e-01
9.608700000000000685e+00 5.693699999999999761e+01 7.068999999999999773e+01 2.795881000000000061e+00 -2.726003545369505288e-01
9.609999999999999432e+00 5.754399999999999693e+01 5.852100000000000080e+01 1.255481999999999942e+01 -2.763878085614138724e-01
9.614599999999999369e+00 6.289300000000000068e+01 7.620499999999999829e+01 6.841473999999999833e+00 -2.732866070404689762e-01
9.618299999999999628e+00 6.812000000000000455e+01 6.400000000000000000e+01 -2.088185999999999876e+00 9.946475807806380576e-02
9.618299999999999628e+00 6.812000000000000455e+01 6.551999999999999602e+01 -1.507020999999999944e+01 9.945771527464440653e-02
9.624100000000000321e+00 6.016299999999999670e+01 5.739500000000000313e+01 -2.950241999999999809e+00 -7.586995793189857396e-02
9.624100000000000321e+00 6.016299999999999670e+01 5.825999999999999801e+01 -6.819341999999999793e+00 -7.622157452974616387e-02
9.625000000000000000e+00 6.160699999999999932e+01 4.967799999999999727e+01 5.250081999999999915e+00 -7.431931269007623075e-02
9.629300000000000637e+00 3.837899999999999778e+01 7.579500000000000171e+01 2.585976000000000141e+01 -8.947005251047444874e-02
9.633300000000000196e+00 4.623400000000000176e+01 7.280400000000000205e+01 7.724425000000000097e+00 -2.728037395683391986e-01
9.634199999999999875e+00 2.127299999999999969e+01 5.832000000000000028e+01 5.149863999999999997e+00 -2.849954242609736843e-01
9.638899999999999579e+00 6.086099999999999710e+01 7.155899999999999750e+01 9.721937999999999747e+00 -2.734142457825314843e-01
9.638899999999999579e+00 6.107000000000000028e+01 7.082299999999999329e+01 7.624170000000000336e+00 -2.735689752697006982e-01
9.638999999999999346e+00 2.663599999999999923e+01 6.730100000000000193e+01 -2.005698000000000203e+00 -2.739943727527303086e-01
9.641000000000000014e+00 6.734600000000000364e+01 5.862400000000000233e+01 -3.868126000000000175e+01 -8.342350013470339887e-02
9.655300000000000438e+00 4.859899999999999665e+01 4.461699999999999733e+01 1.838447000000000031e+01 -1.567667466506921792e-01
9.655300000000000438e+00 4.471099999999999852e+01 6.665999999999999659e+01 1.977362999999999982e+00 -7.185663213766121937e-02
9.655400000000000205e+00 3.680499999999999972e+01 7.591700000000000159e+01 -1.332081999999999944e+01 -1.796748243280714419e-01
9.656399999999999650e+00 6.597499999999999432e+01 7.353799999999999670e+01 3.750341999999999842e+01 1.000515594785058582e-01
9.661300000000000665e+00 5.793399999999999750e+01 4.902300000000000324e+01 3.971546000000000021e+00 -1.866245251980786779e-01
9.663600000000000634e+00 6.769799999999999329e+01 7.483400000000000318e+01 -1.417084000000000010e+00 -9.498462485899090979e-02
9.664500000000000313e+00 4.444500000000000028e+01 6.749200000000000443e+01 4.714832000000000356e+00 -7.269773170839025078e-02
9.664899999999999380e+00 4.900200000000000244e+01 7.709499999999999886e+01 3.729391000000000123e+00 -3.631818110489391516e-01
9.668100000000000804e+00 5.930899999999999750e+01 6.861899999999999977e+01 -1.669293000000000027e-01 -2.734656370746261778e-01
9.668200000000000571e+00 6.687399999999999523e+01 6.338400000000000034e+01 6.754336000000000340e+00 1.001227570255096566e-01
9.668499999999999872e+00 6.060499999999999687e+01 6.946299999999999386e+01 4.066587000000000174e+00 -2.736675261437228057e-01
9.670299999999999230e+00 3.953099999999999881e+01 5.031900000000000261e+01 1.034069000000000038e+01 -8.167187128555178366e-02
9.672000000000000597e+00 5.860600000000000165e+01 5.622599999999999909e+01 2.230992000000000086e+00 -7.325661619985587847e-02
9.672399999999999665e+00 4.573400000000000176e+01 6.837199999999999989e+01 5.334788999999999959e+01 -2.738020295422097239e-01
9.674599999999999866e+00 3.841799999999999926e+01 7.162199999999999989e+01 4.981365000000000265e+01 -8.961038265869755715e-02
9.675399999999999778e+00 5.705700000000000216e+01 6.996299999999999386e+01 3.458791999999999867e+00 -2.726801763216363250e-01
9.676999999999999602e+00 2.363700000000000045e+01 5.196600000000000108e+01 8.899504000000000303e+00 -2.690177810577861761e-01
9.681499999999999773e+00 3.795499999999999829e+01 4.926200000000000045e+01 -1.684134000000000020e+00 -9.475998509514606954e-03
9.681599999999999540e+00 2.801300000000000168e+01 7.587199999999999989e+01 -6.381549000000000249e-02 -2.743149477176698992e-01
9.684799999999999187e+00 5.690500000000000114e+01 7.181499999999999773e+01 -4.344527000000000250e+00 -2.724770323266074712e-01
9.686999999999999389e+00 4.202900000000000347e+01 6.774899999999999523e+01 3.545901000000000192e+00 -2.742959295011443976e-01
9.687300000000000466e+00 4.168800000000000239e+01 6.277300000000000324e+01 4.966231999999999758e+00 -7.529147181847324621e-02
9.691000000000000725e+00 5.007500000000000284e+01 4.236800000000000210e+01 -1.870111000000000079e+00 -1.521670264837728104e-01
9.692399999999999238e+00 2.252400000000000091e+01 5.316700000000000159e+01 4.127089999999999925e+00 -2.793736452681399030e-01
9.693500000000000227e+00 3.291499999999999915e+01 7.552800000000000580e+01 -5.912795000000000023e+00 -2.709358347115011223e-01
9.694699999999999207e+00 5.744200000000000017e+01 5.768800000000000239e+01 1.233397000000000077e+01 -2.768734924612931136e-01
9.708600000000000563e+00 3.662899999999999778e+01 4.999399999999999977e+01 1.909972999999999921e+00 -1.369014534960194540e-02
9.708700000000000330e+00 5.142000000000000171e+01 4.413400000000000034e+01 2.348708999999999847e+01 -1.276612242739736947e-01
9.709500000000000242e+00 5.256000000000000227e+01 7.949099999999999966e+01 1.610209000000000001e+00 -3.630574966195458386e-01
9.709699999999999775e+00 5.751899999999999835e+01 7.330700000000000216e+01 -9.869914000000000465e-03 -2.724952892995600728e-01
9.718299999999999272e+00 4.060199999999999676e+01 6.888500000000000512e+01 5.852128000000000441e+00 -2.736009045419934838e-01
9.721600000000000463e+00 4.772999999999999687e+01 7.634799999999999898e+01 7.299004000000000048e+00 -2.715757535513281251e-01
9.728999999999999204e+00 4.478099999999999881e+01 6.826699999999999591e+01 1.350347000000000008e+01 -7.267085484066550249e-02
9.729799999999999116e+00 2.218700000000000117e+01 5.388000000000000256e+01 1.767638000000000043e+00 -2.821559107791815069e-01
9.730399999999999494e+00 6.390800000000000125e+01 7.537399999999999523e+01 2.609334000000000131e+01 -9.242000355645904608e-02
9.731999999999999318e+00 5.422800000000000153e+01 4.550900000000000034e+01 -9.359292999999999640e-01 -2.850213310114710907e-01
9.731999999999999318e+00 5.422800000000000153e+01 4.644899999999999807e+01 -1.080827999999999989e+01 -2.882886515542381067e-01
9.735500000000000043e+00 4.373299999999999699e+01 7.467000000000000171e+01 4.547918000000000127e+00 -2.735869145364609456e-01
9.737000000000000099e+00 4.511299999999999955e+01 4.431400000000000006e+01 1.346373999999999960e+01 5.817184404494700478e-02
9.737999999999999545e+00 6.312500000000000000e+01 4.887599999999999767e+01 6.815337000000000423e+00 -7.553736514125528045e-02
9.738899999999999224e+00 2.616700000000000159e+01 6.538599999999999568e+01 -6.171655000000000335e+00 -2.741738544968462810e-01
9.740600000000000591e+00 4.080700000000000216e+01 7.230100000000000193e+01 1.353206999999999915e+01 -2.731751221823088271e-01
9.743199999999999861e+00 7.036799999999999500e+01 5.554699999999999704e+01 -1.671348000000000056e+01 -8.483879829449132715e-02
9.750999999999999446e+00 5.716700000000000159e+01 7.258299999999999841e+01 -6.751112000000000002e+00 -2.724604106877325793e-01
9.762000000000000455e+00 6.400900000000000034e+01 7.235399999999999920e+01 2.642010000000000147e+01 -9.303571806982993686e-02
9.762000000000000455e+00 6.487500000000000000e+01 7.235399999999999920e+01 2.036071000000000097e+01 1.003792839599204206e-01
9.769399999999999196e+00 5.743599999999999994e+01 5.675699999999999790e+01 1.046452000000000027e+01 -7.254539278977409356e-02
9.773999999999999133e+00 5.126599999999999824e+01 8.026600000000000534e+01 1.534739000000000075e+01 -3.630856077798634285e-01
9.773999999999999133e+00 5.222399999999999665e+01 8.026600000000000534e+01 6.346052000000000248e+00 -3.630596475453983230e-01
9.774499999999999744e+00 5.788300000000000267e+01 7.242900000000000205e+01 -6.095848000000000155e+00 -2.726197976775700527e-01
9.776500000000000412e+00 2.307000000000000028e+01 6.325500000000000256e+01 -1.443659000000000026e+00 -2.793828068737571058e-01
9.776799999999999713e+00 6.742300000000000182e+01 7.117199999999999704e+01 8.015639000000000181e+00 9.961694554707328786e-02
9.781299999999999883e+00 4.515100000000000335e+01 7.673999999999999488e+01 8.504403999999999186e+00 -2.731807911174228831e-01
9.783099999999999241e+00 5.449699999999999989e+01 4.979599999999999937e+01 -3.795183000000000195e+00 -2.948651719716964270e-01
9.784299999999999997e+00 5.331499999999999773e+01 7.698999999999999488e+01 2.088464000000000098e+00 -2.716213324706043819e-01
9.784399999999999764e+00 2.135800000000000054e+01 5.556900000000000261e+01 3.028500999999999888e+00 2.653855473793289080e-02
