3.614600000000000080e+01 4.434899999999999665e+01 2.054100000000000037e+01 -8.160593999999999681e+00 -3.664603510704652622e-01
3.615299999999999869e+01 5.563199999999999790e+01 1.650499999999999901e+01 -1.689392999999999923e+00 -1.168203008380795660e-01
3.615800000000000125e+01 6.094500000000000028e+01 4.378399999999999892e+01 3.221258000000000266e+01 -2.423087835747284036e-01
3.615999999999999659e+01 5.945900000000000318e+01 4.448499999999999943e+01 1.451046999999999976e+01 -3.499999999999999778e-01
3.617199999999999704e+01 5.660499999999999687e+01 4.672999999999999687e+01 -6.540770000000000550e+01 -2.563604256726656483e-01
3.618099999999999739e+01 6.275600000000000023e+01 3.640599999999999881e+01 -2.370741999999999905e+00 -2.591894578013463901e-01
3.618299999999999983e+01 3.985799999999999699e+01 2.530499999999999972e+01 -4.601925999999999739e+00 -2.700929824254957312e-01
3.618900000000000006e+01 5.903199999999999648e+01 2.132400000000000162e+01 4.344286999999999566e+00 -3.628153969965816072e-01
3.619599999999999795e+01 3.889099999999999824e+01 3.236899999999999977e+01 3.038520000000000110e+00 -2.590865855371283222e-01
3.619800000000000040e+01 4.841799999999999926e+01 2.275499999999999901e+01 5.467938999999999794e+01 -3.374096903590381724e-01
3.619899999999999807e+01 4.110499999999999687e+01 2.449699999999999989e+01 -1.957801999999999865e+01 -2.648457985335465059e-01
3.620300000000000296e+01 6.614900000000000091e+01 3.614500000000000313e+01 3.630844999999999878e+00 -2.592760242732605191e-01
3.620300000000000296e+01 6.571800000000000352e+01 3.314099999999999824e+01 -1.994673999999999836e+01 -2.584792922690207773e-01
3.621300000000000097e+01 5.552400000000000091e+01 4.917999999999999972e+01 -3.481687999999999761e+01 -2.567499888876477732e-01
3.622099999999999653e+01 4.579399999999999693e+01 2.201899999999999835e+01 -8.652675999999999590e+00 -3.382107487095013520e-01
3.622699999999999676e+01 3.893500000000000227e+01 3.901800000000000068e+01 -6.249723000000000361e-01 -1.291143998520264680e-01
3.623400000000000176e+01 5.126599999999999824e+01 2.251099999999999923e+01 1.675979999999999848e+01 -1.101326064873688199e-01
3.623899999999999721e+01 5.593900000000000006e+01 2.587099999999999866e+01 -1.223870999999999931e+01 -3.647829692574919291e-01
3.624799999999999756e+01 5.416299999999999670e+01 4.508400000000000318e+01 -3.299390999999999963e+01 -2.559621329773237308e-01
3.625200000000000244e+01 4.702000000000000313e+01 2.274500000000000099e+01 3.305123000000000033e+00 -3.380789722043421874e-01
3.625500000000000256e+01 6.342699999999999960e+01 2.731200000000000117e+01 6.305538000000000309e+00 -2.550626257019192877e-01
3.625500000000000256e+01 5.318099999999999739e+01 2.009600000000000009e+01 2.729392999999999958e+01 -1.322694958748573402e-01
3.625800000000000267e+01 4.334799999999999898e+01 4.597899999999999920e+01 -5.735919000000000434e-01 -2.907220082658965588e-01
3.625800000000000267e+01 3.925399999999999778e+01 4.224199999999999733e+01 -1.353885999999999967e+01 -1.392669776085004030e-01
3.625800000000000267e+01 3.925399999999999778e+01 4.310799999999999699e+01 -1.458655000000000079e+01 -1.419180980559200667e-01
3.625900000000000034e+01 6.444299999999999784e+01 1.984100000000000108e+01 -7.643728000000000300e+00 -8.584446641421782098e-02
3.627199999999999847e+01 5.089800000000000324e+01 5.170300000000000296e+01 1.226781000000000077e+01 -2.915584450860260746e-01
3.627300000000000324e+01 5.886299999999999955e+01 1.961599999999999966e+01 1.665564999999999962e+00 -3.626585599872810817e-01
3.627600000000000335e+01 5.585300000000000153e+01 4.842000000000000171e+01 -3.950807999999999964e+01 -2.566167296521604801e-01
3.627900000000000347e+01 6.315999999999999659e+01 2.584499999999999886e+01 -1.444411999999999985e+01 -3.631082151807928371e-01
3.627900000000000347e+01 6.336899999999999977e+01 2.510900000000000176e+01 -2.145814999999999984e+01 -3.631115968002178729e-01
3.627900000000000347e+01 6.336899999999999977e+01 2.658099999999999952e+01 -4.348605000000000054e+00 -2.544641835180544431e-01
3.628600000000000136e+01 6.221999999999999886e+01 1.845700000000000074e+01 -1.841939999999999955e+01 -8.401622492460260327e-02
3.628799999999999670e+01 6.398400000000000176e+01 3.687500000000000000e+01 -2.606167999999999818e-01 -2.594102134853620845e-01
3.629399999999999693e+01 4.221500000000000341e+01 4.521999999999999886e+01 -1.832711000000000112e+01 -2.905713587639374706e-01
3.629999999999999716e+01 6.051899999999999835e+01 4.446900000000000119e+01 3.964186999999999728e+01 -2.414092837056072971e-01
3.629999999999999716e+01 6.240200000000000102e+01 2.014300000000000068e+01 -9.652362000000000108e+00 -8.483054049796523444e-02
3.630400000000000205e+01 5.891599999999999682e+01 2.226000000000000156e+01 -9.003470999999999558e-01 -2.427152465185845043e-01
3.630400000000000205e+01 5.912500000000000000e+01 2.299599999999999866e+01 -2.370264000000000149e+00 -2.449775440914849778e-01
3.630400000000000205e+01 6.031600000000000250e+01 2.366000000000000014e+01 -1.196015000000000050e+01 -2.481838903644371652e-01
3.630400000000000205e+01 6.150699999999999790e+01 2.299599999999999866e+01 -6.823812000000000211e+00 -3.629902449245409057e-01
3.630599999999999739e+01 5.204599999999999937e+01 1.738200000000000145e+01 1.013578000000000090e+00 9.472616292788429981e-02
3.630599999999999739e+01 5.229999999999999716e+01 1.827599999999999980e+01 5.061313000000000173e+00 1.336092556380206742e-01
3.630700000000000216e+01 5.385999999999999943e+01 4.438400000000000034e+01 -2.114245000000000019e+01 -2.557984427787421966e-01
3.630700000000000216e+01 5.385999999999999943e+01 4.578399999999999892e+01 -2.337616999999999834e+01 -2.560855204846954614e-01
3.630799999999999983e+01 5.464900000000000091e+01 2.659400000000000119e+01 -7.879510999999999932e+00 -3.655031217226942797e-01
3.631400000000000006e+01 3.938799999999999812e+01 3.185500000000000043e+01 -1.556405000000000038e+00 -2.564997400922196524e-01
3.631400000000000006e+01 3.959700000000000131e+01 3.111899999999999977e+01 -6.557693000000000438e+00 -2.542382410692518580e-01
3.631400000000000006e+01 3.982399999999999807e+01 3.032000000000000028e+01 -3.166240999999999861e+00 -2.502583720357772767e-01
3.631400000000000006e+01 6.590800000000000125e+01 3.400999999999999801e+01 -1.169314999999999927e+01 -2.588279880498889352e-01
3.631900000000000261e+01 5.823799999999999955e+01 1.862800000000000011e+01 -1.527386000000000088e+01 -3.624857843754210052e-01
3.632099999999999795e+01 5.407300000000000040e+01 2.144200000000000017e+01 3.016535999999999973e+01 -3.661511460209703750e-01
3.632300000000000040e+01 5.607699999999999818e+01 4.254200000000000159e+01 -6.360617999999999661e+00 -3.500000000000000333e-01
3.632399999999999807e+01 6.457200000000000273e+01 2.989499999999999957e+01 8.222241000000000133e-01 -2.571261542917956389e-01
3.632399999999999807e+01 3.636099999999999710e+01 3.412100000000000222e+01 -5.106630000000000003e+00 -2.820115704692970349e-01
3.632399999999999807e+01 3.659199999999999875e+01 3.330599999999999739e+01 3.311679999999999957e+00 -2.775469566102724550e-01
3.632399999999999807e+01 3.659199999999999875e+01 3.493599999999999994e+01 -2.347323999999999966e+00 -2.784695187947852646e-01
3.632399999999999807e+01 3.791100000000000136e+01 3.257099999999999795e+01 3.684553999999999885e+00 -2.642187152052947741e-01
3.632399999999999807e+01 6.017900000000000205e+01 3.509599999999999653e+01 4.377661999999999942e+00 -2.588011884027540677e-01
3.632399999999999807e+01 6.157900000000000063e+01 3.509599999999999653e+01 -1.103760999999999992e+00 -2.588820608668828127e-01
3.632600000000000051e+01 6.325000000000000000e+01 1.928699999999999903e+01 -7.070605999999999725e+00 -8.420785230145486078e-02
3.632800000000000296e+01 3.901200000000000045e+01 4.005199999999999960e+01 -6.877812999999999732e+00 -1.313724142579486276e-01
3.633299999999999841e+01 6.093900000000000006e+01 1.766000000000000014e+01 -6.360440999999999789e+00 -8.384439761008155578e-02
3.633299999999999841e+01 6.253699999999999903e+01 1.766000000000000014e+01 -1.475517999999999930e+01 -8.294454384977771599e-02
3.633400000000000318e+01 5.462100000000000222e+01 4.925500000000000256e+01 -3.359559000000000140e+01 -2.925363361977514898e-01
3.635399999999999920e+01 6.444799999999999329e+01 2.896399999999999864e+01 1.390179000000000054e+00 -2.566275501917424373e-01
3.635499999999999687e+01 6.149000000000000199e+01 4.006600000000000250e+01 7.331856000000000151e+00 7.019526726358448973e-03
3.635900000000000176e+01 5.218399999999999750e+01 1.650199999999999889e+01 6.152231000000000193e-03 5.163328026825218797e-02
3.635999999999999943e+01 5.261200000000000188e+01 4.385900000000000176e+01 -1.013341999999999921e+01 -2.556149345904232817e-01
3.635999999999999943e+01 5.261200000000000188e+01 4.624099999999999966e+01 2.933765000000000178e+00 -2.561534282616570457e-01
3.636099999999999710e+01 3.933700000000000330e+01 4.470700000000000074e+01 -5.335742999999999903e+00 -1.461361411583296521e-01
3.636299999999999955e+01 5.776500000000000057e+01 3.048300000000000054e+01 1.893836000000000075e+00 -2.413730423606263165e-01
3.636500000000000199e+01 4.402000000000000313e+01 4.954800000000000182e+01 -2.061352999999999991e+00 -2.902711154852691822e-01
3.636500000000000199e+01 4.571999999999999886e+01 4.954800000000000182e+01 -3.591179999999999928e-01 -2.907868066887482339e-01
3.636599999999999966e+01 6.468600000000000705e+01 3.065099999999999980e+01 -2.099950999999999901e+00 -2.575497494157098499e-01
3.636599999999999966e+01 6.489499999999999602e+01 3.138700000000000045e+01 -1.112238999999999933e+01 -2.578968440621458580e-01
3.636800000000000210e+01 3.867900000000000205e+01 3.796399999999999864e+01 -6.372310999999999837e+00 -1.268509043089694477e-01
3.637800000000000011e+01 5.777900000000000347e+01 1.766400000000000148e+01 -2.918976999999999933e+01 -3.623199299985706001e-01
3.637899999999999778e+01 5.377000000000000313e+01 2.214199999999999946e+01 1.028373000000000026e+01 -1.261379966271840847e-01
3.638499999999999801e+01 3.907500000000000284e+01 4.163000000000000256e+01 -1.330958000000000041e+01 -1.366593839534289145e-01
3.639200000000000301e+01 3.911099999999999710e+01 4.409100000000000108e+01 -1.023002999999999929e+01 -1.444369829958807028e-01
3.639500000000000313e+01 4.006799999999999784e+01 2.694099999999999895e+01 -1.025935999999999915e+01 -2.624535674299271482e-01
3.639600000000000080e+01 5.147899999999999920e+01 4.461699999999999733e+01 -2.503331000000000195e+00 -2.557496671999945348e-01
3.639600000000000080e+01 5.147899999999999920e+01 4.548299999999999699e+01 -9.466852999999999518e-01 -2.559640906592761112e-01
3.639600000000000080e+01 6.126800000000000068e+01 1.689999999999999858e+01 -5.859657000000000338e+00 -8.208721532497088857e-02
3.639600000000000080e+01 6.126800000000000068e+01 1.842000000000000171e+01 -8.898134999999999906e+00 -8.268466461812387647e-02
3.639600000000000080e+01 6.220799999999999841e+01 1.689999999999999858e+01 -6.652871000000000201e+00 -8.155207783598618365e-02
3.640100000000000335e+01 6.064099999999999824e+01 3.908700000000000330e+01 7.014592000000000382e+00 -2.453773452203426575e-01
3.640200000000000102e+01 6.175300000000000011e+01 2.086899999999999977e+01 -6.336400000000000254e+00 -3.629737498158685516e-01
3.640800000000000125e+01 5.230899999999999750e+01 2.288800000000000168e+01 6.280780000000000030e+00 -1.155308597027333156e-01
3.641199999999999903e+01 5.216599999999999682e+01 5.205400000000000205e+01 2.398439000000000121e+01 -2.918037711516442423e-01
3.641299999999999670e+01 6.244100000000000250e+01 1.906099999999999994e+01 -7.230614000000000097e+00 -8.275161777356822290e-02
3.641799999999999926e+01 5.645100000000000051e+01 1.690200000000000102e+01 -1.492698000000000036e+01 -9.175885934027289137e-02
3.642499999999999716e+01 6.407899999999999352e+01 2.811400000000000077e+01 -1.950155000000000083e+00 -2.560797213647790782e-01
3.642799999999999727e+01 5.782800000000000296e+01 2.683699999999999974e+01 -1.231067000000000000e+01 -2.518176742768118426e-01
3.642999999999999972e+01 4.024099999999999966e+01 2.796999999999999886e+01 -8.739886000000000266e+00 -2.545482824149276069e-01
3.643099999999999739e+01 3.761899999999999977e+01 3.600399999999999778e+01 -1.493560999999999916e+00 -2.654589816445352413e-01
3.643599999999999994e+01 5.375800000000000267e+01 2.062999999999999901e+01 2.902787999999999968e+01 -1.299898308452280549e-01
3.644800000000000040e+01 5.908200000000000074e+01 2.891300000000000026e+01 -7.856518999999999586e+00 -2.550929538246126116e-01
3.644800000000000040e+01 5.908200000000000074e+01 2.977799999999999869e+01 -6.239936000000000371e-01 -2.558924569427099560e-01
3.645100000000000051e+01 5.274900000000000233e+01 1.921000000000000085e+01 1.423276000000000074e+01 -1.350719157116134217e-01
3.645199999999999818e+01 5.342000000000000171e+01 5.121399999999999864e+01 -8.743826000000000320e+00 -2.921269519081187704e-01
3.646000000000000085e+01 4.075500000000000256e+01 4.556900000000000261e+01 -1.454385000000000083e+01 -1.484690898377354074e-01
3.646300000000000097e+01 6.703700000000000614e+01 3.512700000000000244e+01 -4.880404000000000408e+00 -1.543204435659030760e-01
3.646399999999999864e+01 5.550699999999999790e+01 3.066600000000000037e+01 -5.721969999999999779e+00 -2.376925770306617114e-01
3.646800000000000352e+01 5.433700000000000330e+01 2.848999999999999844e+01 -1.424399000000000015e+01 -2.324352271113305224e-01
3.646900000000000119e+01 5.813000000000000256e+01 2.776999999999999957e+01 -1.103289999999999971e+01 -2.534359715646000710e-01
3.648100000000000165e+01 5.880899999999999750e+01 4.292999999999999972e+01 -2.394273999999999791e+00 -3.499999999999999778e-01
3.648400000000000176e+01 5.548100000000000165e+01 4.772099999999999653e+01 -4.660804000000000258e+01 -2.564696947047096498e-01
3.648700000000000188e+01 3.842799999999999727e+01 3.692199999999999704e+01 -9.488675000000000637e+00 -2.590512780455261899e-01
3.649699999999999989e+01 4.084599999999999653e+01 2.490399999999999991e+01 -1.957801999999999865e+01 -2.661355339169875212e-01
3.650099999999999767e+01 4.911800000000000210e+01 2.269699999999999918e+01 4.095741000000000298e+01 -3.367212877461270848e-01
3.650900000000000034e+01 5.679599999999999937e+01 2.596300000000000097e+01 -1.183831999999999951e+01 -3.642534181819758743e-01
3.651700000000000301e+01 4.684400000000000119e+01 4.838499999999999801e+01 -9.515911000000000231e-01 -2.914822420170856687e-01
3.651800000000000068e+01 5.386299999999999955e+01 5.016799999999999926e+01 -2.607069000000000081e+00 -2.923868016351008903e-01
3.651899999999999835e+01 4.897099999999999653e+01 4.847099999999999653e+01 1.826522999999999897e+00 -2.919472671065605485e-01
3.653199999999999648e+01 5.018399999999999750e+01 5.068399999999999750e+01 -7.584215999999999624e+00 -2.917491640435173061e-01
3.653600000000000136e+01 5.410199999999999676e+01 2.926999999999999957e+01 -7.176891999999999605e+00 -3.387136444522043655e-01
3.653600000000000136e+01 5.431099999999999994e+01 3.000600000000000023e+01 -2.041134000000000004e+00 -2.347765870333475002e-01
3.654299999999999926e+01 5.578499999999999659e+01 4.702100000000000080e+01 -7.442139000000000237e+01 -2.563465686208524774e-01
3.654999999999999716e+01 4.218699999999999761e+01 1.995799999999999841e+01 -9.295540000000000802e+00 -3.647637640500495104e-01
3.654999999999999716e+01 4.370700000000000074e+01 1.995799999999999841e+01 -2.060615999999999914e+01 -3.652784952932953688e-01
3.654999999999999716e+01 5.439600000000000080e+01 2.750600000000000023e+01 -1.682635000000000147e+01 -2.311228242425941437e-01
3.655499999999999972e+01 4.632000000000000028e+01 2.268700000000000117e+01 -1.165629999999999988e+01 -3.381475236592658695e-01
3.655899999999999750e+01 6.165100000000000335e+01 4.335000000000000142e+01 -2.216031999999999780e+00 -2.436632522946883539e-01
3.656400000000000006e+01 6.512000000000000455e+01 2.359900000000000020e+01 -3.283984999999999843e+01 -3.631414367749326577e-01
3.656700000000000017e+01 5.904299999999999926e+01 4.341499999999999915e+01 4.625519999999999854e+00 -3.499999999999999778e-01
3.657500000000000284e+01 5.508200000000000074e+01 2.589399999999999835e+01 -1.099506000000000050e+01 -3.652235034897134414e-01
3.657999999999999829e+01 5.317999999999999972e+01 1.546599999999999930e+01 2.515740000000000087e+00 2.246870583459581808e-02
3.657999999999999829e+01 5.422999999999999687e+01 1.546599999999999930e+01 5.518430000000000391e+00 -1.692205732052353695e-01
3.660000000000000142e+01 5.940299999999999869e+01 3.715500000000000114e+01 7.565273000000000359e+00 -2.447123573693748833e-01
3.660000000000000142e+01 5.940299999999999869e+01 3.802000000000000313e+01 2.911475999999999953e+00 -2.447586845032319880e-01
3.660300000000000153e+01 6.326599999999999824e+01 3.681000000000000227e+01 8.595239000000000351e-02 -2.595855157065456997e-01
3.660600000000000165e+01 5.611399999999999721e+01 4.626100000000000279e+01 -3.926200000000000045e+01 -2.562180208267225145e-01
3.661299999999999955e+01 6.491700000000000159e+01 3.687500000000000000e+01 5.528472999999999971e+00 -1.533190448970055964e-01
3.661699999999999733e+01 5.688000000000000256e+01 3.037199999999999989e+01 -5.106162999999999563e+00 -2.403712206729873846e-01
3.663000000000000256e+01 5.046000000000000085e+01 2.221099999999999852e+01 1.194557999999999964e+01 -1.054674381572619050e-02
3.663000000000000256e+01 5.169899999999999807e+01 2.300199999999999889e+01 7.070306000000000424e+00 -1.094050411948297441e-01
3.663199999999999790e+01 4.159599999999999653e+01 2.410000000000000142e+01 -1.190475999999999956e+01 -2.600911975842191137e-01
3.663199999999999790e+01 4.180499999999999972e+01 2.336400000000000077e+01 -5.304933000000000121e+00 -2.531284386438334977e-01
3.664500000000000313e+01 5.978000000000000114e+01 2.016300000000000026e+01 3.131158999999999892e+01 -3.625694808617573317e-01
3.664600000000000080e+01 6.167999999999999972e+01 2.137900000000000134e+01 -8.176996000000000819e+00 -3.628581174079642535e-01
3.664600000000000080e+01 6.167999999999999972e+01 2.224399999999999977e+01 -6.547177999999999720e+00 -3.628702056081854477e-01
3.666299999999999670e+01 6.552299999999999613e+01 3.650200000000000244e+01 1.242963999999999913e+01 -1.536735565883814714e-01
3.666299999999999670e+01 5.191199999999999903e+01 4.391700000000000159e+01 -5.170613999999999599e+00 -2.555467268546692261e-01
3.666299999999999670e+01 5.191199999999999903e+01 4.618299999999999983e+01 6.472874000000000017e+00 -2.560949847252550482e-01
3.667300000000000182e+01 5.956199999999999761e+01 2.102899999999999991e+01 2.632729000000000141e+01 -3.625789558460607021e-01
3.667699999999999960e+01 5.504599999999999937e+01 4.822599999999999909e+01 -2.100226999999999933e+01 -2.565355629211168997e-01
3.667799999999999727e+01 6.374000000000000199e+01 2.726300000000000168e+01 -5.271880000000000344e+00 -2.556752872744540439e-01
3.668299999999999983e+01 5.336899999999999977e+01 4.390500000000000114e+01 -1.656944000000000017e+01 -2.556168723583741587e-01
3.668699999999999761e+01 6.375099999999999767e+01 1.942699999999999960e+01 -7.263633999999999702e+00 -8.100280919662107559e-02
3.670300000000000296e+01 5.342699999999999960e+01 4.627499999999999858e+01 -5.886101000000000028e+00 -2.561272861503550713e-01
3.671000000000000085e+01 5.944400000000000261e+01 1.938800000000000168e+01 -3.191988999999999965e+00 -3.624290519155899948e-01
3.671200000000000330e+01 6.385999999999999943e+01 2.471199999999999974e+01 -3.160848000000000013e+01 -3.630373314472139512e-01
3.671500000000000341e+01 5.864900000000000091e+01 2.821300000000000097e+01 -1.039569000000000010e+01 -2.546087145257464046e-01
3.671500000000000341e+01 5.864900000000000091e+01 3.047800000000000153e+01 5.901054999999999495e-01 -2.567248291162945728e-01
3.672200000000000131e+01 5.575099999999999767e+01 1.684400000000000119e+01 -6.040042999999999829e+00 -9.792281488105239462e-02
3.672200000000000131e+01 6.762999999999999545e+01 3.532399999999999807e+01 -5.882354000000000305e+00 -1.548454601601981506e-01
3.672200000000000131e+01 3.875399999999999778e+01 3.233400000000000318e+01 1.898033000000000081e-01 -2.584846009551594048e-01
3.672800000000000153e+01 5.557699999999999818e+01 4.525900000000000034e+01 -3.101277999999999935e+01 -2.560019455773147046e-01
3.672899999999999920e+01 6.497599999999999909e+01 2.027199999999999847e+01 -2.372816999999999865e+01 -1.349894602929430365e-01
3.672899999999999920e+01 6.520300000000000296e+01 2.107100000000000151e+01 -3.516525000000000034e+01 -1.353273058519798566e-01
3.673299999999999699e+01 6.170199999999999818e+01 1.901000000000000156e+01 -1.359160999999999930e+01 -7.827044309040263881e-02
3.673299999999999699e+01 6.170199999999999818e+01 2.041000000000000014e+01 -7.020099000000000089e+00 -3.628264772437862495e-01
3.673700000000000188e+01 5.961599999999999966e+01 2.339300000000000068e+01 -1.006478000000000073e+01 -2.474523613774779474e-01
3.673700000000000188e+01 6.101599999999999824e+01 2.339300000000000068e+01 -1.267331000000000074e+01 -3.628256177334888699e-01
3.673899999999999721e+01 5.456000000000000227e+01 4.465100000000000335e+01 -2.819878999999999891e+01 -2.558313983408341263e-01
3.673899999999999721e+01 5.456000000000000227e+01 4.551599999999999824e+01 -3.538383000000000322e+01 -2.560022494092217271e-01
3.674399999999999977e+01 5.317300000000000182e+01 2.273100000000000165e+01 -8.583075000000000010e-01 -1.174192786016752255e-01
3.674699999999999989e+01 6.639900000000000091e+01 3.440699999999999648e+01 -6.818812000000000317e+00 -1.541889680940815022e-01
3.674799999999999756e+01 5.139099999999999824e+01 5.198899999999999721e+01 2.991027000000000058e+01 -2.918845236504847285e-01
3.674799999999999756e+01 5.294100000000000250e+01 5.198899999999999721e+01 2.860263000000000133e+01 -2.921073886840762079e-01
3.674900000000000233e+01 3.885699999999999932e+01 4.267499999999999716e+01 -5.195776999999999646e+00 -1.393612856033208947e-01
3.675099999999999767e+01 6.072399999999999665e+01 1.884900000000000020e+01 -9.622118000000000393e+00 -7.755225339975882481e-02
3.675200000000000244e+01 5.893800000000000239e+01 1.889499999999999957e+01 -5.136020000000000252e+00 -3.622592334503439426e-01
3.675500000000000256e+01 5.537700000000000244e+01 4.367499999999999716e+01 -2.244661999999999935e+01 -2.556958785551064484e-01
3.675500000000000256e+01 5.558599999999999852e+01 4.293900000000000006e+01 -2.263061000000000078e+01 -2.555794872155415232e-01
3.675500000000000256e+01 5.558599999999999852e+01 4.441100000000000136e+01 -2.143521000000000143e+01 -2.558447877002302251e-01
3.675699999999999790e+01 5.947899999999999920e+01 3.622899999999999920e+01 1.175909000000000049e+01 -2.449177131294447973e-01
3.675699999999999790e+01 5.968800000000000239e+01 3.549300000000000210e+01 3.906238999999999795e+00 -2.450690790788245255e-01
3.675699999999999790e+01 6.087899999999999778e+01 3.482900000000000063e+01 1.954882000000000009e+00 -2.591260926010915400e-01
3.676100000000000279e+01 6.519599999999999795e+01 2.231500000000000128e+01 -1.075834000000000046e+01 -3.631256436479822769e-01
3.676100000000000279e+01 5.803699999999999903e+01 1.812900000000000134e+01 -1.071306000000000047e+01 -3.619718714617450872e-01
3.676700000000000301e+01 5.392099999999999937e+01 4.952300000000000324e+01 -6.266267000000000031e+00 -2.926462155931964237e-01
3.676700000000000301e+01 6.044800000000000040e+01 1.812900000000000134e+01 -6.465492000000000239e+00 -7.653405220999577596e-02
3.678000000000000114e+01 4.159599999999999653e+01 2.229100000000000037e+01 -3.917304000000000119e+00 -2.483544587573107143e-01
3.678300000000000125e+01 4.025800000000000267e+01 2.982900000000000063e+01 -4.079825999999999731e+00 -2.479078408144380075e-01
3.678300000000000125e+01 4.046699999999999875e+01 2.909299999999999997e+01 -1.123198000000000008e+01 -2.455255733945693741e-01
3.678399999999999892e+01 3.858899999999999864e+01 4.343399999999999750e+01 -1.118304000000000009e+01 -1.417392135990817592e-01
3.678600000000000136e+01 4.940400000000000347e+01 4.917099999999999937e+01 -8.171237999999999557e-01 -2.920841226747248331e-01
3.679099999999999682e+01 6.200500000000000256e+01 1.971000000000000085e+01 -1.159866000000000064e+01 -7.863571161058313663e-02
3.679299999999999926e+01 3.884599999999999653e+01 4.431099999999999994e+01 -5.981921999999999962e+00 -1.445248978145441676e-01
3.679500000000000171e+01 4.498100000000000165e+01 2.114199999999999946e+01 -3.826026999999999845e+00 -3.660116304922833574e-01
3.679800000000000182e+01 6.538599999999999568e+01 3.178399999999999892e+01 -1.186359999999999992e+01 -2.584827794724072758e-01
3.679899999999999949e+01 4.975200000000000244e+01 4.998400000000000176e+01 3.720306999999999920e-01 -2.919855088364862183e-01
3.680299999999999727e+01 3.713600000000000279e+01 3.286699999999999733e+01 3.570530000000000204e+00 -2.705308609609978210e-01
3.680299999999999727e+01 3.713600000000000279e+01 3.537500000000000000e+01 2.228584999999999994e+01 -2.715144688750940061e-01
3.680299999999999727e+01 6.220400000000000063e+01 3.566299999999999670e+01 -9.914290999999999521e-01 -2.594444195293874045e-01
3.680499999999999972e+01 4.637899999999999778e+01 4.913799999999999812e+01 -2.808396000000000114e+00 -2.914709032129511046e-01
3.680599999999999739e+01 5.985499999999999687e+01 4.497500000000000142e+01 2.514520999999999873e+01 -3.499999999999999778e-01
3.681199999999999761e+01 5.446999999999999886e+01 2.187399999999999878e+01 2.014686000000000021e+01 -3.654859086700892878e-01
3.681300000000000239e+01 6.307099999999999795e+01 1.813200000000000145e+01 -2.041397999999999868e+01 -7.744766454780903364e-02
3.681900000000000261e+01 6.024499999999999744e+01 1.939600000000000080e+01 -5.162874999999999659e+00 -3.625236490005205869e-01
3.682000000000000028e+01 4.754399999999999693e+01 4.832699999999999818e+01 4.936932999999999794e+00 -2.919521835059573078e-01
3.682200000000000273e+01 4.827100000000000080e+01 4.841299999999999670e+01 8.226329000000000002e-01 -2.920815790458429206e-01
3.682300000000000040e+01 6.052400000000000091e+01 1.993599999999999994e+01 5.277758000000000393e+00 -3.625832875583763215e-01
3.682699999999999818e+01 6.173799999999999955e+01 1.636700000000000088e+01 -7.690088000000000257e+00 -7.363202633576801381e-02
3.683299999999999841e+01 5.531499999999999773e+01 4.626100000000000279e+01 -5.107607999999999748e+01 -2.561635375661127090e-01
3.684000000000000341e+01 4.171699999999999875e+01 2.071799999999999997e+01 -6.153036000000000172e+00 -3.647125321862287328e-01
3.684799999999999898e+01 4.157000000000000028e+01 2.166199999999999903e+01 -3.962908000000000097e+00 -3.649653534889993889e-01
3.684899999999999665e+01 5.692099999999999937e+01 1.743499999999999872e+01 -1.824692999999999898e+01 -6.804991135761132015e-02
3.685600000000000165e+01 6.631100000000000705e+01 3.634300000000000352e+01 -1.450603000000000087e+00 -1.542521034395946677e-01
3.685799999999999699e+01 6.332399999999999807e+01 1.887000000000000099e+01 -8.582936999999999372e+00 -7.812941565330838722e-02
3.685999999999999943e+01 5.951700000000000301e+01 4.418200000000000216e+01 2.017073999999999856e+01 -3.499999999999999223e-01
3.685999999999999943e+01 6.205899999999999750e+01 4.234799999999999898e+01 7.542830000000000368e-01 -2.451490217907514035e-01
3.686399999999999721e+01 4.780299999999999727e+01 2.325799999999999912e+01 1.328852000000000011e+01 -4.251245725819220722e-02
3.686599999999999966e+01 6.050800000000000267e+01 1.719000000000000128e+01 -6.043777999999999651e+00 -7.364966784459296700e-02
3.686599999999999966e+01 6.296800000000000352e+01 1.719000000000000128e+01 -1.543740999999999985e+01 -1.283786171408232146e-01
3.686699999999999733e+01 5.728399999999999892e+01 4.207099999999999795e+01 -1.956353999999999971e+01 -3.499999999999999778e-01
3.686999999999999744e+01 6.204299999999999926e+01 4.056199999999999761e+01 1.249219000000000079e+01 5.016462797467405657e-03
3.687500000000000000e+01 6.103900000000000148e+01 3.959300000000000352e+01 9.184262999999999622e+00 6.829726406506654232e-03
3.687899999999999778e+01 4.294700000000000273e+01 1.989499999999999957e+01 -3.025797999999999988e+00 -3.645226330864166364e-01
3.688000000000000256e+01 6.448499999999999943e+01 3.757500000000000284e+01 -2.357502999999999904e+00 -1.533478037065382216e-01
3.689000000000000057e+01 4.317000000000000171e+01 4.817300000000000182e+01 -4.569560999999999762e-01 -1.530465172905299542e-01
3.689000000000000057e+01 4.332800000000000296e+01 4.639500000000000313e+01 2.041545999999999861e+00 -2.915415909713419129e-01
3.689000000000000057e+01 4.342399999999999949e+01 4.906700000000000017e+01 5.966261000000000481e-01 -1.540729278012657466e-01
3.689000000000000057e+01 4.486999999999999744e+01 4.987299999999999756e+01 -4.351341999999999821e+00 -2.910194538494401129e-01
3.689900000000000091e+01 5.505299999999999727e+01 4.702900000000000347e+01 -3.072117000000000075e+01 -2.562919976657850318e-01
3.690100000000000335e+01 5.731199999999999761e+01 2.639999999999999858e+01 -1.275024999999999942e+01 -2.516478875484986499e-01
3.690299999999999869e+01 6.588100000000000023e+01 3.277300000000000324e+01 -1.133012000000000086e+01 -2.589232910066075477e-01
3.691299999999999670e+01 6.219700000000000273e+01 4.146800000000000352e+01 3.075433999999999912e+01 4.144883847936957876e-03
3.691599999999999682e+01 6.138600000000000279e+01 4.420199999999999818e+01 9.147636999999999574e+00 -2.429168767351438107e-01
3.691599999999999682e+01 4.331799999999999784e+01 4.727700000000000102e+01 -9.701710999999999530e-01 -2.912504079544772084e-01
3.692699999999999960e+01 3.899300000000000210e+01 3.871500000000000341e+01 -2.626724999999999977e+00 -1.263636442473805022e-01
3.692699999999999960e+01 3.920199999999999818e+01 3.945100000000000051e+01 -2.880730999999999931e+00 -1.288572881889424315e-01
3.692999999999999972e+01 4.133700000000000330e+01 2.450700000000000145e+01 -1.945164000000000115e+01 -2.622221778380621204e-01
3.693200000000000216e+01 3.994200000000000017e+01 4.538199999999999790e+01 -3.319538000000000011e+01 -1.474113031736296597e-01
3.695000000000000284e+01 6.492900000000000205e+01 2.843900000000000006e+01 -3.928748000000000240e-01 -2.570998483043644978e-01
3.695000000000000284e+01 6.492900000000000205e+01 2.948900000000000077e+01 1.079426999999999914e+01 -2.576321190446604903e-01
3.695499999999999829e+01 4.008599999999999852e+01 2.530999999999999872e+01 -4.970309000000000310e+00 -2.682460817577749235e-01
3.696000000000000085e+01 4.686200000000000188e+01 2.311299999999999955e+01 -2.940611999999999782e+00 -5.126584647441270043e-02
3.696000000000000085e+01 5.280299999999999727e+01 1.879299999999999926e+01 8.542042000000000357e+00 1.702052717855274955e-01
3.696900000000000119e+01 5.480199999999999960e+01 3.040200000000000102e+01 -9.330969999999999542e-01 -2.373095703847308557e-01
3.696900000000000119e+01 5.620199999999999818e+01 3.040200000000000102e+01 -5.435959999999999681e+00 -2.399932724177603061e-01
3.696999999999999886e+01 5.601800000000000068e+01 1.735999999999999943e+01 -1.099633000000000038e+01 -7.991345630270632605e-02
3.697599999999999909e+01 5.971200000000000330e+01 1.812900000000000134e+01 -5.599014000000000379e+00 -7.283452999644064729e-02
3.697599999999999909e+01 5.359899999999999665e+01 1.953500000000000014e+01 2.796118999999999843e+01 -5.771683299008083246e-02
3.697699999999999676e+01 5.987700000000000244e+01 1.868799999999999883e+01 -5.363993999999999929e+00 -3.623161626060584783e-01
3.697899999999999920e+01 6.342699999999999960e+01 2.541199999999999903e+01 -1.581564000000000014e+01 -2.544126424156209487e-01
3.697899999999999920e+01 6.342699999999999960e+01 2.627799999999999869e+01 -1.305097999999999914e+01 -2.551740375059211585e-01
3.698400000000000176e+01 6.496099999999999852e+01 2.408599999999999852e+01 -3.096173999999999893e+01 -3.630378355208368490e-01
3.698799999999999955e+01 6.371699999999999875e+01 3.730799999999999983e+01 -3.543022999999999811e+00 5.564751649395694930e-03
3.699099999999999966e+01 4.151400000000000290e+01 4.537700000000000244e+01 -6.918988000000000227e+01 -1.482784651657211850e-01
3.699600000000000222e+01 4.572899999999999920e+01 2.235500000000000043e+01 -2.060138999999999854e+01 -5.882876327372723452e-02
3.699699999999999989e+01 4.864399999999999835e+01 2.313599999999999923e+01 6.382012000000000285e+01 -3.667212079546455089e-02
3.699900000000000233e+01 5.456099999999999994e+01 2.074699999999999989e+01 4.554870999999999981e+01 -3.648329204569100703e-01
3.700000000000000000e+01 6.126899999999999835e+01 1.971000000000000085e+01 -6.411948999999999899e+00 -3.626249973240274205e-01
3.700399999999999778e+01 5.918299999999999983e+01 2.182700000000000173e+01 3.057185000000000041e+00 -2.433845030453798408e-01
3.700399999999999778e+01 5.918299999999999983e+01 2.269300000000000139e+01 -1.949402000000000079e+00 -2.456571796509814387e-01
3.700399999999999778e+01 6.144899999999999807e+01 2.269300000000000139e+01 -8.871558999999999529e+00 -3.627333180025871240e-01
3.700699999999999790e+01 5.412700000000000244e+01 4.395100000000000051e+01 -2.338772000000000162e+01 -2.556296660574630675e-01
3.700800000000000267e+01 5.438199999999999790e+01 2.702700000000000102e+01 -2.036546999999999841e+01 -2.317850442059317673e-01
3.700800000000000267e+01 5.459100000000000108e+01 2.629100000000000037e+01 -1.520021000000000022e+01 -2.311526712107898063e-01
3.700800000000000267e+01 5.578199999999999648e+01 2.562699999999999889e+01 -2.071049999999999969e+01 -3.646640742275300551e-01
3.701400000000000290e+01 6.596599999999999397e+01 3.370700000000000074e+01 -1.180920000000000059e+01 -1.541624998579601002e-01
3.701899999999999835e+01 6.522700000000000387e+01 2.325700000000000145e+01 -2.161281999999999925e+01 -3.630505794161631439e-01
3.702400000000000091e+01 5.435300000000000153e+01 4.623899999999999721e+01 -2.416653000000000162e+01 -2.561057231807287726e-01
3.702600000000000335e+01 4.990100000000000335e+01 2.243299999999999983e+01 9.502864999999999895e+00 -2.020973255520569153e-02
3.703300000000000125e+01 6.407200000000000273e+01 3.804200000000000159e+01 -4.714012999999999565e+00 4.475019777232403656e-03
3.703300000000000125e+01 3.794200000000000017e+01 3.642399999999999949e+01 -2.839271999999999796e+00 -2.612868033183582961e-01
3.703999999999999915e+01 6.031600000000000250e+01 2.345100000000000051e+01 -1.215615999999999985e+01 -2.491511863570986252e-01
3.704699999999999704e+01 6.275600000000000023e+01 3.640599999999999881e+01 -5.315811999999999760e-01 -2.598050853602227872e-01
3.704699999999999704e+01 6.836700000000000443e+01 3.532399999999999807e+01 -3.992989999999999817e+00 -1.554694523853640264e-01
3.704699999999999704e+01 5.437500000000000000e+01 4.878900000000000148e+01 -1.581546999999999947e+01 -2.566016815031498810e-01
3.704999999999999716e+01 6.709900000000000375e+01 3.446500000000000341e+01 -4.081900000000000084e+00 -1.548665106214307530e-01
3.704999999999999716e+01 6.709900000000000375e+01 3.618299999999999983e+01 -5.295109000000000066e+00 -1.548139195653855382e-01
3.705499999999999972e+01 6.068500000000000227e+01 4.497500000000000142e+01 1.400676999999999950e+01 -2.416671006609376615e-01
3.706600000000000250e+01 6.495300000000000296e+01 3.021900000000000119e+01 6.278985000000000261e-01 -2.580825321281704499e-01
3.706600000000000250e+01 6.495300000000000296e+01 3.108399999999999963e+01 -7.350560999999999900e+00 -2.584287533619888944e-01
3.707300000000000040e+01 3.978900000000000148e+01 3.058800000000000097e+01 -3.443515000000000104e+00 -2.499056573240982237e-01
3.707600000000000051e+01 5.087500000000000000e+01 2.289600000000000080e+01 1.318698000000000015e+01 -2.592880956624395508e-02
3.707900000000000063e+01 6.097999999999999687e+01 2.111100000000000065e+01 -4.242046000000000205e+00 -3.625650965134481485e-01
3.707900000000000063e+01 5.403699999999999903e+01 2.257400000000000162e+01 1.730861999999999901e+00 -3.660392107916272675e-01
3.708200000000000074e+01 3.953099999999999881e+01 3.138100000000000023e+01 -4.910819000000000045e+00 -2.537972279327426195e-01
3.709599999999999653e+01 5.121200000000000330e+01 4.504999999999999716e+01 -5.423286000000000495e-01 -2.557442159733468445e-01
3.709599999999999653e+01 5.142099999999999937e+01 4.431400000000000006e+01 3.441288000000000125e-01 -2.555580910286956442e-01
3.709599999999999653e+01 5.142099999999999937e+01 4.578600000000000136e+01 1.159712000000000076e+00 -2.559355434352429404e-01
3.709599999999999653e+01 5.261200000000000188e+01 4.364999999999999858e+01 -7.260339000000000098e+00 -2.554529701572986200e-01
3.709599999999999653e+01 5.261200000000000188e+01 4.645000000000000284e+01 9.928245999999999682e+00 -2.561047792821754543e-01
3.709899999999999665e+01 3.665699999999999648e+01 3.364200000000000301e+01 7.807733000000000034e-01 -2.786548782893388809e-01
3.709899999999999665e+01 3.665699999999999648e+01 3.460000000000000142e+01 8.367812000000000694e+00 -2.796206746548167144e-01
3.710999999999999943e+01 6.803799999999999670e+01 3.456400000000000006e+01 -1.363913999999999938e+01 -1.554136239758969196e-01
3.710999999999999943e+01 6.803799999999999670e+01 3.608400000000000318e+01 -2.094055000000000177e+01 -1.553185220202749905e-01
3.711500000000000199e+01 6.154099999999999682e+01 3.975000000000000000e+01 7.119347000000000314e+00 5.642477712192698822e-03
3.713000000000000256e+01 4.029899999999999949e+01 2.766700000000000159e+01 -1.046565999999999974e+01 -2.537667699173883351e-01
3.713000000000000256e+01 4.050800000000000267e+01 2.840299999999999869e+01 -6.889796999999999727e+00 -2.486672332884972969e-01
3.713000000000000256e+01 3.914800000000000324e+01 3.991700000000000159e+01 -2.754950000000000010e+00 -1.293665186889141894e-01
3.713100000000000023e+01 5.778699999999999903e+01 2.719200000000000017e+01 -1.156935000000000002e+01 -2.536823063354581853e-01
3.714800000000000324e+01 5.794899999999999807e+01 3.074599999999999866e+01 -1.999182000000000015e+00 -2.574069495883735681e-01
3.714800000000000324e+01 5.914000000000000057e+01 2.860999999999999943e+01 -8.759873999999999938e+00 -2.559110818203805815e-01
3.714800000000000324e+01 5.914000000000000057e+01 3.008200000000000074e+01 -3.152499000000000162e+00 -2.571378371330285129e-01
3.714800000000000324e+01 5.934899999999999665e+01 2.934600000000000009e+01 -6.959253999999999607e+00 -2.566170650878547566e-01
3.715299999999999869e+01 5.372599999999999909e+01 1.590700000000000003e+01 9.998553999999999775e-02 -1.633364860770858962e-01
3.715599999999999881e+01 5.237100000000000222e+01 1.685699999999999932e+01 1.891909000000000063e+00 9.369145544222043376e-02
3.715599999999999881e+01 5.237100000000000222e+01 1.790700000000000003e+01 5.533509999999999707e+00 1.480679965283102917e-01
3.715599999999999881e+01 6.097800000000000153e+01 1.642999999999999972e+01 -5.973342999999999847e+00 -6.696418239121354476e-02
3.715599999999999881e+01 6.249799999999999756e+01 1.642999999999999972e+01 -1.087622000000000000e+01 -1.290123899554661557e-01
3.716199999999999903e+01 5.420100000000000051e+01 2.004200000000000159e+01 8.857326000000000477e+00 -4.623908183908075065e-02
3.717499999999999716e+01 3.911899999999999977e+01 4.180799999999999983e+01 -4.954468999999999568e+00 -1.360256308282917215e-01
3.717799999999999727e+01 3.786699999999999733e+01 3.271300000000000097e+01 2.715396000000000143e+00 -2.632250128087379459e-01
3.717900000000000205e+01 6.033899999999999864e+01 3.953499999999999659e+01 6.370235000000000092e+00 6.953860391703094515e-03
3.718699999999999761e+01 3.836999999999999744e+01 3.722500000000000142e+01 -5.791946000000000261e+00 -2.573864489486502594e-01
3.718800000000000239e+01 5.607699999999999818e+01 4.254200000000000159e+01 -3.001338000000000150e+01 -3.499999999999999778e-01
3.718999999999999773e+01 6.017900000000000205e+01 3.509599999999999653e+01 3.069167000000000201e+00 -2.595558864636074992e-01
3.718999999999999773e+01 6.157900000000000063e+01 3.509599999999999653e+01 2.668251999999999846e-01 -2.595990622320172858e-01
3.719400000000000261e+01 5.873700000000000188e+01 1.839600000000000080e+01 -5.237993000000000343e+00 -3.617498809768582846e-01
3.719400000000000261e+01 5.992799999999999727e+01 1.773199999999999932e+01 -6.071460000000000079e+00 -6.782186800699357976e-02
3.719599999999999795e+01 5.746699999999999875e+01 1.808599999999999852e+01 -1.493886999999999965e+01 -3.612937645624624272e-01
3.719899999999999807e+01 6.444299999999999784e+01 1.984100000000000108e+01 -1.057296999999999976e+01 -1.353032931348412127e-01
3.721699999999999875e+01 4.711200000000000188e+01 4.881799999999999784e+01 -3.891563999999999801e+00 -2.921038134423630805e-01
3.721800000000000352e+01 4.905100000000000193e+01 2.284900000000000020e+01 4.736323999999999756e+00 -3.389910922037116248e-02
3.721900000000000119e+01 5.517999999999999972e+01 4.482699999999999818e+01 -2.230850999999999829e+01 -2.558443805741946186e-01
3.722699999999999676e+01 5.084700000000000131e+01 5.154999999999999716e+01 -4.987940000000000151e-01 -2.921598089634555029e-01
3.722699999999999676e+01 5.216599999999999682e+01 5.228499999999999659e+01 2.092023000000000081e+02 -2.922212385446870675e-01
3.722699999999999676e+01 5.348499999999999943e+01 5.154999999999999716e+01 -1.000768000000000058e+01 -2.924946962341127277e-01
3.722699999999999676e+01 5.371600000000000108e+01 5.073499999999999943e+01 -1.110271999999999970e+01 -2.926570847501302475e-01
3.723499999999999943e+01 4.432200000000000273e+01 2.073199999999999932e+01 -2.255228999999999928e+00 -3.650420066350864579e-01
3.723599999999999710e+01 3.762700000000000244e+01 3.577199999999999847e+01 3.475153000000000247e+01 -2.652592139863941822e-01
3.723599999999999710e+01 5.436899999999999977e+01 2.970200000000000173e+01 -3.758011000000000212e+00 -2.363968473531071479e-01
3.723799999999999955e+01 4.813000000000000256e+01 4.874000000000000199e+01 -4.360833999999999655e+00 -2.923341971280593588e-01
3.724300000000000210e+01 5.457900000000000063e+01 4.759899999999999665e+01 -7.990751999999999633e+00 -2.563563133343298994e-01
3.725600000000000023e+01 3.935000000000000142e+01 4.075999999999999801e+01 -3.669426000000000077e+00 -1.327863471067331214e-01
3.725999999999999801e+01 5.219299999999999784e+01 2.318100000000000094e+01 2.256279999999999841e+00 -3.358606431077494625e-02
3.726299999999999812e+01 4.289600000000000080e+01 4.569500000000000028e+01 2.170497999999999816e+00 -1.497370213720339849e-01
3.726299999999999812e+01 4.616199999999999903e+01 2.305499999999999972e+01 -3.954779999999999962e+00 -6.303228735590457599e-02
3.726599999999999824e+01 3.973799999999999955e+01 2.663400000000000034e+01 -4.342520999999999631e+00 -2.616402606639787187e-01
3.727199999999999847e+01 5.550200000000000244e+01 3.046099999999999852e+01 -2.269433999999999951e+00 -2.394776652907741887e-01
3.727400000000000091e+01 5.515299999999999869e+01 1.677599999999999980e+01 6.553848000000000340e+00 -9.514404056846691160e-02
3.727499999999999858e+01 6.440399999999999636e+01 2.758899999999999864e+01 -7.625350000000000072e+00 -2.568633810660447270e-01
3.727600000000000335e+01 5.035099999999999909e+01 5.029699999999999704e+01 8.075894000000000128e-01 -2.923532313338248478e-01
3.728300000000000125e+01 6.619100000000000250e+01 3.227199999999999847e+01 -1.032381999999999955e+01 -1.546297150257053832e-01
3.729399999999999693e+01 4.221399999999999864e+01 4.543500000000000227e+01 -1.059122999999999948e+01 -1.487894106180817355e-01
3.729500000000000171e+01 5.932200000000000273e+01 3.870900000000000318e+01 2.474316999999999836e-02 -2.454567441884957513e-01
3.729999999999999716e+01 5.658400000000000318e+01 4.233800000000000097e+01 -2.619621000000000066e+01 -3.500000000000000333e-01
3.729999999999999716e+01 5.798400000000000176e+01 4.233800000000000097e+01 -1.924512999999999963e+01 -3.499999999999999778e-01
3.729999999999999716e+01 5.913600000000000279e+01 3.758800000000000097e+01 1.496154999999999902e+00 -2.453360747167351585e-01
3.729999999999999716e+01 5.934499999999999886e+01 3.685199999999999676e+01 4.907682999999999574e+00 -2.454894849577863025e-01
3.730199999999999960e+01 5.049300000000000210e+01 5.078199999999999648e+01 -9.784481999999999902e-01 -2.922951080855498707e-01
3.731400000000000006e+01 6.318900000000000006e+01 3.710600000000000165e+01 -1.387963000000000058e+00 5.577070078108033006e-03
3.731700000000000017e+01 3.815800000000000125e+01 4.296399999999999864e+01 -6.766700000000000159e+00 -1.392127047987440913e-01
3.731700000000000017e+01 3.815800000000000125e+01 4.390400000000000347e+01 -9.755833000000000865e+00 -1.427006968418582378e-01
3.732399999999999807e+01 5.368099999999999739e+01 1.885800000000000054e+01 9.574066999999999439e+00 -5.720641782590203672e-02
3.733200000000000074e+01 4.153799999999999670e+01 2.293100000000000094e+01 -1.614060000000000050e+00 -2.545858658694941656e-01
3.733200000000000074e+01 4.153799999999999670e+01 2.379700000000000060e+01 -5.545925000000000438e+00 -2.598083058716650906e-01
3.733400000000000318e+01 5.907800000000000296e+01 4.368599999999999994e+01 -8.123926999999999676e-01 -3.499999999999999778e-01
3.734000000000000341e+01 6.743099999999999739e+01 3.145700000000000074e+01 8.989620999999999862e-01 -2.733987231958286968e-01
3.735000000000000142e+01 5.546399999999999864e+01 1.758399999999999963e+01 1.895024000000000042e+00 -7.015117735677776911e-02
3.735199999999999676e+01 3.847399999999999665e+01 3.828199999999999648e+01 -1.574376999999999915e+00 -1.208067173938396355e-01
3.735799999999999699e+01 4.574199999999999733e+01 4.969899999999999807e+01 -9.764526999999999513e-01 -2.917294594823053311e-01
3.736200000000000188e+01 3.940500000000000114e+01 4.494200000000000017e+01 -1.893450999999999951e+01 -1.459457803362444461e-01
3.736299999999999955e+01 4.084599999999999653e+01 2.490399999999999991e+01 -8.708902999999999395e+00 -2.648488568844035163e-01
3.736500000000000199e+01 3.908700000000000330e+01 3.205499999999999972e+01 -1.015125999999999973e+00 -2.551392481128148537e-01
3.736699999999999733e+01 5.645100000000000051e+01 1.785099999999999909e+01 -1.256953000000000031e+01 -6.159747308565859114e-02
3.736999999999999744e+01 4.247800000000000153e+01 2.032900000000000063e+01 -2.837225999999999804e+00 -3.641569805028285756e-01
3.736999999999999744e+01 5.818800000000000239e+01 2.786299999999999955e+01 -9.443478999999999957e+00 -2.552037321294500227e-01
3.737100000000000222e+01 6.328300000000000125e+01 3.800800000000000267e+01 -1.111585000000000001e+01 4.586750482574565059e-03
3.737100000000000222e+01 6.488100000000000023e+01 3.800800000000000267e+01 -1.007818999999999932e+01 2.856832539221850452e-03
3.737400000000000233e+01 5.679599999999999937e+01 2.596300000000000097e+01 -1.638269999999999982e+01 -2.515297179674250705e-01
3.741199999999999903e+01 6.412699999999999534e+01 2.514499999999999957e+01 -1.335205999999999982e+01 -2.691766108301693050e-01
3.741499999999999915e+01 4.402000000000000313e+01 4.954800000000000182e+01 -5.049532999999999799e-02 -1.545922385582008673e-01
3.743399999999999750e+01 6.361200000000000188e+01 3.876800000000000068e+01 -4.362671999999999883e+00 3.537634328964619872e-03
3.743399999999999750e+01 6.455200000000000671e+01 3.876800000000000068e+01 -4.425012999999999863e+00 2.592735608292553572e-03
3.743599999999999994e+01 6.156600000000000250e+01 4.466899999999999693e+01 -1.141999999999999904e+00 -2.430553136754513566e-01
3.743699999999999761e+01 5.988300000000000267e+01 2.155999999999999872e+01 9.897486999999999924e+00 -2.452098398899376641e-01
3.743699999999999761e+01 5.988300000000000267e+01 2.296000000000000085e+01 -1.456141000000000041e+01 -2.484324246897583188e-01
3.743699999999999761e+01 6.074900000000000233e+01 2.155999999999999872e+01 -6.301295999999999786e+00 -3.623928332862775825e-01
3.743699999999999761e+01 6.074900000000000233e+01 2.296000000000000085e+01 -1.543655000000000044e+01 -2.496641594369962969e-01
3.743699999999999761e+01 3.967499999999999716e+01 2.582000000000000028e+01 -4.146236000000000033e+00 -2.540089742134711281e-01
