-1.754200000000000159e+01 4.036999999999999744e+01 8.200600000000000023e+01 -4.412041999999999575e+00 -2.367280306308530702e-01
-1.753500000000000014e+01 5.960900000000000176e+01 7.850600000000000023e+01 -5.478006999999999849e+00 -1.289296439541945394e-01
-1.753300000000000125e+01 4.070300000000000296e+01 1.037800000000000011e+02 -8.169475999999999516e+00 -2.084665624226341440e-01
-1.750600000000000023e+01 3.785000000000000142e+01 8.947899999999999920e+01 -3.772434000000000065e+00 -1.899049934938998874e-01
-1.750000000000000000e+01 5.386699999999999733e+01 8.831799999999999784e+01 1.435242000000000040e+01 -1.369293748461506421e-01
-1.749399999999999977e+01 5.416299999999999670e+01 8.460099999999999909e+01 -2.410240999999999900e+01 -1.299685914202734494e-01
-1.747500000000000142e+01 5.825699999999999790e+01 1.052699999999999960e+02 1.737961000000000089e+00 3.839554052490667859e-03
-1.745499999999999829e+01 5.370100000000000051e+01 9.470699999999999363e+01 -6.767778000000000682e-02 -6.382458097813197007e-02
-1.745100000000000051e+01 5.378399999999999892e+01 7.678700000000000614e+01 -6.182076999999999600e+00 -2.323036501518799812e-01
-1.744999999999999929e+01 5.554899999999999949e+01 9.930200000000000671e+01 -6.958306000000000324e+00 -9.809458716454852456e-02
-1.744800000000000040e+01 4.283800000000000097e+01 9.811599999999999966e+01 -1.330227000000000004e+01 -1.976057131290046009e-01
-1.744300000000000139e+01 3.817900000000000205e+01 9.023900000000000432e+01 -3.792679999999999829e+00 -2.105256818173898981e-01
-1.744200000000000017e+01 4.113700000000000045e+01 9.697299999999999898e+01 1.816894000000000009e+00 -1.940490592219045740e-01
-1.744099999999999895e+01 3.942199999999999704e+01 8.291700000000000159e+01 -4.066521999999999970e+00 -3.390974153522109402e-01
-1.743499999999999872e+01 5.027700000000000102e+01 1.070300000000000011e+02 -1.252953999999999901e+00 -2.142720312884741352e-01
-1.743100000000000094e+01 6.135499999999999687e+01 8.277500000000000568e+01 -8.851858999999999256e+00 -1.414426838555918609e-01
-1.743100000000000094e+01 5.475099999999999767e+01 1.084399999999999977e+02 1.400043999999999933e+01 -2.138719266127949437e-01
-1.743100000000000094e+01 3.809199999999999875e+01 8.340099999999999625e+01 -3.332146999999999970e+00 -3.499999999999999778e-01
-1.742599999999999838e+01 4.243900000000000006e+01 7.967199999999999704e+01 -8.894669999999999632e+00 -3.499999999999999778e-01
-1.742099999999999937e+01 5.725699999999999790e+01 7.870300000000000296e+01 -3.360259000000000107e+00 -1.212500522874577491e-01
-1.742000000000000171e+01 4.538600000000000279e+01 7.847100000000000364e+01 -2.782023000000000135e+00 -2.338708119568952970e-01
-1.742000000000000171e+01 5.307999999999999829e+01 9.778100000000000591e+01 -1.201751999999999931e+01 -9.617537379114343699e-02
-1.741000000000000014e+01 4.462400000000000233e+01 7.886400000000000432e+01 -1.318149000000000015e+01 -2.351241344417572543e-01
-1.740399999999999991e+01 5.788799999999999812e+01 1.044200000000000017e+02 4.505033999999999983e-01 4.635455944391202524e-03
-1.740399999999999991e+01 5.338499999999999801e+01 9.546699999999999875e+01 4.841300000000000048e-01 -9.386635496490575159e-02
-1.739999999999999858e+01 5.546300000000000097e+01 8.840900000000000603e+01 4.184060000000000201e+01 -1.397536302653623053e-01
-1.738899999999999935e+01 3.991599999999999682e+01 1.024000000000000057e+02 -3.702472999999999903e+00 -2.048215616273562356e-01
-1.738899999999999935e+01 4.238499999999999801e+01 9.743000000000000682e+01 -2.282528999999999808e+00 -1.959244658364449887e-01
-1.738899999999999935e+01 4.238499999999999801e+01 9.882999999999999829e+01 -8.041558000000000206e+00 -1.986277202936268527e-01
-1.738299999999999912e+01 5.329299999999999926e+01 1.092300000000000040e+02 1.122677000000000014e+01 -2.151302970477044219e-01
-1.738100000000000023e+01 4.106400000000000006e+01 9.317000000000000171e+01 7.167728999999999573e+00 -2.778651952162540795e-01
-1.737699999999999889e+01 5.178600000000000136e+01 8.679099999999999682e+01 1.913501000000000118e+01 -1.306361271906397170e-01
-1.737500000000000000e+01 5.467499999999999716e+01 9.381499999999999773e+01 2.714792999999999790e+00 -7.156022238488848886e-02
-1.737399999999999878e+01 5.107699999999999818e+01 7.628300000000000125e+01 -2.039362000000000119e+00 -2.298752851672170028e-01
-1.737399999999999878e+01 5.838400000000000034e+01 1.067900000000000063e+02 -5.319481000000000348e-01 2.718596833300881196e-03
-1.737199999999999989e+01 5.677199999999999847e+01 1.010199999999999960e+02 -4.588373999999999953e+00 8.197145061452523057e-03
-1.737000000000000099e+01 3.943900000000000006e+01 9.476300000000000523e+01 -2.248521999999999910e+00 -2.002695781516495299e-01
-1.736100000000000065e+01 5.277700000000000102e+01 9.708100000000000307e+01 -7.602036000000000016e+00 -9.532203031221014866e-02
-1.735999999999999943e+01 5.719500000000000028e+01 1.017800000000000011e+02 -7.954335999999999629e+00 7.145370512482508533e-03
-1.735300000000000153e+01 5.306900000000000261e+01 9.622799999999999443e+01 -2.868109000000000020e+00 -9.449716041643280162e-02
-1.735300000000000153e+01 5.694800000000000040e+01 1.077699999999999960e+02 2.757244000000000028e+00 -2.125869029949735700e-01
-1.734900000000000020e+01 4.022500000000000142e+01 1.032099999999999937e+02 -4.970201999999999565e+00 -2.070056464049324918e-01
-1.734499999999999886e+01 5.177700000000000102e+01 8.526900000000000546e+01 1.185046999999999962e+01 -1.266710308238978566e-01
-1.734299999999999997e+01 4.189000000000000057e+01 8.031799999999999784e+01 -6.627257000000000176e+00 -2.368811611109077619e-01
-1.733599999999999852e+01 5.423400000000000176e+01 9.849200000000000443e+01 -1.478350000000000009e+01 -9.710131252009443492e-02
-1.733399999999999963e+01 3.702799999999999869e+01 8.447299999999999898e+01 5.828807999999999767e-01 -3.499999999999999778e-01
-1.733099999999999952e+01 5.803300000000000125e+01 9.064600000000000080e+01 2.269847999999999999e+01 -1.450166534190565903e-01
-1.732499999999999929e+01 3.688199999999999790e+01 8.551000000000000512e+01 -1.858564000000000105e+00 -1.678482389554416809e-01
-1.732100000000000151e+01 5.201200000000000045e+01 8.725799999999999557e+01 2.179921999999999827e+01 -1.322424245971022261e-01
-1.732100000000000151e+01 4.978799999999999670e+01 7.678499999999999659e+01 1.792710000000000026e+00 -2.281893778191176614e-01
-1.731800000000000139e+01 5.547099999999999653e+01 1.077900000000000063e+02 2.868374000000000201e+00 -2.131550966925458146e-01
-1.731200000000000117e+01 5.091599999999999682e+01 1.080699999999999932e+02 7.286438000000000415e+00 -2.152208513282246882e-01
-1.730900000000000105e+01 3.978000000000000114e+01 9.412300000000000466e+01 -1.255263999999999935e+00 -2.015502188919057747e-01
-1.730799999999999983e+01 6.169500000000000028e+01 8.918600000000000705e+01 -4.003067999999999671e+01 -1.475186602284293547e-01
-1.730300000000000082e+01 5.801500000000000057e+01 1.076400000000000006e+02 1.487077999999999989e+01 2.411768439501926070e-03
-1.730099999999999838e+01 5.640299999999999869e+01 1.001700000000000017e+02 -8.287190000000000722e+00 9.237211632883730178e-03
-1.730099999999999838e+01 3.946099999999999852e+01 9.085500000000000398e+01 -5.455358000000000374e+00 -2.078594532028306685e-01
-1.730000000000000071e+01 4.701700000000000301e+01 1.047000000000000028e+02 -9.811965999999999966e+00 -2.119742260810460466e-01
-1.729799999999999827e+01 6.295400000000000063e+01 8.835399999999999920e+01 -2.317173999999999978e+01 -1.480732743490437708e-01
-1.729799999999999827e+01 6.307000000000000028e+01 8.675700000000000500e+01 -1.660888999999999882e+01 -1.473584689734574460e-01
-1.729799999999999827e+01 6.318099999999999739e+01 8.755500000000000682e+01 -5.602280999999999977e+01 -1.478627786255865828e-01
-1.729599999999999937e+01 5.217600000000000193e+01 1.088799999999999955e+02 1.109523000000000081e+01 -2.154204238875751520e-01
-1.729599999999999937e+01 5.297200000000000131e+01 8.816899999999999693e+01 2.716199999999999903e+01 -1.357220747189230581e-01
-1.729500000000000171e+01 5.916599999999999682e+01 8.988700000000000045e+01 1.310299999999999976e+01 -1.457531263329084059e-01
-1.729299999999999926e+01 5.309499999999999886e+01 7.598999999999999488e+01 -1.196753999999999962e+01 -2.322428078018015929e-01
-1.728500000000000014e+01 5.801200000000000045e+01 9.207200000000000273e+01 -1.864980000000000082e+00 -1.458201021227698568e-01
-1.728099999999999881e+01 3.999000000000000199e+01 1.014200000000000017e+02 -4.004216999999999693e+00 -2.025457127235476551e-01
-1.727799999999999869e+01 4.099699999999999989e+01 9.188599999999999568e+01 1.479481000000000002e+01 -9.946040312683938900e-02
-1.727499999999999858e+01 4.768900000000000006e+01 1.053199999999999932e+02 -7.482591000000000214e+00 -2.128865670649784381e-01
-1.727400000000000091e+01 5.629500000000000171e+01 9.379099999999999682e+01 -3.060953000000000035e+00 -3.989983759514306033e-02
-1.726800000000000068e+01 6.013499999999999801e+01 8.963500000000000512e+01 1.101404999999999923e+01 -1.465571081390427410e-01
-1.725799999999999912e+01 4.022599999999999909e+01 9.677299999999999613e+01 1.645426000000000055e+00 -1.927360809132027675e-01
-1.724099999999999966e+01 4.102199999999999847e+01 9.960800000000000409e+01 -4.905724000000000196e+00 -1.991435017730958656e-01
-1.723799999999999955e+01 3.966499999999999915e+01 9.531600000000000250e+01 1.175114000000000020e-01 -1.979538762845869659e-01
-1.723400000000000176e+01 5.537100000000000222e+01 8.571099999999999852e+01 -3.881599000000000022e+00 -1.358453366549997876e-01
-1.722899999999999920e+01 5.593800000000000239e+01 7.920699999999999363e+01 1.801843000000000083e+00 -1.180943398940153266e-01
-1.722800000000000153e+01 5.765500000000000114e+01 9.287500000000000000e+01 -1.472963000000000022e+00 -1.459608803678297539e-01
-1.722800000000000153e+01 4.582500000000000284e+01 1.045000000000000000e+02 -3.122953000000000046e+01 -2.117356006888281572e-01
-1.721799999999999997e+01 6.276800000000000068e+01 8.329699999999999704e+01 -4.316799999999999748e+00 -1.445571790199766671e-01
-1.720299999999999940e+01 4.414999999999999858e+01 1.045000000000000000e+02 -2.690653999999999968e+01 -2.116149240767433715e-01
-1.719900000000000162e+01 4.240699999999999648e+01 1.049000000000000057e+02 -3.214072000000000173e+01 -2.120158425689309956e-01
-1.719699999999999918e+01 5.449699999999999989e+01 7.826099999999999568e+01 -7.491429000000000116e+00 -2.313495353326397164e-01
-1.719200000000000017e+01 4.838799999999999812e+01 7.630800000000000693e+01 2.211869999999999781e+00 -2.284170902792238000e-01
-1.715299999999999869e+01 4.581900000000000261e+01 7.777100000000000080e+01 4.504527000000000392e+00 -2.329080344184550344e-01
-1.714499999999999957e+01 4.097800000000000153e+01 1.042199999999999989e+02 -9.404196999999999917e+00 -2.100099906052827203e-01
-1.713200000000000145e+01 5.784100000000000108e+01 7.884600000000000364e+01 -3.011171000000000042e+00 -1.249087966007722539e-01
-1.712699999999999889e+01 6.055899999999999750e+01 7.972899999999999920e+01 -5.517806000000000211e+01 -1.356853514834091556e-01
-1.712199999999999989e+01 5.747899999999999920e+01 1.033400000000000034e+02 -1.024150000000000027e+01 5.503420103305343633e-03
-1.711700000000000088e+01 4.732300000000000040e+01 7.589199999999999591e+01 -3.652789000000000175e-01 -2.306203300472557116e-01
-1.710999999999999943e+01 3.987899999999999778e+01 8.240300000000000580e+01 -4.424769999999999648e+00 -3.390443947186294049e-01
-1.710699999999999932e+01 5.424199999999999733e+01 9.451500000000000057e+01 6.891677000000000497e-01 -6.643676477893896426e-02
-1.710399999999999920e+01 6.007900000000000063e+01 7.903900000000000148e+01 -1.388921999999999990e+01 -1.329863200706116744e-01
-1.709199999999999875e+01 5.740899999999999892e+01 1.022500000000000000e+02 -1.279246000000000016e+01 6.341825561188616130e-03
-1.707700000000000173e+01 5.220900000000000318e+01 8.456900000000000261e+01 1.813161999999999940e+00 -1.262366681621957254e-01
-1.707300000000000040e+01 4.594800000000000040e+01 7.681300000000000239e+01 -1.133844999999999992e+00 -2.329791141852642355e-01
-1.707100000000000151e+01 5.537500000000000000e+01 9.375600000000000023e+01 2.544954000000000160e+00 -3.992839129974661699e-02
-1.707100000000000151e+01 5.642199999999999704e+01 8.705899999999999750e+01 3.106174999999999997e+01 -1.403532855929053025e-01
-1.706700000000000017e+01 5.374799999999999756e+01 9.805700000000000216e+01 -1.076796000000000042e+01 -9.647443912876733918e-02
-1.706599999999999895e+01 5.420100000000000051e+01 7.772199999999999420e+01 -7.758154000000000217e+00 -2.311061661548324264e-01
-1.706200000000000117e+01 5.346300000000000097e+01 8.433299999999999841e+01 -2.684810999999999837e+01 -1.287200736932389566e-01
-1.706200000000000117e+01 5.465400000000000347e+01 8.499699999999999989e+01 -1.900257999999999825e+01 -1.333181665949458305e-01
-1.705099999999999838e+01 5.953300000000000125e+01 7.889600000000000080e+01 -1.097677999999999976e+01 -1.311936459234604446e-01
-1.704599999999999937e+01 4.113900000000000290e+01 8.063400000000000034e+01 -5.844203000000000259e+00 -2.362846770181324663e-01
-1.704500000000000171e+01 5.069800000000000040e+01 1.076299999999999955e+02 1.189789999999999903e+00 -2.151126420308202003e-01
-1.704500000000000171e+01 4.157000000000000028e+01 9.746399999999999864e+01 -1.991713000000000067e+00 -1.950635688600362849e-01
-1.701399999999999935e+01 5.617099999999999937e+01 1.077300000000000040e+02 3.542962000000000167e+00 -2.130151732546959331e-01
-1.701300000000000168e+01 5.611800000000000210e+01 8.635899999999999466e+01 1.000738999999999912e+01 -1.390025745538011059e-01
-1.701200000000000045e+01 3.864900000000000091e+01 9.077200000000000557e+01 -8.304593999999999809e+00 -2.094450153466718145e-01
-1.701099999999999923e+01 4.693999999999999773e+01 1.052999999999999972e+02 -5.778426999999999758e+00 -2.132405085374092513e-01
-1.701000000000000156e+01 4.151200000000000045e+01 9.888599999999999568e+01 -4.781346000000000096e+00 -1.979066338770884004e-01
-1.700900000000000034e+01 3.755299999999999727e+01 8.362300000000000466e+01 -2.630167999999999839e+00 -3.499999999999999778e-01
-1.700900000000000034e+01 5.344500000000000028e+01 9.735699999999999932e+01 -7.816450999999999816e+00 -9.563373517015900938e-02
-1.698999999999999844e+01 5.603600000000000136e+01 8.788599999999999568e+01 3.834752000000000294e+01 -1.410158251770859961e-01
-1.698699999999999832e+01 4.187299999999999756e+01 9.816400000000000148e+01 -6.996603000000000350e+00 -1.966919851532284436e-01
-1.698199999999999932e+01 3.741799999999999926e+01 8.641299999999999670e+01 -2.006723000000000035e+00 -1.848368439105799732e-01
-1.698199999999999932e+01 3.762700000000000244e+01 8.714900000000000091e+01 -2.860320000000000196e+00 -1.858485061235495839e-01
-1.697700000000000031e+01 4.392399999999999949e+01 7.913100000000000023e+01 -1.765628999999999849e+01 -2.359353388495528669e-01
-1.697700000000000031e+01 4.511500000000000199e+01 7.846699999999999875e+01 -3.059933000000000014e+00 -2.338929730293093368e-01
-1.697299999999999898e+01 3.741899999999999693e+01 8.900900000000000034e+01 -3.562781000000000198e+00 -1.892874132733425308e-01
-1.697299999999999898e+01 3.741899999999999693e+01 8.994899999999999807e+01 -3.483427999999999969e+00 -1.910230465869748318e-01
-1.697200000000000131e+01 3.753000000000000114e+01 8.821200000000000330e+01 -3.581583000000000183e+00 -1.877447846874259474e-01
-1.696900000000000119e+01 5.501599999999999824e+01 9.881499999999999773e+01 -9.220532999999999646e+00 -9.743719262541868098e-02
-1.696799999999999997e+01 5.476299999999999812e+01 8.867600000000000193e+01 4.351294000000000040e+01 -1.401182632868059330e-01
-1.696300000000000097e+01 3.884899999999999665e+01 8.311100000000000421e+01 -4.598614000000000424e+00 -3.391567729748092286e-01
-1.695799999999999841e+01 5.883400000000000318e+01 1.057500000000000000e+02 1.293965000000000032e+00 2.506849245875999443e-01
-1.695200000000000173e+01 5.763499999999999801e+01 1.010799999999999983e+02 -5.664537000000000155e+00 6.845921965846181283e-03
-1.693599999999999994e+01 5.412100000000000222e+01 9.581000000000000227e+01 -3.200060000000000127e+00 -9.421211753782308962e-02
-1.692699999999999960e+01 5.508400000000000318e+01 7.905400000000000205e+01 -1.892458999999999891e+00 -1.143143317246029661e-01
-1.692699999999999960e+01 5.726800000000000068e+01 1.004000000000000057e+02 -1.976863000000000037e+00 7.734053333473207663e-03
-1.691300000000000026e+01 5.669899999999999807e+01 7.915600000000000591e+01 -4.416719999999999757e+00 -1.220838312748222104e-01
-1.691100000000000136e+01 5.967499999999999716e+01 9.026099999999999568e+01 4.272200999999999915e+00 -1.472412043851071828e-01
-1.691000000000000014e+01 4.238100000000000023e+01 7.992100000000000648e+01 -5.913383999999999752e+00 -3.499999999999999778e-01
-1.690599999999999881e+01 6.073499999999999943e+01 8.151300000000000523e+01 -1.615490000000000137e+01 -1.401077035746934318e-01
-1.690599999999999881e+01 6.094400000000000261e+01 8.224899999999999523e+01 -2.445232000000000028e+01 -1.416314578137345959e-01
-1.690099999999999980e+01 4.031799999999999784e+01 9.342499999999999716e+01 1.733387999999999929e+00 -2.024992340165162052e-01
-1.689799999999999969e+01 5.873299999999999699e+01 9.037800000000000011e+01 1.344238000000000000e+01 -1.464876428487747184e-01
-1.689399999999999835e+01 5.820700000000000074e+01 9.112699999999999534e+01 5.962176000000000364e+00 -1.463688967555625831e-01
-1.689000000000000057e+01 5.379800000000000182e+01 9.656799999999999784e+01 -4.940654000000000323e+00 -9.484619622583437271e-02
-1.688700000000000045e+01 5.391199999999999903e+01 1.087900000000000063e+02 1.298338000000000036e+01 -2.148699763038048882e-01
-1.688599999999999923e+01 5.895000000000000284e+01 1.063199999999999932e+02 -4.705388999999999822e-01 2.507233948214527830e-01
-1.687900000000000134e+01 5.239699999999999847e+01 7.550300000000000011e+01 -3.021151000000000142e+00 -2.311476283973379897e-01
-1.687900000000000134e+01 5.873799999999999955e+01 1.047399999999999949e+02 4.869583999999999691e+00 2.505320113512220503e-01
-1.687900000000000134e+01 3.904200000000000159e+01 9.432999999999999829e+01 -1.033465999999999951e+01 -2.024427056363548583e-01
-1.686299999999999955e+01 5.248100000000000165e+01 8.777299999999999613e+01 2.607348999999999961e+01 -1.352603453907124387e-01
-1.686299999999999955e+01 5.367199999999999704e+01 8.843699999999999761e+01 3.908908999999999878e+01 -1.383675158474780842e-01
-1.685399999999999920e+01 4.027300000000000324e+01 9.114700000000000557e+01 1.776689999999999969e+01 -1.018944838589169039e-01
-1.685300000000000153e+01 5.532200000000000273e+01 1.079699999999999989e+02 -2.326607000000000092e+00 -2.136281535072230287e-01
-1.685000000000000142e+01 4.335000000000000142e+01 7.942799999999999727e+01 -4.785807000000000144e+00 -3.499999999999999778e-01
-1.684799999999999898e+01 5.398299999999999699e+01 7.705800000000000693e+01 -1.113870999999999967e+01 -2.309552730008150312e-01
-1.684700000000000131e+01 5.864699999999999847e+01 7.888299999999999557e+01 -4.915595999999999854e+00 -1.289206913988267811e-01
-1.684700000000000131e+01 5.154699999999999704e+01 1.084399999999999977e+02 -1.528078000000000047e+00 -2.157091043150804188e-01
-1.684400000000000119e+01 4.732699999999999818e+01 1.060499999999999972e+02 -3.860142000000000184e+00 -2.145052012144405551e-01
-1.684199999999999875e+01 4.031099999999999994e+01 8.170300000000000296e+01 -4.869799000000000433e+00 -2.360279115367064084e-01
-1.683899999999999864e+01 5.372500000000000142e+01 7.626500000000000057e+01 -1.099648000000000003e+01 -2.315425902314019457e-01
-1.683800000000000097e+01 5.598400000000000176e+01 9.947799999999999443e+01 -9.867575999999999681e+00 -9.817070005794083232e-02
-1.683099999999999952e+01 4.625800000000000267e+01 1.049899999999999949e+02 -1.404883000000000060e+01 -2.130030224512726167e-01
-1.682799999999999940e+01 6.242099999999999937e+01 8.878499999999999659e+01 -1.713333000000000084e+01 -1.489207491478805878e-01
-1.682799999999999940e+01 5.854200000000000159e+01 1.011500000000000057e+02 -1.436206999999999923e+01 2.499539347209253359e-01
-1.682199999999999918e+01 5.749000000000000199e+01 1.082300000000000040e+02 -9.464991999999999850e-01 1.954647962165767094e-03
-1.680600000000000094e+01 6.046099999999999852e+01 8.082699999999999818e+01 -5.018867999999999796e+01 -1.386809779065327208e-01
-1.679899999999999949e+01 3.957900000000000063e+01 1.019300000000000068e+02 -7.591476000000000113e+00 -2.036348326703175393e-01
-1.679899999999999949e+01 3.957900000000000063e+01 1.028700000000000045e+02 -1.406614000000000075e+01 -2.060889805810431352e-01
-1.677899999999999991e+01 6.104299999999999926e+01 8.947499999999999432e+01 2.285761000000000109e+01 -1.483124703311593240e-01
-1.677799999999999869e+01 5.886500000000000199e+01 1.073100000000000023e+02 -1.957993000000000094e+00 2.508820235716718305e-01
-1.676599999999999824e+01 4.879399999999999693e+01 1.064399999999999977e+02 -8.007424999999999571e+00 -2.147105088192892419e-01
-1.674800000000000111e+01 4.647299999999999898e+01 7.596299999999999386e+01 -6.613278999999999685e-01 -2.318481437391090305e-01
-1.674800000000000111e+01 4.817300000000000182e+01 7.596299999999999386e+01 2.046018000000000114e+00 -2.278758020930785055e-01
-1.674599999999999866e+01 6.347999999999999687e+01 8.555200000000000671e+01 1.463558000000000081e-01 -1.483004700619042493e-01
-1.674500000000000099e+01 5.713799999999999812e+01 9.345199999999999818e+01 -3.580440999999999985e+00 -1.466470646598847516e-01
-1.672899999999999920e+01 4.164699999999999847e+01 1.046099999999999994e+02 -4.438389000000000095e+01 -2.117262150762769524e-01
-1.672899999999999920e+01 4.316700000000000159e+01 1.046099999999999994e+02 -5.996412999999999727e+01 -2.122180663558258795e-01
-1.672100000000000009e+01 4.949900000000000233e+01 7.658700000000000330e+01 4.600872999999999768e-01 -2.262354045756775900e-01
-1.671699999999999875e+01 4.560399999999999920e+01 1.045699999999999932e+02 -1.798195000000000121e+01 -2.124093847748974029e-01
-1.669699999999999918e+01 3.950500000000000256e+01 9.635500000000000398e+01 -1.257382000000000000e+00 -1.907803300948299197e-01
-1.669300000000000139e+01 6.336399999999999721e+01 8.377800000000000580e+01 -3.892843000000000053e+00 -1.470709366851647715e-01
-1.669300000000000139e+01 6.361800000000000210e+01 8.467199999999999704e+01 -2.956808999999999799e+00 -1.479712201154988471e-01
-1.668299999999999983e+01 5.830599999999999739e+01 1.038599999999999994e+02 6.800429000000000279e+00 2.504744130754315568e-01
-1.668299999999999983e+01 3.788900000000000290e+01 9.070900000000000318e+01 -5.505151999999999823e+00 -2.110825344909864343e-01
-1.667699999999999960e+01 5.151800000000000068e+01 8.635800000000000409e+01 1.686568000000000112e+01 -1.308396999346247980e-01
-1.667699999999999960e+01 5.172699999999999676e+01 8.709399999999999409e+01 2.447294000000000125e+01 -1.329866379697016432e-01
-1.667500000000000071e+01 5.494200000000000017e+01 9.424699999999999989e+01 -1.228070999999999913e+00 -6.995924541278732145e-02
-1.667200000000000060e+01 5.808800000000000097e+01 1.003499999999999943e+02 -8.125731999999999289e+00 6.656336349542409450e-03
-1.665899999999999892e+01 5.810900000000000176e+01 1.019899999999999949e+02 -1.747817999999999827e+01 5.440025683419853070e-03
-1.665899999999999892e+01 5.546099999999999852e+01 8.577500000000000568e+01 6.546926000000000023e+00 -1.378519154875458286e-01
-1.664699999999999847e+01 5.329299999999999926e+01 1.090199999999999960e+02 -8.637126000000000303e+00 -2.155255107535106462e-01
-1.664499999999999957e+01 5.150900000000000034e+01 8.570199999999999818e+01 1.210755999999999943e+01 -1.291643982468661522e-01
-1.664499999999999957e+01 5.171800000000000352e+01 8.496500000000000341e+01 3.399557000000000162e+00 -1.274741188733444219e-01
-1.664499999999999957e+01 5.290899999999999892e+01 8.430200000000000671e+01 -1.960245000000000104e+01 -1.284332376719523605e-01
-1.663599999999999923e+01 6.016199999999999903e+01 8.016200000000000614e+01 -3.056878000000000029e+01 -1.372795902656236966e-01
-1.662900000000000134e+01 5.416299999999999670e+01 8.460099999999999909e+01 -1.389516000000000062e+01 -1.325287681769001802e-01
-1.661599999999999966e+01 5.463900000000000290e+01 9.494700000000000273e+01 -2.766366999999999798e+00 -6.532154391126793191e-02
-1.661199999999999832e+01 5.020700000000000074e+01 1.072300000000000040e+02 -4.441068999999999711e+00 -2.152940412285791749e-01
-1.660099999999999909e+01 5.780599999999999739e+01 1.026899999999999977e+02 -8.712476000000000553e+00 5.172727378810493618e-03
-1.660099999999999909e+01 5.934100000000000108e+01 1.011500000000000057e+02 -7.262398000000000131e+00 2.496600116344223907e-01
-1.659700000000000131e+01 5.745900000000000318e+01 7.910500000000000398e+01 -4.670367999999999853e+00 -1.260664491908246032e-01
-1.658699999999999974e+01 4.070600000000000307e+01 9.184699999999999420e+01 1.975210999999999828e+01 -9.971090527296946893e-02
-1.658699999999999974e+01 4.070600000000000307e+01 9.271299999999999386e+01 1.199418999999999969e+01 -9.812351458395016102e-02
-1.658200000000000074e+01 4.414999999999999858e+01 1.042000000000000028e+02 -5.138490000000000180e+01 -2.117263124677411512e-01
-1.658200000000000074e+01 4.501599999999999824e+01 1.042000000000000028e+02 -2.998486000000000118e+01 -2.118276745766115854e-01
-1.657999999999999829e+01 5.681799999999999784e+01 8.662600000000000477e+01 2.372659000000000162e+01 -1.418335404394995281e-01
-1.657999999999999829e+01 5.681799999999999784e+01 8.749200000000000443e+01 3.759530999999999779e+01 -1.428535829154877201e-01
-1.657900000000000063e+01 5.492399999999999949e+01 9.575300000000000011e+01 -3.627676000000000123e+00 -6.475091562614963825e-02
-1.655900000000000105e+01 5.119599999999999795e+01 1.081800000000000068e+02 -2.285947000000000173e+00 -2.158923763255943540e-01
-1.655399999999999849e+01 3.830499999999999972e+01 9.432999999999999829e+01 -3.131283999999999956e+00 -2.042383592658802427e-01
-1.655099999999999838e+01 3.957300000000000040e+01 9.108899999999999864e+01 4.990333999999999826e+00 -2.073851070420607567e-01
-1.655099999999999838e+01 3.957300000000000040e+01 9.347100000000000364e+01 -2.817683000000000160e+00 -2.040067784382610105e-01
-1.655000000000000071e+01 5.163700000000000045e+01 7.556600000000000250e+01 -3.449384999999999923e+00 -2.290238290885801276e-01
-1.655000000000000071e+01 5.315699999999999648e+01 7.556600000000000250e+01 -8.677082999999999657e+00 -2.311336623412222069e-01
-1.654599999999999937e+01 4.063199999999999790e+01 9.936599999999999966e+01 -6.964109999999999800e+00 -1.980580315027548610e-01
-1.654500000000000171e+01 4.462400000000000233e+01 7.886400000000000432e+01 -5.304757000000000389e+00 -2.343317941400834825e-01
-1.654100000000000037e+01 4.075500000000000256e+01 9.777500000000000568e+01 -3.613007000000000080e+00 -1.945717758866717939e-01
-1.653900000000000148e+01 5.739099999999999824e+01 9.982099999999999795e+01 -5.283100000000000129e+00 7.700960956098274086e-03
-1.653800000000000026e+01 5.901200000000000045e+01 1.003900000000000006e+02 -6.980612999999999957e+00 3.440144692844240154e-02
-1.653800000000000026e+01 5.901200000000000045e+01 1.019099999999999966e+02 -1.548908999999999914e+01 2.498705289433922894e-01
-1.653500000000000014e+01 5.406300000000000239e+01 8.840900000000000603e+01 4.680469999999999686e+01 -1.398133179238610357e-01
-1.653500000000000014e+01 5.546300000000000097e+01 8.840900000000000603e+01 5.839524999999999721e+01 -1.419785549855849816e-01
-1.652799999999999869e+01 5.805799999999999983e+01 9.239600000000000080e+01 -6.281668999999999947e+00 -1.474886159477141745e-01
-1.651500000000000057e+01 5.793699999999999761e+01 9.986899999999999977e+01 -5.272826000000000235e+00 3.696183088828804836e-02
-1.651500000000000057e+01 4.054500000000000171e+01 8.114199999999999591e+01 -3.749391999999999836e+00 -2.356420916976149638e-01
-1.651300000000000168e+01 6.336599999999999966e+01 8.634199999999999875e+01 1.690144000000000091e+00 -1.492423292244446920e-01
-1.651300000000000168e+01 5.061299999999999955e+01 7.639300000000000068e+01 -2.521592000000000056e+00 -2.264995484165520934e-01
-1.650900000000000034e+01 4.004899999999999949e+01 1.036299999999999955e+02 -1.884312999999999860e+01 -2.086836473783103274e-01
-1.650799999999999912e+01 5.455499999999999972e+01 9.660299999999999443e+01 -4.927114000000000438e+00 -6.412745842951947384e-02
-1.650799999999999912e+01 5.455499999999999972e+01 9.800300000000000011e+01 -7.588384999999999714e+00 -9.637922605676038645e-02
-1.650799999999999912e+01 3.995000000000000284e+01 1.011099999999999994e+02 -4.253623000000000154e+00 -2.018747626456522393e-01
-1.650799999999999912e+01 4.015899999999999892e+01 1.003799999999999955e+02 -4.663107000000000113e+00 -2.001479512999691512e-01
-1.650600000000000023e+01 4.536899999999999977e+01 7.798000000000000398e+01 9.111909999999999732e-01 -2.329483691365156484e-01
-1.650000000000000000e+01 6.325600000000000023e+01 8.722799999999999443e+01 -5.104454999999999742e+00 -1.496089693048377467e-01
-1.649699999999999989e+01 5.443800000000000239e+01 7.856399999999999295e+01 -1.484318999999999988e+01 -1.095866037529531906e-01
-1.649299999999999855e+01 5.593800000000000239e+01 7.941599999999999682e+01 -2.174195000000000100e+00 -1.212133127061219284e-01
-1.649099999999999966e+01 3.863400000000000034e+01 9.356999999999999318e+01 -2.921670999999999907e+00 -2.059975961345397177e-01
-1.649099999999999966e+01 3.863400000000000034e+01 9.509000000000000341e+01 -3.308285999999999838e+00 -2.006967683918851608e-01
-1.648400000000000176e+01 3.670300000000000296e+01 8.499800000000000466e+01 3.096216999999999997e-01 -1.665145127262212532e-01
-1.648400000000000176e+01 3.695700000000000074e+01 8.410399999999999920e+01 -8.202983999999999831e-01 -3.499999999999999778e-01
-1.648400000000000176e+01 3.695700000000000074e+01 8.589199999999999591e+01 9.650465000000000432e-03 -1.839013858201973273e-01
-1.648300000000000054e+01 4.105799999999999983e+01 9.847499999999999432e+01 -5.401072000000000095e+00 -1.963566815401911470e-01
-1.647700000000000031e+01 4.189000000000000057e+01 8.031799999999999784e+01 -6.061227999999999838e+00 -2.359207813094816031e-01
-1.647299999999999898e+01 6.143500000000000227e+01 8.264600000000000080e+01 -1.229184000000000054e+01 -1.443245862040430649e-01
-1.646099999999999852e+01 5.890699999999999648e+01 9.085999999999999943e+01 2.124284999999999979e+00 -1.478202243478666245e-01
-1.645299999999999940e+01 5.664000000000000057e+01 1.081599999999999966e+02 4.334864999999999968e-01 -2.134556512153834296e-01
-1.645299999999999940e+01 5.834000000000000341e+01 1.081599999999999966e+02 1.459956000000000031e+00 2.511208562327821303e-01
-1.644999999999999929e+01 5.425200000000000244e+01 9.730299999999999727e+01 -7.216383999999999688e+00 -9.555097408391724501e-02
-1.644399999999999906e+01 3.773199999999999932e+01 8.702100000000000080e+01 -2.665888999999999953e+00 -1.850697633371671258e-01
-1.644399999999999906e+01 3.773199999999999932e+01 8.788599999999999568e+01 -3.071445000000000203e+00 -1.865894041244280377e-01
-1.643100000000000094e+01 5.217600000000000193e+01 1.088799999999999955e+02 -3.203902999999999945e+00 -2.161537178692841399e-01
-1.642999999999999972e+01 5.297200000000000131e+01 8.816899999999999693e+01 3.103859999999999886e+01 -1.379334158057839432e-01
-1.641799999999999926e+01 6.046000000000000085e+01 9.015999999999999659e+01 1.510127999999999915e+01 -1.489237547315295784e-01
-1.641700000000000159e+01 4.264999999999999858e+01 7.969499999999999318e+01 -5.044163000000000174e+00 -3.500000000000000333e-01
-1.641000000000000014e+01 3.961099999999999710e+01 8.196999999999999886e+01 -8.209873999999999228e+00 -3.390370153403687858e-01
-1.640700000000000003e+01 4.027900000000000347e+01 9.766599999999999682e+01 -3.533546999999999993e+00 -1.937656919656287058e-01
-1.640500000000000114e+01 3.990500000000000114e+01 9.730299999999999727e+01 2.839160000000000128e+00 -1.926380573779017669e-01
-1.640299999999999869e+01 5.860300000000000153e+01 9.156000000000000227e+01 -1.724045999999999879e+01 -1.479321396192810056e-01
-1.639999999999999858e+01 4.240699999999999648e+01 1.046800000000000068e+02 -4.929269000000000034e+01 -2.126114327661657311e-01
-1.638200000000000145e+01 3.846999999999999886e+01 9.115800000000000125e+01 -7.201548999999999978e+00 -2.096728648718689525e-01
-1.638100000000000023e+01 3.835300000000000153e+01 8.307099999999999795e+01 -4.300262000000000029e+00 -3.391997823612071805e-01
-1.636599999999999966e+01 5.393399999999999750e+01 7.728900000000000148e+01 -7.325988999999999862e+01 -2.295999800421360537e-01
-1.636599999999999966e+01 5.414300000000000068e+01 7.802500000000000568e+01 -1.922021000000000157e+01 -1.050403378905349350e-01
-1.636400000000000077e+01 5.467600000000000193e+01 1.079899999999999949e+02 -1.512467000000000006e+01 -2.142265588594357839e-01
-1.636400000000000077e+01 5.607600000000000051e+01 1.079899999999999949e+02 -1.878478000000000092e+00 -2.136127776148561974e-01
-1.636299999999999955e+01 4.785199999999999676e+01 1.066400000000000006e+02 -3.824142000000000152e+00 -2.157634088022220564e-01
-1.635900000000000176e+01 4.938000000000000256e+01 1.071200000000000045e+02 -4.086482000000000170e+00 -2.157796096367519956e-01
-1.635800000000000054e+01 6.163799999999999812e+01 8.924099999999999966e+01 5.652376000000000289e+00 -1.496127839553880179e-01
-1.633899999999999864e+01 5.920499999999999829e+01 7.933599999999999852e+01 -7.894225999999999743e+00 -1.338428280882751342e-01
-1.632600000000000051e+01 5.814900000000000091e+01 7.934399999999999409e+01 -6.083112999999999992e+00 -1.304347707186181426e-01
-1.632199999999999918e+01 4.369100000000000250e+01 1.039300000000000068e+02 -2.697431999999999874e+01 -2.113612694754800625e-01
-1.631899999999999906e+01 4.647699999999999676e+01 1.057199999999999989e+02 -5.576308000000000042e+00 -2.148203688877932671e-01
-1.631299999999999883e+01 5.638600000000000279e+01 8.592600000000000193e+01 1.339644999999999975e+01 -1.409541128623438278e-01
-1.631299999999999883e+01 5.638600000000000279e+01 8.819199999999999307e+01 4.449325000000000330e+01 -1.436988246483473231e-01
-1.629700000000000060e+01 5.768500000000000227e+01 9.299899999999999523e+01 -7.158343000000000345e+00 -1.478187721613738737e-01
-1.629500000000000171e+01 5.855499999999999972e+01 1.028400000000000034e+02 -1.580274999999999963e+01 2.501122575268220904e-01
-1.629200000000000159e+01 5.632399999999999807e+01 9.379699999999999704e+01 4.684928000000000009e-02 -4.128036068986036533e-02
-1.628399999999999892e+01 4.609499999999999886e+01 1.049599999999999937e+02 -8.910154999999999603e+00 -2.136045390363986718e-01
-1.628300000000000125e+01 6.083800000000000097e+01 8.175799999999999557e+01 -1.466634999999999955e+01 -1.427925540284578076e-01
-1.627700000000000102e+01 3.899499999999999744e+01 9.590699999999999648e+01 -2.996694999999999887e+00 -1.966817156482681128e-01
-1.625600000000000023e+01 5.468599999999999994e+01 8.525600000000000023e+01 1.024516999999999989e+01 -1.365021817180121499e-01
-1.624500000000000099e+01 5.221800000000000352e+01 8.749099999999999966e+01 2.606774000000000058e+01 -1.359145309403164137e-01
-1.624099999999999966e+01 6.285199999999999676e+01 8.806000000000000227e+01 -9.122759999999999536e+00 -1.502858648928895036e-01
-1.623199999999999932e+01 5.476299999999999812e+01 8.846699999999999875e+01 7.553640000000000043e+01 -1.418103419045093350e-01
-1.622299999999999898e+01 4.587700000000000244e+01 7.644400000000000261e+01 2.242150000000000087e+00 -2.320604653711555998e-01
-1.622299999999999898e+01 4.732300000000000040e+01 7.563800000000000523e+01 1.108020999999999923e+01 -2.287646386672412269e-01
-1.622299999999999898e+01 4.879899999999999949e+01 7.631999999999999318e+01 1.019974000000000025e+01 -2.251428601342318481e-01
-1.622299999999999898e+01 5.964200000000000301e+01 7.963899999999999579e+01 -1.230289999999999928e+01 -1.363060270825852960e-01
-1.621300000000000097e+01 3.712899999999999778e+01 8.947899999999999920e+01 -4.445767000000000024e+00 -1.901619870827251924e-01
-1.621300000000000097e+01 3.735600000000000165e+01 8.868000000000000682e+01 -3.287347000000000019e+00 -1.883038380951509716e-01
-1.621300000000000097e+01 3.735600000000000165e+01 9.027800000000000580e+01 -3.816876999999999853e+00 -2.124936304180193858e-01
-1.621199999999999974e+01 5.220900000000000318e+01 8.456900000000000261e+01 -3.084540000000000060e+00 -1.287816452804674827e-01
-1.621199999999999974e+01 5.360900000000000176e+01 8.456900000000000261e+01 -1.219580000000000020e+01 -1.324237162616381802e-01
-1.621099999999999852e+01 4.108400000000000318e+01 8.040900000000000603e+01 -1.225387000000000004e+00 -2.353171373518062881e-01
-1.619800000000000040e+01 5.856799999999999784e+01 1.038499999999999943e+02 1.585516999999999932e+01 2.502662711729204958e-01
-1.619399999999999906e+01 4.393800000000000239e+01 7.900600000000000023e+01 -3.501612999999999865e+00 -2.353669070961081911e-01
-1.618599999999999994e+01 4.458299999999999841e+01 1.037000000000000028e+02 -2.437219999999999942e+01 -2.111773084936127420e-01
-1.616799999999999926e+01 6.276800000000000068e+01 8.329699999999999704e+01 -5.223300000000000054e+00 -1.475971473824083391e-01
-1.615399999999999991e+01 3.910399999999999920e+01 9.157999999999999829e+01 -3.657484999999999875e+00 -2.080673329260983306e-01
-1.615399999999999991e+01 3.910399999999999920e+01 9.298000000000000398e+01 -4.161106000000000193e+00 -2.068372350116603753e-01
-1.615399999999999991e+01 4.000600000000000023e+01 9.157999999999999829e+01 2.112115999999999882e+00 -1.014573003344678287e-01
-1.615399999999999991e+01 4.000600000000000023e+01 9.298000000000000398e+01 -3.786055999999999866e+00 -9.875214693123456067e-02
-1.614199999999999946e+01 5.695799999999999841e+01 9.932999999999999829e+01 -4.924362999999999602e+00 -6.917894696845632019e-02
-1.613800000000000168e+01 5.625099999999999767e+01 9.904600000000000648e+01 -4.492746999999999602e+00 -6.797626413943139156e-02
-1.613500000000000156e+01 5.890500000000000114e+01 1.043599999999999994e+02 2.647270999999999930e+00 2.502334999606496968e-01
-1.612699999999999889e+01 5.367199999999999704e+01 8.822799999999999443e+01 3.843563999999999936e+01 -1.400422478172185237e-01
-1.612600000000000122e+01 5.070499999999999829e+01 1.077800000000000011e+02 -4.904704999999999870e+00 -2.161429380880145190e-01
-1.611499999999999844e+01 4.394200000000000017e+01 1.033900000000000006e+02 -3.822543000000000291e+01 -2.104256329492647792e-01
-1.610500000000000043e+01 5.998299999999999699e+01 9.075900000000000034e+01 -1.588419000000000025e+00 -1.494363416200077954e-01
-1.609600000000000009e+01 4.030899999999999750e+01 9.228000000000000114e+01 7.305508999999999808e+00 -9.944022683848716126e-02
-1.609499999999999886e+01 5.875800000000000267e+01 9.212800000000000011e+01 -1.457479999999999976e+01 -1.488590805476296963e-01
-1.609499999999999886e+01 5.852000000000000313e+01 9.962999999999999545e+01 -5.694537999999999656e+00 3.473074815209942212e-02
-1.608899999999999864e+01 4.086399999999999721e+01 1.040799999999999983e+02 -2.409105999999999881e+01 -2.108983509441341719e-01
-1.607999999999999829e+01 5.110399999999999920e+01 7.599699999999999989e+01 -6.882169000000000203e+00 -2.259426767389401403e-01
-1.607999999999999829e+01 5.239699999999999847e+01 7.527599999999999625e+01 -3.418429999999999858e+00 -2.290906709520592610e-01
-1.607999999999999829e+01 5.368999999999999773e+01 7.599699999999999989e+01 -2.611754000000000175e+01 -2.299750543779723877e-01
-1.607999999999999829e+01 5.391700000000000159e+01 7.679600000000000648e+01 -5.583713000000000193e+01 -2.293563271141760840e-01
-1.607400000000000162e+01 4.487800000000000011e+01 7.837600000000000477e+01 -1.298634000000000066e+00 -2.334361693920200820e-01
-1.606800000000000139e+01 5.977199999999999847e+01 1.006800000000000068e+02 -7.872492000000000267e+00 3.174251853723607936e-02
-1.606800000000000139e+01 5.977199999999999847e+01 1.016200000000000045e+02 -1.203565000000000040e+01 2.494712263962404752e-01
-1.606200000000000117e+01 5.508400000000000318e+01 7.905400000000000205e+01 -9.111461000000000254e+00 -1.169667359895949776e-01
-1.605900000000000105e+01 4.011299999999999955e+01 9.912500000000000000e+01 -6.369048000000000265e+00 -1.967565078257964006e-01
-1.605699999999999861e+01 4.987800000000000011e+01 7.671999999999999886e+01 -2.728937999999999864e+00 -2.238837949301165087e-01
-1.604799999999999827e+01 5.552300000000000324e+01 9.528600000000000136e+01 -4.554973000000000383e+00 -6.652621859547516725e-02
-1.604700000000000060e+01 5.933500000000000085e+01 9.155200000000000671e+01 -1.338646999999999920e+01 -1.492685262930494305e-01
-1.603900000000000148e+01 3.928900000000000148e+01 1.024000000000000057e+02 -4.908933000000000213e+00 -2.050502699883210711e-01
-1.603900000000000148e+01 3.951599999999999824e+01 1.015999999999999943e+02 -4.461148999999999809e+00 -2.029453969125530610e-01
-1.603900000000000148e+01 3.951599999999999824e+01 1.032000000000000028e+02 -4.654303999999999775e+00 -2.075626248549316544e-01
-1.602400000000000091e+01 3.984499999999999886e+01 9.836599999999999966e+01 -3.748283999999999949e+00 -1.945878669192227517e-01
-1.602100000000000080e+01 3.787400000000000233e+01 9.385999999999999943e+01 -3.106129999999999836e+00 -2.072114425293705153e-01
-1.602100000000000080e+01 3.787400000000000233e+01 9.479999999999999716e+01 -3.079598999999999975e+00 -2.037149148079871741e-01
-1.601899999999999835e+01 5.546300000000000097e+01 9.870799999999999841e+01 -8.425682999999999367e+00 -9.713054083911545900e-02
-1.601599999999999824e+01 5.842000000000000171e+01 9.288400000000000034e+01 -8.951425000000000409e+00 -1.489190569351846460e-01
-1.600700000000000145e+01 4.004699999999999704e+01 1.000600000000000023e+02 -5.114609999999999879e+00 -1.991322424505715949e-01
-1.599399999999999977e+01 4.700200000000000244e+01 1.065699999999999932e+02 -1.357119999999999993e-01 -2.164440321680123347e-01
-1.599099999999999966e+01 4.238799999999999812e+01 7.977100000000000080e+01 -4.159308000000000227e+00 -2.355158464122105444e-01
-1.599099999999999966e+01 5.668999999999999773e+01 7.978700000000000614e+01 -6.016569999999999752e+00 -1.277501855910632422e-01
-1.598799999999999955e+01 5.282800000000000296e+01 1.092600000000000051e+02 -8.014402000000000470e+00 -2.164927673244229633e-01
-1.598300000000000054e+01 5.540500000000000114e+01 9.627800000000000580e+01 -2.690141999999999811e+00 -6.643281203959382208e-02
-1.598099999999999987e+01 5.154699999999999704e+01 1.084399999999999977e+02 -9.254927000000000348e+00 -2.164983690209134060e-01
-1.597700000000000031e+01 5.178600000000000136e+01 8.679099999999999682e+01 2.418248000000000175e+01 -1.344110322473184016e-01
-1.597700000000000031e+01 5.578399999999999892e+01 9.448399999999999466e+01 -3.016757999999999829e+00 -7.124345086638997349e-02
-1.597700000000000031e+01 5.404800000000000182e+01 1.085900000000000034e+02 -2.135723000000000127e+01 -2.152932368421446030e-01
-1.596899999999999942e+01 4.287700000000000244e+01 1.041500000000000057e+02 -1.070930000000000035e+02 -2.121144278263324967e-01
-1.596799999999999997e+01 6.016899999999999693e+01 9.351999999999999602e+01 -3.791342000000000212e+00 -1.502400615575872900e-01
-1.596599999999999930e+01 4.828499999999999659e+01 1.071299999999999955e+02 -2.702828999999999926e+00 -2.167367510260743424e-01
-1.595899999999999963e+01 3.755299999999999727e+01 8.362300000000000466e+01 -3.230119000000000185e+00 -3.499999999999999778e-01
-1.595599999999999952e+01 5.713499999999999801e+01 9.372100000000000364e+01 -3.942809000000000008e+00 -4.190420909877400069e-02
-1.595299999999999940e+01 3.933800000000000097e+01 9.674200000000000443e+01 9.942273000000000360e-01 -1.904560462294785095e-01
-1.594500000000000028e+01 5.177700000000000102e+01 8.526900000000000546e+01 6.930474000000000245e+00 -1.306523588518075096e-01
-1.593999999999999950e+01 3.885099999999999909e+01 8.226000000000000512e+01 -5.031156000000000184e+00 -3.391258326592184735e-01
-1.593599999999999994e+01 4.535499999999999687e+01 1.036500000000000057e+02 -2.004339999999999833e+01 -2.114308354309137328e-01
-1.593599999999999994e+01 6.372099999999999653e+01 8.499500000000000455e+01 2.184077999999999964e+00 -1.502717704992933834e-01
-1.593500000000000050e+01 6.000600000000000023e+01 8.052599999999999625e+01 -4.168117000000000161e+01 -1.402754207739160264e-01
-1.593099999999999916e+01 5.537599999999999767e+01 1.077300000000000040e+02 -1.403546000000000049e+01 -2.139632989608610258e-01
-1.592800000000000082e+01 5.749000000000000199e+01 1.084899999999999949e+02 -4.674678000000000111e+00 2.513718087007010271e-01
-1.592800000000000082e+01 5.893599999999999994e+01 1.076800000000000068e+02 -2.069212999999999969e+00 2.507378176039562478e-01
-1.592800000000000082e+01 5.907200000000000273e+01 1.059399999999999977e+02 -2.900031999999999943e+00 2.504048792428337777e-01
-1.592800000000000082e+01 5.918999999999999773e+01 1.067900000000000063e+02 -4.629819999999999602e+00 2.505104012309372075e-01
-1.592099999999999937e+01 6.127900000000000347e+01 8.268399999999999750e+01 -2.059533000000000058e+01 -1.459990469354467135e-01
-1.590900000000000070e+01 5.290899999999999892e+01 8.451099999999999568e+01 -2.708567000000000058e-01 -1.314715005044544693e-01
-1.590600000000000058e+01 4.320600000000000307e+01 1.033900000000000006e+02 -2.703406000000000020e+01 -2.104423150643197071e-01
-1.590499999999999936e+01 4.200099999999999767e+01 1.042199999999999989e+02 -3.264547999999999917e+01 -2.120768155882399031e-01
-1.589600000000000080e+01 5.877600000000000335e+01 7.970300000000000296e+01 -1.126945000000000086e+01 -1.352636070169622173e-01
-1.589300000000000068e+01 6.105599999999999739e+01 8.967900000000000205e+01 1.813785000000000025e+01 -1.504159010416303288e-01
-1.588700000000000045e+01 3.957300000000000040e+01 9.228000000000000114e+01 3.943958000000000186e-01 -1.009727133009752087e-01
-1.588000000000000078e+01 5.568599999999999994e+01 8.565900000000000603e+01 3.481072999999999951e+01 -1.406470400830317213e-01
-1.588000000000000078e+01 5.568599999999999994e+01 8.845900000000000318e+01 6.368173999999999779e+01 -1.441732758582696949e-01
-1.588000000000000078e+01 5.687700000000000244e+01 8.632299999999999329e+01 1.985212999999999894e+01 -1.437411910057360409e-01
-1.588000000000000078e+01 5.687700000000000244e+01 8.779500000000000171e+01 3.575598999999999705e+01 -1.452633661455604852e-01
-1.588000000000000078e+01 5.708599999999999852e+01 8.705899999999999750e+01 3.097173000000000087e+01 -1.448720734111597352e-01
-1.586899999999999977e+01 5.935000000000000142e+01 9.983499999999999375e+01 -1.358995999999999960e+01 3.232603053883699451e-02
-1.586800000000000033e+01 4.997200000000000131e+01 1.076899999999999977e+02 -1.005851000000000006e+01 -2.166911000113644903e-01
-1.586299999999999955e+01 6.342099999999999937e+01 8.409600000000000364e+01 -3.806062999999999974e+00 -1.497116255567685628e-01
-1.585999999999999943e+01 6.012700000000000244e+01 8.142900000000000205e+01 -8.423076000000000363e+01 -1.425044877727612014e-01
-1.584999999999999964e+01 5.932200000000000273e+01 9.351999999999999602e+01 -1.006986999999999988e+01 -1.499463963089092688e-01
-1.584800000000000075e+01 4.350999999999999801e+01 1.026899999999999977e+02 -5.979843999999999937e+00 -2.088662405454005389e-01
-1.584800000000000075e+01 4.437500000000000000e+01 1.026899999999999977e+02 1.910997999999999974e+00 -2.091631651058235009e-01
-1.582799999999999940e+01 5.919100000000000250e+01 9.282800000000000296e+01 -1.426809000000000083e+01 -1.498340394673789711e-01
-1.581499999999999950e+01 4.027799999999999869e+01 8.070900000000000318e+01 -2.651600000000000068e-01 -3.388739070764360539e-01
-1.580599999999999916e+01 4.531099999999999994e+01 7.767600000000000193e+01 6.452533999999999770e-01 -2.322715884299925426e-01
-1.580300000000000082e+01 5.935499999999999687e+01 1.025199999999999960e+02 -1.971999999999999886e+01 2.496731545713271883e-01
