-4.522800000000000153e+01 9.859099999999999397e+01 4.480100000000000193e+01 6.273591999999999835e+00 -1.397995437722548140e-01
-4.522800000000000153e+01 8.985500000000000398e+01 2.366100000000000136e+01 2.200153999999999943e+00 -3.634279403648847939e-01
-4.521800000000000352e+01 9.526200000000000045e+01 2.169699999999999918e+01 -4.942518999999999885e+00 -2.726734135076606669e-01
-4.521300000000000097e+01 9.412399999999999523e+01 3.434000000000000341e+01 -4.252776999999999807e-01 -1.302100843428368182e-01
-4.521300000000000097e+01 9.412399999999999523e+01 3.520600000000000307e+01 -7.729544999999999888e-01 -1.305210964116796379e-01
-4.521200000000000330e+01 9.118999999999999773e+01 2.285900000000000176e+01 -8.764115999999999573e+00 -2.712724387912369695e-01
-4.520900000000000318e+01 8.808899999999999864e+01 3.773700000000000188e+01 -6.125434000000000268e+00 -1.234264784108331237e-01
-4.520799999999999841e+01 1.014699999999999989e+02 1.855499999999999972e+01 3.413094999999999879e-01 -2.614032337003711626e-01
-4.520600000000000307e+01 8.827400000000000091e+01 2.993900000000000006e+01 6.700669000000000608e+01 -3.630010672031697139e-01
-4.520400000000000063e+01 1.062199999999999989e+02 2.932499999999999929e+01 2.741360999999999937e+00 -3.629320666449603605e-01
-4.520400000000000063e+01 9.347199999999999420e+01 4.862899999999999778e+01 2.475393000000000043e+01 -1.407353615465981034e-01
-4.520199999999999818e+01 7.515699999999999648e+01 3.417900000000000205e+01 -6.868248999999999604e+00 -3.648132702385363801e-01
-4.519899999999999807e+01 8.517600000000000193e+01 2.881200000000000117e+01 1.693091999999999930e-01 -3.633605892936587756e-01
-4.519800000000000040e+01 7.829000000000000625e+01 4.809300000000000352e+01 4.805579999999999785e+01 -3.982395492580121377e-01
-4.519599999999999795e+01 1.074099999999999966e+02 2.228300000000000125e+01 1.614613000000000076e+00 -2.718790304463477581e-01
-4.519200000000000017e+01 8.790300000000000580e+01 3.588499999999999801e+01 -3.928415000000000101e-01 -1.218325348165810729e-01
-4.518699999999999761e+01 8.111199999999999477e+01 5.333400000000000318e+01 -8.329867999999999384e+00 -1.467473771460362231e-01
-4.518699999999999761e+01 9.350900000000000034e+01 1.753399999999999892e+01 -8.428019000000000815e+00 -1.572863779918939886e-01
-4.518599999999999994e+01 8.842300000000000182e+01 5.127900000000000347e+01 4.229710999999999999e+00 -1.424915270282612612e-01
-4.518099999999999739e+01 8.114000000000000057e+01 5.234300000000000352e+01 -4.696467000000000169e+00 -1.448364423389185973e-01
-4.517799999999999727e+01 7.820499999999999829e+01 3.911399999999999721e+01 2.398827999999999960e+01 -4.034326406901977968e-01
-4.516700000000000159e+01 7.812800000000000011e+01 4.017600000000000193e+01 1.730423000000000044e+01 -4.029406859633146709e-01
-4.516299999999999670e+01 9.339700000000000557e+01 3.673599999999999710e+01 -5.075244999999999784e+00 -1.304155112984318188e-01
-4.516199999999999903e+01 9.918999999999999773e+01 1.830999999999999872e+01 -1.218816999999999950e+01 -1.563983696137306312e-01
-4.516100000000000136e+01 7.343300000000000693e+01 5.684400000000000119e+01 -8.680868000000000251e+00 -4.292660824513250262e-01
-4.516100000000000136e+01 7.438100000000000023e+01 5.589600000000000080e+01 -2.255487000000000108e+01 -4.293189783860741349e-01
-4.516100000000000136e+01 7.470600000000000307e+01 5.442799999999999727e+01 9.820081999999999312e+00 -4.297413818228491000e-01
-4.516100000000000136e+01 7.470600000000000307e+01 5.515800000000000125e+01 -5.938055999999999557e+00 -4.295825620264202560e-01
-4.515800000000000125e+01 9.688299999999999557e+01 4.649000000000000199e+01 4.931422999999999668e+00 -1.402663575021000086e-01
-4.515400000000000347e+01 8.678100000000000591e+01 2.538899999999999935e+01 1.725459999999999994e+00 -3.635299288209377089e-01
-4.515200000000000102e+01 9.082899999999999352e+01 1.677499999999999858e+01 4.602661000000000113e-01 -1.583224638991195810e-01
-4.513900000000000290e+01 7.643000000000000682e+01 3.184199999999999875e+01 -8.831053000000000708e+00 -3.647865590784546419e-01
-4.513499999999999801e+01 9.370999999999999375e+01 3.233500000000000085e+01 -3.540955000000000075e-01 -1.292597024149043927e-01
-4.513199999999999790e+01 9.234699999999999420e+01 4.879899999999999949e+01 1.820175000000000054e+01 -1.405280875060775092e-01
-4.513000000000000256e+01 1.017600000000000051e+02 4.241499999999999915e+01 2.938528999999999947e+00 -1.399508773618738100e-01
-4.512800000000000011e+01 8.518399999999999750e+01 3.214500000000000313e+01 5.173126999999999587e-01 -3.629225487162928698e-01
-4.512400000000000233e+01 9.214300000000000068e+01 3.839699999999999847e+01 5.463741999999999877e+00 -1.299653963336716012e-01
-4.512400000000000233e+01 9.223999999999999488e+01 1.677400000000000091e+01 -2.330922999999999856e+00 -1.581685782912699845e-01
-4.512400000000000233e+01 9.318000000000000682e+01 1.677400000000000091e+01 -4.952942000000000178e+00 -1.580561530883919930e-01
-4.512400000000000233e+01 9.318000000000000682e+01 1.829400000000000048e+01 -1.818443999999999861e+01 -1.566568484307206410e-01
-4.512299999999999756e+01 8.802400000000000091e+01 3.686599999999999966e+01 -3.911188000000000109e+00 -1.226653406421011061e-01
-4.512199999999999989e+01 9.434000000000000341e+01 4.836500000000000199e+01 -2.110209000000000046e+01 -1.408481877337091071e-01
-4.511500000000000199e+01 6.953100000000000591e+01 4.900000000000000000e+01 -3.759583999999999815e+00 -4.292514556073968590e-01
-4.511500000000000199e+01 8.131000000000000227e+01 5.153099999999999881e+01 -5.961051000000000322e+00 -1.431491989410001997e-01
-4.511399999999999721e+01 9.698399999999999466e+01 4.567000000000000171e+01 2.415165999999999968e+01 -1.396937630172348510e-01
-4.511299999999999955e+01 1.002800000000000011e+02 3.814399999999999835e+01 -2.249140999999999835e+00 -1.370850712053720277e-01
-4.511299999999999955e+01 8.630100000000000193e+01 5.439000000000000057e+01 1.100555999999999912e+01 -1.467799824825971600e-01
-4.511099999999999710e+01 9.015200000000000102e+01 1.672200000000000131e+01 1.308734999999999982e+00 -1.585136236985614511e-01
-4.510399999999999920e+01 8.615500000000000114e+01 5.248700000000000188e+01 4.201757999999999882e+00 -1.441794955223458241e-01
-4.510399999999999920e+01 8.615500000000000114e+01 5.335300000000000153e+01 5.386593000000000409e+00 -1.454274642024384334e-01
-4.509899999999999665e+01 8.337999999999999545e+01 5.542600000000000193e+01 -2.684830999999999968e+00 -1.490680732165417799e-01
-4.509499999999999886e+01 1.062500000000000000e+02 2.111299999999999955e+01 -2.812206000000000206e+00 -2.727457335384707582e-01
-4.507699999999999818e+01 8.661299999999999955e+01 3.490100000000000335e+01 1.020184999999999897e+00 -3.624640720460902132e-01
-4.507399999999999807e+01 9.409900000000000375e+01 2.237399999999999878e+01 -7.563715000000000188e+00 -2.719900760499104342e-01
-4.507099999999999795e+01 1.006899999999999977e+02 3.872599999999999909e+01 -2.840936000000000128e+00 -1.376115711798533425e-01
-4.507099999999999795e+01 9.146800000000000352e+01 3.851299999999999812e+01 4.674858000000000402e+00 -1.292248887972383131e-01
-4.507099999999999795e+01 7.735899999999999466e+01 3.621600000000000108e+01 -6.706159000000000425e+00 -3.631924731241243931e-01
-4.507099999999999795e+01 7.756799999999999784e+01 3.695199999999999818e+01 4.962412999999999741e+00 -3.628935474063271771e-01
-4.507000000000000028e+01 8.474599999999999511e+01 3.387199999999999989e+01 7.945623000000000324e+00 -3.626874468873502178e-01
-4.506600000000000250e+01 8.591899999999999693e+01 3.465599999999999881e+01 4.710468999999999795e+00 -3.625161145465854995e-01
-4.506400000000000006e+01 9.333700000000000330e+01 3.767499999999999716e+01 -1.871136999999999873e+01 -1.309086415029094563e-01
-4.506199999999999761e+01 8.507500000000000284e+01 5.597399999999999665e+01 5.426467999999999847e+00 -1.491183916246225372e-01
-4.506000000000000227e+01 7.742499999999999716e+01 4.258599999999999852e+01 4.386787000000000347e+01 -4.015322228450337039e-01
-4.505700000000000216e+01 1.073299999999999983e+02 2.626800000000000068e+01 -8.805158999999999736e+00 -3.630843453096025963e-01
-4.505700000000000216e+01 1.083400000000000034e+02 2.347299999999999898e+01 -5.842209999999999764e-02 -3.632034345374798301e-01
-4.505700000000000216e+01 1.083400000000000034e+02 2.526099999999999923e+01 -9.492751000000000161e+00 -3.631322872690679882e-01
-4.505700000000000216e+01 1.085900000000000034e+02 2.436700000000000088e+01 -1.194698999999999955e+00 -3.631689868521809084e-01
-4.505400000000000205e+01 6.963200000000000500e+01 5.006300000000000239e+01 -7.524646999999999863e+00 -4.292377240023955709e-01
-4.504899999999999949e+01 7.634600000000000364e+01 5.127700000000000102e+01 -2.009316000000000102e+01 -3.963662818328075321e-01
-4.504299999999999926e+01 7.624399999999999977e+01 4.277300000000000324e+01 2.160020000000000095e+01 -4.013341380894647203e-01
-4.504200000000000159e+01 8.243300000000000693e+01 3.076999999999999957e+01 8.142037000000000191e+00 -3.634090081253237847e-01
-4.503999999999999915e+01 6.932999999999999829e+01 5.267799999999999727e+01 -3.450250000000000039e+00 -4.292149709081755082e-01
-4.503399999999999892e+01 7.511499999999999488e+01 4.267799999999999727e+01 1.792578999999999922e+01 -4.012252495948967490e-01
-4.502799999999999869e+01 8.562099999999999511e+01 3.129700000000000060e+01 -4.102890000000000015e+01 -3.629895783461766223e-01
-4.502700000000000102e+01 8.869899999999999807e+01 2.359900000000000020e+01 1.581409999999999982e+00 -3.634944008773518531e-01
-4.502700000000000102e+01 1.049000000000000057e+02 2.947800000000000153e+01 -1.341305000000000014e+01 -3.629087245165799613e-01
-4.502499999999999858e+01 1.045199999999999960e+02 1.939600000000000080e+01 -9.187653999999999543e-01 -2.741083663567949191e-01
-4.502000000000000313e+01 9.346899999999999409e+01 3.141400000000000148e+01 -1.301675999999999966e+01 -3.626900636621120944e-01
-4.501800000000000068e+01 9.727700000000000102e+01 3.452700000000000102e+01 -1.151623000000000063e+00 -1.334381800150460651e-01
-4.501100000000000279e+01 9.201999999999999602e+01 2.995700000000000074e+01 6.973368999999999929e+00 -3.628331229613098730e-01
-4.501100000000000279e+01 9.321099999999999852e+01 3.062099999999999866e+01 -1.285426000000000002e+01 -3.627543432106956622e-01
-4.501100000000000279e+01 7.658700000000000330e+01 5.222800000000000153e+01 -4.001706000000000074e+01 -1.788513149276214353e-01
-4.500999999999999801e+01 9.052500000000000568e+01 2.048699999999999832e+01 -3.737376999999999949e+00 -2.750576361638117917e-01
-4.500600000000000023e+01 9.303400000000000603e+01 3.837500000000000000e+01 1.719076999999999966e+00 -1.310330256881677147e-01
-4.500500000000000256e+01 8.898300000000000409e+01 1.778399999999999892e+01 -1.136525000000000035e-01 -1.576406652049487100e-01
-4.500300000000000011e+01 1.037399999999999949e+02 3.026999999999999957e+01 -8.890166999999999575e+01 -3.628484969969738017e-01
-4.499799999999999756e+01 9.885899999999999466e+01 3.723499999999999943e+01 -1.208344000000000085e+00 -1.357467214306873893e-01
-4.499199999999999733e+01 6.917799999999999727e+01 5.181400000000000006e+01 -4.608363999999999905e+00 -4.292238451510578257e-01
-4.499199999999999733e+01 6.940500000000000114e+01 5.101500000000000057e+01 -3.771549999999999958e+00 -4.292298481033071655e-01
-4.498899999999999721e+01 1.001099999999999994e+02 4.583400000000000318e+01 4.812246000000000024e+00 -1.412262918682425372e-01
-4.498599999999999710e+01 7.664300000000000068e+01 4.811399999999999721e+01 4.375719000000000136e+01 -3.977153793814897642e-01
-4.498599999999999710e+01 1.057500000000000000e+02 2.021900000000000119e+01 -1.579228999999999994e+00 -2.734413691899467147e-01
-4.498499999999999943e+01 8.481499999999999773e+01 2.962900000000000134e+01 -1.342810000000000059e+01 -3.632697964384710154e-01
-4.498199999999999932e+01 8.114600000000000080e+01 5.082500000000000284e+01 -4.440203000000000344e+00 -1.417413436835030516e-01
-4.497599999999999909e+01 8.674800000000000466e+01 5.174300000000000210e+01 4.196621000000000379e+00 -1.431701222316555666e-01
-4.496900000000000119e+01 8.741400000000000148e+01 2.994200000000000017e+01 2.782635999999999967e+02 -3.630224727806865004e-01
-4.496800000000000352e+01 1.017699999999999960e+02 4.600699999999999790e+01 1.961965000000000003e+01 -1.419550896074328883e-01
-4.496399999999999864e+01 9.181000000000000227e+01 4.896399999999999864e+01 -7.134994000000000058e-01 -1.406096778890263965e-01
-4.496399999999999864e+01 1.019399999999999977e+02 1.926999999999999957e+01 1.060437000000000074e+00 -2.745149000522645877e-01
-4.496200000000000330e+01 8.874399999999999977e+01 2.922400000000000020e+01 6.686999000000000137e+01 -3.630201863699653586e-01
-4.495700000000000074e+01 9.865500000000000114e+01 3.357900000000000063e+01 2.405977999999999994e+01 -1.343284121782912233e-01
-4.495499999999999829e+01 1.069599999999999937e+02 2.693499999999999872e+01 -2.468911999999999995e+00 -3.630544635686017707e-01
-4.495100000000000051e+01 7.411700000000000443e+01 4.225800000000000267e+01 1.414668999999999954e+01 -4.014152388975413821e-01
-4.494400000000000261e+01 7.615900000000000603e+01 3.533899999999999864e+01 -2.922847000000000151e+01 -3.638574335802294835e-01
-4.494200000000000017e+01 1.023799999999999955e+02 4.594700000000000273e+01 3.791425000000000267e+01 -1.421425000769470648e-01
-4.494200000000000017e+01 1.024599999999999937e+02 4.272399999999999665e+01 5.058543000000000234e+00 -1.404886802451328354e-01
-4.494200000000000017e+01 1.037000000000000028e+02 4.358200000000000074e+01 3.842101000000000255e+01 -1.414185448964396519e-01
-4.494200000000000017e+01 1.037000000000000028e+02 4.521200000000000330e+01 4.296497000000000099e+01 -1.422108699574115842e-01
-4.494200000000000017e+01 1.039300000000000068e+02 4.439699999999999847e+01 1.305213000000000001e+01 -1.418935546187312102e-01
-4.494200000000000017e+01 8.852100000000000080e+01 3.843699999999999761e+01 -1.559206999999999965e+01 -1.248516044160135896e-01
-4.493500000000000227e+01 9.732399999999999807e+01 3.723499999999999943e+01 -1.675231000000000137e+01 -1.345682791286867963e-01
-4.493399999999999750e+01 7.027700000000000102e+01 5.486699999999999733e+01 -1.411081000000000030e+00 -4.292122288163177091e-01
-4.491700000000000159e+01 7.257599999999999341e+01 4.294899999999999807e+01 1.155044999999999966e+01 -3.996635288894603844e-01
-4.491499999999999915e+01 1.014599999999999937e+02 3.282999999999999829e+01 1.119754000000000005e+01 -1.361923407136483022e-01
-4.491199999999999903e+01 9.747799999999999443e+01 1.836899999999999977e+01 -1.628546000000000049e+01 -1.565820567330994673e-01
-4.491199999999999903e+01 9.841800000000000637e+01 1.836899999999999977e+01 -2.076762000000000086e+01 -1.565492885455733452e-01
-4.490599999999999881e+01 7.023300000000000409e+01 5.396900000000000119e+01 -2.297581999999999791e+00 -4.292085945205633690e-01
-4.489999999999999858e+01 8.909099999999999397e+01 5.120900000000000318e+01 4.911817000000000100e+00 -1.427015878184121900e-01
-4.489999999999999858e+01 9.053700000000000614e+01 5.040299999999999869e+01 -3.406784999999999952e-01 -1.419638719731736720e-01
-4.489900000000000091e+01 8.046999999999999886e+01 3.145400000000000063e+01 8.475080999999999865e-01 -3.635998095463254809e-01
-4.489900000000000091e+01 8.882500000000000284e+01 1.869600000000000151e+01 1.211840999999999946e+00 -1.567025247350214701e-01
-4.489900000000000091e+01 8.907899999999999352e+01 1.958999999999999986e+01 -2.929363999999999857e-01 -1.555880164112001529e-01
-4.489900000000000091e+01 9.197100000000000364e+01 1.958999999999999986e+01 -6.808720000000000105e+00 -1.555821755633663150e-01
-4.489699999999999847e+01 9.902299999999999613e+01 4.495600000000000307e+01 7.683335999999999721e+00 -1.402343276661414673e-01
-4.489600000000000080e+01 8.549800000000000466e+01 2.746399999999999864e+01 9.164341000000000292e+00 -3.634348113947569736e-01
-4.489600000000000080e+01 8.575199999999999534e+01 2.657000000000000028e+01 2.759812000000000154e+00 -3.634969553795284747e-01
-4.489399999999999835e+01 7.386499999999999488e+01 5.614399999999999835e+01 -3.362259000000000242e+01 -4.292652258794731890e-01
-4.489300000000000068e+01 8.470199999999999818e+01 3.283899999999999864e+01 7.648028000000000048e+00 -3.628166276986030114e-01
-4.488799999999999812e+01 1.068900000000000006e+02 2.846199999999999974e+01 7.514155999999999613e-01 -3.629866126414930116e-01
-4.487500000000000000e+01 1.027199999999999989e+02 3.198999999999999844e+01 -8.914713000000000775e+00 -1.368290200384828792e-01
-4.487199999999999989e+01 9.605200000000000671e+01 4.830599999999999739e+01 -6.139213999999999771e+01 -1.415438825211835228e-01
-4.487199999999999989e+01 1.006099999999999994e+02 1.850000000000000000e+01 5.499463999999999686e+00 -2.616209901273366389e-01
-4.486399999999999721e+01 7.797599999999999909e+01 3.169200000000000017e+01 -5.694758000000000209e+00 -3.641793175668612825e-01
-4.485900000000000176e+01 7.531000000000000227e+01 5.176200000000000045e+01 -3.179164999999999797e+00 -1.772884569746520644e-01
-4.485699999999999932e+01 7.081399999999999295e+01 4.692499999999999716e+01 -2.356147999999999954e+01 -3.942220997214360145e-01
-4.485600000000000165e+01 9.598199999999999932e+01 2.049200000000000088e+01 -5.740717000000000070e+00 -2.742190389307241349e-01
-4.485399999999999920e+01 7.288700000000000045e+01 4.209300000000000352e+01 1.027136999999999922e+01 -4.010667154225368014e-01
-4.484700000000000131e+01 9.741700000000000159e+01 4.496999999999999886e+01 9.299569999999999226e+00 -1.394918824661168788e-01
-4.484499999999999886e+01 9.630500000000000682e+01 3.723299999999999699e+01 -3.672997999999999763e+01 -1.337213442055852353e-01
-4.483899999999999864e+01 9.462699999999999534e+01 3.567099999999999937e+01 -1.583943999999999974e+01 -1.313693416287065041e-01
-4.483599999999999852e+01 9.991200000000000614e+01 3.282999999999999829e+01 6.647291000000000061e+00 -1.351377961958237783e-01
-4.482900000000000063e+01 8.445099999999999341e+01 3.032999999999999829e+01 -1.183930999999999933e+01 -3.631915138869933890e-01
-4.482600000000000051e+01 9.588599999999999568e+01 3.564500000000000313e+01 -2.274013000000000062e+01 -1.326290047803517780e-01
-4.482600000000000051e+01 9.588599999999999568e+01 3.651100000000000279e+01 -4.903363000000000227e+01 -1.330014784784285253e-01
-4.482300000000000040e+01 7.417700000000000671e+01 5.252000000000000313e+01 9.398419999999999774e+00 -4.300489822372160487e-01
-4.482300000000000040e+01 7.417700000000000671e+01 5.338600000000000279e+01 2.021745999999999910e+01 -4.297998225324400901e-01
-4.480400000000000205e+01 8.989300000000000068e+01 2.897100000000000009e+01 3.589361999999999853e+01 -3.629723161592982583e-01
-4.480299999999999727e+01 8.517900000000000205e+01 3.457200000000000273e+01 4.414778000000000091e+00 -3.625091887375597732e-01
-4.480199999999999960e+01 9.184499999999999886e+01 2.221600000000000108e+01 -1.804919999999999902e+01 -2.725441698172457183e-01
-4.480100000000000193e+01 9.116899999999999693e+01 2.970100000000000051e+01 1.570890999999999948e+01 -3.628594955442109860e-01
-4.479800000000000182e+01 7.015300000000000580e+01 5.562199999999999989e+01 1.042653999999999970e+00 -4.292153178759289811e-01
-4.479500000000000171e+01 8.187600000000000477e+01 5.432099999999999795e+01 -9.689541000000000182e+00 -1.485278070343754586e-01
-4.479399999999999693e+01 9.002700000000000102e+01 3.874199999999999733e+01 -2.180960999999999927e+00 -1.275349524957369307e-01
-4.478600000000000136e+01 9.456199999999999761e+01 2.196399999999999864e+01 -5.325096000000000274e+00 -2.726923397976200314e-01
-4.478499999999999659e+01 8.051800000000000068e+01 5.000099999999999767e+01 2.775396999999999892e+00 -1.400140734023104794e-01
-4.478499999999999659e+01 9.509499999999999886e+01 4.840200000000000102e+01 -2.659084000000000003e+01 -1.413306200205730612e-01
-4.478300000000000125e+01 7.155899999999999750e+01 5.659700000000000131e+01 -3.901600000000000179e+00 -4.292360553805115719e-01
-4.478000000000000114e+01 7.914100000000000534e+01 4.809000000000000341e+01 7.653351000000000681e+01 -3.984884833044701757e-01
-4.478000000000000114e+01 1.010600000000000023e+02 3.954599999999999937e+01 -3.449714000000000169e+01 -1.382962266664574114e-01
-4.478000000000000114e+01 9.048999999999999488e+01 2.312600000000000122e+01 -2.235072999999999865e+00 -2.712181678482126213e-01
-4.477799999999999869e+01 7.584600000000000364e+01 3.477199999999999847e+01 -7.639954000000000356e+00 -3.641277065165476889e-01
-4.476700000000000301e+01 7.951300000000000523e+01 4.902300000000000324e+01 9.564755999999999148e+00 -1.372699694302721707e-01
-4.476599999999999824e+01 8.598000000000000398e+01 3.034299999999999997e+01 -1.473630999999999913e+00 -3.630466315027708335e-01
-4.476200000000000045e+01 7.791500000000000625e+01 4.749600000000000222e+01 3.739661000000000257e+01 -3.984812741317814710e-01
-4.476100000000000279e+01 6.978100000000000591e+01 5.340699999999999648e+01 -1.055528999999999940e+01 -4.292070355760191913e-01
-4.475600000000000023e+01 9.878199999999999648e+01 1.907000000000000028e+01 -1.292453000000000074e+01 -2.616173365203440793e-01
-4.475600000000000023e+01 9.964799999999999613e+01 1.907000000000000028e+01 1.245573999999999959e+00 -2.614914773380262458e-01
-4.475200000000000244e+01 9.647499999999999432e+01 4.664399999999999835e+01 -1.593145999999999951e+01 -1.403891570457344584e-01
-4.474499999999999744e+01 1.013400000000000034e+02 4.166700000000000159e+01 -3.706967999999999819e+00 -1.394919594732006440e-01
-4.474300000000000210e+01 9.645999999999999375e+01 4.757000000000000028e+01 -2.820542999999999978e+01 -1.411433369196747889e-01
-4.474000000000000199e+01 7.554399999999999693e+01 4.271399999999999864e+01 1.715058000000000149e+01 -4.014405982210734192e-01
-4.473100000000000165e+01 1.069200000000000017e+02 2.171699999999999875e+01 1.607887000000000066e-01 -2.724477745902550985e-01
-4.472699999999999676e+01 7.052200000000000557e+01 5.647200000000000131e+01 5.492778999999999634e+00 -4.292250014714087958e-01
-4.472699999999999676e+01 9.122400000000000375e+01 1.625799999999999912e+01 2.057620000000000005e+00 -1.591942441292864274e-01
-4.472399999999999665e+01 8.177299999999999613e+01 3.622500000000000142e+01 2.303147999999999840e+01 -5.454931440587216379e-02
-4.472299999999999898e+01 1.042000000000000028e+02 2.953600000000000136e+01 -4.447522000000000020e+01 -3.629010869838644737e-01
-4.472299999999999898e+01 1.055999999999999943e+02 2.953600000000000136e+01 -4.919107999999999592e+00 -3.629225515450529849e-01
-4.472200000000000131e+01 7.883799999999999386e+01 4.739000000000000057e+01 3.657309000000000054e+01 -3.987644688439123675e-01
-4.472200000000000131e+01 8.902599999999999625e+01 9.148999999999999133e+00 -9.154807000000000361e-01 -5.257472679506377394e-02
-4.470799999999999841e+01 8.672100000000000364e+01 2.490099999999999980e+01 1.615985999999999922e+00 -3.635296572381820357e-01
-4.470799999999999841e+01 1.037199999999999989e+02 1.934900000000000020e+01 -5.017047000000000034e-01 -2.608831273261330574e-01
-4.470700000000000074e+01 8.791100000000000136e+01 2.385500000000000043e+01 7.019157000000000313e-01 -3.635087146918839496e-01
-4.469899999999999807e+01 9.218300000000000693e+01 1.623300000000000054e+01 -1.380832999999999977e+00 -1.590802452517243171e-01
-4.469700000000000273e+01 8.948099999999999454e+01 2.041400000000000148e+01 -2.290331999999999812e+00 -2.617113271491152138e-01
-4.469700000000000273e+01 7.742499999999999716e+01 3.878399999999999892e+01 1.200000000000000000e+01 -4.041601345025571668e-01
-4.469599999999999795e+01 1.052800000000000011e+02 1.945899999999999963e+01 -5.543900999999999968e+00 -2.741318457687508259e-01
-4.469500000000000028e+01 8.528499999999999659e+01 3.038899999999999935e+01 -1.126079999999999970e+01 -3.630859404182391614e-01
-4.469500000000000028e+01 1.011500000000000057e+02 4.068299999999999983e+01 -1.840262999999999849e+01 -1.389165834529800525e-01
-4.469299999999999784e+01 9.270999999999999375e+01 1.624099999999999966e+01 -4.624772000000000105e+00 -1.589920477723257564e-01
-4.469200000000000017e+01 7.795799999999999841e+01 4.032800000000000296e+01 2.145836999999999861e+01 -4.031579795285747392e-01
-4.469200000000000017e+01 7.816700000000000159e+01 4.106400000000000006e+01 2.971142000000000039e+01 -4.026580385419637476e-01
-4.469100000000000250e+01 7.141899999999999693e+01 4.611099999999999710e+01 -5.953058000000000405e+00 -3.952981167349032821e-01
-4.468200000000000216e+01 8.760800000000000409e+01 5.143099999999999739e+01 1.900109000000000103e-01 -1.430036547152546411e-01
-4.467999999999999972e+01 7.739900000000000091e+01 3.781000000000000227e+01 8.106030999999999764e+00 -4.251392760195934345e-02
-4.467900000000000205e+01 8.222899999999999920e+01 3.859799999999999898e+01 -9.271532999999999802e+00 -1.101983205758801515e-01
-4.467300000000000182e+01 8.328300000000000125e+01 3.069900000000000162e+01 9.616877999999999815e+00 -3.632412804289625319e-01
-4.467300000000000182e+01 7.141599999999999682e+01 4.515299999999999869e+01 -1.156960999999999906e+00 -3.960312891516369893e-01
-4.467199999999999704e+01 7.561799999999999500e+01 4.963499999999999801e+01 3.875565000000000282e+01 -3.966013375734647184e-01
-4.467199999999999704e+01 7.582699999999999818e+01 4.889900000000000091e+01 4.157990000000000208e+01 -3.970091904893656709e-01
-4.467000000000000171e+01 8.922400000000000375e+01 2.297299999999999898e+01 3.610095999999999861e-01 -2.716156192842003048e-01
-4.466899999999999693e+01 9.961899999999999977e+01 3.729800000000000182e+01 -5.071607999999999672e-01 -1.364237285607785288e-01
-4.466899999999999693e+01 7.558100000000000307e+01 3.343800000000000239e+01 1.684323999999999932e+00 -3.646428839368666130e-01
-4.466799999999999926e+01 9.278600000000000136e+01 4.795600000000000307e+01 -1.481452999999999953e+01 -1.400486130666592222e-01
-4.466700000000000159e+01 8.705299999999999727e+01 3.556000000000000227e+01 -7.446749999999999758e-01 -1.200729623935181678e-01
-4.466599999999999682e+01 8.671399999999999864e+01 3.000000000000000000e+01 3.533912999999999727e+01 -3.630222579974509145e-01
-4.466299999999999670e+01 7.699200000000000443e+01 4.307699999999999818e+01 3.020560000000000045e+01 -4.013154883237353698e-01
-4.466299999999999670e+01 9.336899999999999977e+01 2.235200000000000031e+01 -1.691281999999999996e+01 -2.723549087556316750e-01
-4.466199999999999903e+01 7.776800000000000068e+01 3.958700000000000330e+01 2.219445999999999941e+01 -4.036528251945485368e-01
-4.466199999999999903e+01 8.197199999999999420e+01 3.110200000000000031e+01 8.960350999999999289e+00 -3.633509374125085678e-01
-4.465599999999999881e+01 9.384199999999999875e+01 4.801100000000000279e+01 -1.404199000000000019e+01 -1.405512957453692036e-01
-4.465400000000000347e+01 9.393999999999999773e+01 1.706400000000000006e+01 -6.275248999999999633e+00 -1.581365134908551962e-01
-4.465400000000000347e+01 9.393999999999999773e+01 1.800400000000000134e+01 -1.947797999999999874e+01 -1.573007931795036840e-01
-4.465299999999999869e+01 9.805800000000000693e+01 3.716400000000000148e+01 -1.244153999999999982e+01 -1.352208904032285997e-01
-4.464000000000000057e+01 9.406900000000000261e+01 3.633100000000000307e+01 -6.849733999999999767e+00 -1.311357926268804652e-01
-4.464000000000000057e+01 8.990200000000000102e+01 2.109100000000000108e+01 -3.648827999999999960e+00 -2.746413652163147145e-01
-4.463900000000000290e+01 8.275400000000000489e+01 5.506900000000000261e+01 -6.823949999999999960e+00 -1.493792221878123272e-01
-4.463100000000000023e+01 9.033100000000000307e+01 1.631400000000000006e+01 4.348936000000000135e+00 -1.594055492592754697e-01
-4.463000000000000256e+01 9.536299999999999955e+01 3.567099999999999937e+01 -1.789771999999999963e+01 -1.321940103349833751e-01
-4.463000000000000256e+01 9.542600000000000193e+01 3.720600000000000307e+01 -5.503119000000000227e+01 -1.329690472600795204e-01
-4.462899999999999778e+01 8.554699999999999704e+01 2.962099999999999866e+01 -3.480643999999999849e+00 -3.631516873330666861e-01
-4.462700000000000244e+01 7.812500000000000000e+01 4.231900000000000261e+01 3.264826999999999657e+01 -4.018671557223342239e-01
-4.462500000000000000e+01 8.436899999999999977e+01 3.346399999999999864e+01 2.097497999999999863e+01 -3.626922418573871321e-01
-4.462199999999999989e+01 7.722299999999999898e+01 3.189699999999999847e+01 -6.862491999999999592e+00 -3.643250979713137383e-01
-4.461899999999999977e+01 9.494899999999999807e+01 2.121999999999999886e+01 -5.635375999999999941e+00 -2.736836124909790557e-01
-4.461599999999999966e+01 7.564600000000000080e+01 5.014399999999999835e+01 3.976744000000000057e+01 -3.964266085787937488e-01
-4.461599999999999966e+01 7.585500000000000398e+01 5.088000000000000256e+01 7.517674000000000412e+00 -3.962792304830345391e-01
-4.461399999999999721e+01 9.095799999999999841e+01 2.097800000000000153e+01 -7.750034999999999563e+00 -2.746237077772574753e-01
-4.461399999999999721e+01 9.095799999999999841e+01 2.237800000000000011e+01 -5.701872999999999969e+00 -2.725315411309538471e-01
-4.460900000000000176e+01 8.474299999999999500e+01 3.167999999999999972e+01 2.127892000000000117e+00 -3.629379190182376869e-01
-4.460900000000000176e+01 9.260099999999999909e+01 3.886599999999999966e+01 1.069627000000000017e+01 -1.310335272090640824e-01
-4.460499999999999687e+01 7.166100000000000136e+01 4.414200000000000301e+01 3.045015999999999834e-01 -3.973525945190601316e-01
-4.460099999999999909e+01 7.610299999999999443e+01 5.177100000000000080e+01 -5.090042000000000399e+00 -1.786473158545906770e-01
-4.459700000000000131e+01 9.261499999999999488e+01 1.905699999999999861e+01 -1.800191999999999837e+01 -1.564196691719554611e-01
-4.459599999999999653e+01 8.742199999999999704e+01 3.640999999999999659e+01 2.720157999999999743e-01 -1.213121222705520336e-01
-4.459000000000000341e+01 7.038100000000000023e+01 4.762500000000000000e+01 -3.189433999999999880e+00 -3.934383053604780800e-01
-4.458800000000000097e+01 1.006500000000000057e+02 3.287599999999999767e+01 4.639847000000000321e+01 -1.357457344330113558e-01
-4.458700000000000330e+01 8.895600000000000307e+01 1.723499999999999943e+01 9.264995999999999787e-01 -1.587448586053016308e-01
-4.458400000000000318e+01 9.378199999999999648e+01 3.299799999999999756e+01 -2.831316999999999862e+00 -1.296333876985109601e-01
-4.458400000000000318e+01 1.032300000000000040e+02 3.069999999999999929e+01 -3.708558000000000021e+01 -3.628238847055951788e-01
-4.458299999999999841e+01 9.510899999999999466e+01 3.640899999999999892e+01 -2.843031999999999826e+01 -1.322827059822936913e-01
-4.457999999999999829e+01 7.308199999999999363e+01 5.653000000000000114e+01 -2.369341999999999970e+01 -4.292545519201239057e-01
-4.457900000000000063e+01 1.022399999999999949e+02 3.276500000000000057e+01 -1.093246000000000073e+01 -1.367720173823031016e-01
-4.457900000000000063e+01 9.271999999999999886e+01 3.022500000000000142e+01 -3.350159000000000109e+00 -3.627569650630579901e-01
-4.457500000000000284e+01 7.675900000000000034e+01 3.577799999999999869e+01 -6.384515000000000384e+00 -3.633263427093473830e-01
-4.457300000000000040e+01 8.327100000000000080e+01 5.569500000000000028e+01 -7.170777000000000179e+00 -1.500341204524194283e-01
-4.457300000000000040e+01 9.373399999999999466e+01 3.720600000000000307e+01 -2.076017999999999830e+01 -1.312494959656105298e-01
-4.457300000000000040e+01 9.373399999999999466e+01 3.810799999999999699e+01 -1.758050000000000068e+01 -1.317873431059274347e-01
-4.457300000000000040e+01 9.677299999999999613e+01 3.796099999999999852e+01 -1.496646999999999927e+01 -1.345906414024848341e-01
-4.457200000000000273e+01 9.506000000000000227e+01 3.497099999999999653e+01 -4.678721999999999603e+00 -1.316304083193397811e-01
-4.457200000000000273e+01 9.573000000000000398e+01 3.790599999999999881e+01 -2.572194999999999965e+01 -1.336466527070021282e-01
-4.456799999999999784e+01 1.013299999999999983e+02 1.907499999999999929e+01 1.837396000000000029e+01 -2.613082766315514283e-01
-4.456600000000000250e+01 8.467300000000000182e+01 3.416400000000000148e+01 7.562524999999999942e+00 -3.625508020019092559e-01
-4.456600000000000250e+01 8.460099999999999909e+01 5.641299999999999670e+01 5.717316000000000287e+00 -1.502892085790078491e-01
-4.456400000000000006e+01 8.150300000000000011e+01 5.288900000000000290e+01 -3.402925000000000200e+00 -1.465379671695269670e-01
-4.456400000000000006e+01 8.150300000000000011e+01 5.371800000000000352e+01 -5.592793999999999599e+00 -1.480246580070481710e-01
-4.456400000000000006e+01 8.184799999999999898e+01 5.210600000000000165e+01 2.318430999999999909e+00 -1.448736057446708969e-01
-4.456400000000000006e+01 9.148399999999999466e+01 4.895900000000000318e+01 -6.804352999999999652e-01 -1.407289502410804805e-01
-4.456099999999999994e+01 1.065999999999999943e+02 2.134700000000000131e+01 1.607887000000000066e-01 -2.727801278432461229e-01
-4.455899999999999750e+01 9.631900000000000261e+01 3.494500000000000028e+01 1.554041999999999923e+00 -1.328595377567952096e-01
-4.455899999999999750e+01 8.713700000000000045e+01 3.721600000000000108e+01 2.121215000000000117e+01 -1.213247123453359000e-01
-4.455599999999999739e+01 7.460999999999999943e+01 5.182000000000000028e+01 1.618869000000000113e+01 -1.774233208006893991e-01
-4.455400000000000205e+01 7.615200000000000102e+01 4.851100000000000279e+01 6.016167000000000087e+01 -3.973458618382655905e-01
-4.455299999999999727e+01 8.551500000000000057e+01 2.849599999999999866e+01 5.015268999999999977e+00 -3.632778210773935923e-01
-4.454599999999999937e+01 9.792000000000000171e+01 3.402000000000000313e+01 -2.506578999999999890e+00 -1.339767198448879870e-01
-4.454500000000000171e+01 9.133700000000000330e+01 2.159700000000000131e+01 -8.832242000000000814e+00 -2.737226486815853010e-01
-4.453499999999999659e+01 9.141200000000000614e+01 2.065099999999999980e+01 -5.281817000000000206e+00 -2.750624300643408349e-01
-4.453300000000000125e+01 9.921200000000000330e+01 3.288799999999999812e+01 -4.182304000000000244e+00 -1.347155218562401668e-01
-4.453199999999999648e+01 1.001299999999999955e+02 1.909600000000000009e+01 2.087152000000000029e+01 -2.614643348993553329e-01
-4.453199999999999648e+01 1.077399999999999949e+02 2.574200000000000088e+01 -1.682903999999999911e+01 -3.631201531655331438e-01
-4.452900000000000347e+01 9.119199999999999307e+01 4.954099999999999682e+01 -2.686669999999999892e+00 -1.413445381265676648e-01
-4.452900000000000347e+01 8.944400000000000261e+01 2.895700000000000074e+01 3.858883999999999759e+01 -3.629653674731603274e-01
-4.452600000000000335e+01 8.621599999999999397e+01 5.483700000000000330e+01 -5.040476999999999874e-01 -1.478831509761067142e-01
-4.452600000000000335e+01 8.585500000000000398e+01 5.557300000000000040e+01 1.406470999999999982e+01 -1.488766413037612701e-01
-4.451500000000000057e+01 1.025799999999999983e+02 1.960000000000000142e+01 3.573167999999999900e+00 -2.743956704747353426e-01
-4.451500000000000057e+01 8.103700000000000614e+01 3.622500000000000142e+01 2.587130000000000152e+01 -5.242521882980146625e-02
-4.451500000000000057e+01 8.250900000000000034e+01 3.622500000000000142e+01 1.532277999999999984e+01 -5.557319794671503749e-02
-4.451400000000000290e+01 8.190399999999999636e+01 5.111500000000000199e+01 5.095720000000000027e+00 -1.428279478369579025e-01
-4.451299999999999812e+01 9.439199999999999591e+01 3.477300000000000324e+01 -2.266900999999999833e+00 -1.308700000141325703e-01
-4.450900000000000034e+01 8.803000000000000114e+01 3.804099999999999682e+01 -2.191806999999999839e+00 -1.237576266627135463e-01
-4.450900000000000034e+01 8.922100000000000364e+01 3.870499999999999829e+01 -4.896574000000000204e+00 -1.263829821937051956e-01
-4.450900000000000034e+01 9.083299999999999841e+01 3.870499999999999829e+01 2.330614999999999881e+00 -1.287418029979045253e-01
-4.450900000000000034e+01 9.415000000000000568e+01 3.398400000000000176e+01 1.626838000000000006e+00 -1.303388772237659698e-01
-4.450399999999999778e+01 8.690399999999999636e+01 5.151500000000000057e+01 1.625436000000000103e+00 -1.432360654707817427e-01
-4.450000000000000000e+01 8.743999999999999773e+01 3.791599999999999682e+01 9.242730999999999586e-01 -1.225398021578440605e-01
-4.449900000000000233e+01 9.254500000000000171e+01 2.227400000000000091e+01 -2.465137000000000000e+01 -2.726489882002610110e-01
-4.449799999999999756e+01 7.715800000000000125e+01 4.765999999999999659e+01 5.398212000000000188e+01 -3.981901173627150348e-01
-4.449600000000000222e+01 9.460899999999999466e+01 1.010899999999999999e+01 -1.855322000000000082e-01 -5.265711274648025852e-02
-4.448499999999999943e+01 7.208499999999999375e+01 4.334599999999999653e+01 1.787884999999999946e+00 -3.988610996130025343e-01
-4.448299999999999699e+01 8.796899999999999409e+01 2.952100000000000080e+01 5.455579999999999785e+01 -3.629768534723438744e-01
-4.446999999999999886e+01 8.149299999999999500e+01 3.859799999999999898e+01 -3.468824999999999825e+00 -1.076219756466959138e-01
-4.446800000000000352e+01 8.577200000000000557e+01 5.313900000000000290e+01 1.354381000000000057e+00 -1.457635261306735042e-01
-4.446800000000000352e+01 8.813200000000000500e+01 9.148999999999999133e+00 6.315540000000000043e-02 -5.255450919431973317e-02
-4.446800000000000352e+01 8.992000000000000171e+01 9.148999999999999133e+00 1.547271000000000063e+00 -5.258162328077908843e-02
-4.446399999999999864e+01 9.951399999999999579e+01 4.535300000000000153e+01 8.955166999999999433e+00 -1.408816953317848786e-01
-4.446399999999999864e+01 1.009599999999999937e+02 4.615899999999999892e+01 6.409040000000000070e+00 -1.419425025379900673e-01
-4.446300000000000097e+01 1.031599999999999966e+02 4.314300000000000068e+01 2.406368000000000151e+01 -1.411499823887824578e-01
-4.446300000000000097e+01 1.031599999999999966e+02 4.565100000000000335e+01 5.151521000000000328e+01 -1.424129244397544514e-01
-4.446099999999999852e+01 7.432299999999999329e+01 5.559199999999999875e+01 -3.689878999999999820e+01 -4.293724780147187836e-01
-4.446099999999999852e+01 7.454999999999999716e+01 5.479299999999999926e+01 1.096611000000000047e+01 -4.296317456550792779e-01
-4.446000000000000085e+01 9.651600000000000534e+01 1.944000000000000128e+01 -1.199921999999999933e+01 -1.560784626185669488e-01
-4.445600000000000307e+01 8.134000000000000341e+01 3.552499999999999858e+01 2.167758999999999858e+01 -3.624894826082041832e-01
-4.445600000000000307e+01 8.134000000000000341e+01 3.692499999999999716e+01 1.318989000000000011e+01 -5.187944147263977290e-02
-4.445600000000000307e+01 8.220600000000000307e+01 3.552499999999999858e+01 1.488762000000000008e+01 -5.588507263867300429e-02
-4.445600000000000307e+01 8.220600000000000307e+01 3.692499999999999716e+01 2.501503999999999905e+01 -5.387533961919364900e-02
-4.443900000000000006e+01 7.669700000000000273e+01 3.227499999999999858e+01 -3.944506000000000068e+00 -3.643830329276591118e-01
-4.443599999999999994e+01 8.627299999999999613e+01 2.953699999999999903e+01 1.224756999999999962e+01 -3.630775329462316292e-01
-4.443500000000000227e+01 7.355800000000000693e+01 4.155299999999999727e+01 1.642338000000000164e+01 -4.024833319313116387e-01
-4.442999999999999972e+01 9.352800000000000580e+01 1.883999999999999986e+01 -1.943224999999999980e+01 -1.567482816989984595e-01
-4.442399999999999949e+01 9.528199999999999648e+01 2.075900000000000034e+01 -5.957906999999999620e+00 -2.743165921237216143e-01
-4.441799999999999926e+01 8.391899999999999693e+01 3.400099999999999767e+01 2.005959000000000003e+01 -3.625900570675276713e-01
-4.441400000000000148e+01 9.692600000000000193e+01 4.536699999999999733e+01 1.873501000000000083e+00 -1.397366707208243519e-01
-4.441199999999999903e+01 8.179600000000000648e+01 3.789800000000000324e+01 6.694424999999999848e+00 -5.180924133008024679e-02
-4.441199999999999903e+01 8.179600000000000648e+01 3.929800000000000182e+01 -4.684563999999999950e+00 -1.098892415602731737e-01
-4.441199999999999903e+01 8.266200000000000614e+01 3.929800000000000182e+01 -2.137197000000000102e+01 -1.126395000141255237e-01
-4.441100000000000136e+01 7.972799999999999443e+01 3.171000000000000085e+01 -1.352897000000000016e+00 -3.635917573706409223e-01
-4.441100000000000136e+01 8.127899999999999636e+01 3.126899999999999835e+01 1.114055999999999935e+00 -3.633792085961189966e-01
-4.440299999999999869e+01 8.972199999999999420e+01 2.227299999999999969e+01 -1.040297000000000027e+00 -2.730177006256182537e-01
-4.440200000000000102e+01 8.932200000000000273e+01 2.159900000000000020e+01 -1.531902000000000097e+00 -2.741847761542392514e-01
-4.439800000000000324e+01 8.621299999999999386e+01 2.604899999999999949e+01 5.275496000000000407e+00 -3.634453964252977176e-01
-4.439699999999999847e+01 8.850100000000000477e+01 8.298999999999999488e+00 1.903015999999999874e-01 -5.255895771756183971e-02
-4.439699999999999847e+01 8.850100000000000477e+01 9.999000000000000554e+00 -8.998860000000000192e-02 -5.255838560002316223e-02
-4.439699999999999847e+01 8.955100000000000193e+01 8.298999999999999488e+00 1.233840999999999966e-01 -5.257457336294962813e-02
-4.439699999999999847e+01 8.955100000000000193e+01 9.999000000000000554e+00 -4.579113000000000211e-01 -5.257484805119291144e-02
-4.439399999999999835e+01 9.794799999999999329e+01 1.878500000000000014e+01 -1.749440999999999846e+01 -1.566222273564025491e-01
-4.439399999999999835e+01 7.493300000000000693e+01 4.226400000000000290e+01 1.284360999999999997e+01 -4.020024788898622359e-01
-4.438300000000000267e+01 8.724599999999999511e+01 2.405099999999999838e+01 1.213146000000000058e+00 -3.635184428150022851e-01
-4.437500000000000000e+01 8.994100000000000250e+01 5.088400000000000034e+01 -1.572891999999999901e-01 -1.427977739102869459e-01
-4.437100000000000222e+01 9.059300000000000352e+01 2.923799999999999955e+01 2.619846000000000075e+01 -3.628777424696723042e-01
-4.436599999999999966e+01 9.195399999999999352e+01 3.003600000000000136e+01 4.089513000000000176e+00 -3.627691008694725605e-01
-4.436399999999999721e+01 9.346999999999999886e+01 1.630399999999999849e+01 -4.358774999999999622e+00 -1.591214290513731644e-01
-4.436200000000000188e+01 8.236700000000000443e+01 5.471800000000000352e+01 -7.840283000000000335e+00 -1.494037792431830158e-01
-4.435999999999999943e+01 7.244400000000000261e+01 5.660199999999999676e+01 -1.563921000000000028e+01 -4.292445923101701477e-01
-4.435999999999999943e+01 8.907099999999999795e+01 2.231800000000000139e+01 -8.651413999999999493e-01 -2.730648877530865160e-01
-4.435999999999999943e+01 7.629200000000000159e+01 4.301899999999999835e+01 2.583875000000000099e+01 -4.014444930008093104e-01
-4.435999999999999943e+01 7.769199999999999307e+01 4.301899999999999835e+01 3.690113000000000198e+01 -4.014949729121355948e-01
-4.435900000000000176e+01 9.921500000000000341e+01 1.956099999999999994e+01 -1.191562000000000054e+01 -2.613840665691465337e-01
-4.435399999999999920e+01 9.558199999999999363e+01 4.789000000000000057e+01 -4.375225999999999971e+01 -1.412710838750680098e-01
-4.435300000000000153e+01 8.314600000000000080e+01 3.854800000000000182e+01 -1.375310999999999950e+01 -1.128936289544696381e-01
-4.435099999999999909e+01 1.073499999999999943e+02 2.240200000000000102e+01 4.566149000000000235e+00 -2.721124144380121512e-01
-4.434799999999999898e+01 8.545900000000000318e+01 5.209300000000000352e+01 9.132303999999999533e+00 -1.443245394080642507e-01
-4.434599999999999653e+01 9.052500000000000568e+01 2.167800000000000082e+01 -7.216581999999999830e+00 -2.739039758215425779e-01
-4.434499999999999886e+01 7.654600000000000648e+01 3.503999999999999915e+01 -8.142554000000000514e+00 -3.635721798841123897e-01
-4.433800000000000097e+01 1.062199999999999989e+02 2.932499999999999929e+01 3.507398999999999933e+00 -3.629492925397200254e-01
-4.432800000000000296e+01 6.908100000000000307e+01 5.314000000000000057e+01 -3.628092999999999790e+00 -4.292078233784867303e-01
-4.432500000000000284e+01 8.569199999999999307e+01 3.511299999999999955e+01 6.643500999999999657e+00 -6.270380347279788658e-02
-4.432200000000000273e+01 9.818000000000000682e+01 4.470300000000000296e+01 7.760227999999999682e+00 -1.398998542540552392e-01
-4.432000000000000028e+01 9.341100000000000136e+01 3.171699999999999875e+01 -1.608702999999999861e+01 -1.290549939351292585e-01
-4.431799999999999784e+01 8.014000000000000057e+01 4.949300000000000210e+01 2.324394999999999989e+00 -1.392642148128998003e-01
-4.431099999999999994e+01 9.315300000000000580e+01 3.092500000000000071e+01 -1.511696000000000062e+01 -3.626705990233633492e-01
-4.430799999999999983e+01 6.975400000000000489e+01 5.431700000000000017e+01 -2.221363000000000198e+00 -4.292021509917288147e-01
-4.430599999999999739e+01 9.330100000000000193e+01 3.880799999999999983e+01 7.289714000000000027e+00 -1.318947381855865575e-01
-4.430199999999999960e+01 9.152100000000000080e+01 3.874199999999999733e+01 3.503751999999999978e+00 -1.297591546959423747e-01
-4.430100000000000193e+01 9.560099999999999909e+01 3.490400000000000347e+01 -5.135748999999999675e+00 -1.322439233658503355e-01
-4.429699999999999704e+01 9.191700000000000159e+01 4.825900000000000034e+01 -2.005341000000000040e+00 -1.402433691214062805e-01
-4.429399999999999693e+01 8.284300000000000352e+01 3.784799999999999898e+01 -8.014451000000000214e-01 -1.110250339841204748e-01
-4.429200000000000159e+01 6.891100000000000136e+01 5.224699999999999989e+01 -3.681795999999999847e+00 -4.292195653087804708e-01
-4.428999999999999915e+01 1.037099999999999937e+02 2.993299999999999983e+01 -6.942350999999999317e+01 -3.628811508254560225e-01
-4.428999999999999915e+01 1.049000000000000057e+02 2.926899999999999835e+01 -1.187021999999999977e+01 -3.629346698207021604e-01
-4.428999999999999915e+01 8.576200000000000045e+01 5.139300000000000068e+01 3.767583000000000126e+00 -1.432217951712361215e-01
-4.427100000000000080e+01 9.321899999999999409e+01 4.746500000000000341e+01 -2.756256000000000128e+01 -1.399425017292111328e-01
-4.427100000000000080e+01 8.822299999999999898e+01 2.305900000000000105e+01 -7.645868000000000109e-02 -2.719098542973195087e-01
-4.426899999999999835e+01 7.829699999999999704e+01 4.685199999999999676e+01 2.154477999999999938e+01 -3.989956273912473872e-01
-4.426599999999999824e+01 9.380100000000000193e+01 2.186100000000000065e+01 -1.029757000000000033e+01 -2.732727706827933756e-01
-4.426500000000000057e+01 6.985599999999999454e+01 4.847500000000000142e+01 -3.276104999999999823e+00 -4.073511944887014957e-01
-4.426200000000000045e+01 8.948099999999999454e+01 1.638500000000000156e+01 5.133557999999999844e+00 -5.262072249583170380e-02
-4.425500000000000256e+01 1.066899999999999977e+02 2.736799999999999855e+01 -1.068729000000000084e+01 -3.630473450046507455e-01
-4.425500000000000256e+01 1.069000000000000057e+02 2.663200000000000145e+01 -3.564307999999999765e+01 -3.630821975918979705e-01
-4.425099999999999767e+01 8.637600000000000477e+01 3.546000000000000085e+01 1.813719000000000081e+00 -1.186459687192550350e-01
-4.424699999999999989e+01 8.147100000000000364e+01 5.041499999999999915e+01 1.219481999999999999e+01 -1.416286958902671089e-01
-4.424600000000000222e+01 7.104699999999999704e+01 5.706799999999999784e+01 2.376259000000000121e+00 -4.292322092733383276e-01
-4.424199999999999733e+01 9.371500000000000341e+01 1.010899999999999999e+01 -3.493291999999999838e-03 -5.263824713059241100e-02
-4.424199999999999733e+01 9.550300000000000011e+01 1.010899999999999999e+01 1.835140999999999911e+00 -5.266635394401265879e-02
-4.424199999999999733e+01 6.959300000000000352e+01 5.003099999999999881e+01 -8.261571999999999250e+00 -4.292468092307454297e-01
-4.423499999999999943e+01 9.610500000000000398e+01 4.727499999999999858e+01 -1.435403999999999947e+01 -1.410035307760460488e-01
-4.423499999999999943e+01 9.654099999999999682e+01 4.573899999999999721e+01 -3.175270999999999955e+00 -1.399268944484360899e-01
-4.423299999999999699e+01 8.741400000000000148e+01 2.973199999999999932e+01 3.108947999999999823e+01 -3.629541095134986572e-01
