-1.324000000000000021e+01 7.943699999999999761e+01 -2.504100000000000215e+00 -3.296419000000000210e+00 -1.018683210619290846e-01
-1.322400000000000020e+01 6.296600000000000108e+01 6.517400000000000304e+00 6.455284999999999940e+00 -1.816079410790752136e-01
-1.321499999999999986e+01 4.977400000000000091e+01 4.228299999999999947e+00 2.936754999999999782e-01 -1.803217449691258967e-01
-1.320899999999999963e+01 6.456300000000000239e+01 6.365999999999999659e+00 -8.120449999999999946e+00 -1.822613557393703565e-01
-1.320899999999999963e+01 7.598600000000000421e+01 1.369899999999999896e+00 -1.103597000000000072e+01 -1.924851773933820842e-01
-1.320899999999999963e+01 7.631100000000000705e+01 2.107099999999999973e+00 -5.363069999999999560e+00 -1.910533068875094331e-01
-1.320899999999999963e+01 7.760399999999999920e+01 2.827999999999999847e+00 -3.038466999999999985e+01 -1.857214329001008191e-01
-1.320700000000000074e+01 4.918999999999999773e+01 -5.926999999999999602e+00 -3.907426000000000066e+00 -2.023803274574015876e-01
-1.320700000000000074e+01 4.942099999999999937e+01 -6.741900000000000226e+00 1.596082999999999918e+00 -2.025930258443135179e-01
-1.320700000000000074e+01 5.038000000000000256e+01 -7.700400000000000134e+00 8.466822999999999766e+00 -2.029097040366824589e-01
-1.320700000000000074e+01 5.058899999999999864e+01 -8.436400000000000787e+00 2.039984000000000020e+00 -2.031135713892852357e-01
-1.318599999999999994e+01 7.179800000000000182e+01 -6.334800000000000431e+00 8.773146000000000555e-01 -1.299999999999999767e-01
-1.318099999999999916e+01 5.053000000000000114e+01 -1.090300000000000047e+01 1.081180999999999948e+01 -2.041104929221411179e-01
-1.317099999999999937e+01 4.966599999999999682e+01 3.093999999999999861e+00 -7.592931000000000541e-01 -1.802566118541836793e-01
-1.316699999999999982e+01 6.900700000000000500e+01 -1.553800000000000070e+00 -1.052678000000000047e+01 -2.062489329648842240e-01
-1.316600000000000037e+01 6.580899999999999750e+01 7.075000000000000178e+00 7.258262999999999465e+01 -1.832706841624097971e-01
-1.316600000000000037e+01 6.674899999999999523e+01 7.075000000000000178e+00 -2.529332000000000136e+00 -1.840169726584566234e-01
-1.315799999999999947e+01 6.981900000000000261e+01 -2.031199999999999950e-01 -2.434066999999999936e+01 -1.849464332103607778e-01
-1.314700000000000024e+01 5.875900000000000034e+01 -2.209799999999999898e+01 -4.520395999999999859e+00 -2.817137163329208605e-01
-1.314000000000000057e+01 8.208100000000000307e+01 9.216299999999999493e-01 1.828869999999999862e+01 -8.044996864409109660e-02
-1.313700000000000045e+01 6.883799999999999386e+01 3.699399999999999800e+00 -4.253162999999999982e+01 -1.853062770733481246e-01
-1.313499999999999979e+01 8.091200000000000614e+01 -2.052999999999999936e+00 -2.808713000000000015e+00 -1.041937713451086128e-01
-1.313100000000000023e+01 6.661599999999999966e+01 -1.914799999999999969e+01 -5.173441999999999652e+00 -2.853420238650387075e-01
-1.313100000000000023e+01 6.813599999999999568e+01 -1.914799999999999969e+01 -1.420978000000000030e+01 -1.860815616365467107e-01
-1.312899999999999956e+01 7.051500000000000057e+01 -5.590700000000000003e+00 4.338415999999999606e+00 -1.300000000000000044e-01
-1.311999999999999922e+01 7.354300000000000637e+01 -5.788400000000000212e+00 8.787603999999999971e+00 -1.131070353797494626e-01
-1.311700000000000088e+01 6.242499999999999716e+01 -1.476600000000000001e+01 -8.284458999999999573e-01 -1.300000000000000044e-01
-1.310999999999999943e+01 6.101700000000000301e+01 -1.558799999999999919e+01 3.510180000000000078e+00 -2.069404112258139694e-01
-1.310599999999999987e+01 6.380100000000000193e+01 -1.540300000000000047e+01 -7.948435999999999835e-01 -2.082731759963535878e-01
-1.310500000000000043e+01 5.497299999999999898e+01 -1.823699999999999832e+01 -9.986957000000000306e+00 -2.045501466755707543e-01
-1.310500000000000043e+01 8.190800000000000125e+01 -1.073299999999999949e-01 -4.217632000000000048e+00 -7.969318146203639708e-02
-1.310200000000000031e+01 5.738900000000000290e+01 -1.743299999999999983e+01 -7.330294000000000310e+00 -2.051790933237121473e-01
-1.310100000000000087e+01 4.953300000000000125e+01 3.764600000000000168e+00 6.776744000000000101e-01 -1.803292553522365116e-01
-1.309299999999999997e+01 6.103300000000000125e+01 7.995599999999999596e+00 -1.444881000000000082e+00 -1.815008454174183439e-01
-1.309299999999999997e+01 6.103300000000000125e+01 8.860900000000000887e+00 7.537154000000000353e-01 -1.816912283986603371e-01
-1.308699999999999974e+01 6.004899999999999949e+01 -2.292200000000000060e+01 -3.603476999999999819e+00 -1.828155669099964520e-01
-1.308699999999999974e+01 6.004899999999999949e+01 -2.033599999999999852e+01 -1.271256999999999948e+01 -2.045646118155404203e-01
-1.308600000000000030e+01 5.047699999999999676e+01 -1.013100000000000023e+01 1.383808999999999934e+01 -2.036062593075830540e-01
-1.308600000000000030e+01 5.047699999999999676e+01 -9.182600000000000762e+00 8.554341000000000861e+00 -2.032982953962144956e-01
-1.308099999999999952e+01 6.752500000000000568e+01 6.819399999999999906e+00 -1.877149000000000001e+01 -1.847908552281442851e-01
-1.305700000000000038e+01 6.216599999999999682e+01 7.237400000000000055e+00 -1.338500999999999941e+00 -1.816597756407953013e-01
-1.305499999999999972e+01 6.131199999999999761e+01 1.036800000000000033e+01 3.245864999999999778e+00 -1.821117166975521617e-01
-1.305100000000000016e+01 5.086500000000000199e+01 1.527099999999999902e+00 -1.287509999999999932e+00 -1.801469346638743807e-01
-1.304800000000000004e+01 6.127900000000000347e+01 -2.209900000000000020e+01 -6.444353000000000442e+00 -1.831093105038988922e-01
-1.304800000000000004e+01 6.127900000000000347e+01 -2.115899999999999892e+01 -1.164864000000000033e+01 -2.825470789517982584e-01
-1.303800000000000026e+01 5.191400000000000148e+01 -1.428700000000000081e+01 -1.132826000000000111e+00 -1.299999999999999767e-01
-1.302699999999999925e+01 7.715300000000000580e+01 -1.023399999999999999e+01 -8.903890999999999778e+00 -2.081553383911297350e-01
-1.302699999999999925e+01 7.736199999999999477e+01 -9.497799999999999798e+00 5.517153999999999670e+00 -2.087110740421921073e-01
-1.302399999999999913e+01 5.713000000000000256e+01 1.011700000000000088e+01 -1.134229000000000021e+01 -1.812921787543680663e-01
-1.301900000000000013e+01 6.653000000000000114e+01 -4.458700000000000330e+00 -1.663927999999999940e+01 -2.069570647710025635e-01
-1.301600000000000001e+01 5.555299999999999727e+01 8.657400000000000873e+00 -3.757251999999999814e+00 -1.809230290081490777e-01
-1.300699999999999967e+01 5.527900000000000347e+01 7.815999999999999837e+00 -2.640109999999999957e+00 -1.807870381956404593e-01
-1.300399999999999956e+01 7.467100000000000648e+01 2.289000000000000062e-02 -1.119518000000000013e+00 -8.914408178708488339e-02
-1.300300000000000011e+01 5.630400000000000205e+01 -1.775000000000000000e+01 -1.632105999999999923e+01 -2.048092724104665918e-01
-1.299900000000000055e+01 5.044200000000000017e+01 -2.023299999999999876e+00 -2.241291000000000011e+01 -2.014534472343203486e-01
-1.299399999999999977e+01 5.201500000000000057e+01 -1.510699999999999932e+01 -1.959036000000000000e+00 -1.300000000000000044e-01
-1.299300000000000033e+01 5.878999999999999915e+01 1.025799999999999912e+01 1.667755999999999972e+01 -1.815646797627730735e-01
-1.298300000000000054e+01 7.607500000000000284e+01 -1.379299999999999926e+01 -3.148242000000000207e+00 -2.050195882265758163e-01
-1.298300000000000054e+01 7.715900000000000603e+01 -1.073799999999999955e+01 -2.301886999999999972e+01 -2.073710956243627890e-01
-1.298300000000000054e+01 7.736799999999999500e+01 -1.307199999999999918e+01 -2.514077999999999946e+01 -2.016473476273012433e-01
-1.298300000000000054e+01 7.736799999999999500e+01 -1.147400000000000020e+01 -5.293431999999999960e+01 -2.054111056918498934e-01
-1.298300000000000054e+01 7.759499999999999886e+01 -1.227299999999999969e+01 -1.782066999999999979e+01 -2.026447799638755876e-01
-1.297899999999999920e+01 6.465300000000000580e+01 -1.782000000000000028e+01 -1.758923999999999932e+00 -2.071239763333471706e-01
-1.296799999999999997e+01 6.866899999999999693e+01 6.418700000000000294e+00 -4.046967999999999677e+01 -1.862034371898003693e-01
-1.296000000000000085e+01 6.780700000000000216e+01 -3.495699999999999807e+00 -3.349855000000000160e+01 -2.073664025484636686e-01
-1.295700000000000074e+01 7.195600000000000307e+01 -1.499699999999999989e+01 8.176366000000000467e-01 -2.087110665007075316e-01
-1.295100000000000051e+01 6.875400000000000489e+01 6.553499999999999881e-01 -2.914744999999999919e+01 -1.841966040874548627e-01
-1.293900000000000006e+01 6.224799999999999756e+01 1.025300000000000011e+01 5.340665999999999691e+00 -1.824535454361529418e-01
-1.292200000000000060e+01 6.890099999999999625e+01 -5.163299999999999557e+00 -1.921847999999999956e+01 -1.118484772308118436e-01
-1.291999999999999993e+01 6.366599999999999682e+01 6.459100000000000286e+00 -6.749202999999999619e+00 -1.821279122552630081e-01
-1.291399999999999970e+01 5.110399999999999920e+01 8.429799999999999516e-01 -2.418883000000000116e+00 -2.006900414848017955e-01
-1.291399999999999970e+01 5.131300000000000239e+01 1.069500000000000034e-01 -4.274091000000000307e+00 -2.008801346643693253e-01
-1.291300000000000026e+01 7.395600000000000307e+01 -3.438800000000000079e+00 -7.417945999999999707e+00 -1.127624171519492763e-01
-1.291300000000000026e+01 7.395600000000000307e+01 -8.591800000000000548e-01 -7.130800999999999945e+00 -8.942358390882430841e-02
-1.291300000000000026e+01 7.416500000000000625e+01 -4.174800000000000288e+00 -4.258255000000000123e+00 -1.131061537775288200e-01
-1.290399999999999991e+01 8.036799999999999500e+01 3.188000000000000167e+00 9.206471000000000515e+00 -1.468094618660122364e-01
-1.290399999999999991e+01 8.181399999999999295e+01 2.381699999999999928e+00 1.059023999999999965e+01 -1.597970499989735949e-01
-1.290399999999999991e+01 8.206799999999999784e+01 1.487999999999999989e+00 1.446950999999999965e+01 -1.869304960006718808e-01
-1.290000000000000036e+01 5.144599999999999795e+01 -1.339199999999999946e+01 -1.413283000000000067e+00 -1.300000000000000044e-01
-1.289899999999999913e+01 8.052599999999999625e+01 -7.225100000000000300e+00 -6.414310999999999652e+00 -1.119963583980932154e-01
-1.289899999999999913e+01 8.052599999999999625e+01 -5.626900000000000013e+00 -4.471347999999999701e+01 -1.013889693959351967e-01
-1.289899999999999913e+01 8.075300000000000011e+01 -6.426000000000000156e+00 -1.181390999999999991e+01 -1.000051321919718933e-01
-1.289799999999999969e+01 5.113199999999999790e+01 -5.855399999999999494e-01 -6.996761000000000230e+00 -2.010785867422540674e-01
-1.289100000000000001e+01 7.963800000000000523e+01 -8.041100000000000136e+00 -6.704579999999999984e-01 -1.109503086849932957e-01
-1.289000000000000057e+01 5.029899999999999949e+01 5.078299999999999592e+00 7.394912000000000152e-01 -1.804752653891622260e-01
-1.288400000000000034e+01 5.964600000000000080e+01 1.016099999999999959e+01 -2.687314999999999898e+00 -1.817627263354952283e-01
-1.288299999999999912e+01 7.446399999999999864e+01 -1.400000000000000000e+01 -4.288021999999999778e+00 -2.079071509960409847e-01
-1.286700000000000088e+01 5.875200000000000244e+01 -2.105300000000000082e+01 -4.287701000000000207e+00 -2.039245206119614795e-01
-1.286599999999999966e+01 5.849499999999999744e+01 -1.689699999999999847e+01 3.985592000000000024e+00 -2.053988895427114603e-01
-1.285800000000000054e+01 5.391299999999999670e+01 6.567000000000000171e+00 -3.777731000000000172e+00 -1.806330600664001751e-01
-1.285699999999999932e+01 7.930100000000000193e+01 -4.781500000000000306e+00 -2.162513999999999825e+01 -1.029411256017776360e-01
-1.285299999999999976e+01 7.397599999999999909e+01 -5.088400000000000034e+00 -1.433843999999999896e+00 -1.132648181074034505e-01
-1.284800000000000075e+01 5.350900000000000034e+01 -1.767399999999999949e+01 -1.240375999999999923e+00 -2.043585481819876204e-01
-1.284500000000000064e+01 7.031699999999999307e+01 -1.697500000000000142e+01 -2.985193000000000207e+00 -2.079240893823255942e-01
-1.284099999999999930e+01 6.860599999999999454e+01 -1.838800000000000168e+01 -2.576275000000000048e+01 -1.860895417567429155e-01
-1.283900000000000041e+01 8.139100000000000534e+01 -1.278000000000000025e+00 -1.541503999999999941e+01 -7.882993843613356200e-02
-1.283900000000000041e+01 6.423399999999999466e+01 -1.610300000000000153e+01 -3.256634999999999946e-01 -2.078331430365039090e-01
-1.283000000000000007e+01 5.019100000000000250e+01 2.243500000000000050e+00 -1.582964999999999955e+00 -1.802860181170715670e-01
-1.283000000000000007e+01 5.933100000000000307e+01 -2.297700000000000031e+01 -3.869273999999999880e+00 -1.824766650906228249e-01
-1.282399999999999984e+01 5.580799999999999983e+01 -1.789399999999999835e+01 -1.267686999999999919e+01 -2.045606785242434777e-01
-1.282399999999999984e+01 7.332399999999999807e+01 -1.408300000000000018e+01 -2.127641999999999811e+00 -2.088672986791774711e-01
-1.281900000000000084e+01 7.855500000000000682e+01 2.705099999999999838e+00 -1.659674000000000049e+01 -1.747557201437102692e-01
-1.281099999999999994e+01 6.750499999999999545e+01 -4.449200000000000266e+00 -1.782225999999999999e+01 -2.080037875452049045e-01
-1.281000000000000050e+01 6.579399999999999693e+01 -4.458700000000000330e+00 -8.135956000000000188e+00 -2.063940511597130156e-01
-1.280199999999999960e+01 6.737600000000000477e+01 -1.921099999999999852e+01 -1.533721000000000068e+01 -2.859365489985867259e-01
-1.279800000000000004e+01 8.190999999999999659e+01 5.755700000000000260e-01 1.828869999999999862e+01 -8.028055878081184760e-02
-1.278700000000000081e+01 8.017000000000000171e+01 -2.224000000000000199e+00 -4.482866999999999713e+00 -1.031204540458050128e-01
-1.277999999999999936e+01 5.845700000000000074e+01 -2.274699999999999989e+01 -4.234140000000000015e+00 -1.822922803655091517e-01
-1.277899999999999991e+01 6.498199999999999932e+01 6.877799999999999692e+00 2.674549999999999983e+00 -1.830484888918132158e-01
-1.275900000000000034e+01 5.224499999999999744e+01 5.546299999999999564e+00 1.502777000000000029e+01 -1.805400285803406557e-01
-1.275799999999999912e+01 5.928900000000000148e+01 -2.039900000000000091e+01 -7.607580999999999705e+00 -2.041226086008737783e-01
-1.275799999999999912e+01 6.080899999999999750e+01 -2.285900000000000176e+01 -6.413319999999999688e+00 -1.827316352254508280e-01
-1.275799999999999912e+01 6.080899999999999750e+01 -2.039900000000000091e+01 -2.107965000000000089e+01 -2.043285977352879423e-01
-1.275099999999999945e+01 6.609699999999999420e+01 -5.158699999999999619e+00 -1.688231000000000037e+01 -2.072143040327721342e-01
-1.275099999999999945e+01 6.696299999999999386e+01 -5.158699999999999619e+00 -1.219303999999999988e+01 -2.080347799619856608e-01
-1.275099999999999945e+01 6.696299999999999386e+01 -3.758700000000000152e+00 -1.677167999999999992e+01 -2.068415394291701070e-01
-1.274300000000000033e+01 6.825799999999999557e+01 -2.742900000000000116e+00 -3.716172000000000253e+01 -2.071440146581501607e-01
-1.274300000000000033e+01 6.310000000000000142e+01 -1.524600000000000044e+01 -9.744190999999999825e-01 -2.076057802058985935e-01
-1.273900000000000077e+01 7.684399999999999409e+01 2.537700000000000067e+00 -5.766188999999999787e+00 -1.812164411562103283e-01
-1.273499999999999943e+01 6.627899999999999636e+01 7.607999999999999652e+00 5.428962000000000510e-01 -1.841954507328068813e-01
-1.273399999999999999e+01 6.851600000000000534e+01 -1.950399999999999912e+00 -3.520248000000000133e+01 -2.064853546403150608e-01
-1.273300000000000054e+01 7.279900000000000659e+01 -5.954699999999999882e+00 3.325147999999999993e+00 -1.300000000000000322e-01
-1.272499999999999964e+01 6.911899999999999977e+01 6.426099999999999868e-02 -4.936124999999999829e+01 -1.847492130124186727e-01
-1.272000000000000064e+01 5.288100000000000023e+01 -1.734100000000000108e+01 -2.407070000000000043e+00 -2.042960897932638853e-01
-1.270899999999999963e+01 4.997200000000000131e+01 -2.783300000000000107e+00 -1.760798000000000130e+01 -2.017044459894120900e-01
-1.270800000000000018e+01 6.569499999999999318e+01 -1.849200000000000088e+01 -2.036687000000000136e+00 -2.849648528784129442e-01
-1.270299999999999940e+01 6.276500000000000057e+01 6.941499999999999559e+00 6.094819000000000209e+00 -1.820636700466100044e-01
-1.270199999999999996e+01 6.177400000000000091e+01 9.225799999999999557e+00 8.474394999999999456e+00 -1.822316922121080540e-01
-1.270100000000000051e+01 4.961599999999999966e+01 -4.463400000000000034e+00 -3.717521000000000075e+00 -2.021237118423077628e-01
-1.270100000000000051e+01 4.982500000000000284e+01 -3.727399999999999824e+00 -3.560659999999999936e+00 -2.019451595685811118e-01
-1.269800000000000040e+01 6.175000000000000000e+01 -1.526800000000000068e+01 -5.701873999999999831e-02 -2.069221110161965638e-01
-1.269699999999999918e+01 4.971099999999999852e+01 -7.204699999999999882e+00 -2.677838000000000163e-01 -2.028061664364445849e-01
-1.269299999999999962e+01 4.929999999999999716e+01 -5.267699999999999605e+00 -2.714405000000000179e+00 -2.023087113796223913e-01
-1.268500000000000050e+01 6.314200000000000301e+01 1.025300000000000011e+01 2.917629000000000161e+01 -1.829620853723802343e-01
-1.268399999999999928e+01 6.896899999999999409e+01 -1.768700000000000117e+01 -1.033266000000000062e+01 -2.077979282179112652e-01
-1.268200000000000038e+01 7.313899999999999579e+01 -1.783700000000000063e+00 -6.780871999999999566e+00 -1.120292104436964448e-01
-1.266900000000000048e+01 7.114100000000000534e+01 -5.947899999999999743e+00 6.243207999999999913e+01 -1.300000000000000044e-01
-1.266300000000000026e+01 6.831799999999999784e+01 3.236600000000000144e+00 -3.873550000000000182e+01 -1.850752127545827186e-01
-1.266300000000000026e+01 6.927700000000000102e+01 4.195100000000000051e+00 -2.889746999999999844e+01 -1.868196133644602075e-01
-1.266300000000000026e+01 6.927700000000000102e+01 5.824900000000000411e+00 -5.179357999999999862e+01 -1.873091099323876407e-01
-1.266300000000000026e+01 6.950799999999999557e+01 5.009999999999999787e+00 -1.655517000000000039e+01 -1.874716162239232486e-01
-1.266200000000000081e+01 5.946399999999999864e+01 -1.670100000000000051e+01 1.346486999999999945e+01 -2.055124220811490043e-01
-1.266000000000000014e+01 6.173299999999999699e+01 7.728299999999999947e+00 2.759783000000000097e+00 -1.819261216023906891e-01
-1.265499999999999936e+01 5.797999999999999687e+01 1.018800000000000061e+01 2.244057000000000102e+01 -1.815862613554989902e-01
-1.265199999999999925e+01 6.598900000000000432e+01 -3.634900000000000020e+00 -1.323403000000000063e+01 -2.059199008562166422e-01
-1.262299999999999933e+01 7.348699999999999477e+01 -2.679899999999999949e+00 -4.401292999999999900e+00 -1.124405514575490816e-01
-1.262199999999999989e+01 7.238599999999999568e+01 -1.430199999999999960e+01 1.336162999999999990e+00 -2.092582970562642530e-01
-1.262100000000000044e+01 6.613400000000000034e+01 -1.873699999999999832e+01 -4.620638999999999719e+00 -2.852238175867710668e-01
-1.261400000000000077e+01 6.172299999999999898e+01 1.110299999999999976e+01 8.656841999999999260e+00 -1.826403064914970398e-01
-1.261400000000000077e+01 6.277300000000000324e+01 9.403000000000000469e+00 4.966234000000000037e+00 -1.826837179780564369e-01
-1.261400000000000077e+01 6.277300000000000324e+01 1.110299999999999976e+01 2.671762999999999977e+01 -1.830190579783557703e-01
-1.261200000000000010e+01 6.049399999999999977e+01 1.045299999999999940e+01 8.028582000000000107e+00 -1.821612029717774583e-01
-1.260599999999999987e+01 7.524500000000000455e+01 7.643299999999999539e-01 1.243282999999999916e+01 -1.866853116949881430e-01
-1.260399999999999920e+01 6.966500000000000625e+01 -5.266000000000000014e+00 -1.765549000000000035e+01 -1.120434719574162213e-01
-1.260200000000000031e+01 6.142999999999999972e+01 8.428300000000000125e+00 7.625428999999999569e+00 -1.820235267637807242e-01
-1.259699999999999953e+01 5.624499999999999744e+01 9.120300000000000296e+00 -4.469323000000000157e+00 -1.812266031555088974e-01
-1.259399999999999942e+01 7.785299999999999443e+01 -9.101200000000000401e+00 1.138557999999999915e+01 -1.943898260958743240e-01
-1.256700000000000017e+01 5.093299999999999983e+01 -1.626700000000000035e+00 -3.267423999999999751e+01 -2.014362545215188371e-01
-1.254899999999999949e+01 7.079600000000000648e+01 -1.619999999999999929e+01 -8.132609000000000421e+00 -2.084443873728535068e-01
-1.254299999999999926e+01 6.793800000000000239e+01 -5.149200000000000443e+00 -2.223297000000000168e+01 -2.091349099541495726e-01
-1.254199999999999982e+01 6.817700000000000671e+01 1.253900000000000015e+00 -1.078308999999999962e+01 -1.843231828991399590e-01
-1.253899999999999970e+01 5.097099999999999653e+01 -1.251800000000000068e+01 8.520008000000000692e+00 -1.300000000000000322e-01
-1.252599999999999980e+01 6.444499999999999318e+01 -1.764199999999999946e+01 4.686163000000000134e-02 -2.064769807410899993e-01
-1.252599999999999980e+01 6.444499999999999318e+01 -1.677700000000000102e+01 4.528347999999999818e-01 -2.070454589333020068e-01
-1.251900000000000013e+01 5.432999999999999829e+01 -1.771699999999999875e+01 -3.759291000000000160e+00 -2.042226179810116837e-01
-1.251299999999999990e+01 7.683499999999999375e+01 -1.350300000000000011e+01 -1.297056000000000076e+01 -2.037106422534555317e-01
-1.250900000000000034e+01 7.530700000000000216e+01 -1.365000000000000036e+01 -8.073259999999999437e+00 -2.074671478699106619e-01
-1.250699999999999967e+01 4.903499999999999659e+01 -6.300500000000000433e+00 -2.097071999999999825e+00 -2.025689613075075390e-01
-1.250699999999999967e+01 5.032200000000000273e+01 -8.868999999999999773e+00 -4.324082000000000203e-01 -2.032903692259451223e-01
-1.250699999999999967e+01 5.032200000000000273e+01 -8.003800000000000026e+00 9.322624000000000466e-01 -2.030857229365117256e-01
-1.249300000000000033e+01 6.232800000000000296e+01 -1.530499999999999972e+01 -1.896865000000000079e-01 -2.068965837111427786e-01
-1.249000000000000021e+01 5.438100000000000023e+01 6.235500000000000043e+00 -8.181104000000000154e-01 -1.807522040358279514e-01
-1.248799999999999955e+01 6.425700000000000500e+01 -1.825199999999999889e+01 -1.171661000000000064e+00 -2.059527762306597176e-01
-1.248000000000000043e+01 7.346500000000000341e+01 -5.307500000000000107e+00 6.081742000000000203e+00 -1.131748849155121556e-01
-1.248000000000000043e+01 7.346500000000000341e+01 -1.255800000000000027e+00 -4.006351000000000440e+00 -8.981145407343529841e-02
-1.247199999999999953e+01 6.546099999999999852e+01 7.620899999999999785e+00 3.175260000000000193e+00 -1.838235144145334288e-01
-1.246499999999999986e+01 6.478700000000000614e+01 -1.837399999999999878e+01 -1.821067999999999909e+00 -2.060349265632777926e-01
-1.245800000000000018e+01 6.955200000000000671e+01 -6.357399999999999718e-01 -1.673084000000000060e+01 -1.853890179289396090e-01
-1.245599999999999952e+01 5.294500000000000028e+01 5.604499999999999815e+00 -6.552331999999999823e+00 -1.806589604325208320e-01
-1.245500000000000007e+01 5.771999999999999886e+01 -2.274699999999999989e+01 -4.294675999999999938e+00 -1.819691400910051771e-01
-1.244999999999999929e+01 7.627599999999999625e+01 1.838899999999999979e+00 -9.759904999999999831e+00 -1.803479181035465284e-01
-1.244299999999999962e+01 6.959600000000000364e+01 -1.711299999999999955e+01 -8.149941999999999354e+00 -2.081272668450630525e-01
-1.244200000000000017e+01 6.426900000000000546e+01 6.840399999999999814e+00 1.912056999999999896e+00 -1.829301373336726377e-01
-1.243500000000000050e+01 6.233200000000000074e+01 7.641499999999999737e+00 5.170105999999999646e+00 -1.822633291377078191e-01
-1.243399999999999928e+01 5.779500000000000171e+01 -1.716499999999999915e+01 -1.462589000000000006e+01 -2.047870995283706530e-01
-1.242999999999999972e+01 5.660499999999999687e+01 -1.770599999999999952e+01 -1.690023000000000053e+01 -2.044268090850011599e-01
-1.242900000000000027e+01 7.999299999999999500e+01 -5.196299999999999919e+00 -5.934071000000000140e+01 -1.023673157082256313e-01
-1.242500000000000071e+01 7.860099999999999909e+01 -3.648899999999999810e+00 -6.311511000000000315e+00 -1.020125699907021566e-01
-1.242500000000000071e+01 7.881000000000000227e+01 -4.384900000000000020e+00 -1.493249999999999922e+01 -1.027851167681200356e-01
-1.242500000000000071e+01 7.881000000000000227e+01 -2.912900000000000045e+00 -3.282209999999999850e-01 -1.016893676208186631e-01
-1.242399999999999949e+01 5.082000000000000028e+01 -1.137100000000000044e+01 4.020940000000000403e+00 -2.047842634050836830e-01
-1.241000000000000014e+01 7.760399999999999920e+01 2.600999999999999979e+00 -1.919255000000000067e+01 -1.724305750886867827e-01
-1.240600000000000058e+01 6.353399999999999892e+01 -1.583600000000000030e+01 5.458128999999999759e-02 -2.070240524653172987e-01
-1.240600000000000058e+01 6.703900000000000148e+01 7.544699999999999740e+00 -1.541929999999999978e+01 -1.851636307499315015e-01
-1.240499999999999936e+01 8.164100000000000534e+01 -5.399500000000000410e-01 -6.718416999999999639e+00 -7.942036779174532768e-02
-1.239899999999999913e+01 6.346500000000000341e+01 6.883200000000000429e+00 3.039735999999999994e+00 -1.825781522915125021e-01
-1.239499999999999957e+01 6.952700000000000102e+01 -1.138900000000000023e+00 -8.833012999999999337e+00 -2.067881210457063190e-01
-1.239499999999999957e+01 5.235600000000000165e+01 -1.649099999999999966e+01 -2.797279000000000071e+00 -2.043319816679705636e-01
-1.239300000000000068e+01 7.909199999999999875e+01 -8.527400000000000091e+00 1.600924999999999931e+00 -1.154493106638582595e-01
-1.239300000000000068e+01 6.216599999999999682e+01 8.428300000000000125e+00 6.741719999999999935e+00 -1.824005163976448185e-01
-1.239199999999999946e+01 5.804899999999999949e+01 -2.350700000000000145e+01 -3.698745000000000172e+00 -1.819731174935535212e-01
-1.239199999999999946e+01 5.898899999999999721e+01 -2.350700000000000145e+01 -3.990677999999999948e+00 -1.821027328576534376e-01
-1.239000000000000057e+01 5.342000000000000171e+01 5.911999999999999922e+00 -9.207053999999999405e+00 -1.807254263772927749e-01
-1.238499999999999979e+01 6.356199999999999761e+01 9.754300000000000637e+00 5.182268999999999792e+00 -1.832527629779726053e-01
-1.237899999999999956e+01 8.121800000000000352e+01 2.863300000000000178e+00 1.012030999999999992e+01 -1.474341281525717862e-01
-1.237400000000000055e+01 5.117999999999999972e+01 -8.680400000000000338e-01 -5.179167999999999772e+00 -2.012696093413169351e-01
-1.237100000000000044e+01 6.690600000000000591e+01 -1.867800000000000082e+01 -1.305302000000000007e+01 -2.858224307062852132e-01
-1.237100000000000044e+01 6.784600000000000364e+01 -1.867800000000000082e+01 -3.827047000000000310e+01 -2.865563375666658752e-01
-1.236800000000000033e+01 5.506900000000000261e+01 -1.786400000000000077e+01 -5.780572000000000266e+00 -2.041555903720690124e-01
-1.236599999999999966e+01 7.184099999999999397e+01 -6.006199999999999761e+00 6.435781999999999670e+00 -1.300000000000000322e-01
-1.236500000000000021e+01 7.952899999999999636e+01 2.992799999999999905e+00 6.421364999999999768e+00 -1.702038369919415817e-01
-1.236500000000000021e+01 4.944899999999999807e+01 3.702999999999999847e+00 2.910233999999999988e+00 -1.805430915723863494e-01
-1.236500000000000021e+01 4.970300000000000296e+01 2.809299999999999908e+00 -7.104589999999999517e-01 -1.804774994929694010e-01
-1.236500000000000021e+01 4.970300000000000296e+01 4.596700000000000230e+00 1.195465999999999918e+00 -1.806043011688578115e-01
-1.236500000000000021e+01 5.071000000000000085e+01 1.802000000000000046e+00 -1.265725999999999907e+00 -1.803908656364895113e-01
-1.236500000000000021e+01 5.091899999999999693e+01 1.066000000000000059e+00 -1.595749000000000084e+00 -1.803430529184324449e-01
-1.236500000000000021e+01 5.114900000000000091e+01 5.402999999999999581e+00 1.775778999999999996e+01 -1.806600313414264414e-01
-1.235999999999999943e+01 6.858299999999999841e+01 5.460399999999999698e-01 -1.813117000000000090e+01 -1.847721340447732730e-01
-1.235500000000000043e+01 6.653000000000000114e+01 -5.649600000000000399e+00 -2.136535999999999902e+01 -2.080611886967088098e-01
-1.235100000000000087e+01 5.373100000000000165e+01 -1.741199999999999903e+01 -2.500271000000000132e+00 -2.041328858472132024e-01
-1.234999999999999964e+01 6.004899999999999949e+01 -2.324699999999999989e+01 -5.318515999999999799e+00 -1.822453934946518528e-01
-1.234099999999999930e+01 5.668299999999999983e+01 -9.352999999999999758e+00 -1.239817000000000036e+01 -1.300000000000000044e-01
-1.233600000000000030e+01 5.895300000000000296e+01 -8.330000000000000071e+00 -7.128192999999999557e+00 -2.049751146529448786e-01
-1.233500000000000085e+01 6.023899999999999721e+01 -1.651699999999999946e+01 5.911499000000000059e+00 -2.054522370507048112e-01
-1.233399999999999963e+01 7.400900000000000034e+01 -4.771799999999999931e-01 -2.277031000000000027e+00 -1.869185477149060692e-01
-1.231799999999999962e+01 5.033400000000000318e+01 -9.657000000000000028e+00 -7.267320999999999920e-01 -2.035549750586329032e-01
-1.231799999999999962e+01 5.056099999999999994e+01 -1.045599999999999952e+01 1.066140000000000088e+00 -2.041444938573032386e-01
-1.231600000000000072e+01 5.199300000000000210e+01 -1.574900000000000055e+01 -2.103254000000000179e+00 -2.045951600269873549e-01
-1.231400000000000006e+01 6.533299999999999841e+01 -4.925500000000000433e+00 -1.962987000000000037e+01 -2.065524695779535347e-01
-1.231300000000000061e+01 8.069199999999999307e+01 -1.696499999999999897e+00 -6.894055999999999962e+00 -7.875397234249779943e-02
-1.230799999999999983e+01 6.817499999999999716e+01 -1.791799999999999926e+01 -6.739418000000000575e+01 -2.870243398517231537e-01
-1.230199999999999960e+01 6.900700000000000500e+01 -1.553800000000000070e+00 -1.015321999999999925e+01 -2.067756486626085299e-01
-1.229400000000000048e+01 5.174699999999999989e+01 -1.467399999999999949e+01 -2.169137999999999789e+00 -2.050337291304784593e-01
-1.228800000000000026e+01 6.004899999999999949e+01 -2.010900000000000176e+01 -3.218872999999999962e+01 -2.038713483823665629e-01
-1.228800000000000026e+01 6.134199999999999875e+01 -2.242800000000000082e+01 -4.933761999999999759e+00 -1.824616829917586336e-01
-1.228800000000000026e+01 6.156900000000000261e+01 -2.162900000000000134e+01 -3.193384999999999962e+01 -1.825250667109013791e-01
-1.228599999999999959e+01 6.499500000000000455e+01 -3.460300000000000153e+00 -3.651688000000000045e+01 -2.052142428619689041e-01
-1.228400000000000070e+01 8.003000000000000114e+01 -7.846899999999999764e+00 -4.034990999999999772e+00 -1.156766999842368387e-01
-1.228200000000000003e+01 7.122899999999999920e+01 -1.550000000000000000e+01 -1.192441999999999958e+01 -2.089426666147978506e-01
-1.227800000000000047e+01 5.697399999999999665e+01 -8.105999999999999872e+00 -2.738897000000000137e+00 -2.043069935366485512e-01
-1.227200000000000024e+01 5.571999999999999886e+01 8.270300000000000651e+00 -1.725049999999999972e+00 -1.811920296394402274e-01
-1.226200000000000045e+01 6.331199999999999761e+01 -1.874500000000000099e+01 -1.192552999999999974e+00 -2.050508352439173176e-01
-1.225500000000000078e+01 6.563700000000000045e+01 -5.625499999999999723e+00 -1.990935999999999950e+01 -2.072857395926977486e-01
-1.225000000000000000e+01 6.094500000000000028e+01 1.095500000000000007e+01 4.276436999999999600e+00 -1.825730180119110868e-01
-1.225000000000000000e+01 6.847899999999999920e+01 -1.721799999999999997e+01 -3.978336999999999790e+01 -2.874377874328962745e-01
-1.224300000000000033e+01 7.951900000000000546e+01 -2.236800000000000122e+00 -2.638895999999999908e+00 -1.022110420836645356e-01
-1.223300000000000054e+01 6.813700000000000045e+01 7.006300000000000416e+00 -1.987143999999999977e+01 -1.864095860747001787e-01
-1.222799999999999976e+01 6.529900000000000659e+01 -2.760299999999999976e+00 -3.861702999999999975e+01 -2.048566097530890584e-01
-1.222799999999999976e+01 6.616400000000000148e+01 -2.760299999999999976e+00 -4.155631000000000341e+01 -2.054574574355869099e-01
-1.222700000000000031e+01 5.038300000000000267e+01 -2.272699999999999942e+00 -3.677736000000000161e+01 -2.016709652376134920e-01
-1.222600000000000087e+01 7.716100000000000136e+01 -1.049499999999999922e+01 -8.131313999999999709e+00 -2.078068681055249556e-01
-1.222600000000000087e+01 7.737099999999999511e+01 -9.758599999999999497e+00 -1.927170999999999967e+00 -2.082479023146737163e-01
-1.222600000000000087e+01 7.856100000000000705e+01 -8.942999999999999616e+00 -3.621384000000000269e-01 -1.962313911744367756e-01
-1.222400000000000020e+01 7.719400000000000261e+01 -1.100600000000000023e+01 -2.088519000000000148e+01 -2.070313169745336968e-01
-1.222300000000000075e+01 7.730500000000000682e+01 -1.274300000000000033e+01 -2.431437999999999988e+01 -2.036836860248361081e-01
-1.222300000000000075e+01 7.730500000000000682e+01 -1.180300000000000082e+01 -8.165421999999999514e+01 -2.054065086239951210e-01
-1.221299999999999919e+01 7.389799999999999613e+01 -4.607499999999999929e+00 6.783234999999999681e-01 -1.133209773060178671e-01
-1.221299999999999919e+01 7.389799999999999613e+01 -3.742199999999999971e+00 -4.593590999999999980e+00 -1.131061190278089407e-01
-1.220400000000000063e+01 5.878600000000000136e+01 1.001600000000000001e+01 7.584000000000000341e+01 -1.819117380245812710e-01
-1.218900000000000006e+01 6.883799999999999386e+01 6.320599999999999774e+00 -1.570520999999999923e+01 -1.865894947630226119e-01
-1.218900000000000006e+01 7.189499999999999602e+01 -1.469899999999999984e+01 5.371583000000000219e+00 -2.093832424126368663e-01
-1.218900000000000006e+01 7.308599999999999852e+01 -1.403500000000000014e+01 1.794893000000000072e+00 -2.094921408888486825e-01
-1.218599999999999994e+01 6.363300000000000267e+01 -1.808099999999999952e+01 1.019171000000000049e+01 -2.054193329927508915e-01
-1.218399999999999928e+01 6.873300000000000409e+01 3.755999999999999783e+00 -1.830043999999999826e+01 -1.864115812756480806e-01
-1.218200000000000038e+01 6.083299999999999841e+01 -1.610500000000000043e+01 1.031234999999999902e+00 -2.056261742393936665e-01
-1.218200000000000038e+01 5.121900000000000119e+01 6.266399999999999748e-01 -2.779945999999999806e+00 -2.009087919032212233e-01
-1.218200000000000038e+01 5.142799999999999727e+01 -1.093800000000000050e-01 -8.593863999999999947e+00 -2.011018477731065235e-01
-1.217999999999999972e+01 5.863000000000000256e+01 -1.703699999999999903e+01 9.258938000000000557e+00 -2.047507067819298032e-01
-1.217399999999999949e+01 5.745499999999999829e+01 9.592000000000000526e+00 -1.011935000000000029e+00 -1.816320175905107581e-01
-1.216699999999999982e+01 7.610399999999999920e+01 -1.367099999999999937e+01 -9.942952999999999264e+00 -2.062776583375608153e-01
-1.216399999999999970e+01 5.563499999999999801e+01 7.279700000000000060e+00 3.749779000000000195e+00 -1.810932545016358808e-01
-1.215700000000000003e+01 6.729300000000000637e+01 -5.638899999999999579e+00 -2.598189999999999955e+01 -1.300000000000000044e-01
-1.214400000000000013e+01 5.801899999999999835e+01 -8.217999999999999972e+00 -1.744739999999999824e+01 -2.046692452666377393e-01
-1.213899999999999935e+01 8.046299999999999386e+01 -5.956299999999999706e+00 -2.753616999999999848e+01 -1.012289636322826897e-01
-1.213599999999999923e+01 7.053700000000000614e+01 -5.439700000000000202e+00 4.502944000000000280e+00 -1.300000000000000322e-01
-1.213299999999999912e+01 6.224799999999999756e+01 1.169899999999999984e+01 5.902211000000000318e+00 -2.599080295065331336e-01
-1.213199999999999967e+01 5.594700000000000273e+01 -9.352999999999999758e+00 -1.527704999999999913e+01 -2.047109927123619555e-01
-1.213199999999999967e+01 5.741899999999999693e+01 -9.352999999999999758e+00 -1.549438999999999922e+01 -1.300000000000000044e-01
-1.212800000000000011e+01 6.414600000000000080e+01 -1.880399999999999849e+01 -6.560145999999999589e+00 -2.841196675814304795e-01
-1.212700000000000067e+01 5.968900000000000006e+01 -8.330000000000000071e+00 -1.178229999999999933e+01 -1.299999999999999767e-01
-1.211599999999999966e+01 5.524600000000000222e+01 6.466999999999999638e+00 3.348465000000000025e+00 -1.809788158481442366e-01
-1.210599999999999987e+01 5.136599999999999966e+01 -1.374900000000000055e+01 -3.908952999999999900e+00 -2.052754567061761681e-01
-1.210399999999999920e+01 5.703000000000000114e+01 9.221299999999999386e+00 -1.011935000000000029e+00 -1.815469044076296889e-01
-1.210299999999999976e+01 5.799900000000000233e+01 -2.130699999999999861e+01 -7.617620999999999754e+00 -1.817579384534096787e-01
-1.210200000000000031e+01 8.057299999999999329e+01 -6.907799999999999940e+00 -1.752119000000000071e+01 -1.171333587837552620e-01
-1.209999999999999964e+01 6.884999999999999432e+01 -5.417699999999999960e+00 -2.295834999999999937e+01 -1.300000000000000044e-01
-1.209800000000000075e+01 8.164199999999999591e+01 1.429499999999999937e-01 5.606702000000000297e+00 -1.964694140157108304e-01
-1.209699999999999953e+01 6.276100000000000279e+01 -1.579599999999999937e+01 1.127696000000000032e+00 -2.063024164793398896e-01
-1.209399999999999942e+01 5.394899999999999807e+01 5.744600000000000151e+00 -5.136339999999999684e+00 -1.808363296071109350e-01
-1.209299999999999997e+01 6.374499999999999744e+01 -1.651000000000000156e+01 1.083277999999999963e+00 -2.062680289122828525e-01
-1.208900000000000041e+01 6.362299999999999756e+01 1.077800000000000047e+01 2.568140999999999963e+01 -2.602211340149504504e-01
-1.208799999999999919e+01 5.580799999999999983e+01 -1.768499999999999872e+01 -1.497015000000000029e+01 -2.040795603600360497e-01
-1.208300000000000018e+01 4.936699999999999733e+01 -4.879800000000000360e+00 -2.236963999999999952e+00 -2.023178762890421312e-01
-1.208099999999999952e+01 7.464900000000000091e+01 2.827399999999999913e-01 6.131814000000000320e+00 -1.829788615857160794e-01
-1.207499999999999929e+01 4.962800000000000011e+01 -4.079100000000000392e+00 -3.003740000000000077e+00 -2.021360186200948927e-01
-1.207399999999999984e+01 5.625000000000000000e+01 -1.005300000000000082e+01 -1.666557999999999851e+01 -1.299999999999999767e-01
-1.207399999999999984e+01 5.625000000000000000e+01 -8.653000000000000469e+00 -1.326257000000000019e+01 -2.043384915301603988e-01
-1.207399999999999984e+01 5.711599999999999966e+01 -1.005300000000000082e+01 -1.709404999999999930e+01 -1.300000000000000044e-01
-1.207000000000000028e+01 7.002100000000000080e+01 -1.649599999999999866e+01 -4.240425000000000111e+00 -2.085836267595352067e-01
-1.206900000000000084e+01 5.623799999999999955e+01 -8.105999999999999872e+00 -1.206321999999999939e+01 -2.041625521450259328e-01
-1.206900000000000084e+01 5.852000000000000313e+01 -9.029999999999999361e+00 -1.495411999999999964e+01 -1.300000000000000044e-01
-1.206900000000000084e+01 5.938600000000000279e+01 -9.029999999999999361e+00 -1.224071999999999960e+01 -1.300000000000000044e-01
-1.206900000000000084e+01 5.938600000000000279e+01 -7.629999999999999893e+00 -1.339260999999999946e+01 -2.049179152736694820e-01
-1.206300000000000061e+01 8.188899999999999579e+01 9.757700000000000262e-01 3.782461000000000073e+00 -1.908716250209766263e-01
-1.205899999999999928e+01 7.037099999999999511e+01 -9.449400000000000022e-01 -4.564441999999999666e+00 -1.869298599523655235e-01
-1.205400000000000027e+01 8.174299999999999500e+01 2.013300000000000090e+00 1.637612000000000023e+01 -1.760919057445248515e-01
-1.205100000000000016e+01 6.281199999999999761e+01 -1.955399999999999849e+01 -2.522654000000000174e+00 -2.833946566499781494e-01
-1.204899999999999949e+01 7.443800000000000239e+01 -1.397499999999999964e+01 -1.518837999999999910e+00 -2.088009802915037072e-01
-1.204899999999999949e+01 7.572100000000000364e+01 1.366200000000000081e+00 5.839265000000000150e+00 -1.780657468167481106e-01
-1.204800000000000004e+01 5.443099999999999739e+01 -1.746999999999999886e+01 -3.797436999999999951e+00 -2.039818828848955490e-01
-1.204499999999999993e+01 6.470199999999999818e+01 7.331299999999999706e+00 6.463650000000000340e+00 -1.836221180532388586e-01
-1.204499999999999993e+01 7.296999999999999886e+01 -2.316399999999999793e+00 -3.163536000000000126e+00 -1.124017324702211856e-01
-1.204299999999999926e+01 7.848999999999999488e+01 2.725299999999999834e+00 9.990904999999999925e-01 -1.666173448706673166e-01
-1.204199999999999982e+01 4.993399999999999750e+01 -3.214900000000000091e+00 -2.399014000000000202e+00 -2.019370807751802166e-01
-1.203800000000000026e+01 6.306400000000000006e+01 -1.649599999999999866e+01 1.732990000000000030e+00 -2.059465488793273680e-01
-1.203500000000000014e+01 6.251299999999999812e+01 -1.874500000000000099e+01 -7.521552000000000238e-01 -2.045730799958593027e-01
-1.203500000000000014e+01 6.404800000000000182e+01 -1.721000000000000085e+01 3.470657999999999799e+00 -2.058672375233617236e-01
-1.203400000000000070e+01 6.857399999999999807e+01 -2.253800000000000026e+00 -2.184859000000000151e+01 -2.072527208089482431e-01
-1.203299999999999947e+01 7.253199999999999648e+01 -5.522000000000000242e+00 1.405893999999999977e+00 -1.129635461893007398e-01
-1.203299999999999947e+01 6.722700000000000387e+01 -3.193200000000000038e+00 -3.285699000000000325e+01 -2.068404275220188937e-01
-1.202999999999999936e+01 5.846500000000000341e+01 -2.046399999999999864e+01 -6.917589000000000432e+00 -2.033694745732160525e-01
-1.202599999999999980e+01 5.928099999999999881e+01 -2.004299999999999926e+01 -7.995138999999999996e+00 -2.035698008255700520e-01
-1.202500000000000036e+01 6.906100000000000705e+01 -2.391399999999999915e-01 -2.220358999999999838e+01 -1.854678795234209754e-01
-1.201900000000000013e+01 6.424699999999999989e+01 -4.614200000000000301e+00 -2.361673000000000044e+01 -2.056825562721920631e-01
-1.201099999999999923e+01 5.654099999999999682e+01 -7.405999999999999694e+00 -1.133135000000000048e+01 -2.040130503740371082e-01
-1.201099999999999923e+01 5.740599999999999881e+01 -8.805999999999999162e+00 -1.411973000000000056e+01 -1.300000000000000322e-01
-1.200999999999999979e+01 8.036799999999999500e+01 2.934099999999999930e+00 2.219783000000000062e+00 -1.341340017905373050e-01
-1.200300000000000011e+01 6.303199999999999648e+01 7.374100000000000321e+00 1.015652000000000044e+01 -1.827952068511674855e-01
-1.200300000000000011e+01 6.303199999999999648e+01 8.774100000000000676e+00 1.648986999999999981e+01 -1.830781733458157479e-01
-1.199200000000000088e+01 8.141400000000000148e+01 -7.922599999999999643e-01 1.450618000000000052e+01 -7.927477625032411379e-02
-1.199099999999999966e+01 6.395300000000000296e+01 8.816200000000000259e+00 1.261397000000000013e+01 -1.835401533034132504e-01
-1.198799999999999955e+01 6.171399999999999864e+01 -1.592099999999999937e+01 1.316451000000000038e+00 -2.057443447716274798e-01
-1.198700000000000010e+01 5.757099999999999795e+01 -7.307400000000000340e+00 -1.615556000000000125e+01 -2.042453938456078588e-01
-1.198700000000000010e+01 6.500600000000000023e+01 8.031299999999999883e+00 5.572178000000000075e+00 -1.840068549958408239e-01
-1.198099999999999987e+01 5.749799999999999756e+01 -1.747100000000000009e+01 -9.506505999999999901e+00 -2.042521066731422807e-01
-1.197700000000000031e+01 7.082200000000000273e+01 -1.577899999999999991e+01 -2.436685999999999908e+00 -2.089769434759030098e-01
-1.197499999999999964e+01 6.647400000000000375e+01 -1.818700000000000117e+01 -4.620674000000000170e+00 -2.856702478832311987e-01
-1.197199999999999953e+01 6.284199999999999875e+01 -1.798499999999999943e+01 1.051449999999999996e+01 -2.049670265122172930e-01
-1.197199999999999953e+01 6.378199999999999648e+01 -1.950499999999999901e+01 -3.254677000000000042e+00 -2.838554151162905326e-01
-1.197100000000000009e+01 6.159499999999999886e+01 -2.007999999999999829e+01 -1.175425000000000075e+01 -2.828446349367616519e-01
-1.196100000000000030e+01 5.851899999999999835e+01 -2.403999999999999915e+01 -3.576395999999999908e+00 -1.817429395268363446e-01
-1.195800000000000018e+01 7.268300000000000693e+01 -1.335499999999999909e+00 3.940224999999999866e+00 -1.904571141487383934e-01
-1.194899999999999984e+01 5.485900000000000176e+01 5.722699999999999676e+00 -2.607993000000000006e+00 -1.809341945722185430e-01
-1.194699999999999918e+01 6.910899999999999466e+01 -1.657199999999999918e+01 -1.181644999999999968e+01 -2.882739900743884198e-01
-1.194500000000000028e+01 6.272899999999999920e+01 8.074099999999999611e+00 1.261674000000000007e+01 -1.828495144501647851e-01
-1.194500000000000028e+01 6.428000000000000114e+01 9.625000000000000000e+00 2.075677999999999912e+01 -2.601762567444925733e-01
-1.193699999999999939e+01 7.932099999999999795e+01 -4.815299999999999692e+00 -1.705752000000000024e+01 -1.029355863573986063e-01
-1.193599999999999994e+01 6.627899999999999636e+01 7.834999999999999964e+00 -1.379249000000000080e+01 -2.606349370850949421e-01
-1.193599999999999994e+01 6.781399999999999295e+01 7.398900000000000254e+00 -1.054285999999999923e+01 -2.612927065537865579e-01
-1.192200000000000060e+01 5.728900000000000148e+01 -2.321699999999999875e+01 -3.861791999999999891e+00 -1.815792781560760516e-01
-1.192200000000000060e+01 5.728900000000000148e+01 -2.227700000000000102e+01 -4.395245000000000068e+00 -1.815678988951179018e-01
-1.191999999999999993e+01 6.769899999999999807e+01 2.206599999999999895e+00 -3.004641000000000162e+01 -1.848899991417695954e-01
-1.191999999999999993e+01 6.790800000000000125e+01 1.470599999999999907e+00 -8.929202000000000083e+00 -1.848712323361067500e-01
-1.191999999999999993e+01 6.790800000000000125e+01 2.942600000000000104e+00 -4.972954000000000008e+01 -1.853686647018490397e-01
-1.191900000000000048e+01 4.947500000000000142e+01 -7.408999999999999808e+00 1.377156999999999965e+00 -2.029494589838577168e-01
-1.189600000000000080e+01 6.931199999999999761e+01 4.466099999999999959e+00 -1.714450000000000074e+01 -1.859115747482041614e-01
-1.189600000000000080e+01 6.931199999999999761e+01 5.553899999999999615e+00 -4.813759999999999906e+01 -1.854206265923094565e-01
-1.188299999999999912e+01 4.911599999999999966e+01 -5.823999999999999844e+00 -1.258399999999999963e+00 -2.025589067698004564e-01
-1.188299999999999912e+01 4.923400000000000176e+01 -6.671100000000000030e+00 -1.590260000000000007e+00 -2.027642234177197689e-01
-1.188299999999999912e+01 6.933700000000000330e+01 -1.533099999999999907e+00 -1.939571000000000112e+01 -2.073384913230663373e-01
-1.188100000000000023e+01 6.477200000000000557e+01 -5.394000000000000128e+00 -2.358483999999999980e+01 -2.065784459439109766e-01
-1.187599999999999945e+01 7.103600000000000136e+01 -9.619999999999999662e-01 -1.517033999999999994e+00 -1.868039692155906983e-01
-1.186899999999999977e+01 8.111299999999999955e+01 -1.369599999999999929e+00 9.312896999999999537e+00 -7.887710343277974656e-02
-1.186800000000000033e+01 5.842900000000000205e+01 -7.363400000000000389e+00 -1.904816999999999894e+01 -2.045405579115356642e-01
-1.186500000000000021e+01 6.814300000000000068e+01 -1.701300000000000168e+01 -2.684132999999999925e+01 -2.872574896718642079e-01
-1.185899999999999999e+01 6.606900000000000261e+01 -6.116399999999999615e+00 -2.363605000000000089e+01 -1.300000000000000044e-01
-1.185599999999999987e+01 5.946399999999999864e+01 -1.681299999999999883e+01 6.096218000000000359e+00 -2.046726282659938057e-01
-1.185399999999999920e+01 6.799299999999999500e+01 -5.580599999999999561e+00 -2.448591000000000051e+01 -1.299999999999999767e-01
-1.185100000000000087e+01 5.309199999999999875e+01 5.430200000000000138e+00 -2.260794999999999888e+01 -1.808658056248140800e-01
-1.184399999999999942e+01 5.031099999999999994e+01 -9.006800000000000139e+00 -1.134292000000000078e+00 -2.034146513982140192e-01
-1.183999999999999986e+01 5.029899999999999949e+01 2.327700000000000102e+00 6.724016999999999911e-01 -1.805957831495748345e-01
-1.183999999999999986e+01 5.029899999999999949e+01 5.078299999999999592e+00 4.683292999999999928e+00 -1.807954306703175029e-01
-1.183900000000000041e+01 5.123799999999999955e+01 -1.294999999999999929e+01 -2.507223999999999897e+00 -1.300000000000000044e-01
