5.974699999999999989e+01 7.626800000000000068e+01 4.081700000000000017e+01 2.403500999999999976e+01 9.906126457442780697e-02
5.974799999999999756e+01 9.917000000000000171e+01 -4.360999999999999766e+00 -6.581445000000000212e-01 -3.040175897464562071e-01
5.974799999999999756e+01 1.002199999999999989e+02 -4.360999999999999766e+00 3.463125999999999705e-02 -3.039319659596281809e-01
5.974900000000000233e+01 8.175400000000000489e+01 2.105900000000000105e+01 6.095362999999999865e+00 -4.052219445466326980e-02
5.975600000000000023e+01 9.923300000000000409e+01 3.842699999999999783e+00 1.194492000000000109e+00 -3.042724181574456011e-01
5.975600000000000023e+01 7.096500000000000341e+01 3.850699999999999790e+01 -6.405592000000000397e+00 -2.532065490174930170e-02
5.975699999999999790e+01 7.645199999999999818e+01 4.028900000000000148e+01 3.903108999999999895e+01 9.746060202419946916e-02
5.975900000000000034e+01 9.120499999999999829e+01 6.267000000000000348e+00 1.016550000000000065e+00 -5.242407882821973480e-02
5.975900000000000034e+01 9.280299999999999727e+01 6.267000000000000348e+00 -7.052717999999999599e+00 -3.050048172493412535e-01
5.975900000000000034e+01 9.691100000000000136e+01 2.905300000000000082e+01 1.763695999999999842e+01 -2.993819470341014255e-01
5.975999999999999801e+01 1.047000000000000028e+02 5.560699999999999754e+00 7.682984999999999953e-01 -3.035998090837333518e-01
5.975999999999999801e+01 7.112099999999999511e+01 3.799799999999999756e+01 -9.130387999999999948e+00 -2.534067805768212486e-02
5.976200000000000045e+01 9.647599999999999909e+01 -3.135899999999999910e+00 -1.572017999999999915e+01 -3.042889460507017807e-01
5.976400000000000290e+01 9.240000000000000568e+01 5.401799999999999713e+00 5.514721999999999680e-01 -3.050170972999565744e-01
5.976700000000000301e+01 9.550600000000000023e+01 3.498299999999999965e+00 -5.880258999999999903e-01 -3.046672364486952000e-01
5.977199999999999847e+01 9.312900000000000489e+01 9.870599999999999596e+00 4.449456999999999773e+00 -3.049915284422951567e-01
5.977300000000000324e+01 7.902200000000000557e+01 1.667399999999999949e+01 5.846931999999999796e+00 -4.673885341596377418e-02
5.977600000000000335e+01 7.676500000000000057e+01 3.853999999999999915e+01 1.069740000000000002e+01 -1.147197487652944214e-01
5.978000000000000114e+01 9.989000000000000057e+01 -4.978500000000000286e-02 -2.546687999999999974e+01 -3.041179823880066357e-01
5.978199999999999648e+01 9.504999999999999716e+01 2.921799999999999997e+01 2.881781000000000148e+01 -2.990529537767064316e-01
5.978399999999999892e+01 1.039500000000000028e+02 2.153600000000000136e+01 1.920940999999999832e+01 -3.021522757005944415e-01
5.978499999999999659e+01 9.833299999999999841e+01 3.771999999999999797e+00 1.303306999999999993e+00 -3.043769174963295021e-01
5.978900000000000148e+01 6.818399999999999750e+01 3.225200000000000244e+01 7.710441000000000100e-01 -2.017803675006699105e-01
5.978900000000000148e+01 6.818399999999999750e+01 3.319200000000000017e+01 -2.157995999999999803e+00 -2.011252088526186144e-01
5.978999999999999915e+01 6.890399999999999636e+01 1.753399999999999892e+01 1.780777000000000054e+00 -4.745719393735400166e-02
5.979099999999999682e+01 1.042800000000000011e+02 2.082999999999999829e+01 5.410269999999999690e+00 -3.022381155070708592e-01
5.979299999999999926e+01 7.658100000000000307e+01 3.928000000000000114e+01 3.345467000000000013e+01 -1.129560446868797252e-01
5.979599999999999937e+01 7.905500000000000682e+01 3.716199999999999903e+01 8.533438999999999552e+00 -1.220145924287610872e-01
5.980100000000000193e+01 1.101899999999999977e+02 9.657299999999999329e+00 4.604756000000000071e+00 -3.027489953658398791e-01
5.980100000000000193e+01 1.104399999999999977e+02 1.055100000000000016e+01 1.004151000000000060e+01 -3.026611858925983833e-01
5.980299999999999727e+01 6.955400000000000205e+01 3.874199999999999733e+01 4.879223999999999783e+00 -2.665825903449941386e-02
5.982200000000000273e+01 9.153400000000000603e+01 5.506999999999999673e+00 7.564904000000000073e-01 -3.051015478196884567e-01
5.982200000000000273e+01 9.153400000000000603e+01 7.027000000000000135e+00 -4.223174000000000095e-01 -5.161432155139970834e-02
5.982200000000000273e+01 9.247400000000000375e+01 7.027000000000000135e+00 -4.452373999999999832e+00 -3.050625012378789802e-01
5.982500000000000284e+01 6.787000000000000455e+01 2.843700000000000117e+01 -9.757978999999999958e-01 -2.037211730455770198e-01
5.982600000000000051e+01 1.055400000000000063e+02 1.986199999999999832e+01 -2.593185000000000073e+01 -3.022454965789086456e-01
5.982600000000000051e+01 9.731100000000000705e+01 7.066799999999999748e+00 2.691269999999999829e+00 -3.045305270882391335e-01
5.982600000000000051e+01 9.731100000000000705e+01 7.932000000000000384e+00 1.411312000000000033e+01 -3.045244430986818185e-01
5.982900000000000063e+01 7.940099999999999625e+01 1.580199999999999960e+01 3.628626000000000129e+00 -4.672673146092314045e-02
5.982900000000000063e+01 7.940099999999999625e+01 1.754599999999999937e+01 7.005435000000000301e+00 -4.587304989710688785e-02
5.983200000000000074e+01 9.460500000000000398e+01 5.503099999999999881e+00 -6.395623000000000280e-01 -3.048232849344719719e-01
5.983500000000000085e+01 9.859900000000000375e+01 1.491999999999999993e+00 2.567067999999999905e+00 -3.042996064926709598e-01
5.983599999999999852e+01 8.491299999999999670e+01 1.030000000000000071e+01 3.999525000000000219e+00 -4.332670800536319450e-02
5.983599999999999852e+01 9.150300000000000011e+01 1.261899999999999977e+01 6.827900000000000080e-01 -3.047439274012765376e-01
5.984199999999999875e+01 9.519599999999999795e+01 2.552199999999999847e+01 2.536006000000000071e+01 -3.013283092278496444e-01
5.984199999999999875e+01 8.782200000000000273e+01 1.154400000000000048e+01 3.924730999999999970e+00 -4.024392639761308760e-02
5.984300000000000352e+01 9.802899999999999636e+01 3.072000000000000064e+00 1.688723999999999892e+00 -3.044027322849711115e-01
5.984400000000000119e+01 8.634600000000000364e+01 1.105599999999999916e+01 8.042479999999999407e+00 -4.173677541300281624e-02
5.984499999999999886e+01 8.371200000000000330e+01 1.293599999999999994e+01 5.873058999999999585e+00 -4.333226412548589479e-02
5.984899999999999665e+01 6.901099999999999568e+01 3.477300000000000324e+01 5.054698000000000135e+00 -2.138584347031609600e-01
5.984899999999999665e+01 9.804999999999999716e+01 2.511100000000000065e+01 -3.696808000000000050e+01 -3.017894138850508723e-01
5.986099999999999710e+01 6.925100000000000477e+01 3.804200000000000159e+01 1.483643000000000001e+01 -2.709477085068974153e-02
5.986200000000000188e+01 9.617900000000000205e+01 6.308500000000000441e+00 -9.424699000000000382e+00 -3.046690364939977913e-01
5.986299999999999955e+01 7.884300000000000352e+01 1.586299999999999955e+01 3.042691000000000034e+00 -4.735754198031205675e-02
5.986299999999999955e+01 7.884300000000000352e+01 1.749299999999999855e+01 8.647857999999999379e+00 -4.659516206637100144e-02
5.986399999999999721e+01 8.483799999999999386e+01 1.644399999999999906e+01 -5.589324000000000403e+00 -4.018942223838098404e-02
5.986599999999999966e+01 9.512600000000000477e+01 -2.620200000000000085e+00 -6.713174999999999670e+00 -3.044271819431035864e-01
5.986599999999999966e+01 8.352200000000000557e+01 1.992000000000000171e+01 5.486248999999999931e+00 -3.920873186568758773e-02
5.987100000000000222e+01 9.794400000000000261e+01 -3.371500000000000163e+00 -2.682024999999999881e+00 -3.041713888699942303e-01
5.987199999999999989e+01 8.469100000000000250e+01 1.738800000000000168e+01 2.739231000000000193e+00 -3.971418455006205106e-02
5.987199999999999989e+01 9.560599999999999454e+01 9.325300000000000367e+00 2.881317999999999824e+00 -3.047275831177961303e-01
5.987400000000000233e+01 7.011799999999999500e+01 3.850699999999999790e+01 -2.257340999999999820e+00 -2.609000691561924601e-02
5.988000000000000256e+01 8.353799999999999670e+01 1.122100000000000009e+01 3.697689000000000004e+00 -4.424116483287263146e-02
5.988000000000000256e+01 8.353799999999999670e+01 1.227100000000000080e+01 4.248992999999999576e+00 -4.381184658038463076e-02
5.988100000000000023e+01 7.544599999999999795e+01 1.830699999999999861e+01 -1.132023999999999919e+00 -1.881718644783813774e-02
5.988100000000000023e+01 9.695300000000000296e+01 8.530699999999999505e+00 7.794040999999999997e+00 -3.045707472926074688e-01
5.988900000000000290e+01 9.437300000000000466e+01 6.317999999999999616e+00 2.984182000000000112e+00 -3.048730899808160255e-01
5.989300000000000068e+01 9.451800000000000068e+01 4.727999999999999758e+00 -3.184034000000000031e-01 -3.048210601520126573e-01
5.989300000000000068e+01 9.829600000000000648e+01 2.192000000000000171e+00 4.485759999999999970e+00 -3.043573037400688630e-01
5.989500000000000313e+01 7.165200000000000102e+01 8.856299999999999173e+00 2.389563000000000059e+01 -1.126108436992595829e-01
5.989600000000000080e+01 1.057099999999999937e+02 7.407499999999999751e+00 4.678279999999999994e+00 -3.034280112416164465e-01
5.990200000000000102e+01 7.911299999999999955e+01 1.815700000000000003e+01 7.181879000000000346e+00 -4.592514576495818762e-02
5.990200000000000102e+01 8.406900000000000261e+01 1.373900000000000077e+01 5.341226999999999947e+00 -4.258620656442369673e-02
5.990400000000000347e+01 7.901600000000000534e+01 1.493299999999999983e+01 3.357120999999999800e+00 -4.755633207445188193e-02
5.990699999999999648e+01 7.714199999999999591e+01 1.597799999999999976e+01 1.582715000000000094e+00 -4.925174866168646748e-02
5.990699999999999648e+01 7.714199999999999591e+01 1.737800000000000011e+01 2.183088999999999835e+00 -1.938895878696414790e-02
5.990699999999999648e+01 8.050100000000000477e+01 3.626500000000000057e+01 1.503290999999999933e+01 -1.258034277755220587e-01
5.990699999999999648e+01 8.084600000000000364e+01 3.548199999999999932e+01 5.570981999999999879e+00 -1.915863321852525059e-01
5.990899999999999892e+01 8.076300000000000523e+01 1.667399999999999949e+01 5.231927999999999912e+00 -4.473486171560649843e-02
5.991299999999999670e+01 7.733599999999999852e+01 3.737100000000000222e+01 6.440057999999999616e+00 -1.181367865207562512e-01
5.992000000000000171e+01 1.049200000000000017e+02 2.395299999999999940e+01 2.184133000000000102e+00 -3.015916495542981246e-01
5.992300000000000182e+01 8.508799999999999386e+01 1.567200000000000060e+01 -2.140988000000000058e-01 -4.042170216780201913e-02
5.992999999999999972e+01 1.099099999999999966e+02 1.450999999999999979e+01 -4.572350999999999743e+01 -3.023981405692178770e-01
5.993200000000000216e+01 6.888200000000000500e+01 3.719200000000000017e+01 3.859548000000000201e+01 -3.055152553392480597e-01
5.993299999999999983e+01 9.327100000000000080e+01 5.508099999999999774e+00 7.736132000000000009e-01 -3.049707866734384654e-01
5.993299999999999983e+01 9.327100000000000080e+01 7.025900000000000034e+00 1.831097999999999892e-01 -3.050058052650300722e-01
5.993399999999999750e+01 7.944499999999999318e+01 2.060800000000000054e+01 1.389024999999999999e+01 -1.471962856003659545e-02
5.993399999999999750e+01 1.087199999999999989e+02 1.532099999999999973e+01 -1.494344999999999979e-01 -3.024575345660280856e-01
5.993599999999999994e+01 1.078400000000000034e+02 1.745599999999999952e+01 2.641460000000000008e+01 -3.023129003613654886e-01
5.993900000000000006e+01 6.817499999999999716e+01 2.385099999999999909e+01 -4.438496999999999915e+00 -2.003555817097332492e-01
5.993900000000000006e+01 9.538700000000000045e+01 -4.945899999999999741e-01 -1.179869000000000057e+01 -3.045291340763599530e-01
5.993999999999999773e+01 9.596200000000000330e+01 2.911199999999999832e+01 4.289070999999999856e+01 -2.992406582103785406e-01
5.995000000000000284e+01 8.904699999999999704e+01 1.266099999999999959e+01 1.257618000000000080e+01 -3.863050859619161781e-02
5.995000000000000284e+01 8.991299999999999670e+01 1.266099999999999959e+01 -2.719843000000000122e-01 -3.045788250285191845e-01
5.996399999999999864e+01 1.008900000000000006e+02 4.117899999999999672e+00 -1.048280999999999935e-01 -3.041017679402454599e-01
5.996500000000000341e+01 7.744499999999999318e+01 1.667800000000000082e+01 3.372087000000000057e+00 -4.868393190951329080e-02
5.996500000000000341e+01 7.004500000000000171e+01 8.929999999999999716e+00 3.884586000000000094e+00 -1.253743372460334737e-01
5.996500000000000341e+01 7.004500000000000171e+01 1.143800000000000061e+01 1.129936000000000007e+01 -1.135847625789186133e-01
5.996500000000000341e+01 7.159499999999999886e+01 1.143800000000000061e+01 9.813924000000000092e+00 -1.144101867626840380e-01
5.996600000000000108e+01 6.810899999999999466e+01 2.885600000000000165e+01 -1.274372999999999934e+01 -2.036639853831578306e-01
5.996800000000000352e+01 9.353900000000000148e+01 6.267000000000000348e+00 1.426633000000000040e+00 -3.049705089335880137e-01
5.996900000000000119e+01 7.038500000000000512e+01 3.799799999999999756e+01 -1.207727000000000039e+01 -2.592808587569321935e-02
5.996900000000000119e+01 7.185699999999999932e+01 3.799799999999999756e+01 -3.515865999999999936e+00 -2.469812551455741884e-02
5.997299999999999898e+01 6.917300000000000182e+01 3.636399999999999721e+01 1.608286999999999978e+01 -3.065813272129414013e-01
5.997999999999999687e+01 8.039400000000000546e+01 1.582399999999999984e+01 7.687567999999999735e+00 -4.563682624190071313e-02
5.997999999999999687e+01 8.039400000000000546e+01 1.752400000000000091e+01 1.252191999999999972e+01 -4.473343309591439054e-02
5.997999999999999687e+01 1.002699999999999960e+02 2.433800000000000097e+01 1.579639999999999933e+00 -3.020133578142401021e-01
5.997999999999999687e+01 1.014599999999999937e+02 2.500199999999999889e+01 1.261754999999999960e+00 -3.017276519839710014e-01
5.999199999999999733e+01 7.914199999999999591e+01 1.990800000000000125e+01 4.561912000000000234e+01 -4.484437566537736314e-02
5.999699999999999989e+01 9.573000000000000398e+01 2.829700000000000060e+01 9.127375999999999934e+00 -2.997459016415904842e-01
5.999699999999999989e+01 9.619400000000000261e+01 2.992699999999999960e+01 1.678572000000000131e+01 -2.987479323192742120e-01
6.000900000000000034e+01 7.279999999999999716e+01 1.945799999999999841e+01 -2.896055000000000046e+00 -4.589914190078656780e-02
6.000900000000000034e+01 7.399099999999999966e+01 1.879400000000000048e+01 -1.813542999999999905e+00 -1.874618512770615669e-02
6.001200000000000045e+01 1.044300000000000068e+02 4.158800000000000274e+00 2.428615000000000190e+00 -3.036745037488979282e-01
6.001800000000000068e+01 7.730500000000000682e+01 1.329800000000000004e+01 -3.056252999999999886e+00 -4.992136342230973911e-02
6.002300000000000324e+01 6.857999999999999829e+01 3.142200000000000060e+01 7.649831999999999743e-01 -2.024392306720810830e-01
6.002600000000000335e+01 1.050799999999999983e+02 2.486499999999999844e+01 -5.822752000000000372e+00 -3.013976859461587332e-01
6.002799999999999869e+01 7.068800000000000239e+01 3.729800000000000182e+01 1.290099000000000107e+00 -3.040451500894321146e-01
6.002799999999999869e+01 7.155400000000000205e+01 3.729800000000000182e+01 1.687710000000000043e+00 -3.033464712335842139e-01
6.002900000000000347e+01 7.240300000000000580e+01 3.955599999999999739e+01 6.325682999999999723e+00 -2.370914754472696132e-02
6.003499999999999659e+01 9.593899999999999295e+01 1.933000000000000052e+00 -3.970615000000000117e-01 -3.046029219747761196e-01
6.003499999999999659e+01 9.593899999999999295e+01 2.798299999999999788e+00 -4.640022999999999787e-01 -3.046359294692856379e-01
6.003600000000000136e+01 9.581100000000000705e+01 3.103000000000000114e+01 8.972673000000000343e+00 -3.634508953722629387e-01
6.003600000000000136e+01 9.581100000000000705e+01 3.198799999999999955e+01 1.990728999999999971e+00 -3.635669185290949512e-01
6.003600000000000136e+01 9.831900000000000261e+01 3.103000000000000114e+01 1.399402000000000079e+01 -3.633668649573066345e-01
6.003600000000000136e+01 9.831900000000000261e+01 3.198799999999999955e+01 1.068755999999999950e+01 -3.634714490446598889e-01
6.003699999999999903e+01 7.826699999999999591e+01 3.734100000000000108e+01 8.858990000000000364e+00 -1.204346372712864488e-01
6.003799999999999670e+01 9.321500000000000341e+01 9.323999999999999844e+00 1.028414000000000073e+01 -3.050419273450982738e-01
6.004099999999999682e+01 9.386899999999999977e+01 5.503099999999999881e+00 3.371016000000000012e+00 -3.049307652610674380e-01
6.004699999999999704e+01 1.084200000000000017e+02 1.619099999999999895e+01 4.697106000000000137e+01 -3.024014315451754586e-01
6.004699999999999704e+01 9.945699999999999363e+01 6.502099999999999547e-01 -3.806533999999999751e-01 -3.042076202346084557e-01
6.005100000000000193e+01 9.445999999999999375e+01 2.552199999999999847e+01 -2.918679000000000023e+00 -3.012198611807637150e-01
6.005700000000000216e+01 7.607500000000000284e+01 1.412100000000000044e+01 1.809266999999999959e+00 -1.325909258059024820e-01
6.005700000000000216e+01 7.607500000000000284e+01 1.506099999999999994e+01 5.226212000000000080e-01 -1.324955488439454876e-01
6.005700000000000216e+01 7.853499999999999659e+01 1.412100000000000044e+01 -1.053392000000000106e+00 -4.845028841342725878e-02
6.005799999999999983e+01 7.115000000000000568e+01 1.892999999999999972e+01 -5.673628000000000005e-02 -4.640964926663517648e-02
6.006000000000000227e+01 8.912900000000000489e+01 3.521699999999999875e+01 5.156333000000000055e+00 -1.703683982936837760e-01
6.006099999999999994e+01 8.208599999999999852e+01 3.482200000000000273e+01 1.250651000000000046e+01 -1.764327881207475857e-01
6.006300000000000239e+01 8.040300000000000580e+01 2.068799999999999883e+01 1.566977999999999938e+01 -4.263239183962318213e-02
6.006300000000000239e+01 9.390500000000000114e+01 7.190299999999999692e+00 8.184594999999999843e+00 -3.049656512638129202e-01
6.007099999999999795e+01 9.312099999999999511e+01 2.837399999999999878e+01 -2.795347000000000026e+00 -3.633843987067780223e-01
6.007600000000000051e+01 9.062900000000000489e+01 1.271000000000000085e+01 -8.068457999999999686e+00 -3.047149015066758504e-01
6.007600000000000051e+01 9.706499999999999773e+01 3.282800000000000296e+01 1.872948999999999842e+01 -3.636138592703777594e-01
6.007999999999999829e+01 6.855500000000000682e+01 3.401200000000000045e+01 7.043296999999999475e-01 -2.006164171991467737e-01
6.008200000000000074e+01 1.048100000000000023e+02 2.309799999999999898e+01 7.719599999999999795e+00 -3.017702763305864511e-01
6.008599999999999852e+01 9.881900000000000261e+01 3.051400000000000112e+00 2.239658000000000015e+01 -3.043428811792016075e-01
6.009000000000000341e+01 9.373000000000000398e+01 8.635899999999999466e+00 2.145591999999999899e+01 -3.049982138583077207e-01
6.009499999999999886e+01 6.702800000000000580e+01 2.569900000000000162e+01 3.094235999999999986e+00 -2.030266148764973411e-01
6.009499999999999886e+01 6.728199999999999648e+01 2.480499999999999972e+01 2.425739000000000090e+00 -2.020026354872184737e-01
6.010300000000000153e+01 1.079200000000000017e+02 7.605000000000000426e+00 2.997381999999999991e+00 -3.031517084174047971e-01
6.010300000000000153e+01 1.093599999999999994e+02 8.411300000000000665e+00 1.228956999999999944e+01 -3.029346089137468501e-01
6.010399999999999920e+01 9.193600000000000705e+01 1.191900000000000048e+01 5.828746000000000205e-01 -3.049909694322125997e-01
6.010900000000000176e+01 9.476399999999999579e+01 2.482199999999999918e+01 -1.278215000000000101e+00 -3.015940956550906549e-01
6.010900000000000176e+01 9.562900000000000489e+01 2.482199999999999918e+01 9.127515999999999963e+00 -3.017567661108532251e-01
6.011800000000000210e+01 8.399399999999999977e+01 1.911700000000000088e+01 4.630353000000000385e+00 -3.924994938781296849e-02
6.011899999999999977e+01 9.887300000000000466e+01 2.165500000000000203e+00 1.123756999999999984e+01 -3.043194104878405581e-01
6.012500000000000000e+01 8.592199999999999704e+01 3.656900000000000261e+01 8.624434000000000822e+00 -1.768211773228077210e-01
6.012899999999999778e+01 8.373999999999999488e+01 3.593399999999999750e+01 -1.289724999999999966e+01 -1.776994418936849451e-01
6.012899999999999778e+01 8.503300000000000125e+01 3.665500000000000114e+01 -3.993576000000000192e+01 -1.921071065995731686e-01
6.013000000000000256e+01 1.005999999999999943e+02 -1.682500000000000107e+00 -5.522282999999999831e+00 -3.040266258130301380e-01
6.013000000000000256e+01 1.005999999999999943e+02 -8.172599999999999865e-01 -8.836209999999999454e+00 -3.040546216162082760e-01
6.013000000000000256e+01 1.005999999999999943e+02 -1.647399999999999975e-01 -7.758694000000000202e+00 -3.040740593470999675e-01
6.013000000000000256e+01 1.050499999999999972e+02 6.618000000000000327e+00 6.715812999999999811e+00 -3.035581875808935348e-01
6.013400000000000034e+01 9.206000000000000227e+01 1.098799999999999955e+01 4.028349000000000402e+00 -3.051280050260026799e-01
6.013600000000000279e+01 9.255899999999999750e+01 2.834199999999999875e+01 1.199939000000000089e+00 -3.634334295727200681e-01
6.013799999999999812e+01 9.837600000000000477e+01 -4.071500000000000341e+00 -2.088772000000000073e+00 -3.041247822343338125e-01
6.013900000000000290e+01 1.057099999999999937e+02 3.476999999999999869e+00 7.490923000000000442e-01 -3.035367896374309149e-01
6.013900000000000290e+01 7.465300000000000580e+01 1.831599999999999895e+01 -2.407453999999999983e+00 -1.923867443137121727e-02
6.014300000000000068e+01 9.363700000000000045e+01 7.947799999999999976e+00 1.247612999999999950e+01 -3.050165124352722801e-01
6.014300000000000068e+01 6.730400000000000205e+01 2.028399999999999892e+01 1.613463000000000092e+00 5.047697297037238851e-02
6.014300000000000068e+01 6.755800000000000693e+01 2.117800000000000082e+01 1.745360000000000023e+00 5.228147763913444657e-02
6.014800000000000324e+01 6.716599999999999682e+01 2.657900000000000063e+01 3.515371000000000024e+00 -2.037327012118514136e-01
6.014999999999999858e+01 7.441200000000000614e+01 4.202499999999999858e+01 1.064608000000000061e+02 1.038092602408621640e-01
6.014999999999999858e+01 7.537000000000000455e+01 4.202499999999999858e+01 4.981754000000000104e+01 1.035931301465814192e-01
6.015500000000000114e+01 1.000100000000000051e+02 3.789099999999999913e+00 6.678908999999999541e-01 -3.042247304250990103e-01
6.015599999999999881e+01 9.520799999999999841e+01 -1.265099999999999891e+00 -1.680784999999999840e+01 -3.045261520461289839e-01
6.015599999999999881e+01 9.529900000000000659e+01 3.180000000000000049e-01 -2.629302000000000028e+00 -3.046021542038974128e-01
6.015599999999999881e+01 9.555299999999999727e+01 1.211699999999999999e+00 -1.106043000000000109e+00 -3.046226261671634572e-01
6.015899999999999892e+01 9.290600000000000591e+01 7.616999999999999993e+00 7.763685999999999643e-01 -3.050927864012377699e-01
6.015899999999999892e+01 9.086899999999999977e+01 3.000199999999999889e+01 7.966496000000000244e+00 -3.637906565123716907e-01
6.015899999999999892e+01 9.107800000000000296e+01 2.926599999999999824e+01 9.389734999999999943e+00 -3.636879460911058848e-01
6.015999999999999659e+01 8.509799999999999898e+01 1.491999999999999993e+01 5.655738999999999628e+00 -4.088686902372302978e-02
6.016400000000000148e+01 7.236299999999999955e+01 3.853300000000000125e+01 5.327691999999999872e+00 -2.405890116339560666e-02
6.016400000000000148e+01 7.913200000000000500e+01 1.926500000000000057e+01 2.434483000000000175e+01 -4.535984916342442053e-02
6.016899999999999693e+01 7.618899999999999295e+01 3.866499999999999915e+01 1.845891999999999911e+01 -1.133412347063857684e-01
6.017399999999999949e+01 9.724399999999999977e+01 -3.313200000000000145e+00 -3.277985999999999844e+00 -3.042563424146053075e-01
6.017499999999999716e+01 9.706499999999999773e+01 3.013800000000000168e+01 2.096694000000000102e+01 -2.987366572810298826e-01
6.017499999999999716e+01 9.353499999999999659e+01 4.631800000000000139e+00 2.276197999999999944e+00 -3.049562472359442222e-01
6.017600000000000193e+01 8.920399999999999352e+01 3.425999999999999801e+01 5.115884000000000320e+00 -1.680926430321051934e-01
6.017699999999999960e+01 6.748000000000000398e+01 2.754700000000000060e+01 1.338529999999999998e+00 -2.041991258004923204e-01
6.017699999999999960e+01 6.838200000000000500e+01 2.235999999999999943e+01 2.479546000000000028e+00 -1.990658911424628141e-01
6.017699999999999960e+01 6.838200000000000500e+01 2.322500000000000142e+01 -2.883075999999999972e+00 -1.996950086940663671e-01
6.017799999999999727e+01 9.461700000000000443e+01 2.872700000000000031e+01 9.019299999999999429e+00 -2.993427926437300379e-01
6.018099999999999739e+01 1.007800000000000011e+02 -2.192499999999999893e+00 -4.668986000000000303e+00 -3.039961298078038276e-01
6.018500000000000227e+01 9.529600000000000648e+01 2.740599999999999881e+01 1.387472999999999956e+01 -3.003073326507853524e-01
6.018599999999999994e+01 6.977599999999999625e+01 3.719200000000000017e+01 1.178135999999999939e+01 -3.050596222293565085e-01
6.018699999999999761e+01 8.824099999999999966e+01 3.635099999999999909e+01 3.800462000000000273e+01 -1.736965183222633491e-01
6.018800000000000239e+01 9.501500000000000057e+01 2.652899999999999991e+01 1.334991999999999912e+01 -3.008648144265023139e-01
6.018900000000000006e+01 1.027999999999999972e+02 2.865800000000000125e+01 3.426845000000000141e+00 -3.001540778357186801e-01
6.018900000000000006e+01 1.045100000000000051e+02 2.865800000000000125e+01 5.928247000000000355e+01 -3.002571156013865150e-01
6.019299999999999784e+01 1.054000000000000057e+02 4.428099999999999703e+00 8.060378999999999738e-01 -3.035662092907040477e-01
6.020499999999999829e+01 8.406300000000000239e+01 1.037100000000000044e+01 3.470807000000000198e+00 -4.414681683107146704e-02
6.020499999999999829e+01 8.576300000000000523e+01 1.037100000000000044e+01 5.590866000000000113e+00 -4.259769499707523333e-02
6.020499999999999829e+01 9.242900000000000205e+01 1.013799999999999990e+01 4.877936000000000050e+00 -3.051522158662518525e-01
6.021099999999999852e+01 9.566899999999999693e+01 -3.181500000000000217e+00 -4.941582000000000363e+00 -3.043883308966958134e-01
6.021399999999999864e+01 9.489799999999999613e+01 7.168000000000000149e+00 2.725534000000000034e+01 -3.048811669240634736e-01
6.021500000000000341e+01 7.407599999999999341e+01 4.125000000000000000e+01 7.898199999999999932e+01 -2.201765148839344988e-02
6.021500000000000341e+01 7.570600000000000307e+01 4.125000000000000000e+01 2.565588999999999942e+01 1.011275227384834663e-01
6.021500000000000341e+01 8.332599999999999341e+01 3.549000000000000199e+01 1.372821000000000069e+00 -1.768801928130307455e-01
6.021699999999999875e+01 9.320900000000000318e+01 8.317000000000000171e+00 6.670977999999999852e+00 -3.050788984428131068e-01
6.021800000000000352e+01 8.658100000000000307e+01 3.649199999999999733e+01 2.322541000000000011e+01 -1.758103268736686264e-01
6.021900000000000119e+01 1.102699999999999960e+02 1.201299999999999990e+01 -3.148808000000000162e-01 -3.025904370930526666e-01
6.021999999999999886e+01 1.103799999999999955e+02 1.281000000000000050e+01 -2.612904999999999944e+01 -3.025109626712713107e-01
6.021999999999999886e+01 1.103799999999999955e+02 1.375000000000000000e+01 -3.287803000000000253e+01 -3.024264917532640817e-01
6.022399999999999665e+01 9.495999999999999375e+01 8.870699999999999363e+00 8.691046000000000049e+00 -3.048767670256112838e-01
6.022699999999999676e+01 7.649299999999999500e+01 3.796500000000000341e+01 1.715764000000000067e+01 -1.154534262476505091e-01
6.022899999999999920e+01 9.969499999999999318e+01 -4.957099999999999618e+00 1.079671000000000047e+00 -3.039837056802540682e-01
6.023299999999999699e+01 7.649599999999999511e+01 1.590099999999999980e+01 -2.251276999999999973e+00 -1.327091259150569857e-01
6.023299999999999699e+01 7.649599999999999511e+01 1.730099999999999838e+01 5.157701999999999565e-01 -1.992991250899433381e-02
6.023499999999999943e+01 9.510099999999999909e+01 2.828099999999999881e+01 1.142378000000000071e+01 -2.997065473917090994e-01
6.023700000000000188e+01 8.154000000000000625e+01 2.074599999999999866e+01 7.428039000000000058e+00 -4.109531723058325314e-02
6.023700000000000188e+01 9.491599999999999682e+01 3.834799999999999986e+00 -2.690006999999999815e-01 -3.048027746052249798e-01
6.024300000000000210e+01 7.000799999999999557e+01 3.637700000000000244e+01 1.135670000000000002e+01 -3.061983438433861227e-01
6.024900000000000233e+01 6.746200000000000330e+01 1.937199999999999989e+01 1.556770999999999905e+00 4.804241661433231170e-02
6.025600000000000023e+01 9.631699999999999307e+01 2.483099999999999952e+01 1.116971999999999987e+01 -3.019065753089923976e-01
6.025900000000000034e+01 9.574599999999999511e+01 6.799400000000000333e+00 4.128191000000000166e+00 -3.047856833620825601e-01
6.025900000000000034e+01 9.661100000000000421e+01 6.799400000000000333e+00 -2.438524000000000136e+00 -3.046808112674110336e-01
6.026100000000000279e+01 1.073100000000000023e+02 1.830600000000000094e+01 2.377413999999999916e+01 -3.022765324562149969e-01
6.027300000000000324e+01 7.377299999999999613e+01 4.054999999999999716e+01 2.223993000000000109e+01 -2.236807884869443375e-02
6.027300000000000324e+01 1.010699999999999932e+02 -4.036299999999999777e+00 -1.534013999999999933e-01 -3.039091480573102855e-01
6.027300000000000324e+01 1.010699999999999932e+02 -2.985700000000000021e+00 -1.916482000000000019e+00 -3.039481082751179231e-01
6.027400000000000091e+01 8.496299999999999386e+01 1.750900000000000034e+01 -6.249641999999999697e+00 -3.931809188378577319e-02
6.027600000000000335e+01 1.048700000000000045e+02 3.438499999999999890e+00 1.629359999999999919e+00 -3.036473070683197717e-01
6.027799999999999869e+01 7.587800000000000011e+01 1.781599999999999895e+01 -6.550289000000000250e-01 -1.958582361881427286e-02
6.028000000000000114e+01 8.278600000000000136e+01 2.003699999999999903e+01 4.076179999999999914e+00 -4.002706626514849347e-02
6.028900000000000148e+01 1.047999999999999972e+02 2.042800000000000082e+01 -1.573992999999999975e+00 -3.022643219801941505e-01
6.029200000000000159e+01 7.679900000000000659e+01 1.660099999999999909e+01 1.528151000000000037e+00 -1.327604074713086835e-01
6.029200000000000159e+01 9.077400000000000091e+01 5.797299999999999898e+00 -4.689439000000000246e-01 -5.293869494621918775e-02
6.029200000000000159e+01 9.077400000000000091e+01 6.736699999999999910e+00 -1.081085000000000074e+00 -5.262324665005711777e-02
6.029599999999999937e+01 8.708700000000000330e+01 1.110299999999999976e+01 4.947029999999999816e+00 -4.110095816467619623e-02
6.029699999999999704e+01 7.115399999999999636e+01 8.339100000000000179e+00 7.077879000000000254e+00 -1.825846854163139937e-02
6.029999999999999716e+01 6.834799999999999898e+01 1.816499999999999915e+01 -4.895552000000000348e+00 -4.704508533347481758e-02
6.029999999999999716e+01 6.945999999999999375e+01 1.816499999999999915e+01 -1.049404000000000003e+01 -4.736331975345119127e-02
6.030400000000000205e+01 9.252599999999999625e+01 4.668000000000000149e+00 2.665004999999999735e-01 -3.050694921668404280e-01
6.031400000000000006e+01 9.625300000000000011e+01 8.798000000000000043e+00 4.500528000000000084e+00 -3.047280456501585411e-01
6.031700000000000017e+01 9.691500000000000625e+01 7.499399999999999622e+00 3.257864999999999789e+00 -3.046523640997693683e-01
6.032500000000000284e+01 1.063700000000000045e+02 7.988000000000000433e+00 6.910650000000000404e+00 -3.033492196485113035e-01
6.033299999999999841e+01 1.050499999999999972e+02 5.094400000000000261e+00 4.148685999999999652e+00 -3.036094821647296049e-01
6.033400000000000318e+01 6.957699999999999818e+01 3.550099999999999767e+01 9.281734000000000151e+00 -2.121984076433999500e-01
6.033700000000000330e+01 7.993399999999999750e+01 1.814999999999999858e+01 1.105707999999999913e+01 -4.509215333810804444e-02
6.034300000000000352e+01 8.869599999999999795e+01 1.162400000000000055e+01 2.653690999999999800e+00 -3.947764180798157829e-02
6.034499999999999886e+01 1.036899999999999977e+02 4.198900000000000077e+00 3.689344999999999875e+00 -3.037923234662328609e-01
6.034700000000000131e+01 7.654500000000000171e+01 1.336100000000000065e+01 2.161027999999999949e+00 -1.184273083908117252e-01
6.034700000000000131e+01 7.806499999999999773e+01 1.336100000000000065e+01 -2.045132000000000061e-01 -4.934318014125166352e-02
6.035199999999999676e+01 9.437300000000000466e+01 7.947799999999999976e+00 1.438673999999999964e+01 -3.049717808809954134e-01
6.035300000000000153e+01 7.597100000000000364e+01 3.976400000000000290e+01 6.759839999999999804e+01 -1.107088086211132777e-01
6.035900000000000176e+01 1.097399999999999949e+02 9.148899999999999366e+00 6.901470999999999911e+00 -3.028599111959459078e-01
6.035999999999999943e+01 9.944899999999999807e+01 1.167300000000000004e+00 -3.806533999999999751e-01 -3.042543565976215669e-01
6.036099999999999710e+01 1.052399999999999949e+02 7.229700000000000237e+00 7.448282999999999987e+00 -3.035319098699885143e-01
6.036299999999999955e+01 1.050600000000000023e+02 5.977800000000000225e+00 3.893531999999999993e+00 -3.035921436021299935e-01
6.036599999999999966e+01 1.065100000000000051e+02 3.476999999999999869e+00 1.378795999999999911e+00 -3.034569389009181273e-01
6.036800000000000210e+01 8.922499999999999432e+01 3.297899999999999920e+01 1.677035000000000053e+01 -1.651327046002792343e-01
6.037199999999999989e+01 6.768399999999999750e+01 2.424800000000000111e+01 1.581727000000000105e+00 -2.012050626000673470e-01
6.037199999999999989e+01 9.655599999999999739e+01 8.098000000000000753e+00 4.509743000000000279e+00 -3.047048031696805159e-01
6.037199999999999989e+01 8.001300000000000523e+01 3.683100000000000307e+01 8.532750999999999308e+00 -1.250978942414344153e-01
6.037400000000000233e+01 9.255500000000000682e+01 9.328300000000000480e+00 3.818346000000000018e+00 -3.051814672719194155e-01
6.037700000000000244e+01 7.223199999999999932e+01 9.336700000000000443e+00 1.217464000000000013e+01 -1.132094062358920822e-01
6.039000000000000057e+01 7.995399999999999352e+01 1.516499999999999915e+01 4.877724999999999866e+00 -4.664637079905163686e-02
6.039500000000000313e+01 7.963100000000000023e+01 1.885000000000000142e+01 1.206626999999999938e+01 -4.507656156789592583e-02
6.040299999999999869e+01 1.020100000000000051e+02 4.016899999999999693e+00 3.800930999999999838e+00 -3.040073192072097474e-01
6.040299999999999869e+01 1.029599999999999937e+02 4.016899999999999693e+00 5.756389999999999674e+00 -3.038890470523945009e-01
6.040599999999999881e+01 7.911700000000000443e+01 3.727000000000000313e+01 6.706241000000000341e+00 -1.229229834515729730e-01
6.041299999999999670e+01 9.956799999999999784e+01 2.460500000000000043e+01 -8.185269999999999158e+00 -3.020476007440009991e-01
6.041299999999999670e+01 1.009699999999999989e+02 2.460500000000000043e+01 -1.863569000000000031e+00 -3.018845837536855981e-01
6.041400000000000148e+01 8.548399999999999466e+01 1.523900000000000077e+01 5.842507000000000339e+00 -4.029498689328055855e-02
6.041400000000000148e+01 8.548399999999999466e+01 1.610500000000000043e+01 -1.317131000000000007e+01 -3.972518892354554021e-02
6.042000000000000171e+01 7.994299999999999784e+01 2.006200000000000117e+01 1.502195000000000036e+01 -4.383312168167675243e-02
6.042199999999999704e+01 1.092399999999999949e+02 1.489100000000000001e+01 -7.736380999999999730e+00 -3.024592813476844610e-01
6.042300000000000182e+01 7.563299999999999557e+01 4.057399999999999807e+01 2.533379000000000048e+01 9.921708532827325233e-02
6.042399999999999949e+01 9.277400000000000091e+01 8.624000000000000554e+00 3.629207000000000072e+00 -3.051674795054911127e-01
6.042699999999999960e+01 8.466500000000000625e+01 1.422000000000000064e+01 1.131831000000000031e+01 -4.177917050243998287e-02
6.042900000000000205e+01 1.052399999999999949e+02 2.717000000000000082e+00 1.762431000000000081e+00 -3.036178588636190834e-01
6.042900000000000205e+01 1.061800000000000068e+02 2.717000000000000082e+00 1.956218999999999930e+00 -3.035073542857135154e-01
6.042900000000000205e+01 1.061800000000000068e+02 4.237000000000000099e+00 7.055109000000000519e-01 -3.034900813536576258e-01
6.043099999999999739e+01 9.060399999999999920e+01 3.151800000000000068e+01 -3.016445999999999827e+01 -3.639779741006751723e-01
6.043099999999999739e+01 9.083100000000000307e+01 3.071900000000000119e+01 -4.927265000000000228e+00 -3.638615052648260795e-01
6.043200000000000216e+01 9.483199999999999363e+01 -1.685200000000000031e+00 -2.759501999999999899e+00 -3.045605970853980660e-01
6.043999999999999773e+01 6.854800000000000182e+01 2.935200000000000031e+01 -4.050545999999999758e+00 -2.037781627095159587e-01
6.043999999999999773e+01 6.875700000000000500e+01 3.008800000000000097e+01 -4.009164000000000172e+00 -2.034372975690554863e-01
6.044200000000000017e+01 7.350000000000000000e+01 1.919099999999999895e+01 -1.813542999999999905e+00 -1.876063052051517646e-02
6.044400000000000261e+01 6.926999999999999602e+01 1.018399999999999928e+01 7.244492999999999627e-01 -1.252677983964093633e-01
6.044400000000000261e+01 6.950100000000000477e+01 9.369099999999999540e+00 3.137913000000000174e+00 -1.248234429727259204e-01
6.044400000000000261e+01 6.950100000000000477e+01 1.099900000000000055e+01 3.343164999999999942e+00 -1.263732456358004907e-01
6.044400000000000261e+01 7.081999999999999318e+01 1.173399999999999999e+01 5.551565000000000083e+01 -1.142604044909784067e-01
6.044400000000000261e+01 7.213899999999999579e+01 1.099900000000000055e+01 -1.340273999999999965e+01 -1.144042663190539405e-01
6.044400000000000261e+01 7.237000000000000455e+01 1.018399999999999928e+01 8.745122999999999536e+00 -1.138991429738115402e-01
6.044599999999999795e+01 1.084899999999999949e+02 1.685399999999999920e+01 1.018552000000000035e+01 -3.023286841161597627e-01
6.044599999999999795e+01 7.489100000000000534e+01 4.125000000000000000e+01 8.628761000000000081e+01 1.016606560086770472e-01
6.045400000000000063e+01 8.517499999999999716e+01 1.687800000000000011e+01 -3.292558999999999791e+00 -3.952708888648862745e-02
6.045499999999999829e+01 7.457299999999999329e+01 4.057900000000000063e+01 3.683686999999999756e+01 -2.191886698442428380e-02
6.046000000000000085e+01 7.225400000000000489e+01 3.756499999999999773e+01 4.915746999999999645e+00 -2.442238809220455970e-02
6.047200000000000131e+01 9.019599999999999795e+01 1.221899999999999942e+01 -2.750579000000000107e+00 -3.048885375832588451e-01
6.047299999999999898e+01 8.867300000000000182e+01 3.367900000000000205e+01 1.602578000000000102e+01 -1.668385776189217629e-01
6.047599999999999909e+01 8.456100000000000705e+01 1.833299999999999841e+01 6.996634000000000242e+00 -3.916178956831409957e-02
6.047800000000000153e+01 9.456600000000000250e+01 -2.346400000000000041e+00 -6.102538000000000018e+00 -3.045453069458438078e-01
6.047800000000000153e+01 7.964000000000000057e+01 1.936199999999999832e+01 2.234226999999999919e+01 -4.476289609991987439e-02
6.047999999999999687e+01 1.001599999999999966e+02 3.828400000000000136e-01 -1.809249000000000152e+01 -3.041668705015280194e-01
6.048100000000000165e+01 9.533100000000000307e+01 7.868000000000000327e+00 1.881876000000000104e+01 -3.048791507987255178e-01
6.048199999999999932e+01 9.391700000000000159e+01 2.878500000000000014e+01 -1.112532999999999994e+01 -2.992269881543836996e-01
6.048700000000000188e+01 7.210800000000000409e+01 1.919000000000000128e+01 2.902847999999999887e-02 -4.675540411111973188e-02
6.049099999999999966e+01 7.912399999999999523e+01 1.445700000000000074e+01 -2.394156000000000173e+00 -4.794092922209235164e-02
6.049799999999999756e+01 7.037600000000000477e+01 8.567899999999999849e+00 4.005048000000000386e+00 -1.765580185977357747e-02
6.050500000000000256e+01 8.124399999999999977e+01 1.614900000000000091e+01 1.035941000000000045e+01 -4.466155976993090027e-02
6.050500000000000256e+01 8.124399999999999977e+01 1.719900000000000162e+01 1.155789000000000044e+01 -4.405514285876187958e-02
6.050500000000000256e+01 9.519599999999999795e+01 2.433099999999999952e+01 2.054454999999999920e+00 -3.019798907611586092e-01
6.050999999999999801e+01 1.017800000000000011e+02 2.541499999999999915e+01 1.462304999999999966e+00 -3.016057474220903423e-01
6.050999999999999801e+01 1.019899999999999949e+02 2.615099999999999980e+01 3.101290000000000102e+00 -3.014085227010616097e-01
6.050999999999999801e+01 1.053900000000000006e+02 2.615099999999999980e+01 -2.903236000000000150e+00 -3.011064372745913542e-01
6.051100000000000279e+01 1.081299999999999955e+02 1.773199999999999932e+01 1.723793999999999826e+01 -3.022627236752037927e-01
6.051200000000000045e+01 8.876600000000000534e+01 3.550099999999999767e+01 9.763265000000000526e+00 -1.709402024204381976e-01
6.051400000000000290e+01 1.022800000000000011e+02 2.780799999999999983e+01 8.566418000000000088e-01 -3.005793514275383327e-01
6.051400000000000290e+01 1.050300000000000011e+02 2.780799999999999983e+01 -5.134951000000000043e+00 -3.006929718487120762e-01
6.051500000000000057e+01 9.658599999999999852e+01 3.073400000000000176e+01 1.244548999999999950e+01 -3.633754019359945464e-01
6.051500000000000057e+01 9.658599999999999852e+01 3.228399999999999892e+01 1.989338000000000051e+00 -3.635634590172467373e-01
6.051500000000000057e+01 9.754399999999999693e+01 3.073400000000000176e+01 6.390782000000000096e+01 -3.633441459286653186e-01
6.051500000000000057e+01 9.754399999999999693e+01 3.228399999999999892e+01 6.115126000000000062e+00 -3.635246500687189797e-01
6.051599999999999824e+01 9.118600000000000705e+01 7.572899999999999743e+00 4.457928999999999919e-01 -5.150904535936419448e-02
6.052199999999999847e+01 9.634300000000000352e+01 -3.366699999999999804e+00 -3.851450999999999958e+00 -3.043508596899832108e-01
6.052400000000000091e+01 1.059599999999999937e+02 1.926899999999999835e+01 2.845352000000000103e+00 -3.023154624258447276e-01
6.052600000000000335e+01 9.617900000000000205e+01 7.499399999999999622e+00 4.421715999999999980e+00 -3.047793323147598432e-01
6.052900000000000347e+01 6.783899999999999864e+01 2.194600000000000151e+01 2.609825999999999979e+00 5.357656787879518101e-02
6.053600000000000136e+01 7.508599999999999852e+01 1.782499999999999929e+01 -1.939742000000000077e+00 -2.002996537576894401e-02
6.053600000000000136e+01 9.123600000000000421e+01 1.218599999999999994e+01 -1.015771999999999942e+01 -3.050458491075186407e-01
6.054200000000000159e+01 9.406399999999999295e+01 2.508899999999999864e+01 -1.014603999999999928e+01 -3.014332844331527594e-01
6.054200000000000159e+01 9.406399999999999295e+01 2.595499999999999829e+01 2.483137999999999934e+01 -3.010401751969957185e-01
6.054899999999999949e+01 6.789400000000000546e+01 3.272200000000000131e+01 1.126838999999999924e+00 -2.018343289430622467e-01
6.054899999999999949e+01 6.812099999999999511e+01 3.192299999999999827e+01 -5.614072000000000173e+00 -2.024101351955271133e-01
6.054899999999999949e+01 6.812099999999999511e+01 3.352100000000000080e+01 -8.652777999999999636e+00 -2.012163502121230851e-01
6.054899999999999949e+01 6.906999999999999318e+01 3.446999999999999886e+01 -9.680211999999999151e+00 -2.004038296975342859e-01
6.055400000000000205e+01 7.325300000000000011e+01 3.988100000000000023e+01 2.141848999999999847e+01 -2.275067756949340075e-02
6.055599999999999739e+01 8.739100000000000534e+01 3.642199999999999704e+01 1.578308999999999962e+01 -1.745417304509921663e-01
6.055599999999999739e+01 1.043599999999999994e+02 2.199399999999999977e+01 1.555324000000000062e+01 -3.020453765980781191e-01
6.055799999999999983e+01 1.036500000000000057e+02 2.872899999999999920e+01 3.041548999999999836e+01 -3.002016931288294388e-01
6.056300000000000239e+01 1.052600000000000051e+02 2.703099999999999881e+01 -1.857946000000000097e+00 -3.009335493952868812e-01
6.056499999999999773e+01 8.965800000000000125e+01 1.155100000000000016e+01 9.767734000000000139e-01 -3.049487176052184112e-01
6.056600000000000250e+01 9.485899999999999466e+01 -3.052799999999999958e+00 -3.248927999999999816e+00 -3.044242960281831611e-01
6.056600000000000250e+01 8.682699999999999818e+01 3.071900000000000119e+01 -4.168118999999999907e+00 -3.641178951153097310e-01
6.057999999999999829e+01 9.625000000000000000e+01 3.150900000000000034e+01 5.839493000000000045e+00 -3.634805523742113964e-01
6.057999999999999829e+01 9.787999999999999545e+01 3.150900000000000034e+01 1.158449000000000062e+01 -3.634207793209093262e-01
6.058100000000000307e+01 9.581999999999999318e+01 8.098000000000000753e+00 9.840861000000000303e+00 -3.048345276387589009e-01
6.058200000000000074e+01 9.124399999999999977e+01 5.037300000000000111e+00 -5.879509999999999792e+00 -3.052392260865738338e-01
6.058500000000000085e+01 9.804999999999999716e+01 2.490200000000000102e+01 -1.147740999999999900e+00 -3.020563791555408439e-01
6.059199999999999875e+01 9.156900000000000261e+01 2.886899999999999977e+01 1.234553000000000011e+01 -3.635648990095431965e-01
6.059499999999999886e+01 9.153900000000000148e+01 1.148600000000000065e+01 1.903880999999999935e+00 -3.051937119362096995e-01
6.059799999999999898e+01 7.107099999999999795e+01 3.670900000000000318e+01 7.886039000000000243e+00 -3.051185600749922178e-01
6.059799999999999898e+01 9.884499999999999886e+01 -4.886300000000000310e+00 8.274002000000000301e-01 -3.040434961817845561e-01
6.059799999999999898e+01 1.005499999999999972e+02 -4.886300000000000310e+00 5.479368000000000016e-01 -3.039414998962317038e-01
6.059899999999999665e+01 8.427299999999999613e+01 3.636500000000000199e+01 -1.190886000000000067e+01 -1.781500713520792478e-01
6.059899999999999665e+01 8.778700000000000614e+01 1.116200000000000081e+01 4.905859000000000414e+00 -4.047871531043112370e-02
6.060199999999999676e+01 7.397599999999999909e+01 1.862900000000000134e+01 -1.959532999999999969e+00 -1.946365250174077535e-02
6.060300000000000153e+01 8.971099999999999852e+01 3.225900000000000034e+01 -4.396856999999999971e+01 -3.499999999999999778e-01
6.060399999999999920e+01 1.050100000000000051e+02 7.647000000000000242e+00 1.684391000000000105e+01 -3.035675642163607746e-01
6.060699999999999932e+01 7.507699999999999818e+01 3.976400000000000290e+01 2.021011000000000024e+01 -1.082516778858617634e-01
6.061599999999999966e+01 1.021500000000000057e+02 2.706299999999999883e+01 -1.486464999999999925e+00 -3.009654631434355854e-01
6.061599999999999966e+01 1.052399999999999949e+02 2.523900000000000077e+01 -8.232730000000000325e-01 -3.013049990025939429e-01
6.061999999999999744e+01 8.885099999999999909e+01 3.451100000000000279e+01 5.475535999999999959e+00 -1.684502993393519332e-01
6.062100000000000222e+01 1.009899999999999949e+02 -1.249900000000000011e+00 -5.668349000000000082e+00 -3.040420311308814627e-01
6.062299999999999756e+01 7.692499999999999716e+01 3.747399999999999665e+01 1.093965999999999994e+01 -1.178304076977850362e-01
6.062400000000000233e+01 7.054300000000000637e+01 1.862300000000000111e+01 8.764836000000000293e-01 -4.740349374901491747e-02
6.062500000000000000e+01 7.288400000000000034e+01 3.903099999999999881e+01 9.774744000000000099e+00 -2.330692270126278470e-02
6.062700000000000244e+01 1.044399999999999977e+02 2.098999999999999844e+01 2.339646999999999810e+00 -3.022253578653562589e-01
6.062700000000000244e+01 9.302800000000000580e+01 2.877599999999999980e+01 -1.101576999999999984e+01 -3.633935006261518330e-01
6.062800000000000011e+01 1.070699999999999932e+02 7.929700000000000415e+00 5.441385999999999612e+00 -3.032796727456958941e-01
6.062800000000000011e+01 1.087699999999999960e+02 7.929700000000000415e+00 7.232923000000000435e+00 -3.030596690257866821e-01
6.063300000000000267e+01 8.197199999999999420e+01 2.025499999999999901e+01 4.618223000000000411e+00 -4.095419360306540996e-02
6.063400000000000034e+01 1.087800000000000011e+02 1.562400000000000055e+01 1.284013999999999989e+01 -3.024454166972798119e-01
6.063900000000000290e+01 6.811700000000000443e+01 2.268199999999999861e+01 -2.706062000000000189e+00 -1.995559649346884123e-01
6.063900000000000290e+01 6.811700000000000443e+01 2.354799999999999827e+01 -4.993399000000000143e+00 -2.002352204502159672e-01
6.064500000000000313e+01 8.600199999999999534e+01 2.920599999999999952e+01 1.733144000000000062e+01 -3.640683807632903446e-01
