3.806400000000000006e+01 6.597700000000000387e+01 -1.201399999999999935e+01 1.767562000000000078e+00 -1.590116706971904104e-01
3.807600000000000051e+01 7.259099999999999397e+01 3.519499999999999851e+00 2.971727000000000007e+00 2.513432129773579549e-01
3.807800000000000296e+01 7.368000000000000682e+01 -8.087400000000000588e+00 5.699340000000000295e+00 -7.634556984035199834e-02
3.808500000000000085e+01 6.155499999999999972e+01 -1.141000000000000014e+01 2.845489000000000157e+00 -1.490342736449171146e-01
3.809300000000000352e+01 6.779399999999999693e+01 -1.420400000000000063e+01 2.199552999999999869e+00 -1.796792864249449895e-01
3.811099999999999710e+01 7.124800000000000466e+01 -2.200000000000000000e+01 -1.838578000000000046e+00 -8.678581772154161933e-02
3.811500000000000199e+01 7.356199999999999761e+01 2.588499999999999801e+00 1.725030999999999892e+01 2.527648327003089168e-01
3.812199999999999989e+01 6.908400000000000318e+01 3.559200000000000141e+00 2.262165999999999855e+01 -3.832801522803883087e-02
3.813000000000000256e+01 7.375499999999999545e+01 -5.557900000000000063e+00 2.413270999999999944e+00 -7.637020509846423333e-02
3.813600000000000279e+01 7.370199999999999818e+01 -8.988099999999999312e+00 1.016844999999999999e+01 -7.635360661192878984e-02
3.814000000000000057e+01 6.839799999999999613e+01 -2.036700000000000088e+01 2.195288000000000128e+00 -1.778521663357348626e-01
3.814600000000000080e+01 6.777400000000000091e+01 -1.510200000000000031e+01 6.582196999999999854e+00 -1.778312335309444880e-01
3.815800000000000125e+01 7.026399999999999579e+01 3.604400000000000048e+00 4.336505999999999972e+01 1.628433502192650761e-01
3.817300000000000182e+01 6.553000000000000114e+01 -1.252000000000000002e+00 1.886367999999999867e+01 4.419323741492293262e-02
3.818599999999999994e+01 6.327499999999999858e+01 -3.908900000000000041e+00 3.035368000000000066e+00 -1.291609860964627356e-02
3.818599999999999994e+01 6.327499999999999858e+01 -2.847100000000000186e+00 3.014956999999999887e+00 1.080941110443973258e-02
3.818699999999999761e+01 7.816899999999999693e+01 -1.573499999999999943e+01 -8.252052000000000831e+00 -7.674606479048298735e-02
3.818699999999999761e+01 7.956900000000000261e+01 -1.573499999999999943e+01 1.734901000000000026e+00 -7.678859044644627263e-02
3.818699999999999761e+01 8.108899999999999864e+01 -1.573499999999999943e+01 -1.704248999999999903e+00 -7.682164056677655284e-02
3.818699999999999761e+01 8.108899999999999864e+01 -1.327500000000000036e+01 -1.069313000000000002e+01 -9.517187393786886995e-02
3.818800000000000239e+01 6.746899999999999409e+01 -1.381000000000000050e+01 1.575226000000000015e+00 -1.627865474517976307e-01
3.819299999999999784e+01 7.393300000000000693e+01 -9.759700000000000486e+00 5.960067999999999699e+00 -7.638573996472267091e-02
3.819899999999999807e+01 6.763599999999999568e+01 -1.598199999999999932e+01 1.175459000000000032e+01 -1.641771000900579813e-01
3.820400000000000063e+01 7.653900000000000148e+01 -1.787800000000000011e+01 -7.346023999999999887e+00 -7.669437616872241958e-02
3.820400000000000063e+01 7.674800000000000466e+01 -1.714199999999999946e+01 -9.323795999999999751e+00 -7.669838047976679229e-02
3.820900000000000318e+01 6.736100000000000421e+01 -1.860200000000000031e+01 4.186787999999999954e+00 -1.730729492337649555e-01
3.821200000000000330e+01 7.440800000000000125e+01 -8.830000000000000071e-01 1.723693000000000097e+01 -1.145568892530522340e-02
3.823199999999999932e+01 7.621299999999999386e+01 -1.896199999999999974e+01 -1.761204000000000036e+01 -7.668725712234679415e-02
3.823599999999999710e+01 6.365899999999999892e+01 -1.103200000000000003e+01 5.474383999999999695e+00 -1.610467089248102668e-01
3.823799999999999955e+01 6.745300000000000296e+01 3.048900000000000166e+00 2.417554000000000092e-01 -3.553202146135484712e-02
3.826200000000000045e+01 6.687199999999999989e+01 -1.931800000000000139e+01 2.465110999999999830e+00 -1.752681644775312964e-01
3.827199999999999847e+01 8.055299999999999727e+01 -1.263199999999999967e+01 8.598195999999999728e+00 -9.526605433883583718e-02
3.829099999999999682e+01 6.660099999999999909e+01 -2.016600000000000037e+01 1.815542999999999907e+00 -1.779510356794241632e-01
3.830100000000000193e+01 6.456499999999999773e+01 -7.300600000000000200e+00 1.367333999999999961e+01 2.463716982368993058e-01
3.830100000000000193e+01 6.456499999999999773e+01 -5.035300000000000331e+00 3.360361000000000153e+00 2.394721673508772297e-01
3.830599999999999739e+01 7.464000000000000057e+01 -2.071199999999999974e+01 -8.007806999999999675e+00 -7.990820720962192591e-02
3.830899999999999750e+01 8.009000000000000341e+01 -1.215099999999999980e+01 2.893409999999999815e+00 -9.536203567064797937e-02
3.831099999999999994e+01 7.410399999999999920e+01 -3.369299999999999962e+00 1.458802999999999983e+01 1.775629186259599507e-02
3.831400000000000006e+01 6.741800000000000637e+01 -1.764900000000000091e+01 6.821347000000000271e+00 -1.694493267044809293e-01
3.831499999999999773e+01 6.063000000000000256e+01 -1.104299999999999926e+01 6.859960000000000058e+00 6.531598177745732980e-02
3.832099999999999795e+01 7.033700000000000330e+01 -2.112199999999999989e+01 -5.515233999999999970e-01 -1.777855398748331150e-01
3.832200000000000273e+01 6.752700000000000102e+01 -1.684799999999999898e+01 1.477565000000000062e+01 -1.666786732495795231e-01
3.834100000000000108e+01 7.441100000000000136e+01 -2.403999999999999915e+00 2.724575000000000102e+01 -7.097519861557795642e-03
3.834100000000000108e+01 7.441100000000000136e+01 -1.467799999999999994e+00 1.872805999999999926e+01 -9.784756334053340901e-03
3.835499999999999687e+01 7.905599999999999739e+01 -1.131499999999999950e+01 4.488203000000000031e+01 -9.563746605467374207e-02
3.836200000000000188e+01 6.696999999999999886e+01 -2.101599999999999824e+01 2.563543999999999823e+00 -1.796512647834447862e-01
3.836200000000000188e+01 6.801999999999999602e+01 -2.101599999999999824e+01 2.440269999999999939e+00 -1.788626249765513099e-01
3.836299999999999955e+01 7.525799999999999557e+01 -1.104599999999999937e+01 2.916260999999999992e+00 -7.652133190953946951e-02
3.836299999999999955e+01 7.665800000000000125e+01 -1.104599999999999937e+01 9.590294999999999348e+00 -7.662065277647754635e-02
3.836599999999999966e+01 6.643699999999999761e+01 -1.275799999999999912e+01 1.219066999999999901e+00 -1.578631405061599602e-01
3.837400000000000233e+01 7.098699999999999477e+01 3.717400000000000038e+00 9.551477999999999469e+00 2.397731406540340449e-01
3.838600000000000279e+01 7.732899999999999352e+01 -1.636700000000000088e+01 -1.603494999999999848e+01 -7.671051028927577953e-02
3.840500000000000114e+01 7.389300000000000068e+01 2.059299999999999908e+00 6.603881000000000334e+00 1.296871208669941600e-01
3.841599999999999682e+01 6.319800000000000040e+01 -7.530700000000000394e+00 1.551527000000000100e+00 7.531592676633126759e-02
3.842900000000000205e+01 6.594400000000000261e+01 -5.812800000000000189e-01 1.944888999999999868e+01 -2.713843875955063156e-02
3.843500000000000227e+01 7.328499999999999659e+01 -2.208999999999999986e+01 3.308403000000000038e-02 -8.635680020628686004e-02
3.845700000000000074e+01 7.427700000000000102e+01 2.054499999999999937e-01 -3.657109999999999861e+00 -1.401672795643537327e-02
3.845799999999999841e+01 6.066299999999999670e+01 -8.821300000000000807e+00 4.959511000000000003e+00 -5.073780656740005390e-02
3.845799999999999841e+01 6.210900000000000176e+01 -1.141499999999999915e+01 3.152836000000000194e+00 -1.513306537467317414e-01
3.847399999999999665e+01 7.425100000000000477e+01 1.178700000000000081e+00 1.577373000000000047e+01 -1.592916218828896793e-02
3.847500000000000142e+01 6.384300000000000352e+01 -4.607700000000000351e+00 3.245830999999999911e+00 2.423385531759548461e-01
3.847500000000000142e+01 6.384300000000000352e+01 -2.148299999999999876e+00 1.565557000000000087e+00 2.763607384236658679e-02
3.847800000000000153e+01 7.408599999999999852e+01 -7.801300000000000345e+00 1.191248000000000085e+00 -7.638411674115479222e-02
3.847800000000000153e+01 7.408599999999999852e+01 -6.750700000000000145e+00 1.573287000000000013e+01 -7.638628666327643146e-02
3.848100000000000165e+01 7.581399999999999295e+01 -1.997800000000000153e+01 -2.926369999999999916e+00 -7.667264310119813187e-02
3.849399999999999977e+01 6.491400000000000148e+01 -1.174900000000000055e+01 4.766617000000000104e+00 -1.706755841672274177e-01
3.850600000000000023e+01 7.733400000000000318e+01 -1.087700000000000067e+01 1.561289999999999978e+01 -7.665367468251509109e-02
3.851800000000000068e+01 6.820000000000000284e+01 3.246700000000000141e+00 3.098720000000000141e+01 -3.643623287577325842e-02
3.851899999999999835e+01 6.175000000000000000e+01 -8.020599999999999952e+00 1.867632000000000048e+01 2.559136359716458475e-01
3.851899999999999835e+01 7.162900000000000489e+01 -2.219800000000000040e+01 -1.722121000000000068e-01 -8.689337814135479621e-02
3.854800000000000182e+01 7.177800000000000580e+01 3.705999999999999961e+00 -1.718661000000000172e+01 2.403042315318671684e-01
3.854800000000000182e+01 7.307099999999999795e+01 2.985100000000000087e+00 -1.239494000000000007e+01 2.519900082014310261e-01
3.854999999999999716e+01 6.330599999999999739e+01 -1.132099999999999973e+01 9.442411999999999139e+00 -1.568214363450553539e-01
3.856799999999999784e+01 6.499800000000000466e+01 -6.600600000000000023e+00 7.473652999999999658e+00 2.400001629416842197e-01
3.856799999999999784e+01 6.499800000000000466e+01 -5.735299999999999621e+00 4.697461999999999804e+00 2.348587858548755736e-01
3.857500000000000284e+01 7.445799999999999841e+01 -1.050000000000000000e+01 1.668277000000000010e+00 -7.644381552747805952e-02
3.860300000000000153e+01 6.947599999999999909e+01 -2.097299999999999898e+01 1.115593000000000057e+00 -1.774735510055555632e-01
3.860499999999999687e+01 6.482999999999999829e+01 -1.519300000000000095e+00 2.423633000000000148e+00 3.915794436784002241e-02
3.864699999999999847e+01 7.959600000000000364e+01 -1.183000000000000007e+01 8.439503999999999451e+00 -9.549828557498740711e-02
3.865100000000000335e+01 6.881399999999999295e+01 -2.110800000000000054e+01 3.545035000000000269e-01 -1.779261010990488834e-01
3.865699999999999648e+01 7.879399999999999693e+01 -1.558900000000000041e+01 -6.167472000000000232e-02 -7.674871692643069065e-02
3.865699999999999648e+01 8.032899999999999352e+01 -1.602499999999999858e+01 2.350046000000000079e-01 -7.678965636117758564e-02
3.865699999999999648e+01 8.162199999999999989e+01 -1.530400000000000027e+01 -2.542338000000000164e+01 -9.526399654279477103e-02
3.865699999999999648e+01 8.184900000000000375e+01 -1.450500000000000078e+01 -1.111612000000000045e+01 -9.509202804917106511e-02
3.867000000000000171e+01 7.534099999999999397e+01 -2.055600000000000094e+01 -1.492329000000000017e+00 -8.001326793127540304e-02
3.869599999999999795e+01 6.637699999999999534e+01 1.187200000000000061e-01 2.058524999999999849e+01 -3.246472697679606695e-02
3.870499999999999829e+01 8.104399999999999693e+01 -1.302800000000000047e+01 -8.115790000000000504e+00 -9.514784318426447451e-02
3.871399999999999864e+01 7.031799999999999784e+01 3.357400000000000162e+00 4.125392000000000081e+01 -3.710895267735783015e-02
3.872399999999999665e+01 7.337099999999999511e+01 -4.554700000000000415e+00 1.613231999999999999e+00 2.248016351370834415e-02
3.872599999999999909e+01 6.388199999999999790e+01 -7.311099999999999710e+00 3.690741000000000049e+00 2.424894141073180298e-01
3.875300000000000011e+01 6.661799999999999500e+01 1.697999999999999954e+00 8.894230999999999554e+00 -2.705692242679334433e-02
3.876400000000000290e+01 6.146900000000000119e+01 -1.148300000000000054e+01 3.554981000000000169e+00 8.065226122878686732e-02
3.877199999999999847e+01 6.521699999999999875e+01 -7.750000000000000222e-01 1.625828999999999880e+01 4.769107276464094880e-02
3.877400000000000091e+01 8.154099999999999682e+01 -1.350500000000000078e+01 -3.063168999999999897e+01 -9.505011695815922257e-02
3.878399999999999892e+01 7.358799999999999386e+01 -3.806099999999999817e+00 8.751673999999999509e+00 1.936337836126727011e-02
3.878799999999999670e+01 7.835599999999999454e+01 -1.089600000000000080e+01 2.237116999999999933e+01 -7.669478046739944266e-02
3.879399999999999693e+01 6.904999999999999716e+01 3.348100000000000076e+00 5.123212000000000188e+01 -3.676725116749392230e-02
3.879599999999999937e+01 7.595799999999999841e+01 -1.131300000000000061e+01 4.898728000000000193e+00 -7.656617495731188328e-02
3.880199999999999960e+01 6.633599999999999852e+01 1.049299999999999899e+00 1.903419999999999845e+01 -3.754683304600504867e-02
3.880299999999999727e+01 6.011500000000000199e+01 -1.058900000000000041e+01 6.051629000000000147e+00 4.120473825320331712e-02
3.880299999999999727e+01 6.011500000000000199e+01 -9.501099999999999213e+00 4.363351999999999897e+00 -1.851038035549364136e-02
3.880400000000000205e+01 7.243500000000000227e+01 -2.216100000000000136e+01 1.697163999999999895e-01 -8.678998074132696083e-02
3.880799999999999983e+01 6.404900000000000659e+01 -1.155599999999999916e+01 3.731517000000000195e+00 -1.651333750928473398e-01
3.880799999999999983e+01 6.702400000000000091e+01 2.600900000000000212e+00 1.923072000000000159e+01 -3.224581621805994169e-02
3.881900000000000261e+01 7.781999999999999318e+01 -1.597000000000000064e+01 -3.750291999999999959e+00 -7.671188136209448893e-02
3.882999999999999829e+01 7.348699999999999477e+01 -5.125300000000000189e+00 9.687112000000000833e+00 -7.636225469175621228e-02
3.882999999999999829e+01 7.369599999999999795e+01 -5.861299999999999955e+00 3.484168999999999983e+01 -7.636685517757160757e-02
3.882999999999999829e+01 6.252799999999999869e+01 -7.786900000000000155e+00 7.497296999999999656e+00 2.501430402209780524e-01
3.884300000000000352e+01 6.749500000000000455e+01 -2.161199999999999832e+01 8.448714999999999975e-01 -1.792105283386201953e-01
3.885699999999999932e+01 6.073700000000000188e+01 -1.126200000000000045e+01 1.018262999999999963e+01 7.458862835893308174e-02
3.885900000000000176e+01 6.693699999999999761e+01 -1.316999999999999993e+01 8.201680000000000081e-02 -1.577463817226568421e-01
3.885900000000000176e+01 6.714600000000000080e+01 -1.390600000000000058e+01 1.068013000000000101e+00 -1.572375532166717382e-01
3.887700000000000244e+01 6.558700000000000330e+01 -1.246199999999999974e+01 3.478978999999999822e+00 -1.705407063423163838e-01
3.888700000000000045e+01 6.612000000000000455e+01 -2.069099999999999895e+01 1.273274999999999935e+00 -1.778900953236776661e-01
3.888700000000000045e+01 6.612000000000000455e+01 -1.964099999999999824e+01 1.949381999999999948e+00 -1.744639779435196436e-01
3.892600000000000193e+01 6.744299999999999784e+01 -1.463599999999999923e+01 1.214798999999999962e+00 -1.580005804296935601e-01
3.894500000000000028e+01 6.308299999999999841e+01 -3.378000000000000114e+00 1.518272000000000066e+00 2.581524472839932249e-01
3.894500000000000028e+01 6.331000000000000227e+01 -4.177100000000000257e+00 4.657392000000000198e-01 2.495274804053443096e-01
3.894500000000000028e+01 6.331000000000000227e+01 -2.578899999999999970e+00 -1.350127999999999950e+01 1.378669213290968122e-02
3.894500000000000028e+01 6.425900000000000034e+01 -5.125899999999999679e+00 3.193862000000000201e+00 2.415933649691492102e-01
3.895100000000000051e+01 7.397899999999999920e+01 -8.611100000000000421e+00 -1.722101000000000104e+00 -7.638147903876632561e-02
3.895499999999999829e+01 7.347100000000000364e+01 1.508999999999999897e+00 -1.243877999999999950e+01 -8.239138515367321058e-02
3.896200000000000330e+01 6.292399999999999949e+01 -1.126299999999999990e+01 8.835407999999999262e+00 -1.571368417444234944e-01
3.898299999999999699e+01 6.125900000000000034e+01 -8.339700000000000557e+00 4.893234999999999779e+00 2.666488905684671895e-01
3.900099999999999767e+01 6.429800000000000182e+01 -6.868000000000000327e+00 8.859959999999999170e+00 2.397598125645275524e-01
3.900800000000000267e+01 7.375799999999999557e+01 -9.367100000000000648e+00 1.176320000000000032e+00 -7.637080826160975999e-02
3.900800000000000267e+01 7.396699999999999875e+01 -1.010299999999999976e+01 2.058060999999999918e+00 -7.639705597519916291e-02
3.901800000000000068e+01 7.101800000000000068e+01 3.415700000000000180e+00 -1.623429999999999929e+00 -3.710690867244137436e-02
3.901800000000000068e+01 7.253799999999999670e+01 3.415700000000000180e+00 -7.199276999999999305e+01 2.408624045482606335e-01
3.902100000000000080e+01 7.006999999999999318e+01 -2.155499999999999972e+01 -3.139137999999999984e+00 -1.773679465637104380e-01
3.903000000000000114e+01 6.393399999999999750e+01 -1.799700000000000077e+00 -1.962825000000000131e+01 3.154884334155881598e-02
3.903399999999999892e+01 7.446800000000000352e+01 -2.099099999999999966e+01 -7.160285000000000011e+00 -7.981623560358089287e-02
3.904099999999999682e+01 7.414300000000000068e+01 -1.900400000000000089e+00 2.052824999999999989e+01 -8.716281527465962603e-03
3.905899999999999750e+01 6.460099999999999909e+01 -6.168000000000000149e+00 5.682445999999999664e+00 2.354798531130565531e-01
3.906099999999999994e+01 6.747400000000000375e+01 -1.551399999999999935e+01 1.895548000000000011e+00 -1.604126121056168863e-01
3.906099999999999994e+01 6.768300000000000693e+01 -1.625000000000000000e+01 9.342347999999999431e+00 -1.632944225858228848e-01
3.906600000000000250e+01 8.046099999999999852e+01 -1.234299999999999997e+01 7.058860000000000134e+00 -9.523925374452946180e-02
3.907200000000000273e+01 7.897400000000000375e+01 -1.136100000000000065e+01 9.143829999999999458e+00 -7.671434055995109136e-02
3.907399999999999807e+01 7.406999999999999318e+01 -3.026899999999999924e+00 1.336818000000000062e+01 1.665768014024943816e-02
3.908899999999999864e+01 6.702500000000000568e+01 -1.805799999999999983e+01 4.653533000000000364e+00 -1.684600767434329405e-01
3.908899999999999864e+01 6.735299999999999443e+01 -1.731299999999999883e+01 2.876348000000000127e+00 -1.662051967080165893e-01
3.911500000000000199e+01 7.143899999999999295e+01 -2.199500000000000099e+01 -2.510619000000000156e+00 -1.772328624482160664e-01
3.912700000000000244e+01 7.816899999999999693e+01 -1.573499999999999943e+01 -1.305682999999999971e+01 -7.671282722914639363e-02
3.912700000000000244e+01 7.956900000000000261e+01 -1.573499999999999943e+01 -2.833264999999999922e+00 -7.675519878017592057e-02
3.912700000000000244e+01 8.108899999999999864e+01 -1.573499999999999943e+01 -1.755927000000000149e+01 -7.678975515731359391e-02
3.913400000000000034e+01 6.832299999999999329e+01 -2.165299999999999869e+01 6.197181999999999968e-01 -1.781327398329043132e-01
3.914000000000000057e+01 7.587399999999999523e+01 -2.012500000000000000e+01 -3.984091999999999967e+00 -8.009816118529862472e-02
3.914000000000000057e+01 7.610099999999999909e+01 -1.932600000000000051e+01 -2.016609000000000052e+01 -7.666252317528968185e-02
3.914200000000000301e+01 7.421200000000000330e+01 -1.315600000000000103e+00 1.281357000000000035e+01 -9.993224614791120994e-03
3.914500000000000313e+01 7.729399999999999693e+01 -1.663500000000000156e+01 -6.282052000000000191e+00 -7.668644544061815893e-02
3.914800000000000324e+01 7.418500000000000227e+01 -3.673399999999999999e-01 1.379747000000000057e+00 -1.221112053970291669e-02
3.917900000000000205e+01 6.650199999999999534e+01 -1.876399999999999935e+01 3.693381000000000025e+00 -1.704060706614103637e-01
3.918200000000000216e+01 6.565699999999999648e+01 -1.160000000000000059e-01 1.375118999999999936e+01 -2.804776646999545403e-02
3.920799999999999841e+01 7.622499999999999432e+01 -1.841900000000000048e+01 -2.441752999999999929e+01 -7.665874410860931687e-02
3.921200000000000330e+01 6.664499999999999602e+01 -2.154100000000000037e+01 1.096835999999999922e+00 -6.757785136412576554e-02
3.922899999999999920e+01 7.525799999999999557e+01 -1.104599999999999937e+01 3.646768999999999927e+00 -7.650639846035568736e-02
3.922899999999999920e+01 7.665800000000000125e+01 -1.104599999999999937e+01 4.038335000000000008e+00 -7.659483115778366324e-02
3.923599999999999710e+01 6.315400000000000347e+01 -7.429700000000000415e+00 4.269095000000000084e+00 2.455591455275452639e-01
3.924199999999999733e+01 7.733400000000000318e+01 -1.066799999999999926e+01 -2.158964000000000105e+00 -7.662731690995916445e-02
3.924199999999999733e+01 7.827200000000000557e+01 -1.066799999999999926e+01 -3.545198000000000071e+00 -7.667298149276663422e-02
3.927300000000000324e+01 7.379999999999999716e+01 6.033300000000000329e-01 -3.172622000000000142e+01 -8.304335269205437298e-02
3.927900000000000347e+01 7.054800000000000182e+01 -2.194200000000000017e+01 -5.586522999999999683e+00 -1.772863526059239303e-01
3.929200000000000159e+01 6.644599999999999795e+01 -1.277299999999999969e+01 2.213648000000000060e+00 -1.537583201827260049e-01
3.929699999999999704e+01 6.436700000000000443e+01 -1.099699999999999900e+00 3.020760999999999807e+00 4.173617504684951768e-02
3.929999999999999716e+01 7.305400000000000205e+01 -2.171600000000000108e+01 8.821215000000000028e-01 -1.762312588126532797e-01
3.930799999999999983e+01 7.300799999999999557e+01 2.655699999999999950e+00 -2.865002000000000137e+01 4.588300774048353903e-02
3.932800000000000296e+01 7.415699999999999648e+01 -6.382299999999999862e+00 5.019961000000000340e+00 -7.639771978188687751e-02
3.932800000000000296e+01 7.441100000000000136e+01 -7.275999999999999801e+00 -4.187358999999999831e+00 -7.641230709566512735e-02
3.933100000000000307e+01 6.792700000000000671e+01 3.157999999999999918e+00 3.450977999999999923e+01 -3.503587944361039735e-02
3.933700000000000330e+01 7.376800000000000068e+01 -2.104899999999999949e+01 2.171546000000000198e+00 -1.907697273815778249e-01
3.933899999999999864e+01 6.960899999999999466e+01 -2.184299999999999997e+01 -1.224266999999999994e+00 -1.774414284864354596e-01
3.934400000000000119e+01 6.458899999999999864e+01 -1.227399999999999913e+01 3.672981000000000051e+00 -1.638915713963192133e-01
3.934700000000000131e+01 7.177800000000000580e+01 3.479000000000000092e+00 -1.079194000000000031e+01 1.331070590142141574e-01
3.934700000000000131e+01 7.632800000000000296e+01 -1.776599999999999824e+01 -9.462901000000000451e+00 -7.665392308185817183e-02
3.935900000000000176e+01 7.879600000000000648e+01 -1.547499999999999964e+01 -4.835177999999999976e-01 -7.672466496191027163e-02
3.936999999999999744e+01 6.200300000000000011e+01 -8.173400000000000887e+00 2.983900999999999915e+00 2.591327276046801464e-01
3.938300000000000267e+01 7.229200000000000159e+01 -2.182199999999999918e+01 6.889132999999999507e-01 -1.764443675247074073e-01
3.938900000000000290e+01 7.353000000000000114e+01 -5.006899999999999906e+00 3.256205000000000016e+00 -7.637161698800978837e-02
3.939399999999999835e+01 6.362400000000000233e+01 -1.153100000000000058e+01 3.135883000000000198e+00 -1.573176371129840212e-01
3.941400000000000148e+01 6.374399999999999977e+01 -2.088200000000000056e+00 -1.370853000000000099e+00 2.401326407127081161e-02
3.941499999999999915e+01 6.384300000000000352e+01 -4.607700000000000351e+00 2.670573999999999781e+00 2.488528621330826363e-01
3.941700000000000159e+01 8.155899999999999750e+01 -1.497499999999999964e+01 -2.383691999999999922e+01 -9.523813128595530475e-02
3.941700000000000159e+01 8.155899999999999750e+01 -1.403500000000000014e+01 -4.984071999999999747e+01 -9.512307409581163831e-02
3.941700000000000159e+01 6.473999999999999488e+01 -5.823000000000000398e+00 6.141563999999999801e+00 2.398035406316395834e-01
3.944100000000000250e+01 7.445799999999999841e+01 -1.050000000000000000e+01 1.094562000000000035e+00 -7.644040447199315635e-02
3.945000000000000284e+01 7.031799999999999784e+01 3.148299999999999876e+00 2.048649999999999949e+01 -3.590245794221233466e-02
3.945300000000000296e+01 6.656000000000000227e+01 2.001399999999999846e+00 1.110886999999999958e+01 -2.827700768183506047e-02
3.945600000000000307e+01 8.032899999999999352e+01 -1.579800000000000004e+01 -8.578592000000000439e+00 -7.676351973150642716e-02
3.947599999999999909e+01 6.443699999999999761e+01 -6.522999999999999687e+00 6.215574000000000154e+00 2.346027638464401321e-01
3.947599999999999909e+01 6.443699999999999761e+01 -5.123000000000000220e+00 2.940425999999999984e+00 2.449229927569082366e-01
3.949199999999999733e+01 7.410299999999999443e+01 -8.264200000000000657e+00 -3.805549000000000071e+00 -7.639310035508654895e-02
3.951200000000000045e+01 7.959600000000000364e+01 -1.183000000000000007e+01 7.937573000000000434e+00 -9.545933231069550495e-02
3.951299999999999812e+01 6.633599999999999852e+01 1.399799999999999933e+00 1.698220999999999847e+01 -3.875113079291424983e-02
3.952300000000000324e+01 7.429300000000000637e+01 -2.407999999999999918e+00 1.202771000000000079e+01 -6.935448299798615927e-03
3.953000000000000114e+01 7.375499999999999545e+01 -5.557900000000000063e+00 5.668375000000000163e+00 -7.637999127890345019e-02
3.953000000000000114e+01 6.904999999999999716e+01 3.138999999999999790e+00 6.251480999999999710e+01 -3.533940708804222258e-02
3.953199999999999648e+01 7.595799999999999841e+01 -1.110399999999999920e+01 4.120199999999999640e+00 -7.654745638098163496e-02
3.953199999999999648e+01 7.403499999999999659e+01 -1.573700000000000099e+00 3.617865000000000109e+00 -9.436941209285789126e-03
3.954299999999999926e+01 6.706300000000000239e+01 -1.500399999999999956e+01 8.951365000000000016e-01 -1.568515756267564731e-01
3.954500000000000171e+01 7.332800000000000296e+01 -4.226099999999999746e+00 3.194681000000000104e+00 2.083465870966298358e-02
3.954500000000000171e+01 7.353700000000000614e+01 -3.490099999999999980e+00 4.835344000000000086e+00 1.817510032262019404e-02
3.956099999999999994e+01 7.302500000000000568e+01 1.765900000000000025e+00 -2.952746000000000137e+01 -7.788779582871563356e-02
3.957000000000000028e+01 5.991899999999999693e+01 -1.004499999999999993e+01 1.724452000000000140e+01 1.310493277193972364e-02
3.957000000000000028e+01 6.014999999999999858e+01 -1.085999999999999943e+01 4.920156999999999670e+00 5.345205128018087892e-02
3.957000000000000028e+01 6.014999999999999858e+01 -9.230100000000000193e+00 6.412130999999999581e+00 2.972346987692469633e-01
3.957000000000000028e+01 6.146900000000000119e+01 -1.159500000000000064e+01 3.598500000000000032e+00 7.989248572924459446e-02
3.959100000000000108e+01 8.105700000000000216e+01 -1.282399999999999984e+01 3.563492000000000104e+00 -9.510476786648273950e-02
3.960999999999999943e+01 7.534099999999999397e+01 -2.055600000000000094e+01 -1.710896999999999890e+00 -7.995393510310999652e-02
3.961099999999999710e+01 7.505299999999999727e+01 -1.076800000000000068e+01 4.045730999999999966e+00 -7.648424811340218121e-02
3.961500000000000199e+01 7.676099999999999568e+01 -1.706599999999999895e+01 -3.240664000000000211e+00 -7.665741237031777067e-02
3.962199999999999989e+01 6.489199999999999591e+01 -2.496700000000000030e-01 8.370530000000000470e+00 4.978658675873814249e-02
3.964300000000000068e+01 6.611799999999999500e+01 5.872500000000000497e-01 1.551840999999999937e+01 -3.345911804727163402e-02
3.965599999999999881e+01 7.384000000000000341e+01 -9.094699999999999562e+00 -3.212626999999999899e+00 -7.638084583114897186e-02
3.966199999999999903e+01 7.809600000000000364e+01 -1.553400000000000070e+01 -1.369031999999999982e+01 -7.669287502226360131e-02
3.966199999999999903e+01 7.949599999999999511e+01 -1.553400000000000070e+01 -2.299392000000000102e+00 -7.673584995403534559e-02
3.967699999999999960e+01 7.151000000000000512e+01 -2.192800000000000082e+01 -4.207442999999999600e+00 -1.764197378642709535e-01
3.967900000000000205e+01 6.718500000000000227e+01 2.987000000000000099e+00 1.291699999999999982e+01 -3.347180235257461028e-02
3.970499999999999829e+01 6.337299999999999756e+01 -3.847700000000000120e+00 -5.621210999999999736e+00 2.597669269767695077e-01
3.970499999999999829e+01 6.337299999999999756e+01 -2.908300000000000107e+00 -1.052529999999999966e+01 2.689789086688069153e-01
3.970799999999999841e+01 7.402500000000000568e+01 -9.799699999999999633e+00 2.631276000000000170e+00 -7.640117727408279880e-02
3.971399999999999864e+01 6.675400000000000489e+01 -1.336800000000000033e+01 1.306421000000000054e+00 -1.528646043239361429e-01
3.973299999999999699e+01 7.780299999999999727e+01 -1.023399999999999999e+01 -2.955433999999999983e+01 -7.663269611289739991e-02
3.973700000000000188e+01 6.579500000000000171e+01 -2.016600000000000037e+01 1.438093999999999983e+00 -1.686167711370637756e-01
3.973700000000000188e+01 6.604900000000000659e+01 -2.105999999999999872e+01 1.114753000000000105e+00 -1.714077888601444610e-01
3.973700000000000188e+01 6.604900000000000659e+01 -1.927199999999999847e+01 1.967138000000000053e+00 -1.640641231654263732e-01
3.973700000000000188e+01 6.749500000000000455e+01 -2.186599999999999966e+01 2.384290000000000020e+00 -6.738444100337491471e-02
3.973799999999999955e+01 6.391599999999999682e+01 -7.002900000000000347e+00 1.743111000000000033e+01 2.415277916733293007e-01
3.976100000000000279e+01 6.252799999999999869e+01 -7.786900000000000155e+00 6.331921999999999606e+00 2.525216829041923572e-01
3.976200000000000045e+01 6.283500000000000085e+01 -1.148300000000000054e+01 2.923598000000000141e+00 3.016811733874275731e-02
3.977000000000000313e+01 7.007899999999999352e+01 -2.237600000000000122e+01 -8.078419999999999490e-01 -1.772813300671478298e-01
3.977199999999999847e+01 7.903300000000000125e+01 -1.105700000000000038e+01 -1.649881999999999849e+01 -7.669082325096412966e-02
3.977300000000000324e+01 7.590999999999999659e+01 -1.796600000000000108e+01 -5.792429000000000272e+00 -7.663083670546724790e-02
3.977700000000000102e+01 7.325700000000000500e+01 1.065600000000000103e+00 -6.102918999999999983e+01 -7.852784851824978762e-02
3.977799999999999869e+01 7.224800000000000466e+01 2.946000000000000174e+00 -1.353439999999999976e+01 3.913383387081287301e-02
3.978099999999999881e+01 7.396899999999999409e+01 -6.115999999999999659e+00 -1.058489000000000013e+00 -7.639045769145827447e-02
3.979699999999999704e+01 7.314199999999999591e+01 -2.140599999999999881e+01 7.507938000000000223e+00 -1.753929024858418839e-01
3.981499999999999773e+01 6.985599999999999454e+01 3.176299999999999901e+00 2.103768000000000171e+01 -3.555549564377037675e-02
3.983400000000000318e+01 6.743399999999999750e+01 -1.582399999999999984e+01 1.223773999999999917e+00 -1.601011366422809834e-01
3.983400000000000318e+01 6.764300000000000068e+01 -1.655999999999999872e+01 4.542567000000000021e+00 -1.628830988348571318e-01
3.983800000000000097e+01 6.456699999999999307e+01 -4.727999999999999758e+00 -2.124680000000000124e+00 2.503057327238080165e-01
3.984100000000000108e+01 7.257699999999999818e+01 2.185999999999999943e+00 -3.322505999999999915e+01 3.919020452568099805e-02
3.986399999999999721e+01 6.741800000000000637e+01 -1.764900000000000091e+01 8.665359000000000256e-01 -1.659386133646455486e-01
3.986899999999999977e+01 6.396300000000000097e+01 -1.191699999999999982e+01 2.876355999999999913e+00 2.644134576021577726e-02
3.986899999999999977e+01 6.543899999999999295e+01 -1.259900000000000020e+01 3.211362999999999968e+00 -1.594059428691444735e-01
3.988700000000000045e+01 8.079900000000000659e+01 -1.526500000000000057e+01 -2.113967999999999847e+01 -7.676013163468452249e-02
3.989999999999999858e+01 7.581100000000000705e+01 -1.979599999999999937e+01 -1.278345000000000020e+01 -8.006363413910848326e-02
3.989999999999999858e+01 7.581100000000000705e+01 -1.885600000000000165e+01 -2.249923000000000073e+01 -7.663312376945305426e-02
3.990500000000000114e+01 7.723099999999999454e+01 -1.630600000000000094e+01 -1.786691000000000074e+01 -7.666118243472416771e-02
3.990800000000000125e+01 6.513700000000000045e+01 -6.255600000000000271e+00 1.404573000000000071e+01 2.400051711639290541e-01
3.990800000000000125e+01 6.513700000000000045e+01 -5.390399999999999636e+00 6.280136999999999858e+00 2.457049363642149764e-01
3.991499999999999915e+01 7.575300000000000011e+01 -1.082699999999999996e+01 7.088026000000000160e+00 -7.652554480098043566e-02
3.993299999999999983e+01 7.128199999999999648e+01 2.938400000000000123e+00 -9.598689000000000249e+00 -3.536185508428381363e-02
3.993900000000000006e+01 7.458100000000000307e+01 -2.061899999999999977e+01 -4.543746000000000174e-01 -7.981407674148516262e-02
3.997399999999999665e+01 7.364400000000000546e+01 2.387100000000000055e-01 -4.068258999999999759e+01 -7.982224067674568990e-02
4.000699999999999790e+01 8.122199999999999420e+01 -1.454100000000000037e+01 -2.078788000000000125e+01 -7.676403575987139627e-02
4.004899999999999949e+01 6.069400000000000261e+01 -1.129899999999999949e+01 2.189201999999999870e+01 3.428096542478904774e-02
4.004899999999999949e+01 6.069400000000000261e+01 -8.791000000000000369e+00 4.867045999999999872e-01 2.862240133645855833e-01
4.004899999999999949e+01 7.376500000000000057e+01 -6.636199999999999877e-01 -1.843674000000000035e+01 -8.058586363238937067e-02
4.006000000000000227e+01 6.825199999999999534e+01 -2.196900000000000119e+01 1.979433999999999916e+00 -1.768949665990980635e-01
4.006199999999999761e+01 7.704300000000000637e+01 -1.029700000000000060e+01 -1.355953000000000053e+01 -7.658825601727466126e-02
4.006199999999999761e+01 7.856300000000000239e+01 -1.029700000000000060e+01 -2.437934999999999874e+01 -7.665784029260534760e-02
4.006199999999999761e+01 7.759399999999999409e+01 -1.560500000000000043e+01 -7.515189999999999593e+00 -7.666485208171616716e-02
4.008899999999999864e+01 7.454000000000000625e+01 -1.022700000000000031e+01 3.497084000000000081e+00 -7.644188009232835701e-02
4.008899999999999864e+01 7.347100000000000364e+01 -5.310299999999999798e+00 5.210556999999999661e+00 -7.637168440279247517e-02
4.009899999999999665e+01 6.931900000000000261e+01 -2.231299999999999883e+01 -2.238207999999999864e-01 -1.769740461297971690e-01
4.009899999999999665e+01 7.083899999999999864e+01 -2.231299999999999883e+01 -8.310408999999999713e-01 -1.765050625431855980e-01
4.009899999999999665e+01 7.991200000000000614e+01 -1.186200000000000010e+01 6.904463999999999935e+00 -9.532071622907831165e-02
4.010699999999999932e+01 7.245000000000000284e+01 1.118999999999999995e+00 -8.313639000000000578e+01 -7.395353398421813940e-02
4.010699999999999932e+01 7.199299999999999500e+01 2.002499999999999947e+00 -4.335687999999999676e+01 4.172980332132224246e-02
4.011399999999999721e+01 6.223599999999999710e+01 -1.139899999999999913e+01 2.513447000000000209e+00 2.485153250921629323e-02
4.011599999999999966e+01 8.046099999999999852e+01 -1.234299999999999997e+01 3.186036999999999964e+01 -9.521556379340929965e-02
4.011899999999999977e+01 7.229200000000000159e+01 -2.161299999999999955e+01 6.520194000000000267e-01 -1.753922545964048951e-01
4.012899999999999778e+01 6.344500000000000028e+01 -1.155199999999999960e+01 3.292729000000000017e+00 1.851947701360575141e-02
4.014699999999999847e+01 6.429600000000000648e+01 -7.312600000000000211e-01 2.524478000000000222e+00 1.246345648240426533e-02
4.014699999999999847e+01 6.562699999999999534e+01 1.906499999999999861e-01 6.836280000000000356e+00 1.835849585370097695e-02
4.015800000000000125e+01 6.620099999999999341e+01 9.969799999999999773e-01 8.968550999999999718e+00 -3.559563498212163501e-02
4.015800000000000125e+01 6.640999999999999659e+01 1.733000000000000096e+00 2.452000999999999920e+01 -1.418426313310017228e-01
4.015800000000000125e+01 6.664100000000000534e+01 2.547899999999999832e+00 2.301426000000000016e+01 -3.067322215516484624e-02
4.015800000000000125e+01 6.795999999999999375e+01 3.282999999999999918e+00 4.563006000000000029e+01 -3.478464438374424123e-02
4.016700000000000159e+01 7.878100000000000591e+01 -1.522100000000000009e+01 3.281280000000000197e+00 -7.669920929382770258e-02
4.017499999999999716e+01 6.413299999999999557e+01 -4.137999999999999901e+00 -1.536639999999999950e-01 2.583662373428222692e-01
4.017600000000000193e+01 6.470399999999999352e+01 -6.955599999999999561e+00 2.029210000000000136e+01 2.409167100921516536e-01
4.017799999999999727e+01 7.408599999999999852e+01 -7.801300000000000345e+00 -6.120322999999999958e+00 -7.639640056242552602e-02
4.018699999999999761e+01 6.399300000000000210e+01 -1.661699999999999955e+00 -3.832538999999999807e-01 -1.348397870712918093e-03
4.020199999999999818e+01 7.059999999999999432e+01 3.009999999999999787e+00 1.102490000000000059e+01 -3.512858432864437302e-02
4.023199999999999932e+01 7.376800000000000068e+01 -1.141000000000000014e+00 -2.728734999999999999e+01 -8.015226641081715786e-02
4.023199999999999932e+01 7.397700000000000387e+01 -2.938899999999999846e+00 -9.621885999999999939e+00 1.672039641053716524e-02
4.023199999999999932e+01 7.397700000000000387e+01 -1.877099999999999991e+00 -3.724385000000000190e+01 -8.460581936952028120e-03
4.023799999999999955e+01 6.380400000000000205e+01 -3.378000000000000114e+00 -4.226119999999999877e-01 2.671623178230823070e-01
4.024300000000000210e+01 7.388100000000000023e+01 -2.067699999999999960e+01 1.039317999999999920e+01 -1.896564983120321846e-01
4.026200000000000045e+01 6.392600000000000193e+01 -2.561199999999999921e+00 -1.137251999999999974e+01 2.731750910021256695e-01
4.026200000000000045e+01 6.664499999999999602e+01 -2.154100000000000037e+01 1.246247000000000105e+00 -1.713353725828588581e-01
4.026200000000000045e+01 6.664499999999999602e+01 -1.879100000000000037e+01 6.063735000000000319e+00 -1.614023202379000765e-01
4.026599999999999824e+01 6.904999999999999716e+01 3.348100000000000076e+00 3.633039000000000129e+01 -3.542579276722500337e-02
4.027100000000000080e+01 6.526699999999999591e+01 -4.995400000000000063e+00 5.575628000000000029e+00 2.502262068044357468e-01
4.028399999999999892e+01 6.613899999999999579e+01 -1.274799999999999933e+01 5.424262999999999835e+00 1.037706692042962391e-02
4.028600000000000136e+01 6.315400000000000347e+01 -7.429700000000000415e+00 1.995091999999999999e+01 2.470310769313170396e-01
4.030299999999999727e+01 6.677299999999999613e+01 -1.453400000000000070e+01 9.163873000000000157e-01 -1.663575029519708814e-01
4.030299999999999727e+01 6.700000000000000000e+01 -1.533300000000000018e+01 9.512914000000000092e-01 -1.685847610917075301e-01
4.030599999999999739e+01 7.328100000000000591e+01 -4.504100000000000215e+00 6.827342999999999940e+00 3.254345852421137997e-02
4.030599999999999739e+01 7.348999999999999488e+01 -3.767999999999999794e+00 -1.197591000000000072e+00 1.918366720872443851e-02
4.032800000000000296e+01 7.565600000000000591e+01 -1.774800000000000111e+01 -6.782466999999999580e+00 -7.660862311980129458e-02
4.034499999999999886e+01 6.021500000000000341e+01 -1.052399999999999913e+01 5.857774000000000036e+00 -2.179069778204246327e-03
4.034499999999999886e+01 6.021500000000000341e+01 -9.566000000000000725e+00 4.792661999999999978e+00 3.009806451927162230e-01
4.036999999999999744e+01 7.505100000000000193e+01 -2.008599999999999852e+01 -8.229860999999999649e+00 -7.990116052250001433e-02
4.037500000000000000e+01 7.647100000000000364e+01 -1.659600000000000009e+01 -3.813731999999999900e+00 -7.662535673832673866e-02
4.038499999999999801e+01 6.146900000000000119e+01 -1.136400000000000077e+01 3.171213999999999977e+00 2.172650167267457452e-02
4.038499999999999801e+01 6.146900000000000119e+01 -8.726499999999999702e+00 -5.271126999999999896e+00 2.735189713833745540e-01
4.039399999999999835e+01 6.458899999999999864e+01 -1.227399999999999913e+01 6.564705000000000013e+00 1.816058289108935658e-02
4.040999999999999659e+01 7.739300000000000068e+01 -1.493099999999999916e+01 -7.326064999999999827e+00 -7.664339601028888338e-02
4.043299999999999983e+01 7.537999999999999545e+01 -1.932600000000000051e+01 -1.994518000000000058e+01 -8.000295709821393653e-02
4.044100000000000250e+01 8.098600000000000421e+01 -1.424300000000000033e+01 -1.122404000000000046e+01 -7.674584128704617370e-02
4.044100000000000250e+01 8.098600000000000421e+01 -1.319299999999999962e+01 1.360147000000000084e+01 -9.516916791395253761e-02
4.044400000000000261e+01 7.288400000000000034e+01 5.290000000000000258e-01 -5.804805999999999955e+01 -7.494733385318516627e-02
4.047599999999999909e+01 7.528400000000000603e+01 -1.039400000000000013e+01 2.431853999999999871e+01 -7.648780606383734360e-02
4.047599999999999909e+01 7.668399999999999750e+01 -1.039400000000000013e+01 -8.045237000000000194e+00 -7.656354706746455741e-02
4.047699999999999676e+01 7.691400000000000148e+01 -1.582300000000000040e+01 -4.208879999999999910e+01 -7.663215664373088098e-02
4.048499999999999943e+01 7.961100000000000421e+01 -1.516399999999999970e+01 2.632897999999999961e+00 -7.671430324684851143e-02
4.049699999999999989e+01 7.384900000000000375e+01 -8.820700000000000429e+00 -1.133933999999999997e+01 -7.638850657886729623e-02
4.049699999999999989e+01 7.405800000000000693e+01 -9.556699999999999307e+00 3.705630999999999786e-01 -7.640652885918516879e-02
4.050699999999999790e+01 7.167799999999999727e+01 1.304100000000000037e+00 -1.798826999999999998e+01 4.438320913781493293e-02
4.053199999999999648e+01 7.780299999999999727e+01 -1.000699999999999967e+01 -1.519865000000000066e+01 -7.661197665320299000e-02
4.053199999999999648e+01 7.909600000000000364e+01 -1.072799999999999976e+01 -1.955623999999999896e+01 -7.666934518178321334e-02
4.053199999999999648e+01 7.942100000000000648e+01 -1.146499999999999986e+01 1.063036000000000092e+00 -7.668591804195533379e-02
4.053799999999999670e+01 6.483400000000000318e+01 -4.295399999999999885e+00 -4.863584999999999603e+00 2.574620810004130123e-01
4.056400000000000006e+01 6.768500000000000227e+01 -1.721600000000000108e+01 1.348444999999999894e+00 -1.639750319260175337e-01
4.056499999999999773e+01 7.198099999999999454e+01 6.041299999999999448e-01 -3.083656999999999826e+01 -7.063293280643774541e-02
4.056900000000000261e+01 7.007899999999999352e+01 -2.260300000000000153e+01 -1.838179000000000007e+00 -1.764296737709800666e-01
4.058200000000000074e+01 7.327800000000000580e+01 -1.833599999999999952e-01 -5.917694000000000187e+01 -7.644051868753520829e-02
4.058700000000000330e+01 6.612000000000000455e+01 -2.069099999999999895e+01 1.417734000000000050e+00 -1.697525073195048917e-01
4.058700000000000330e+01 6.612000000000000455e+01 -1.964099999999999824e+01 4.054920000000000080e+00 -1.657391084169876627e-01
4.058700000000000330e+01 7.393200000000000216e+01 -5.831299999999999706e+00 3.898233999999999866e-01 -7.639708620490820445e-02
4.058700000000000330e+01 7.418600000000000705e+01 -6.724999999999999645e+00 -3.892255000000000020e+00 -7.640664237426667005e-02
4.059300000000000352e+01 7.143800000000000239e+01 -2.196099999999999852e+01 -1.119003000000000014e+01 -1.753665559359680048e-01
4.060499999999999687e+01 6.872899999999999920e+01 -2.197599999999999909e+01 -5.255103000000000080e+00 -1.758345036461534394e-01
4.060799999999999699e+01 6.519499999999999318e+01 -6.559000000000000163e+00 6.477185999999999666e+00 2.412162002600263533e-01
4.062400000000000233e+01 6.677599999999999625e+01 -1.326099999999999923e+01 6.399588999999999972e-01 -1.648423250884194780e-01
4.063100000000000023e+01 6.749500000000000455e+01 -2.161199999999999832e+01 9.123771000000000519e-01 -1.698206356499286085e-01
4.063499999999999801e+01 6.990000000000000568e+01 3.277299999999999880e+00 3.532943000000000211e+01 -3.528869446800134146e-02
4.063700000000000045e+01 6.718500000000000227e+01 2.987000000000000099e+00 3.493137000000000114e+01 -3.278809061595521629e-02
4.064099999999999824e+01 6.395100000000000051e+01 -7.243199999999999861e+00 1.613447000000000031e+01 2.437533552434950901e-01
4.064699999999999847e+01 7.281699999999999307e+01 -2.088100000000000023e+01 1.666430000000000078e+01 -1.740044127841786914e-01
4.065100000000000335e+01 6.611799999999999500e+01 5.872500000000000497e-01 9.483041999999999305e+00 1.310618812691637103e-02
4.065100000000000335e+01 6.632699999999999818e+01 1.323299999999999921e+00 2.007370999999999839e+01 -1.427123490189913246e-01
4.065400000000000347e+01 6.440000000000000568e+01 -3.621199999999999974e+00 1.616427999999999976e+00 2.651166680673586185e-01
4.065500000000000114e+01 6.271000000000000085e+01 -1.122799999999999976e+01 7.928551999999999822e+00 3.564801523414040663e-03
4.065699999999999648e+01 7.144299999999999784e+01 1.753400000000000070e+00 6.301339999999999719e+00 4.492823935204664360e-02
4.066599999999999682e+01 6.765300000000000580e+01 -1.783500000000000085e+01 4.351983999999999853e+00 -1.656320565066285166e-01
4.067199999999999704e+01 6.489199999999999591e+01 -2.496700000000000030e-01 4.444290999999999769e+00 7.476597877323856549e-03
4.072699999999999676e+01 6.812000000000000455e+01 3.406400000000000095e+00 3.155827000000000027e+01 -3.485077152749602863e-02
4.072699999999999676e+01 7.098699999999999477e+01 2.399099999999999788e+00 4.273850000000000193e+01 -3.358982614872313421e-02
4.074600000000000222e+01 6.258899999999999864e+01 -8.307100000000000151e+00 1.841004999999999825e+01 2.580769238607716898e-01
4.075800000000000267e+01 7.464300000000000068e+01 -1.932600000000000051e+01 -6.516418999999999961e+00 -7.987064469363450159e-02
4.075999999999999801e+01 7.356600000000000250e+01 -8.147799999999999487e-01 -1.748460999999999999e+01 -7.723106728584534786e-02
4.076299999999999812e+01 6.543899999999999295e+01 -1.234500000000000064e+01 1.153533000000000008e+01 7.666657635958015748e-03
4.077199999999999847e+01 6.743399999999999750e+01 -1.582399999999999984e+01 8.634131999999999918e-01 -1.707939875187353129e-01
4.077199999999999847e+01 6.764300000000000068e+01 -1.655999999999999872e+01 1.561576000000000075e+00 -1.727343611005314195e-01
4.080499999999999972e+01 6.228600000000000136e+01 -9.007099999999999440e+00 5.852618999999999971e+01 2.663358869956429231e-01
4.080700000000000216e+01 7.782599999999999341e+01 -1.443999999999999950e+01 1.010993000000000031e+01 -7.664607887636641637e-02
4.080700000000000216e+01 7.577100000000000080e+01 -1.686299999999999955e+01 2.275093000000000032e+01 -7.659457734968361242e-02
4.082399999999999807e+01 6.099000000000000199e+01 -1.082000000000000028e+01 4.426521000000000150e+00 -8.152708160032742096e-03
4.082399999999999807e+01 6.099000000000000199e+01 -9.269999999999999574e+00 2.139891000000000076e+01 2.854867199022860236e-01
4.084000000000000341e+01 7.395499999999999829e+01 -1.988299999999999912e+01 1.139095999999999975e+01 -1.894014422225056560e-01
4.084300000000000352e+01 7.669299999999999784e+01 -1.519800000000000040e+01 -5.373361000000000054e+00 -7.661024793208451311e-02
4.085799999999999699e+01 7.245600000000000307e+01 -1.634299999999999919e-01 -3.502391999999999683e+01 -7.219429742422477092e-02
4.085900000000000176e+01 6.730899999999999750e+01 -1.846499999999999986e+01 4.628055999999999948e+00 -1.600714354656104510e-01
4.087599999999999767e+01 7.505700000000000216e+01 -1.824699999999999989e+01 -8.989888999999999797e+00 -8.001103757501812352e-02
4.087700000000000244e+01 6.404200000000000159e+01 -1.187899999999999956e+01 8.358000000000000540e+00 6.529214494601982832e-03
4.088900000000000290e+01 6.065400000000000347e+01 -1.004499999999999993e+01 1.202397999999999989e+01 -3.972480476227276125e-02
4.092799999999999727e+01 6.194599999999999795e+01 -1.087299999999999933e+01 4.277821000000000318e+00 -1.127760166561696427e-02
4.093299999999999983e+01 6.670600000000000307e+01 2.212000000000000188e+00 2.505134999999999934e+01 -1.451743345881010838e-01
4.093399999999999750e+01 6.819499999999999318e+01 -2.167000000000000171e+01 -3.455355999999999983e-01 -1.688520174115069328e-01
4.094100000000000250e+01 7.300900000000000034e+01 -2.005799999999999983e+01 2.317221999999999937e+01 -1.871157526921993497e-01
4.094299999999999784e+01 7.199399999999999977e+01 -2.114600000000000080e+01 -1.025874999999999915e+01 -1.739894583642221659e-01
4.095499999999999829e+01 6.524200000000000443e+01 -4.496999999999999886e+00 6.788261999999999574e+00 2.571359958057495287e-01
4.096600000000000108e+01 7.908599999999999852e+01 -1.456799999999999962e+01 1.403040000000000020e+01 -7.668439132629935318e-02
4.096600000000000108e+01 8.013599999999999568e+01 -1.456799999999999962e+01 9.148574999999999235e+00 -7.671311005951049478e-02
4.096600000000000108e+01 8.013599999999999568e+01 -1.286800000000000033e+01 2.209761999999999915e+01 -7.670490903269444605e-02
