-2.229000000000000092e+00 3.055499999999999972e+01 4.443800000000000239e+01 -3.071839999999999904e+01 -2.776181693725313648e-01
-2.213600000000000012e+00 4.125399999999999778e+01 4.820100000000000051e+01 -5.376299999999999635e+00 -2.165708327944646516e-01
-2.211699999999999999e+00 4.031700000000000017e+01 3.092999999999999972e+01 -4.509281999999999790e+00 1.299479815240389413e-01
-2.211699999999999999e+00 4.201700000000000301e+01 3.092999999999999972e+01 5.369606000000000101e+00 1.135069587850834755e-01
-2.208299999999999930e+00 3.790800000000000125e+01 3.069200000000000017e+01 -6.587634999999999685e+00 -5.766063687842137853e-02
-2.207599999999999785e+00 2.598400000000000176e+01 3.173499999999999943e+01 -1.443445999999999896e-01 -2.860346341400999970e-01
-2.205400000000000027e+00 3.442099999999999937e+01 4.356600000000000250e+01 2.245710000000000051e+01 -1.731892168141829225e-01
-2.203899999999999970e+00 4.373799999999999955e+01 4.809199999999999875e+01 -3.493806999999999885e+00 -2.167451707277259776e-01
-2.201099999999999834e+00 5.009000000000000341e+01 5.138799999999999812e+01 -4.694683999999999635e+00 -2.782648042978910219e-01
-2.197999999999999954e+00 4.652499999999999858e+01 3.560399999999999920e+01 -1.280372999999999983e+01 7.813225297565430660e-02
-2.197999999999999954e+00 4.781799999999999784e+01 3.632500000000000284e+01 -1.409760999999999953e+01 -1.964881850600086119e-02
-2.197999999999999954e+00 4.814300000000000068e+01 3.706199999999999761e+01 -1.549166999999999916e+01 -1.624447819497795015e-02
-2.192600000000000104e+00 3.775999999999999801e+01 4.514399999999999835e+01 -2.898586999999999847e+01 8.536737007588088288e-02
-2.185999999999999943e+00 3.407300000000000040e+01 4.437400000000000233e+01 3.449372000000000327e+01 -1.723179747116804494e-01
-2.183199999999999807e+00 3.983599999999999852e+01 5.149300000000000210e+01 -6.307382999999999740e+00 -2.148474061366159038e-01
-2.172699999999999854e+00 3.617000000000000171e+01 2.902899999999999991e+01 -9.154700000000000060e+00 -2.166095903432476710e-01
-2.155699999999999950e+00 4.468200000000000216e+01 5.364399999999999835e+01 -2.965394000000000085e-01 -3.522186945192071761e-01
-2.145599999999999952e+00 4.343500000000000227e+01 4.879200000000000159e+01 -9.908476999999999979e-01 -3.132480996828487241e-01
-2.139699999999999935e+00 2.936400000000000077e+01 2.870499999999999829e+01 -6.806014000000000230e+00 -2.806683662961325654e-01
-2.137999999999999901e+00 4.416299999999999670e+01 3.802600000000000335e+01 3.173048000000000091e+00 8.293767665635823350e-02
-2.136000000000000121e+00 3.251299999999999812e+01 4.385300000000000153e+01 -8.490418000000000021e+00 -1.818805251568141323e-01
-2.133999999999999897e+00 3.473599999999999710e+01 2.823699999999999832e+01 -2.855808999999999997e+01 -1.925418241110090078e-01
-2.133700000000000152e+00 3.564300000000000068e+01 4.435999999999999943e+01 2.531474000000000046e+01 8.586099645920204637e-02
-2.133700000000000152e+00 3.650900000000000034e+01 4.435999999999999943e+01 6.959375999999999785e+00 8.577775451359725967e-02
-2.133700000000000152e+00 5.233500000000000085e+01 3.874099999999999966e+01 -9.706507000000000218e+00 -5.084607369513164526e-03
-2.133700000000000152e+00 5.385499999999999687e+01 3.874099999999999966e+01 -1.404259000000000057e+01 -3.884479196005560016e-03
-2.129000000000000004e+00 3.754500000000000171e+01 2.994999999999999929e+01 -5.132543000000000077e+00 -2.345555706380630934e-01
-2.126999999999999780e+00 4.232699999999999818e+01 4.884700000000000131e+01 -7.569570999999999827e+00 -2.162559021715713681e-01
-2.120600000000000041e+00 3.987800000000000011e+01 5.050800000000000267e+01 -6.629399000000000264e+00 -2.150873186381783986e-01
-2.096600000000000019e+00 5.131099999999999994e+01 3.956799999999999784e+01 3.404624000000000095e+00 -5.698453012864192375e-03
-2.087099999999999955e+00 2.911499999999999844e+01 4.370900000000000318e+01 -2.618686999999999898e+01 -2.763155742193982300e-01
-2.069999999999999840e+00 4.265200000000000102e+01 4.619500000000000028e+01 5.447739000000000331e-01 8.475208631512841373e-02
-2.064999999999999947e+00 2.801999999999999957e+01 3.470199999999999818e+01 -2.267304000000000030e+01 -1.849591774687669721e-01
-2.064999999999999947e+00 2.801999999999999957e+01 3.556700000000000017e+01 -1.393267999999999951e+01 -3.265454773460430560e-01
-2.060999999999999943e+00 3.489999999999999858e+01 4.434100000000000108e+01 3.967034000000000304e+01 -1.730298630566766138e-01
-2.052999999999999936e+00 2.556400000000000006e+01 2.546799999999999997e+01 3.318064999999999998e+01 -1.713277274640182535e-01
-2.043000000000000149e+00 4.082900000000000063e+01 5.457200000000000273e+01 -3.853641999999999790e+00 -3.526753668230551142e-01
-2.040999999999999925e+00 3.066100000000000136e+01 2.724200000000000088e+01 -1.893180999999999869e+01 -2.735013347314768639e-01
-2.033399999999999874e+00 3.030499999999999972e+01 2.797400000000000020e+01 -8.399616999999999223e+00 -2.776677993364587982e-01
-2.029100000000000126e+00 4.988499999999999801e+01 4.019700000000000273e+01 3.273756000000000110e+00 -6.748436447193778553e-03
-2.029100000000000126e+00 5.075099999999999767e+01 4.019700000000000273e+01 3.727083999999999975e+01 -5.650779548633979264e-03
-2.027200000000000113e+00 3.952000000000000313e+01 4.538400000000000034e+01 -6.493509000000000242e+01 8.554361365440921183e-02
-2.023800000000000043e+00 4.153600000000000136e+01 5.504500000000000171e+01 -4.864044999999999952e+00 -3.525102699303103715e-01
-2.023800000000000043e+00 4.247399999999999665e+01 5.504500000000000171e+01 -1.252083000000000013e+01 -3.523716515694373941e-01
-2.023800000000000043e+00 5.371399999999999864e+01 4.325399999999999778e+01 -4.186659999999999826e+01 -2.782785822210990800e-01
-2.015600000000000058e+00 4.135999999999999943e+01 4.881300000000000239e+01 -4.281490999999999936e+00 -2.158931250814343783e-01
-2.014200000000000212e+00 5.476299999999999812e+01 4.208200000000000074e+01 -5.198131999999999664e+01 -2.781019049905144591e-01
-2.001900000000000013e+00 3.189099999999999824e+01 2.641900000000000048e+01 -1.519778999999999947e+01 -2.671532251813156789e-01
-1.996299999999999963e+00 3.368500000000000227e+01 4.356600000000000250e+01 1.230686000000000035e+01 -1.719028512920427187e-01
-1.996299999999999963e+00 3.515699999999999648e+01 4.356600000000000250e+01 3.921323999999999899e+01 -1.736902751729665073e-01
-1.995000000000000107e+00 4.388400000000000034e+01 3.424799999999999756e+01 -2.050984000000000052e+01 8.272743563177471782e-02
-1.995000000000000107e+00 4.420900000000000318e+01 3.498499999999999943e+01 -2.863663999999999987e+01 8.287337087145996151e-02
-1.966599999999999904e+00 2.687199999999999989e+01 3.056800000000000139e+01 -6.773308000000000106e+00 -2.838005639128780566e-01
-1.963500000000000023e+00 4.536800000000000210e+01 3.576400000000000290e+01 -6.752603999999999829e+00 8.259140785944343865e-02
-1.961699999999999999e+00 4.052400000000000091e+01 4.561999999999999744e+01 -1.900299000000000049e+01 8.552999339233649523e-02
-1.957899999999999974e+00 3.318800000000000239e+01 2.714900000000000091e+01 -1.882525000000000048e+01 -2.775045129794780352e-01
-1.956399999999999917e+00 4.089699999999999847e+01 4.966599999999999682e+01 1.133774999999999977e+01 -2.153134169466376924e-01
-1.955999999999999961e+00 4.102000000000000313e+01 4.641700000000000159e+01 -7.520118000000000080e+00 -2.172580616108451823e-01
-1.953300000000000036e+00 2.752899999999999991e+01 2.912699999999999889e+01 -1.568036999999999992e+01 -2.802331808203380459e-01
-1.947500000000000009e+00 2.835900000000000176e+01 4.285499999999999687e+01 -9.936699000000000837e+00 -2.757147530138178149e-01
-1.939000000000000057e+00 5.489000000000000057e+01 4.106499999999999773e+01 -2.682988999999999891e+01 -2.782582087271056048e-01
-1.937999999999999945e+00 3.398799999999999955e+01 4.286599999999999966e+01 9.918736000000000885e+00 -1.725090724874220327e-01
-1.937999999999999945e+00 3.485300000000000153e+01 4.286599999999999966e+01 1.877162999999999826e+01 -1.736406528691450402e-01
-1.933000000000000052e+00 4.445400000000000063e+01 4.754099999999999682e+01 -4.543838000000000044e+00 -2.162753847238248484e-01
-1.928900000000000059e+00 4.342699999999999960e+01 3.802600000000000335e+01 -5.422132000000000396e+00 8.546100186656432895e-02
-1.928900000000000059e+00 4.489900000000000091e+01 3.802600000000000335e+01 -1.984698999999999991e+00 8.436391948663121698e-02
-1.927699999999999969e+00 2.680900000000000105e+01 3.305100000000000193e+01 5.636447999999999681e+00 -2.884738041121275298e-01
-1.915000000000000036e+00 4.935000000000000142e+01 4.911699999999999733e+01 3.741163999999999845e+01 -2.785740583404127113e-01
-1.915000000000000036e+00 4.955899999999999750e+01 4.838100000000000023e+01 2.353456999999999866e+01 -2.786554723547682855e-01
-1.915000000000000036e+00 5.075000000000000000e+01 4.771699999999999875e+01 -3.842103999999999786e+01 -2.782811001901162595e-01
-1.915000000000000036e+00 5.204299999999999926e+01 4.699600000000000222e+01 -4.263788000000000267e+01 -2.778698482214445598e-01
-1.915000000000000036e+00 5.227000000000000313e+01 4.619700000000000273e+01 -2.286964000000000041e+01 -2.779427085047598833e-01
-1.914900000000000047e+00 4.660300000000000153e+01 5.268500000000000227e+01 3.223721999999999976e+00 -3.114798332454879470e-01
-1.902700000000000058e+00 2.678900000000000148e+01 3.971099999999999852e+01 -9.261929000000000300e+00 -2.764360690732734493e-01
-1.900600000000000067e+00 4.866199999999999903e+01 3.853799999999999670e+01 6.275036000000000502e-01 -8.219633559331690834e-03
-1.893199999999999994e+00 2.846799999999999997e+01 2.902799999999999869e+01 -8.117221999999999937e+00 -2.802208794590175245e-01
-1.889999999999999902e+00 2.719999999999999929e+01 2.988700000000000045e+01 -7.896702999999999584e+00 -2.821059759254287425e-01
-1.887000000000000011e+00 4.254200000000000159e+01 3.178000000000000114e+01 5.412418999999999869e+00 8.786354778466871907e-02
-1.874700000000000033e+00 4.415100000000000335e+01 4.684100000000000108e+01 -4.880411999999999750e+00 -2.165226371013019846e-01
-1.870600000000000041e+00 4.372999999999999687e+01 3.732600000000000051e+01 -8.822324999999999307e+00 8.584630178690685898e-02
-1.870600000000000041e+00 4.459499999999999886e+01 3.732600000000000051e+01 -5.663014000000000436e+00 8.509594016704741248e-02
-1.870600000000000041e+00 4.459499999999999886e+01 3.872599999999999909e+01 6.134642000000000372e+00 8.515904091691681166e-02
-1.856899999999999995e+00 2.644000000000000128e+01 3.220100000000000051e+01 2.581567000000000167e+00 -2.865744009885544674e-01
-1.852300000000000058e+00 2.796900000000000119e+01 3.394500000000000028e+01 -1.630601000000000056e+01 -2.910045858318989209e-01
-1.850000000000000089e+00 4.897800000000000153e+01 3.929899999999999949e+01 2.036083999999999961e+01 -6.580591559219532878e-03
-1.843299999999999939e+00 4.116700000000000159e+01 3.085900000000000176e+01 -1.219497999999999971e+00 1.327072811299280508e-01
-1.829299999999999926e+00 4.858899999999999864e+01 3.780299999999999727e+01 -1.194134000000000029e+01 -8.009792019132867119e-03
-1.819600000000000106e+00 2.672500000000000142e+01 3.139499999999999957e+01 -1.067207999999999934e+00 -2.851921971618623375e-01
-1.819600000000000106e+00 2.615399999999999991e+01 3.767199999999999704e+01 -9.012351000000000667e+00 -3.217747524875737564e-01
-1.807199999999999918e+00 4.267099999999999937e+01 3.273799999999999955e+01 -7.487638999999999712e+00 9.013641182200951563e-02
-1.804300000000000015e+00 3.702000000000000313e+01 2.910000000000000142e+01 -4.957062999999999775e+00 -2.252702650977422005e-01
-1.801500000000000101e+00 5.464800000000000324e+01 4.014999999999999858e+01 -6.155978999999999957e+01 -2.784925853951699115e-01
-1.798899999999999944e+00 4.911500000000000199e+01 5.293099999999999739e+01 9.096142000000000394e-01 -4.165536978195500950e-01
-1.797600000000000087e+00 2.758800000000000097e+01 3.626700000000000301e+01 -7.069507999999999903e+00 -3.242338146195633541e-01
-1.793800000000000061e+00 4.414300000000000068e+01 4.838300000000000267e+01 -4.515044999999999753e+00 -3.529495484509786452e-01
-1.784999999999999920e+00 2.671199999999999974e+01 3.696699999999999875e+01 -6.325540000000000163e+00 -3.225641051362467815e-01
-1.775500000000000078e+00 3.135600000000000165e+01 4.428199999999999648e+01 -8.320781999999999812e+01 -3.084658336853913219e-01
-1.760999999999999899e+00 5.292999999999999972e+01 4.409000000000000341e+01 -5.247592000000000034e+00 -2.778783945921446952e-01
-1.760000000000000009e+00 3.859499999999999886e+01 4.531300000000000239e+01 -9.542732999999999777e+01 -2.170743034488519518e-01
-1.757300000000000084e+00 2.974200000000000088e+01 4.425099999999999767e+01 -2.466805000000000092e+01 -2.653198817906657903e-01
-1.754699999999999926e+00 2.783800000000000097e+01 3.301599999999999824e+01 1.062459999999999916e+01 -2.892685894264044877e-01
-1.752599999999999936e+00 3.010800000000000054e+01 2.853900000000000148e+01 -7.625682000000000293e+00 -2.790493742551544698e-01
-1.747999999999999998e+00 3.975099999999999767e+01 5.276200000000000045e+01 -7.698529999999999873e+00 -3.089364864793511245e-01
-1.743100000000000094e+00 2.893100000000000094e+01 2.919600000000000151e+01 -8.117221999999999937e+00 -2.806878014807833721e-01
-1.740899999999999892e+00 4.291299999999999670e+01 3.838900000000000290e+01 2.514419000000000182e+00 8.745954621820159480e-02
-1.730399999999999938e+00 4.275999999999999801e+01 4.933800000000000097e+01 6.975343999999999989e-01 -3.530189529268378257e-01
-1.728299999999999947e+00 4.728499999999999659e+01 3.589399999999999835e+01 -9.272982999999999976e+00 -1.361223932578134801e-02
-1.717899999999999983e+00 4.012299999999999756e+01 3.111599999999999966e+01 -3.406744999999999912e+00 -9.405928645547810552e-02
-1.712399999999999922e+00 3.722699999999999676e+01 4.465699999999999648e+01 -2.944575999999999993e+01 -2.171300221122735574e-01
-1.707999999999999963e+00 4.180100000000000193e+01 4.954699999999999704e+01 2.605252999999999819e+00 -3.531789049141783599e-01
-1.682600000000000096e+00 4.321600000000000108e+01 3.908899999999999864e+01 -8.202453999999999468e+00 8.747133801175484280e-02
-1.682600000000000096e+00 4.408200000000000074e+01 3.908899999999999864e+01 -1.860826000000000091e+00 8.694222191111621034e-02
-1.672700000000000076e+00 4.522899999999999920e+01 5.324900000000000233e+01 -2.215237000000000123e+00 -3.519407096417785374e-01
-1.664299999999999891e+00 3.414600000000000080e+01 2.789999999999999858e+01 -2.173820999999999870e+01 -1.799705027818717662e-01
-1.663999999999999924e+00 5.180199999999999960e+01 3.917199999999999704e+01 -1.574976999999999983e+01 -1.208141380969563871e-03
-1.663999999999999924e+00 5.309499999999999886e+01 3.845100000000000051e+01 -8.784776000000000806e+00 -2.670166906527990771e-04
-1.663999999999999924e+00 5.438799999999999812e+01 3.917199999999999704e+01 -2.964395999999999987e+01 -1.589986322821277894e-04
-1.661299999999999999e+00 3.841799999999999926e+01 3.110399999999999920e+01 -4.201550000000000118e+00 -5.874605742375390433e-02
-1.661100000000000021e+00 4.304200000000000159e+01 3.743099999999999739e+01 -1.033184999999999931e+01 8.864875468550513504e-02
-1.660800000000000054e+00 3.543299999999999983e+01 2.861499999999999844e+01 -1.129245000000000054e+01 -1.984602564285628534e-01
-1.651799999999999935e+00 4.398199999999999932e+01 5.402700000000000102e+01 -1.049661000000000066e-01 -3.520692090488364845e-01
-1.642300000000000093e+00 3.621800000000000352e+01 4.368800000000000239e+01 -3.096040999999999954e+01 -2.175162160833346014e-01
-1.632500000000000062e+00 5.031799999999999784e+01 4.068800000000000239e+01 1.261616000000000071e+00 -2.686803541356122885e-03
-1.625299999999999967e+00 4.469700000000000273e+01 3.575999999999999801e+01 -1.241979000000000077e+01 8.849734202901406166e-02
-1.602999999999999980e+00 2.733399999999999963e+01 3.220100000000000051e+01 1.010280000000000022e+01 -2.869131397327819855e-01
-1.596400000000000041e+00 5.145100000000000051e+01 3.992900000000000205e+01 -1.097717999999999972e+00 -1.126800581959508211e-03
-1.588500000000000023e+00 4.824099999999999966e+01 3.836599999999999966e+01 -9.555044999999999789e-01 -5.050290331346803975e-03
-1.585800000000000098e+00 5.438600000000000279e+01 4.262100000000000222e+01 -2.687635999999999825e+01 -2.771745746922832931e-01
-1.575399999999999912e+00 4.435499999999999687e+01 3.669299999999999784e+01 -1.024550999999999945e+01 8.895919368373009228e-02
-1.573800000000000088e+00 4.807300000000000040e+01 5.330100000000000193e+01 2.383630999999999833e+00 -4.164460833343814339e-01
-1.571299999999999919e+00 3.142099999999999937e+01 2.695200000000000173e+01 -1.238763999999999932e+01 -2.684600076416375769e-01
-1.571299999999999919e+00 3.236099999999999710e+01 2.695200000000000173e+01 -3.275887999999999778e+01 -2.691855720984318578e-01
-1.569299999999999917e+00 4.956000000000000227e+01 5.044599999999999795e+01 9.020637999999999934e+00 -4.165297877496002554e-01
-1.565099999999999936e+00 4.009199999999999875e+01 4.512899999999999778e+01 -3.364115000000000322e+01 -2.171976615448257542e-01
-1.564699999999999980e+00 4.931799999999999784e+01 4.965699999999999648e+01 1.988120999999999938e+01 -4.164301369036292888e-01
-1.559399999999999897e+00 4.308299999999999841e+01 4.592600000000000193e+01 -1.169181999999999944e+00 -2.169592798205570716e-01
-1.551700000000000079e+00 2.799500000000000099e+01 4.244800000000000040e+01 -1.183876000000000062e+01 -2.640755602094445598e-01
-1.549700000000000077e+00 5.004999999999999716e+01 4.787299999999999756e+01 -4.025460999999999956e+00 -2.779739606541094532e-01
-1.545600000000000085e+00 2.857400000000000162e+01 3.301599999999999824e+01 -1.518315999999999999e+00 -2.898111078800947871e-01
-1.544200000000000017e+00 4.133899999999999864e+01 4.590699999999999648e+01 -4.715310999999999808e+00 -2.168271402475341336e-01
-1.541400000000000103e+00 3.442099999999999937e+01 4.237500000000000000e+01 7.886500999999999983e+00 -1.724843132649072908e-01
-1.538499999999999979e+00 2.795700000000000074e+01 2.981899999999999906e+01 -3.177824000000000026e+01 -2.814339631888180260e-01
-1.533099999999999907e+00 4.200500000000000256e+01 5.547899999999999920e+01 -7.949235999999999969e+00 -3.522080235503484147e-01
-1.525300000000000100e+00 4.335099999999999909e+01 3.381700000000000017e+01 -1.504161000000000037e+01 9.551259446655153973e-02
-1.523900000000000032e+00 5.334700000000000131e+01 4.357500000000000284e+01 -7.134834999999999816e+00 -2.773027626503888898e-01
-1.518299999999999983e+00 4.703600000000000136e+01 5.317600000000000193e+01 3.223721999999999976e+00 -4.162854388680473083e-01
-1.516399999999999970e+00 4.984700000000000131e+01 5.132500000000000284e+01 -8.481881000000000004e-01 -4.166394157694157663e-01
-1.508000000000000007e+00 3.109199999999999875e+01 2.771199999999999974e+01 -4.371667999999999665e+01 -2.738393020444948589e-01
-1.507100000000000106e+00 4.337299999999999756e+01 3.654399999999999693e+01 -2.705385000000000062e+01 9.099437413249387985e-02
-1.505900000000000016e+00 2.739300000000000068e+01 3.106599999999999895e+01 -3.741611999999999716e-02 -2.843137976796725752e-01
-1.505400000000000071e+00 3.328799999999999670e+01 4.313300000000000267e+01 -6.004082000000000363e+00 -1.712888693590667866e-01
-1.502799999999999914e+00 4.910900000000000176e+01 3.991499999999999915e+01 2.243988999999999834e+01 -2.600531765063388619e-03
-1.500000000000000000e+00 3.213100000000000023e+01 4.402300000000000324e+01 -2.342239000000000004e+01 -3.093348688774678612e-01
-1.492899999999999894e+00 4.067699999999999960e+01 5.471699999999999875e+01 -6.118172000000000388e+00 -3.524570224225067605e-01
-1.492899999999999894e+00 4.333299999999999841e+01 5.471699999999999875e+01 -1.461956999999999951e+01 -3.520491153674699669e-01
-1.487300000000000066e+00 2.826999999999999957e+01 3.231600000000000250e+01 1.782936000000000121e+01 -2.879676432952098519e-01
-1.475000000000000089e+00 2.835699999999999932e+01 3.513400000000000034e+01 -7.344960999999999629e+00 -3.248251082811329238e-01
-1.457699999999999996e+00 2.832300000000000040e+01 3.389200000000000301e+01 -6.455897000000000219e+00 -1.839080145256001830e-01
-1.451000000000000068e+00 4.971099999999999852e+01 5.212899999999999778e+01 8.932550999999999686e-02 -4.166649886250993751e-01
-1.449699999999999989e+00 3.078800000000000026e+01 2.841199999999999903e+01 -7.189676000000000400e+00 -2.777086434203955290e-01
-1.445599999999999996e+00 4.370199999999999818e+01 4.922399999999999665e+01 -3.117067000000000032e+00 -3.526342063279780392e-01
-1.445300000000000029e+00 5.150999999999999801e+01 4.742699999999999960e+01 -6.670945000000000391e+01 -2.772469640749233855e-01
-1.443899999999999961e+00 2.775300000000000011e+01 4.126500000000000057e+01 -7.128757000000000232e+00 -2.642017860570177734e-01
-1.441999999999999948e+00 4.485099999999999909e+01 4.710799999999999699e+01 -8.151016999999999513e+00 -3.126763343878738999e-01
-1.441999999999999948e+00 4.485099999999999909e+01 4.797399999999999665e+01 -6.734075999999999951e+00 -3.526082895231011927e-01
-1.439699999999999980e+00 2.963100000000000023e+01 2.913800000000000168e+01 -3.617439000000000071e+00 -2.799888651641315729e-01
-1.437999999999999945e+00 4.529500000000000171e+01 3.759400000000000119e+01 -8.889735999999999194e+00 -2.222767648698921461e-01
-1.437999999999999945e+00 4.775500000000000256e+01 3.665400000000000347e+01 -2.030900000000000105e+01 -4.681280820973635765e-03
-1.436199999999999921e+00 2.773100000000000165e+01 3.025600000000000023e+01 -5.007198999999999955e+00 -2.822960878707291288e-01
-1.433699999999999974e+00 3.677600000000000335e+01 4.392699999999999960e+01 -1.475650000000000084e+01 -2.169559300497075349e-01
-1.425000000000000044e+00 2.733200000000000074e+01 4.018699999999999761e+01 -7.603153999999999968e+00 -2.643303548674152958e-01
-1.420600000000000085e+00 4.014600000000000080e+01 5.094100000000000250e+01 -6.302952999999999584e+00 -3.530613724422421162e-01
-1.414500000000000091e+00 4.082300000000000040e+01 3.105799999999999983e+01 -3.235141000000000044e+00 -9.374533049817966590e-02
-1.398900000000000032e+00 4.652499999999999858e+01 3.583100000000000307e+01 -8.661305999999999727e+00 -9.481229868159930102e-03
-1.389000000000000012e+00 4.032600000000000051e+01 5.405499999999999972e+01 -9.152729000000000781e+00 -3.085880982174154519e-01
-1.379399999999999959e+00 4.407300000000000040e+01 3.588199999999999790e+01 -4.369832999999999856e+01 9.295413066203923880e-02
-1.379399999999999959e+00 4.554500000000000171e+01 3.836599999999999966e+01 -2.894773999999999958e+00 -2.201057908965343146e-01
-1.379399999999999959e+00 4.750500000000000256e+01 3.836599999999999966e+01 -2.068017000000000039e+01 -2.168798767845278308e-01
-1.370300000000000074e+00 4.183500000000000085e+01 4.017199999999999704e+01 1.169527999999999901e+00 8.962803707568402223e-02
-1.364999999999999991e+00 2.807900000000000063e+01 3.586999999999999744e+01 -7.344610000000000305e+00 -3.234262297976880918e-01
-1.361699999999999910e+00 4.169200000000000017e+01 3.145499999999999829e+01 3.109388000000000041e+00 1.109389167191411063e-01
-1.357199999999999962e+00 4.241799999999999926e+01 5.014699999999999847e+01 1.060552000000000028e+01 -3.526960218501057898e-01
-1.340000000000000080e+00 4.148299999999999699e+01 5.016499999999999915e+01 -7.644786000000000081e-01 -3.528901099992888812e-01
-1.338899999999999979e+00 4.523499999999999943e+01 3.665500000000000114e+01 -1.223351000000000077e+01 -2.243987581110300500e-01
-1.338899999999999979e+00 4.781499999999999773e+01 3.759300000000000352e+01 -2.267076000000000136e+01 -2.434552551387884553e-03
-1.329099999999999948e+00 4.961800000000000210e+01 4.062899999999999778e+01 -7.754082000000000363e+00 -6.452511031274882174e-04
-1.329099999999999948e+00 5.101800000000000068e+01 4.062899999999999778e+01 -4.983666999999999625e+00 4.842457054239102674e-04
-1.325399999999999912e+00 3.930799999999999983e+01 3.135900000000000176e+01 -5.601631000000000249e-01 -9.188615125532334504e-02
-1.324699999999999989e+00 3.469599999999999795e+01 2.854599999999999937e+01 -1.904484000000000066e+01 -1.876476103608986368e-01
-1.321099999999999941e+00 4.524099999999999966e+01 3.906600000000000250e+01 7.681681000000000203e+00 -2.193511691966119059e-01
-1.321099999999999941e+00 4.780899999999999750e+01 3.906600000000000250e+01 6.355739999999999723e-01 -2.157062462526083135e-01
-1.316000000000000059e+00 2.605099999999999838e+01 3.825699999999999790e+01 -1.392830000000000013e+01 -1.778835179184385107e-01
-1.316000000000000059e+00 2.627799999999999869e+01 3.745799999999999841e+01 -6.203120000000000189e+00 -1.788157716824340937e-01
-1.316000000000000059e+00 2.627799999999999869e+01 3.905599999999999739e+01 -1.220445999999999920e+01 -2.740603638664870223e-01
-1.304100000000000037e+00 3.570600000000000307e+01 4.317399999999999949e+01 -1.783121999999999829e+01 -3.116783410243103014e-01
-1.302200000000000024e+00 3.803900000000000148e+01 3.052899999999999991e+01 -4.499473000000000056e+00 -1.058111482752578797e-01
-1.290300000000000002e+00 3.783500000000000085e+01 4.502300000000000324e+01 -1.880157000000000167e+01 -2.159965625458421246e-01
-1.278999999999999915e+00 3.617000000000000171e+01 2.877499999999999858e+01 -1.074700999999999951e+01 -2.047933778454663900e-01
-1.278999999999999915e+00 3.761599999999999966e+01 2.958099999999999952e+01 1.222154000000000018e-01 -2.275429913362484180e-01
-1.274199999999999999e+00 2.750300000000000011e+01 3.661299999999999955e+01 -1.444111999999999973e+01 -1.817945592502494545e-01
-1.267300000000000093e+00 2.930000000000000071e+01 3.291499999999999915e+01 -4.971815000000000317e+00 -1.826116495209519353e-01
-1.261700000000000044e+00 4.079200000000000159e+01 4.518699999999999761e+01 -1.724276000000000053e+01 -2.165865701174827795e-01
-1.256000000000000005e+00 4.378300000000000125e+01 4.598499999999999943e+01 -3.527435000000000098e+00 -3.533738172514313547e-01
-1.250000000000000000e+00 4.251599999999999824e+01 3.795600000000000307e+01 3.270589999999999975e+01 9.259198014494887663e-02
-1.241000000000000103e+00 3.052899999999999991e+01 4.430700000000000216e+01 -4.307408999999999821e+01 -2.652285848092992282e-01
-1.240799999999999903e+00 3.248400000000000176e+01 2.778000000000000114e+01 -3.345745999999999754e+01 -2.747430204413180421e-01
-1.240799999999999903e+00 3.335000000000000142e+01 2.778000000000000114e+01 -2.932246999999999915e+01 -2.773567332630492155e-01
-1.237999999999999989e+00 3.372099999999999653e+01 4.243299999999999983e+01 6.279631000000000185e+00 -1.715791804656651709e-01
-1.237999999999999989e+00 3.512100000000000222e+01 4.243299999999999983e+01 -5.522117999999999860e+00 -3.120082486017978218e-01
-1.235899999999999999e+00 4.226800000000000068e+01 4.597200000000000131e+01 -1.067836000000000007e+00 -2.162918901913984671e-01
-1.235000000000000098e+00 4.382099999999999795e+01 3.457699999999999818e+01 -3.301265000000000072e+01 9.916441012583246395e-02
-1.229100000000000081e+00 3.935399999999999920e+01 4.512100000000000222e+01 -6.814015000000000555e+01 -2.161586621115389184e-01
-1.209000000000000075e+00 2.899699999999999989e+01 3.221500000000000341e+01 -1.523814999999999920e+01 -2.880728685395246291e-01
-1.209000000000000075e+00 2.899699999999999989e+01 3.361500000000000199e+01 -1.885088000000000008e+01 -1.840116755448133468e-01
-1.203699999999999992e+00 4.124499999999999744e+01 5.541599999999999682e+01 -8.814403000000000432e+00 -3.521932004999986932e-01
-1.203699999999999992e+00 4.276500000000000057e+01 5.541599999999999682e+01 -2.248373000000000133e+01 -3.519690746218112620e-01
-1.202800000000000091e+00 5.247699999999999676e+01 4.459799999999999898e+01 2.731716000000000033e+00 -2.768198368482470695e-01
-1.195300000000000029e+00 4.439999999999999858e+01 5.314099999999999824e+01 1.554615999999999998e+00 -3.518539108196086507e-01
-1.194600000000000106e+00 2.851899999999999835e+01 3.025100000000000122e+01 -9.463485000000000369e+00 -2.822346691155532827e-01
-1.194299999999999917e+00 5.233500000000000085e+01 3.874099999999999966e+01 -1.419148999999999994e+01 3.662938785332156642e-03
-1.194299999999999917e+00 5.385499999999999687e+01 3.874099999999999966e+01 -2.399414000000000158e+01 -2.780871267947934711e-01
-1.179599999999999982e+00 4.109400000000000119e+01 4.027100000000000080e+01 -1.100385999999999953e+01 9.091537082664395697e-02
-1.174700000000000077e+00 4.441799999999999926e+01 4.640800000000000125e+01 -5.500498000000000332e+00 -3.529441449645565054e-01
-1.174700000000000077e+00 4.441799999999999926e+01 4.867399999999999949e+01 -5.260843000000000380e+00 -3.523805716815244238e-01
-1.169799999999999951e+00 3.188100000000000023e+01 2.767800000000000082e+01 -2.121675000000000111e+01 -2.722678242811087945e-01
-1.166900000000000048e+00 4.606600000000000250e+01 5.330700000000000216e+01 -8.745241000000000264e-01 -4.161929514878556224e-01
-1.161200000000000010e+00 4.257099999999999795e+01 4.017199999999999704e+01 -5.402490000000000236e+00 -2.207830636636902155e-01
-1.157499999999999973e+00 4.222699999999999676e+01 3.875000000000000000e+01 1.119796999999999976e+01 9.244501030429605470e-02
-1.155000000000000027e+00 5.197999999999999687e+01 4.666700000000000159e+01 -5.900406999999999869e+01 -2.766518210624911434e-01
-1.154300000000000104e+00 2.845100000000000051e+01 4.314399999999999835e+01 -1.106863000000000063e+01 -2.634987919929203115e-01
-1.147199999999999998e+00 4.367199999999999704e+01 3.967000000000000171e+01 -3.270376999999999867e+00 -2.201448747912820580e-01
-1.139499999999999957e+00 4.100900000000000034e+01 3.147400000000000020e+01 1.206598999999999977e+00 -9.181678602475332185e-02
-1.138600000000000056e+00 2.821300000000000097e+01 3.113700000000000045e+01 1.996045999999999987e+00 -2.843437696396301506e-01
-1.134600000000000053e+00 3.272200000000000131e+01 4.379699999999999704e+01 -2.786394999999999911e+01 -3.098641132177630819e-01
-1.130200000000000093e+00 4.204800000000000182e+01 3.216599999999999682e+01 -3.018743999999999872e-01 1.168345811143073620e-01
-1.117099999999999982e+00 4.935000000000000142e+01 4.900600000000000023e+01 1.160852000000000039e+01 -4.164773031331411302e-01
-1.117099999999999982e+00 4.955899999999999750e+01 4.827000000000000313e+01 1.263410999999999973e+01 -4.164673062984921015e-01
-1.115899999999999892e+00 5.075000000000000000e+01 4.749000000000000199e+01 -2.745176000000000016e+01 -2.770092983878807980e-01
-1.113599999999999923e+00 5.211399999999999721e+01 4.574300000000000210e+01 -1.837780000000000058e+01 -2.766277391518634499e-01
-1.102999999999999980e+00 4.140200000000000102e+01 3.947200000000000131e+01 5.738636999999999766e+00 9.219466694694977704e-02
-1.101099999999999968e+00 4.239900000000000091e+01 3.946099999999999852e+01 2.313496000000000219e+00 -2.218781107216678539e-01
-1.088999999999999968e+00 5.447399999999999665e+01 4.170100000000000051e+01 5.436448000000000391e+00 -2.762031969017101352e-01
-1.076699999999999990e+00 4.220900000000000318e+01 4.096200000000000330e+01 -1.441971999999999987e+01 -2.199544509724472297e-01
-1.074400000000000022e+00 4.267300000000000182e+01 3.681099999999999994e+01 -2.249578999999999951e+01 9.650240526093598059e-02
-1.050999999999999934e+00 2.902599999999999980e+01 4.360600000000000165e+01 -9.618551999999999325e+00 -2.636860498840037925e-01
-1.050499999999999989e+00 4.128600000000000136e+01 4.105100000000000193e+01 -1.685696000000000083e+01 -2.206103980320355817e-01
-1.049099999999999921e+00 3.140099999999999980e+01 4.430199999999999960e+01 -5.040771000000000157e+01 -3.075307844840601268e-01
-1.044999999999999929e+00 5.050099999999999767e+01 4.095199999999999818e+01 -1.108362999999999943e+01 -2.121751311035312837e-01
-1.036699999999999955e+00 4.756099999999999994e+01 5.377199999999999847e+01 6.949343000000000048e-01 -4.164715814666116178e-01
-1.028899999999999926e+00 4.899399999999999977e+01 5.301599999999999824e+01 5.708167999999999687e+00 -4.166563234310217689e-01
-1.026000000000000023e+00 5.380799999999999983e+01 4.305400000000000205e+01 -6.211750000000000327e+00 -2.760838153398798012e-01
-1.021800000000000042e+00 4.984799999999999898e+01 4.754699999999999704e+01 -5.083651999999999838e+00 -2.772418308293985723e-01
-1.018299999999999983e+00 4.921999999999999886e+01 5.252600000000000335e+01 4.297183999999999671e+00 -4.166729794685354871e-01
-1.015900000000000025e+00 4.801500000000000057e+01 3.958299999999999841e+01 -6.663413000000000252e-01 -2.142250835605802595e-01
-1.010099999999999998e+00 5.457000000000000028e+01 4.069299999999999784e+01 -3.960363000000000255e+01 -2.762187227846776838e-01
-1.008999999999999897e+00 5.163400000000000034e+01 4.019400000000000261e+01 -1.155372000000000021e+01 -2.114637566619353426e-01
-1.000000000000000000e+00 3.736500000000000199e+01 4.426299999999999812e+01 -1.491552000000000078e+01 -2.157339653790963929e-01
-9.997399999999999620e-01 3.039600000000000080e+01 2.900400000000000134e+01 -7.336958000000000091e-01 -2.783601233634002137e-01
-9.879999999999999893e-01 3.946099999999999852e+01 5.229200000000000159e+01 -5.966285000000000061e+00 -3.085400978741818512e-01
-9.879999999999999893e-01 3.968800000000000239e+01 5.149300000000000210e+01 -6.659200000000000230e+00 -3.086583686554280614e-01
-9.879999999999999893e-01 3.968800000000000239e+01 5.309100000000000108e+01 -2.179201000000000121e+01 -3.084509731775287311e-01
-9.872600000000000264e-01 3.668699999999999761e+01 4.320600000000000307e+01 -4.100189000000000306e+01 -2.164038558483495911e-01
-9.786700000000000399e-01 4.270000000000000284e+01 3.346999999999999886e+01 -3.994485000000000063e+00 1.125803382377777578e-01
-9.744899999999999674e-01 3.149299999999999855e+01 2.884499999999999886e+01 -2.300142000000000131e+00 -2.789152445529110569e-01
-9.718999999999999861e-01 2.907900000000000063e+01 2.995499999999999829e+01 -4.074084000000000039e-01 -2.810577559196908992e-01
-9.682899999999999840e-01 4.605499999999999972e+01 3.636399999999999721e+01 -8.288455000000000794e+00 -2.210642700527646609e-01
-9.682899999999999840e-01 4.699499999999999744e+01 3.636399999999999721e+01 -1.268628999999999962e+01 -2.186147672677579423e-01
-9.608900000000000219e-01 3.859499999999999886e+01 4.508599999999999852e+01 -4.195044999999999646e+01 -2.153241340881447141e-01
-9.606299999999999839e-01 4.198599999999999710e+01 5.063799999999999812e+01 -9.711411999999999267e+00 -3.524689982039952985e-01
-9.392399999999999638e-01 4.026899999999999835e+01 4.009300000000000352e+01 -1.653247999999999962e+01 9.264101105767380551e-02
-9.352599999999999802e-01 4.012299999999999756e+01 3.146099999999999852e+01 -1.540691999999999895e-01 -9.061247657079815609e-02
-9.260899999999999688e-01 4.098100000000000165e+01 5.067399999999999949e+01 -1.073174999999999990e+01 -3.526605503091816418e-01
-9.239100000000000090e-01 2.896099999999999852e+01 3.117699999999999960e+01 -4.895132000000000261e+00 -2.846957114537601030e-01
-9.132799999999999807e-01 4.247399999999999665e+01 3.301400000000000290e+01 5.752728000000000286e+00 1.179804849664523314e-01
-9.122299999999999853e-01 4.066199999999999903e+01 4.097099999999999653e+01 -1.609376999999999924e+01 -2.208959922134428600e-01
-9.111200000000000410e-01 5.417799999999999727e+01 4.223100000000000165e+01 -9.132107999999999892e-02 -2.757915851591924983e-01
-9.050099999999999811e-01 4.572599999999999909e+01 3.712400000000000233e+01 -1.399935999999999936e+01 -2.198747013829747132e-01
-9.050099999999999811e-01 4.732399999999999807e+01 3.712400000000000233e+01 -2.882854999999999990e+01 -2.164517168697047411e-01
-9.042900000000000382e-01 3.291599999999999682e+01 2.837000000000000099e+01 -1.541998000000000069e+01 -2.784599909418284391e-01
-9.042900000000000382e-01 3.385600000000000165e+01 2.837000000000000099e+01 -2.961157000000000039e+01 -1.781228764938401210e-01
-9.040000000000000258e-01 5.186500000000000199e+01 3.950099999999999767e+01 -9.271772999999999598e+00 -2.110354039990884889e-01
-9.040000000000000258e-01 5.432500000000000284e+01 3.950099999999999767e+01 -2.006121999999999872e+01 -2.764581534125775675e-01
-8.990599999999999703e-01 4.425099999999999767e+01 4.576899999999999835e+01 -3.959360999999999908e+00 -3.529635342348079741e-01
-8.927500000000000435e-01 3.860799999999999699e+01 3.109100000000000108e+01 -2.518187999999999871e+00 -9.080832275820957533e-02
-8.920500000000000096e-01 3.539600000000000080e+01 2.881400000000000006e+01 -1.572512000000000043e+01 -1.924412870542633325e-01
-8.900000000000000133e-01 2.832700000000000173e+01 3.593200000000000216e+01 -6.587229999999999919e+00 -1.828163038476353364e-01
-8.884800000000000475e-01 4.594100000000000250e+01 3.879899999999999949e+01 1.619574999999999987e+00 -2.170297842713811431e-01
-8.751100000000000545e-01 5.291700000000000159e+01 4.388600000000000279e+01 1.753184000000000131e-01 -2.760188393910831262e-01
-8.699200000000000266e-01 4.599399999999999977e+01 3.788300000000000267e+01 -1.120472000000000001e+01 -2.179171285282918424e-01
-8.699200000000000266e-01 4.705599999999999739e+01 3.788300000000000267e+01 -3.049693999999999861e+01 -2.159993637907606234e-01
-8.648900000000000476e-01 5.309499999999999886e+01 3.867799999999999727e+01 -1.964741000000000071e+01 -2.776411018401848674e-01
-8.524000000000000465e-01 4.320499999999999829e+01 4.985600000000000165e+01 3.773008999999999946e-01 -3.522519338676750600e-01
-8.496700000000000363e-01 4.048199999999999932e+01 3.921500000000000341e+01 -4.884578000000000308e+00 9.439632764314612179e-02
-8.462899999999999867e-01 2.681099999999999994e+01 3.702700000000000102e+01 -6.254389999999999894e+00 -1.780576364367736919e-01
-8.462899999999999867e-01 2.681099999999999994e+01 3.948700000000000188e+01 -1.657301000000000002e+01 -2.629324739330068939e-01
-8.325099999999999723e-01 2.870700000000000074e+01 3.450099999999999767e+01 -1.183667999999999942e+01 -3.226224237993878252e-01
-8.108999999999999542e-01 3.919200000000000017e+01 3.143100000000000094e+01 -6.684077000000000490e-01 -9.014243370058147575e-02
-8.093500000000000139e-01 3.221999999999999886e+01 2.875300000000000011e+01 -6.498483000000000231e+00 -2.788762253611473674e-01
-8.053799999999999848e-01 3.322999999999999687e+01 4.282999999999999829e+01 -1.277965999999999980e+01 -3.105781134318915671e-01
-8.053799999999999848e-01 3.442099999999999937e+01 4.216599999999999682e+01 1.859162999999999855e+01 -3.115739187570146784e-01
-8.016699999999999937e-01 4.141799999999999926e+01 4.554399999999999693e+01 -5.174064000000000441e+00 -3.539636629713486249e-01
-7.959699999999999553e-01 3.709899999999999665e+01 2.900400000000000134e+01 -4.353556000000000203e+00 -2.135813384821911298e-01
-7.829599999999999893e-01 4.136299999999999955e+01 3.898100000000000165e+01 8.216853999999999658e+00 -2.229070972930486949e-01
-7.796899999999999942e-01 3.983700000000000330e+01 4.461200000000000188e+01 -5.427197999999999922e+01 -2.155135869506862034e-01
-7.763999999999999790e-01 2.969699999999999918e+01 3.334799999999999898e+01 -5.116228999999999694e+00 -1.843081153824287222e-01
-7.706699999999999662e-01 4.307800000000000296e+01 4.568500000000000227e+01 2.334421999999999997e+00 -3.532906740039628568e-01
-7.652900000000000258e-01 4.306099999999999994e+01 3.580700000000000216e+01 -3.422585000000000122e+01 -2.299416551065372460e-01
-7.590000000000000080e-01 4.949000000000000199e+01 5.010799999999999699e+01 3.337734999999999896e+00 -4.166501660195171541e-01
-7.590000000000000080e-01 4.962599999999999767e+01 5.184899999999999665e+01 6.809128000000000291e+00 -4.167562147652398297e-01
-7.590000000000000080e-01 4.974399999999999977e+01 5.100200000000000244e+01 3.297553999999999874e+00 -4.167421503151131357e-01
-7.496399999999999730e-01 4.364699999999999847e+01 4.948599999999999710e+01 -5.346443999999999974e+00 -3.521374698325904218e-01
-7.420499999999999874e-01 4.490899999999999892e+01 4.827700000000000102e+01 -6.475935999999999915e+00 -3.520094110678907429e-01
-7.420499999999999874e-01 4.511800000000000210e+01 4.754099999999999682e+01 -1.584135000000000026e+01 -3.520844876506695753e-01
-7.417000000000000259e-01 4.702199999999999847e+01 3.876899999999999835e+01 -1.615790999999999977e+00 -2.148762813410757810e-01
-7.415800000000000169e-01 4.980100000000000193e+01 4.089399999999999835e+01 -7.748173999999999673e+00 -2.118632307076859789e-01
-7.415800000000000169e-01 5.120100000000000051e+01 4.089399999999999835e+01 -9.556808000000000192e+00 -2.776185053962370586e-01
-7.398200000000000331e-01 4.455499999999999972e+01 3.967799999999999727e+01 2.656378000000000128e+00 -2.176708269124925932e-01
-7.339999999999999858e-01 4.071200000000000330e+01 5.498499999999999943e+01 -1.469857000000000014e+01 -3.081740041766697913e-01
-7.339999999999999858e-01 4.200500000000000256e+01 5.570600000000000307e+01 -4.421865999999999985e+01 -3.518755592335948146e-01
-7.339999999999999858e-01 4.329800000000000182e+01 5.498499999999999943e+01 -4.125885999999999854e+01 -3.517161528274271864e-01
-7.339999999999999858e-01 4.362299999999999756e+01 5.424799999999999756e+01 -1.907348999999999961e+01 -3.516988873431489138e-01
-7.246700000000000363e-01 4.166599999999999682e+01 3.828099999999999881e+01 1.815077000000000140e+01 -2.238135366275807725e-01
-7.092300000000000271e-01 4.876500000000000057e+01 4.033400000000000318e+01 -8.339056000000000246e-01 -2.124841643054318774e-01
-7.073800000000000088e-01 3.060399999999999920e+01 4.428099999999999881e+01 -1.090027000000000079e+01 -2.643929779098125876e-01
-7.027099999999999458e-01 3.213199999999999790e+01 4.413400000000000034e+01 -3.794089000000000311e+01 -3.081928930122145305e-01
-7.024599999999999733e-01 4.478199999999999648e+01 5.252100000000000080e+01 -3.200953999999999855e+00 -3.515792107503051822e-01
-7.020100000000000229e-01 4.339000000000000057e+01 3.504699999999999704e+01 -4.620541000000000054e+01 -2.328505444414869230e-01
-6.983399999999999608e-01 5.221000000000000085e+01 4.498199999999999932e+01 2.886376999999999970e+00 -2.758357402088019716e-01
-6.891000000000000458e-01 4.312700000000000244e+01 3.422899999999999920e+01 -1.517864999999999931e+01 1.138396693589561748e-01
-6.852899999999999547e-01 5.121999999999999886e+01 4.695700000000000074e+01 -3.149896999999999991e+01 -2.761075617950136674e-01
-6.817699999999999871e-01 4.081199999999999761e+01 4.169800000000000040e+01 -1.830340999999999951e+01 -2.189860880619428352e-01
-6.817699999999999871e-01 4.167699999999999960e+01 4.169800000000000040e+01 -1.654939999999999856e+01 -2.188045184174687297e-01
-6.780000000000000471e-01 4.652499999999999858e+01 3.712400000000000233e+01 -3.143452999999999875e+01 -2.169360153398708080e-01
-6.703400000000000469e-01 4.296699999999999875e+01 4.060499999999999687e+01 -7.280376999999999654e+00 -2.185159435454999133e-01
-6.683299999999999796e-01 4.671099999999999852e+01 5.370100000000000051e+01 3.681726999999999972e+00 -4.163906178530482616e-01
-6.683299999999999796e-01 4.841100000000000136e+01 5.370100000000000051e+01 7.792119999999999713e+00 -4.166505825707830235e-01
-6.664299999999999669e-01 4.364900000000000091e+01 5.327900000000000347e+01 -1.918897000000000075e+00 -3.517134850994966255e-01
-6.538899999999999713e-01 4.203499999999999659e+01 3.743099999999999739e+01 -7.718867999999999618e+00 -2.251987505167905856e-01
-6.535800000000000498e-01 4.647699999999999676e+01 3.893399999999999750e+01 3.270995999999999793e+00 -2.152239378084935262e-01
-6.360900000000000443e-01 4.905799999999999983e+01 4.913400000000000034e+01 -8.767861999999999156e+00 -4.165238433706012766e-01
-6.290000000000000036e-01 2.760099999999999909e+01 4.176899999999999835e+01 -7.418356000000000172e+00 -2.621766738186742662e-01
-6.290000000000000036e-01 2.771900000000000119e+01 4.092199999999999704e+01 -6.195382000000000389e+00 -2.626410907372553338e-01
-6.290000000000000036e-01 2.785500000000000043e+01 4.266299999999999670e+01 -7.034985999999999962e+00 -2.621166339454487071e-01
-6.251799999999999580e-01 5.028099999999999881e+01 4.705599999999999739e+01 -2.356050000000000111e+01 -4.166683797526261057e-01
-6.186899999999999622e-01 3.823199999999999932e+01 3.052799999999999869e+01 -3.789706999999999937e+00 -1.027952451559387137e-01
-6.161699999999999955e-01 4.053099999999999881e+01 4.262299999999999756e+01 -2.125167000000000073e+01 -2.172559199231992866e-01
-6.047000000000000153e-01 2.974800000000000111e+01 3.238900000000000290e+01 -2.531887000000000221e+00 -1.818816011868799321e-01
-6.042399999999999993e-01 4.492999999999999972e+01 4.685300000000000153e+01 -1.075961000000000034e+01 -3.521664360320502785e-01
-5.956099999999999728e-01 4.233800000000000097e+01 3.673100000000000165e+01 -1.098883000000000010e+01 -2.266553756443500656e-01
-5.833399999999999697e-01 4.028900000000000148e+01 5.377000000000000313e+01 -1.272394000000000069e+01 -3.081694136287566610e-01
-5.778900000000000148e-01 3.105999999999999872e+01 2.933599999999999852e+01 6.223506000000000427e+00 -2.791027489727245792e-01
-5.746200000000000196e-01 3.713300000000000267e+01 4.293200000000000216e+01 -2.258681999999999945e+01 -2.155953786046692078e-01
-5.582200000000000495e-01 2.987500000000000000e+01 2.954500000000000171e+01 2.795528999999999931e-01 -2.787288817190045065e-01
-5.560000000000000497e-01 2.634100000000000108e+01 3.778699999999999903e+01 -6.181150999999999840e+00 -2.628296540022019845e-01
-5.560000000000000497e-01 2.634100000000000108e+01 3.872699999999999676e+01 -6.887610999999999706e+00 -2.622128183534038204e-01
-5.521500000000000297e-01 2.770299999999999940e+01 3.675099999999999767e+01 -8.990612000000000492e+00 -1.786293326746066779e-01
-5.506600000000000383e-01 4.011699999999999733e+01 4.367099999999999937e+01 -2.013952000000000098e+01 -2.157371126740436629e-01
-5.468300000000000383e-01 5.161399999999999721e+01 4.624499999999999744e+01 -1.213893000000000022e+01 -2.757178276462632915e-01
-5.302900000000000391e-01 3.812500000000000000e+01 4.455299999999999727e+01 -2.665164000000000044e+01 -2.144675144294744817e-01
-5.302900000000000391e-01 3.906499999999999773e+01 4.455299999999999727e+01 -3.345078999999999780e+01 -2.146740862089106250e-01
-5.256699999999999706e-01 2.965200000000000102e+01 4.396300000000000097e+01 -2.886000999999999816e+00 -2.632108729964213190e-01
-5.255600000000000271e-01 2.934299999999999997e+01 3.169200000000000017e+01 -4.003656000000000326e+00 -2.854970697446776451e-01
-5.182900000000000285e-01 4.022099999999999653e+01 5.106199999999999761e+01 -6.339614000000000082e+00 -3.525264222664549196e-01
-5.090200000000000280e-01 2.926399999999999935e+01 3.404800000000000182e+01 -7.542805999999999678e+00 -3.136658071450956209e-01
-5.076899999999999746e-01 3.428799999999999670e+01 2.886100000000000065e+01 -2.176507000000000147e+01 -1.824516765005078367e-01
-5.012199999999999989e-01 4.888600000000000279e+01 4.806300000000000239e+01 1.644298000000000037e+00 -4.164288853544146352e-01
-5.006699999999999484e-01 5.321200000000000330e+01 4.353499999999999659e+01 -1.105892000000000053e+01 -2.750706874302766836e-01
-4.895399999999999752e-01 3.247899999999999920e+01 2.906200000000000117e+01 -5.932345999999999897e+00 -1.791517830262301658e-01
-4.895399999999999752e-01 3.334400000000000119e+01 2.906200000000000117e+01 -1.963268000000000058e+01 -1.808084158371233985e-01
-4.748899999999999788e-01 4.589600000000000080e+01 3.958800000000000097e+01 -1.630462999999999996e+00 -2.150135224050354898e-01
-4.733399999999999830e-01 3.765299999999999869e+01 2.986599999999999966e+01 -2.066333999999999893e+00 -5.854090946868005518e-02
-4.670099999999999807e-01 3.779599999999999937e+01 4.379299999999999926e+01 -1.895045999999999964e+01 -2.147476515073402648e-01
-4.668900000000000272e-01 4.016599999999999682e+01 4.159000000000000341e+01 -1.388231000000000037e+01 -2.179854853830273387e-01
-4.664300000000000113e-01 4.495100000000000051e+01 4.603600000000000136e+01 -9.992461999999999733e+00 -3.522303070303671180e-01
-4.657700000000000173e-01 3.633400000000000318e+01 2.878800000000000026e+01 -8.940483000000000402e+00 -1.980640826440693836e-01
