2.473499999999999943e+01 8.069699999999999207e+00 4.748700000000000188e+01 6.515418000000000376e+00 -5.377628045545261581e-02
2.473499999999999943e+01 8.069699999999999207e+00 4.853699999999999903e+01 5.184927000000000064e+00 -5.558561577585820201e-02
2.474399999999999977e+01 3.981600000000000250e+01 4.389099999999999824e+01 -8.059435999999999822e+00 -1.483812961892927995e-01
2.475400000000000134e+01 3.351299999999999812e+01 4.790500000000000114e+01 6.522842999999999947e+00 -1.438275403536961594e-01
2.476699999999999946e+01 1.340000000000000036e+01 2.871199999999999974e+01 3.721353000000000133e+00 -1.592200256147186313e-02
2.477799999999999869e+01 3.646300000000000097e+01 3.975600000000000023e+01 -6.003540000000000099e+00 7.114648533009215736e-02
2.478200000000000003e+01 1.419200000000000017e+01 4.878900000000000148e+01 -9.016007000000000104e+00 -1.575077039318073246e-01
2.478500000000000014e+01 8.578599999999999781e+00 3.019200000000000017e+01 9.064389999999999503e+00 -2.469385904589768005e-02
2.478800000000000026e+01 3.514500000000000313e+01 4.653499999999999659e+01 1.454606000000000066e+01 -1.455044461299695724e-01
2.479799999999999827e+01 2.811100000000000065e+01 4.769899999999999807e+01 2.074352999999999980e+01 8.389547795534289809e-02
2.481400000000000006e+01 2.156700000000000017e+01 2.668499999999999872e+01 -2.745654000000000039e+00 -5.331837365425943923e-04
2.481500000000000128e+01 3.775800000000000267e+01 3.954899999999999949e+01 -4.894523999999999653e+00 7.023471193559167880e-02
2.481700000000000017e+01 4.464000000000000412e+00 3.557399999999999807e+01 1.696507000000000076e+01 -2.103999512838698738e-02
2.482000000000000028e+01 6.496999999999999886e+00 4.037199999999999989e+01 1.064752000000000010e+01 -2.534669560668500465e-01
2.482400000000000162e+01 2.969300000000000139e+01 4.782500000000000284e+01 2.667339000000000127e+01 7.985161923316927424e-02
2.483399999999999963e+01 1.908200000000000074e+01 2.800300000000000011e+01 -2.054079000000000210e+00 -1.553285259526341342e-03
2.483699999999999974e+01 1.064000000000000057e+01 2.866400000000000148e+01 2.423077000000000147e+00 -2.166999234415215372e-02
2.484199999999999875e+01 1.855799999999999983e+01 2.821099999999999852e+01 -1.239090999999999942e+00 -2.045343715779908682e-03
2.484499999999999886e+01 3.550200000000000244e+01 4.573199999999999932e+01 2.427924000000000149e+01 7.083567935644620450e-02
2.485099999999999909e+01 3.824199999999999733e+01 4.017600000000000193e+01 -5.161921000000000426e+00 6.980884705520759570e-02
2.485300000000000153e+01 2.394900000000000162e+01 4.823299999999999699e+01 6.563812999999999676e+00 -1.740554736634372657e-01
2.485800000000000054e+01 8.239900000000000446e+00 3.211999999999999744e+01 3.129103999999999886e+01 -2.142199130294805687e-02
2.485900000000000176e+01 3.164699999999999847e+01 2.442800000000000082e+01 -8.210101999999999123e+00 -1.694410470144987746e-01
2.486700000000000088e+01 3.798000000000000043e+00 3.278999999999999915e+01 9.091094999999999260e+00 -4.103968996965083604e-02
2.486700000000000088e+01 4.051899999999999835e+00 3.189600000000000080e+01 2.190535000000000121e+00 -4.255805567555537988e-02
2.486700000000000088e+01 5.498000000000000220e+00 3.108999999999999986e+01 7.168369000000000213e+00 -3.577655401359418341e-02
2.486799999999999855e+01 3.137300000000000111e+01 2.358699999999999974e+01 -7.533077999999999719e+00 3.640551778615253118e-03
2.487900000000000134e+01 3.124599999999999866e+01 4.868299999999999983e+01 2.433998000000000062e+01 7.650888275845120490e-02
2.488400000000000034e+01 1.451399999999999935e+01 2.796099999999999852e+01 -3.548134999999999817e+00 -1.426545391265051331e-02
2.488400000000000034e+01 1.631400000000000006e+01 2.796099999999999852e+01 -6.507774000000000392e+00 -8.444458364426300073e-03
2.488899999999999935e+01 2.281700000000000017e+01 4.899099999999999966e+01 8.521286999999999612e-01 -1.735714027336835996e-01
2.489799999999999969e+01 3.908500000000000085e+01 4.161800000000000210e+01 -7.280429999999999957e-01 6.896142364734993147e-02
2.490399999999999991e+01 8.511100000000000776e+00 3.374900000000000233e+01 2.779285000000000139e+01 -1.589620789601340137e-02
2.490399999999999991e+01 9.983100000000000307e+00 3.374900000000000233e+01 1.486359999999999992e+01 -7.740192211677998819e-03
2.491799999999999926e+01 1.178999999999999915e+01 4.909400000000000119e+01 2.185238999999999976e+01 -3.499999999999999778e-01
2.493199999999999861e+01 3.485000000000000142e+01 3.788400000000000034e+01 3.535010000000000097e-01 7.306902035443504917e-02
2.493199999999999861e+01 3.485000000000000142e+01 3.874900000000000233e+01 -8.876772000000000773e+00 7.298401840897451864e-02
2.493700000000000117e+01 3.450300000000000011e+01 2.815800000000000125e+01 -6.391130999999999673e+00 -1.709895284028924711e-01
2.494099999999999895e+01 3.875699999999999790e+01 4.079699999999999704e+01 -4.048942000000000263e+00 6.944935846534830426e-02
2.495400000000000063e+01 3.492600000000000193e+01 2.903000000000000114e+01 -6.333459999999999646e+00 -1.713084301832537848e-01
2.495400000000000063e+01 6.030700000000000394e+00 3.718099999999999739e+01 1.778471000000000046e+01 -6.020563324891228980e-03
2.495599999999999952e+01 2.711100000000000065e+01 2.355499999999999972e+01 -3.356924999999999937e+00 1.702444959298513624e-04
2.495799999999999841e+01 9.786899999999999267e+00 4.286099999999999710e+01 1.984011999999999887e+01 -5.734908747779341592e-02
2.495799999999999841e+01 1.118699999999999939e+01 4.286099999999999710e+01 1.071315000000000062e+01 -5.948208383679808031e-02
2.495799999999999841e+01 1.118699999999999939e+01 4.512599999999999767e+01 1.866919000000000040e+01 -5.831445271859408974e-02
2.496199999999999974e+01 8.814500000000000668e+00 3.444899999999999807e+01 1.584665000000000035e+01 -1.017476513453040646e-02
2.496199999999999974e+01 9.679700000000000415e+00 3.304899999999999949e+01 2.414150000000000063e+01 -1.448398949582298603e-02
2.496199999999999974e+01 9.679700000000000415e+00 3.444899999999999807e+01 -6.913185000000000358e+00 -4.555204206007670321e-03
2.496799999999999997e+01 3.598199999999999932e+01 3.950699999999999790e+01 -9.116849999999999454e+00 7.191527001764845550e-02
2.497100000000000009e+01 4.061500000000000199e+01 4.389099999999999824e+01 -3.864085000000000214e+00 -1.483364661180888167e-01
2.497400000000000020e+01 3.934700000000000131e+01 4.475000000000000000e+01 -5.104760999999999882e+00 -1.478696418569528104e-01
2.499800000000000111e+01 2.266400000000000148e+01 2.589699999999999847e+01 -1.378991000000000078e+00 -7.889295937241483586e-04
2.500900000000000034e+01 6.150900000000000034e+00 4.074099999999999966e+01 3.615791000000000199e+00 -2.533980335711273346e-01
2.501300000000000168e+01 2.721199999999999974e+01 2.549599999999999866e+01 -5.307584000000000302e+00 3.543602487104214466e-03
2.501599999999999824e+01 1.080300000000000038e+00 4.137500000000000000e+01 3.259595999999999805e+01 -2.538819734339481937e-01
2.501599999999999824e+01 1.080300000000000038e+00 4.242499999999999716e+01 5.796983999999999781e+01 -2.572989930173897877e-01
2.503300000000000125e+01 1.147400000000000020e+01 2.871699999999999875e+01 1.587974999999999959e+01 -2.006543289109839062e-02
2.503399999999999892e+01 2.414300000000000068e+01 2.407999999999999829e+01 3.184007999999999949e+00 -2.373450523011485288e-03
2.503399999999999892e+01 4.028600000000000136e+01 4.313100000000000023e+01 -6.907175999999999760e+00 -1.479933390659038950e-01
2.503399999999999892e+01 4.028600000000000136e+01 4.465100000000000335e+01 -1.697383999999999915e+01 -1.481898417697534165e-01
2.505399999999999849e+01 1.826699999999999946e+01 5.134100000000000108e+01 1.992478999999999889e+00 -1.652181168246880938e-01
2.505999999999999872e+01 8.595000000000000639e+00 4.663700000000000045e+01 1.437317999999999962e+01 -5.295178926376999107e-02
2.505999999999999872e+01 -2.949999999999999845e-01 4.045400000000000063e+01 1.008421000000000056e+01 -2.485326618390760189e-01
2.505999999999999872e+01 -2.949999999999999845e-01 4.334599999999999653e+01 1.885792000000000002e+01 7.631521100295032833e-02
2.505999999999999872e+01 1.507199999999999918e+01 4.889000000000000057e+01 3.246922000000000086e+00 -1.587069252559012433e-01
2.506299999999999883e+01 9.169999999999999929e+00 5.020100000000000051e+01 1.409248999999999974e+01 -5.607677480912307694e-02
2.506299999999999883e+01 1.072000000000000064e+01 5.020100000000000051e+01 4.850778999999999996e+01 -4.022384320129961111e-02
2.506700000000000017e+01 2.594999999999999929e+01 4.879999999999999716e+01 2.041199999999999903e+01 -1.717574932265529264e-01
2.507300000000000040e+01 1.018699999999999939e+01 4.606900000000000261e+01 3.853446999999999889e+01 -5.582472969077334479e-02
2.507600000000000051e+01 2.696199999999999974e+01 4.877100000000000080e+01 5.284682000000000102e+01 -1.713678653161149479e-01
2.507900000000000063e+01 1.708599999999999852e+01 2.821999999999999886e+01 -1.534240999999999966e+00 -5.713585656772103040e-03
2.508599999999999852e+01 8.542899999999999494e+00 4.338700000000000045e+01 1.467664000000000080e+01 -5.513865972441609614e-02
2.508699999999999974e+01 8.459600000000000009e+00 4.942699999999999960e+01 4.521576999999999735e+00 -5.490743169324346917e-02
2.508800000000000097e+01 5.590700000000000003e+00 3.641599999999999682e+01 1.047042000000000073e+01 -1.322728106401000435e-02
2.509299999999999997e+01 2.302499999999999858e+01 2.508099999999999952e+01 -1.344052999999999942e+00 -2.030859183742502426e-03
2.509299999999999997e+01 9.076599999999999113e+00 2.938599999999999923e+01 6.658407000000000409e+00 -2.522303457157784590e-02
2.509299999999999997e+01 3.709599999999999653e+01 4.450900000000000034e+01 2.789082000000000150e+01 7.010793476980212158e-02
2.509499999999999886e+01 3.059100000000000108e+01 2.269900000000000162e+01 -1.036951999999999963e+01 1.778140942447054311e-03
2.509799999999999898e+01 1.964199999999999946e+01 5.226200000000000045e+01 1.735106000000000037e+01 -1.667119084096964909e-01
2.509900000000000020e+01 2.568499999999999872e+01 2.398000000000000043e+01 1.267906999999999940e+01 -6.980989796068168577e-04
2.510000000000000142e+01 2.817000000000000171e+01 2.245899999999999963e+01 -4.392669999999999852e+00 -5.715002507014620451e-04
2.510000000000000142e+01 2.969000000000000128e+01 2.245899999999999963e+01 -1.234317000000000064e+01 7.514028082400159032e-04
2.510399999999999920e+01 3.782699999999999818e+01 4.470700000000000074e+01 6.724546000000000134e+00 -1.467708825180086274e-01
2.512099999999999866e+01 2.187399999999999878e+01 5.102300000000000324e+01 5.779149999999999565e+00 -1.694631663824006096e-01
2.512800000000000011e+01 1.771000000000000085e+01 4.974099999999999966e+01 1.807728000000000002e+00 -1.649670478865551126e-01
2.512800000000000011e+01 1.791900000000000048e+01 5.047699999999999676e+01 1.780462999999999907e+00 -1.647345253855663494e-01
2.513200000000000145e+01 7.185500000000000220e+00 3.798799999999999955e+01 5.954864999999999853e+00 1.245807019781890526e-02
2.513899999999999935e+01 2.128099999999999881e+01 5.173299999999999699e+01 -3.396885999999999850e+00 -1.677036450373769194e-01
2.514199999999999946e+01 3.938699999999999868e+00 3.472399999999999665e+01 8.900207999999999231e+00 -3.080340160052148085e-02
2.515200000000000102e+01 3.353300000000000125e+01 2.778000000000000114e+01 -9.514853000000000449e+00 -1.705659082360883316e-01
2.515599999999999881e+01 2.324899999999999878e+01 4.829099999999999682e+01 7.016206999999999638e+00 -1.732267206245171609e-01
2.515599999999999881e+01 2.464900000000000091e+01 4.829099999999999682e+01 4.480018000000000278e+00 -1.731024122125658926e-01
2.515800000000000125e+01 7.780000000000000249e+00 3.108599999999999852e+01 9.697732000000000241e+00 -2.635942729334980056e-02
2.516000000000000014e+01 1.960800000000000054e+01 2.733800000000000097e+01 -6.296242000000000338e+00 -2.605746884675870251e-03
2.516000000000000014e+01 2.090099999999999980e+01 2.661700000000000088e+01 -3.106532000000000071e+00 -2.044801791089217741e-03
2.516400000000000148e+01 1.296700000000000053e+01 2.920299999999999940e+01 6.822745000000000282e+00 -1.639703236813183293e-02
2.516400000000000148e+01 3.787700000000000067e+00 3.373100000000000165e+01 8.551254000000000133e+00 -3.764351839425197910e-02
2.517099999999999937e+01 2.662900000000000134e+01 2.404200000000000159e+01 4.239636999999999989e-01 3.842686414147777917e-04
2.517500000000000071e+01 3.689600000000000080e+01 3.926500000000000057e+01 -8.568877000000000521e+00 7.151660291107304890e-02
2.519300000000000139e+01 7.191200000000000259e+00 3.904599999999999937e+01 4.139460999999999835e+00 -2.403661887257503849e-01
2.520299999999999940e+01 3.540500000000000114e+01 3.278499999999999659e+01 -7.458853999999999651e+00 -1.724133807851551681e-01
2.520499999999999829e+01 3.186299999999999955e+01 2.482499999999999929e+01 -1.224844000000000044e+01 -1.695063572563645926e-01
2.520799999999999841e+01 3.392399999999999949e+01 4.737899999999999778e+01 9.925553999999999766e-01 -1.431684119670165178e-01
2.521099999999999852e+01 -2.456999999999999851e+00 4.070100000000000051e+01 3.969183999999999823e+00 -2.502390114011621702e-01
2.521099999999999852e+01 -2.456999999999999851e+00 4.320900000000000318e+01 9.357943999999999818e+00 5.322087379921514039e-02
2.521600000000000108e+01 3.469899999999999807e+01 3.144200000000000017e+01 3.614047000000000232e-01 -1.718062784926330244e-01
2.521600000000000108e+01 3.490800000000000125e+01 3.217799999999999727e+01 -7.511372999999999855e+00 -1.720827070178468921e-01
2.521799999999999997e+01 3.270799999999999841e+01 4.821900000000000119e+01 1.129923999999999928e+01 7.490492543445810558e-02
2.522200000000000131e+01 2.647599999999999909e+01 2.549599999999999866e+01 -1.436916000000000082e+01 2.762965613046834690e-03
2.522200000000000131e+01 2.794800000000000040e+01 2.549599999999999866e+01 -1.053321000000000041e+01 4.042849576942342260e-03
2.522599999999999909e+01 1.161999999999999922e+01 4.356099999999999994e+01 7.432443000000000133e+00 -5.943435765663572512e-02
2.522599999999999909e+01 1.161999999999999922e+01 4.442600000000000193e+01 7.551523000000000430e+00 -5.900231875529696884e-02
2.522800000000000153e+01 3.592499999999999716e+01 4.497699999999999676e+01 2.300697999999999865e+01 7.139471008690310982e-02
2.523100000000000165e+01 2.881099999999999994e+01 4.743200000000000216e+01 1.915127999999999986e+01 8.335096900024613342e-02
2.523999999999999844e+01 3.218900000000000006e+01 2.698499999999999943e+01 -1.818104999999999905e+01 -1.699488700233612870e-01
2.524200000000000088e+01 3.175300000000000011e+01 2.387300000000000111e+01 -1.806642000000000081e+01 -1.693424678980490206e-01
2.524299999999999855e+01 3.164199999999999946e+01 2.560999999999999943e+01 -1.951636999999999844e+01 -1.695358271365390856e-01
2.525300000000000011e+01 6.987899999999999778e+00 3.997500000000000142e+01 1.088366000000000078e+01 -2.533223847155652853e-01
2.526099999999999923e+01 3.502600000000000335e+01 2.991700000000000159e+01 -1.144463999999999970e+01 -1.714886555667194112e-01
2.526200000000000045e+01 1.048700000000000010e+01 4.280299999999999727e+01 1.365346000000000082e+01 -5.814263101951235024e-02
2.526200000000000045e+01 3.184400000000000119e+01 2.635699999999999932e+01 -2.177683000000000035e+01 -1.697181339496411367e-01
2.526800000000000068e+01 3.852900000000000347e+01 3.932399999999999807e+01 -5.621084999999999887e+00 7.041260673366740719e-02
2.527299999999999969e+01 1.372300000000000075e+01 4.835499999999999687e+01 -7.213633999999999880e+00 -1.542525161131032829e-01
2.527400000000000091e+01 1.541399999999999970e+01 2.788599999999999923e+01 -3.579000999999999877e+00 -1.179281331721854231e-02
2.527599999999999980e+01 -9.153200000000000225e-01 4.060099999999999909e+01 2.262787000000000148e+01 -2.481672085663658989e-01
2.527599999999999980e+01 -9.153200000000000225e-01 4.330899999999999750e+01 4.298705000000000354e+01 7.135446047565188743e-02
2.528099999999999881e+01 2.677899999999999991e+01 2.619600000000000151e+01 -4.465770000000000017e+00 4.300344035860193502e-03
2.528099999999999881e+01 2.764399999999999835e+01 2.479599999999999937e+01 -1.498052000000000028e+01 2.561150168638319773e-03
2.528099999999999881e+01 2.764399999999999835e+01 2.619600000000000151e+01 -6.428047000000000288e+00 5.009626011370314942e-03
2.528399999999999892e+01 3.857399999999999807e+01 4.471000000000000085e+01 -5.100101000000000440e+00 -1.468848282982118392e-01
2.528800000000000026e+01 3.047100000000000009e+01 4.828999999999999915e+01 4.030987999999999971e+01 7.947210487326250572e-02
2.530199999999999960e+01 9.872999999999999332e+00 2.890899999999999892e+01 3.480169000000000068e+00 -2.406500027545797199e-02
2.530799999999999983e+01 1.002299999999999969e+01 3.464099999999999824e+01 -2.774291999999999980e+00 -1.919521410290719789e-03
2.530999999999999872e+01 5.248700000000000365e+00 3.567499999999999716e+01 3.137975000000000136e+01 -1.944412208026501110e-02
2.531299999999999883e+01 3.454899999999999949e+01 4.701599999999999824e+01 6.064981000000000400e+00 -1.436420263246815376e-01
2.533099999999999952e+01 3.725999999999999801e+01 3.856400000000000006e+01 -4.834283000000000108e+00 7.157406997889007028e-02
2.533099999999999952e+01 3.820000000000000284e+01 3.856400000000000006e+01 -4.724781000000000120e+00 7.087247835184240508e-02
2.534600000000000009e+01 1.785800000000000054e+01 2.847899999999999920e+01 1.864208000000000087e+00 -3.267369375099370837e-03
2.534600000000000009e+01 3.986500000000000199e+01 4.210699999999999932e+01 1.587733000000000061e+00 6.902714153648695228e-02
2.535099999999999909e+01 1.129899999999999949e+01 4.949099999999999966e+01 -5.717622999999999678e+00 -4.556101373088300432e-02
2.535399999999999920e+01 2.745799999999999841e+01 4.804200000000000159e+01 2.525405999999999906e+01 -1.718462553348805710e-01
2.535699999999999932e+01 3.585799999999999699e+01 3.706600000000000250e+01 -2.391518000000000033e+00 7.292011792699162886e-02
2.535900000000000176e+01 9.247099999999999653e+00 3.255799999999999983e+01 3.229527999999999821e+01 -1.865193895338260188e-02
2.536100000000000065e+01 5.971700000000000230e+00 4.227199999999999847e+01 1.106831000000000031e+01 -2.524840867197766237e-01
2.536499999999999844e+01 3.554999999999999716e+01 3.761599999999999966e+01 -3.226966000000000001e+00 7.314963860790632544e-02
2.536499999999999844e+01 3.554999999999999716e+01 3.901599999999999824e+01 -1.221988999999999947e+01 7.302079493484558981e-02
2.537000000000000099e+01 5.825899999999999856e+00 4.123499999999999943e+01 7.599704000000000015e+00 -2.532008608361632218e-01
2.537000000000000099e+01 2.491799999999999926e+01 2.401500000000000057e+01 1.740804999999999936e+01 -1.685077346986615975e-03
2.537099999999999866e+01 6.312899999999999956e+00 3.124200000000000088e+01 7.837778000000000134e+00 -3.258076603604755095e-02
2.537099999999999866e+01 7.454699999999999882e+00 4.383500000000000085e+01 7.994807999999999915e+00 -2.506845710057791221e-01
2.538299999999999912e+01 1.599699999999999989e+01 4.888900000000000290e+01 8.752717000000000525e+00 -1.600323663456096335e-01
2.539000000000000057e+01 2.769999999999999929e+01 2.321900000000000119e+01 -5.079024000000000427e+00 1.536502978150144244e-06
2.539199999999999946e+01 4.647999999999999687e+00 3.141499999999999915e+01 2.328075000000000117e+00 -4.137247854370896399e-02
2.539499999999999957e+01 8.114499999999999602e+00 3.331700000000000017e+01 4.789997000000000327e+01 -1.973362219890060359e-02
2.539499999999999957e+01 8.114499999999999602e+00 3.418200000000000216e+01 4.321209000000000344e+01 -1.692510073935392378e-02
2.539499999999999957e+01 1.038000000000000078e+01 3.331700000000000017e+01 2.307966000000000051e+01 -9.301651318934475374e-03
2.539900000000000091e+01 9.945000000000000284e+00 5.026599999999999824e+01 1.470490000000000066e+02 -4.233335569540931653e-02
2.542299999999999827e+01 3.524600000000000222e+01 3.831600000000000250e+01 -5.490781000000000134e+00 7.345823030229137185e-02
2.542899999999999849e+01 2.892999999999999972e+01 2.239600000000000080e+01 -1.630826000000000064e+01 -1.176655251397203160e-04
2.543100000000000094e+01 2.217299999999999827e+01 2.629400000000000048e+01 -1.843995999999999968e+00 -9.319093500681719039e-04
2.543400000000000105e+01 9.369999999999999218e+00 4.311800000000000210e+01 2.569318000000000168e+01 -5.616044230305937413e-02
2.543400000000000105e+01 1.076999999999999957e+01 4.538400000000000034e+01 2.145911999999999864e+01 -5.659817936696200091e-02
2.543499999999999872e+01 2.622899999999999920e+01 2.485999999999999943e+01 2.553978000000000037e+01 1.254552421440573769e-03
2.545400000000000063e+01 7.127699999999999925e+00 3.684799999999999898e+01 1.200699000000000005e+01 -1.911652739858201626e-03
2.546199999999999974e+01 1.285899999999999999e+01 4.848100000000000165e+01 8.043234999999999246e+00 -3.500000000000000333e-01
2.546499999999999986e+01 3.981600000000000250e+01 4.518399999999999750e+01 -4.917563000000000351e+00 -1.472782898430394227e-01
2.546699999999999875e+01 1.226699999999999946e+01 2.914499999999999957e+01 1.199244999999999983e+01 -1.857017813768773937e-02
2.546699999999999875e+01 8.902599999999999625e+00 3.532500000000000284e+01 -1.791344000000000047e+00 -3.611069483311830398e-03
2.546699999999999875e+01 9.767899999999999139e+00 3.532500000000000284e+01 -1.167632000000000048e+01 1.575429398319563900e-03
2.548400000000000176e+01 2.222899999999999920e+01 5.032099999999999795e+01 3.178316000000000141e+00 -1.703904937023293653e-01
2.548900000000000077e+01 2.764000000000000057e+01 2.415800000000000125e+01 -1.811663000000000068e+01 1.392817306567898858e-03
2.550100000000000122e+01 3.427700000000000102e+01 2.773699999999999832e+01 -7.182633000000000045e+00 -1.707240554700111268e-01
2.550400000000000134e+01 4.104599999999999937e+01 4.342099999999999937e+01 -7.252633000000000330e+00 -1.476011732707543656e-01
2.550400000000000134e+01 4.104599999999999937e+01 4.436099999999999710e+01 -1.537922999999999973e+01 -1.477042946552233893e-01
2.550700000000000145e+01 -2.935999999999999943e+00 4.147599999999999909e+01 5.200768000000000058e+00 -2.431777915581339877e-01
2.550700000000000145e+01 -2.935999999999999943e+00 4.243399999999999750e+01 7.146646999999999750e+00 -5.995614359218594258e-02
2.551200000000000045e+01 6.824300000000000033e+00 3.614800000000000324e+01 1.447183000000000064e+01 -1.196189510047296692e-02
2.552400000000000091e+01 3.944200000000000017e+01 4.115800000000000125e+01 2.156182000000000087e+01 6.979436334859218105e-02
2.552499999999999858e+01 2.160099999999999909e+01 2.646099999999999852e+01 -4.577003999999999628e+00 -1.508747996336802510e-03
2.552899999999999991e+01 3.189999999999999858e+01 4.829500000000000171e+01 -1.733003999999999989e+00 7.720011687430874958e-02
2.553000000000000114e+01 6.139700000000000379e+00 3.576299999999999812e+01 1.019177999999999962e+01 -1.677128180960850076e-02
2.553200000000000003e+01 3.128300000000000125e+01 2.311299999999999955e+01 -2.958866000000000085e+01 2.648482462699543356e-03
2.553900000000000148e+01 3.636599999999999966e+01 4.450900000000000034e+01 2.601679000000000030e+01 7.166853833690314812e-02
2.554100000000000037e+01 3.580499999999999972e+01 3.369100000000000250e+01 -2.173153999999999808e+00 -1.727281673467751522e-01
2.554100000000000037e+01 3.580499999999999972e+01 3.474099999999999966e+01 -5.382709000000000188e+00 7.336983510087581595e-02
2.554100000000000037e+01 2.303300000000000070e-01 4.104999999999999716e+01 7.220082999999999807e+00 -2.424513201733488610e-01
2.554100000000000037e+01 2.303300000000000070e-01 4.275000000000000000e+01 2.008793999999999969e+01 -2.552553114144415214e-01
2.554400000000000048e+01 3.526299999999999812e+01 2.855999999999999872e+01 -2.478963999999999857e+01 -1.711837700780143023e-01
2.554400000000000048e+01 3.526299999999999812e+01 2.950000000000000000e+01 -4.744444000000000017e+01 -1.713983468456470594e-01
2.554700000000000060e+01 -1.681999999999999940e+00 4.063600000000000279e+01 1.648532000000000153e+01 1.097869871875024363e-02
2.554700000000000060e+01 -1.681999999999999940e+00 4.327400000000000091e+01 7.646697000000000344e+01 6.362229513360231903e-02
2.554799999999999827e+01 8.516500000000000625e+00 2.989499999999999957e+01 5.519762000000000057e+00 -2.702344909968078593e-02
2.555900000000000105e+01 1.369899999999999984e+01 2.928099999999999881e+01 2.801973999999999965e+00 -1.350893793592963452e-02
2.556099999999999994e+01 1.721900000000000119e+01 4.934400000000000119e+01 7.686334999999999695e+00 -1.620887753345633675e-01
2.556099999999999994e+01 2.378500000000000014e+01 2.439999999999999858e+01 6.287922000000000233e-01 -2.561511404405019711e-03
2.556599999999999895e+01 3.256900000000000261e+01 2.747299999999999898e+01 -1.440084000000000053e+01 -1.701059562484192045e-01
2.557300000000000040e+01 1.064000000000000057e+01 2.887300000000000111e+01 1.056795999999999935e+01 -2.261222420277913397e-02
2.558200000000000074e+01 8.690300000000000580e+00 4.978600000000000136e+01 5.736275000000000013e+00 -5.238446221821396742e-02
2.558500000000000085e+01 7.745000000000000107e+00 4.801200000000000045e+01 4.713624000000000258e+00 -3.645346874548859306e-01
2.558500000000000085e+01 7.998899999999999899e+00 4.711800000000000210e+01 7.934181999999999846e+00 -3.647949942437321846e-01
2.558500000000000085e+01 7.998899999999999899e+00 4.890599999999999881e+01 8.182983000000000118e+00 -3.646291903835490733e-01
2.558699999999999974e+01 2.535000000000000142e+01 4.843699999999999761e+01 1.217839000000000027e+01 -1.720144427438959345e-01
2.558699999999999974e+01 2.698000000000000043e+01 4.843699999999999761e+01 2.804844999999999899e+01 -1.713310805673021464e-01
2.558800000000000097e+01 2.062500000000000000e+01 5.206000000000000227e+01 -6.459407999999999817e+00 -1.660450933269944640e-01
2.558899999999999864e+01 2.275799999999999912e+01 4.868800000000000239e+01 1.750532000000000110e+01 -1.717246086017099049e-01
2.558899999999999864e+01 2.394900000000000162e+01 4.802400000000000091e+01 5.076833999999999847e+00 -1.727184009499037054e-01
2.559100000000000108e+01 7.080000000000000071e+00 3.135399999999999920e+01 1.278088999999999942e+01 -2.944541373335363837e-02
2.559100000000000108e+01 8.270899999999999253e+00 3.069000000000000128e+01 7.629523999999999972e+00 -2.645253194478305869e-02
2.559100000000000108e+01 7.918800000000000061e+00 4.391100000000000136e+01 7.043440000000000367e+00 -3.647860814038262345e-01
2.559199999999999875e+01 6.346199999999999619e+00 4.313700000000000045e+01 1.336705000000000076e+01 -2.516762461883964019e-01
2.559400000000000119e+01 3.562400000000000233e+01 3.621999999999999886e+01 -3.535066000000000042e-01 7.351791112092184721e-02
2.561199999999999832e+01 5.987400000000000500e-01 4.189999999999999858e+01 1.729052000000000078e+01 -2.538059902118762201e-01
2.561499999999999844e+01 1.898799999999999955e+01 5.175900000000000034e+01 4.151519999999999655e+00 -1.641726204891404972e-01
2.562199999999999989e+01 3.564699999999999847e+01 3.526800000000000068e+01 7.013547000000000531e-02 7.358160780843009396e-02
2.562399999999999878e+01 3.124599999999999866e+01 4.835499999999999687e+01 6.311914999999999942e+00 7.877074075185919177e-02
2.562399999999999878e+01 2.237600000000000122e+01 4.944500000000000028e+01 1.312175000000000047e+01 -1.711274947299990246e-01
2.562399999999999878e+01 3.629099999999999682e+01 3.776599999999999824e+01 -3.869162999999999908e+00 7.289262421216644028e-02
2.562999999999999901e+01 2.014099999999999824e+01 2.690700000000000003e+01 -6.315779000000000032e+00 -3.055070982382970986e-03
2.563100000000000023e+01 2.991600000000000037e+01 4.763700000000000045e+01 4.102103999999999928e+01 8.180082082561709877e-02
2.563200000000000145e+01 3.598199999999999932e+01 3.831600000000000250e+01 -5.414854000000000056e+00 7.312135000567074328e-02
2.563800000000000168e+01 3.507399999999999807e+01 4.616599999999999682e+01 2.215679000000000087e+01 7.296835455010332316e-02
2.564799999999999969e+01 6.966000000000000192e+00 4.380599999999999739e+01 1.687111000000000161e+01 -2.509546841363627934e-01
2.565099999999999980e+01 1.199399999999999977e+01 4.860699999999999932e+01 1.340454000000000079e+01 -3.499999999999999778e-01
2.565800000000000125e+01 1.091999999999999993e+01 4.329399999999999693e+01 1.074549999999999983e+01 -5.799952718609890923e-02
2.566199999999999903e+01 8.547100000000000364e+00 3.261699999999999733e+01 3.692867999999999995e+01 -2.115298647559409051e-02
2.566199999999999903e+01 9.947100000000000719e+00 3.261699999999999733e+01 4.239614999999999867e+01 -1.667395356844321094e-02
2.566400000000000148e+01 2.811100000000000065e+01 4.769899999999999807e+01 1.942142000000000124e+01 -1.717518722192057090e-01
2.566700000000000159e+01 4.788700000000000401e+00 3.504899999999999949e+01 2.751876000000000033e+01 -2.635098361870178568e-02
2.567000000000000171e+01 -7.276200000000000445e-01 4.096999999999999886e+01 1.833329000000000164e+01 -2.443351952895880252e-01
2.567699999999999960e+01 2.721199999999999974e+01 2.668700000000000117e+01 -3.372900000000000009e+00 5.349013044000807890e-03
2.568199999999999861e+01 3.369899999999999807e+01 4.708700000000000330e+01 1.232497000000000043e+01 7.475717579410598446e-02
2.568599999999999994e+01 6.496999999999999886e+00 4.037199999999999989e+01 8.371249999999999858e+00 -2.532238905906087911e-01
2.569800000000000040e+01 2.260600000000000165e+01 2.559400000000000119e+01 -1.869623000000000035e+00 -1.970463003513029266e-03
2.570100000000000051e+01 1.120299999999999940e+01 4.468399999999999750e+01 1.681576000000000093e+01 -5.744771053722952381e-02
2.570700000000000074e+01 3.254699999999999704e+01 4.759100000000000108e+01 9.303767999999999816e+00 7.660075149157244412e-02
2.571300000000000097e+01 2.607900000000000063e+01 2.592899999999999849e+01 6.504936999999999969e+00 2.907378910464867086e-03
2.571699999999999875e+01 4.122700000000000031e+00 3.226500000000000057e+01 4.585308000000000384e+00 -4.319857401705407690e-02
2.571699999999999875e+01 4.122700000000000031e+00 3.331499999999999773e+01 7.553952999999999918e+00 -3.913969500852297612e-02
2.573000000000000043e+01 -4.272900000000000031e-01 4.279399999999999693e+01 4.969668000000000063e+01 6.732668715083237054e-02
2.573699999999999832e+01 1.007000000000000028e+01 4.306000000000000227e+01 1.690819000000000116e+01 -5.692532992119030133e-02
2.574099999999999966e+01 1.072300000000000075e+01 3.350900000000000034e+01 7.976532999999999873e+00 -6.838087916604012814e-03
2.574099999999999966e+01 1.072300000000000075e+01 3.437400000000000233e+01 -1.676889999999999992e+00 -1.112772258750895429e-03
2.574599999999999866e+01 3.515899999999999892e+01 4.517600000000000193e+01 2.264742999999999995e+01 7.329003239319561991e-02
2.574699999999999989e+01 5.445199999999999818e+00 3.122800000000000153e+01 5.533966999999999636e+00 -3.792791244352317764e-02
2.574800000000000111e+01 1.794900000000000162e+01 5.025699999999999790e+01 3.239927999999999919e+00 -1.621432888972367814e-01
2.575000000000000000e+01 1.938700000000000045e+01 2.766100000000000136e+01 -2.054551000000000016e+00 -2.663278546765953086e-03
2.575499999999999901e+01 3.906799999999999784e+01 4.029299999999999926e+01 -4.700372999999999912e+00 7.057008152599268669e-02
2.576200000000000045e+01 3.772999999999999687e+01 3.803099999999999881e+01 -7.417196999999999818e+00 7.191511412891553323e-02
2.577100000000000080e+01 3.144000000000000128e+01 2.593599999999999994e+01 -2.208873000000000175e+01 -1.694187035739640190e-01
2.577100000000000080e+01 3.144000000000000128e+01 2.680099999999999838e+01 -2.021069999999999922e+01 -1.695524355393088212e-01
2.577199999999999847e+01 1.395599999999999952e+01 4.806900000000000261e+01 3.617562999999999751e-01 -3.499999999999999778e-01
2.578399999999999892e+01 1.485800000000000054e+01 2.851699999999999946e+01 -8.056600000000000428e-01 -1.212234682127055416e-02
2.579299999999999926e+01 9.018299999999999983e+00 2.908299999999999841e+01 2.819535999999999820e+00 -2.711750552839554268e-02
2.579400000000000048e+01 3.905599999999999739e+01 4.512100000000000222e+01 -7.063308000000000142e+00 -1.462731111856125643e-01
2.579400000000000048e+01 4.057600000000000051e+01 4.266100000000000136e+01 -3.330436000000000174e+00 -1.468625138942790953e-01
2.579400000000000048e+01 4.057600000000000051e+01 4.512100000000000222e+01 -7.126801999999999637e+00 -1.470869903976836923e-01
2.579599999999999937e+01 5.746599999999999930e+00 3.512899999999999778e+01 2.338327999999999918e+01 -2.217769059057190378e-02
2.579700000000000060e+01 1.532699999999999996e+01 4.863300000000000267e+01 6.673519999999999897e+00 -1.564351643736034969e-01
2.580099999999999838e+01 3.896000000000000085e+01 3.885399999999999920e+01 -8.031928000000000623e+00 7.095782742103602658e-02
2.580300000000000082e+01 7.293999999999999595e+00 3.538799999999999812e+01 2.291803000000000168e+01 -1.592029659785034953e-02
2.580600000000000094e+01 3.276800000000000068e+01 4.711699999999999733e+01 3.074093999999999838e+01 7.653870675270539603e-02
2.580900000000000105e+01 2.539699999999999847e+01 2.455900000000000105e+01 4.966653000000000162e+01 -3.870255538282264861e-04
2.580900000000000105e+01 4.411900000000000155e+00 3.410900000000000176e+01 1.439625999999999983e+01 -3.382612079920592485e-02
2.581400000000000006e+01 8.558999999999999275e+00 4.369899999999999807e+01 9.904014999999999347e+00 -5.440758873179477734e-02
2.581400000000000006e+01 9.958999999999999631e+00 4.596500000000000341e+01 3.119539999999999935e+01 -5.423706385451108891e-02
2.581599999999999895e+01 1.669699999999999918e+01 4.915699999999999648e+01 1.211872999999999934e+01 -1.596948805532891758e-01
2.582199999999999918e+01 1.147000000000000064e+01 2.895799999999999841e+01 1.064267000000000074e+01 -2.097952163732612341e-02
2.582400000000000162e+01 2.845599999999999952e+01 2.502400000000000091e+01 -1.370115999999999978e+01 3.340002104329684550e-03
2.582799999999999940e+01 2.853000000000000114e+01 2.762999999999999901e+01 -2.235066000000000130e+01 -1.685153882700832217e-01
2.582900000000000063e+01 3.709599999999999653e+01 4.429999999999999716e+01 2.143950999999999851e+01 7.154348344967947915e-02
2.582999999999999829e+01 3.326500000000000057e+01 2.765299999999999869e+01 -9.337205000000000865e+00 -1.703230581413987532e-01
2.582999999999999829e+01 2.957700000000000173e+01 2.279299999999999926e+01 -2.592556000000000083e+01 8.216703359725574312e-04
2.583200000000000074e+01 3.541700000000000159e+01 4.444299999999999784e+01 2.260041999999999973e+01 7.328925584048621988e-02
2.583399999999999963e+01 3.479299999999999926e+01 2.780000000000000071e+01 -1.971918000000000148e+01 -1.708307126149297972e-01
2.583999999999999986e+01 2.858500000000000085e+01 2.591300000000000026e+01 -7.185804000000000080e+00 -1.010217333123799577e-01
2.584199999999999875e+01 2.815399999999999991e+01 2.676200000000000045e+01 -9.235573000000000476e+00 -1.682338179462945504e-01
2.585900000000000176e+01 1.446799999999999997e+01 2.941700000000000159e+01 6.096527000000000029e+00 -1.045764359350115011e-02
2.585999999999999943e+01 2.846000000000000085e+01 2.292899999999999849e+01 -1.423113000000000028e+01 5.041018128584976924e-05
2.586400000000000077e+01 9.335200000000000387e+00 3.581600000000000250e+01 2.016373999999999889e+00 2.099046127590034703e-03
2.586499999999999844e+01 1.588700000000000045e+01 2.839799999999999969e+01 -6.062490000000000379e+00 -9.263440066232014186e-03
2.587699999999999889e+01 3.689500000000000313e+01 3.796000000000000085e+01 -4.436428000000000260e+00 7.274599831789650695e-02
2.589499999999999957e+01 9.471199999999999619e+00 4.982699999999999818e+01 2.023419000000000167e+01 -4.994683419257578416e-02
2.589499999999999957e+01 1.041900000000000048e+01 4.982699999999999818e+01 1.162412999999999919e+01 -4.144897128197758823e-02
2.589999999999999858e+01 1.046799999999999997e+01 3.505799999999999983e+01 -1.358033999999999963e+00 2.115729986603031697e-03
2.591000000000000014e+01 2.616499999999999915e+01 4.848299999999999699e+01 2.467113000000000156e+01 -1.712739848994603020e-01
2.591600000000000037e+01 2.138500000000000156e+01 5.188100000000000023e+01 -1.196247999999999934e+01 -1.658878851090746509e-01
2.591700000000000159e+01 1.329899999999999949e+01 3.011700000000000088e+01 1.109777000000000058e+01 -1.229720310893208518e-02
2.591700000000000159e+01 1.416399999999999970e+01 3.011700000000000088e+01 7.444010999999999711e+00 -8.971730926735454678e-03
2.592299999999999827e+01 2.813100000000000023e+01 2.368900000000000006e+01 -2.473892000000000024e+01 8.794963729404631355e-04
2.592599999999999838e+01 2.583200000000000074e+01 2.529299999999999926e+01 -6.515101999999999727e+00 1.354138224524808424e-03
2.593199999999999861e+01 1.982400000000000162e+01 5.201500000000000057e+01 1.930609999999999937e+00 -1.648790587084711101e-01
2.594000000000000128e+01 2.834600000000000009e+01 2.449800000000000111e+01 -5.579876000000000147e+01 2.337461265775877747e-03
2.594300000000000139e+01 1.280700000000000038e+01 2.990099999999999980e+01 1.481386000000000003e+01 -1.526373535639885537e-02
2.594500000000000028e+01 7.524300000000000210e+00 3.728000000000000114e+01 1.014103000000000065e+01 3.928672444749360844e-03
2.594500000000000028e+01 7.524300000000000210e+00 3.821999999999999886e+01 3.250477000000000061e+00 -2.440711132195436672e-01
2.594500000000000028e+01 7.524300000000000210e+00 3.908500000000000085e+01 3.260403999999999858e+00 -2.394079183394723365e-01
2.594999999999999929e+01 8.544800000000000395e+00 4.642600000000000193e+01 1.399756000000000000e+01 -5.173147409741402081e-02
2.595599999999999952e+01 8.116300000000000736e+00 3.522299999999999898e+01 2.152430000000000021e+01 -1.115544224845538106e-02
2.595799999999999841e+01 2.209199999999999875e+01 2.606400000000000006e+01 -2.358168000000000042e+00 -1.918835796733136742e-03
2.595899999999999963e+01 2.090099999999999980e+01 2.684400000000000119e+01 -1.627484000000000108e+01 -2.087008393022935383e-03
2.596900000000000119e+01 -2.039499999999999924e-01 4.189999999999999858e+01 1.899380000000000024e+01 -1.358280412201408882e-01
2.598000000000000043e+01 2.903399999999999892e+01 2.681500000000000128e+01 -8.468220999999999776e+00 -1.685852127759799868e-01
2.598100000000000165e+01 2.651200000000000045e+01 2.662900000000000134e+01 4.457696000000000325e+00 4.477721104159996211e-03
2.598600000000000065e+01 -2.161000000000000032e+00 4.117999999999999972e+01 4.387378999999999962e+01 2.245670845922078177e-02
2.598600000000000065e+01 -2.161000000000000032e+00 4.272999999999999687e+01 7.127092000000000382e+01 5.256333134331570012e-02
2.598600000000000065e+01 -1.203000000000000069e+00 4.117999999999999972e+01 4.393294000000000210e+01 -2.431350525023245335e-01
2.598600000000000065e+01 -1.203000000000000069e+00 4.272999999999999687e+01 1.737401999999999873e+02 6.111486710624784019e-02
2.599399999999999977e+01 2.308500000000000085e+01 2.481899999999999906e+01 -9.908531000000000422e-01 -3.005850020257019167e-03
2.600000000000000000e+01 3.247500000000000142e+01 4.423299999999999699e+01 1.106851999999999947e+01 7.766783117441541928e-02
2.600199999999999889e+01 3.052299999999999969e+01 2.282300000000000040e+01 -7.695890000000000342e+00 1.522389195608407370e-03
2.600199999999999889e+01 3.181599999999999895e+01 2.354400000000000048e+01 -1.867978000000000094e+01 -1.019384147215775666e-01
2.600199999999999889e+01 3.181599999999999895e+01 2.514199999999999946e+01 -8.246506999999999721e+01 -1.693975606270384238e-01
2.600199999999999889e+01 3.204299999999999926e+01 2.434299999999999997e+01 -3.332354999999999734e+01 -1.693707558173188632e-01
2.600499999999999901e+01 1.846399999999999864e+01 5.094299999999999784e+01 1.128921999999999981e+00 -1.617626362001180207e-01
2.600799999999999912e+01 7.625499999999999723e+00 3.625099999999999767e+01 5.303677999999999670e+00 -5.744957120239941456e-03
2.600799999999999912e+01 1.028999999999999915e+01 3.280899999999999750e+01 3.699844999999999828e+01 -1.401105928533528944e-02
2.601999999999999957e+01 6.727699999999999569e+00 3.485799999999999699e+01 2.011120999999999981e+01 -2.050266012181612557e-02
2.602199999999999847e+01 2.324899999999999878e+01 4.829099999999999682e+01 4.965963000000000349e+00 -1.711835544670798348e-01
2.602199999999999847e+01 2.464900000000000091e+01 4.829099999999999682e+01 2.837794000000000150e-01 -1.721067469624648905e-01
2.602199999999999847e+01 3.466199999999999903e+01 3.172700000000000031e+01 -1.372057000000000038e+01 -1.716909017760160361e-01
2.602199999999999847e+01 3.487100000000000222e+01 3.099099999999999966e+01 1.464159000000000077e+01 -1.715547582887128608e-01
2.602199999999999847e+01 3.487100000000000222e+01 3.246300000000000097e+01 -9.576024999999999565e+00 -1.719659505771163333e-01
2.602400000000000091e+01 7.780000000000000249e+00 3.108599999999999852e+01 2.263860999999999990e+01 -2.825231407231827349e-02
2.603699999999999903e+01 2.779400000000000048e+01 2.762999999999999901e+01 -1.848987999999999943e+01 -1.681467910170428293e-01
2.603699999999999903e+01 2.926599999999999824e+01 2.762999999999999901e+01 -1.983996000000000137e+01 -1.687877662237165233e-01
2.603800000000000026e+01 9.872999999999999332e+00 2.869900000000000162e+01 2.191295000000000215e+00 -2.554063873238907045e-02
2.605099999999999838e+01 -2.496900000000000119e+00 4.195499999999999829e+01 7.391611000000000153e+00 -2.381329020521468220e-01
2.606299999999999883e+01 3.172500000000000142e+01 4.781099999999999994e+01 3.925459000000000032e+00 7.904513327320808469e-02
2.606700000000000017e+01 6.384999999999999787e+00 3.125799999999999912e+01 1.805454999999999899e+01 -3.376280058999898970e-02
2.608299999999999841e+01 4.003399999999999892e+01 4.205700000000000216e+01 -1.129666999999999977e+00 7.003903363489608069e-02
2.608599999999999852e+01 8.519000000000000128e+00 2.947400000000000020e+01 5.458953000000000166e+00 -2.864695827053396343e-02
2.608699999999999974e+01 7.445000000000000284e+00 4.435000000000000142e+01 2.571693000000000140e+01 -3.644282389202819772e-01
2.609100000000000108e+01 3.849000000000000199e+01 3.809400000000000119e+01 -1.616121000000000052e+01 7.180215150811065927e-02
2.609499999999999886e+01 8.056200000000000472e+00 3.301299999999999812e+01 6.117401999999999873e+01 -2.259499421949785064e-02
2.609499999999999886e+01 9.247099999999999653e+00 3.234899999999999665e+01 3.599356000000000222e+01 -2.080598400838774842e-02
2.609600000000000009e+01 2.809799999999999898e+01 2.832999999999999829e+01 -4.038647000000000276e+01 -1.683727426437203467e-01
2.609600000000000009e+01 2.896300000000000097e+01 2.832999999999999829e+01 -3.151103000000000165e+01 -1.687582889581209500e-01
2.610000000000000142e+01 7.702899999999999636e+00 3.461500000000000199e+01 5.747760000000000247e+01 -1.859163475732585405e-02
2.610699999999999932e+01 1.044699999999999918e+01 4.510799999999999699e+01 1.747125000000000128e+01 -5.534854830873937870e-02
2.610800000000000054e+01 5.243000000000000327e+00 3.431400000000000006e+01 1.322087999999999930e+01 -2.923575037856732811e-02
2.610999999999999943e+01 8.595000000000000639e+00 4.938700000000000045e+01 1.404358000000000040e+01 -3.647452264669391875e-01
2.611700000000000088e+01 1.147600000000000087e+01 4.904899999999999949e+01 1.080405999999999977e+01 -3.500000000000000333e-01
2.611700000000000088e+01 9.259000000000000341e+00 4.602300000000000324e+01 1.586637999999999948e+01 -5.273133619655093890e-02
2.612000000000000099e+01 3.077199999999999847e+01 4.791599999999999682e+01 1.303639000000000081e+01 8.121086499954771609e-02
2.612500000000000000e+01 9.448199999999999932e+00 4.359599999999999653e+01 1.348459000000000074e+01 -5.531982880206457592e-02
2.612699999999999889e+01 6.190999999999999837e+00 4.350999999999999801e+01 6.348825999999999858e+00 -2.515450002901377102e-01
2.612800000000000011e+01 1.321299999999999919e+01 4.810199999999999676e+01 3.820864999999999956e+00 -3.500000000000000333e-01
2.613400000000000034e+01 1.050300000000000011e+01 4.355100000000000193e+01 1.102693999999999974e+01 -5.676882894808447932e-02
2.613400000000000034e+01 7.797200000000000131e+00 3.365500000000000114e+01 2.683471999999999866e+02 -2.158878014387498323e-02
2.613400000000000034e+01 2.578000000000000114e+01 2.580300000000000082e+01 -3.333648000000000167e+00 2.127051925080661841e-03
2.613700000000000045e+01 5.801499999999999879e+00 4.267199999999999704e+01 1.304959000000000024e+01 -2.522106265014240067e-01
2.613700000000000045e+01 3.532399999999999807e+01 3.421600000000000108e+01 2.373603999999999914e+01 -1.726198497436623458e-01
2.613800000000000168e+01 3.503699999999999903e+01 3.570100000000000051e+01 5.985026999999999653e+00 7.479833944348612818e-02
2.615700000000000003e+01 -8.552600000000000202e-01 4.195499999999999829e+01 1.345612999999999992e+01 -1.349350802971353014e-01
2.616300000000000026e+01 3.422399999999999665e+01 4.649099999999999966e+01 1.592562000000000033e+01 7.520521488692213929e-02
2.616700000000000159e+01 1.003500000000000014e+01 3.575800000000000267e+01 -1.051531999999999911e+00 4.576337337378522455e-03
2.617099999999999937e+01 8.478300000000000836e+00 3.569899999999999807e+01 3.212752000000000052e+00 -5.052668543362269851e-03
2.617800000000000082e+01 3.503300000000000125e+01 3.338799999999999812e+01 5.618233000000000033e+00 -1.722585832797315641e-01
2.618100000000000094e+01 1.745799999999999841e+01 4.985999999999999943e+01 8.623065000000000424e+00 -1.593687883710840636e-01
2.618700000000000117e+01 1.869500000000000028e+01 2.807499999999999929e+01 -1.929057000000000022e+00 -3.327282725141501949e-03
2.619200000000000017e+01 1.080599999999999916e+01 4.425099999999999767e+01 1.097957000000000072e+01 -5.656816515849387439e-02
2.619500000000000028e+01 2.917699999999999960e+01 4.737899999999999778e+01 7.261790000000000411e+00 -1.713820894323088428e-01
2.620299999999999940e+01 1.595299999999999940e+01 4.899000000000000199e+01 1.245645000000000024e+01 -1.559562865117045671e-01
2.620899999999999963e+01 3.173900000000000077e+01 4.423299999999999699e+01 -8.392804999999999183e+00 7.935236067904950785e-02
2.620899999999999963e+01 3.321099999999999852e+01 4.423299999999999699e+01 1.462113000000000085e+01 7.699346623308303550e-02
2.621099999999999852e+01 5.647000000000000242e+00 4.174699999999999989e+01 4.846372999999999820e+00 -2.527931162656667508e-01
2.621099999999999852e+01 5.900900000000000034e+00 4.085300000000000153e+01 7.689479999999999649e+00 -2.531421956000953211e-01
2.621199999999999974e+01 7.091700000000000337e+00 3.978499999999999659e+01 1.026364999999999972e+00 -2.532058079282942242e-01
2.621399999999999864e+01 8.197499999999999787e+00 4.436399999999999721e+01 1.219876000000000005e+01 -3.646664052167835623e-01
2.621600000000000108e+01 2.463500000000000156e+01 2.445799999999999841e+01 1.280661999999999967e+00 -1.707072941707156065e-03
2.622100000000000009e+01 3.209300000000000352e+01 4.710300000000000153e+01 4.960502999999999929e+01 7.878108429637382948e-02
2.622599999999999909e+01 3.479599999999999937e+01 4.413499999999999801e+01 1.936280000000000001e+01 7.486647057448730935e-02
2.622800000000000153e+01 3.846600000000000108e+01 4.478399999999999892e+01 -1.770011999999999919e+00 -1.451096346966192496e-01
2.622800000000000153e+01 3.585000000000000142e+01 4.395199999999999818e+01 2.923843000000000103e+01 7.364204386932857171e-02
2.623000000000000043e+01 2.989000000000000057e+01 2.696499999999999986e+01 -1.823837999999999937e+01 -1.689052636617008329e-01
2.623400000000000176e+01 3.459300000000000352e+01 4.564099999999999824e+01 1.798632999999999882e+01 7.496661031835656630e-02
2.623699999999999832e+01 3.506700000000000017e+01 3.684100000000000108e+01 4.527533000000000252e-01 7.491806623604413407e-02
2.624500000000000099e+01 4.798000000000000043e+00 3.375900000000000034e+01 1.970514999999999972e+01 -3.444217292082395188e-02
2.624699999999999989e+01 2.946699999999999875e+01 2.611499999999999844e+01 -8.969060999999999950e+00 -1.686208802956833119e-01
2.625199999999999889e+01 3.434799999999999898e+01 4.482999999999999829e+01 1.825316000000000116e+01 7.543074098639773739e-02
