-3.149299999999999855e+01 1.459399999999999942e+01 8.315300000000000580e+00 -1.235288000000000075e+01 -1.695267040152845239e-02
-3.149299999999999855e+01 1.480300000000000082e+01 7.579299999999999926e+00 1.628356000000000137e+01 -1.775705701051378399e-02
-3.149299999999999855e+01 1.480300000000000082e+01 9.051399999999999224e+00 -7.384409999999999918e+00 -1.572456947232340682e-02
-3.145700000000000074e+01 1.344999999999999929e+01 2.335700000000000109e+00 -4.758082000000000283e-02 -2.689045157779900580e-02
-3.142999999999999972e+01 1.305400000000000027e+01 3.136400000000000077e+00 -1.759017999999999970e-01 -2.621873490118271227e-02
-3.140399999999999991e+01 1.360899999999999999e+01 1.170400000000000063e+01 -3.630756000000000228e+01 -1.350111898021743792e-02
-3.139799999999999969e+01 7.010699999999999932e+00 9.802799999999999514e+00 -1.328074999999999894e+00 -2.345519731235383085e-02
-3.139499999999999957e+01 5.813699999999999868e+00 7.734700000000000131e+00 -8.479023999999999450e-01 1.001241032130512354e-01
-3.136499999999999844e+01 5.929000000000000270e+00 4.401299999999999990e+00 -1.347062999999999899e+00 9.980116693738425027e-02
-3.136499999999999844e+01 7.448999999999999844e+00 4.401299999999999990e+00 -1.793668999999999958e+00 9.942653066657307359e-02
-3.134299999999999997e+01 1.172499999999999964e+01 4.051899999999999835e+00 -3.070752999999999955e-01 -2.647208821026970568e-02
-3.133699999999999974e+01 6.117099999999999760e+00 8.434699999999999420e+00 -1.572553000000000090e+00 -2.639463892536837025e-02
-3.133099999999999952e+01 1.783800000000000097e+01 9.307999999999999607e-01 1.195398999999999923e+01 -2.384952391087771795e-02
-3.132100000000000151e+01 8.804199999999999804e+00 1.209200000000000053e+01 5.410344000000000264e+00 -1.829295757331463393e-02
-3.130300000000000082e+01 1.624200000000000088e+01 9.776700000000000390e-01 3.168503999999999987e+00 -2.556520070663054200e-02
-3.127700000000000102e+01 1.095199999999999996e+01 4.256000000000000227e+00 -2.559899000000000147e+00 -2.710294212103528388e-02
-3.127599999999999980e+01 1.791700000000000159e+01 5.457200000000000273e+00 -4.591190000000000104e+00 -1.741431025925898810e-02
-3.127299999999999969e+01 5.236900000000000333e+00 7.507399999999999629e+00 2.201458000000000026e-01 1.002398431572117249e-01
-3.125600000000000023e+01 1.446400000000000041e+01 1.174200000000000088e+01 -4.099573999999999785e+01 -1.245918918310312019e-02
-3.123400000000000176e+01 1.503999999999999915e+01 9.942700000000000315e+00 -7.542775999999999925e+00 -1.411464841687929718e-02
-3.123300000000000054e+01 8.793300000000000338e+00 4.432599999999999874e+00 4.287635000000000196e-01 9.909192888015160017e-02
-3.118599999999999994e+01 1.852199999999999847e+01 4.151099999999999568e+00 -4.237147000000000219e+01 -1.862066312576279165e-02
-3.117599999999999838e+01 9.941000000000000725e+00 1.242500000000000071e+01 -6.580302000000000096e-01 -1.649604255903345043e-02
-3.116100000000000136e+01 6.983900000000000219e+00 1.069800000000000040e+01 -1.675847000000000087e+00 -2.221128750724273709e-02
-3.113200000000000145e+01 1.397499999999999964e+01 1.485700000000000021e+00 1.830970999999999904e+00 -2.755487102729716614e-02
-3.110600000000000165e+01 1.244999999999999929e+01 1.134699999999999953e+01 8.093143000000000420e-01 -1.498112874788883053e-02
-3.109799999999999898e+01 7.313299999999999912e+00 1.145800000000000018e+01 -3.658773000000000053e+00 -2.077488363896956222e-02
-3.109700000000000131e+01 1.628099999999999881e+01 5.741699999999999804e+00 2.172241000000000000e+01 -1.862780125192218389e-02
-3.107100000000000151e+01 1.861799999999999855e+01 1.306899999999999951e+00 1.809493000000000151e+01 -2.248783635783401652e-02
-3.106099999999999994e+01 1.514899999999999913e+01 6.500000000000000000e+00 3.110691999999999879e+01 -1.874768774956288298e-02
-3.104100000000000037e+01 1.890800000000000125e+01 2.417400000000000215e+00 -3.822595999999999883e+00 -2.063379100416733170e-02
-3.103999999999999915e+01 1.242500000000000071e+01 3.993599999999999817e+00 -8.756180000000000074e-01 -2.577460858383535253e-02
-3.101699999999999946e+01 6.538899999999999935e+00 9.265499999999999403e+00 -1.014091000000000076e+00 -2.476556363102143735e-02
-3.101699999999999946e+01 1.514199999999999946e+01 1.102100000000000080e+01 -3.760323000000000349e+01 -1.245220131924835646e-02
-3.099399999999999977e+01 4.784799999999999720e+00 6.596499999999999808e+00 -8.905933000000000321e-01 1.002750466444065208e-01
-3.098100000000000165e+01 5.406299999999999883e+00 8.507300000000000750e+00 1.688388999999999862e-01 1.002925829872668706e-01
-3.094200000000000017e+01 1.899299999999999855e+01 3.390000000000000124e+00 -2.793038999999999916e+01 -1.914105487290292812e-02
-3.093700000000000117e+01 1.556199999999999939e+01 1.080799999999999983e+00 4.124029000000000167e+00 -2.627453361734842160e-02
-3.091600000000000037e+01 4.434300000000000352e+00 7.450000000000000178e+00 9.833250000000000046e-01 1.004322195391637029e-01
-3.089499999999999957e+01 5.395999999999999908e+00 4.831900000000000084e+00 -1.527721000000000107e+00 9.996948090297126666e-02
-3.089499999999999957e+01 6.689000000000000057e+00 4.110999999999999766e+00 -1.387234999999999996e+00 9.957254386758956910e-02
-3.089499999999999957e+01 8.224099999999999966e+00 4.547100000000000364e+00 -1.524138999999999911e+00 9.922262823103408791e-02
-3.087699999999999889e+01 1.700900000000000034e+01 5.557299999999999685e+00 3.531207000000000207e+00 -1.801902235958992640e-02
-3.084499999999999886e+01 4.802699999999999747e+00 8.300000000000000711e+00 9.580386000000000735e+00 1.004192000032089888e-01
-3.083500000000000085e+01 1.699899999999999878e+01 6.883500000000000174e-01 7.240999999999999659e+00 -2.514855966968593953e-02
-3.082600000000000051e+01 1.075399999999999956e+01 1.237800000000000011e+01 1.601815999999999907e+00 -1.540677995584701157e-02
-3.080300000000000082e+01 1.175000000000000000e+01 1.140499999999999936e+01 1.356137000000000015e+01 -1.550193638749234812e-02
-3.079400000000000048e+01 1.558099999999999952e+01 5.799999999999999822e+00 3.239321999999999946e+01 -1.920496556717973119e-02
-3.079299999999999926e+01 1.486100000000000065e+01 7.882699999999999818e+00 1.278043000000000085e+01 -1.689501855444367276e-02
-3.079299999999999926e+01 1.486100000000000065e+01 8.747999999999999332e+00 3.707659000000000038e+00 -1.563586268020604811e-02
-3.076300000000000168e+01 1.317800000000000082e+01 2.297000000000000153e+00 1.489972999999999992e+00 -2.746192709878257990e-02
-3.075600000000000023e+01 1.514600000000000080e+01 9.553599999999999426e+00 -1.201534000000000102e+00 -1.416560436816917748e-02
-3.073199999999999932e+01 7.735400000000000276e+00 1.206600000000000072e+01 -1.106995000000000040e+01 -1.935125924552377058e-02
-3.072700000000000031e+01 6.493199999999999861e+00 1.022899999999999920e+01 -1.639536000000000104e+00 -2.341186076620985906e-02
-3.066100000000000136e+01 5.019999999999999574e+00 5.623599999999999710e+00 -1.234906000000000059e+00 1.001378475487265940e-01
-3.063800000000000168e+01 1.831099999999999994e+01 5.669800000000000395e-01 2.872524999999999995e+00 -2.382914126020143838e-02
-3.062800000000000011e+01 6.553300000000000125e+00 1.116799999999999926e+01 -1.540999000000000008e+00 -2.197517255111033213e-02
-3.062399999999999878e+01 9.599000000000000199e+00 4.216000000000000192e+00 4.055311999999999806e+00 -2.901764158009776523e-02
-3.060699999999999932e+01 1.172499999999999964e+01 4.261000000000000121e+00 -3.134986000000000050e+00 -2.631019857839995285e-02
-3.060699999999999932e+01 1.291600000000000037e+01 3.596999999999999975e+00 2.372564000000000117e+00 -2.584619579938585154e-02
-3.060699999999999932e+01 1.312500000000000000e+01 2.861000000000000210e+00 1.067690999999999946e+00 -2.671921200545764388e-02
-3.060699999999999932e+01 1.482499999999999929e+01 1.161000000000000032e+00 7.475245000000000140e+00 -2.713022606598591846e-02
-3.058699999999999974e+01 1.763299999999999912e+01 6.529099999999999904e-01 1.222464000000000084e+01 -2.448272399876172400e-02
-3.058399999999999963e+01 5.838899999999999757e+00 8.998200000000000642e+00 -2.284803999999999835e+00 -2.600658166505039753e-02
-3.057999999999999829e+01 1.901500000000000057e+01 8.742299999999999516e-01 8.392490000000000450e+00 -2.261821711581061406e-02
-3.056299999999999883e+01 1.317200000000000060e+01 1.134699999999999953e+01 -6.457347000000000392e+00 -1.376731356008776587e-02
-3.054799999999999827e+01 9.781000000000000583e+00 1.253100000000000058e+01 -7.748308999999999891e+00 -1.619060966739530039e-02
-3.054500000000000171e+01 1.461999999999999922e+01 1.172199999999999953e+01 -1.481236999999999959e+01 -1.168591725222243270e-02
-3.054100000000000037e+01 1.787600000000000122e+01 5.168400000000000105e+00 -4.897523999999999766e+00 -1.751865816085012781e-02
-3.053600000000000136e+01 1.633999999999999986e+01 1.045299999999999896e+00 1.071932999999999936e+01 -2.545572427656004472e-02
-3.052599999999999980e+01 6.142299999999999649e+00 9.698199999999999932e+00 -9.450332000000000177e-01 -2.460897654228099557e-02
-3.048600000000000065e+01 1.825499999999999901e+01 4.583700000000000330e+00 -1.131700000000000017e+01 -1.797115990776531474e-02
-3.048600000000000065e+01 1.846399999999999864e+01 3.847700000000000120e+00 -1.357033999999999985e+01 -1.885339867637493214e-02
-3.044099999999999895e+01 7.490400000000000169e+00 4.266799999999999926e+00 -1.090761999999999965e+01 9.935923077405681147e-02
-3.043499999999999872e+01 5.242499999999999716e+00 8.958999999999999631e+00 8.259193000000000229e-01 -2.676286037120974640e-02
-3.042999999999999972e+01 1.095199999999999996e+01 4.373999999999999666e+00 -1.398209000000000035e+00 -2.715403997443231049e-02
-3.042500000000000071e+01 5.929000000000000270e+00 4.401299999999999990e+00 -2.696721999999999841e+00 9.978778203180579953e-02
-3.042200000000000060e+01 8.920999999999999375e+00 1.246700000000000053e+01 1.200825999999999949e+00 -1.724987852432147487e-02
-3.037600000000000122e+01 1.540799999999999947e+01 1.052699999999999925e+01 -4.855179999999999829e+00 -1.224647066244581931e-02
-3.037000000000000099e+01 1.125999999999999979e+01 1.180199999999999960e+01 1.261463000000000001e+01 -1.526292479319791250e-02
-3.037000000000000099e+01 1.244999999999999929e+01 1.113799999999999990e+01 4.869485000000000063e+00 -1.474240769029944685e-02
-3.036100000000000065e+01 1.488100000000000023e+01 6.932599999999999874e+00 4.553450999999999738e+01 -1.809387128122420113e-02
-3.036100000000000065e+01 1.508999999999999986e+01 6.196600000000000108e+00 2.427406999999999826e+01 -1.900071606855270948e-02
-3.036100000000000065e+01 1.508999999999999986e+01 7.668599999999999639e+00 2.490809000000000140e+01 -1.670877793518823345e-02
-3.036100000000000065e+01 1.628099999999999881e+01 5.532600000000000406e+00 4.780840000000000423e+00 -1.864118149659388726e-02
-3.034100000000000108e+01 1.917500000000000071e+01 1.984799999999999898e+00 1.770576000000000150e+01 -2.081450024777451585e-02
-3.033800000000000097e+01 7.022999999999999687e+00 1.192800000000000082e+01 -5.392655000000000420e+00 -2.027685687755322042e-02
-3.032999999999999829e+01 1.422199999999999953e+01 1.158500000000000085e+00 2.988182999999999812e+00 -2.797447601975441844e-02
-3.032000000000000028e+01 3.952700000000000102e+00 6.924699999999999633e+00 2.558445999999999998e+00 1.005278034123310710e-01
-3.032000000000000028e+01 3.952700000000000102e+00 7.975299999999999834e+00 9.017084000000000543e+00 1.006150998455472567e-01
-3.028399999999999892e+01 1.922500000000000142e+01 2.899300000000000210e+00 7.665220999999999840e+00 -1.939478587246459135e-02
-3.027700000000000102e+01 1.529800000000000004e+01 8.275199999999999889e+00 8.766553000000000040e+00 -1.549591883909797255e-02
-3.026500000000000057e+01 1.554299999999999926e+01 9.121000000000000441e+00 8.331785999999999248e+00 -1.396441168727887219e-02
-3.026099999999999923e+01 1.948499999999999943e+01 1.012000000000000011e+00 1.085389999999999944e+01 -2.187663444234316107e-02
-3.019000000000000128e+01 1.806599999999999895e+01 1.620000000000000051e-01 6.597514000000000323e+00 -2.469717689017360621e-02
-3.019000000000000128e+01 1.911599999999999966e+01 1.620000000000000051e-01 7.589265000000000150e+00 -2.348825202216428543e-02
-3.018299999999999983e+01 1.409099999999999930e+01 1.168900000000000006e+01 -1.412231000000000014e+00 -1.195901195100512737e-02
-3.017399999999999949e+01 1.242500000000000071e+01 3.993599999999999817e+00 5.088304000000000160e-01 -2.592161595931396362e-02
-3.015899999999999892e+01 8.224099999999999966e+00 4.338000000000000078e+00 -1.193453000000000097e+00 9.915328670385323284e-02
-3.015200000000000102e+01 1.514499999999999957e+01 1.155700000000000038e+01 7.286810999999999705e-01 -1.096195643954570725e-02
-3.013599999999999923e+01 5.360899999999999999e+00 5.100100000000000300e+00 -6.027994999999999770e+00 1.000049748708799757e-01
-3.012000000000000099e+01 8.784100000000000463e+00 4.367700000000000138e+00 1.874393999999999894e+00 9.900314310591352973e-02
-3.012000000000000099e+01 1.041399999999999970e+01 4.367700000000000138e+00 6.758353000000000277e-01 -2.795227727878828519e-02
-3.011899999999999977e+01 4.482199999999999740e+00 8.908400000000000318e+00 6.406189000000000355e+00 1.005756963032944790e-01
-3.011499999999999844e+01 5.655000000000000249e+00 9.691599999999999326e+00 -6.147656000000000232e-01 -2.522114056266451174e-02
-3.010300000000000153e+01 1.564000000000000057e+01 1.312699999999999978e+00 6.646094999999999864e+00 -2.599249079222107350e-02
-3.010300000000000153e+01 1.683099999999999952e+01 6.487500000000000488e-01 8.003059999999999619e+00 -2.549089616512178330e-02
-3.007199999999999918e+01 4.451999999999999957e+00 1.439700000000000024e+01 6.436606000000000272e+00 -1.993224055327216110e-02
-3.006899999999999906e+01 6.585899999999999643e+00 4.226600000000000357e+00 -5.915324000000000026e+00 9.958439172110138127e-02
-3.006500000000000128e+01 1.975000000000000000e+01 1.890000000000000013e-01 9.289699000000000151e-01 -2.273956685827945023e-02
-3.006299999999999883e+01 1.311899999999999977e+01 1.993600000000000039e+00 -1.974499999999999866e-02 -2.823001618060681089e-02
-3.005300000000000082e+01 8.070999999999999730e+00 1.239600000000000080e+01 -5.186687000000000047e+00 -1.822664025271864691e-02
-3.005300000000000082e+01 1.895499999999999829e+01 3.451099999999999834e+00 7.991192999999999991e+00 -1.876525917601843188e-02
-3.004299999999999926e+01 1.570400000000000063e+01 9.942700000000000315e+00 3.713980999999999977e+00 -1.242831926194325372e-02
-3.003200000000000003e+01 9.735900000000000887e+00 1.256900000000000084e+01 -6.145427999999999891e+00 -1.588418824452736411e-02
-3.002700000000000102e+01 1.352200000000000024e+01 1.216800000000000104e+00 -3.360796999999999812e-01 -2.890667574654575203e-02
-2.999500000000000099e+01 4.477999999999999758e+00 6.074699999999999989e+00 -1.536311999999999955e-01 1.003324740261905823e-01
-2.995599999999999952e+01 6.172299999999999898e+00 1.166000000000000014e+01 -8.836403000000000452e-01 -2.161463551886472906e-02
-2.994699999999999918e+01 1.691300000000000026e+01 5.541400000000000325e+00 -5.645000999999999491e-01 -1.770957396693084718e-02
-2.993700000000000117e+01 1.315000000000000036e+01 1.140499999999999936e+01 3.700941999999999954e+00 -1.319965771949521693e-02
-2.992800000000000082e+01 1.558099999999999952e+01 5.799999999999999822e+00 1.980589000000000155e+01 -1.886726735301463842e-02
-2.990700000000000003e+01 1.285800000000000054e+01 2.428399999999999892e+00 5.177199999999999580e-01 -2.794614191687393862e-02
-2.990700000000000003e+01 1.285800000000000054e+01 3.293600000000000083e+00 3.605477000000000043e+00 -2.654566443103405921e-02
-2.989099999999999824e+01 1.071599999999999930e+01 1.224099999999999966e+01 9.119531000000000276e+00 -1.500584668179962347e-02
-2.987699999999999889e+01 4.990599999999999703e+00 1.355799999999999983e+01 1.129378999999999911e+00 -2.034783577947889971e-02
-2.987099999999999866e+01 1.172499999999999964e+01 4.051899999999999835e+00 2.112978000000000078e-01 -2.681993786780379960e-02
-2.983599999999999852e+01 6.024899999999999700e+00 1.055899999999999928e+01 -3.781403000000000070e+00 -2.344566647718927810e-02
-2.983299999999999841e+01 1.952199999999999847e+01 -4.643399999999999750e-01 -5.381624999999999881e-01 -2.390906875884112742e-02
-2.981800000000000139e+01 3.558300000000000018e+00 1.439700000000000024e+01 6.860637999999999792e+00 -2.088778904459663577e-02
-2.981800000000000139e+01 5.345699999999999896e+00 1.439700000000000024e+01 8.025821999999999790e+00 -1.880684677674387267e-02
-2.980399999999999849e+01 1.168299999999999983e+01 1.151900000000000013e+01 4.757932999999999879e+01 -1.473383751285352664e-02
-2.980399999999999849e+01 1.791300000000000026e+01 5.391200000000000436e+00 -1.716429000000000116e+01 -1.674763094075881406e-02
-2.978600000000000136e+01 1.852199999999999847e+01 4.151099999999999568e+00 1.292714999999999925e+01 -1.803385476085899233e-02
-2.977700000000000102e+01 9.599000000000000199e+00 4.333999999999999631e+00 2.849146000000000178e+00 -2.920630850610565418e-02
-2.977499999999999858e+01 2.021900000000000119e+01 9.478799999999999448e-01 1.120039000000000051e+01 -2.109660414414766400e-02
-2.974699999999999989e+01 3.926699999999999857e+00 1.354700000000000060e+01 2.982667999999999875e+00 -2.157779194498362155e-02
-2.974699999999999989e+01 3.926699999999999857e+00 1.524699999999999989e+01 1.207841999999999949e+01 -1.938441378225712330e-02
-2.974699999999999989e+01 4.977299999999999613e+00 1.524699999999999989e+01 1.261809000000000047e+01 -1.815929326447407108e-02
-2.973999999999999844e+01 2.048699999999999832e+01 1.890000000000000013e-01 1.660528000000000004e+00 -2.190418050671453024e-02
-2.973400000000000176e+01 1.589300000000000068e+01 1.117200000000000060e+01 5.227517999999999887e+00 -1.024649204424274949e-02
-2.970200000000000173e+01 5.161100000000000243e+00 1.304499999999999993e+01 1.508515999999999968e+00 -2.080563536403205391e-02
-2.968199999999999861e+01 4.955000000000000071e+00 9.424300000000000566e+00 5.522809999999999775e+00 -2.652846878462727237e-02
-2.967699999999999960e+01 2.015800000000000125e+01 -5.709999999999999520e-01 -5.096751999999999949e-01 -2.333975578586904714e-02
-2.967099999999999937e+01 1.493999999999999950e+01 1.045299999999999896e+00 2.827981999999999996e+00 -2.741579862618172964e-02
-2.967099999999999937e+01 1.633999999999999986e+01 1.045299999999999896e+00 1.920505999999999958e+01 -2.557137955658500550e-02
-2.967000000000000171e+01 4.405999999999999694e+00 9.246299999999999741e+00 2.908249000000000084e+00 1.006454153319666228e-01
-2.966900000000000048e+01 1.602400000000000091e+01 8.595700000000000784e+00 8.931129000000000318e+00 -1.372657843468500470e-02
-2.966900000000000048e+01 1.602400000000000091e+01 9.646300000000000097e+00 9.670127000000000805e+00 -1.215745844933664374e-02
-2.966900000000000048e+01 1.602400000000000091e+01 1.051200000000000045e+01 5.421224999999999739e+00 -1.093081249468702380e-02
-2.966499999999999915e+01 1.996600000000000108e+01 1.537300000000000111e+00 1.836436000000000135e+01 -2.046785883019183044e-02
-2.966100000000000136e+01 1.514899999999999913e+01 6.500000000000000000e+00 1.524527999999999928e+01 -1.813066173319926450e-02
-2.966100000000000136e+01 1.514899999999999913e+01 7.365199999999999747e+00 1.260899999999999999e+01 -1.670465976125164176e-02
-2.966100000000000136e+01 1.713299999999999912e+01 3.627299999999999969e-01 2.797801000000000204e+00 -2.559755223505965141e-02
-2.966000000000000014e+01 5.758099999999999774e+00 4.792500000000000426e+00 -3.890035999999999827e+00 9.986424694932687085e-02
-2.963800000000000168e+01 5.890399999999999636e+00 1.235999999999999943e+01 -8.098964999999999637e-02 -2.087524768686908200e-02
-2.963500000000000156e+01 1.449099999999999966e+01 1.206000000000000050e+01 4.492274000000000100e+00 -1.048830843992039005e-02
-2.962999999999999901e+01 1.855099999999999838e+01 -5.469699999999999562e-01 1.338276000000000021e+00 -2.517899109924205334e-02
-2.960600000000000165e+01 7.015399999999999636e+00 1.228400000000000070e+01 -4.420283000000000406e+00 -1.955568392834534930e-02
-2.957999999999999829e+01 5.405999999999999694e+00 1.208000000000000007e+01 -1.716239999999999988e-01 -2.187421268281968326e-02
-2.957900000000000063e+01 1.929700000000000060e+01 3.275100000000000122e+00 9.467197999999999780e+00 -1.848147099173785141e-02
-2.957600000000000051e+01 3.786399999999999988e+00 8.362399999999999167e+00 1.018548999999999971e+01 1.007292831746331857e-01
-2.957199999999999918e+01 1.272300000000000075e+01 1.560999999999999943e+00 -1.490504999999999969e+00 -2.964941417221870698e-02
-2.957000000000000028e+01 1.966199999999999903e+01 2.431299999999999795e+00 8.289115999999999929e+00 -1.940196676916646976e-02
-2.956899999999999906e+01 1.399099999999999966e+01 7.019300000000000539e-01 -1.666889000000000065e+00 -2.926306569477736888e-02
-2.952700000000000102e+01 3.524599999999999955e+00 7.394400000000000084e+00 1.263293999999999917e+00 1.007161818377948076e-01
-2.950900000000000034e+01 1.305199999999999960e+01 8.010000000000000453e-01 -3.863084999999999991e-01 -3.041992605326311952e-02
-2.950000000000000000e+01 2.999899999999999789e+00 1.464300000000000068e+01 3.832465000000000011e+00 -2.113933499951011624e-02
-2.947500000000000142e+01 1.196899999999999942e+01 3.860599999999999810e+00 5.572462999999999722e-01 -2.691470281299877115e-02
-2.946999999999999886e+01 3.881899999999999906e+00 6.556300000000000239e+00 1.365968000000000071e+00 1.005532588769493529e-01
-2.945400000000000063e+01 3.323399999999999910e+00 1.540099999999999980e+01 5.152860999999999692e+00 -1.980345949221542015e-02
-2.944099999999999895e+01 4.228600000000000136e+00 1.299600000000000044e+01 1.822043999999999997e+00 -2.194564263336434493e-02
-2.943599999999999994e+01 1.238299999999999912e+01 1.135599999999999987e+01 1.542014999999999958e+01 -1.379252645713223077e-02
-2.939900000000000091e+01 5.213099999999999845e+00 5.634299999999999642e+00 -3.658081999999999834e+00 1.001041027842009684e-01
-2.939000000000000057e+01 1.533699999999999974e+01 1.207199999999999918e+01 4.137737000000000442e+00 -9.279709574614720957e-03
-2.938400000000000034e+01 1.041399999999999970e+01 4.158599999999999852e+00 1.061040999999999901e+00 -2.858529418862094593e-02
-2.937699999999999889e+01 9.876200000000000756e+00 1.271899999999999942e+01 7.439289999999999736e+00 -1.506555646555468239e-02
-2.937500000000000000e+01 7.605000000000000426e+00 3.978099999999999969e+00 -1.217206999999999928e+00 9.923538014751276393e-02
-2.937300000000000111e+01 3.062500000000000000e+00 1.377800000000000047e+01 2.596225000000000005e+00 -2.220020708170294260e-02
-2.936700000000000088e+01 1.564000000000000057e+01 1.103599999999999914e+00 6.315087000000000117e+00 -2.646013782443125753e-02
-2.936299999999999955e+01 1.882700000000000173e+01 3.998400000000000176e+00 2.064472999999999914e+01 -1.774422396969311394e-02
-2.936199999999999832e+01 1.601699999999999946e+01 5.817400000000000126e+00 4.286243999999999943e+00 -1.804356712697938528e-02
-2.934600000000000009e+01 5.628300000000000303e+00 1.099099999999999966e+01 -3.059733000000000036e+00 -2.324265950166215511e-02
-2.933999999999999986e+01 1.774099999999999966e+01 -3.633299999999999863e-01 1.670919000000000043e+00 -2.595690710396981321e-02
-2.932999999999999829e+01 5.911500000000000199e+00 1.393200000000000038e+01 7.157161999999999580e+00 -1.854045387180952922e-02
-2.932700000000000173e+01 1.747599999999999909e+01 5.724000000000000199e+00 -1.835753000000000057e+01 -1.642113697041282933e-02
-2.931500000000000128e+01 8.673500000000000654e+00 4.108299999999999841e+00 1.440746000000000082e+00 9.893548630964715818e-02
-2.930499999999999972e+01 5.211299999999999599e+00 1.010999999999999943e+01 -1.142329999999999934e+01 -2.517560645500868666e-02
-2.929799999999999827e+01 2.596000000000000085e+00 1.599699999999999989e+01 1.114090000000000025e+01 -1.783038066758088347e-01
-2.928800000000000026e+01 1.870599999999999952e+01 4.900699999999999612e+00 -7.165879000000000332e+00 -1.636855061523817198e-02
-2.927400000000000091e+01 4.615700000000000358e+00 1.225200000000000067e+01 3.594298999999999911e+00 -2.254793714038813568e-02
-2.926599999999999824e+01 1.364100000000000001e+01 1.198900000000000077e+01 4.325295999999999808e+00 -1.118028236732511276e-02
-2.926599999999999824e+01 4.451999999999999957e+00 1.584299999999999997e+01 1.038433000000000028e+01 -1.787502695052689897e-02
-2.925900000000000034e+01 1.476399999999999935e+01 7.423899999999999944e-01 -6.069879000000000246e-01 -2.826518883201516869e-02
-2.924599999999999866e+01 1.968799999999999883e+01 -1.104000000000000092e+00 -3.378144999999999953e+00 -2.464178233926321571e-02
-2.924500000000000099e+01 2.587400000000000144e+00 1.540099999999999980e+01 8.058571999999999846e+00 -2.058950962702494475e-02
-2.924399999999999977e+01 1.647700000000000031e+01 1.100399999999999956e+01 6.314470000000000027e+00 -9.320794640679311988e-03
-2.922200000000000131e+01 5.827300000000000146e+00 1.492200000000000060e+01 6.009428999999999910e+00 -1.729891247541366986e-02
-2.920799999999999841e+01 1.240199999999999925e+01 3.160600000000000076e+00 1.099035999999999902e+00 -2.759333690984386994e-02
-2.920700000000000074e+01 2.091799999999999926e+01 -2.807100000000000151e-01 6.862476000000000020e+00 -2.204553946982925478e-02
-2.920700000000000074e+01 2.091799999999999926e+01 6.587100000000000177e-01 9.737336000000000524e+01 -2.065595089302896259e-02
-2.918799999999999883e+01 1.661700000000000088e+01 7.995700000000000029e-01 1.304978000000000016e+01 -2.566170859091432971e-02
-2.917800000000000082e+01 1.642099999999999937e+01 1.007900000000000063e+01 6.154513999999999818e+00 -1.060165566080703212e-02
-2.917500000000000071e+01 6.482899999999999885e+00 4.231099999999999639e+00 -1.554483999999999977e+00 9.958468997005724688e-02
-2.917299999999999827e+01 1.610800000000000054e+01 1.185399999999999920e+01 4.795175999999999661e+00 -8.494660197849399422e-03
-2.916000000000000014e+01 3.443299999999999805e+00 1.606400000000000006e+01 2.080868999999999858e+01 -1.773467840006610896e-01
-2.914300000000000068e+01 2.197299999999999809e+00 1.458600000000000030e+01 3.581094000000000221e+00 -2.205851107440994288e-02
-2.914300000000000068e+01 1.477699999999999925e+01 1.227800000000000047e+01 3.419947000000000070e+00 -9.340874964769107364e-03
-2.911299999999999955e+01 6.765900000000000247e+00 1.285100000000000087e+01 6.869005999999999723e-01 -1.887450285755138887e-02
-2.910900000000000176e+01 3.684699999999999864e+00 8.828300000000000480e+00 2.481015999999999888e+00 1.008238573498414919e-01
-2.910200000000000031e+01 2.052099999999999813e+00 1.523000000000000043e+01 3.621395999999999837e+00 -2.137741736729056527e-02
-2.909499999999999886e+01 1.558399999999999963e+01 6.517400000000000304e+00 -2.397130999999999901e+00 -1.725243444244691643e-02
-2.909499999999999886e+01 1.558399999999999963e+01 7.382600000000000051e+00 1.064591000000000065e+00 -1.577010507214207657e-02
-2.908699999999999974e+01 4.142599999999999838e+00 9.499299999999999855e+00 3.095775999999999861e+00 1.007664056444278894e-01
-2.907799999999999940e+01 1.352200000000000024e+01 2.680100000000000260e-01 -5.154541000000000261e-01 -3.083474658725848111e-02
-2.907199999999999918e+01 2.565700000000000092e+00 1.373600000000000065e+01 3.526095000000000201e+00 -2.279368527451856516e-02
-2.906700000000000017e+01 1.781099999999999905e+00 1.599699999999999989e+01 5.497059000000000140e+00 -1.792412090468640251e-01
-2.906200000000000117e+01 3.566100000000000048e+00 1.296400000000000041e+01 2.441711000000000187e+00 -2.273719543567670823e-02
-2.905900000000000105e+01 1.671699999999999875e+01 5.759100000000000108e+00 -1.175632000000000055e+01 -1.711173056560057540e-02
-2.904100000000000037e+01 9.599000000000000199e+00 4.124900000000000233e+00 9.383139999999999814e-01 9.864285831293692630e-02
-2.903900000000000148e+01 1.229199999999999982e+01 1.091299999999999937e+00 -8.565903000000000267e-01 9.757616982351383084e-02
-2.903900000000000148e+01 1.229199999999999982e+01 2.030699999999999950e+00 -1.123097999999999930e+00 -2.975223724577983481e-02
-2.902599999999999980e+01 1.071599999999999930e+01 1.224099999999999966e+01 1.927786000000000044e+01 -1.436707522028006154e-02
-2.902400000000000091e+01 2.014799999999999969e+01 1.933400000000000007e+00 1.081154000000000082e+01 -1.947154199522708323e-02
-2.902100000000000080e+01 4.955099999999999838e+00 1.053599999999999959e+01 -1.093406000000000100e+00 -2.482200673075492942e-02
-2.902100000000000080e+01 4.955099999999999838e+00 1.140099999999999980e+01 -1.256030999999999953e-01 -2.342521619326044108e-02
-2.900199999999999889e+01 2.116999999999999993e+00 1.677199999999999847e+01 3.716937000000000157e+00 -1.790367304255592873e-01
-2.900199999999999889e+01 3.075000000000000178e+00 1.677199999999999847e+01 1.956305000000000049e+01 -1.788017267677605715e-01
-2.899800000000000111e+01 1.823600000000000065e+01 5.660700000000000287e+00 -7.851726000000000205e+00 -1.544785399343158970e-02
-2.899500000000000099e+01 9.196999999999999176e+00 1.293999999999999950e+01 2.206500000000000128e+01 -1.540096616369735286e-02
-2.896600000000000108e+01 5.703999999999999737e+00 5.237700000000000244e+00 -3.743030000000000079e+00 9.992276841224592698e-02
-2.894999999999999929e+01 6.397899999999999920e+00 1.355100000000000016e+01 3.820307999999999815e+00 -1.828529008949641640e-02
-2.894500000000000028e+01 4.477999999999999758e+00 6.074699999999999989e+00 5.295885000000000176e+00 1.003665017347777910e-01
-2.894399999999999906e+01 2.001899999999999835e+01 2.891300000000000203e+00 1.992670999999999992e+01 -1.804096806414236948e-02
-2.891700000000000159e+01 1.892800000000000082e+01 -1.040699999999999958e+00 6.200773000000000534e-01 -2.551097247591214631e-02
-2.891700000000000159e+01 2.044800000000000040e+01 -1.040699999999999958e+00 -1.362724999999999964e+00 -2.366309338568060167e-02
-2.891600000000000037e+01 2.054700000000000060e+01 1.478799999999999892e+00 1.844675000000000153e+01 -1.971870872998286034e-02
-2.889999999999999858e+01 3.751500000000000057e+00 1.248300000000000054e+01 2.681194000000000077e+00 -2.322149946877178489e-02
-2.889999999999999858e+01 7.045899999999999608e+00 3.465899999999999981e+00 -6.938183999999999463e-01 9.931629523401577786e-02
-2.889699999999999847e+01 5.301999999999999602e+00 1.577200000000000024e+01 9.279002000000000194e+00 -1.674581261586608610e-02
-2.888599999999999923e+01 1.847599999999999909e+01 -8.036499999999999755e-01 9.805002999999999913e-01 -2.573970991176003503e-02
-2.888299999999999912e+01 1.159500000000000064e+01 3.728000000000000203e+00 8.012675999999999688e-01 -2.786594625986774793e-02
-2.887600000000000122e+01 1.645200000000000173e+01 9.029899999999999594e+00 8.586524000000000711e+00 -1.183962465081950417e-02
-2.887199999999999989e+01 1.621099999999999852e+01 8.241199999999999193e+00 4.594666000000000139e+00 -1.338879884925378225e-02
-2.885200000000000031e+01 -1.294200000000000017e+00 1.109800000000000075e+01 7.035244999999999749e+00 1.020326066931430270e-01
-2.884900000000000020e+01 8.130300000000000082e+00 3.567000000000000171e+00 1.250283999999999951e+00 9.899152636856163590e-02
-2.883500000000000085e+01 -7.860000000000000320e-01 1.059500000000000064e+01 9.562860000000000582e+00 1.019298361521686902e-01
-2.881899999999999906e+01 4.575199999999999712e+00 1.019899999999999984e+01 -3.342753000000000085e+00 -2.587491470632061891e-02
-2.881899999999999906e+01 2.905100000000000016e+00 1.288499999999999979e+01 5.569603999999999999e+00 -2.361849939802726159e-02
-2.881500000000000128e+01 1.714499999999999957e+01 1.182600000000000040e-01 8.744467999999999464e+00 -2.609294228904268653e-02
-2.880699999999999861e+01 3.204000000000000181e+00 7.825800000000000090e+00 9.250367000000000672e+00 1.008843873318292089e-01
-2.880600000000000094e+01 1.161500000000000021e+01 1.163199999999999967e+01 4.285938999999999766e+01 -1.387224273530956488e-02
-2.880600000000000094e+01 1.301500000000000057e+01 1.163199999999999967e+01 1.321668000000000021e+01 -1.200298209680764755e-02
-2.880000000000000071e+01 1.958200000000000074e+01 3.764200000000000212e+00 2.489712000000000103e+01 -1.700931971147592869e-02
-2.878699999999999903e+01 -1.550999999999999934e+00 1.187299999999999933e+01 2.798159000000000063e+01 1.021038434108433035e-01
-2.876999999999999957e+01 3.478600000000000136e+00 7.035499999999999865e+00 4.877907999999999689e+00 1.007444614240760733e-01
-2.874899999999999878e+01 1.276200000000000045e+01 3.312899999999999734e-01 -8.416633000000000031e-01 9.732972614712767645e-02
-2.874899999999999878e+01 1.428200000000000003e+01 3.312899999999999734e-01 -2.246375000000000011e+00 -2.982513627973814099e-02
-2.874800000000000111e+01 1.557199999999999918e+01 9.351599999999999913e-01 3.069509000000000043e+00 -2.697583327477252532e-02
-2.871699999999999875e+01 6.112599999999999978e-02 1.059500000000000064e+01 8.445012000000000185e+00 1.017868330645288477e-01
-2.871300000000000097e+01 7.649000000000000021e+00 1.286899999999999977e+01 4.366526000000000352e+00 -1.747186213031769880e-02
-2.871000000000000085e+01 8.391299999999999315e+00 1.297700000000000031e+01 1.136636000000000024e+01 -1.627612892753016807e-02
-2.870100000000000051e+01 7.079999999999999627e-01 1.083200000000000074e+01 6.506446999999999647e+00 1.016708299582553821e-01
-2.869200000000000017e+01 1.558300000000000018e+01 1.244999999999999929e+01 4.895369999999999777e+00 -7.679470499603257942e-03
-2.867599999999999838e+01 2.984700000000000131e+00 8.560999999999999943e+00 2.706180999999999948e+00 1.010120123394726149e-01
-2.866199999999999903e+01 1.628399999999999892e+01 6.250000000000000000e+00 -6.446679999999999744e+00 -1.656181730255321116e-02
-2.866199999999999903e+01 -7.242600000000000149e-01 1.190600000000000058e+01 9.676838000000000051e+00 1.019838196248488427e-01
-2.864799999999999969e+01 1.695799999999999841e+01 1.047899999999999920e+01 7.677080000000000126e+00 -8.844359950696328507e-03
-2.864799999999999969e+01 1.695799999999999841e+01 1.152899999999999991e+01 8.189408000000000243e+00 -7.395011834004745419e-03
-2.864399999999999835e+01 1.631400000000000006e+01 7.661200000000000010e+00 1.559096000000000093e-01 -1.404131951958828214e-02
-2.863899999999999935e+01 -1.983100000000000085e+00 1.129499999999999993e+01 2.816813999999999929e+00 1.021814612927946231e-01
-2.863200000000000145e+01 3.318900000000000183e+00 1.178299999999999947e+01 3.700203999999999827e+00 -2.482999601673288245e-02
-2.862699999999999889e+01 1.586600000000000010e+00 1.501900000000000013e+01 4.271053000000000210e+00 -2.210483655070677109e-02
-2.862600000000000122e+01 1.004700000000000060e+01 1.286899999999999977e+01 3.253502000000000294e+01 -1.405816247357469587e-02
-2.861799999999999855e+01 3.288100000000000023e+00 9.260999999999999233e+00 3.036364999999999981e+00 1.009960953690818009e-01
-2.861499999999999844e+01 1.202800000000000047e+01 3.028000000000000025e+00 9.034594999999999709e-01 -2.859601992946674345e-02
-2.860800000000000054e+01 3.911799999999999944e+00 1.657499999999999929e+01 4.294859999999999900e+01 -1.773918374802159748e-01
-2.860399999999999920e+01 1.598099999999999987e+01 6.950000000000000178e+00 -6.937755000000000116e+00 -1.567011743053469894e-02
-2.860399999999999920e+01 1.685699999999999932e+01 9.658899999999999153e+00 3.333749000000000073e+00 -1.011780791243437755e-02
-2.860200000000000031e+01 9.044900000000000162e+00 3.554300000000000015e+00 6.654480000000000395e-01 9.868549338075119359e-02
-2.858899999999999864e+01 4.255099999999999660e+00 1.166900000000000048e+01 1.922957000000000027e+00 -2.386856563255176228e-02
-2.858099999999999952e+01 -1.679699999999999971e+00 1.059500000000000064e+01 4.217604999999999826e+00 1.021221378871356861e-01
-2.857900000000000063e+01 1.089499999999999957e+01 3.786200000000000010e+00 1.741743000000000041e+00 -2.891481336225749585e-02
-2.856299999999999883e+01 2.596000000000000085e+00 1.731599999999999895e+01 1.449742999999999959e+01 -1.788979570465573654e-01
-2.856099999999999994e+01 1.885000000000000142e+01 5.285700000000000287e+00 -1.263156000000000034e+01 -1.509109316095029810e-02
-2.855799999999999983e+01 5.222299999999999720e+00 5.908400000000000318e+00 6.733354000000000283e+00 1.001422606503342000e-01
-2.855600000000000094e+01 -2.365899999999999892e+00 1.187299999999999933e+01 3.351840999999999848e+00 1.022641421046166232e-01
-2.854899999999999949e+01 1.211600000000000010e+00 1.001699999999999946e+01 4.183073000000000263e+00 1.015425046352621957e-01
-2.854700000000000060e+01 1.715700000000000003e+00 1.406099999999999994e+01 9.632447000000000870e+00 -2.326607631987698960e-02
-2.853900000000000148e+01 3.851700000000000124e+00 6.431899999999999729e+00 6.331538000000000110e+00 1.005977865497994228e-01
-2.853000000000000114e+01 4.558500000000000441e+00 1.096899999999999942e+01 -3.737262000000000084e-01 -2.463788230157309272e-02
-2.852799999999999869e+01 1.909400000000000119e+01 4.492899999999999672e+00 -1.148868999999999918e+00 -1.615938985294872177e-02
-2.852700000000000102e+01 2.398800000000000099e-01 1.170400000000000063e+01 7.800219000000000236e+00 1.018202113464510700e-01
-2.852299999999999969e+01 1.342000000000000082e+00 1.551800000000000068e+01 6.079594000000000165e+00 -1.790252441543435658e-01
-2.852299999999999969e+01 1.342000000000000082e+00 1.647599999999999909e+01 9.188416000000000139e+00 -1.785322903886145673e-01
-2.851000000000000156e+01 -1.311299999999999910e+00 9.744999999999999218e+00 1.337606999999999990e+00 1.020397249384937810e-01
-2.851000000000000156e+01 -2.606700000000000128e-01 9.744999999999999218e+00 2.262179000000000162e+00 1.018406785139982229e-01
-2.850499999999999901e+01 1.905100000000000016e+00 1.013199999999999967e+01 3.122929000000000066e+00 1.013995935104498453e-01
-2.850300000000000011e+01 1.231499999999999950e+01 1.157399999999999984e+01 1.812037000000000120e+01 -1.273134249333675826e-02
-2.850199999999999889e+01 1.473999999999999977e+00 9.528000000000000469e+00 2.631879000000000079e+00 1.014611230298424205e-01
-2.849099999999999966e+01 -2.029999999999999805e+00 1.264799999999999969e+01 1.467012000000000072e+01 1.022345071268302152e-01
-2.849099999999999966e+01 -1.072000000000000064e+00 1.264799999999999969e+01 1.316599000000000075e+01 1.020834422506554373e-01
-2.847899999999999920e+01 1.755799999999999983e+01 6.077099999999999724e+00 -1.185923000000000016e+01 -1.515285878428804592e-02
-2.844699999999999918e+01 1.601699999999999902e+00 1.083200000000000074e+01 5.474178000000000210e+00 1.015136798987787553e-01
-2.844699999999999918e+01 1.968799999999999883e+01 -1.330999999999999961e+00 -6.556789999999999841e-02 -2.503061717588246984e-02
-2.844699999999999918e+01 2.098100000000000165e+01 -6.101100000000000412e-01 -3.759085999999999927e+00 -2.237672873887881081e-02
-2.844699999999999918e+01 2.098100000000000165e+01 9.881100000000000438e-01 2.919492999999999938e+02 -1.988011389310383875e-02
-2.844699999999999918e+01 2.120799999999999841e+01 1.890000000000000013e-01 2.764047000000000054e+01 -2.088937804342691842e-02
-2.844200000000000017e+01 1.661700000000000088e+01 7.995700000000000029e-01 2.756602000000000174e+01 -2.577583034493715133e-02
-2.843599999999999994e+01 2.899500000000000188e+00 1.148499999999999943e+01 2.156652999999999931e+00 1.012617508853617537e-01
-2.842899999999999849e+01 6.255399999999999849e+00 1.448799999999999955e+01 5.961929999999999730e+00 -1.692010913431361147e-02
-2.842699999999999960e+01 5.830699999999999772e-01 9.583700000000000330e+00 2.031689000000000078e+00 1.016699526598849879e-01
-2.841100000000000136e+01 1.833800000000000097e+01 -7.042199999999999571e-01 1.380956000000000072e+00 -2.583983626171809656e-02
-2.839699999999999847e+01 2.436599999999999877e+00 9.394500000000000739e+00 1.911613999999999924e+00 1.012373330289388224e-01
-2.838700000000000045e+01 3.009999999999999787e+00 9.931900000000000617e+00 1.368563999999999892e+00 1.011367523048604389e-01
-2.838700000000000045e+01 3.875199999999999978e+00 9.931900000000000617e+00 1.905178000000000038e+00 1.009199185931146381e-01
-2.838700000000000045e+01 2.205099999999999838e+00 1.315300000000000047e+01 8.235946000000000211e+00 -2.402895707073061243e-02
-2.837600000000000122e+01 1.233300000000000063e+00 1.168200000000000038e+01 9.377463000000000548e+00 1.016414695701928633e-01
-2.837399999999999878e+01 2.504000000000000004e+00 8.093199999999999505e+00 8.102418999999999594e-01 1.011242949542164871e-01
-2.837199999999999989e+01 4.566900000000000404e+00 1.621300000000000097e+01 2.035557999999999979e+01 -1.688964445385367913e-02
-2.837199999999999989e+01 5.898100000000000342e+00 1.529100000000000037e+01 1.209919999999999973e+01 -1.629984579129360386e-02
-2.836799999999999855e+01 7.605000000000000426e+00 2.970899999999999874e+00 3.881530000000000258e-01 9.904468375462638363e-02
-2.832799999999999940e+01 4.178600000000000314e+00 1.063199999999999967e+01 2.277684999999999960e+00 -2.571013182856149437e-02
-2.832799999999999940e+01 1.942099999999999937e+00 8.655699999999999505e+00 4.254967999999999861e+00 1.013124085561089294e-01
-2.832799999999999940e+01 2.508500000000000174e+00 1.245299999999999940e+01 1.074046000000000056e+01 -2.475140201420783156e-02
-2.832400000000000162e+01 6.229700000000000237e+00 3.891700000000000159e+00 -4.484389999999999765e-01 9.959564499283285466e-02
-2.832300000000000040e+01 1.643299999999999983e+01 1.237899999999999956e+01 6.024562000000000417e+00 -6.379843910189109471e-03
-2.831299999999999883e+01 1.189100000000000001e+01 1.550899999999999945e+00 -1.270300999999999902e+00 9.757328221453283323e-02
-2.830999999999999872e+01 1.474200000000000088e+01 1.252500000000000036e+01 7.400147999999999726e+00 -8.033006917549330439e-03
-2.828999999999999915e+01 1.774099999999999966e+01 -3.633299999999999863e-01 3.046521999999999952e+00 -2.613682629515537426e-02
-2.827899999999999991e+01 1.222899999999999920e+01 7.618899999999999562e-01 -2.574143999999999988e+00 9.739584307627338622e-02
-2.827899999999999991e+01 1.352200000000000024e+01 4.100000000000000172e-02 -1.703492000000000062e-01 9.701095313477237081e-02
-2.827899999999999991e+01 1.487199999999999989e+01 6.677800000000000402e-01 -7.254643999999999870e+00 -2.860932287710707400e-02
-2.827499999999999858e+01 2.053100000000000147e+00 1.163799999999999990e+01 1.741328000000000031e+01 1.014770035276324062e-01
-2.827199999999999847e+01 7.115300000000000402e+00 1.331400000000000006e+01 1.385893000000000086e+01 -1.732942083494080909e-02
-2.827199999999999847e+01 8.515299999999999869e+00 1.331400000000000006e+01 8.607236999999999583e+00 -1.532060343239399249e-02
-2.823799999999999955e+01 2.337800000000000100e+00 1.083200000000000074e+01 7.142612999999999879e+00 1.013720989452393112e-01
-2.822700000000000031e+01 1.820999999999999952e+00 1.725100000000000122e+01 1.593074999999999974e+01 -1.779082682942913218e-01
-2.822700000000000031e+01 3.370999999999999996e+00 1.725100000000000122e+01 4.736270999999999987e+01 -1.790631306825170022e-01
-2.821600000000000108e+01 1.364100000000000001e+01 1.198900000000000077e+01 8.427391000000000076e+00 -1.002963694745371594e-02
-2.821099999999999852e+01 2.863999999999999879e+00 7.387999999999999901e+00 4.212499000000000215e+00 1.009847949282113994e-01
-2.820700000000000074e+01 9.464199999999999946e+00 3.195899999999999963e+00 1.077363000000000071e+00 9.846091381319548030e-02
-2.819300000000000139e+01 1.704299999999999926e+01 6.539900000000000269e+00 -3.849912999999999919e+00 -1.474228288061794900e-02
-2.818299999999999983e+01 1.046199999999999974e+01 3.295300000000000118e+00 4.722573999999999828e+00 9.816444473970017959e-02
-2.818299999999999983e+01 1.132799999999999940e+01 3.295300000000000118e+00 7.278791000000000011e+00 -2.936609885700721539e-02
-2.817699999999999960e+01 9.486700000000000133e-01 8.678000000000000824e+00 3.626749999999999918e+00 1.015677261871506809e-01
-2.816600000000000037e+01 1.067300000000000004e+01 1.251200000000000045e+01 2.020076999999999856e+01 -1.330938862789540246e-02
-2.813500000000000156e+01 -2.496599999999999930e-01 1.242800000000000082e+01 1.670996999999999844e+01 1.019862645718046384e-01
-2.813500000000000156e+01 6.155899999999999705e-01 1.242800000000000082e+01 1.303303999999999974e+01 1.018241274864289531e-01
-2.812500000000000000e+01 4.522300000000000431e+00 6.175699999999999967e+00 5.975354000000000276e+00 1.003939731212344644e-01
-2.812500000000000000e+01 5.713199999999999612e+00 5.511800000000000033e+00 6.861374999999999780e+00 9.994923559290548598e-02
-2.812500000000000000e+01 5.922299999999999898e+00 4.775699999999999612e+00 1.986603000000000119e-01 9.979465291816577710e-02
-2.811899999999999977e+01 3.442600000000000104e+00 1.063199999999999967e+01 5.883536000000000321e+00 1.011059817127674815e-01
-2.811899999999999977e+01 1.649800000000000111e+01 7.841199999999999726e+00 3.762602999999999920e+00 -1.303159309814141097e-02
-2.811899999999999977e+01 1.649800000000000111e+01 8.706500000000000128e+00 1.263895999999999908e+00 -1.153181503428172064e-02
-2.811400000000000077e+01 1.015700000000000047e+00 1.292800000000000082e+01 7.016594000000000442e+00 1.017652474734063450e-01
-2.810900000000000176e+01 1.665999999999999925e+00 1.238199999999999967e+01 1.407236999999999938e+01 1.016141401144405876e-01
-2.809400000000000119e+01 2.008999999999999986e+01 3.259700000000000042e+00 1.021615000000000038e+02 -1.692310893588800866e-02
-2.809400000000000119e+01 2.034400000000000119e+01 2.366000000000000103e+00 2.660459000000000174e+01 -1.818175999356650904e-02
-2.806500000000000128e+01 1.834100000000000108e+01 6.046999999999999709e+00 -1.011707000000000001e+01 -1.395359134151511263e-02
-2.806200000000000117e+01 1.671300000000000097e+01 7.391399999999999970e+00 1.155397000000000007e+00 -1.351050384685018556e-02
-2.805199999999999960e+01 -1.550999999999999934e+00 1.319200000000000017e+01 1.047735999999999912e+01 1.022314979895162790e-01
-2.805000000000000071e+01 8.435299999999999798e+00 2.913699999999999957e+00 7.394682999999999673e-01 9.873534266276128013e-02
-2.802899999999999991e+01 -7.860000000000000320e-01 9.148899999999999366e+00 3.406655000000000211e+00 1.019866276585161130e-01
-2.801200000000000045e+01 -2.805000000000000160e+00 1.139400000000000013e+01 2.104697999999999958e+00 1.024060340919136641e-01
-2.801200000000000045e+01 -2.805000000000000160e+00 1.235200000000000031e+01 2.473634999999999806e+00 1.024174485342568275e-01
-2.800499999999999901e+01 6.682599999999999874e+00 1.401399999999999935e+01 1.154603000000000002e+01 -1.676781072491473693e-02
-2.800000000000000000e+01 2.055900000000000105e+01 1.551299999999999901e+00 1.750687999999999889e+01 -1.928797755921428728e-02
-2.799899999999999878e+01 6.754999999999999893e+00 3.041700000000000070e+00 -2.372950000000000059e-01 9.930625280653122833e-02
-2.799899999999999878e+01 2.173999999999999932e+00 8.023600000000000065e+00 9.521676999999999502e-01 1.012414670547557433e-01
-2.798499999999999943e+01 -2.161300000000000221e+00 1.007000000000000028e+01 2.853186000000000000e+00 1.022794966069540401e-01
-2.797700000000000031e+01 1.892800000000000082e+01 -1.040699999999999958e+00 -1.164887999999999924e+00 -2.563255110110180743e-02
-2.797700000000000031e+01 2.044800000000000040e+01 -1.040699999999999958e+00 -1.159052999999999933e+01 -2.365018631336466767e-02
-2.796900000000000119e+01 7.815299999999999692e+00 1.325600000000000023e+01 8.633629000000000886e+00 -1.623101637377408549e-02
-2.796600000000000108e+01 1.122499999999999964e+01 1.211500000000000021e+01 2.607143999999999906e+01 -1.293446821910400855e-02
-2.791799999999999926e+01 1.609199999999999875e+01 1.103499999999999925e+00 2.951143000000000072e+01 -2.610993469167211672e-02
-2.791499999999999915e+01 3.342999999999999972e+00 6.613000000000000433e+00 4.691819999999999879e+00 1.008015698493564677e-01
-2.789199999999999946e+01 1.716700000000000159e+01 3.781100000000000017e-01 2.694994000000000156e+01 -2.578837263739249680e-02
