1.967800000000000082e+01 1.487899999999999956e+01 6.490000000000000213e-01 1.336945000000000050e+00 -1.299352488994222621e-01
1.969000000000000128e+01 2.712999999999999901e+01 -1.594500000000000028e+00 1.676372999999999891e+01 -1.670506874124900176e-01
1.970599999999999952e+01 8.929000000000000270e+00 -4.310699999999999754e+00 9.623423999999999978e+00 -1.595168382814464714e-01
1.971099999999999852e+01 1.746399999999999864e+01 3.849000000000000199e+00 -1.604412999999999911e+01 1.444083310856061619e-01
1.971099999999999852e+01 2.833200000000000074e+01 2.508000000000000007e+00 -4.240987999999999758e+00 -1.839048740003309534e-01
1.971099999999999852e+01 2.938200000000000145e+01 8.080000000000000515e-01 5.682997000000000298e+00 -1.838262174820823325e-01
1.971099999999999852e+01 2.938200000000000145e+01 2.508000000000000007e+00 8.293841999999999881e-02 -1.773319488465464333e-01
1.971499999999999986e+01 1.769999999999999929e+01 3.005900000000000016e+00 -7.783286000000000371e+00 1.509980742386382024e-01
1.972400000000000020e+01 2.582900000000000063e+01 1.246299999999999963e+00 1.327960999999999991e+01 -9.281977200485549973e-02
1.973600000000000065e+01 2.400799999999999912e+01 1.801199999999999912e+00 1.153632999999999909e+00 -8.761973405487624711e-02
1.973799999999999955e+01 9.864900000000000446e+00 -9.061400000000000787e+00 -2.117487999999999815e+00 6.269000036316400848e-02
1.974299999999999855e+01 2.001099999999999923e+01 -3.547699999999999854e+00 4.865298000000000123e+00 1.251810340077311179e-01
1.974699999999999989e+01 2.163100000000000023e+01 -1.987500000000000044e+00 -9.840365000000000251e+00 8.861640687262950164e-03
1.976099999999999923e+01 1.286599999999999966e+01 -1.076100000000000056e+00 8.597436000000000078e+00 -3.396635867009268894e-01
1.977100000000000080e+01 2.009100000000000108e+01 5.017800000000000260e+00 9.758266000000000773e+00 -3.084142458757579280e-02
1.977199999999999847e+01 2.021600000000000108e+01 -2.662999999999999812e+00 -6.576407999999999809e+00 -9.374513624040387016e-02
1.978200000000000003e+01 2.975100000000000122e+01 1.657999999999999918e+00 -9.111603000000000341e-01 -1.741634985729375584e-01
1.978300000000000125e+01 1.143599999999999994e+01 -4.094000000000000306e+00 2.250949999999999918e+01 -2.556780827813556756e-01
1.980499999999999972e+01 1.703699999999999903e+01 -1.106100000000000000e-01 -5.793962999999999752e+00 -1.240015552959563838e-01
1.980499999999999972e+01 1.822800000000000153e+01 5.533700000000000285e-01 1.201872999999999969e+00 -1.259299614973387049e-01
1.981099999999999994e+01 7.805500000000000327e+00 -5.222900000000000098e+00 9.720964999999999634e+00 -1.654060753241678727e-01
1.981899999999999906e+01 1.296799999999999997e+01 -2.103499999999999925e+00 5.378173999999999566e+00 -2.425842412452346719e-01
1.983099999999999952e+01 2.793900000000000006e+01 1.149400000000000005e-01 6.579590999999999745e+00 -1.924195149015432427e-01
1.983599999999999852e+01 1.316699999999999982e+01 -8.491199999999999193e+00 5.258045000000000080e-01 1.659885416292958271e-01
1.984100000000000108e+01 2.489300000000000068e+01 -2.776400000000000201e+00 3.142752000000000212e+00 3.544466002817960038e-02
1.984799999999999898e+01 1.261800000000000033e+01 -3.378400000000000070e+00 3.346679999999999922e+01 -2.491968558733683170e-01
1.984799999999999898e+01 1.282799999999999940e+01 -2.642399999999999860e+00 6.652576999999999963e+00 -2.452339346314559021e-01
1.986799999999999855e+01 7.434800000000000075e+00 -9.686999999999999389e+00 3.221768000000000143e+01 -1.810127186922268483e-01
1.988599999999999923e+01 2.634900000000000020e+01 1.215999999999999970e+00 8.552692000000000405e+00 -9.439284790528343350e-02
1.989199999999999946e+01 1.676300000000000168e+01 -5.016600000000000392e+00 1.052955000000000041e+01 3.051111248335056786e-02
1.989799999999999969e+01 2.797700000000000031e+01 1.710800000000000098e+00 4.529396000000000200e+00 -2.008537293499729759e-01
1.991300000000000026e+01 6.118999999999999773e+00 -1.042800000000000082e+01 1.165839000000000070e+01 -1.011243522474604417e-01
1.991900000000000048e+01 1.073099999999999987e+01 -9.051999999999999602e+00 -9.149829999999999686e+00 5.478859743867899035e-02
1.991900000000000048e+01 1.167099999999999937e+01 -9.051999999999999602e+00 -7.690055000000000085e+00 1.783756228712094494e-01
1.993199999999999861e+01 2.784900000000000020e+01 -5.318599999999999994e-01 9.171334999999999127e+00 -1.890704632139954267e-01
1.995299999999999940e+01 4.865000000000000213e+00 -9.587999999999999190e+00 9.706500000000000128e+00 -1.003455789454692909e-01
1.995299999999999940e+01 4.865000000000000213e+00 -8.630000000000000782e+00 2.037011000000000038e+01 -9.999469324835988382e-02
1.995700000000000074e+01 2.223100000000000165e+01 4.113299999999999734e+00 1.007648999999999972e+01 -1.074145197707297716e-02
1.996199999999999974e+01 7.252200000000000202e+00 -6.008799999999999919e+00 1.643530000000000157e+01 -1.703465193863509530e-01
1.997500000000000142e+01 5.992899999999999672e+00 -6.766799999999999926e+00 7.412697999999999787e+00 -1.739125458544745761e-01
1.998699999999999832e+01 2.090899999999999892e+01 5.149799999999999933e+00 5.987300000000000288e+00 -3.083018023340282007e-02
1.998699999999999832e+01 1.855000000000000071e+01 4.638200000000000323e+00 -9.226544999999999774e+00 1.450889618899931233e-01
1.999899999999999878e+01 1.842500000000000071e+01 1.653499999999999970e+00 2.824590999999999852e+00 -1.306374483154024435e-01
2.003099999999999881e+01 8.982300000000000395e+00 -9.087099999999999511e+00 8.832554000000000016e+00 -1.799444693617596180e-01
2.003600000000000136e+01 2.885699999999999932e+01 1.657999999999999918e+00 1.828729999999999967e+00 -2.024630809130723019e-01
2.006099999999999994e+01 2.580099999999999838e+01 -2.429300000000000015e+00 1.853976000000000068e+00 -1.672616773348723773e-01
2.006599999999999895e+01 1.612199999999999989e+01 -5.738500000000000156e+00 9.773794000000000537e+00 3.065903806390979369e-02
2.006800000000000139e+01 2.267299999999999827e+01 3.254000000000000004e+00 8.655423000000000755e+00 3.186025276962694414e-03
2.009299999999999997e+01 2.761700000000000088e+01 8.431199999999999806e-01 3.099047999999999803e+00 -7.398454257776414245e-02
2.009799999999999898e+01 1.393500000000000050e+01 -8.425000000000000711e+00 4.212240999999999902e-01 1.581144262451490978e-01
2.009799999999999898e+01 1.522799999999999976e+01 -7.704100000000000392e+00 -1.598944999999999972e+01 2.505615914511193920e-01
2.010399999999999920e+01 2.352599999999999980e+01 2.458600000000000119e+00 2.812488000000000099e+00 -1.797706731025677240e-01
2.010399999999999920e+01 1.829799999999999827e+01 -4.046999999999999709e+00 -1.410355999999999943e+00 -1.040655513085064071e-01
2.010399999999999920e+01 2.471600000000000108e+01 1.643000000000000016e+00 8.792135000000000034e+00 -8.929081936082969295e-02
2.010900000000000176e+01 2.378500000000000014e+01 -2.497399999999999842e+00 3.455583999999999878e-01 2.094755123904944519e-02
2.013400000000000034e+01 1.821199999999999974e+01 2.575499999999999901e+00 -6.083451000000000136e-02 1.624582659496703885e-01
2.014000000000000057e+01 1.246700000000000053e+01 -8.549500000000000099e+00 -8.686149000000000342e+00 1.750406622536333501e-01
2.015399999999999991e+01 2.255600000000000094e+01 -2.243399999999999839e+00 -8.116683000000000092e+00 1.071555467617963178e-02
2.015399999999999991e+01 1.579100000000000037e+01 4.654200000000000004e-01 -2.600556000000000090e+00 -1.283445386081458750e-01
2.016600000000000037e+01 8.302699999999999747e+00 -4.667900000000000382e+00 8.445465999999999696e+00 -1.624300860147281644e-01
2.020499999999999829e+01 2.070700000000000074e+01 -2.266399999999999970e+00 -1.017188999999999943e+01 -8.980813223834249737e-02
2.023100000000000165e+01 9.778999999999999915e+00 -3.986000000000000210e+00 9.249186999999999159e+00 -2.602373377579664804e-01
2.023100000000000165e+01 1.804100000000000037e+01 3.552000000000000046e+00 -6.310484999999999900e+00 1.592894732492258214e-01
2.023400000000000176e+01 1.397899999999999920e+01 3.052300000000000013e-01 -1.032243000000000022e+00 -1.365611226638628051e-01
2.023699999999999832e+01 1.812900000000000134e+01 4.175300000000000011e+00 -2.170103999999999900e+01 1.546698241710993682e-01
2.023699999999999832e+01 1.633699999999999974e+01 1.567699999999999927e-01 -4.366658000000000150e+00 -1.260193827508324094e-01
2.023699999999999832e+01 1.773699999999999832e+01 1.567699999999999927e-01 -2.962148000000000003e-01 -1.247407609181152566e-01
2.024699999999999989e+01 1.932000000000000028e+01 4.723399999999999821e+00 -8.472459999999999880e+00 1.208502653331608584e-01
2.024899999999999878e+01 5.344000000000000306e+00 -1.036299999999999955e+01 4.139311000000000185e+00 -1.009716412261346674e-01
2.024899999999999878e+01 6.894000000000000128e+00 -1.036299999999999955e+01 1.245639000000000074e+01 -1.829935398804223845e-01
2.025400000000000134e+01 5.238900000000000112e+00 -7.798399999999999999e+00 1.196546999999999983e+01 -1.000290470273602211e-01
2.028900000000000148e+01 2.439799999999999969e+01 -2.253899999999999793e+00 4.381516999999999662e+00 2.764265532893625532e-02
2.029500000000000171e+01 7.928399999999999892e+00 -9.527300000000000324e+00 2.859427000000000163e+01 -1.823766419124181193e-01
2.031500000000000128e+01 1.029899999999999949e+01 -8.561099999999999710e+00 -7.944995999999999725e+00 -1.870186831274890937e-01
2.032199999999999918e+01 2.754200000000000159e+01 -1.048300000000000010e+00 2.180330000000000013e+01 -1.885561085952673355e-01
2.032199999999999918e+01 2.754200000000000159e+01 -3.176800000000000179e-01 8.871696999999999278e+00 -1.951900968616739895e-01
2.032700000000000173e+01 1.212800000000000011e+01 -3.774999999999999911e+00 6.391140999999999650e+01 -2.525737704688172380e-01
2.033299999999999841e+01 1.568900000000000006e+01 -6.438500000000000334e+00 -1.066599000000000075e+01 2.839473764064456840e-02
2.039499999999999957e+01 6.761300000000000310e+00 -6.405400000000000205e+00 1.611967999999999890e+01 -1.740283486555239956e-01
2.041400000000000148e+01 1.995700000000000074e+01 -3.392999999999999794e+00 -1.096226000000000056e+01 1.270809620787075045e-01
2.042099999999999937e+01 5.433600000000000207e+00 -7.257500000000000284e+00 8.682990999999999460e+00 -9.993583072968793835e-02
2.043700000000000117e+01 1.120100000000000051e+01 -8.636200000000000543e+00 -1.444801000000000002e+00 5.435231726687561604e-02
2.044999999999999929e+01 2.656400000000000006e+01 1.014999999999999902e+00 -5.274767000000000206e-01 -7.247188895177505974e-02
2.048000000000000043e+01 2.308399999999999963e+01 -2.444999999999999840e+00 -1.907149999999999901e+00 1.164790760811570611e-02
2.048300000000000054e+01 2.163100000000000023e+01 -2.196600000000000108e+00 -1.430676000000000059e+01 1.273863388562059273e-01
2.049599999999999866e+01 1.958099999999999952e+01 -4.240199999999999747e+00 -1.873309999999999975e-01 1.269548684691025331e-01
2.049699999999999989e+01 2.147500000000000142e+01 4.588799999999999990e+00 9.247973999999999917e-01 -5.854178638402151268e-03
2.050499999999999901e+01 1.817000000000000171e+01 8.567700000000000315e-01 3.348993999999999804e+00 -1.278299688579047633e-01
2.050700000000000145e+01 2.107300000000000040e+01 4.959500000000000242e+00 -1.057120999999999977e+00 -1.296694240837148113e-02
2.053600000000000136e+01 2.401599999999999824e+01 2.061999999999999833e+00 8.326635000000000009e-01 -8.691422469591386646e-02
2.053699999999999903e+01 1.759799999999999898e+01 -4.314400000000000013e+00 7.955827000000000204e+00 -9.485681860390332565e-02
2.053699999999999903e+01 1.899800000000000111e+01 -4.314400000000000013e+00 6.106679000000000412e-01 1.409978708717705975e-01
2.054100000000000037e+01 1.703699999999999903e+01 9.848099999999999909e-02 -1.428369000000000000e+00 -1.252079826999915324e-01
2.055199999999999960e+01 2.662600000000000122e+01 -1.912700000000000067e+00 -8.857528000000000068e-01 -7.268932475491425571e-02
2.055999999999999872e+01 1.211800000000000033e+01 -8.342100000000000293e+00 7.657036000000000397e-01 -5.067443177896452378e-02
2.056800000000000139e+01 1.469500000000000028e+01 -8.134700000000000486e+00 -1.014855000000000018e+01 2.491735532817428711e-01
2.057199999999999918e+01 1.316699999999999982e+01 -8.282099999999999795e+00 1.251125999999999960e+00 1.711876422502704997e-01
2.057799999999999940e+01 1.342300000000000004e+01 -2.572499999999999787e+00 1.073244000000000042e+01 -2.426328556717118334e-01
2.057799999999999940e+01 1.342300000000000004e+01 -1.707200000000000051e+00 4.424674999999999692e+00 -2.384522893306049163e-01
2.057799999999999940e+01 1.342300000000000004e+01 -5.947700000000000209e-01 3.215800999999999910e+00 -3.391985788902186494e-01
2.058299999999999841e+01 2.549200000000000088e+01 1.498399999999999954e+00 5.522605000000000430e+00 -7.069616949765736291e-02
2.058399999999999963e+01 2.722100000000000009e+01 4.104900000000000215e-01 -1.675347000000000008e+01 -7.460346004466245073e-02
2.059199999999999875e+01 1.682100000000000151e+01 -5.320000000000000284e+00 2.512565000000000026e+01 -8.987827002395461229e-02
2.059299999999999997e+01 1.481300000000000061e+01 5.020599999999999508e-01 8.049602999999999620e-01 -1.301010003675825977e-01
2.060500000000000043e+01 7.897999999999999687e+00 -4.933699999999999974e+00 7.175309999999999633e+00 -1.652774861352826474e-01
2.061899999999999977e+01 9.598699999999999122e+00 -8.619400000000000617e+00 1.912321000000000026e+01 6.875837818355093334e-02
2.064699999999999847e+01 2.322400000000000020e+01 2.755799999999999805e+00 5.000229000000000035e+00 -1.746503268129954989e-01
2.065899999999999892e+01 2.036100000000000065e+01 -2.981399999999999828e+00 -1.003369000000000000e+01 1.267278900166161626e-01
2.066000000000000014e+01 1.068599999999999994e+01 -8.352999999999999758e+00 3.668430999999999997e+00 6.041044141892905339e-02
2.066000000000000014e+01 1.155199999999999960e+01 -8.352999999999999758e+00 -1.444801000000000002e+00 5.308293558080867669e-02
2.069200000000000017e+01 2.221999999999999886e+01 3.693200000000000038e+00 9.266387999999999847e-01 1.203316600338530384e-02
2.071900000000000119e+01 2.368599999999999994e+01 -2.265699999999999825e+00 -3.542346999999999912e+00 1.674134416992528046e-02
2.071900000000000119e+01 2.508599999999999852e+01 -2.265699999999999825e+00 -3.842845999999999762e-01 3.330354607482890333e-02
2.072299999999999898e+01 2.023199999999999932e+01 4.907000000000000028e+00 -4.060726999999999975e+00 -4.616444564505666100e-03
2.072800000000000153e+01 4.568999999999999950e+00 -9.108999999999999986e+00 6.493936999999999848e+00 -1.005376482567979651e-01
2.072800000000000153e+01 4.800500000000000433e+00 -9.923899999999999721e+00 8.865256999999999721e+00 -1.009213792928097958e-01
2.072800000000000153e+01 4.800500000000000433e+00 -8.294100000000000250e+00 8.271471999999999980e+01 -1.003522123178196973e-01
2.072800000000000153e+01 6.118999999999999773e+00 -1.065900000000000070e+01 4.437810999999999950e+00 -1.017336977033796164e-01
2.072800000000000153e+01 7.437500000000000000e+00 -9.923899999999999721e+00 3.305002999999999957e+01 -1.847033539977999406e-01
2.075600000000000023e+01 8.929000000000000270e+00 -4.310699999999999754e+00 1.210890000000000022e+01 -1.605304077208816738e-01
2.078200000000000003e+01 6.017000000000000348e+00 -6.571699999999999875e+00 1.129585999999999935e+01 -1.763451715001586872e-01
2.078699999999999903e+01 1.058900000000000041e+01 -4.170200000000000351e+00 2.991450000000000031e+01 -2.605741792403026280e-01
2.080399999999999849e+01 1.716499999999999915e+01 -5.014400000000000190e+00 2.834842000000000084e+01 -9.340957162700587457e-02
2.080399999999999849e+01 2.177899999999999991e+01 4.194499999999999673e+00 -2.475023000000000195e+00 8.637791541224834613e-03
2.082999999999999829e+01 1.864499999999999957e+01 4.128599999999999604e+00 -5.908807000000000365e+00 1.718936412053848062e-01
2.083399999999999963e+01 1.815399999999999991e+01 1.406900000000000039e+00 9.406402000000000374e-01 -1.313033867947847877e-01
2.083999999999999986e+01 1.829799999999999827e+01 -4.256099999999999994e+00 1.455932000000000004e+00 -1.081291592818604680e-01
2.084499999999999886e+01 1.299000000000000021e+01 -3.272499999999999964e+00 3.869283999999999679e+01 -2.471012217341495842e-01
2.085699999999999932e+01 1.526299999999999990e+01 -7.435900000000000176e+00 -1.729354000000000013e+01 2.513407320564378655e-01
2.086199999999999832e+01 2.580099999999999838e+01 -2.324699999999999989e+00 -7.624891999999999781e-01 4.188367009332728819e-02
2.086400000000000077e+01 1.832100000000000151e+01 3.194199999999999928e+00 -3.206179999999999808e+00 1.770698662981766147e-01
2.087099999999999866e+01 1.143599999999999994e+01 -4.094000000000000306e+00 3.599490999999999730e+01 -2.573363646392387016e-01
2.088299999999999912e+01 1.812600000000000122e+01 2.327700000000000102e+00 -1.259115999999999902e+00 -1.367834574843370121e-01
2.088800000000000168e+01 1.634199999999999875e+01 -6.094999999999999751e+00 3.394391999999999854e+00 2.804406185853149797e-02
2.090899999999999892e+01 2.589900000000000091e+01 1.017400000000000082e+00 1.601779000000000153e+01 -7.155974709157415792e-02
2.091300000000000026e+01 2.086599999999999966e+01 -2.712400000000000144e+00 -9.435067000000000093e+00 1.255032186435482700e-01
2.091400000000000148e+01 1.396400000000000041e+01 -8.302599999999999980e+00 6.907933000000000545e-01 1.620616875859506589e-01
2.093400000000000105e+01 1.572000000000000064e+01 7.014700000000000379e-01 -1.743568999999999924e+00 -1.313244597807822767e-01
2.093700000000000117e+01 1.660500000000000043e+01 5.893899999999999695e-01 8.471862999999999477e-01 -1.293208380422121717e-01
2.093700000000000117e+01 1.746999999999999886e+01 5.893899999999999695e-01 5.475099000000000160e+00 -1.280299359164444595e-01
2.094800000000000040e+01 2.232499999999999929e+01 -2.619000000000000217e+00 -5.669512000000000107e+00 1.259741260408294983e-01
2.101599999999999824e+01 2.479200000000000159e+01 1.765800000000000036e+00 -7.741346000000000060e+00 -6.962304073451450193e-02
2.102199999999999847e+01 2.715899999999999892e+01 -1.482099999999999973e+00 -6.397236000000000367e+00 -1.890410329282077861e-01
2.102199999999999847e+01 2.738599999999999923e+01 -6.830000000000000515e-01 -9.261798999999999893e+00 -1.996141996541255237e-01
2.105699999999999861e+01 1.111899999999999977e+01 -7.862099999999999866e+00 1.105303999999999931e+01 -1.821875085895940660e-01
2.106800000000000139e+01 8.990999999999999659e+00 -8.941300000000000026e+00 1.499868000000000023e+01 7.407962939228276977e-02
2.111400000000000077e+01 2.001500000000000057e+01 -3.696400000000000130e+00 -6.911360000000000170e+00 1.276504162950726495e-01
2.112500000000000000e+01 2.271099999999999852e+01 3.296600000000000197e+00 2.566377000000000130e+00 -1.637653041272896792e-01
2.112500000000000000e+01 9.778999999999999915e+00 -4.239899999999999558e+00 1.546798000000000073e+01 -2.646890273165704022e-01
2.112999999999999901e+01 7.301899999999999835e+00 -5.415300000000000225e+00 9.287395999999999319e+00 -1.707377683995209006e-01
2.116100000000000136e+01 7.928399999999999892e+00 -9.527300000000000324e+00 2.011630999999999858e+01 -1.862794172243407986e-01
2.116400000000000148e+01 1.372700000000000031e+01 -2.531299999999999883e+00 1.348994000000000071e+01 -2.406090814589696980e-01
2.116400000000000148e+01 1.964799999999999969e+01 -4.494200000000000195e+00 -3.624299999999999855e+00 1.276233529002737399e-01
2.117399999999999949e+01 1.865299999999999869e+01 -4.519099999999999895e+00 -1.802076999999999929e+00 -1.198922291621979108e-01
2.118100000000000094e+01 1.018800000000000061e+01 -7.892299999999999649e+00 1.620107000000000141e+01 -1.894104594758354021e-01
2.118400000000000105e+01 1.292399999999999949e+01 -8.132999999999999119e+00 2.121248000000000022e+00 1.757743318184536441e-01
2.118599999999999994e+01 2.537300000000000111e+01 1.469899999999999984e+00 5.002271999999999830e-01 -7.010321145280830335e-02
2.119999999999999929e+01 1.419999999999999929e+01 -2.356699999999999906e-01 1.207460999999999951e-01 -1.362066882279511504e-01
2.120700000000000074e+01 5.344000000000000306e+00 -1.036299999999999955e+01 9.650411000000000072e+00 -1.016818137601757099e-01
2.120700000000000074e+01 6.894000000000000128e+00 -1.036299999999999955e+01 2.316736999999999824e+01 -1.868809579640693108e-01
2.120799999999999841e+01 1.214899999999999913e+01 -4.056400000000000006e+00 7.907697000000000287e+01 -2.548444129742084563e-01
2.120899999999999963e+01 1.393299999999999983e+01 -1.151000000000000023e+00 2.420726000000000155e+00 -1.115304020704427079e-01
2.121600000000000108e+01 2.156599999999999895e+01 -2.654100000000000126e+00 -7.390513000000000332e+00 1.225397863441694268e-01
2.122200000000000131e+01 1.583200000000000074e+01 -6.917200000000000237e+00 2.170075999999999894e+00 2.534458318607957228e-01
2.123699999999999832e+01 1.786499999999999844e+01 -4.746999999999999886e+00 4.708155999999999786e+00 -1.053233414981475935e-01
2.124099999999999966e+01 8.747999999999999332e+00 -4.517900000000000027e+00 8.558400999999999925e+00 -1.630923414487377987e-01
2.126599999999999824e+01 1.734600000000000009e+01 1.057900000000000063e+00 3.725086000000000119e+00 -1.321767536340173188e-01
2.127700000000000102e+01 2.308500000000000085e+01 -2.555699999999999861e+00 -4.515080000000000204e+00 1.309699419956015798e-01
2.127799999999999869e+01 2.437500000000000000e+01 -1.951799999999999979e+00 -3.519623999999999864e+00 2.208527927894767331e-02
2.127899999999999991e+01 1.933200000000000074e+01 4.563200000000000145e+00 -3.304162999999999961e-01 1.821999443350820203e-01
2.127899999999999991e+01 2.113200000000000145e+01 4.563200000000000145e+00 -2.455185000000000173e+00 1.665785774210861575e-02
2.128399999999999892e+01 2.716199999999999903e+01 1.070900000000000046e-01 -3.062300000000000111e+01 -7.501271551771457324e-02
2.129799999999999827e+01 1.631700000000000017e+01 1.125099999999999989e+00 2.295439000000000007e+00 -1.350656253707151477e-01
2.130699999999999861e+01 5.420899999999999608e+00 -7.053300000000000125e+00 1.270140999999999920e+01 -1.005593228761826330e-01
2.131299999999999883e+01 1.695899999999999963e+01 -5.721700000000000230e+00 2.326184999999999903e+01 -9.534206758847038610e-02
2.132499999999999929e+01 1.775700000000000145e+01 1.839499999999999913e+00 1.094030000000000058e+00 -1.366881666610730017e-01
2.132799999999999940e+01 1.196799999999999997e+01 -8.026699999999999946e+00 8.844502999999999560e+00 -4.786961914028027565e-02
2.133999999999999986e+01 1.475399999999999956e+01 -7.885299999999999976e+00 -4.132615999999999623e+00 2.498018536079415486e-01
2.136400000000000077e+01 5.063600000000000101e+00 -7.855900000000000105e+00 2.309072000000000102e+01 -1.008909004794484865e-01
2.141400000000000148e+01 2.818100000000000094e+01 -5.094000000000000306e+00 3.403519000000000183e+00 -1.493580888993210620e-01
2.142899999999999849e+01 9.574400000000000688e+00 -8.255499999999999616e+00 2.679200000000000159e+01 7.244790639601614290e-02
2.143100000000000094e+01 1.329400000000000048e+01 -3.231300000000000061e+00 3.617763999999999669e+01 -2.453013559943709176e-01
2.144300000000000139e+01 2.448699999999999832e+01 2.031299999999999883e+00 -3.154300999999999799e+00 -6.877890927946800348e-02
2.145499999999999829e+01 8.246700000000000585e+00 -9.107599999999999696e+00 1.805906999999999840e+01 8.068862288533709681e-02
2.146600000000000108e+01 1.105899999999999928e+01 -4.722400000000000375e+00 1.046654999999999980e+01 -2.644965660950868713e-01
2.147899999999999920e+01 2.566799999999999926e+01 -2.531099999999999905e+00 -3.103702999999999879e+00 3.482980762330620955e-02
2.149200000000000088e+01 2.662600000000000122e+01 5.467100000000000293e-01 -2.315429999999999922e+01 -7.280213067472687816e-02
2.150300000000000011e+01 4.865000000000000213e+00 -9.587999999999999190e+00 2.098261000000000109e+01 -1.015200360121391032e-01
2.150300000000000011e+01 4.865000000000000213e+00 -8.630000000000000782e+00 5.449647000000000219e+01 -1.012491344575905394e-01
2.150300000000000011e+01 6.773699999999999832e+00 -6.096599999999999575e+00 2.449947999999999837e+01 -1.775216977783087291e-01
2.151200000000000045e+01 2.345499999999999829e+01 3.130300000000000082e+00 5.655516999999999683e+01 -1.706454829595348832e-01
2.153500000000000014e+01 2.557400000000000162e+01 1.153100000000000014e+00 -2.693156999999999801e+00 -7.041121207918996094e-02
2.154299999999999926e+01 6.118999999999999773e+00 -1.042800000000000082e+01 3.885307000000000244e+01 -1.024228048441548494e-01
2.154700000000000060e+01 2.071499999999999986e+01 -3.428999999999999826e+00 -1.142422999999999966e+01 1.252995979232389701e-01
2.155000000000000071e+01 7.449200000000000266e+00 -9.710300000000000153e+00 2.948207000000000022e+01 -1.885030686455924087e-01
2.156299999999999883e+01 1.465199999999999925e+01 1.609700000000000020e-01 1.682530999999999999e+00 -1.287741649436055513e-01
2.156500000000000128e+01 2.699599999999999866e+01 -1.920099999999999918e+00 -7.837903000000000509e-01 -7.316443584040370485e-02
2.156700000000000017e+01 1.693900000000000006e+01 1.820899999999999963e+00 2.105484000000000133e+00 -1.407646657229013054e-01
2.157799999999999940e+01 1.062100000000000044e+01 -7.401399999999999757e+00 1.535119000000000078e+01 -1.860733983195793362e-01
2.158099999999999952e+01 1.172400000000000020e+01 -4.673000000000000043e+00 7.738771999999999984e+00 -2.614727161137893052e-01
2.160399999999999920e+01 2.190500000000000114e+01 3.722399999999999931e+00 -5.333588000000000218e-01 -1.537526816010143516e-01
2.160600000000000165e+01 1.030400000000000027e+01 -4.836000000000000298e+00 9.439000000000000057e+00 -2.690355386276954697e-01
2.161299999999999955e+01 2.113299999999999912e+01 -3.145000000000000018e+00 -5.403438000000000407e+00 1.239063762225836723e-01
2.162300000000000111e+01 1.877599999999999980e+01 3.663199999999999790e+00 -7.697256999999999572e-01 1.072680447835289846e-01
2.162999999999999901e+01 1.766300000000000026e+01 -5.046400000000000219e+00 1.135668000000000077e+01 -1.042325597322846936e-01
2.164499999999999957e+01 2.736599999999999966e+01 -5.094000000000000306e+00 2.926748999999999867e+01 5.278369695967001507e-02
2.164499999999999957e+01 2.899599999999999866e+01 -5.094000000000000306e+00 7.442004999999999981e+00 -2.988556845205496068e-02
2.165500000000000114e+01 7.897999999999999687e+00 -4.933699999999999974e+00 8.142927999999999500e+00 -1.684617534367073288e-01
2.166499999999999915e+01 1.912199999999999989e+01 -4.953000000000000291e+00 -2.525650999999999868e+00 1.322244418646787434e-01
2.166700000000000159e+01 1.633299999999999841e+01 -6.611600000000000144e+00 5.863675999999999888e+00 1.420321574967189082e-01
2.166900000000000048e+01 2.023199999999999932e+01 4.638200000000000323e+00 -1.917300999999999922e+00 1.618222341809944509e-01
2.167399999999999949e+01 1.286200000000000010e+01 -3.809600000000000097e+00 2.085483999999999938e+01 -2.504962383404877868e-01
2.169999999999999929e+01 1.432900000000000063e+01 -1.583599999999999897e+00 2.129049999999999887e+00 -1.102422191130189022e-01
2.170400000000000063e+01 2.035200000000000031e+01 -4.129699999999999704e+00 -2.285429999999999851e+01 1.254498334871415877e-01
2.170700000000000074e+01 1.588499999999999979e+01 1.792999999999999927e+00 2.635896999999999935e+00 -1.445258957704046443e-01
2.171000000000000085e+01 2.770200000000000173e+01 -5.868999999999999773e+00 8.669093999999999411e+00 3.635847163092374018e-02
2.171000000000000085e+01 2.770200000000000173e+01 -4.318999999999999950e+00 1.571833999999999953e+01 -1.586957433879863377e-01
2.171000000000000085e+01 2.866000000000000014e+01 -5.868999999999999773e+00 8.607165000000000177e+00 -6.626364832088275925e-02
2.171000000000000085e+01 2.866000000000000014e+01 -4.318999999999999950e+00 8.923546999999999230e+00 -1.519577438236913158e-01
2.171099999999999852e+01 2.367500000000000071e+01 -2.219199999999999839e+00 -9.523742999999999626e+00 1.378218679292573523e-01
2.171099999999999852e+01 2.507499999999999929e+01 -2.219199999999999839e+00 -6.882710999999999579e+00 1.550365334249102500e-01
2.172599999999999909e+01 1.524600000000000044e+01 1.202099999999999946e+00 2.466616000000000142e+00 -1.394402719372959953e-01
2.173300000000000054e+01 9.457499999999999574e+00 -4.788100000000000023e+00 1.156182000000000087e+01 -1.664244173874642463e-01
2.173900000000000077e+01 1.462299999999999933e+01 -7.519700000000000273e-01 -1.979239000000000137e-01 -1.208719195387510242e-01
2.174500000000000099e+01 1.196599999999999930e+01 -6.416000000000000369e+00 7.986629999999999896e+00 -3.398680642834025351e-02
2.174699999999999989e+01 2.232499999999999929e+01 -2.846000000000000085e+00 -1.414060000000000095e+00 1.188095386871507175e-01
2.176500000000000057e+01 1.139700000000000024e+01 -5.448000000000000398e+00 1.790764000000000022e+00 -2.683983945368938473e-01
2.177299999999999969e+01 1.524499999999999922e+01 -7.488699999999999690e+00 1.107450999999999963e+00 2.513332304682163731e-01
2.177799999999999869e+01 2.615099999999999980e+01 -2.891000000000000014e+00 5.394814000000000220e+00 3.801077142480887433e-02
2.178200000000000003e+01 2.709600000000000009e+01 -1.152700000000000058e+00 -2.128845000000000098e+01 -7.725740801441183248e-02
2.178200000000000003e+01 2.709600000000000009e+01 -2.132900000000000074e-01 -3.680143000000000342e+01 -7.531498711335714302e-02
2.178699999999999903e+01 1.842599999999999838e+01 2.901100000000000012e+00 -4.685767000000000126e-01 1.022412715317981141e-01
2.182199999999999918e+01 1.144899999999999984e+01 -7.146399999999999864e+00 3.813450000000000273e+01 -4.162654638906766735e-02
2.183200000000000074e+01 6.017000000000000348e+00 -6.571699999999999875e+00 2.604074999999999918e+01 -1.820604709791650566e-01
2.183200000000000074e+01 7.716999999999999638e+00 -9.322300000000000253e+00 1.635792999999999964e+01 -1.898487472593402559e-01
2.183699999999999974e+01 1.369899999999999984e+01 -8.400399999999999423e+00 2.908929999999999794e+00 1.661388194210907110e-01
2.185600000000000165e+01 2.592500000000000071e+01 7.033700000000000507e-01 -1.722241999999999962e+01 -7.124504545549067980e-02
2.186400000000000077e+01 1.378500000000000014e+01 -2.834700000000000220e+00 1.287617999999999974e+01 -2.405746710822129764e-01
2.188100000000000023e+01 9.921099999999999142e+00 -7.459699999999999775e+00 1.520208000000000048e+01 -1.936423322953353954e-01
2.188500000000000156e+01 1.100900000000000034e+01 -6.611500000000000377e+00 2.353610000000000113e+01 -1.800775177234332225e-01
2.189699999999999847e+01 1.723000000000000043e+01 -5.746400000000000396e+00 1.119693999999999967e+01 -1.010358569242261889e-01
2.190599999999999881e+01 1.089899999999999913e+01 -5.811099999999999710e+00 4.927783999999999942e+00 -1.764432131681978322e-01
2.192000000000000171e+01 1.292399999999999949e+01 -8.342100000000000293e+00 3.927338000000000218e+00 1.751196324903831758e-01
2.193299999999999983e+01 1.836299999999999955e+01 -4.988100000000000200e+00 1.890546999999999978e+00 -1.216249434272353158e-01
2.194200000000000017e+01 1.246000000000000085e+01 -4.672500000000000320e+00 1.122757000000000005e+01 -1.264470824956962815e-02
2.195400000000000063e+01 8.794999999999999929e+00 -8.509299999999999642e+00 1.766237999999999886e+01 8.125616427359869109e-02
2.196000000000000085e+01 1.426800000000000068e+01 -8.134100000000000108e+00 1.448690999999999951e+00 1.614481619152051406e-01
2.196600000000000108e+01 2.673100000000000165e+01 -4.497499999999999609e+00 3.504179000000000155e+00 5.292269247411297839e-02
2.196799999999999997e+01 2.508299999999999841e+01 1.549700000000000077e+00 3.716022000000000158e+00 -6.895352918175369494e-02
2.198199999999999932e+01 5.639999999999999680e+00 -9.884000000000000341e+00 2.921424999999999983e+01 -1.025752752957106856e-01
2.198199999999999932e+01 6.597999999999999865e+00 -9.884000000000000341e+00 9.041553999999999292e+01 -1.906503552252274969e-01
2.199399999999999977e+01 1.988200000000000145e+01 -4.889700000000000379e+00 -2.027552000000000021e+00 1.275522327158425950e-01
2.201200000000000045e+01 1.239899999999999913e+01 -7.115999999999999659e+00 1.422425999999999924e+01 -4.349149976685458274e-02
2.201399999999999935e+01 2.437500000000000000e+01 -2.160899999999999821e+00 -3.928363000000000049e+00 1.448332910634226034e-01
2.202400000000000091e+01 8.747999999999999332e+00 -4.862899999999999778e+00 1.125151999999999930e+01 -1.687342987847827158e-01
2.203099999999999881e+01 2.647400000000000020e+01 -3.721999999999999975e+00 3.892037999999999887e+00 5.649605335533073452e-02
2.203699999999999903e+01 2.260500000000000043e+01 3.455000000000000071e+00 7.613235000000000419e+00 -1.599088452984235575e-01
2.203699999999999903e+01 2.405099999999999838e+01 2.648699999999999832e+00 1.650900000000000034e+01 -1.661454944203547002e-01
2.204599999999999937e+01 1.234800000000000075e+01 -5.551000000000000156e+00 2.416094999999999882e+00 -2.426757852197403489e-02
2.204700000000000060e+01 5.304100000000000037e+00 -9.108999999999999986e+00 3.799369999999999692e+01 -1.023410293302752239e-01
2.205000000000000071e+01 2.727499999999999858e+01 -3.722999999999999865e+00 3.702723999999999904e+00 6.520432006347416654e-02
2.205300000000000082e+01 7.324099999999999611e+00 -5.675099999999999589e+00 1.431066000000000038e+01 -1.775380583717686978e-01
2.206099999999999994e+01 1.286599999999999966e+01 -6.354000000000000092e+00 1.236869000000000085e+01 -3.558707209908881092e-02
2.206700000000000017e+01 2.820799999999999841e+01 -3.712699999999999889e+00 6.761199999999999655e+00 -1.609645000241482216e-01
2.208999999999999986e+01 1.188199999999999967e+01 -7.846400000000000041e+00 9.625619000000000369e+00 -5.043764074397079356e-02
2.210800000000000054e+01 2.697100000000000009e+01 -3.023000000000000131e+00 6.370604000000000156e+00 6.698511371363584377e-02
2.212300000000000111e+01 1.015000000000000036e+01 -6.867200000000000415e+00 1.336336000000000013e+01 -1.906537052030802815e-01
2.212300000000000111e+01 1.015000000000000036e+01 -5.750799999999999912e+00 1.035023999999999944e+01 -1.845177774998148501e-01
2.213800000000000168e+01 2.094099999999999895e+01 -3.794299999999999784e+00 -1.505913000000000057e+00 1.238326413261625902e-01
2.214900000000000091e+01 2.818100000000000094e+01 -6.412499999999999645e+00 8.404702999999999591e+00 1.314435845569277284e-01
2.215700000000000003e+01 5.491699999999999804e+00 -7.421700000000000408e+00 7.442047999999999774e+00 -1.019507569602044611e-01
2.217899999999999849e+01 1.967599999999999838e+01 4.006999999999999673e+00 -2.895401999999999809e+00 1.253477072235054668e-01
2.217899999999999849e+01 2.078800000000000026e+01 4.006999999999999673e+00 -5.676057000000000130e+00 1.248011254069651688e-01
2.217999999999999972e+01 2.316000000000000014e+01 -2.677299999999999791e+00 -1.102599999999999980e+01 1.248230053313027221e-01
2.218799999999999883e+01 1.641000000000000014e+01 2.389100000000000001e+00 1.869690999999999992e+00 -1.534694599204576015e-01
2.218900000000000006e+01 2.692699999999999960e+01 -5.573000000000000398e+00 7.060163000000000189e+00 1.472095719933666225e-01
2.218900000000000006e+01 2.943499999999999872e+01 -5.573000000000000398e+00 1.107028000000000034e+01 -4.799618303005283304e-02
2.218900000000000006e+01 2.943499999999999872e+01 -4.615000000000000213e+00 4.990071000000000367e+00 -2.526563442864914258e-02
2.223199999999999932e+01 1.503500000000000014e+01 1.468299999999999939e+00 2.568150000000000155e+00 -1.459684543680253854e-01
2.223400000000000176e+01 1.801200000000000045e+01 2.430099999999999927e+00 1.242542000000000035e+00 -1.448959957628731532e-01
2.224899999999999878e+01 2.136700000000000088e+01 3.729299999999999837e+00 -9.015457000000000054e-01 -1.449920244279587211e-01
2.225199999999999889e+01 2.633599999999999852e+01 7.699999999999999900e-02 -2.814459000000000088e+01 -7.268887299977658256e-02
2.226200000000000045e+01 2.565899999999999892e+01 -3.721999999999999975e+00 1.549623000000000062e+01 1.417986969883006931e-01
2.226300000000000168e+01 1.496799999999999997e+01 -8.075900000000000745e+00 1.028226000000000084e+01 2.492078461036738857e-01
2.226500000000000057e+01 5.407499999999999751e+00 -8.412300000000000111e+00 1.158292999999999928e+01 -1.025348618165106834e-01
2.226699999999999946e+01 1.486200000000000010e+01 4.393799999999999928e-01 2.517141000000000073e+00 -1.332743965381138485e-01
2.227100000000000080e+01 8.280099999999999127e+00 -8.522999999999999687e+00 1.726255000000000095e+01 -1.915973047326980927e-01
2.227199999999999847e+01 6.781500000000000306e+00 -6.437999999999999723e+00 2.788604000000000127e+01 -1.849521671857786986e-01
2.231700000000000017e+01 1.335699999999999932e+01 -8.833000000000000185e+00 7.821127999999999858e+00 1.665445964696775916e-01
2.232000000000000028e+01 1.685399999999999920e+01 -6.653400000000000425e+00 1.172657000000000060e+01 1.471449046526937532e-01
2.232499999999999929e+01 6.932299999999999685e+00 -9.423299999999999343e+00 3.273337000000000074e+01 -1.928863946836190946e-01
2.232700000000000173e+01 2.599500000000000099e+01 -4.496999999999999886e+00 1.385147000000000084e+01 1.342060871295595592e-01
2.232999999999999829e+01 1.792999999999999972e+01 -5.479000000000000092e+00 2.507967999999999975e+01 -1.163322735992325663e-01
2.234700000000000131e+01 1.327599999999999980e+01 -3.284100000000000019e+00 4.058118999999999588e+00 -2.442020025166339869e-01
2.235099999999999909e+01 8.585100000000000620e+00 -7.744900000000000340e+00 1.722755000000000081e+01 -1.903640681735897233e-01
2.236599999999999966e+01 1.971199999999999974e+01 2.265800000000000036e+00 -6.782575999999999716e+00 -5.419258948028632741e-04
2.237099999999999866e+01 1.930600000000000094e+01 3.148400000000000087e+00 -3.780768000000000129e+00 1.222897891656627989e-01
2.237399999999999878e+01 2.557499999999999929e+01 7.622100000000000541e-01 -3.467740000000000045e+00 -7.016546097521367265e-02
2.237699999999999889e+01 2.162099999999999866e+01 -3.218999999999999861e+00 -3.231495999999999924e+00 1.225644071676740693e-01
2.238200000000000145e+01 1.490600000000000058e+01 -1.119399999999999951e+00 3.381741999999999804e-01 1.149273180648610893e-01
2.238200000000000145e+01 1.490600000000000058e+01 -2.541399999999999770e-01 1.086116000000000081e+00 -1.254087263710608746e-01
2.239000000000000057e+01 2.673000000000000043e+01 -6.353600000000000358e-01 -3.571932000000000329e+01 -7.478149868230973829e-02
2.239999999999999858e+01 1.438799999999999990e+01 -1.887000000000000011e+00 2.317101000000000022e-01 1.249169823938166834e-01
2.240099999999999980e+01 6.072400000000000020e+00 -9.184499999999999886e+00 3.061270000000000024e+01 -1.034187965021120120e-01
2.240299999999999869e+01 1.288799999999999990e+01 -4.176499999999999879e+00 9.276770000000000849e+00 -5.001343176659536066e-03
2.241100000000000136e+01 2.480799999999999983e+01 -2.651800000000000157e+00 2.916275000000000173e+00 1.427322153179712005e-01
2.242899999999999849e+01 1.255000000000000071e+01 -8.833000000000000185e+00 4.919436000000000142e+00 1.762181431790524888e-01
2.243299999999999983e+01 1.285599999999999987e+01 -5.105199999999999960e+00 9.853894999999999627e+00 -1.896213864731500706e-02
2.244099999999999895e+01 1.642800000000000082e+01 -7.200899999999999856e+00 9.656805999999999557e+00 1.425017091241125022e-01
2.244699999999999918e+01 1.901899999999999835e+01 2.393699999999999939e+00 -1.593620000000000037e+00 1.124088541665329427e-01
2.245400000000000063e+01 2.681400000000000006e+01 -1.480399999999999938e+00 -1.255153999999999925e+01 -7.617790248191877445e-02
2.246399999999999864e+01 1.912199999999999989e+01 -5.179999999999999716e+00 3.396513999999999922e-01 1.365988706798607621e-01
2.246399999999999864e+01 2.041499999999999915e+01 -4.459100000000000286e+00 -2.098957000000000050e+01 1.268345276868569349e-01
2.246499999999999986e+01 2.584100000000000108e+01 -4.399999999999999745e-02 -3.940473999999999677e+01 -7.205730978315773305e-02
2.246900000000000119e+01 2.511100000000000065e+01 -3.351799999999999891e+00 5.187470000000000248e+00 1.374282922741684176e-01
2.247299999999999898e+01 1.551200000000000045e+01 -7.921299999999999564e+00 6.370175999999999839e+00 2.504976928542728687e-01
2.248199999999999932e+01 2.703699999999999903e+01 -2.321400000000000130e+00 2.083247000000000071e+00 6.769214576046013454e-02
2.248300000000000054e+01 2.385999999999999943e+01 -2.619000000000000217e+00 -8.317692999999999615e-02 1.308041486957907673e-01
2.248499999999999943e+01 2.740599999999999881e+01 -6.347999999999999865e+00 5.231664999999999566e+00 1.231541457156036107e-01
2.248499999999999943e+01 2.895599999999999952e+01 -6.347999999999999865e+00 4.092150000000000176e+00 -7.824925733658610882e-02
2.248499999999999943e+01 2.895599999999999952e+01 -3.839999999999999858e+00 -4.494540999999999897e+00 -2.200172224082679734e-02
2.250499999999999901e+01 8.222699999999999676e+00 -5.458999999999999631e+00 1.034214000000000055e+01 -1.779962772609559041e-01
2.250499999999999901e+01 9.273300000000000765e+00 -7.158999999999999808e+00 1.517768000000000050e+01 -1.879798375177992864e-01
2.250499999999999901e+01 9.273300000000000765e+00 -5.458999999999999631e+00 1.069749999999999979e+01 -1.764830743738363406e-01
2.252199999999999847e+01 1.258200000000000074e+01 -7.578999999999999737e+00 1.457185999999999915e+01 -5.198392348199527835e-02
2.252299999999999969e+01 2.023199999999999932e+01 3.107000000000000206e+00 -9.901426000000000727e+00 1.284879307105417090e-01
2.252599999999999980e+01 1.721999999999999886e+01 2.458800000000000097e+00 1.773622999999999950e+00 -1.534983422229952155e-01
2.255699999999999861e+01 1.556000000000000050e+01 2.318299999999999805e+00 2.364675999999999778e+00 -1.597336302517305962e-01
2.256200000000000117e+01 2.345499999999999829e+01 3.130300000000000082e+00 3.828761000000000081e+01 -1.553105706683235998e-01
2.257400000000000162e+01 2.460500000000000043e+01 2.062800000000000189e+00 1.131877000000000066e+01 -1.775307648999611132e-01
2.257600000000000051e+01 9.641700000000000159e+00 -6.309000000000000163e+00 1.968840000000000146e+01 -1.829067998071906287e-01
2.258399999999999963e+01 1.292399999999999949e+01 -9.532999999999999474e+00 3.540811000000000153e+00 1.661987519525223722e-01
2.259100000000000108e+01 2.047500000000000142e+01 2.213699999999999779e+00 -1.232169000000000025e+01 6.926259750307924012e-03
2.262999999999999901e+01 2.633599999999999852e+01 -5.241299999999999848e+00 3.054056000000000104e+00 1.244437492030754100e-01
2.263700000000000045e+01 1.374499999999999922e+01 -2.525199999999999889e+00 8.384778999999999982e-01 -2.360269782843963104e-01
2.264099999999999824e+01 1.219999999999999929e+01 -8.449699999999999989e+00 1.016095999999999933e+01 1.838120116136704729e-01
2.265800000000000125e+01 1.342600000000000016e+01 -6.724599999999999689e+00 1.247113000000000049e+01 -4.456097828131460464e-02
2.265800000000000125e+01 1.342600000000000016e+01 -5.859300000000000175e+00 8.068239999999999412e+00 -3.241054934191265474e-02
2.266000000000000014e+01 1.453500000000000014e+01 -8.566800000000000637e+00 2.031516999999999840e+01 1.535097450555630849e-01
2.266400000000000148e+01 1.933399999999999963e+01 1.461699999999999999e+00 1.588206999999999924e+00 -9.454863158050653277e-03
2.267800000000000082e+01 8.244400000000000617e+00 -7.123899999999999899e+00 1.223001999999999967e+01 -1.915802196084673004e-01
2.267999999999999972e+01 2.232100000000000151e+01 -3.160800000000000054e+00 4.979924999999999713e+00 1.186943514830498814e-01
2.268199999999999861e+01 6.341700000000000337e+00 -8.797000000000000597e+00 7.981075999999999837e+00 -1.950211571367561070e-01
2.268199999999999861e+01 6.341700000000000337e+00 -7.097000000000000419e+00 1.121133000000000024e+01 -1.916403478721945552e-01
2.268199999999999861e+01 7.392299999999999649e+00 -8.797000000000000597e+00 9.824761000000000521e+00 -1.953829384145321924e-01
2.268599999999999994e+01 2.175900000000000034e+01 3.213400000000000034e+00 1.529261999999999899e+00 -2.448193833028111666e-01
2.269200000000000017e+01 7.868199999999999861e+00 -6.256199999999999761e+00 7.463457000000000008e+00 -1.870529728381974954e-01
2.273999999999999844e+01 1.832199999999999918e+01 -5.444399999999999906e+00 2.272341000000000122e+01 -1.276839174711609515e-01
2.275300000000000011e+01 5.973300000000000054e+00 -7.947000000000000064e+00 6.907391999999999754e+00 -1.036914835923834072e-01
2.275300000000000011e+01 7.760699999999999932e+00 -7.947000000000000064e+00 3.922995000000000232e+01 -1.951613677126138036e-01
2.275700000000000145e+01 1.404199999999999982e+01 -8.833000000000000185e+00 1.570002000000000031e+01 1.571891534278113678e-01
2.278900000000000148e+01 1.549300000000000033e+01 -8.487000000000000099e+00 9.811032000000000863e+00 2.488213041024520122e-01
2.280600000000000094e+01 2.521999999999999886e+01 -4.200999999999999623e+00 6.127989999999999604e+00 1.226895451452732627e-01
2.281099999999999994e+01 1.725100000000000122e+01 -7.086000000000000298e+00 1.390798000000000023e+01 1.468209077028010401e-01
2.281200000000000117e+01 2.030999999999999872e+01 1.352800000000000002e+00 -1.620884999999999909e+00 -1.043734535418159860e-04
2.281500000000000128e+01 1.210899999999999999e+01 -9.532999999999999474e+00 4.986659000000000397e+00 1.759543812837775223e-01
2.281500000000000128e+01 1.373900000000000077e+01 -9.532999999999999474e+00 8.484163000000000565e+00 1.555798251468544502e-01
2.281800000000000139e+01 2.501200000000000045e+01 1.181300000000000017e+00 7.052110000000000412e+01 -6.849890441190725765e-02
2.282999999999999829e+01 8.747999999999999332e+00 -6.309000000000000163e+00 9.356564999999999799e+00 -1.873268519693396528e-01
2.283299999999999841e+01 7.335099999999999731e+00 -7.074699999999999989e+00 2.019876999999999967e+01 -1.935814686178740085e-01
2.284400000000000119e+01 1.858599999999999852e+01 1.902800000000000047e+00 1.221697000000000033e+00 -1.671044973608761669e-02
2.287999999999999901e+01 2.342800000000000082e+01 -3.109900000000000109e+00 1.321113000000000071e+01 1.167897947112943174e-01
2.287999999999999901e+01 2.429299999999999926e+01 -3.109900000000000109e+00 7.273922999999999917e+00 1.265281432421764551e-01
2.287999999999999901e+01 1.244500000000000028e+01 -1.030799999999999983e+01 4.054920000000000080e+00 1.655263565124233671e-01
2.287999999999999901e+01 1.340300000000000047e+01 -1.030799999999999983e+01 2.508776000000000117e+00 1.539065946790057759e-01
2.287999999999999901e+01 1.496899999999999942e+01 -1.470499999999999918e+00 -1.564950999999999981e+00 1.234150011523127005e-01
2.288200000000000145e+01 1.688200000000000145e+01 -7.935999999999999943e+00 5.677312999999999832e+00 1.377689875705773725e-01
2.289399999999999835e+01 1.778200000000000003e+01 -6.164900000000000269e+00 1.594721999999999973e+01 -1.189443602947567735e-01
2.289699999999999847e+01 2.090599999999999881e+01 -4.062500000000000000e+00 -3.028401999999999816e+00 1.267858504880326198e-01
2.289799999999999969e+01 2.514099999999999824e+01 2.233799999999999952e-01 1.492226999999999926e+01 -7.031595639473590953e-02
2.291499999999999915e+01 2.752799999999999869e+01 -2.717999999999999972e+00 1.665389999999999926e+00 6.119049547459309846e-02
2.292599999999999838e+01 1.299399999999999977e+01 -7.424599999999999866e+00 2.284525999999999968e+01 -5.441456925390322080e-02
2.293100000000000094e+01 2.260500000000000043e+01 3.201099999999999834e+00 6.868312999999999668e+00 -1.581961069388417018e-01
2.293400000000000105e+01 1.988200000000000145e+01 -4.889700000000000379e+00 -1.129044999999999987e+01 1.342133135576785430e-01
2.296399999999999864e+01 2.686199999999999832e+01 -5.908900000000000041e+00 2.450039999999999996e+00 1.218714549536323022e-01
2.296399999999999864e+01 2.818100000000000094e+01 -6.644000000000000128e+00 1.458053000000000043e+00 7.954751758635129899e-03
2.296399999999999864e+01 2.950000000000000000e+01 -5.908900000000000041e+00 5.132428000000000168e+01 -7.185599185047401860e-02
2.296399999999999864e+01 2.950000000000000000e+01 -4.279099999999999682e+00 -7.933646000000000420e+00 -1.594510188399605455e-01
