7.395300000000000296e+01 6.413599999999999568e+01 2.731299999999999883e+01 -1.772604000000000113e+01 -1.349190264353022362e-01
7.395499999999999829e+01 2.477799999999999869e+01 3.188800000000000168e+01 4.665581999999999852e+01 -6.619650542459666609e-02
7.395699999999999363e+01 6.515600000000000591e+01 1.856299999999999883e+01 -1.301360999999999990e+00 -4.960343095828696064e-02
7.395900000000000318e+01 6.630700000000000216e+01 4.213300000000000267e+01 -2.433094999999999786e+00 -6.619985416982158977e-02
7.396099999999999852e+01 7.073399999999999466e+01 4.231400000000000006e+01 2.224463000000000079e+01 -1.818982135738185790e-01
7.396099999999999852e+01 7.213400000000000034e+01 4.231400000000000006e+01 3.023185000000000144e+01 2.417938551902860250e-02
7.396599999999999397e+01 4.476400000000000290e+01 4.333700000000000330e+01 1.554292000000000051e+01 -2.030430010306960575e-01
7.396699999999999875e+01 3.690800000000000125e+01 3.032199999999999918e+01 9.405020999999999631e+00 -3.802705900605131140e-01
7.396699999999999875e+01 3.809899999999999665e+01 3.098499999999999943e+01 -2.025418999999999858e+00 -3.794059643724328468e-01
7.396999999999999886e+01 6.618600000000000705e+01 2.898799999999999955e+01 4.420881999999999756e+00 2.307179982417118802e-01
7.398099999999999454e+01 5.957200000000000273e+01 2.424899999999999878e+01 -2.760063999999999851e+00 -1.483984154665444477e-01
7.398099999999999454e+01 6.572799999999999443e+01 3.793999999999999773e+01 1.147658999999999985e+01 -6.321476385339094839e-02
7.398199999999999932e+01 5.851700000000000301e+01 2.807900000000000063e+01 4.531974999999999754e-01 -1.165560771413821917e-01
7.398399999999999466e+01 8.456600000000000250e+01 2.827299999999999969e+01 1.698804000000000158e+01 -3.987158363056544919e-01
7.398499999999999943e+01 6.369800000000000040e+01 3.088599999999999923e+01 -2.334808000000000217e+00 -7.330424025040622668e-03
7.398499999999999943e+01 5.241799999999999926e+01 3.842099999999999937e+01 2.128715000000000135e+00 -6.915826975537067711e-02
7.398600000000000421e+01 6.645699999999999363e+01 2.851999999999999957e+01 9.264511000000000607e+00 2.222021245867598915e-01
7.398799999999999955e+01 6.423199999999999932e+01 3.013599999999999923e+01 -5.920575000000000365e+00 -1.095325865397028982e-02
7.399099999999999966e+01 8.281499999999999773e+01 3.098900000000000077e+01 3.288226999999999833e+01 -3.890893541364531805e-01
7.399399999999999977e+01 3.281000000000000227e+01 2.209799999999999898e+01 7.668363000000000262e+00 -9.127176842436593440e-02
7.399500000000000455e+01 6.409699999999999420e+01 2.608299999999999841e+01 3.843154999999999877e+00 -1.445892444132191312e-01
7.399599999999999511e+01 2.876399999999999935e+01 3.896300000000000097e+01 -6.529194999999999638e+00 -1.805552568416828874e-01
7.399599999999999511e+01 2.977100000000000080e+01 3.996999999999999886e+01 5.778692000000000384e+00 -7.999999999999998779e-02
7.400000000000000000e+01 3.981700000000000017e+01 2.958699999999999974e+01 -6.353447000000000067e+00 -3.871359613610099171e-01
7.400199999999999534e+01 4.589699999999999847e+01 4.409499999999999886e+01 1.768024999999999958e+00 1.353494089746150320e-02
7.400700000000000500e+01 6.372200000000000131e+01 3.193900000000000006e+01 -2.062442000000000064e+01 -3.480665807228322528e-02
7.400900000000000034e+01 2.328300000000000125e+01 3.131500000000000128e+01 2.063200000000000145e+01 -4.638276011804991217e-02
7.401000000000000512e+01 6.649500000000000455e+01 2.734900000000000020e+01 2.262562000000000140e+01 1.320296968757527778e-01
7.401099999999999568e+01 6.443999999999999773e+01 2.661299999999999955e+01 -3.078330999999999928e+00 -1.424620663240482588e-01
7.401200000000000045e+01 6.448799999999999955e+01 2.246000000000000085e+01 8.724168999999999841e+00 -1.515371287207547268e-01
7.401800000000000068e+01 4.419400000000000261e+01 3.579899999999999949e+01 1.670419000000000054e+01 1.088907592740661762e-01
7.402100000000000080e+01 6.315100000000000335e+01 2.014900000000000091e+01 4.480495999999999590e+00 -1.820218819570450786e-01
7.402200000000000557e+01 3.098000000000000043e+01 4.196000000000000085e+01 -1.986103999999999914e+01 1.905379716252995556e-02
7.402299999999999613e+01 8.087500000000000000e+01 3.206499999999999773e+01 9.423821000000000225e+00 -3.837450323473834413e-01
7.402299999999999613e+01 8.087500000000000000e+01 3.293099999999999739e+01 9.458130999999999844e+00 -3.855319738644494287e-01
7.402800000000000580e+01 2.642800000000000082e+01 3.301299999999999812e+01 -5.401638000000000162e+00 -1.179453802130157325e-01
7.403000000000000114e+01 8.416899999999999693e+01 3.009499999999999886e+01 3.306381999999999977e+01 -3.939534431479989052e-01
7.403100000000000591e+01 5.211599999999999966e+01 3.771900000000000119e+01 2.717890999999999835e+00 -6.845153166172088244e-02
7.403199999999999648e+01 2.965099999999999980e+01 2.189199999999999946e+01 -9.349212000000000078e-01 -3.614492121728670737e-01
7.403400000000000603e+01 2.340500000000000114e+01 2.312999999999999901e+01 -1.104222999999999999e+01 -3.667894991482119060e-01
7.403499999999999659e+01 3.936500000000000199e+01 4.448499999999999943e+01 4.699481999999999715e+00 -7.533340395929331856e-02
7.403799999999999670e+01 7.291500000000000625e+01 4.316899999999999693e+01 2.883752000000000137e+01 -2.693020614151694914e-01
7.404099999999999682e+01 4.398799999999999955e+01 4.337400000000000233e+01 1.312120999999999960e+01 -2.164674752994803220e-01
7.404200000000000159e+01 7.832999999999999829e+01 3.786399999999999721e+01 -1.433229000000000086e+00 -4.069194770645958026e-01
7.404399999999999693e+01 5.990100000000000335e+01 2.348900000000000077e+01 -5.277946000000000026e+00 -1.605007005817180032e-01
7.404399999999999693e+01 6.084100000000000108e+01 2.348900000000000077e+01 -9.175936000000000092e+00 -1.691098512140285226e-01
7.404399999999999693e+01 6.170600000000000307e+01 2.348900000000000077e+01 -5.914125000000000076e-01 -1.776509186526574191e-01
7.404600000000000648e+01 3.979200000000000159e+01 4.502199999999999847e+01 1.190128999999999948e+01 -6.492558250370547568e-02
7.404900000000000659e+01 2.347299999999999898e+01 2.505399999999999849e+01 -3.942044000000000104e+00 -1.038653214217868659e-01
7.405100000000000193e+01 7.131799999999999784e+01 1.681200000000000117e+01 9.610082000000000235e+00 5.352917391386733531e-02
7.405299999999999727e+01 3.607099999999999795e+01 4.409000000000000341e+01 8.612303000000000708e+00 -9.781750737006152802e-03
7.405599999999999739e+01 6.219800000000000040e+01 2.326899999999999835e+01 -6.731726999999999572e-01 -1.861043885541359411e-01
7.405599999999999739e+01 6.219800000000000040e+01 2.413400000000000034e+01 9.761737999999999804e-01 -1.657058130878902025e-01
7.405800000000000693e+01 7.689100000000000534e+01 1.828399999999999892e+01 1.941348000000000074e+00 -1.360971368169432982e-01
7.406000000000000227e+01 7.808299999999999841e+01 3.859100000000000108e+01 1.631952000000000069e+00 -4.082229785198958072e-01
7.406100000000000705e+01 8.454900000000000659e+01 2.941199999999999903e+01 1.121265999999999963e+01 -3.959927924604101923e-01
7.406499999999999773e+01 4.152100000000000080e+01 2.779299999999999926e+01 2.192822000000000049e+00 -2.799905546667315615e-01
7.406999999999999318e+01 2.475600000000000023e+01 2.073400000000000176e+01 -9.796224000000000487e+00 -2.594853578867190036e-01
7.407299999999999329e+01 6.175300000000000011e+01 2.923100000000000165e+01 7.715273999999999965e+00 -1.283874130234076427e-01
7.407399999999999807e+01 6.549399999999999977e+01 2.629799999999999827e+01 1.065680000000000049e+01 -2.403635241816362567e-01
7.407699999999999818e+01 6.585399999999999920e+01 1.604299999999999926e+01 1.231289000000000078e+00 -5.028320263389449846e-02
7.408100000000000307e+01 2.353099999999999881e+01 2.390099999999999980e+01 -7.361028000000000127e+00 -3.654306595808191616e-01
7.408100000000000307e+01 6.612000000000000455e+01 3.585199999999999676e+01 -9.651688000000000489e-01 1.847064849025514821e-02
7.408299999999999841e+01 3.329299999999999926e+01 2.957300000000000040e+01 5.004834000000000316e+01 -2.235948999257563602e-02
7.408299999999999841e+01 5.681600000000000250e+01 3.903600000000000136e+01 9.831846000000000529e+00 -6.413965376087311931e-02
7.408499999999999375e+01 5.365100000000000335e+01 3.289999999999999858e+01 6.477565000000000239e+00 -2.109649595471584649e-01
7.409300000000000352e+01 3.819700000000000273e+01 4.378499999999999659e+01 -9.634711000000000247e-01 -7.866895668205182990e-02
7.409300000000000352e+01 3.906199999999999761e+01 4.378499999999999659e+01 -3.672747999999999902e+00 -9.092174145915499217e-02
7.409300000000000352e+01 3.332900000000000063e+01 2.591799999999999926e+01 -1.890034999999999954e+01 -1.719208756012359507e-01
7.409900000000000375e+01 8.075199999999999534e+01 3.548599999999999710e+01 6.026948000000000150e+01 -2.758281433906520919e-01
7.409999999999999432e+01 3.462100000000000222e+01 2.880300000000000082e+01 1.384989999999999988e+01 -1.559970929288678476e-01
7.410200000000000387e+01 6.999899999999999523e+01 1.630799999999999983e+01 6.716368000000000116e+00 2.022216051266826492e-02
7.410299999999999443e+01 3.944100000000000250e+01 3.021199999999999974e+01 -3.749150000000000205e+00 -3.839367865649589429e-01
7.411199999999999477e+01 3.348100000000000165e+01 4.209300000000000352e+01 9.906596000000000402e+00 6.516621927987950591e-03
7.411199999999999477e+01 6.255700000000000216e+01 2.055699999999999861e+01 2.109373999999999860e+00 -1.945382347973284576e-01
7.411499999999999488e+01 4.321200000000000330e+01 4.439699999999999847e+01 2.014025000000000176e+01 -1.934260440044991147e-01
7.411599999999999966e+01 5.695900000000000318e+01 3.625900000000000034e+01 9.210457999999999146e+00 -2.127385836745859238e-01
7.411799999999999500e+01 5.888799999999999812e+01 2.858699999999999974e+01 -3.402117000000000058e-01 -1.140054060904247962e-01
7.412600000000000477e+01 3.741700000000000159e+01 2.344200000000000017e+01 2.900761999999999929e+01 -1.198508704972009176e-01
7.412600000000000477e+01 3.741700000000000159e+01 2.439999999999999858e+01 4.402738000000000085e+01 -1.177690860635326187e-01
7.412600000000000477e+01 6.358299999999999841e+01 2.231400000000000006e+01 1.531024000000000029e+01 -1.807819994230516203e-01
7.412699999999999534e+01 6.615300000000000580e+01 3.902900000000000347e+01 1.070359999999999978e+01 -6.592117062375826841e-02
7.413299999999999557e+01 5.833299999999999841e+01 2.630699999999999861e+01 -1.575390000000000068e+00 -1.247440798889185576e-01
7.413599999999999568e+01 7.774200000000000443e+01 3.928099999999999881e+01 -1.156849000000000061e+01 -4.800477986841267947e-02
7.413899999999999579e+01 3.730299999999999727e+01 4.391199999999999903e+01 1.161553999999999975e+00 -1.133057144820912160e-01
7.414799999999999613e+01 3.207600000000000051e+01 3.024200000000000088e+01 3.852094999999999914e+01 1.650131992828033842e-02
7.414799999999999613e+01 3.597500000000000142e+01 2.957799999999999940e+01 1.783686000000000149e+01 -3.955736026307881681e-01
7.415000000000000568e+01 2.295899999999999963e+01 2.590200000000000102e+01 -2.455601000000000145e+00 -1.182174886294252714e-01
7.415099999999999625e+01 4.540400000000000347e+01 3.148199999999999932e+01 1.819396000000000013e+00 -3.378808590563043279e-01
7.415099999999999625e+01 8.090699999999999648e+01 2.535600000000000165e+01 7.053169999999999717e+00 -9.469105683984446742e-02
7.415500000000000114e+01 6.573699999999999477e+01 2.391900000000000048e+01 2.816347000000000023e+01 -1.178013043708354690e-01
7.415999999999999659e+01 2.557900000000000063e+01 2.057199999999999918e+01 -5.147401999999999589e+00 -2.583171198729647400e-01
7.416400000000000148e+01 7.399699999999999989e+01 4.355100000000000193e+01 3.751178000000000168e+01 -1.067210097843038358e-01
7.416400000000000148e+01 7.531600000000000250e+01 4.281600000000000250e+01 5.824772000000000105e+01 -1.164412807222625218e-01
7.416400000000000148e+01 7.554699999999999704e+01 4.200099999999999767e+01 6.596998999999999569e+01 -1.031455364975833594e-01
7.416400000000000148e+01 7.575600000000000023e+01 4.126500000000000057e+01 2.981071999999999989e+01 -8.824255779662397436e-02
7.416500000000000625e+01 5.352199999999999847e+01 3.385799999999999699e+01 1.657872000000000012e+00 -5.949979039742728931e-02
7.416599999999999682e+01 3.616299999999999670e+01 2.260200000000000031e+01 2.659183000000000163e+01 -1.179635017681551351e-01
7.416599999999999682e+01 3.616299999999999670e+01 2.523999999999999844e+01 3.599219999999999686e+01 -1.322383536528312920e-01
7.416700000000000159e+01 5.515999999999999659e+01 3.914399999999999835e+01 7.895220000000000127e+00 -6.543573108208489142e-02
7.417100000000000648e+01 5.491100000000000136e+01 3.160900000000000176e+01 2.968999999999999861e+00 -1.970994651801855624e-01
7.417199999999999704e+01 6.410299999999999443e+01 1.964499999999999957e+01 1.123898000000000064e+00 -5.331225880917923009e-04
7.417900000000000205e+01 7.959499999999999886e+01 2.448100000000000165e+01 -1.859885000000000010e+00 -1.352985192817332816e-01
7.417900000000000205e+01 6.306499999999999773e+01 2.837199999999999989e+01 -5.684679000000000038e+00 -1.167812798962573340e-01
7.418000000000000682e+01 5.231900000000000261e+01 3.542499999999999716e+01 -4.656128999999999962e+00 -6.370841724416875795e-02
7.419599999999999795e+01 5.866199999999999903e+01 2.554700000000000060e+01 -1.597774999999999945e+00 -1.302102579361893719e-01
7.420499999999999829e+01 6.574599999999999511e+01 3.450900000000000034e+01 5.968235999999999680e-02 6.894778488639251302e-02
7.421099999999999852e+01 6.649599999999999511e+01 3.799300000000000210e+01 1.809574999999999889e+01 -6.344651806392394289e-02
7.421399999999999864e+01 7.917100000000000648e+01 3.611099999999999710e+01 7.363094000000000250e+00 -2.845105122615959048e-01
7.421399999999999864e+01 6.800900000000000034e+01 4.353900000000000148e+01 5.841499999999999915e+00 -6.585888656328302282e-02
7.422400000000000375e+01 7.869499999999999318e+01 2.120299999999999940e+01 -2.256027999999999878e+01 -4.503411388294119994e-02
7.422400000000000375e+01 7.964400000000000546e+01 1.865599999999999881e+01 -1.017590000000000039e+01 -3.297372578034175189e-02
7.422400000000000375e+01 7.964400000000000546e+01 2.025400000000000134e+01 -3.518010000000000304e+01 -4.788262958497792321e-02
7.422400000000000375e+01 7.987099999999999511e+01 1.945499999999999829e+01 -3.317916000000000309e+01 -4.258793377441075223e-02
7.422899999999999920e+01 3.400300000000000011e+01 4.252799999999999869e+01 2.110419999999999874e+01 -2.222648784705361265e-03
7.423000000000000398e+01 6.857299999999999329e+01 4.341499999999999915e+01 8.993344999999999700e+00 -6.637614215106191207e-02
7.423499999999999943e+01 6.241599999999999682e+01 2.238400000000000034e+01 1.953781999999999908e+00 -2.043609639778363740e-01
7.424099999999999966e+01 7.405599999999999739e+01 1.808999999999999986e+01 4.515958999999999612e+00 -1.659082704584248502e-01
7.424299999999999500e+01 5.199000000000000199e+01 3.618500000000000227e+01 -7.095117000000000118e+00 -6.557768106706743372e-02
7.424599999999999511e+01 3.056800000000000139e+01 4.112400000000000233e+01 -1.283000999999999969e+01 2.705122218319109748e-02
7.425000000000000000e+01 4.325200000000000244e+01 4.337400000000000233e+01 1.600316000000000116e+01 -2.028655117471370173e-01
7.425100000000000477e+01 2.351399999999999935e+01 2.026000000000000156e+01 -4.509564000000000128e+00 -1.980986235846059901e-02
7.425499999999999545e+01 4.052799999999999869e+01 4.502199999999999847e+01 1.509657999999999944e+01 -5.303319456801397491e-02
7.425799999999999557e+01 2.727700000000000102e+01 2.067200000000000060e+01 -2.085393999999999970e+00 -3.678025557316786931e-01
7.426200000000000045e+01 6.366400000000000148e+01 2.538299999999999912e+01 1.057457999999999920e+01 -1.497673277817849202e-01
7.426200000000000045e+01 6.593000000000000682e+01 2.451800000000000068e+01 2.403896999999999906e+01 -1.195500880371301033e-01
7.426200000000000045e+01 6.593000000000000682e+01 2.538299999999999912e+01 2.045335000000000036e+01 -2.379839992607173937e-01
7.426500000000000057e+01 3.525699999999999790e+01 2.529200000000000159e+01 2.632654000000000138e+01 -1.591922882815006157e-01
7.426800000000000068e+01 6.499299999999999500e+01 3.281400000000000006e+01 -2.670568000000000097e+01 5.988990778627346911e-02
7.426900000000000546e+01 4.546399999999999864e+01 4.339500000000000313e+01 2.782436999999999827e+01 2.490385495804301602e-02
7.427700000000000102e+01 6.606300000000000239e+01 2.664900000000000091e+01 1.502590000000000003e+01 -1.013332592247211117e-01
7.427899999999999636e+01 3.361599999999999966e+01 2.213500000000000156e+01 1.118355999999999995e+01 -1.021574502458158368e-01
7.428300000000000125e+01 4.190200000000000102e+01 4.534799999999999898e+01 1.388315000000000055e+01 -1.739817673776526408e-01
7.428400000000000603e+01 7.077500000000000568e+01 1.648600000000000065e+01 1.184801000000000037e+01 3.109066098211226564e-02
7.428499999999999659e+01 3.179799999999999827e+01 4.194700000000000273e+01 -4.325379999999999825e+01 9.790604221983986374e-03
7.429000000000000625e+01 2.228399999999999892e+01 2.108299999999999841e+01 -4.058772000000000268e+00 -3.257766930798805527e-02
7.429000000000000625e+01 2.228399999999999892e+01 2.202299999999999969e+01 -4.208432000000000173e+00 -3.664423824015805575e-01
7.429699999999999704e+01 6.500499999999999545e+01 3.009600000000000009e+01 -1.109642000000000017e+01 -4.904497393511818293e-02
7.429800000000000182e+01 3.226899999999999835e+01 2.711199999999999832e+01 -2.869416999999999973e+01 -1.850778247926741504e-01
7.430100000000000193e+01 7.565800000000000125e+01 1.818100000000000094e+01 7.154353999999999658e+00 -1.448093051859395408e-01
7.430200000000000671e+01 3.170100000000000051e+01 2.206899999999999906e+01 1.609746000000000166e+01 -3.565061524628767575e-01
7.430299999999999727e+01 6.940500000000000114e+01 1.596199999999999974e+01 8.230589000000000155e+00 -2.211920276747065817e-01
7.430299999999999727e+01 6.559900000000000375e+01 2.980000000000000071e+01 5.257532000000000177e-02 2.479346721841682866e-01
7.430400000000000205e+01 5.318299999999999983e+01 3.445600000000000307e+01 1.613332000000000099e-01 -6.042623014760663269e-02
7.430500000000000682e+01 6.607800000000000296e+01 3.504800000000000182e+01 -3.711066000000000198e+00 1.703826992449266886e-01
7.430700000000000216e+01 5.452000000000000313e+01 3.898400000000000176e+01 2.174048000000000158e+01 -6.582684391436792459e-02
7.430899999999999750e+01 4.355499999999999972e+01 4.267399999999999949e+01 1.693168000000000006e+01 -2.172923833319440057e-01
7.430899999999999750e+01 4.442000000000000171e+01 4.267399999999999949e+01 1.635354999999999848e+01 -1.099132351904309884e-01
7.431199999999999761e+01 6.127300000000000324e+01 2.278900000000000148e+01 -1.280977000000000032e+00 -1.910569373270211702e-01
7.431300000000000239e+01 4.022500000000000142e+01 4.432200000000000273e+01 1.096743999999999986e+01 -5.481869382211541908e-02
7.431799999999999784e+01 8.359000000000000341e+01 3.080499999999999972e+01 3.236283999999999850e+01 -3.911926805782284799e-01
7.432200000000000273e+01 2.842800000000000082e+01 3.828799999999999670e+01 -2.247451999999999828e+01 -1.812171926605967709e-01
7.432299999999999329e+01 4.440100000000000335e+01 3.863600000000000279e+01 1.518534999999999968e+01 -1.056785972419563152e-01
7.432299999999999329e+01 4.559199999999999875e+01 3.929999999999999716e+01 2.727926000000000073e+01 -1.135343195743285793e-01
7.432699999999999818e+01 8.247199999999999420e+01 2.586299999999999955e+01 8.776491999999999294e+00 -7.173178443756941802e-02
7.432999999999999829e+01 6.692700000000000671e+01 4.275200000000000244e+01 -1.844288999999999845e+01 -6.649282364354347497e-02
7.433199999999999363e+01 4.687599999999999767e+01 4.485900000000000176e+01 -2.332546999999999926e+01 5.119356289135567305e-03
7.433199999999999363e+01 4.781600000000000250e+01 4.485900000000000176e+01 -5.666113000000000000e+01 2.074748176768624434e-03
7.434600000000000364e+01 6.160099999999999909e+01 2.180699999999999861e+01 -1.048912000000000067e+00 -2.051079499842304588e-01
7.434600000000000364e+01 5.326500000000000057e+01 3.871399999999999864e+01 5.691536000000000151e+00 -6.743080818024108081e-02
7.434799999999999898e+01 2.739399999999999835e+01 3.437299999999999756e+01 -1.921718999999999866e+01 6.100295444775391367e-03
7.434999999999999432e+01 2.836400000000000077e+01 2.155000000000000071e+01 8.052512000000000114e+00 -3.655046689364217505e-01
7.435299999999999443e+01 2.272800000000000153e+01 3.066199999999999903e+01 8.759256000000000597e+00 -5.300853047281858452e-03
7.436799999999999500e+01 3.509599999999999653e+01 2.259400000000000119e+01 1.870896000000000114e+01 -1.184491960615554618e-01
7.436899999999999977e+01 2.398799999999999955e+01 3.147800000000000153e+01 1.673197000000000116e+02 -4.451868102229377538e-02
7.437099999999999511e+01 3.385399999999999920e+01 2.876800000000000068e+01 1.515004000000000062e+01 -1.566727752526111683e-01
7.437300000000000466e+01 6.341100000000000136e+01 2.777899999999999991e+01 -2.457526999999999973e+01 -1.191721947454752045e-01
7.437399999999999523e+01 8.360999999999999943e+01 2.691499999999999915e+01 1.745138000000000034e+01 -4.562643085501503354e-02
7.437399999999999523e+01 3.033999999999999986e+01 2.877400000000000091e+01 4.122816000000000258e+01 -6.159944845100632366e-02
7.437399999999999523e+01 3.054899999999999949e+01 2.803800000000000026e+01 3.372594999999999743e+01 -8.733311540940419393e-02
7.437399999999999523e+01 3.054899999999999949e+01 2.951000000000000156e+01 4.612315999999999860e+01 -2.554842699411755819e-02
7.437800000000000011e+01 6.361099999999999710e+01 1.952299999999999969e+01 1.597423000000000037e+00 -1.744559436694935461e-01
7.438100000000000023e+01 6.033500000000000085e+01 2.289900000000000091e+01 -1.823862000000000094e+00 -1.786254800581921764e-01
7.438100000000000023e+01 3.512700000000000244e+01 4.369100000000000250e+01 1.806345999999999918e+01 -8.653367693308496034e-03
7.438200000000000500e+01 7.826699999999999591e+01 1.779899999999999949e+01 1.339479000000000086e+00 -1.185065085348765007e-01
7.438700000000000045e+01 7.670199999999999818e+01 4.060999999999999943e+01 -3.229847000000000179e+01 -6.510378455903904904e-02
7.438700000000000045e+01 4.123199999999999932e+01 4.523299999999999699e+01 1.423234000000000066e+01 5.433884539397816626e-02
7.439000000000000057e+01 6.445600000000000307e+01 1.883099999999999952e+01 -6.715487999999999458e-01 -3.044617422212876276e-02
7.439400000000000546e+01 7.024299999999999500e+01 4.271099999999999852e+01 6.857853999999999672e+00 -1.920865364588582314e-01
7.439400000000000546e+01 7.143399999999999750e+01 4.204699999999999704e+01 1.965081999999999951e+01 -1.565060305909697080e-01
7.439400000000000546e+01 7.262500000000000000e+01 4.271099999999999852e+01 3.417763000000000062e+01 2.692709912544718337e-02
7.439499999999999602e+01 7.843800000000000239e+01 2.198300000000000054e+01 1.407435999999999909e+00 -5.340538567162089745e-02
7.439499999999999602e+01 4.814500000000000313e+01 4.409899999999999665e+01 -3.394462000000000046e+01 -5.173741457128591204e-04
7.440000000000000568e+01 3.739900000000000091e+01 3.071799999999999997e+01 -2.144346000000000085e+00 -3.765712264962743361e-01
7.440300000000000580e+01 3.368099999999999739e+01 2.505699999999999861e+01 9.304377999999999815e+00 -1.604751826642495938e-01
7.440300000000000580e+01 3.454699999999999704e+01 2.505699999999999861e+01 2.452246999999999844e+01 -1.587632132635732052e-01
7.440600000000000591e+01 4.867499999999999716e+01 4.167499999999999716e+01 1.040954999999999941e+01 7.923737532953490509e-03
7.440699999999999648e+01 5.590800000000000125e+01 3.129100000000000037e+01 3.233849999999999891e+00 -1.919694021157216102e-01
7.440699999999999648e+01 5.735399999999999920e+01 3.209700000000000131e+01 1.026900999999999975e+01 -1.896472907788438467e-01
7.440699999999999648e+01 5.735399999999999920e+01 3.388499999999999801e+01 2.408308999999999855e+01 -2.024226749097519651e-01
7.440699999999999648e+01 5.760799999999999699e+01 3.299099999999999966e+01 2.121916999999999831e+01 -1.934433626198023837e-01
7.440800000000000125e+01 5.734100000000000108e+01 3.713600000000000279e+01 1.996910000000000096e+01 -2.055721275801381531e-01
7.440800000000000125e+01 5.734100000000000108e+01 3.818599999999999994e+01 1.490704999999999991e+01 -6.258601542285718855e-02
7.440999999999999659e+01 5.902300000000000324e+01 2.473000000000000043e+01 -2.034502999999999950e+00 -1.403943839185054776e-01
7.442300000000000182e+01 6.578000000000000114e+01 3.401299999999999812e+01 2.137265000000000192e+00 6.135232186850490821e-02
7.442300000000000182e+01 8.211499999999999488e+01 3.125600000000000023e+01 1.911665999999999954e+01 -3.731873312171856139e-01
7.442400000000000659e+01 4.245199999999999818e+01 2.772200000000000131e+01 1.520191000000000070e+00 -2.865887554378181434e-01
7.442400000000000659e+01 4.389800000000000324e+01 2.852799999999999869e+01 -7.221041999999999739e-01 -3.022415029212069948e-01
7.442400000000000659e+01 4.415200000000000102e+01 2.942200000000000060e+01 -1.185464999999999991e+00 -3.112804840366318881e-01
7.442600000000000193e+01 4.705199999999999960e+01 3.896900000000000119e+01 5.020502999999999716e+00 3.388949282570456745e-02
7.443000000000000682e+01 2.554500000000000171e+01 3.218099999999999739e+01 -7.523293999999999926e+00 -7.524046567897896276e-02
7.443600000000000705e+01 3.539600000000000080e+01 2.886799999999999855e+01 1.101459999999999972e+01 -3.954725884620319265e-01
7.443899999999999295e+01 6.644599999999999795e+01 3.659300000000000352e+01 7.679962999999999873e+00 2.631629228043881955e-02
7.444100000000000250e+01 4.587400000000000233e+01 3.224199999999999733e+01 -2.584362000000000137e+01 -3.388634765828091866e-01
7.444100000000000250e+01 4.587400000000000233e+01 3.318200000000000216e+01 -6.322970999999999719e+01 -3.428832369627284327e-01
7.444400000000000261e+01 6.374000000000000199e+01 2.687999999999999901e+01 -5.837506999999999557e+00 -1.324450527887442997e-01
7.445199999999999818e+01 5.596600000000000108e+01 3.910699999999999932e+01 9.828697999999999269e+00 -6.444169528855667184e-02
7.445300000000000296e+01 6.801500000000000057e+01 1.538599999999999923e+01 1.539862999999999982e+00 -2.146884824354871879e-01
7.445699999999999363e+01 4.842900000000000205e+01 4.073599999999999710e+01 -1.842278999999999911e+01 1.742934621988999691e-02
7.445799999999999841e+01 8.074399999999999977e+01 3.168700000000000117e+01 8.837588999999999473e+00 -3.728620568067266827e-01
7.446500000000000341e+01 4.828199999999999648e+01 3.979200000000000159e+01 -6.956224999999999881e+00 2.212566152116071660e-02
7.447199999999999420e+01 4.492900000000000205e+01 3.535799999999999699e+01 2.195743999999999829e+01 1.181987108458872893e-01
7.447199999999999420e+01 5.811999999999999744e+01 2.851200000000000045e+01 -6.179499000000000519e-01 -1.205306543078224213e-01
7.447499999999999432e+01 8.015000000000000568e+01 2.530999999999999872e+01 -2.742507999999999946e+00 -9.540572965422206009e-02
7.447799999999999443e+01 4.834899999999999665e+01 4.293399999999999750e+01 2.658196999999999832e+01 2.179353037048724524e-03
7.448000000000000398e+01 5.940899999999999892e+01 2.939199999999999946e+01 -6.078774000000000122e-01 -1.146666419490723898e-01
7.448799999999999955e+01 4.651200000000000045e+01 4.415800000000000125e+01 9.092276000000000247e-01 1.049028313890941130e-02
7.448999999999999488e+01 3.862899999999999778e+01 4.329399999999999693e+01 -9.808547000000000793e+00 -7.683620528497832336e-02
7.449099999999999966e+01 6.694799999999999329e+01 4.165400000000000347e+01 4.283934000000000353e+00 -6.847193153473124516e-02
7.449200000000000443e+01 5.439900000000000091e+01 3.202600000000000335e+01 1.911119999999999930e+00 -2.036061792122264014e-01
7.450499999999999545e+01 3.682300000000000040e+01 4.377400000000000091e+01 6.570352999999999888e+00 -1.379532461247067743e-01
7.450600000000000023e+01 6.082300000000000040e+01 2.942699999999999960e+01 9.822952000000000794e+00 -1.072612318099264994e-01
7.450799999999999557e+01 8.404999999999999716e+01 2.767999999999999972e+01 2.533025999999999911e+01 -3.991779238424578713e-01
7.450799999999999557e+01 2.263700000000000045e+01 2.283699999999999974e+01 -1.027613999999999983e+01 -3.659265271365835792e-01
7.451399999999999579e+01 5.914099999999999824e+01 2.377899999999999991e+01 -2.122402000000000122e+00 -1.540889283675335730e-01
7.451500000000000057e+01 3.207699999999999818e+01 2.247299999999999898e+01 4.552540999999999727e+00 -8.800979981350495751e-02
7.451600000000000534e+01 2.896300000000000097e+01 2.193400000000000105e+01 1.099658999999999942e+00 -3.635021103407606313e-01
7.451600000000000534e+01 6.674299999999999500e+01 1.556700000000000017e+01 1.455421999999999966e-02 -7.047093053713546218e-02
7.452100000000000080e+01 4.381600000000000250e+01 3.784400000000000119e+01 6.626956999999999987e+00 -1.029787358083753546e-01
7.452100000000000080e+01 2.935999999999999943e+01 3.944400000000000261e+01 -5.138312999999999908e-01 -8.000000000000000167e-02
7.452200000000000557e+01 3.082700000000000173e+01 3.385699999999999932e+01 1.900645000000000095e+01 -1.559657499251563828e-01
7.452299999999999613e+01 6.314999999999999858e+01 2.280499999999999972e+01 2.458491000000000071e+01 -1.992565205527901395e-01
7.452700000000000102e+01 3.274000000000000199e+01 2.625400000000000134e+01 -3.541823000000000121e+01 -1.718621048216996960e-01
7.452899999999999636e+01 6.498799999999999955e+01 1.803000000000000114e+01 -3.755072999999999883e+00 -6.049047882237398172e-02
7.453300000000000125e+01 7.239400000000000546e+01 1.724599999999999866e+01 3.243653999999999815e+00 6.176658178483331041e-02
7.453600000000000136e+01 3.895000000000000284e+01 3.060800000000000054e+01 -4.553270000000000373e+00 -3.772504435796161237e-01
7.453600000000000136e+01 3.773599999999999710e+01 4.342099999999999937e+01 -6.379603000000000357e+00 -1.139323423589984896e-01
7.453600000000000136e+01 4.294400000000000261e+01 3.645400000000000063e+01 4.453203000000000245e+00 8.380047981855762163e-02
7.453700000000000614e+01 5.845600000000000307e+01 2.928699999999999903e+01 -4.190481000000000122e+00 -1.222539509195915003e-01
7.453900000000000148e+01 4.426800000000000068e+01 3.035800000000000054e+01 -1.152460999999999958e+00 -3.216652754099355027e-01
7.454500000000000171e+01 6.185699999999999932e+01 2.082499999999999929e+01 2.385741000000000112e-01 -2.092490011915659198e-01
7.454600000000000648e+01 6.542100000000000648e+01 1.660399999999999920e+01 2.838214999999999932e+00 -6.058969720337502307e-02
7.455599999999999739e+01 5.296600000000000108e+01 3.804399999999999693e+01 5.406742999999999633e+00 -6.647802423710198749e-02
7.456499999999999773e+01 7.838899999999999579e+01 2.289199999999999946e+01 5.867079999999999629e+00 -7.412245732839368995e-02
7.456499999999999773e+01 7.850700000000000500e+01 2.373999999999999844e+01 1.283139999999999947e+00 -1.075922001301112402e-01
7.456600000000000250e+01 2.293700000000000117e+01 2.356899999999999906e+01 -1.291036000000000072e+01 -3.651392932004786096e-01
7.456699999999999307e+01 3.982999999999999829e+01 4.392799999999999727e+01 -4.025979999999999670e+00 -7.109545924426899366e-02
7.457200000000000273e+01 2.313400000000000034e+01 2.433399999999999963e+01 -9.100130999999999304e+00 -9.368412318709910813e-02
7.457399999999999807e+01 6.691100000000000136e+01 4.081199999999999761e+01 5.960905999999999594e+00 -6.913958289573080007e-02
7.457399999999999807e+01 4.364200000000000301e+01 3.617699999999999960e+01 6.562396999999999814e+00 8.389902465612233962e-02
7.457500000000000284e+01 4.095499999999999829e+01 2.835399999999999920e+01 2.440659000000000134e+00 -2.703327382473535989e-01
7.457699999999999818e+01 6.308899999999999864e+01 2.440899999999999892e+01 1.336613000000000007e+01 -1.712676264073747512e-01
7.457699999999999818e+01 6.969899999999999807e+01 4.302900000000000347e+01 1.004995000000000083e+01 -2.028861180165559275e-01
7.457800000000000296e+01 7.362300000000000466e+01 1.750000000000000000e+01 -2.492227999999999943e-01 -1.766859757682698873e-01
7.457800000000000296e+01 8.005200000000000671e+01 3.590500000000000114e+01 3.361496000000000350e+01 -2.805116311774979443e-01
7.457800000000000296e+01 8.108599999999999852e+01 3.268099999999999739e+01 6.007077999999999918e+00 -3.875383472543582619e-01
7.457800000000000296e+01 8.129600000000000648e+01 3.341700000000000159e+01 2.069697000000000120e+00 -3.891707984464857217e-01
7.457800000000000296e+01 8.129600000000000648e+01 3.504699999999999704e+01 1.307209000000000003e+02 -3.934201818832988584e-01
7.457800000000000296e+01 8.152700000000000102e+01 3.423199999999999932e+01 -6.732325999999999588e+00 -3.911279558202312989e-01
7.457999999999999829e+01 2.275400000000000134e+01 2.032300000000000040e+01 -3.819951999999999792e+00 -3.323156297612845506e-02
7.457999999999999829e+01 2.427400000000000091e+01 2.032300000000000040e+01 -7.757176000000000293e+00 8.924625284645104628e-03
7.458100000000000307e+01 3.277600000000000335e+01 2.997500000000000142e+01 3.728059999999999974e+01 -1.398427105266468169e-04
7.458100000000000307e+01 3.646600000000000108e+01 2.997500000000000142e+01 9.947274000000000171e+00 -3.779782148255813601e-01
7.458100000000000307e+01 7.759600000000000364e+01 1.780799999999999983e+01 1.708798000000000039e+00 -1.209989645857407065e-01
7.458599999999999852e+01 7.485200000000000387e+01 1.814399999999999835e+01 5.869816000000000145e+00 -1.613861874525766571e-01
7.458799999999999386e+01 6.503700000000000614e+01 2.365200000000000102e+01 3.346025999999999812e+01 -1.383885127677186577e-01
7.459099999999999397e+01 6.233200000000000074e+01 2.869200000000000017e+01 6.993738999999999706e+00 -1.084996949897979179e-01
7.459799999999999898e+01 2.167099999999999937e+01 2.873900000000000077e+01 3.226183999999999941e+00 -1.450313134134125770e-01
7.459799999999999898e+01 2.192500000000000071e+01 2.784499999999999886e+01 1.464625000000000066e+00 -1.367138852856013276e-01
7.459799999999999898e+01 2.192500000000000071e+01 2.963299999999999912e+01 9.971750999999999365e+00 -1.742741328997909553e-02
7.460299999999999443e+01 6.062500000000000000e+01 2.166000000000000014e+01 -1.833042999999999978e+00 -1.975397434236040861e-01
7.460299999999999443e+01 6.215999999999999659e+01 2.012500000000000000e+01 -3.944037999999999711e-02 -2.007363829977959480e-01
7.460399999999999920e+01 6.522799999999999443e+01 1.736799999999999855e+01 -1.788421000000000038e-01 -6.609089690217043178e-02
7.460500000000000398e+01 3.568399999999999750e+01 2.469600000000000151e+01 2.309440000000000026e+01 -1.344265328970321860e-01
7.460500000000000398e+01 3.664200000000000301e+01 2.314600000000000080e+01 5.288886000000000109e+01 -1.241492767041854073e-01
7.460500000000000398e+01 3.664200000000000301e+01 2.469600000000000151e+01 3.888275000000000148e+01 -1.232196415911570170e-01
7.460699999999999932e+01 7.630500000000000682e+01 1.803600000000000136e+01 8.771219000000000321e+00 -1.437213326418906312e-01
7.461199999999999477e+01 2.795899999999999963e+01 3.499499999999999744e+01 -2.492252999999999830e+01 1.626837342776708481e-02
7.461199999999999477e+01 2.816799999999999926e+01 3.573100000000000165e+01 -5.043374000000000024e+00 2.030035135113419931e-02
7.461299999999999955e+01 5.779899999999999949e+01 2.677899999999999991e+01 -2.279234999999999900e+00 -1.262546130396788313e-01
7.461299999999999955e+01 2.805699999999999861e+01 3.652799999999999869e+01 -1.046540000000000070e+01 2.115442492968249918e-02
7.461299999999999955e+01 2.805699999999999861e+01 3.746800000000000352e+01 -1.355841000000000030e+01 -1.828347199510737819e-01
7.461499999999999488e+01 7.023699999999999477e+01 2.712300000000000111e+01 1.263893000000000022e+01 1.262109856204509661e-01
7.461599999999999966e+01 5.280499999999999972e+01 3.628699999999999903e+01 -1.195880000000000010e+01 -6.337810366970828002e-02
7.462300000000000466e+01 8.138800000000000523e+01 3.181599999999999895e+01 9.027979000000000198e+00 -3.732847862021689278e-01
7.462399999999999523e+01 5.683700000000000330e+01 3.125300000000000011e+01 3.270776999999999823e+00 -1.829350904209069151e-01
7.462699999999999534e+01 4.343500000000000227e+01 3.704299999999999926e+01 4.594337999999999589e+00 8.552753298124457504e-02
7.462699999999999534e+01 5.259700000000000131e+01 3.719400000000000261e+01 1.633024999999999893e-01 -6.554604282946753513e-02
7.463100000000000023e+01 3.155799999999999983e+01 2.715200000000000102e+01 -1.773489000000000004e+01 -5.597844975280633767e-02
7.463200000000000500e+01 7.729399999999999693e+01 4.025399999999999778e+01 -3.071205000000000140e+01 -5.225881771571359163e-02
7.463299999999999557e+01 5.297899999999999920e+01 3.563000000000000256e+01 -6.506255000000000344e+00 -6.192099977386816834e-02
7.463400000000000034e+01 6.457099999999999795e+01 3.068599999999999994e+01 -5.121887000000000079e+00 -4.365753092909324673e-02
7.463400000000000034e+01 6.457099999999999795e+01 3.220600000000000307e+01 -1.223990000000000045e+01 6.151743333003101277e-02
7.463500000000000512e+01 6.278499999999999659e+01 2.370899999999999963e+01 1.339389000000000074e+01 -1.902208877782900487e-01
7.464000000000000057e+01 4.131199999999999761e+01 4.472200000000000131e+01 1.162054000000000009e+01 6.118530063872183039e-02
7.464000000000000057e+01 4.236200000000000188e+01 4.472200000000000131e+01 1.022833999999999932e+01 -1.835960944405275741e-01
7.464300000000000068e+01 7.322199999999999420e+01 4.325500000000000256e+01 1.991957999999999984e+01 -2.679511631587286891e-01
7.464300000000000068e+01 7.477200000000000557e+01 4.325500000000000256e+01 2.080183000000000106e+02 -1.061267505052568144e-01
7.465300000000000580e+01 6.396600000000000108e+01 1.876800000000000068e+01 -3.055547000000000124e-01 -2.428838544633547467e-02
7.465600000000000591e+01 6.684199999999999875e+01 3.858700000000000330e+01 3.208574000000000037e+00 -6.501374587754209233e-02
7.465600000000000591e+01 4.054399999999999693e+01 2.873400000000000176e+01 -1.516404000000000085e+00 -2.640756154324495619e-01
7.465699999999999648e+01 7.918600000000000705e+01 2.080600000000000094e+01 -3.975468999999999653e+01 -3.137484656993018428e-02
7.465900000000000603e+01 3.496099999999999852e+01 2.438700000000000045e+01 2.490409000000000006e+01 -1.559605271165424023e-01
7.466500000000000625e+01 6.658400000000000318e+01 3.942099999999999937e+01 1.714421999999999890e+00 -6.705751020074680879e-02
7.466500000000000625e+01 6.414499999999999602e+01 2.301500000000000057e+01 2.421714000000000055e+01 -1.694319947385191927e-01
7.466599999999999682e+01 5.790200000000000102e+01 2.583699999999999974e+01 -1.569914000000000032e+00 -1.321638444736218110e-01
7.466599999999999682e+01 6.095400000000000063e+01 2.089999999999999858e+01 -8.240570999999999868e-01 -2.042678560992338688e-01
7.466700000000000159e+01 8.000799999999999557e+01 3.168700000000000117e+01 1.140259000000000000e+01 -3.758963934047363509e-01
7.467000000000000171e+01 3.697800000000000153e+01 2.392099999999999937e+01 3.402817999999999898e+01 -1.203390474133139154e-01
7.467499999999999716e+01 6.414600000000000080e+01 2.621099999999999852e+01 1.134326000000000079e+01 -2.569629058893719287e-01
7.467600000000000193e+01 3.025499999999999901e+01 2.234600000000000009e+01 -1.295349000000000084e+00 -3.592932558792815145e-01
7.468399999999999750e+01 8.174500000000000455e+01 2.568799999999999883e+01 7.520310000000000272e+00 -6.912407200627859738e-02
7.468600000000000705e+01 6.651500000000000057e+01 2.882300000000000040e+01 4.367196999999999996e+00 2.224358307179961081e-01
7.468600000000000705e+01 7.880100000000000193e+01 3.670700000000000074e+01 1.887396999999999991e+00 -2.894901890221083796e-01
7.468999999999999773e+01 7.014900000000000091e+01 1.612900000000000134e+01 7.898765000000000036e+00 7.057319300107792182e-03
7.469700000000000273e+01 6.424200000000000443e+01 3.144600000000000151e+01 -1.504471999999999987e+01 -4.670891067581936507e-02
7.469700000000000273e+01 6.577700000000000102e+01 3.298100000000000165e+01 -2.627673000000000147e+00 4.537344766094392884e-02
7.469700000000000273e+01 4.475300000000000011e+01 3.113500000000000156e+01 2.353471000000000046e+01 -3.308884947686733247e-01
7.470099999999999341e+01 6.800300000000000011e+01 4.311200000000000188e+01 7.451461000000000112e+00 -6.707371070331061280e-02
7.470300000000000296e+01 3.809899999999999665e+01 3.077599999999999980e+01 8.315322000000000546e-01 -3.739915754443533524e-01
7.470499999999999829e+01 4.398799999999999955e+01 4.218299999999999983e+01 2.353572000000000131e+01 -1.051245492004682508e-01
7.470600000000000307e+01 6.278999999999999915e+01 1.956599999999999895e+01 1.500763000000000069e+00 -1.896577764207686423e-01
7.470900000000000318e+01 2.355000000000000071e+01 3.088200000000000145e+01 2.037824000000000169e+01 -2.755098151540216062e-02
7.470900000000000318e+01 3.568599999999999994e+01 2.309299999999999997e+01 4.063756000000000057e+01 -1.241255894870239018e-01
7.470999999999999375e+01 6.676300000000000523e+01 2.778200000000000003e+01 1.423451000000000022e+01 1.237148425721035505e-01
7.471099999999999852e+01 4.273100000000000165e+01 4.387199999999999989e+01 1.286062000000000083e+01 -1.937107775127893672e-01
7.471599999999999397e+01 3.132799999999999940e+01 4.141400000000000148e+01 -1.751263000000000147e+01 1.649370624934922563e-02
7.471699999999999875e+01 5.696699999999999875e+01 3.481099999999999994e+01 2.682250000000000156e+01 -2.138239935007150427e-01
7.472299999999999898e+01 6.444799999999999329e+01 2.371499999999999986e+01 2.819238000000000000e+01 -1.590776259051382424e-01
7.472499999999999432e+01 8.031100000000000705e+01 3.238700000000000045e+01 2.103360999999999947e+01 -3.880578984518402441e-01
7.472599999999999909e+01 2.247700000000000031e+01 2.642099999999999937e+01 -1.599401999999999990e+00 -1.154573718892317052e-01
7.473099999999999454e+01 3.009100000000000108e+01 3.385699999999999932e+01 3.784864999999999924e+00 -1.693031225838494414e-01
7.473099999999999454e+01 3.156299999999999883e+01 3.385699999999999932e+01 1.856362000000000023e+01 -1.519210747705418973e-01
7.473499999999999943e+01 6.619499999999999318e+01 2.946799999999999997e+01 2.629049000000000191e+00 2.312530448293849683e-01
7.473799999999999955e+01 6.643600000000000705e+01 2.687300000000000111e+01 1.064771000000000001e+01 1.697571611878399556e-01
7.474099999999999966e+01 4.285499999999999687e+01 4.294100000000000250e+01 1.715584000000000131e+01 -2.042377177960957579e-01
7.474099999999999966e+01 4.511999999999999744e+01 4.294100000000000250e+01 2.946668999999999983e+01 -1.127604629742997855e-01
7.474500000000000455e+01 4.220799999999999841e+01 3.645400000000000063e+01 4.356141000000000041e+00 8.835547025624386486e-02
7.474699999999999989e+01 6.694400000000000261e+01 3.739900000000000091e+01 1.792398999999999987e+01 -6.163189616137408622e-02
7.475000000000000000e+01 3.597699999999999676e+01 4.376200000000000045e+01 2.027276000000000167e+01 -1.092963326262999871e-02
7.475300000000000011e+01 6.406100000000000705e+01 2.495100000000000051e+01 1.731846000000000174e+01 -2.690784068390546513e-01
7.475499999999999545e+01 6.547400000000000375e+01 3.061100000000000065e+01 -1.552429000000000059e+01 2.527423079010435725e-01
7.475499999999999545e+01 6.547400000000000375e+01 3.228099999999999881e+01 -3.052464000000000155e+01 4.414461179075717528e-02
7.475499999999999545e+01 4.489200000000000301e+01 3.903199999999999648e+01 1.094721000000000011e+01 -1.075473228360070976e-01
7.475499999999999545e+01 4.629200000000000159e+01 3.903199999999999648e+01 5.480694999999999872e+00 -1.141609722576901742e-01
7.475499999999999545e+01 4.781199999999999761e+01 3.903199999999999648e+01 2.602542999999999829e+00 2.701284955266446824e-02
7.475600000000000023e+01 3.444700000000000273e+01 4.288199999999999790e+01 1.545838000000000001e+01 -6.282748777475052546e-03
7.476000000000000512e+01 3.309100000000000108e+01 2.273100000000000165e+01 7.472711000000000325e+00 -1.004989033566403150e-01
7.476000000000000512e+01 3.414099999999999824e+01 2.273100000000000165e+01 1.415700999999999965e+01 -1.125269569765444955e-01
7.476000000000000512e+01 3.414099999999999824e+01 2.443100000000000094e+01 2.603323999999999927e+01 -1.315877834544102454e-01
7.477599999999999625e+01 3.226700000000000301e+01 4.151299999999999812e+01 -3.776142000000000110e+01 4.254750387364869199e-03
7.477599999999999625e+01 3.125900000000000034e+01 2.247700000000000031e+01 3.110292999999999974e+00 -3.569281282065250305e-01
7.477899999999999636e+01 3.099899999999999878e+01 4.065400000000000347e+01 -2.250678999999999874e+01 -7.999999999999998779e-02
7.478199999999999648e+01 7.123600000000000421e+01 1.700700000000000145e+01 1.285645000000000060e+01 2.284675063556435709e-02
7.478300000000000125e+01 3.164499999999999957e+01 2.317299999999999827e+01 9.116573999999999955e+00 -9.115556363106139259e-02
7.478300000000000125e+01 2.642699999999999960e+01 2.034700000000000131e+01 -2.666303000000000090e+00 -3.684341546221813202e-01
7.478300000000000125e+01 2.787300000000000111e+01 2.115299999999999869e+01 4.802801999999999905e-01 -3.664792199383068438e-01
7.478300000000000125e+01 2.212000000000000099e+01 2.722400000000000020e+01 -4.098782000000000258e-01 -1.255199494656029091e-01
7.478900000000000148e+01 3.535699999999999932e+01 2.392099999999999937e+01 3.030274999999999963e+01 -1.321193880540637022e-01
7.478900000000000148e+01 3.039399999999999835e+01 3.315699999999999648e+01 2.081205999999999889e+01 -1.552284459066143874e-01
7.478900000000000148e+01 3.039399999999999835e+01 3.455700000000000216e+01 7.051218000000000430e+00 -1.769717586392366426e-01
7.478900000000000148e+01 3.126000000000000156e+01 3.315699999999999648e+01 2.908607999999999905e+01 -1.417334362273105774e-01
7.478900000000000148e+01 3.126000000000000156e+01 3.455700000000000216e+01 7.628006000000000064e+00 -1.752475122738124669e-01
7.479300000000000637e+01 3.932900000000000063e+01 4.335199999999999676e+01 -1.581709000000000032e+01 -9.644406634264859890e-02
7.479399999999999693e+01 4.733299999999999841e+01 4.405499999999999972e+01 -1.314199999999999946e+01 6.017476012574679914e-03
7.479699999999999704e+01 8.281499999999999773e+01 3.110099999999999909e+01 2.065698000000000079e+01 -3.756177998909651650e-01
7.479699999999999704e+01 8.413400000000000034e+01 3.036599999999999966e+01 7.679592999999999847e+01 -3.929310127850266787e-01
7.479699999999999704e+01 8.436499999999999488e+01 2.955099999999999838e+01 3.740917999999999921e+01 -3.949448941214478426e-01
7.479699999999999704e+01 4.545400000000000063e+01 3.450800000000000267e+01 9.983475999999999573e+00 3.266213967533572460e-02
7.480299999999999727e+01 3.938199999999999790e+01 2.990800000000000125e+01 1.125186999999999937e+00 -3.792949806379868893e-01
7.480400000000000205e+01 4.251100000000000279e+01 3.575399999999999778e+01 1.690704999999999902e+00 8.938632005111428469e-02
7.480400000000000205e+01 4.251100000000000279e+01 3.715400000000000347e+01 4.006967000000000390e+00 9.191376094763994975e-02
7.480400000000000205e+01 5.961099999999999710e+01 2.301899999999999835e+01 -2.241576999999999931e+00 -1.726405170977996506e-01
7.480700000000000216e+01 4.092499999999999716e+01 4.397800000000000153e+01 1.001205000000000034e+01 -1.565801571272897041e-01
7.480700000000000216e+01 3.103999999999999915e+01 2.990700000000000003e+01 3.429664999999999964e+01 1.652049623653224168e-03
7.480899999999999750e+01 6.020900000000000318e+01 2.949099999999999966e+01 1.261617999999999995e+01 -1.084356516507370694e-01
7.481100000000000705e+01 7.597799999999999443e+01 4.115200000000000102e+01 -6.559511999999999787e+00 -6.494401017114045938e-02
7.481499999999999773e+01 5.383200000000000074e+01 3.853900000000000148e+01 1.124025999999999925e+01 -6.551469815751234660e-02
7.481799999999999784e+01 7.122499999999999432e+01 4.187299999999999756e+01 2.658903000000000105e+01 -1.530372814612147303e-01
7.481799999999999784e+01 2.653600000000000136e+01 3.320499999999999829e+01 -4.886369000000000185e+00 -1.060517156662691834e-01
