-5.385299999999999976e+00 -2.137500000000000000e+01 8.203300000000000480e+00 -3.806583999999999968e+00 3.406927561313368574e-02
-5.385299999999999976e+00 -1.967500000000000071e+01 8.203300000000000480e+00 -3.919188999999999812e+00 5.018236079311120396e-02
-5.380399999999999849e+00 -1.673400000000000176e+01 -1.781800000000000050e+00 -4.243913000000000046e+00 2.104660878209026198e-02
-5.374600000000000044e+00 -3.246600000000000108e+01 9.215199999999999392e+00 -1.250737999999999950e+01 8.642832762008119396e-02
-5.370599999999999596e+00 -1.552100000000000080e+01 5.118999999999999773e+00 -4.251989000000000019e+00 5.162092627630354702e-02
-5.370000000000000107e+00 -2.768900000000000006e+01 -4.312500000000000000e+00 -1.846192999999999973e+00 9.893586021223966381e-03
-5.365899999999999892e+00 -3.220799999999999841e+01 8.422700000000000742e+00 -6.777266000000000012e+00 8.621692248319275109e-02
-5.363999999999999879e+00 -3.435300000000000153e+01 1.335500000000000043e+01 4.317713000000000356e+00 9.509379886217850242e-02
-5.358900000000000219e+00 -3.265800000000000125e+01 4.807999999999999829e+00 -2.387636999999999787e+00 8.807057369184842499e-02
-5.350999999999999979e+00 3.120100000000000051e+01 1.818799999999999883e+01 4.920072000000000223e+00 -3.638891644762990429e-01
-5.348300000000000054e+00 3.299699999999999989e+01 3.620100000000000051e+01 -2.939920000000000044e+01 -1.991010662385696572e-01
-5.339000000000000412e+00 3.149299999999999855e+01 1.528700000000000081e+01 -5.439734999999999765e+00 -2.817363506251699956e-01
-5.336899999999999977e+00 -2.712600000000000122e+01 -4.663100000000000023e+00 -1.944248999999999894e+00 1.049914592530570498e-02
-5.325700000000000323e+00 -1.621199999999999974e+01 4.828000000000000291e+00 -7.857385999999999981e+00 5.236790930761945490e-02
-5.315999999999999837e+00 3.167699999999999960e+01 3.395300000000000296e+01 -1.299588999999999928e+01 -2.014383541424902835e-01
-5.314799999999999969e+00 -3.002599999999999980e+01 1.431300000000000061e+01 -9.662902000000000768e+00 9.579728016450164696e-02
-5.313399999999999679e+00 -1.875799999999999912e+01 -4.774099999999999788e+00 -1.496003999999999889e+00 2.178176617538615453e-02
-5.308900000000000396e+00 -2.403099999999999881e+01 9.733499999999999375e+00 -4.867026000000000074e+00 6.272080882917596689e-02
-5.304000000000000270e+00 -3.977499999999999858e+01 1.157799999999999940e+01 -6.956370999999999860e+00 -5.225919694895984208e-02
-5.299999999999999822e+00 2.868799999999999883e+01 3.543099999999999739e+01 -9.056416999999999717e+00 -1.991820753947793898e-01
-5.299999999999999822e+00 2.868799999999999883e+01 3.648100000000000165e+01 -9.375987000000000293e+00 -1.976993535764238752e-01
-5.295499999999999652e+00 2.729299999999999926e+01 1.825799999999999912e+01 -9.340740999999999516e+00 -3.635846283482597752e-01
-5.285599999999999632e+00 -1.758899999999999864e+01 3.604699999999999793e+00 -9.719528000000000389e+00 -2.911428204302584505e-02
-5.285599999999999632e+00 -1.611700000000000088e+01 3.604699999999999793e+00 -4.553552999999999962e+00 -2.988533753429428036e-02
-5.279200000000000337e+00 -2.150199999999999889e+01 1.382699999999999996e+01 -9.778325000000000600e+00 7.962507718683145552e-02
-5.276500000000000412e+00 -2.126500000000000057e+01 1.468699999999999939e+01 -2.098725999999999914e+01 1.014555230928290558e-01
-5.264800000000000146e+00 -2.147899999999999920e+01 1.550900000000000034e+01 -2.946818999999999988e+01 1.188620715388765958e-01
-5.262299999999999756e+00 2.608599999999999852e+01 1.719699999999999918e+01 -9.204928999999999917e+00 -3.635889867788573704e-01
-5.262299999999999756e+00 2.778600000000000136e+01 1.444699999999999918e+01 -6.137806000000000317e+00 -2.807209378055260940e-01
-5.256999999999999673e+00 -2.341100000000000136e+01 1.742399999999999949e+01 -8.228778000000000148e+00 -4.000000000000000777e-02
-5.256999999999999673e+00 -2.211799999999999855e+01 1.670299999999999940e+01 8.632433000000000467e-01 -4.000000000000000083e-02
-5.256700000000000372e+00 -2.322899999999999920e+01 1.164199999999999946e+01 1.230001000000000011e-01 1.878564597806790457e-02
-5.256000000000000227e+00 -1.852599999999999980e+01 -5.589000000000000412e+00 -2.133239000000000107e+00 2.407500823160763775e-02
-5.249600000000000044e+00 -2.197800000000000153e+01 1.337400000000000055e+01 -3.950490999999999975e+00 7.013745027878107163e-02
-5.246100000000000207e+00 -3.122599999999999909e+01 -1.169000000000000039e+00 2.406820000000000093e+01 2.631459912541769253e-01
-5.242700000000000138e+00 -2.425000000000000000e+01 8.852100000000000080e+00 -8.411239000000000132e+00 6.608568742317907918e-02
-5.242700000000000138e+00 -2.404100000000000037e+01 8.115999999999999659e+00 -1.356174000000000035e+01 6.788472427021768896e-02
-5.242700000000000138e+00 -2.285000000000000142e+01 7.452099999999999724e+00 -5.353851999999999833e+00 3.570412802797100216e-02
-5.232999999999999652e+00 -1.624800000000000111e+01 4.297100000000000364e+00 -6.246285999999999561e+00 -3.708316633717868849e-02
-5.227400000000000269e+00 -1.642000000000000171e+01 2.904700000000000060e+00 -5.768998999999999988e+00 -2.370040688257873257e-02
-5.209999999999999964e+00 -4.103999999999999915e+01 9.772000000000000242e+00 -6.580161999999999622e+00 -5.251774624424433713e-02
-5.208999999999999631e+00 2.765099999999999980e+01 1.919699999999999918e+01 -7.825703999999999994e+00 -3.635396666001741162e-01
-5.208999999999999631e+00 2.896999999999999886e+01 1.993199999999999861e+01 5.002102000000000004e+01 -2.762516758113447990e-01
-5.206999999999999851e+00 3.037300000000000111e+01 3.835199999999999676e+01 -1.488565999999999967e+01 -1.959461750541305058e-01
-5.206999999999999851e+00 3.166600000000000037e+01 3.907300000000000040e+01 -3.418410000000000082e+01 -1.957299053897865737e-01
-5.206999999999999851e+00 3.295900000000000318e+01 3.835199999999999676e+01 -4.035014999999999930e+01 -1.968868124822531207e-01
-5.206999999999999851e+00 3.318599999999999994e+01 3.755299999999999727e+01 -2.363447999999999993e+01 -1.977112492720942694e-01
-5.205700000000000216e+00 -4.082800000000000296e+01 1.070899999999999963e+01 -6.046888000000000041e+00 -5.193794140473915327e-02
-5.197700000000000209e+00 -1.568500000000000050e+01 -2.248099999999999987e+00 -3.127600000000000158e+00 1.316011546355372042e-01
-5.195999999999999730e+00 -3.292799999999999727e+01 1.428500000000000014e+01 3.379449000000000147e+00 9.665570233970291469e-02
-5.189400000000000013e+00 -2.176699999999999946e+01 1.594599999999999973e+01 -2.254292999999999836e+01 -4.000000000000000083e-02
-5.187000000000000277e+00 -1.828300000000000125e+01 7.473099999999999632e+00 -4.947287000000000212e+00 7.860542185947183569e-02
-5.177599999999999980e+00 3.306400000000000006e+01 3.673700000000000188e+01 -2.517879999999999896e+01 -1.984634574599775936e-01
-5.176300000000000345e+00 -1.415900000000000070e+01 -3.338700000000000001e-01 -6.239380999999999844e+00 1.501089410727425577e-01
-5.175900000000000389e+00 2.503500000000000014e+01 1.582199999999999918e+01 -9.971353999999999829e+00 -3.639244725147411375e-01
-5.172100000000000364e+00 3.092500000000000071e+01 3.363600000000000279e+01 -1.254302000000000028e+01 -2.017203465569978316e-01
-5.166999999999999815e+00 -3.996500000000000341e+01 1.037899999999999956e+01 -5.280959000000000181e+00 -5.311006214859986807e-02
-5.161100000000000243e+00 -4.024900000000000233e+01 1.081000000000000050e+01 -6.018222999999999878e+00 -5.239781585557038573e-02
-5.155700000000000394e+00 -2.273600000000000065e+01 1.242699999999999960e+01 -1.439454999999999929e+00 1.761677628818343264e-02
-5.153999999999999915e+00 -1.431000000000000050e+01 -1.327299999999999924e+00 -4.682597000000000342e+00 1.494617250548173071e-01
-5.150999999999999801e+00 -2.542500000000000071e+01 -5.240999999999999659e+00 -3.502416999999999891e+00 1.192492262265871898e-02
-5.147000000000000242e+00 -3.218099999999999739e+01 6.883300000000000196e+00 -8.466117000000000559e+00 8.665959833883096763e-02
-5.147000000000000242e+00 -3.218099999999999739e+01 7.748599999999999710e+00 -6.081351999999999869e+00 8.635568368786859794e-02
-5.145299999999999763e+00 2.984199999999999875e+01 3.377900000000000347e+01 -8.983238000000000056e+00 -2.015085838473915647e-01
-5.143099999999999561e+00 -3.889699999999999847e+01 1.160200000000000031e+01 -1.145513000000000048e+01 -5.305305392011985116e-02
-5.137400000000000411e+00 3.003300000000000125e+01 1.475900000000000034e+01 -6.571373000000000353e+00 -2.814807451337875688e-01
-5.123400000000000176e+00 3.166100000000000136e+01 1.731299999999999883e+01 -9.176282000000000494e+00 -3.641051469340016999e-01
-5.122600000000000264e+00 3.078500000000000014e+01 1.911199999999999832e+01 -6.197794000000000025e+00 -3.499999999999999778e-01
-5.121999999999999886e+00 -2.861400000000000077e+01 1.599499999999999922e+01 -1.510694999999999943e+01 1.035479839104571365e-01
-5.121999999999999886e+00 -2.828900000000000148e+01 1.673199999999999932e+01 -9.071925999999999490e+00 1.075058957619710737e-01
-5.121999999999999886e+00 -2.699599999999999866e+01 1.745299999999999940e+01 -3.282451999999999970e+01 1.142746863952601721e-01
-5.121999999999999886e+00 -1.287899999999999956e+01 2.445699999999999985e+00 -9.485718000000000316e+00 -1.291123578819177720e-01
-5.121999999999999886e+00 -1.287899999999999956e+01 3.496300000000000185e+00 -1.339948000000000050e+01 -1.417876915460783427e-01
-5.115400000000000169e+00 -1.709499999999999886e+01 4.662200000000000344e+00 -1.091177000000000064e+00 5.705960945401732098e-02
-5.105299999999999727e+00 -3.471699999999999875e+01 1.260899999999999999e+01 4.974304000000000059e+00 9.387998664034082064e-02
-5.098900000000000432e+00 -4.024199999999999733e+01 9.772000000000000242e+00 -6.136684999999999945e+00 -5.327823129430214744e-02
-5.085700000000000109e+00 -2.394900000000000162e+01 -4.559099999999999930e+00 -1.325830999999999982e+01 1.148175424580827504e-02
-5.078299999999999592e+00 -1.425399999999999956e+01 4.417099999999999582e+00 4.655534000000000283e+00 -3.094374352336987100e-02
-5.077799999999999869e+00 -2.522800000000000153e+01 1.699599999999999866e+01 -1.428369000000000000e+01 1.186020189341027153e-01
-5.076999999999999957e+00 -4.057399999999999807e+01 1.157799999999999940e+01 -6.139689999999999870e+00 -5.126180570481342347e-02
-5.071799999999999642e+00 -1.796999999999999886e+01 -4.778699999999999726e+00 -5.206096999999999753e+00 2.417133333709338763e-02
-5.067000000000000171e+00 -3.160399999999999920e+01 1.386500000000000021e+01 -9.867146999999999224e+00 9.504930675599423950e-02
-5.065000000000000391e+00 -1.819999999999999929e+01 -4.262599999999999945e+00 -4.722097999999999907e+00 2.206549255638935031e-02
-5.065000000000000391e+00 -1.819999999999999929e+01 -3.397400000000000198e+00 -7.868248000000000353e+00 1.945550146393936267e-02
-5.058300000000000018e+00 -1.664399999999999835e+01 5.527999999999999581e+00 -1.990973999999999933e+01 6.966563316737775513e-02
-5.058300000000000018e+00 -1.664399999999999835e+01 7.048000000000000043e+00 -6.867867999999999995e+01 1.154074111795486968e-01
-5.054899999999999949e+00 2.526899999999999835e+01 1.464499999999999957e+01 -1.055799999999999983e+01 -3.644812725571925927e-01
-5.049000000000000377e+00 -1.751200000000000045e+01 2.624299999999999855e+00 -1.061025000000000063e+01 -2.363031004987453318e-02
-5.040000000000000036e+00 3.135900000000000176e+01 1.409500000000000064e+01 -7.347120999999999569e+00 -2.818846898283079994e-01
-5.023399999999999643e+00 -1.831099999999999994e+01 3.823900000000000077e+00 -1.604380000000000095e+01 5.799776980725883380e-02
-5.023299999999999876e+00 -3.160399999999999920e+01 1.465000000000000080e+00 1.957163999999999904e+00 2.644532040384870997e-01
-5.015900000000000247e+00 -2.415299999999999869e+01 1.051399999999999935e+01 2.842779000000000167e+00 6.112915454217828642e-02
-5.014000000000000234e+00 -1.410399999999999920e+01 4.630500000000000171e-01 -5.442039000000000293e+00 1.461095392017758010e-01
-5.013700000000000045e+00 -4.024499999999999744e+01 1.233799999999999919e+01 -5.985851000000000255e+00 -5.072993507332704960e-02
-5.013700000000000045e+00 -3.930499999999999972e+01 1.233799999999999919e+01 -6.801245999999999903e+00 -5.163657070510985214e-02
-5.002100000000000435e+00 -1.763200000000000145e+01 -5.589000000000000412e+00 -4.370504000000000389e+00 2.677987351822370271e-02
-4.996999999999999886e+00 -3.158899999999999864e+01 3.690599999999999881e+00 3.038120999999999738e-01 8.796014496501755597e-02
-4.995000000000000107e+00 -1.631500000000000128e+01 6.288000000000000256e+00 -6.305655999999999750e+01 8.706780153203234895e-02
-4.991699999999999804e+00 -1.526200000000000045e+01 4.368400000000000283e+00 -1.934917999999999916e+00 -4.097510655466914120e-02
-4.989300000000000068e+00 -2.942899999999999849e+01 1.497700000000000031e+01 -7.852222000000000257e+00 9.851855534905648581e-02
-4.982999999999999652e+00 -4.183899999999999864e+01 9.772000000000000242e+00 -8.047338999999999132e+00 -5.156601651160121202e-02
-4.980999999999999872e+00 3.242799999999999727e+01 3.461699999999999733e+01 -1.663049000000000177e+01 -2.004769759419295083e-01
-4.978900000000000325e+00 -1.565600000000000058e+01 3.529199999999999893e+00 -5.679300999999999711e+00 -3.385089012778973172e-02
-4.978900000000000325e+00 -3.184600000000000009e+01 5.594700000000000228e-01 5.925701000000000107e+00 2.640482136949034442e-01
-4.977500000000000036e+00 -2.316700000000000159e+01 1.219899999999999984e+01 -5.128686000000000078e-01 1.744471612972437954e-02
-4.975299999999999834e+00 2.921300000000000097e+01 3.733100000000000307e+01 -9.597265999999999408e+00 -1.964890386709988723e-01
-4.965099999999999625e+00 -1.800700000000000145e+01 3.123899999999999899e+00 -1.500924000000000014e+01 -2.819583119817701405e-02
-4.965099999999999625e+00 -1.800700000000000145e+01 4.523900000000000254e+00 -4.278399000000000285e+00 6.398410327567702338e-02
-4.963300000000000267e+00 -3.049200000000000088e+01 -1.239999999999999991e+00 8.008119999999999905e+00 2.631253567555986161e-01
-4.956500000000000128e+00 3.180699999999999861e+01 1.643199999999999861e+01 -6.191986000000000434e-01 -3.643083572318643326e-01
-4.937199999999999811e+00 2.859900000000000020e+01 1.467200000000000060e+01 -2.588833999999999858e+00 -2.812321436243711004e-01
-4.934400000000000119e+00 -3.208800000000000097e+01 -3.460199999999999942e-01 6.497527999999999970e+00 2.636756822594396032e-01
-4.932599999999999874e+00 -2.746799999999999997e+01 -5.092900000000000205e+00 -2.603019999999999889e+00 1.073740897713830293e-02
-4.931300000000000239e+00 -1.905099999999999838e+01 -6.439000000000000057e+00 -1.372039000000000009e+00 2.351677499823732337e-02
-4.931300000000000239e+00 -1.800100000000000122e+01 -6.439000000000000057e+00 -2.703807999999999989e+00 2.657498185864028833e-02
-4.928300000000000125e+00 -1.597199999999999953e+01 2.768899999999999917e+00 -4.760283000000000264e+00 -2.557926887378739883e-02
-4.925300000000000011e+00 -3.388600000000000279e+01 1.383600000000000030e+01 1.094411000000000023e+01 9.595635088504962662e-02
-4.921000000000000263e+00 -2.390899999999999892e+01 1.134200000000000053e+01 1.286524999999999963e+01 2.009490276985527110e-02
-4.919699999999999740e+00 -4.150999999999999801e+01 9.012000000000000455e+00 -5.744303000000000381e+00 -5.239421082334620727e-02
-4.919699999999999740e+00 -4.150999999999999801e+01 1.053200000000000003e+01 -1.959532000000000096e+01 -5.121180891001018282e-02
-4.919699999999999740e+00 -4.057000000000000028e+01 9.012000000000000455e+00 -7.343449999999999811e+00 -5.337494446787288682e-02
-4.918599999999999639e+00 -2.623999999999999844e+01 -5.298399999999999999e+00 -3.607803000000000093e+00 1.142001245305827514e-02
-4.913100000000000023e+00 -3.907099999999999795e+01 1.037899999999999956e+01 -3.032058999999999838e+00 -5.392328854512369596e-02
-4.913000000000000256e+00 -1.649099999999999966e+01 -2.285400000000000098e+00 -2.487124999999999808e+00 2.364301779378112298e-02
-4.906500000000000306e+00 -2.091199999999999903e+01 -4.433300000000000018e+00 -1.184054000000000073e+01 1.474654024472487647e-02
-4.902000000000000135e+00 2.870899999999999963e+01 3.448499999999999943e+01 -6.975965000000000416e+00 -2.002105048127215681e-01
-4.894300000000000317e+00 -1.771699999999999875e+01 7.064600000000000435e+00 -1.062932999999999950e+01 9.025138767721993527e-02
-4.888200000000000323e+00 3.049500000000000099e+01 1.404700000000000060e+01 -9.445244000000000639e+00 -2.817680609451218565e-01
-4.866999999999999993e+00 -3.252499999999999858e+01 8.335599999999999454e+00 -5.143453000000000053e+00 8.663070822237230184e-02
-4.866200000000000081e+00 2.686400000000000077e+01 1.772899999999999920e+01 -9.553613999999999606e+00 -3.635587227637918639e-01
-4.860000000000000320e+00 -2.052499999999999858e+01 8.528000000000000469e+00 -7.596776000000000195e+00 3.235531102572995060e-02
-4.849899999999999878e+00 -1.406799999999999962e+01 1.270199999999999996e+00 -2.484287999999999830e+00 1.361214829736850374e-01
-4.849000000000000199e+00 -2.940099999999999980e+01 -1.719999999999999973e+00 9.517222999999999544e+00 2.627663453222491841e-01
-4.844599999999999795e+00 -2.173300000000000054e+01 1.533799999999999919e+01 -1.218852000000000046e+01 1.175195985608693261e-01
-4.842299999999999827e+00 -3.943999999999999773e+01 9.528999999999999915e+00 -5.178423000000000442e+00 -5.419655759693579183e-02
-4.839199999999999946e+00 -2.190800000000000125e+01 -4.106700000000000017e+00 -1.074582999999999977e+01 1.213073920759157563e-02
-4.836899999999999977e+00 -2.174599999999999866e+01 1.428200000000000003e+01 -7.352854999999999919e+00 8.947919349622640572e-02
-4.833999999999999631e+00 2.933299999999999841e+01 1.481700000000000017e+01 -6.648703000000000252e+00 -2.815070017771461042e-01
-4.833700000000000330e+00 3.186599999999999966e+01 1.497499999999999964e+01 -6.898238000000000092e+00 -2.821069402152543426e-01
-4.829299999999999926e+00 -1.483500000000000085e+01 -2.177299999999999791e+00 5.174805000000000099e-01 1.417816169041415109e-01
-4.828100000000000058e+00 2.699299999999999855e+01 1.401900000000000013e+01 -8.162646000000000512e+00 -2.808361300012663375e-01
-4.822499999999999787e+00 2.542699999999999960e+01 1.678699999999999903e+01 -1.053250000000000064e+01 -3.635497997707782813e-01
-4.821600000000000108e+00 3.020499999999999829e+01 1.990399999999999991e+01 9.360302000000000788e+00 -2.760864096007832891e-01
-4.817300000000000360e+00 -1.903200000000000003e+01 7.819700000000000095e+00 -2.667186999999999752e-01 6.243605186515178984e-02
-4.817000000000000171e+00 -2.267800000000000082e+01 1.310699999999999932e+01 1.692717999999999945e+00 6.663450071292556509e-02
-4.812999999999999723e+00 3.215800000000000125e+01 1.409500000000000064e+01 -1.561716999999999977e+01 -2.822036097897485107e-01
-4.809999999999999609e+00 -2.355000000000000071e+01 7.719400000000000261e+00 -9.158179000000000514e+00 6.729366571181395751e-02
-4.809999999999999609e+00 -2.214999999999999858e+01 7.719400000000000261e+00 -5.559772999999999854e+00 3.291304320279058587e-02
-4.802999999999999936e+00 -2.475600000000000023e+01 1.134200000000000053e+01 1.752747000000000099e+01 2.491458306248203053e-02
-4.799000000000000377e+00 1.493900000000000006e+01 1.210899999999999999e+01 -1.543717000000000006e+01 -1.303220652033967863e-01
-4.797100000000000364e+00 -3.516199999999999903e+01 1.101600000000000001e+01 -2.490317000000000114e+00 -5.907240106393022577e-02
-4.787300000000000111e+00 -2.265099999999999980e+01 1.713400000000000034e+01 1.859763000000000090e+02 -4.000000000000000083e-02
-4.786500000000000199e+00 -3.276500000000000057e+01 6.197499999999999787e+00 -4.462454000000000143e+00 8.755798316325144603e-02
-4.776099999999999568e+00 -3.245600000000000307e+01 -1.054300000000000015e+00 2.033640999999999810e+00 2.634604075757839836e-01
-4.770800000000000374e+00 2.897700000000000031e+01 3.400999999999999801e+01 -7.378198000000000256e+00 -2.008207492180413278e-01
-4.767999999999999794e+00 -1.711400000000000077e+01 6.288000000000000256e+00 -2.393586000000000169e+01 9.386947826554135899e-02
-4.763799999999999812e+00 -1.862999999999999901e+01 3.358000000000000096e+00 -3.538638000000000261e+01 -2.977189923735932414e-02
-4.750300000000000189e+00 2.935900000000000176e+01 3.323199999999999932e+01 -8.104803999999999675e+00 -2.019443754537856572e-01
-4.749699999999999811e+00 3.088899999999999935e+01 1.333500000000000085e+01 -7.930861000000000161e+00 -2.819821117141850797e-01
-4.749699999999999811e+00 3.182900000000000063e+01 1.333500000000000085e+01 -7.636116999999999599e+00 -2.822017016778727294e-01
-4.745599999999999596e+00 -2.498799999999999955e+01 1.052699999999999925e+01 -5.436931000000000402e+00 6.557834456252484290e-02
-4.737300000000000288e+00 3.090599999999999881e+01 3.878300000000000125e+01 -4.859996000000000294e+01 -1.953696682705314269e-01
-4.737300000000000288e+00 3.242600000000000193e+01 3.878300000000000125e+01 -9.556130000000000280e+01 -1.959976699874363959e-01
-4.734899999999999665e+00 -3.518500000000000227e+01 1.204700000000000060e+01 -1.201426000000000105e+00 -5.729710863393783216e-02
-4.733600000000000030e+00 -1.763299999999999912e+01 5.387999999999999901e+00 7.763099000000000416e+00 7.484872769065116505e-02
-4.730000000000000426e+00 2.819500000000000028e+01 1.963599999999999923e+01 1.916084999999999994e+01 -2.762202958423917165e-01
-4.728399999999999714e+00 -3.456600000000000250e+01 1.031499999999999950e+01 -2.517749999999999932e+00 -6.123620288005030693e-02
-4.726099999999999746e+00 -2.417000000000000171e+01 1.723199999999999932e+01 -3.567693999999999921e+00 1.283348596571099454e-01
-4.706299999999999706e+00 -4.114900000000000091e+01 1.134900000000000020e+01 -1.066347000000000023e+01 -5.063708769423350825e-02
-4.705499999999999794e+00 -1.832700000000000173e+01 2.657999999999999918e+00 -2.426771000000000100e+01 -2.606648429939677561e-02
-4.697700000000000209e+00 -1.559900000000000020e+01 2.165299999999999780e+00 -3.289776999999999951e+00 -1.778226898052394020e-02
-4.689400000000000013e+00 -2.910500000000000043e+01 1.559800000000000075e+01 -9.984861999999999682e+00 1.015594347326234798e-01
-4.689400000000000013e+00 -2.616100000000000136e+01 1.728399999999999892e+01 -2.467549999999999955e+01 1.173172119285577075e-01
-4.687299999999999578e+00 -2.468499999999999872e+01 9.827099999999999724e+00 -6.159866000000000064e+00 6.457023466206021634e-02
-4.683300000000000018e+00 -2.837900000000000134e+01 -3.771199999999999886e+00 1.477267000000000108e+00 2.616212058109387839e-01
-4.681000000000000050e+00 -3.130199999999999960e+01 2.519299999999999873e+00 -3.487920999999999938e-01 8.865756698350457654e-02
-4.681000000000000050e+00 -3.130199999999999960e+01 3.384599999999999831e+00 -5.624495000000000466e-01 8.801449858865430242e-02
-4.668000000000000149e+00 -2.449599999999999866e+01 -5.011499999999999844e+00 -5.218372999999999706e+00 1.155280682410390024e-02
-4.663700000000000401e+00 3.036700000000000088e+01 3.318299999999999983e+01 -9.447238000000000469e+00 -2.019194782065478200e-01
-4.659200000000000230e+00 -3.241700000000000159e+01 1.413400000000000034e+01 -3.649865999999999833e+00 9.621916931221589919e-02
-4.656100000000000350e+00 -3.257800000000000296e+01 7.315999999999999837e+00 -4.774267000000000039e+00 8.697143223533018719e-02
-4.653599999999999959e+00 -2.434100000000000108e+01 1.204199999999999982e+01 3.356907000000000085e+00 6.557800056240463416e-02
-4.653100000000000236e+00 -2.324899999999999878e+01 -4.291699999999999626e+00 -8.874682999999999211e+00 1.088090906292227614e-02
-4.652400000000000091e+00 -1.707900000000000063e+01 2.133399999999999963e+00 -1.211450999999999922e+01 -2.308893372923928600e-02
-4.652300000000000324e+00 -2.775600000000000023e+01 1.716300000000000026e+01 -2.273385999999999996e+01 1.112883305188508143e-01
-4.647999999999999687e+00 -3.353900000000000148e+01 9.425000000000000711e+00 -3.341740000000000155e+00 -6.479513192672319011e-02
-4.645500000000000185e+00 -2.862600000000000122e+01 -2.947400000000000020e+00 4.261085999999999707e+00 2.620692916382455495e-01
-4.644099999999999895e+00 2.455000000000000071e+01 1.454100000000000037e+01 -1.144586999999999932e+01 -3.643709719941383707e-01
-4.643099999999999561e+00 -3.848499999999999943e+01 1.110899999999999999e+01 -1.922882999999999853e+01 -5.359991638985067697e-02
-4.639100000000000001e+00 -2.448000000000000043e+01 9.225099999999999412e+00 -8.281722000000000250e+00 6.481097657420004099e-02
-4.631400000000000183e+00 2.475400000000000134e+01 1.542699999999999960e+01 -1.148373999999999917e+01 -3.639720614307909163e-01
-4.623300000000000409e+00 -2.233500000000000085e+01 1.383399999999999963e+01 -1.848084000000000060e+00 7.922067723579398479e-02
-4.622499999999999609e+00 2.598600000000000065e+01 1.356199999999999939e+01 -7.435623999999999789e+00 -2.807207725756841188e-01
-4.615800000000000125e+00 3.182499999999999929e+01 3.397999999999999687e+01 -1.127040000000000042e+01 -2.009119098838957895e-01
-4.615099999999999980e+00 -2.013400000000000034e+01 -5.516000000000000014e+00 -6.481957000000000413e+00 1.864487976175127279e-02
-4.611500000000000377e+00 -3.089999999999999858e+01 -9.220399999999999707e-01 8.924300999999999817e+00 2.634480457172607148e-01
-4.609499999999999709e+00 -3.079100000000000037e+01 1.413100000000000023e+01 -5.213104999999999656e+00 9.561513206181140867e-02
-4.606700000000000017e+00 3.136799999999999855e+01 1.857499999999999929e+01 -1.258337000000000039e+00 -3.499999999999999778e-01
-4.596700000000000230e+00 -1.477899999999999991e+01 3.821000000000000174e+00 -5.378238999999999770e+00 -4.217107462945944574e-02
-4.596700000000000230e+00 -1.372899999999999920e+01 2.120999999999999996e+00 1.270791999999999966e+01 1.257906176651045205e-01
-4.596700000000000230e+00 -1.372899999999999920e+01 3.821000000000000174e+00 -5.681503000000000192e+00 -1.952604866761537550e-01
-4.593899999999999650e+00 -2.549200000000000088e+01 1.134200000000000053e+01 -1.121233999999999931e+01 -1.082302538157159100e-01
-4.583400000000000141e+00 -3.874499999999999744e+01 9.565599999999999881e+00 -3.657522000000000162e+00 -5.479587323363730583e-02
-4.583099999999999952e+00 -3.977499999999999858e+01 1.287100000000000044e+01 -1.174843000000000082e+01 -5.014302345490975060e-02
-4.576699999999999768e+00 2.991499999999999915e+01 3.786399999999999721e+01 -1.060371999999999915e+01 -1.958177771316645110e-01
-4.574099999999999611e+00 -1.780300000000000082e+01 -3.830000000000000071e+00 -7.963167000000000328e+00 2.146694950243807631e-02
-4.573299999999999699e+00 2.491900000000000048e+01 1.369100000000000072e+01 -1.152693000000000012e+01 -2.804547263117213030e-01
-4.572000000000000064e+00 1.414000000000000057e+01 1.210899999999999999e+01 -1.362612000000000023e+01 -1.751257503687594919e-01
-4.572000000000000064e+00 1.573799999999999955e+01 1.210899999999999999e+01 -1.527943999999999924e+01 -1.216703604280423984e-01
-4.558900000000000396e+00 -1.785000000000000142e+01 6.288000000000000256e+00 -6.333648000000000167e+00 9.940303313047813005e-02
-4.543999999999999595e+00 -4.100500000000000256e+01 1.204800000000000004e+01 -6.534932999999999659e+00 -4.994513442543639659e-02
-4.543999999999999595e+00 -3.854500000000000171e+01 1.204800000000000004e+01 -1.190667000000000009e+01 -5.231133247022351496e-02
-4.532499999999999751e+00 -1.870700000000000074e+01 4.256499999999999950e+00 -3.374240999999999957e+01 6.459118828020209147e-02
-4.525900000000000034e+00 -1.514799999999999969e+01 2.971000000000000085e+00 -4.748348000000000013e+00 -3.261381745549628286e-02
-4.525900000000000034e+00 -1.335999999999999943e+01 2.971000000000000085e+00 -1.635788000000000153e+01 -1.777055758124112539e-01
-4.525299999999999656e+00 -3.440400000000000347e+01 1.339400000000000013e+01 2.370689000000000046e+00 9.529447672211284470e-02
-4.508700000000000152e+00 1.446899999999999942e+01 1.134900000000000020e+01 -1.624324999999999974e+01 -1.518891308215268299e-01
-4.508700000000000152e+00 1.446899999999999942e+01 1.286899999999999977e+01 -3.175237999999999872e+01 -1.303647194259817677e-01
-4.508700000000000152e+00 1.540900000000000070e+01 1.134900000000000020e+01 -1.877959999999999852e+01 -1.376484274289187515e-01
-4.508700000000000152e+00 1.540900000000000070e+01 1.286899999999999977e+01 -3.849551000000000300e+01 -1.203833183906100890e-01
-4.503999999999999559e+00 -2.832700000000000173e+01 -4.772499999999999964e+00 -1.703991000000000033e+00 9.811263073093146742e-03
-4.503099999999999881e+00 2.821799999999999997e+01 3.500099999999999767e+01 -7.520337999999999745e+00 -1.989782903634244315e-01
-4.496999999999999886e+00 -2.218100000000000094e+01 1.637399999999999878e+01 -1.149483000000000033e+01 1.390931227656468927e-01
-4.489099999999999646e+00 -4.103999999999999915e+01 8.478999999999999204e+00 -6.187359999999999971e+00 -5.290977910790591043e-02
-4.487000000000000099e+00 -1.855099999999999838e+01 7.040399999999999991e+00 5.263829000000000313e+00 7.651063328520421591e-02
-4.485100000000000087e+00 -3.989999999999999858e+01 8.902699999999999392e+00 -1.157644999999999946e+01 -5.384734961533567399e-02
-4.477100000000000080e+00 3.267699999999999960e+01 3.608100000000000307e+01 -7.678969000000000378e+00 -1.986011448241019051e-01
-4.473900000000000432e+00 -2.042099999999999937e+01 -4.829900000000000304e+00 -5.580790000000000362e+00 1.612495462636219165e-02
-4.471599999999999575e+00 -3.146699999999999875e+01 4.485199999999999854e+00 2.312059999999999782e+00 8.737997821739382220e-02
-4.469999999999999751e+00 3.233400000000000318e+01 3.506199999999999761e+01 -1.357231999999999950e+01 -1.996296211421079991e-01
-4.459999999999999964e+00 -3.292799999999999727e+01 1.407600000000000051e+01 1.372949999999999982e+01 9.627259676549745904e-02
-4.457900000000000418e+00 -2.341100000000000136e+01 1.719699999999999918e+01 -1.204167999999999950e+01 1.362211076160181333e-01
-4.456199999999999939e+00 -1.481000000000000050e+01 2.160699999999999843e+00 -4.884659000000000084e+00 -1.379379045861182408e-02
-4.450000000000000178e+00 -4.227000000000000313e+01 9.302300000000000679e+00 -5.754237999999999964e+00 -5.111742268832812630e-02
-4.450000000000000178e+00 -4.227000000000000313e+01 1.024200000000000088e+01 -6.562598000000000376e+00 -5.041258571950252287e-02
-4.450000000000000178e+00 2.836299999999999955e+01 3.595600000000000307e+01 -1.163686000000000043e+01 -1.975613462595225689e-01
-4.450000000000000178e+00 2.861700000000000088e+01 3.685000000000000142e+01 -1.068712000000000018e+01 -1.964143556611201158e-01
-4.449699999999999989e+00 -1.852599999999999980e+01 -7.035099999999999909e+00 3.450629000000000057e-01 2.520169009341293245e-02
-4.447000000000000064e+00 3.289600000000000080e+01 3.708299999999999841e+01 -2.912344999999999828e+01 -1.976147236819802699e-01
-4.447000000000000064e+00 3.289600000000000080e+01 3.802300000000000324e+01 -4.758427999999999969e+01 -1.967013868024504730e-01
-4.441900000000000404e+00 -1.709299999999999997e+01 -2.634199999999999875e+00 -7.451346000000000025e+00 2.010204277173269910e-02
-4.437400000000000233e+00 2.976599999999999824e+01 1.432600000000000051e+01 -8.254422999999999178e+00 -2.818958732633100039e-01
-4.437000000000000277e+00 -2.407799999999999940e+01 8.400700000000000500e+00 1.035762000000000072e+01 6.554589302893985836e-02
-4.434400000000000119e+00 -3.322500000000000142e+01 8.602999999999999758e+00 -4.235375999999999586e+00 8.741664591783407379e-02
-4.434000000000000163e+00 2.771600000000000108e+01 1.886100000000000065e+01 -9.337047000000000097e+00 -3.635007365401317081e-01
-4.430399999999999672e+00 -1.603200000000000003e+01 1.465300000000000047e+00 -4.472210999999999714e+00 -1.274972687532193935e-02
-4.430399999999999672e+00 -1.516600000000000037e+01 1.465300000000000047e+00 -1.909710999999999936e+00 -4.751520563784617478e-03
-4.421000000000000263e+00 -3.178300000000000125e+01 5.245499999999999829e+00 -2.976446000000000147e+00 8.717250587386364546e-02
-4.419500000000000206e+00 -2.682000000000000028e+01 -5.666199999999999903e+00 -3.767504999999999882e+00 1.137281440312912402e-02
-4.411100000000000243e+00 2.831200000000000117e+01 3.405199999999999960e+01 -3.578336999999999879e+00 -2.003614874627267783e-01
-4.409900000000000375e+00 -3.505400000000000205e+01 1.070899999999999963e+01 -3.249178999999999817e+00 -5.921008209559815855e-02
-4.407899999999999707e+00 3.166600000000000037e+01 3.884599999999999653e+01 -2.256499000000000166e+01 -1.954120368550434916e-01
-4.407099999999999795e+00 -3.293800000000000239e+01 6.505600000000000271e+00 -4.405808000000000391e+00 8.764980706671121613e-02
-4.405999999999999694e+00 -1.990099999999999980e+01 -6.114300000000000068e+00 -1.025288999999999895e+00 2.015132595796609999e-02
-4.405999999999999694e+00 -1.715099999999999980e+01 -6.114300000000000068e+00 6.355159999999999698e+00 1.210406069820409991e-01
-4.405999999999999694e+00 -1.715099999999999980e+01 -5.063699999999999868e+00 4.802119000000000248e+00 1.209764016580046064e-01
-4.405300000000000438e+00 -3.477600000000000335e+01 1.291200000000000081e+01 -4.502651000000000181e+00 -5.592379266463516629e-02
-4.397100000000000009e+00 -3.835799999999999699e+01 1.050000000000000000e+01 2.997792000000000234e-01 -5.417318449016057802e-02
-4.392999999999999794e+00 3.106400000000000006e+01 1.958299999999999841e+01 -5.980751999999999846e+00 -2.757140499271898415e-01
-4.388499999999999623e+00 1.608699999999999974e+01 1.149499999999999922e+01 -1.542195000000000071e+01 -1.321766340290508324e-01
-4.388399999999999856e+00 2.966600000000000037e+01 2.042800000000000082e+01 1.221968999999999994e+01 -2.769801669480891904e-01
-4.388399999999999856e+00 -2.256800000000000139e+01 -4.063399999999999679e+00 -9.445774000000000115e+00 1.055242663665683853e-02
-4.388399999999999856e+00 -2.116799999999999926e+01 -4.063399999999999679e+00 -1.263382000000000005e+01 1.237678696607920521e-02
-4.386700000000000266e+00 3.254299999999999926e+01 1.482900000000000063e+01 -1.999749999999999872e+01 -2.824940271048968499e-01
-4.383899999999999686e+00 -2.225400000000000134e+01 1.483999999999999986e+01 -1.591439999999999966e+00 1.055761472495388570e-01
-4.379100000000000215e+00 3.264900000000000091e+01 1.362599999999999945e+01 -1.680442999999999998e+01 -2.825730290034199621e-01
-4.378999999999999559e+00 3.117299999999999827e+01 3.314600000000000080e+01 -1.221809000000000012e+01 -2.017329202364928908e-01
-4.377699999999999925e+00 -2.574500000000000099e+01 1.722800000000000153e+01 -3.749533000000000271e+01 1.196477157880007497e-01
-4.376100000000000101e+00 -3.292099999999999937e+01 7.902999999999999581e+00 -3.549335000000000129e+00 8.721816103376973939e-02
-4.370300000000000296e+00 -2.788700000000000045e+01 -5.536999999999999922e+00 -2.660391999999999868e+00 1.086791419928352306e-02
-4.363900000000000112e+00 3.036899999999999977e+01 3.811599999999999966e+01 -2.429335999999999984e+01 -1.955708029978756868e-01
-4.360999999999999766e+00 -2.704599999999999937e+01 1.746999999999999886e+01 -2.684381000000000128e+01 1.154722094495114482e-01
-4.349999999999999645e+00 -2.574699999999999989e+01 1.208200000000000074e+01 -2.241492999999999824e+01 -1.014160173468623000e-01
-4.342100000000000293e+00 -3.035800000000000054e+01 1.483099999999999952e+01 -2.738439000000000068e+00 9.813518062704387757e-02
-4.340300000000000047e+00 2.868100000000000094e+01 3.320199999999999818e+01 -6.422981000000000051e+00 -2.016250593617115727e-01
-4.339699999999999669e+00 -3.370700000000000074e+01 9.067099999999999937e+00 -3.461037999999999837e+00 -6.433220447669138475e-02
-4.334699999999999775e+00 -2.137500000000000000e+01 8.203300000000000480e+00 -6.713180999999999621e+00 2.747410604202298393e-02
-4.334699999999999775e+00 -1.967500000000000071e+01 8.203300000000000480e+00 2.281003000000000114e+00 4.470585620547679051e-02
-4.328899999999999970e+00 -1.783699999999999974e+01 2.179399999999999782e+00 -1.859459000000000017e+01 -2.659548890448715230e-02
-4.328400000000000247e+00 3.223899999999999721e+01 1.552899999999999991e+01 5.622483000000000342e-01 -2.824513164637942886e-01
-4.319099999999999717e+00 3.135900000000000176e+01 1.280199999999999960e+01 -7.984950999999999688e+00 -2.824070960116555895e-01
-4.308799999999999741e+00 2.612399999999999878e+01 1.741199999999999903e+01 -8.648747000000000185e+00 -3.634818767562325026e-01
-4.308099999999999596e+00 -3.019999999999999929e+01 -9.803300000000000347e-01 1.987435999999999980e+00 2.634673184227127596e-01
-4.306099999999999817e+00 -3.149099999999999966e+01 1.407300000000000040e+01 -9.023009999999999309e+00 9.578656822494799328e-02
-4.304400000000000226e+00 2.786599999999999966e+01 1.431799999999999962e+01 -4.598062999999999789e+00 -2.815483038858763165e-01
-4.304000000000000270e+00 -1.568500000000000050e+01 -2.501999999999999780e+00 -2.608782999999999852e+00 1.308034166840830737e-01
-4.304000000000000270e+00 -1.423900000000000077e+01 -1.695699999999999985e+00 -5.520710000000000228e+00 1.508783044203562962e-01
-4.304000000000000270e+00 -1.398499999999999943e+01 -8.020000000000000462e-01 -9.760405999999999693e+00 1.561069003078470185e-01
-4.301000000000000156e+00 -1.833299999999999841e+01 5.120700000000000252e+00 -4.732690999999999981e+00 7.392713110861308390e-02
-4.297100000000000364e+00 2.889499999999999957e+01 2.005499999999999972e+01 9.619947999999999411e+01 -2.767622185359835396e-01
-4.295099999999999696e+00 -3.555100000000000193e+01 1.160599999999999987e+01 -7.039629999999999832e+00 -5.676170714930846989e-02
-4.291699999999999626e+00 -2.544399999999999906e+01 1.278200000000000003e+01 -2.168755000000000166e+01 7.835575613254266991e-02
-4.291699999999999626e+00 -2.457799999999999940e+01 1.278200000000000003e+01 -1.748512000000000066e+00 7.377349719941879436e-02
-4.291699999999999626e+00 -2.352799999999999869e+01 1.278200000000000003e+01 3.785194000000000170e+00 6.625848898055036740e-02
-4.280000000000000249e+00 3.012900000000000134e+01 1.362500000000000000e+01 -8.263897999999999300e+00 -2.821150369813710812e-01
-4.278999999999999915e+00 2.480199999999999960e+01 1.637500000000000000e+01 -1.171279000000000003e+01 -3.635152077975170037e-01
-4.276099999999999568e+00 2.736799999999999855e+01 1.809600000000000009e+01 -7.355858999999999703e+00 -3.635124862188444106e-01
-4.272000000000000242e+00 -1.425399999999999956e+01 2.971000000000000085e+00 -9.320871000000000350e+00 -2.819275306517760732e-02
-4.270999999999999908e+00 3.347899999999999920e+01 1.471400000000000041e+01 -4.968801000000000023e+00 -2.827280375668813628e-01
-4.264000000000000234e+00 1.699399999999999977e+01 1.156300000000000061e+01 -1.615644999999999953e+01 -1.257991816210144442e-01
-4.261899999999999800e+00 -3.194500000000000028e+01 6.435999999999999499e-01 2.139753999999999934e+00 2.643584292447833106e-01
-4.261499999999999844e+00 -2.296300000000000097e+01 6.314000000000000057e+00 -5.081343000000000387e+00 4.158320034943210203e-02
-4.259299999999999642e+00 3.062399999999999878e+01 2.034799999999999898e+01 -2.257706000000000213e+00 -2.766824552287776018e-01
-4.257299999999999862e+00 -3.170400000000000063e+01 1.432299999999999907e+00 -2.928530999999999773e-01 2.647491672573918375e-01
-4.253700000000000259e+00 -4.053499999999999659e+01 1.280799999999999983e+01 -1.509857000000000049e+01 -4.926129102566850770e-02
-4.253700000000000259e+00 -3.901500000000000057e+01 1.280799999999999983e+01 -3.842175000000000296e+01 -5.056453480664892253e-02
-4.252900000000000347e+00 3.174899999999999878e+01 1.773300000000000054e+01 -1.760626000000000024e+00 -3.639513693596610477e-01
-4.251199999999999868e+00 -1.412299999999999933e+01 7.777799999999999991e-02 -6.565032000000000423e+00 1.487071658801346341e-01
-4.245400000000000063e+00 -3.785399999999999920e+01 9.685100000000000264e+00 -2.257327999999999779e+00 -5.554143018754396227e-02
-4.239499999999999602e+00 -3.930100000000000193e+01 8.665399999999999991e+00 -4.793656999999999613e+00 -5.452892264982317494e-02
-4.234399999999999942e+00 -3.214600000000000080e+01 -4.262400000000000216e-02 6.951500999999999930e-01 2.640544117252818235e-01
-4.230900000000000105e+00 3.200600000000000023e+01 1.676200000000000045e+01 1.809260000000000090e+01 -3.641842979733193042e-01
-4.229099999999999859e+00 1.651800000000000068e+01 1.225399999999999956e+01 -1.847585000000000122e+01 -1.153127469401852984e-01
-4.225699999999999790e+00 -3.783899999999999864e+01 1.142900000000000027e+01 -1.903203999999999851e+01 -5.356083207165801552e-02
-4.221700000000000230e+00 2.956800000000000139e+01 3.257000000000000028e+01 -9.010868000000000322e+00 -1.885250493519457782e-01
-4.220900000000000318e+00 -4.028099999999999881e+01 8.443899999999999295e+00 -5.972203999999999624e+00 -5.352719439360313636e-02
-4.220399999999999707e+00 -2.394900000000000162e+01 -4.559099999999999930e+00 -9.959253999999999607e+00 1.043665006835345008e-02
-4.216400000000000148e+00 -4.187400000000000233e+01 1.107199999999999918e+01 -6.609504000000000268e+00 -4.986086129882670581e-02
-4.214800000000000324e+00 -2.530999999999999872e+01 -5.356700000000000017e+00 -4.425498000000000154e+00 1.128603173045414354e-02
-4.187999999999999723e+00 -3.762199999999999989e+01 1.050000000000000000e+01 -3.353444000000000091e+00 -5.492304441533855247e-02
-4.176999999999999602e+00 3.162600000000000122e+01 1.864499999999999957e+01 -1.231125999999999943e+00 -3.499999999999999778e-01
-4.174500000000000099e+00 -1.752499999999999858e+01 -4.199499999999999567e+00 -1.010106999999999999e+01 2.294129402274295779e-02
-4.174500000000000099e+00 -1.752499999999999858e+01 -3.334200000000000053e+00 -1.074086999999999925e+01 2.007450244685704890e-02
-4.164600000000000080e+00 -2.891199999999999903e+01 -2.033399999999999874e+00 1.093807999999999936e+01 2.627752945756594016e-01
-4.163999999999999702e+00 -1.442900000000000027e+01 9.883800000000000363e-01 -3.793134999999999923e+00 1.284512556410063455e-01
-4.161400000000000432e+00 -1.914499999999999957e+01 3.052700000000000191e+00 -5.330724000000000018e+01 -3.063263952105176394e-02
-4.159699999999999953e+00 -4.179999999999999716e+01 8.542299999999999116e+00 -5.329665999999999570e+00 -5.184972032150140381e-02
-4.157899999999999707e+00 -1.830600000000000094e+01 6.204200000000000159e+00 1.255198999999999998e+01 9.920054511873213632e-02
-4.155300000000000438e+00 -3.831099999999999994e+01 8.772999999999999687e+00 -4.713523000000000351e+00 -5.565383215617077106e-02
-4.149799999999999933e+00 3.341799999999999926e+01 1.351299999999999990e+01 -6.541080000000000005e+00 -2.828453864082984826e-01
-4.148600000000000065e+00 -2.262099999999999866e+01 7.354099999999999859e+00 -5.784646000000000399e+00 3.312390141216024070e-02
-4.146799999999999820e+00 -2.326999999999999957e+01 1.382900000000000063e+01 1.024505000000000088e+01 8.243790160831131197e-02
-4.142500000000000071e+00 -3.462199999999999989e+01 1.000900000000000034e+01 -2.813626999999999878e+00 -6.070547172637769107e-02
-4.142100000000000115e+00 -2.831500000000000128e+01 1.648699999999999832e+01 -1.073145000000000060e+01 1.072136403865078941e-01
-4.139300000000000423e+00 -2.975400000000000134e+01 1.550200000000000067e+01 -5.529523000000000188e+00 1.010455058438682607e-01
-4.119900000000000340e+00 -2.548300000000000054e+01 1.019200000000000017e+01 -8.389803000000000566e+00 6.781902136949016779e-02
-4.119299999999999962e+00 3.398299999999999699e+01 1.389899999999999913e+01 -6.028628999999999571e+00 -2.829309327539116237e-01
-4.118699999999999584e+00 -2.354899999999999949e+01 1.444699999999999918e+01 1.138837000000000010e+01 9.512664856224620213e-02
-4.106499999999999595e+00 -3.575399999999999778e+01 1.076800000000000068e+01 -3.682423000000000002e+00 -5.739474881050684457e-02
-4.104099999999999859e+00 -3.375900000000000034e+01 7.843899999999999650e+00 -3.625404000000000071e+00 8.811669086550043273e-02
-4.102999999999999758e+00 -2.588899999999999935e+01 1.090900000000000070e+01 -1.382268999999999970e+01 -1.040418384455170930e-01
-4.097299999999999720e+00 3.301100000000000279e+01 1.558600000000000030e+01 -2.929927999999999866e+00 -2.827062168477936233e-01
-4.091700000000000337e+00 2.544399999999999906e+01 1.309500000000000064e+01 -8.303611999999999327e+00 -2.811778400826853153e-01
-4.083899999999999864e+00 2.687699999999999889e+01 1.385100000000000087e+01 -5.938862000000000307e+00 -2.815172266152114466e-01
-4.081299999999999706e+00 -1.937600000000000122e+01 -6.964299999999999713e+00 -2.153408999999999907e+00 2.248034289006289183e-02
-4.081299999999999706e+00 -1.767599999999999838e+01 -6.964299999999999713e+00 -2.625878000000000156e+00 1.181448230041561159e-01
-4.081100000000000172e+00 -2.604299999999999926e+01 -5.629500000000000171e+00 -4.196114999999999817e+00 1.131605475689557647e-02
-4.078100000000000058e+00 1.493900000000000006e+01 1.081600000000000072e+01 -1.420674999999999955e+01 -1.365381956604964087e-01
-4.078100000000000058e+00 1.493900000000000006e+01 1.340199999999999925e+01 -2.422302000000000177e+01 -1.212921755690806319e-01
-4.077899999999999636e+00 -2.375199999999999889e+01 6.549000000000000377e+00 -4.188074000000000296e+00 3.837832078346505027e-02
-4.076100000000000279e+00 -3.251400000000000290e+01 -7.509400000000000519e-01 8.944904999999999662e-01 2.638126014301795386e-01
-4.075400000000000134e+00 3.467600000000000193e+01 1.401399999999999935e+01 -5.244818000000000424e+00 -2.830553745432909940e-01
-4.074300000000000033e+00 -2.504500000000000171e+01 1.717000000000000171e+01 -1.309503999999999913e+01 1.241918079627644805e-01
-4.049999999999999822e+00 -1.926300000000000168e+01 4.045300000000000118e+00 -5.621441000000000088e+01 2.726345507981297045e-01
-4.049800000000000288e+00 -3.674199999999999733e+01 1.044699999999999918e+01 -4.015333000000000041e+00 -5.611119757865998953e-02
-4.048000000000000043e+00 2.406899999999999906e+01 1.401600000000000001e+01 -1.243512999999999913e+01 -3.644667907184417910e-01
-4.048000000000000043e+00 2.406899999999999906e+01 1.506600000000000072e+01 -1.036492999999999931e+01 -3.639204602780475306e-01
-4.039799999999999613e+00 -3.419200000000000017e+01 8.371700000000000585e+00 -2.553622999999999976e+00 -6.340403624475948741e-02
-4.038999999999999702e+00 1.370899999999999963e+01 1.163899999999999935e+01 -1.477012999999999998e+01 -1.753731106725379130e-01
-4.038999999999999702e+00 1.370899999999999963e+01 1.257900000000000063e+01 -1.536078999999999972e+01 -1.718591454561198550e-01
-4.036999999999999922e+00 1.779299999999999926e+01 1.156300000000000061e+01 -2.893599999999999994e+01 -3.847241206650201528e-01
-4.033800000000000274e+00 -1.559900000000000020e+01 9.744199999999999529e-01 -8.156276000000000082e+00 -5.608845326723463712e-03
-4.027300000000000324e+00 -2.294099999999999895e+01 1.666400000000000148e+01 -2.933936999999999884e+01 1.389866548189977735e-01
-4.025000000000000355e+00 -2.423699999999999832e+01 1.432499999999999929e+01 3.340000999999999998e+00 9.333160264217059410e-02
-4.017100000000000115e+00 3.437299999999999756e+01 1.471400000000000041e+01 2.352685999999999833e+00 -2.829977042087276629e-01
-4.014000000000000234e+00 3.438700000000000045e+01 1.351500000000000057e+01 -1.371000999999999914e+00 -2.830726702258718475e-01
-4.009999999999999787e+00 -1.914999999999999858e+01 7.353299999999999947e+00 3.469834000000000085e+00 6.352155808946259585e-02
-4.008899999999999686e+00 -3.344400000000000261e+01 6.979700000000000237e+00 -3.459635000000000016e+00 8.803837794075131118e-02
-4.005499999999999616e+00 -1.859400000000000119e+01 2.225400000000000045e+00 -2.896311000000000035e+01 -2.770659342295645963e-02
-4.004900000000000126e+00 -1.638899999999999935e+01 -2.672699999999999854e+00 2.127756999999999898e+00 2.332148542672661182e-02
-4.001000000000000334e+00 2.856599999999999895e+01 1.437599999999999945e+01 -4.486723999999999712e+00 -2.819567006458746361e-01
-3.996900000000000119e+00 -2.340399999999999991e+01 7.383300000000000196e+00 -9.139013000000000275e+00 3.192750586413810321e-02
-3.991400000000000059e+00 -3.109700000000000131e+01 1.439199999999999946e+01 -7.302503999999999884e+00 9.677685382586839746e-02
-3.989700000000000024e+00 3.059900000000000020e+01 1.286500000000000021e+01 -8.332651000000000252e+00 -2.824719684061401948e-01
