4.532399999999999807e+01 3.980199999999999960e+01 5.212100000000000222e+01 1.024563000000000024e+01 6.551319295723186283e-03
4.532800000000000296e+01 1.705999999999999872e+01 5.247800000000000153e+01 9.814593999999999596e+00 -4.927256675194576635e-02
4.532800000000000296e+01 1.729100000000000037e+01 5.329299999999999926e+01 2.245705000000000062e+00 -5.347336317853536303e-02
4.532999999999999829e+01 6.157600000000000406e+00 4.629200000000000159e+01 7.622150000000000425e+00 1.099490118254977666e-01
4.533299999999999841e+01 1.846799999999999997e+01 4.266700000000000159e+01 -2.134212000000000131e+01 -1.070678995451104232e-01
4.533599999999999852e+01 2.416900000000000048e+01 6.200099999999999767e+01 -9.296233000000000857e+00 -9.974844238565147569e-02
4.533700000000000330e+01 3.586800000000000210e+01 4.750500000000000256e+01 5.824780999999999764e+00 -3.729304675686576781e-02
4.535300000000000153e+01 3.362299999999999756e+01 5.040699999999999648e+01 2.418628000000000000e+00 -1.835222974696654533e-02
4.536099999999999710e+01 3.351599999999999824e+01 5.809100000000000108e+01 -1.578260000000000041e+01 -2.904303391988087291e-01
4.536099999999999710e+01 1.718499999999999872e+01 5.165100000000000335e+01 -6.611707000000000001e+00 -4.985065064083710890e-02
4.536999999999999744e+01 1.756599999999999895e+01 4.521000000000000085e+01 1.232956000000000074e+01 -9.570687636570004986e-02
4.537299999999999756e+01 1.599799999999999933e+01 4.133200000000000074e+01 5.508625000000000327e-01 2.084120440898595272e-01
4.537400000000000233e+01 2.450400000000000134e+01 6.128099999999999881e+01 8.367039999999999367e+00 -1.019019034941311269e-01
4.537400000000000233e+01 2.119000000000000128e+01 6.117399999999999949e+01 -4.735422999999999938e+00 -1.388040038045244284e-01
4.537899999999999778e+01 3.621399999999999864e+01 4.625099999999999767e+01 1.189277000000000051e+01 -3.877660880243366526e-02
4.538000000000000256e+01 1.600799999999999912e+01 4.938600000000000279e+01 -9.776388999999999996e+00 -3.736855192765465850e-01
4.539399999999999835e+01 7.157000000000000028e+00 4.133800000000000097e+01 -8.138682000000000416e-01 1.484696428885434183e-01
4.539399999999999835e+01 8.856999999999999318e+00 4.133800000000000097e+01 3.674288999999999916e+00 1.447821541817930213e-01
4.539600000000000080e+01 1.879700000000000060e+01 4.342699999999999960e+01 -2.510337000000000174e+01 -1.025131851950084466e-01
4.539800000000000324e+01 1.860999999999999943e+01 5.083100000000000307e+01 -5.743479999999999919e+00 -5.991900623381991864e-02
4.540299999999999869e+01 2.143799999999999883e+01 6.203300000000000125e+01 -1.398506000000000071e+01 -1.132234854898357401e-01
4.540599999999999881e+01 2.285000000000000142e+01 5.953900000000000148e+01 -3.710329000000000210e+00 -8.632697056247712331e-02
4.540899999999999892e+01 1.853399999999999892e+01 4.424499999999999744e+01 -3.110147999999999868e+01 -9.904763305446687149e-02
4.540899999999999892e+01 4.131099999999999994e+01 5.138600000000000279e+01 1.487688999999999950e+01 -4.782308957574416333e-03
4.542499999999999716e+01 3.712500000000000000e+01 4.535199999999999676e+01 9.350039999999999907e+00 -3.938858343937987061e-02
4.543399999999999750e+01 3.482399999999999807e+01 5.735099999999999909e+01 -8.426014000000000692e+01 -2.641745664042970954e-01
4.543500000000000227e+01 1.083699999999999974e+01 4.849499999999999744e+01 -6.517144000000000048e+00 1.649508364541395489e-01
4.543800000000000239e+01 2.559199999999999875e+01 5.914000000000000057e+01 -1.264399000000000051e+00 -1.169328845713304421e-01
4.543900000000000006e+01 4.161800000000000210e+01 5.049199999999999733e+01 7.521500999999999770e+00 -1.614915097786635140e-02
4.545799999999999841e+01 2.808599999999999852e+01 5.996800000000000352e+01 -1.226760999999999990e+00 -2.926032502047873907e-01
4.546200000000000330e+01 2.308500000000000085e+01 5.567000000000000171e+01 5.422183999999999671e+00 -1.379860429317082138e-01
4.546300000000000097e+01 2.792000000000000171e+01 4.893399999999999750e+01 -5.082232999999999556e+00 -2.778508061917636107e-01
4.546300000000000097e+01 2.962000000000000099e+01 4.893399999999999750e+01 -3.758424000000000209e+00 -2.219139158265362455e-02
4.546699999999999875e+01 2.120799999999999841e+01 4.915400000000000347e+01 -8.241654999999999953e-01 -9.905322305943856098e-02
4.547099999999999653e+01 3.836200000000000188e+01 4.620300000000000296e+01 1.299163000000000068e+01 -3.935312925516355753e-02
4.547099999999999653e+01 1.590799999999999947e+01 4.831600000000000250e+01 -1.909002999999999872e+01 -1.269607805655973976e-01
4.547399999999999665e+01 2.445899999999999963e+01 5.989800000000000324e+01 2.309404999999999930e+01 -1.207482770551094459e-01
4.548100000000000165e+01 2.461100000000000065e+01 5.839600000000000080e+01 -3.256979999999999986e+00 -1.415832944909343749e-01
4.548299999999999699e+01 2.404899999999999949e+01 5.934100000000000108e+01 5.735996000000000095e+00 -6.016759619296757622e-02
4.549000000000000199e+01 3.969899999999999807e+01 4.708500000000000085e+01 8.246905999999999182e+00 -3.766677750815433656e-02
4.549099999999999966e+01 3.207999999999999829e+01 5.408700000000000330e+01 1.082305000000000073e+00 -2.872282545324152947e-01
4.549600000000000222e+01 1.190700000000000003e+01 4.919200000000000017e+01 -2.194469999999999921e+00 1.930989932056582647e-01
4.549699999999999989e+01 3.468200000000000216e+01 4.931099999999999994e+01 -3.606294999999999806e+00 -3.021613980383451928e-02
4.549699999999999989e+01 3.620199999999999818e+01 5.177100000000000080e+01 -4.632686999999999955e+01 -1.880484434840588859e-02
4.550200000000000244e+01 2.744800000000000040e+01 5.931700000000000017e+01 -4.983713999999999977e+00 -2.918099606877805341e-01
4.550600000000000023e+01 3.494100000000000250e+01 5.483700000000000330e+01 -1.027091000000000065e+01 -2.843338559677325850e-01
4.550699999999999790e+01 3.047100000000000009e+01 5.632399999999999807e+01 -1.039459000000000088e+01 -2.890367656279883013e-01
4.550800000000000267e+01 1.994999999999999929e+01 5.079099999999999682e+01 4.886436999999999919e+00 -6.818049340431596439e-02
4.550999999999999801e+01 3.495799999999999841e+01 5.299799999999999756e+01 1.096715000000000106e+00 3.964327119128977645e-03
4.551200000000000045e+01 2.632300000000000040e+01 4.924099999999999966e+01 -2.718212999999999990e+00 -2.878493340358261321e-01
4.551200000000000045e+01 2.718900000000000006e+01 4.924099999999999966e+01 -5.048934000000000033e+00 -2.761069076701261338e-01
4.551400000000000290e+01 4.175000000000000000e+01 4.904500000000000171e+01 -2.596170999999999895e-01 -2.780402131941771965e-02
4.552199999999999847e+01 3.492699999999999960e+01 5.396600000000000108e+01 1.136857999999999969e+01 -2.880558323456021697e-01
4.552300000000000324e+01 2.182400000000000162e+01 5.593900000000000006e+01 3.191372000000000142e+01 1.850455930198557641e-01
4.552400000000000091e+01 3.087000000000000099e+01 5.299399999999999977e+01 -1.560637999999999970e+01 -2.825997102517802118e-01
4.552600000000000335e+01 3.205100000000000193e+01 5.650399999999999778e+01 -1.500149000000000044e+01 -2.948032460713884140e-01
4.553300000000000125e+01 3.745199999999999818e+01 5.106600000000000250e+01 -2.017360000000000042e+00 -2.359345063325872863e-02
4.553999999999999915e+01 3.007100000000000151e+01 5.387500000000000000e+01 -8.814101999999999748e+01 -2.775914977094559033e-01
4.554200000000000159e+01 2.472100000000000009e+01 5.561899999999999977e+01 -2.204721999999999937e+01 -1.293722439115731759e-01
4.555400000000000205e+01 1.767200000000000060e+01 5.409199999999999875e+01 9.607704000000000244e-01 -6.357862749437206973e-02
4.556300000000000239e+01 3.292799999999999727e+01 5.953099999999999881e+01 -2.066631999999999891e+01 -2.892701353374224627e-01
4.556400000000000006e+01 4.022899999999999920e+01 4.756099999999999994e+01 7.282911999999999608e+00 -3.686494107814260179e-02
4.559400000000000119e+01 3.581600000000000250e+01 4.845499999999999829e+01 7.233952000000000382e+00 -3.804084722777577310e-02
4.559599999999999653e+01 3.521600000000000108e+01 5.226500000000000057e+01 -9.254581999999999198e+00 -8.004548811101002553e-03
4.561599999999999966e+01 2.229299999999999926e+01 4.805899999999999750e+01 -3.024051000000000045e+00 -1.052184271449276010e-01
4.561999999999999744e+01 3.282500000000000284e+01 6.053199999999999648e+01 -2.141064000000000078e+01 -2.336053773312581627e-01
4.561999999999999744e+01 2.509799999999999898e+01 4.812400000000000233e+01 1.096868000000000087e+01 -2.830564843321609625e-01
4.562899999999999778e+01 3.308299999999999841e+01 5.879099999999999682e+01 -1.721928000000000125e+01 -2.827983706113109119e-01
4.562899999999999778e+01 3.799399999999999977e+01 4.549499999999999744e+01 1.220398999999999923e+01 -4.065901156634179475e-02
4.564399999999999835e+01 2.063599999999999923e+01 5.578600000000000136e+01 1.763420999999999950e+01 1.947476916149175064e-01
4.566499999999999915e+01 3.169300000000000139e+01 5.312700000000000244e+01 -6.857741000000000531e-01 -2.860319267638061769e-01
4.566700000000000159e+01 4.128900000000000148e+01 4.811599999999999966e+01 5.557341000000000086e+00 -3.444027879539142412e-02
4.566700000000000159e+01 4.163400000000000034e+01 4.972800000000000153e+01 3.959458000000000144e+00 -2.610545174196383239e-02
4.566899999999999693e+01 3.134900000000000020e+01 5.066799999999999926e+01 1.103719000000000072e+01 -2.867048505453879681e-01
4.567600000000000193e+01 1.916900000000000048e+01 5.569299999999999784e+01 -7.772569999999999979e+00 2.109143527409366448e-01
4.568299999999999983e+01 3.023300000000000054e+01 5.299799999999999756e+01 -1.614898000000000167e+01 -2.792703288005683460e-01
4.568299999999999983e+01 1.017200000000000060e+01 4.856099999999999994e+01 -2.312593999999999816e+00 1.543896106700091697e-01
4.568500000000000227e+01 1.626899999999999835e+01 4.749900000000000233e+01 -3.208315000000000339e+01 -1.321302079828956255e-01
4.568599999999999994e+01 8.928800000000000736e+00 4.927199999999999847e+01 -4.367664000000000435e+00 1.306410299343405135e-01
4.568800000000000239e+01 7.325999999999999623e+00 4.916799999999999926e+01 3.078102000000000160e+01 2.862894392364597751e-01
4.569899999999999807e+01 3.271500000000000341e+01 5.109499999999999886e+01 1.102824000000000026e+01 -1.208344289989770302e-02
4.571600000000000108e+01 1.791499999999999915e+01 5.485300000000000153e+01 -9.442353999999999470e-01 -7.331411103085019865e-02
4.572399999999999665e+01 3.283400000000000318e+01 5.478600000000000136e+01 -5.225298999999999694e+00 -3.125500041909842763e-01
4.572399999999999665e+01 3.283400000000000318e+01 5.565100000000000335e+01 -1.957295999999999836e+01 -3.062124615369378744e-01
4.572399999999999665e+01 3.529399999999999693e+01 5.565100000000000335e+01 -2.396258999999999872e+01 -2.804856943258534629e-01
4.572399999999999665e+01 3.529399999999999693e+01 5.659100000000000108e+01 -3.564567999999999870e+01 -2.712348231344864913e-01
4.572800000000000153e+01 1.509500000000000064e+01 4.151899999999999835e+01 9.622939000000000354e-01 1.987843511748981495e-01
4.572800000000000153e+01 1.679500000000000171e+01 4.151899999999999835e+01 1.042362999999999928e+00 2.084108228597149615e-01
4.574300000000000210e+01 1.138499999999999979e+01 4.135199999999999676e+01 -2.869234000000000062e+00 1.571280063864245458e-01
4.574300000000000210e+01 1.273499999999999943e+01 4.197899999999999920e+01 -4.660059999999999647e+00 1.713250608818948084e-01
4.574799999999999756e+01 1.659799999999999898e+01 4.673899999999999721e+01 -2.316282999999999959e+01 -8.059523846086821819e-02
4.575500000000000256e+01 1.376900000000000013e+01 4.214300000000000068e+01 1.813099999999999934e+00 1.820572443448530142e-01
4.575600000000000023e+01 1.234999999999999964e+01 4.977600000000000335e+01 -2.972274000000000083e+00 2.098643839082462159e-01
4.575600000000000023e+01 1.379599999999999937e+01 5.058200000000000074e+01 -6.474812000000000012e+00 -3.736837661582171899e-01
4.576500000000000057e+01 1.776800000000000068e+01 4.239999999999999858e+01 3.368742999999999821e+00 -1.081119012616693631e-01
4.578699999999999903e+01 3.421200000000000330e+01 5.007099999999999795e+01 -4.907026000000000110e+00 -2.547699172761596145e-02
4.578799999999999670e+01 3.014499999999999957e+01 4.978399999999999892e+01 -1.992780999999999914e+00 -2.111331239637078902e-02
4.579999999999999716e+01 3.236899999999999977e+01 5.199499999999999744e+01 2.003501999999999938e+01 -4.473831867106698237e-03
4.580599999999999739e+01 3.041400000000000148e+01 5.225600000000000023e+01 -1.245567999999999920e+01 -2.807038843929725580e-01
4.580599999999999739e+01 3.132600000000000051e+01 5.225600000000000023e+01 1.120548999999999928e+01 -2.847890116053805598e-01
4.580599999999999739e+01 1.690200000000000102e+01 4.603900000000000148e+01 -6.735854000000000008e-01 -8.891775277460636784e-02
4.580700000000000216e+01 1.783500000000000085e+01 5.122399999999999665e+01 -3.372084000000000081e+00 -5.823524158061101769e-02
4.581000000000000227e+01 2.486599999999999966e+01 5.917699999999999960e+01 -2.443041000000000018e+00 -1.177707555377103532e-01
4.581499999999999773e+01 2.207499999999999929e+01 5.993200000000000216e+01 -4.782104000000000354e+00 -1.195681909921306463e-01
4.581499999999999773e+01 2.207499999999999929e+01 6.243999999999999773e+01 3.079339999999999833e+01 -9.315055145996263553e-02
4.581499999999999773e+01 2.362500000000000000e+01 6.243999999999999773e+01 -3.603515000000000157e+01 -1.098366915319932968e-01
4.581600000000000250e+01 3.910199999999999676e+01 4.642099999999999937e+01 2.015606999999999971e+01 -4.158993755164735323e-02
4.581900000000000261e+01 1.807499999999999929e+01 4.426700000000000301e+01 7.529824999999999768e+00 -9.780511420395542055e-02
4.582300000000000040e+01 3.277400000000000091e+01 5.659000000000000341e+01 -1.398902999999999963e+01 -2.967924913846132773e-01
4.582600000000000051e+01 3.215299999999999869e+01 5.265699999999999648e+01 1.198724999999999952e+01 -2.887979731223273561e-01
4.582800000000000296e+01 3.411200000000000188e+01 5.748899999999999721e+01 -2.399079000000000050e+01 -2.977925284204326895e-01
4.582800000000000296e+01 5.442999999999999616e+00 4.487700000000000244e+01 -1.339459000000000066e-01 1.216904905781654722e-01
4.582800000000000296e+01 5.560999999999999943e+00 4.403000000000000114e+01 4.913622000000000156e+00 2.197991947417862746e-01
4.582800000000000296e+01 5.696900000000000297e+00 4.577100000000000080e+01 2.059346999999999817e+00 1.184068845646625567e-01
4.583200000000000074e+01 2.876999999999999957e+01 4.886299999999999955e+01 -4.477743000000000251e+00 -1.782960865313103216e-02
4.583200000000000074e+01 3.009199999999999875e+01 6.100300000000000011e+01 6.864310999999999829e+00 -2.977401476250251533e-01
4.583299999999999841e+01 3.301100000000000279e+01 5.764300000000000068e+01 -1.527776000000000067e+01 -2.877560888065300304e-01
4.584000000000000341e+01 3.169699999999999918e+01 5.140999999999999659e+01 1.542108000000000061e+02 -2.873748995716972621e-01
4.584100000000000108e+01 1.530499999999999972e+01 4.984700000000000131e+01 -9.459877000000000535e+00 -3.736628432609216954e-01
4.584899999999999665e+01 3.895199999999999818e+01 5.179599999999999937e+01 9.438781000000000532e+00 -1.545877747834732176e-02
4.584899999999999665e+01 4.065200000000000102e+01 5.179599999999999937e+01 9.411542999999999992e+00 -8.602866035536992431e-03
4.586099999999999710e+01 3.231099999999999994e+01 6.123499999999999943e+01 -2.350241000000000113e+01 -2.157071666717886305e-01
4.586999999999999744e+01 3.673899999999999721e+01 5.110399999999999920e+01 -2.211296000000000106e+01 -3.034807949699614565e-02
4.587599999999999767e+01 1.156000000000000050e+01 4.858899999999999864e+01 -2.346852000000000160e+00 1.782017496807264956e-01
4.588000000000000256e+01 2.361700000000000088e+01 5.983200000000000074e+01 2.985063999999999851e+01 -1.433480637567212945e-01
4.589099999999999824e+01 3.539399999999999835e+01 4.917300000000000182e+01 -4.202562000000000353e+00 -3.714278443531328355e-02
4.589900000000000091e+01 1.814499999999999957e+01 4.324900000000000233e+01 -1.198884999999999934e+01 -1.024367286826066981e-01
4.590699999999999648e+01 5.761700000000000266e+00 4.306300000000000239e+01 3.982298999999999811e+00 2.022782647881442575e-01
4.591799999999999926e+01 3.321600000000000108e+01 5.199499999999999744e+01 2.146941999999999950e+01 -6.609376935599478239e-03
4.591899999999999693e+01 6.560900000000000176e+00 4.181900000000000261e+01 -6.479061999999999877e-01 1.736084584662324626e-01
4.591899999999999693e+01 8.006999999999999673e+00 4.101299999999999812e+01 -5.003821999999999992e-01 1.684530305488921853e-01
4.593500000000000227e+01 2.674800000000000111e+01 5.904999999999999716e+01 -2.446061999999999870e+01 -8.432677479584904656e-02
4.593900000000000006e+01 2.737999999999999901e+01 4.968999999999999773e+01 -6.832512999999999614e+00 -2.750986097501192940e-01
4.594100000000000250e+01 2.044099999999999895e+01 5.039500000000000313e+01 1.764352999999999838e+01 -7.256223095133298995e-02
4.594100000000000250e+01 2.076899999999999835e+01 4.964999999999999858e+01 -9.306098000000000425e-01 -7.322439515593678894e-02
4.594500000000000028e+01 2.562300000000000111e+01 4.897399999999999665e+01 1.996865999999999985e+01 -2.841417249092942354e-01
4.594700000000000273e+01 1.993599999999999994e+01 5.572800000000000153e+01 1.110704999999999920e+01 1.974061054200181020e-01
4.595700000000000074e+01 2.928600000000000136e+01 5.499000000000000199e+01 -2.590608999999999895e+01 -3.963906398755091542e-01
4.595799999999999841e+01 3.354099999999999682e+01 5.102100000000000080e+01 8.043976999999999933e+00 -1.663294027130337444e-02
4.596200000000000330e+01 3.237299999999999756e+01 5.746600000000000108e+01 -1.263976000000000077e+01 -2.849731186661104143e-01
4.596500000000000341e+01 3.087000000000000099e+01 5.144299999999999784e+01 4.494521000000000299e+01 -2.830453190537228769e-01
4.596500000000000341e+01 2.516199999999999903e+01 5.790299999999999869e+01 -5.212442000000000242e+00 -1.177422745113832631e-01
4.596999999999999886e+01 2.539600000000000080e+01 5.695900000000000318e+01 -1.697647999999999868e+01 -1.306477324112337857e-01
4.597399999999999665e+01 2.957999999999999829e+01 5.340599999999999881e+01 -4.501473000000000013e+01 -2.750699222767660213e-01
4.597500000000000142e+01 2.430099999999999838e+01 4.793699999999999761e+01 1.610314999999999941e-01 -3.900000000000000688e-01
4.597500000000000142e+01 2.521199999999999974e+01 5.601599999999999824e+01 -2.576627999999999830e+01 -1.290364311785699158e-01
4.598299999999999699e+01 2.868199999999999861e+01 6.044899999999999807e+01 -5.054565000000000197e+00 -2.914389962633178732e-01
4.598400000000000176e+01 6.847000000000000419e+00 4.839300000000000068e+01 7.256700000000000372e+00 2.517546833178397891e-01
4.598899999999999721e+01 3.453999999999999915e+01 5.200099999999999767e+01 -9.309839999999999449e+00 -1.128365034599841839e-02
4.599399999999999977e+01 1.558999999999999986e+01 4.879200000000000159e+01 4.046688999999999758e+00 -5.555821344697364772e-02
4.599799999999999756e+01 3.260399999999999920e+01 5.346300000000000097e+01 4.312470000000000248e+00 -2.897512117252742936e-01
4.599799999999999756e+01 3.439200000000000301e+01 5.346300000000000097e+01 3.728318999999999939e+00 9.372761680695052694e-03
4.600600000000000023e+01 3.055099999999999838e+01 5.058899999999999864e+01 -6.738992999999999789e+00 -2.824451526736234674e-01
4.600900000000000034e+01 2.931200000000000117e+01 5.264699999999999847e+01 -3.238571000000000311e+01 -2.755063149343416340e-01
4.600900000000000034e+01 2.931200000000000117e+01 5.416499999999999915e+01 -5.242779999999999774e+01 -2.726163217701637054e-01
4.601200000000000045e+01 1.839399999999999835e+01 5.562800000000000011e+01 -3.520744999999999791e+00 2.130196404393613907e-01
4.601500000000000057e+01 2.958899999999999864e+01 5.568999999999999773e+01 -9.077985999999999223e+00 -3.961227508263644448e-01
4.603499999999999659e+01 3.288900000000000290e+01 5.265699999999999648e+01 1.377596999999999916e+01 1.782443101905428306e-04
4.603600000000000136e+01 8.067700000000000315e+00 4.933899999999999864e+01 1.894113000000000113e+01 1.004291994909460861e-01
4.603699999999999903e+01 1.707600000000000051e+01 4.557900000000000063e+01 2.675468000000000046e+01 -9.056734943509275881e-02
4.603900000000000148e+01 3.289500000000000313e+01 5.429099999999999682e+01 9.669773999999999869e-01 -2.897679480060556534e-01
4.604200000000000159e+01 3.408599999999999852e+01 5.442699999999999960e+01 -3.239231999999999889e+00 2.428395847415155615e-02
4.604299999999999926e+01 3.082900000000000063e+01 5.704800000000000182e+01 -8.499050999999999689e+00 -3.960447664785920474e-01
4.604399999999999693e+01 2.387399999999999878e+01 5.515500000000000114e+01 1.562505999999999950e+00 -1.333543291907623995e-01
4.604800000000000182e+01 2.267399999999999949e+01 5.561399999999999721e+01 1.250317000000000078e+01 -1.421808802840908992e-01
4.606799999999999784e+01 3.405400000000000205e+01 5.265299999999999869e+01 3.389184000000000196e+00 -2.045630013915384141e-03
4.606799999999999784e+01 3.751500000000000057e+01 4.495100000000000051e+01 6.943761000000000294e+00 6.386013250683604536e-02
4.607300000000000040e+01 1.586100000000000065e+01 4.673899999999999721e+01 -4.835172000000000025e+00 -7.926769575981484905e-02
4.607699999999999818e+01 2.521699999999999875e+01 5.890999999999999659e+01 -6.690413000000000388e+00 -1.114702515308598763e-01
4.607900000000000063e+01 2.101399999999999935e+01 5.575500000000000256e+01 2.271408999999999878e+01 1.853015425875419175e-01
4.609199999999999875e+01 1.938299999999999912e+01 5.108299999999999841e+01 4.103228999999999793e+00 -6.942148676359556625e-02
4.609400000000000119e+01 3.114499999999999957e+01 5.780799999999999983e+01 -5.831121000000000443e+00 -3.809627576518003766e-01
4.609400000000000119e+01 3.200999999999999801e+01 5.780799999999999983e+01 -1.130495999999999945e+01 -2.792583891671120977e-01
4.609499999999999886e+01 1.746499999999999986e+01 5.375800000000000267e+01 -1.054165999999999936e+00 -6.783815399177535455e-02
4.610099999999999909e+01 3.257800000000000296e+01 5.834300000000000352e+01 -1.863984999999999914e+01 -2.763562820733393433e-01
4.610300000000000153e+01 1.735600000000000165e+01 5.199900000000000233e+01 8.816503000000000867e+00 -5.898062201955596440e-02
4.610300000000000153e+01 1.735600000000000165e+01 5.295700000000000074e+01 3.830796000000000134e+01 -6.244598797605459273e-02
4.610799999999999699e+01 3.626100000000000279e+01 4.579099999999999682e+01 9.056580999999999548e+00 -4.372460228413386357e-02
4.610900000000000176e+01 3.612299999999999756e+01 4.699000000000000199e+01 2.077283999999999864e+01 -4.408809186527849755e-02
4.611099999999999710e+01 2.159600000000000009e+01 6.070700000000000074e+01 -6.504798000000000080e+00 -1.234575066686558198e-01
4.611099999999999710e+01 2.159600000000000009e+01 6.166499999999999915e+01 1.005469000000000079e+01 -1.243700988316907424e-01
4.611099999999999710e+01 2.410399999999999920e+01 6.070700000000000074e+01 1.358051000000000101e+02 -1.215624048793639417e-01
4.611099999999999710e+01 2.410399999999999920e+01 6.166499999999999915e+01 -5.788810999999999929e+00 -1.067072732247689171e-01
4.611500000000000199e+01 9.471999999999999531e+00 4.882800000000000296e+01 -3.532014999999999905e+00 1.431124027096089546e-01
4.611699999999999733e+01 1.556900000000000084e+01 4.776599999999999824e+01 -1.295035000000000025e+01 -7.025765708532497045e-02
4.611899999999999977e+01 4.060699999999999932e+01 4.752000000000000313e+01 2.132270999999999805e+00 -4.191285854189782945e-02
4.612299999999999756e+01 9.673600000000000421e+00 4.151899999999999835e+01 9.115847999999999729e-01 1.589119185965854608e-01
4.613100000000000023e+01 1.616400000000000148e+01 4.603900000000000148e+01 -5.981107999999999869e+00 -8.806521426332426794e-02
4.613900000000000290e+01 2.596600000000000108e+01 4.970100000000000051e+01 -3.503464000000000134e+00 -2.847527857337449619e-01
4.614099999999999824e+01 2.169699999999999918e+01 4.853999999999999915e+01 3.094158000000000186e-01 -1.033702615256501672e-01
4.614099999999999824e+01 2.314300000000000068e+01 4.773400000000000176e+01 6.062496999999999581e+00 -1.113552334839599534e-01
4.614300000000000068e+01 1.860999999999999943e+01 5.115899999999999892e+01 -2.643422000000000160e+00 -6.572085766945531815e-02
4.614600000000000080e+01 3.417499999999999716e+01 5.129999999999999716e+01 -4.274591000000000030e+00 -1.808422324986205115e-02
4.614699999999999847e+01 3.351899999999999835e+01 5.691199999999999903e+01 -1.353448000000000029e+01 -2.967174750045601384e-01
4.614999999999999858e+01 3.003699999999999903e+01 5.131700000000000017e+01 -5.164204999999999934e+00 -2.793396282274004383e-01
4.615100000000000335e+01 2.285000000000000142e+01 5.986699999999999733e+01 -3.748565000000000147e+00 -1.625707969935228647e-01
4.615100000000000335e+01 2.285000000000000142e+01 6.250500000000000256e+01 8.089530999999999139e+00 -1.417214395836719487e-01
4.616599999999999682e+01 3.617999999999999972e+01 4.831700000000000017e+01 7.627126999999999768e+00 -4.427075533266667390e-02
4.617399999999999949e+01 3.833599999999999852e+01 5.107900000000000063e+01 1.111308000000000007e+01 -3.434015965029119100e-02
4.617399999999999949e+01 4.117699999999999960e+01 5.094599999999999795e+01 1.010460999999999920e+01 -2.609571772252485336e-02
4.619400000000000261e+01 3.453399999999999892e+01 5.536099999999999710e+01 -1.091690000000000005e+01 -2.775480266075208702e-01
4.619400000000000261e+01 3.453399999999999892e+01 5.688100000000000023e+01 -2.810887999999999920e+01 -3.069089867158415474e-01
4.621300000000000097e+01 1.214499999999999957e+01 4.164200000000000301e+01 -1.057243000000000066e+01 1.650987653377668507e-01
4.621800000000000352e+01 3.980199999999999960e+01 5.186699999999999733e+01 4.707647999999999833e+00 -2.026434847220859661e-02
4.624900000000000233e+01 1.339499999999999957e+01 4.234700000000000131e+01 -4.617715999999999710e+00 1.748217131873399388e-01
4.625200000000000244e+01 3.349799999999999756e+01 5.346300000000000097e+01 -4.396379000000000259e-01 8.404570867926123429e-03
4.625300000000000011e+01 1.446899999999999942e+01 4.187599999999999767e+01 2.610362999999999989e+00 1.882473876436495386e-01
4.625300000000000011e+01 1.594500000000000028e+01 4.119400000000000261e+01 1.619097999999999926e+00 2.029973615724344482e-01
4.625300000000000011e+01 1.739099999999999824e+01 4.200000000000000000e+01 1.262894000000000005e+01 2.046214759239309566e-01
4.625699999999999790e+01 3.497200000000000131e+01 4.978099999999999881e+01 -2.439360000000000195e+00 -3.449956227385419377e-02
4.625699999999999790e+01 3.497200000000000131e+01 5.130100000000000193e+01 -1.244748000000000054e+01 -2.326276595027446104e-02
4.625699999999999790e+01 3.591199999999999903e+01 5.130100000000000193e+01 -3.920680999999999727e+01 -2.979499732673350845e-02
4.625699999999999790e+01 3.326500000000000057e+01 5.612100000000000222e+01 -9.875090999999999397e+00 -3.022934779319412235e-01
4.625699999999999790e+01 3.486299999999999955e+01 5.612100000000000222e+01 -3.040142000000000166e+01 -2.727687198416430259e-01
4.626299999999999812e+01 1.751200000000000045e+01 4.468599999999999994e+01 3.642528000000000077e+01 -9.429375977592657776e-02
4.627400000000000091e+01 1.062599999999999945e+01 4.154399999999999693e+01 -1.966550000000000020e+00 1.448651816807790538e-01
4.628099999999999881e+01 1.294599999999999973e+01 5.025699999999999790e+01 -2.885810999999999904e+00 -3.636210613602860325e-02
4.628099999999999881e+01 1.464600000000000080e+01 5.025699999999999790e+01 -1.091217999999999932e+01 -3.738206584989673953e-01
4.629899999999999949e+01 2.808099999999999952e+01 5.971600000000000108e+01 -6.808170999999999751e+00 -4.028597107035420954e-01
4.630400000000000205e+01 3.358200000000000074e+01 5.532399999999999807e+01 -1.040745000000000076e+01 -3.128603927284677733e-01
4.630499999999999972e+01 3.614600000000000080e+01 4.916400000000000148e+01 1.554974999999999996e+00 -4.477820009401710377e-02
4.631099999999999994e+01 2.611100000000000065e+01 5.044500000000000028e+01 -1.822025000000000006e+01 -2.843411641970420289e-01
4.631099999999999994e+01 2.697700000000000031e+01 5.044500000000000028e+01 -1.354378999999999955e+01 -3.083882185858369818e-01
4.631300000000000239e+01 2.824500000000000099e+01 4.945900000000000318e+01 -4.329807999999999879e+00 -2.761069571183087934e-01
4.631300000000000239e+01 2.929500000000000171e+01 4.945900000000000318e+01 -3.585366000000000053e+00 -1.653583243049157325e-02
4.631300000000000239e+01 2.929500000000000171e+01 5.115899999999999892e+01 1.325506000000000073e+00 -2.766754097615345964e-01
4.632000000000000028e+01 3.464300000000000068e+01 5.054099999999999682e+01 -1.239945999999999948e+01 -2.820091514583358827e-02
4.633100000000000307e+01 3.155099999999999838e+01 6.152499999999999858e+01 -5.512532000000000210e+01 -2.064758242786494669e-01
4.633100000000000307e+01 3.284400000000000119e+01 6.080400000000000205e+01 -2.846022999999999925e+01 -2.292112178272104617e-01
4.633100000000000307e+01 3.307099999999999795e+01 6.000500000000000256e+01 -3.943424000000000262e+01 -2.888355409837356502e-01
4.634100000000000108e+01 3.995199999999999818e+01 4.674600000000000222e+01 9.230857999999999564e+00 6.408196399927693077e-02
4.634300000000000352e+01 1.764099999999999824e+01 4.372800000000000153e+01 3.144703999999999944e+00 -9.898691033781090165e-02
4.634799999999999898e+01 2.457400000000000162e+01 5.521300000000000097e+01 -1.000634999999999941e+01 -1.308444752063650796e-01
4.635900000000000176e+01 2.001099999999999923e+01 5.116499999999999915e+01 3.501352999999999938e+00 -7.448546066965516799e-02
4.635999999999999943e+01 3.294899999999999807e+01 5.918900000000000006e+01 -1.416250999999999927e+01 -2.802289289792287419e-01
4.636699999999999733e+01 6.150299999999999656e+00 4.260699999999999932e+01 3.404087999999999781e+00 2.038146143142888500e-01
4.636699999999999733e+01 4.123100000000000165e+01 4.841899999999999693e+01 6.928271999999999764e+00 -4.216430392148771272e-02
4.636699999999999733e+01 4.148499999999999943e+01 4.931300000000000239e+01 1.244908000000000037e+01 -3.910415972207584301e-02
4.636699999999999733e+01 3.020100000000000051e+01 6.089800000000000324e+01 -1.082978999999999914e+01 -2.953501307557495625e-01
4.636800000000000210e+01 2.744800000000000040e+01 5.931700000000000017e+01 -1.455057000000000045e+01 -4.029230322282362775e-01
4.636800000000000210e+01 1.776099999999999923e+01 4.289399999999999835e+01 1.009308000000000050e+01 -1.027965599777075772e-01
4.636899999999999977e+01 1.204299999999999926e+01 4.897299999999999898e+01 -2.808767000000000014e+00 1.909018622225145401e-01
4.638400000000000034e+01 2.966400000000000148e+01 5.030899999999999750e+01 -4.836918999999999969e+00 -2.785585716835686232e-01
4.639300000000000068e+01 1.090300000000000047e+01 4.820199999999999818e+01 -5.540608999999999895e+00 1.633147812485216122e-01
4.640100000000000335e+01 2.315399999999999991e+01 5.518099999999999739e+01 6.660620999999999903e+00 -1.382643313240583260e-01
4.640400000000000347e+01 3.674000000000000199e+01 4.501599999999999824e+01 5.481775999999999982e+00 -4.518319533327384840e-02
4.640400000000000347e+01 3.828999999999999915e+01 4.501599999999999824e+01 9.375636999999999333e+00 6.395904745016284254e-02
4.640800000000000125e+01 2.880900000000000105e+01 5.185900000000000176e+01 -2.068233000000000033e+01 -2.740205352545433959e-01
4.641499999999999915e+01 2.120799999999999841e+01 4.915400000000000347e+01 6.403345000000000564e-02 -7.671482905661689000e-02
4.641700000000000159e+01 2.182400000000000162e+01 5.568500000000000227e+01 2.177263999999999911e+01 1.754690059313573081e-01
4.642000000000000171e+01 4.134700000000000131e+01 5.019299999999999784e+01 8.613507000000000247e+00 -3.645092332106104893e-02
4.642300000000000182e+01 2.944699999999999918e+01 6.058299999999999841e+01 -6.527987000000000428e+00 -2.919383464033442066e-01
4.642499999999999716e+01 3.625800000000000267e+01 5.057000000000000028e+01 -2.632684000000000069e+01 -4.048524033744967804e-02
4.642499999999999716e+01 2.995200000000000173e+01 5.675600000000000023e+01 -4.226255000000000095e+00 -3.814313466227778338e-01
4.642699999999999960e+01 3.718900000000000006e+01 5.051400000000000290e+01 1.923108000000000040e+00 -4.393354116248400498e-02
4.644400000000000261e+01 7.157000000000000028e+00 4.133800000000000097e+01 -6.004578000000000415e-01 1.773638743389163719e-01
4.644400000000000261e+01 8.856999999999999318e+00 4.133800000000000097e+01 1.797965000000000035e+00 1.752413900919030376e-01
4.644700000000000273e+01 2.888899999999999935e+01 5.455700000000000216e+01 -2.934682000000000102e+01 -3.961895829257527923e-01
4.644700000000000273e+01 2.888899999999999935e+01 5.542199999999999704e+01 -8.604727999999999710e+00 -3.958969819900457487e-01
4.648400000000000176e+01 3.406400000000000006e+01 5.612100000000000222e+01 -3.796641000000000332e+01 -3.087432841997947985e-01
4.649000000000000199e+01 3.157799999999999940e+01 5.829899999999999949e+01 -8.286706000000000572e+00 -2.742828152318773083e-01
4.649099999999999966e+01 1.761899999999999977e+01 5.437400000000000233e+01 1.123263999999999996e+01 -8.016066902113991310e-02
4.649099999999999966e+01 1.785000000000000142e+01 5.518900000000000006e+01 1.491454000000000057e+00 2.055360541802232210e-01
4.649099999999999966e+01 1.916900000000000048e+01 5.592399999999999949e+01 -1.022765000000000057e+01 1.947545400234021729e-01
4.649900000000000233e+01 3.685000000000000142e+01 4.932300000000000040e+01 1.469544999999999924e+01 -4.797637917424439624e-02
4.650000000000000000e+01 2.789000000000000057e+01 5.025600000000000023e+01 -7.264699000000000240e+00 -2.740058264869126847e-01
4.650000000000000000e+01 2.891499999999999915e+01 5.307999999999999829e+01 -4.164551999999999765e+01 -2.717540542780925716e-01
4.650000000000000000e+01 2.891499999999999915e+01 5.373199999999999932e+01 -4.512021000000000015e+01 -3.042555749914986896e-01
4.651100000000000279e+01 6.612899999999999778e+00 4.668200000000000216e+01 4.157346999999999682e+00 1.052436518919588754e-01
4.651100000000000279e+01 6.822000000000000064e+00 4.741799999999999926e+01 4.332677000000000334e+00 7.869368372097849951e-02
4.652600000000000335e+01 3.044500000000000028e+01 5.754099999999999682e+01 -6.317179999999999573e+00 -3.808597734224536957e-01
4.653300000000000125e+01 6.118900000000000006e+00 4.352300000000000324e+01 7.695955999999999797e+00 2.242360155136708944e-01
4.654200000000000159e+01 1.138499999999999979e+01 4.157900000000000063e+01 -2.688180000000000014e+00 1.553523602064496578e-01
4.654699999999999704e+01 3.544200000000000017e+01 5.054099999999999682e+01 -3.161666999999999916e+01 -3.549644206344143571e-02
4.655100000000000193e+01 2.048100000000000165e+01 5.567499999999999716e+01 3.747874999999999801e+01 1.829170118004707635e-01
4.655199999999999960e+01 1.269500000000000028e+01 4.228799999999999670e+01 -1.425276000000000032e+01 1.668254886846271823e-01
4.655199999999999960e+01 1.409500000000000064e+01 4.228799999999999670e+01 1.120392999999999972e+00 1.809657475868682308e-01
4.655299999999999727e+01 3.808400000000000318e+01 5.043500000000000227e+01 1.032133999999999929e+01 -4.690763042269089494e-02
4.655700000000000216e+01 3.654699999999999704e+01 5.002300000000000324e+01 -1.760735999999999990e+01 -4.704608675030452769e-02
4.656400000000000006e+01 1.546400000000000041e+01 4.630599999999999739e+01 3.595038000000000178e+00 2.275329191414481311e-01
4.657099999999999795e+01 2.526599999999999824e+01 4.943399999999999750e+01 5.814721999999999724e+00 -2.810903415115403869e-01
4.658200000000000074e+01 1.813100000000000023e+01 5.170300000000000296e+01 -2.831722000000000072e+00 -6.807291318148395165e-02
4.658200000000000074e+01 1.908899999999999864e+01 5.170300000000000296e+01 -7.866858999999999824e+00 -7.318555148429498058e-02
4.658200000000000074e+01 1.995400000000000063e+01 5.170300000000000296e+01 8.837135999999999214e+00 -7.720922409061459213e-02
4.659000000000000341e+01 2.237099999999999866e+01 6.041100000000000136e+01 -3.712070000000000203e+00 -1.763950999367952521e-01
4.659000000000000341e+01 2.237099999999999866e+01 6.196099999999999852e+01 1.935904999999999916e+02 -1.731018446964424640e-01
4.659000000000000341e+01 2.332900000000000063e+01 6.041100000000000136e+01 2.636678999999999995e+00 -1.455268307621322699e-01
4.659000000000000341e+01 2.332900000000000063e+01 6.196099999999999852e+01 -4.133923999999999666e+01 -1.313458555253863014e-01
4.660199999999999676e+01 8.522000000000000242e+00 4.922099999999999653e+01 -2.607953999999999883e+00 1.200361356513370142e-01
4.660600000000000165e+01 1.242099999999999937e+01 4.940699999999999648e+01 -2.601204000000000072e+00 -5.748954631153087302e-02
4.660600000000000165e+01 1.517099999999999937e+01 4.749099999999999966e+01 5.592552999999999663e+00 -7.905685852561368521e-02
4.660600000000000165e+01 1.517099999999999937e+01 4.835699999999999932e+01 2.347757000000000038e-01 -6.822174038813029473e-02
4.660600000000000165e+01 1.517099999999999937e+01 4.940699999999999648e+01 -2.180063000000000084e+00 -3.741581956427371125e-01
4.663700000000000045e+01 1.009999999999999964e+01 4.834799999999999898e+01 7.688184999999999825e+00 1.518211554262761387e-01
4.663799999999999812e+01 2.876999999999999957e+01 5.030899999999999750e+01 -4.691982000000000319e+00 -2.754126472355452604e-01
4.664699999999999847e+01 1.779500000000000171e+01 5.247800000000000153e+01 1.083328999999999986e+01 -6.975339317533450767e-02
4.664999999999999858e+01 1.379599999999999937e+01 5.032800000000000296e+01 1.007690000000000019e+01 -3.742631706838949746e-01
4.665500000000000114e+01 2.203500000000000014e+01 6.118599999999999994e+01 1.428123000000000076e+01 -1.129271195806579309e-01
4.665500000000000114e+01 2.366499999999999915e+01 6.118599999999999994e+01 3.593891000000000169e-01 -1.296776634140817674e-01
4.665699999999999648e+01 3.657699999999999818e+01 4.788400000000000034e+01 1.019130000000000003e+01 -4.980569014956304219e-02
4.666599999999999682e+01 3.942699999999999960e+01 4.589600000000000080e+01 8.555412000000000461e+00 6.363967529106061283e-02
4.666599999999999682e+01 2.229299999999999926e+01 4.805899999999999750e+01 -2.303078000000000181e+00 -1.078996309136845272e-01
4.666599999999999682e+01 2.399299999999999855e+01 4.805899999999999750e+01 -7.069155000000000300e-01 -3.900000000000000133e-01
4.667799999999999727e+01 5.767699999999999605e+00 4.435199999999999676e+01 1.687953999999999954e+00 1.393936412090356347e-01
4.667799999999999727e+01 5.767699999999999605e+00 4.540200000000000102e+01 3.511503999999999959e+00 4.696335485943112231e-02
4.668399999999999750e+01 6.905300000000000438e+00 4.809000000000000341e+01 1.903173000000000004e+00 2.550814809279299267e-01
4.669700000000000273e+01 1.160299999999999976e+01 4.826100000000000279e+01 -6.424980999999999831e+00 1.733995918847517914e-01
4.669899999999999807e+01 1.769600000000000151e+01 5.338400000000000034e+01 9.684074000000000737e+00 -7.525407589191765445e-02
4.669899999999999807e+01 3.927700000000000102e+01 5.127100000000000080e+01 8.053751000000000104e+00 -4.352436690412871123e-02
4.669899999999999807e+01 4.032699999999999818e+01 5.127100000000000080e+01 8.735697999999999297e+00 -3.929017253178164470e-02
4.670799999999999841e+01 2.654400000000000048e+01 5.093599999999999994e+01 -1.782619000000000042e+01 -3.049945597671771536e-01
4.671600000000000108e+01 2.083399999999999963e+01 4.998599999999999710e+01 3.074583000000000155e+01 -7.784753865097909786e-02
4.673299999999999699e+01 2.522800000000000153e+01 5.764099999999999824e+01 -1.981948999999999828e+01 -1.134637843576231930e-01
4.673299999999999699e+01 2.533899999999999864e+01 5.684300000000000352e+01 -1.641321999999999903e+01 -1.149270704847441815e-01
4.673299999999999699e+01 2.674800000000000111e+01 5.916100000000000136e+01 -4.577915999999999741e+01 -4.034295084327908509e-01
4.673599999999999710e+01 1.501600000000000001e+01 4.142300000000000182e+01 -1.911960000000000048e-01 1.929157974473182102e-01
4.673599999999999710e+01 1.687399999999999878e+01 4.142300000000000182e+01 4.315019999999999634e+00 2.031268290609605232e-01
4.674099999999999966e+01 2.844699999999999918e+01 5.106600000000000250e+01 -8.767018000000000200e+00 -2.733115153122061547e-01
4.675999999999999801e+01 2.182400000000000162e+01 5.260900000000000176e+01 1.680406999999999940e+01 -1.315490332118488259e-01
4.676599999999999824e+01 2.537399999999999878e+01 5.849600000000000222e+01 -1.256919000000000075e+01 -1.063743818930512203e-01
4.676899999999999835e+01 6.631700000000000372e+00 4.218800000000000239e+01 4.304981999999999975e-01 2.019086098701359799e-01
4.678000000000000114e+01 2.046900000000000119e+01 5.183700000000000330e+01 9.451556999999999320e+00 -1.101956014888896968e-01
4.678000000000000114e+01 2.506500000000000128e+01 5.560999999999999943e+01 -1.195514000000000010e+01 -1.305192165371948099e-01
4.678000000000000114e+01 2.527400000000000091e+01 5.634599999999999653e+01 -1.925842000000000098e+01 -1.315438974289240004e-01
4.679399999999999693e+01 3.087800000000000011e+01 5.824099999999999966e+01 -5.613968999999999987e+00 -3.799237298315957800e-01
4.679999999999999716e+01 1.207799999999999940e+01 4.867999999999999972e+01 -3.446607999999999894e+00 1.851151042326564800e-01
4.680100000000000193e+01 3.079100000000000037e+01 6.123499999999999943e+01 -2.082510999999999868e+01 -2.958588892583204899e-01
4.680100000000000193e+01 3.231099999999999994e+01 5.877499999999999858e+01 -2.571379999999999910e+01 -2.734993247523565540e-01
4.680100000000000193e+01 3.231099999999999994e+01 6.123499999999999943e+01 -3.448028000000000048e+01 -2.270053636403884245e-01
4.680700000000000216e+01 2.919500000000000028e+01 5.679099999999999682e+01 -3.340914000000000161e+00 -3.959395482939064292e-01
4.681300000000000239e+01 8.006999999999999673e+00 4.126700000000000301e+01 1.229611000000000010e+00 1.788920100289867199e-01
4.681600000000000250e+01 1.005799999999999983e+01 4.210399999999999920e+01 2.183589000000000002e+00 1.774030262892805909e-01
4.682099999999999795e+01 2.077700000000000102e+01 5.093900000000000006e+01 9.208721999999999852e+00 -1.076943819216348991e-01
4.682999999999999829e+01 3.773599999999999710e+01 4.979800000000000182e+01 2.379425000000000168e+01 -5.350989491617989119e-02
4.683100000000000307e+01 1.589700000000000024e+01 4.560600000000000165e+01 -1.790118999999999971e+01 -8.792897057906313985e-02
4.683299999999999841e+01 2.900700000000000145e+01 5.992399999999999949e+01 -1.522475999999999985e+01 -4.010906181920635416e-01
4.683299999999999841e+01 3.005699999999999861e+01 5.822399999999999665e+01 -5.941233999999999682e+00 -3.807126490327287782e-01
4.683800000000000097e+01 2.956200000000000117e+01 5.760000000000000142e+01 -5.022541000000000366e+00 -3.811946131697768747e-01
4.684400000000000119e+01 2.520200000000000173e+01 5.006600000000000250e+01 -6.186198000000000086e+00 -1.204420211627209303e-01
4.684899999999999665e+01 6.502600000000000158e+00 4.314600000000000080e+01 2.519117000000000051e+00 2.201130546377180752e-01
4.685499999999999687e+01 2.771000000000000085e+01 5.920199999999999818e+01 -4.293453999999999837e+01 -4.020999185019974997e-01
4.688300000000000267e+01 3.596500000000000341e+01 4.627000000000000313e+01 2.138688000000000144e+00 -4.922194803448035061e-02
4.688300000000000267e+01 3.619599999999999795e+01 4.545499999999999829e+01 6.407871000000000095e+00 -4.831443934828276443e-02
4.688300000000000267e+01 3.619599999999999795e+01 4.708500000000000085e+01 7.986231999999999687e+01 -5.059200646080518060e-02
4.688300000000000267e+01 3.751500000000000057e+01 4.471999999999999886e+01 2.143464999999999954e+00 6.260849959204303761e-02
4.688300000000000267e+01 3.888600000000000279e+01 4.535600000000000165e+01 1.094618999999999964e+01 6.320319519840823796e-02
4.688600000000000279e+01 2.285000000000000142e+01 6.118599999999999994e+01 8.234002999999999517e+00 -1.564933530923802718e-01
4.689800000000000324e+01 2.234900000000000020e+01 5.508899999999999864e+01 1.559506000000000014e+01 1.694439358632837955e-01
4.692499999999999716e+01 4.077799999999999869e+01 4.791100000000000136e+01 1.100981999999999950e+01 6.188044334967666982e-02
4.692799999999999727e+01 2.117599999999999838e+01 5.193999999999999773e+01 1.727881000000000000e+01 -1.197414167230287652e-01
4.694599999999999795e+01 2.085600000000000165e+01 5.258100000000000307e+01 1.107108000000000025e+01 -1.222308415825950068e-01
4.695700000000000074e+01 2.358399999999999963e+01 5.450099999999999767e+01 -4.927669999999999995e+00 -1.343442264753136883e-01
4.696900000000000119e+01 2.255999999999999872e+01 5.260900000000000176e+01 2.982313999999999865e+01 -1.386273452812716855e-01
4.696999999999999886e+01 1.839399999999999835e+01 5.562800000000000011e+01 8.142454999999999998e+00 1.910662059881004793e-01
4.696999999999999886e+01 1.994399999999999906e+01 5.562800000000000011e+01 1.274863000000000000e+02 1.801400098725293164e-01
4.697299999999999898e+01 1.091499999999999915e+01 4.211200000000000188e+01 -7.108560999999999908e+00 1.714942674751288032e-01
4.697299999999999898e+01 1.185500000000000043e+01 4.211200000000000188e+01 -3.010976000000000141e+01 1.578762471972556536e-01
4.697899999999999920e+01 1.952199999999999847e+01 5.219400000000000261e+01 -2.661989000000000161e+00 -8.033141003599771068e-02
4.699000000000000199e+01 3.724699999999999989e+01 4.889000000000000057e+01 2.614790999999999954e+01 -5.530526438306130471e-02
4.699099999999999966e+01 2.176800000000000068e+01 4.890899999999999892e+01 -9.787265000000000548e-01 -1.077745643378373863e-01
4.699099999999999966e+01 2.451800000000000068e+01 4.890899999999999892e+01 1.115544000000000047e+01 -3.900000000000000133e-01
4.700699999999999790e+01 1.669099999999999895e+01 4.513199999999999790e+01 1.296931000000000012e+01 -8.925837113856299743e-02
4.701599999999999824e+01 2.135699999999999932e+01 5.515400000000000347e+01 4.151001000000000118e+01 1.726688722594326708e-01
4.702000000000000313e+01 2.865200000000000102e+01 5.912700000000000244e+01 -1.795157000000000025e+01 -3.999036775266789356e-01
4.702100000000000080e+01 4.072800000000000153e+01 5.072399999999999665e+01 9.424587000000000714e+00 -4.930949183180900752e-02
4.702600000000000335e+01 1.721799999999999997e+01 4.438900000000000290e+01 1.495425000000000004e+01 -9.293330452638207118e-02
4.702700000000000102e+01 2.225700000000000145e+01 5.190899999999999892e+01 4.457466000000000150e+01 -1.300149396931322698e-01
4.703099999999999881e+01 1.605300000000000082e+01 4.112599999999999767e+01 2.555851999999999791e+00 1.992734832321367278e-01
4.703499999999999659e+01 2.314300000000000068e+01 4.798799999999999955e+01 1.584926000000000057e+00 -3.899999999999999578e-01
4.703600000000000136e+01 7.671999999999999709e+00 4.879299999999999926e+01 3.354229999999999823e+00 4.279803465949751778e-02
4.703600000000000136e+01 9.371999999999999886e+00 4.879299999999999926e+01 1.870176999999999978e+01 1.420906994761323983e-01
4.704699999999999704e+01 2.003600000000000136e+01 5.253699999999999903e+01 1.108511999999999986e+01 -1.122610313684273553e-01
4.704899999999999949e+01 2.135600000000000165e+01 5.336699999999999733e+01 3.669258000000000131e+00 1.754975858253083054e-01
4.704899999999999949e+01 2.229200000000000159e+01 5.336699999999999733e+01 1.633893000000000129e+01 1.718121593695118299e-01
4.705100000000000193e+01 2.822899999999999920e+01 5.229200000000000159e+01 -2.802833000000000041e+01 -3.044698800626154944e-01
4.705100000000000193e+01 2.857400000000000162e+01 5.307399999999999807e+01 -2.762546999999999997e+01 -3.027893424382034349e-01
4.705100000000000193e+01 2.857400000000000162e+01 5.390400000000000347e+01 -3.053572000000000131e+01 -3.961381101459455767e-01
4.705700000000000216e+01 3.889900000000000091e+01 5.074600000000000222e+01 1.226904000000000039e+01 -5.662029209772204835e-02
4.705700000000000216e+01 1.324000000000000021e+01 4.268399999999999750e+01 -4.926484000000000307e+00 1.692191145059155355e-01
4.706099999999999994e+01 2.573900000000000077e+01 5.082200000000000273e+01 -1.220447000000000060e+01 -1.197176678728194832e-01
