2.217399999999999949e+01 1.710000000000000142e+01 4.262299999999999756e+01 5.962496999999999936e+00 2.259555846476103136e-01
2.217699999999999960e+01 1.612199999999999989e+01 3.534300000000000352e+01 1.992547000000000068e-01 -7.699390803549493838e-03
2.218499999999999872e+01 8.273099999999999454e+00 3.872999999999999687e+01 4.077125999999999806e+00 2.088244029330648954e-01
2.219699999999999918e+01 1.998400000000000176e+01 3.790800000000000125e+01 -1.697494999999999976e-01 2.514395920872211088e-01
2.219699999999999918e+01 2.019300000000000139e+01 3.717199999999999704e+01 -4.740142999999999773e+00 2.635327838495203912e-01
2.219699999999999918e+01 2.019300000000000139e+01 3.864399999999999835e+01 4.361608999999999625e+00 2.408214386153368358e-01
2.219699999999999918e+01 2.138400000000000034e+01 3.930799999999999983e+01 1.374544999999999995e+01 2.257000827470665438e-01
2.220700000000000074e+01 1.953999999999999959e+00 3.789600000000000080e+01 -9.567975999999999814e+00 1.947773119659569063e-01
2.221999999999999886e+01 1.655199999999999960e+01 4.416899999999999693e+01 5.692445000000000199e+00 2.241597761614875228e-01
2.223199999999999932e+01 1.679700000000000060e+01 4.332300000000000040e+01 4.490747999999999962e+00 2.250908366439454134e-01
2.223799999999999955e+01 1.004700000000000060e+01 2.725600000000000023e+01 -6.115122999999999642e+00 -2.967033775462809553e-01
2.223900000000000077e+01 1.778000000000000025e+00 3.299600000000000222e+01 4.759053000000000111e+01 2.008607176407435357e-01
2.224399999999999977e+01 1.607700000000000173e+01 3.096900000000000119e+01 2.572477000000000236e-01 1.116879462674602065e-02
2.224399999999999977e+01 1.607700000000000173e+01 3.266899999999999693e+01 5.655890000000000084e-01 5.759920976908473357e-03
2.224399999999999977e+01 1.712699999999999889e+01 3.096900000000000119e+01 1.239441000000000015e+00 1.019624840066998307e-02
2.224399999999999977e+01 1.712699999999999889e+01 3.266899999999999693e+01 3.620972000000000079e-01 4.132363426650410322e-03
2.226099999999999923e+01 2.123600000000000065e+01 4.346900000000000119e+01 8.483406999999999698e+00 7.072983490799300554e-02
2.226300000000000168e+01 1.879799999999999915e+00 3.536599999999999966e+01 -2.758481999999999879e+00 1.976127615749926625e-01
2.226599999999999824e+01 2.447400000000000020e+00 2.939399999999999835e+01 -1.728307000000000038e+00 -2.614791543619684466e-01
2.227400000000000091e+01 9.284700000000000841e+00 2.700400000000000134e+01 -8.978224999999999678e-01 -3.842158852520703993e-01
2.233299999999999841e+01 3.785000000000000142e+00 2.621499999999999986e+01 -2.551852999999999927e+00 -3.850803104951532330e-01
2.233599999999999852e+01 1.658800000000000097e+01 4.521800000000000352e+01 1.319838999999999984e+01 2.228998721232939850e-01
2.234900000000000020e+01 2.271900000000000119e+01 4.263199999999999790e+01 6.537912000000000390e+00 5.682375633682464067e-02
2.235200000000000031e+01 1.180199999999999960e+01 3.993500000000000227e+01 1.299577999999999989e+01 2.211561315896857782e-01
2.236400000000000077e+01 1.362400000000000055e+01 4.525000000000000000e+01 8.357281999999999655e+00 2.267274818181310159e-01
2.237399999999999878e+01 4.245700000000000252e+00 3.851800000000000068e+01 -3.237805999999999962e+00 1.926848143988315054e-01
2.237999999999999901e+01 1.794900000000000162e+01 3.564999999999999858e+01 3.757903000000000215e+00 2.666079115045576486e-01
2.239499999999999957e+01 2.237199999999999989e+01 3.964999999999999858e+01 5.336624999999999730e+00 4.619013317414015496e-02
2.239999999999999858e+01 1.512800000000000011e+01 4.712899999999999778e+01 8.360386999999999347e+00 2.235177952708188587e-01
2.240299999999999869e+01 1.141900000000000048e+01 2.812999999999999901e+01 -2.217870000000000008e+00 -1.928756828725162742e-01
2.240299999999999869e+01 1.228500000000000014e+01 2.812999999999999901e+01 -2.219189000000000078e+00 -1.960463171712533426e-01
2.241799999999999926e+01 1.335500000000000043e+01 4.370499999999999829e+01 2.953539999999999832e+00 2.289153539284936867e-01
2.241799999999999926e+01 1.335500000000000043e+01 4.475500000000000256e+01 4.656109999999999971e+00 2.275443621793513671e-01
2.241900000000000048e+01 1.899699999999999989e+01 3.546399999999999864e+01 2.153675999999999924e+00 2.763988469977262663e-01
2.242299999999999827e+01 6.833999999999999631e+00 3.892999999999999972e+01 2.395805000000000184e+00 1.899507748841849086e-01
2.243100000000000094e+01 9.759999999999999787e+00 3.882500000000000284e+01 -4.015460000000000207e+01 2.127087476994901638e-01
2.244000000000000128e+01 1.430300000000000082e+01 3.202400000000000091e+01 -6.274483999999999617e-02 1.817875221023327074e-03
2.244000000000000128e+01 1.430300000000000082e+01 3.342399999999999949e+01 8.398902999999999786e-01 -1.099816753598909652e-02
2.244000000000000128e+01 1.464799999999999969e+01 3.094699999999999918e+01 -4.743632999999999877e-02 1.437974722686428432e-02
2.244000000000000128e+01 1.516900000000000048e+01 3.202400000000000091e+01 2.999772000000000105e+00 -1.423634792779619523e-03
2.244000000000000128e+01 1.516900000000000048e+01 3.342399999999999949e+01 1.513862999999999959e+00 5.034991516265770531e-03
2.244000000000000128e+01 1.551399999999999935e+01 3.094699999999999918e+01 8.037307999999999675e-01 1.343210823124737531e-02
2.244399999999999906e+01 1.375300000000000011e+01 4.620799999999999841e+01 4.835773999999999795e+00 2.257015080841140997e-01
2.244399999999999906e+01 1.650300000000000011e+01 4.620799999999999841e+01 3.272077999999999776e+01 2.222690187599433709e-01
2.245499999999999829e+01 1.115399999999999991e+01 3.962299999999999756e+01 4.094721999999999973e+00 2.185432364974696229e-01
2.246499999999999986e+01 1.784600000000000009e+01 4.235399999999999920e+01 2.029936999999999969e+01 2.250766309806662979e-01
2.246499999999999986e+01 1.924599999999999866e+01 4.235399999999999920e+01 1.172991999999999990e+01 2.210664477610421730e-01
2.248699999999999832e+01 6.195899999999999963e+00 2.610399999999999920e+01 4.747971999999999859e+00 -3.854006500441488070e-01
2.249699999999999989e+01 1.484299999999999953e+00 3.619599999999999795e+01 -2.622218000000000160e+00 1.970040411013858628e-01
2.249699999999999989e+01 1.484299999999999953e+00 3.713600000000000279e+01 -1.056892000000000031e+01 1.960207929906783164e-01
2.249800000000000111e+01 1.400000000000000000e+01 3.272399999999999665e+01 5.858362999999999765e-01 -3.524885419968259992e-03
2.249800000000000111e+01 1.434500000000000064e+01 3.024699999999999989e+01 -1.180387999999999948e+01 2.419030049098170113e-02
2.249800000000000111e+01 1.547199999999999953e+01 3.272399999999999665e+01 2.641197000000000017e+00 9.505164785955297346e-03
2.252199999999999847e+01 5.188699999999999868e+00 2.612500000000000000e+01 -1.445656999999999925e+01 -3.853734053971314411e-01
2.252599999999999980e+01 1.374300000000000033e+01 2.711199999999999832e+01 -1.051225999999999994e+00 -1.954026082254734786e-01
2.253600000000000136e+01 2.713999999999999968e+00 3.795900000000000318e+01 -3.833939999999999770e+01 1.945156708560079328e-01
2.254200000000000159e+01 1.270400000000000063e+01 2.744600000000000151e+01 -1.648908000000000040e+00 -1.928021780619801340e-01
2.256500000000000128e+01 1.497300000000000075e+01 2.793499999999999872e+01 -2.883496000000000059e+00 -1.932496220797799702e-01
2.256500000000000128e+01 1.497300000000000075e+01 2.887500000000000000e+01 -5.396906000000000425e+00 4.512881111247657451e-02
2.257199999999999918e+01 2.980999999999999872e+00 3.461599999999999966e+01 -5.040010999999999797e+00 1.984872231721060420e-01
2.257400000000000162e+01 1.568900000000000006e+01 3.485199999999999676e+01 7.995373000000000063e-01 -1.171262778698320406e-03
2.257400000000000162e+01 1.655499999999999972e+01 3.485199999999999676e+01 1.450971000000000011e+00 -3.851924986035587008e-03
2.257700000000000173e+01 2.252200000000000202e+00 3.363199999999999790e+01 3.008929000000000187e+00 2.001268542153989416e-01
2.259100000000000108e+01 2.034799999999999898e+01 3.625900000000000034e+01 -1.026085000000000053e-01 2.766147067990542552e-01
2.259900000000000020e+01 1.736099999999999977e+00 2.943400000000000105e+01 -7.220990000000000464e-01 -3.842566437709667992e-01
2.260099999999999909e+01 1.567099999999999937e+01 3.329500000000000171e+01 1.548710000000000031e+00 6.004577322462733256e-03
2.260099999999999909e+01 1.660200000000000031e+01 3.329500000000000171e+01 -4.430557999999999719e-02 4.018594314063305209e-03
2.260099999999999909e+01 1.610500000000000043e+01 3.049800000000000111e+01 2.047247000000000094e-01 2.207328386755953026e-02
2.261499999999999844e+01 4.026699999999999724e-01 3.044399999999999906e+01 2.066021999999999803e+00 -8.969141249070378130e-02
2.261499999999999844e+01 4.026699999999999724e-01 3.149399999999999977e+01 2.095720000000000027e+00 -8.565834381283461002e-03
2.262300000000000111e+01 3.315300000000000136e+00 2.697500000000000142e+01 -2.630100999999999800e+00 -3.849991958133242576e-01
2.262900000000000134e+01 2.068400000000000105e+01 3.904099999999999682e+01 2.416675000000000129e+00 2.335234898257619596e-01
2.262999999999999901e+01 2.038599999999999923e+01 4.339800000000000324e+01 3.900706000000000007e+00 7.543439851391368911e-02
2.262999999999999901e+01 2.208599999999999852e+01 4.339800000000000324e+01 1.106408000000000058e+01 6.527280505686568202e-02
2.262999999999999901e+01 2.677599999999999980e+00 3.391599999999999682e+01 2.078548000000000062e+00 1.996675057875792747e-01
2.262999999999999901e+01 2.677599999999999980e+00 3.531600000000000250e+01 -2.956382999999999939e+01 1.976671278753934502e-01
2.263100000000000023e+01 2.958800000000000097e+00 2.865500000000000114e+01 -1.074125999999999914e+00 -3.844533621967192172e-01
2.265200000000000102e+01 3.724499999999999922e+00 3.803399999999999892e+01 -1.719049000000000049e+01 1.938566040785998923e-01
2.265899999999999892e+01 1.536800000000000033e+01 3.399499999999999744e+01 1.116838999999999915e+00 3.657375790993414033e-03
2.266199999999999903e+01 4.544999999999999929e+00 2.615200000000000102e+01 -1.656895000000000095e+01 -3.854462876789140346e-01
2.266400000000000148e+01 3.180800000000000072e+00 2.789900000000000091e+01 -8.136625000000000441e+00 -3.847073889624781362e-01
2.268700000000000117e+01 9.667899999999999494e+00 2.662000000000000099e+01 -1.504944999999999977e+00 -3.851760563706584928e-01
2.269900000000000162e+01 3.616299999999999848e+00 3.520600000000000307e+01 -3.928087000000000018e+01 1.974950393762482936e-01
2.270700000000000074e+01 1.473600000000000065e+01 3.272399999999999665e+01 1.643130999999999897e+00 -5.500299904215721555e-03
2.270700000000000074e+01 1.508099999999999952e+01 3.024699999999999989e+01 -1.608961000000000086e+00 2.561287319496510784e-02
2.271000000000000085e+01 1.373700000000000010e+01 4.282800000000000296e+01 3.777442999999999884e+00 2.300290380538282942e-01
2.271199999999999974e+01 1.171699999999999964e+00 3.263900000000000290e+01 4.911196999999999924e-01 2.017317122901881865e-01
2.271600000000000108e+01 9.032000000000000028e+00 3.892199999999999704e+01 -1.041689000000000043e+01 2.122511000003576564e-01
2.271699999999999875e+01 4.973099999999999632e+00 3.871200000000000330e+01 2.762382000000000115e+00 1.922917600703063779e-01
2.272500000000000142e+01 1.660200000000000031e+01 3.037300000000000111e+01 9.506774000000000058e-01 2.571546911512179873e-02
2.273300000000000054e+01 1.741300000000000026e+01 4.305400000000000205e+01 9.539614000000000260e+00 2.245410729660907712e-01
2.274500000000000099e+01 4.339599999999999902e+00 3.566199999999999903e+01 -4.279482000000000141e+01 1.965189759358363097e-01
2.276500000000000057e+01 2.308899999999999864e+01 4.139699999999999847e+01 9.265079999999999316e+00 4.561689415806641223e-02
2.276899999999999835e+01 1.854599999999999937e+01 4.229500000000000171e+01 2.127715999999999852e+01 2.235410509579901783e-01
2.276899999999999835e+01 1.427800000000000047e+01 4.705799999999999983e+01 1.101906999999999925e+01 2.245729671081298506e-01
2.276899999999999835e+01 1.597799999999999976e+01 4.705799999999999983e+01 1.383871000000000073e+01 2.225792787577661191e-01
2.276899999999999835e+01 1.797700000000000031e+01 3.129400000000000048e+01 8.754310999999999510e+00 3.331890273563735405e-02
2.276899999999999835e+01 1.797700000000000031e+01 3.234400000000000119e+01 -5.185893000000000086e+00 1.788135304177099899e-02
2.276999999999999957e+01 1.374499999999999922e+01 4.134300000000000352e+01 6.859264999999999946e-01 2.329787195029427715e-01
2.276999999999999957e+01 1.395400000000000063e+01 4.207900000000000063e+01 2.397269000000000094e+00 2.312871711639785666e-01
2.277199999999999847e+01 8.478999999999999204e+00 2.669600000000000151e+01 1.955662999999999929e+00 -3.853788589642144768e-01
2.277700000000000102e+01 1.751599999999999824e+01 3.515899999999999892e+01 2.821006000000000125e+00 -3.051056773289052924e-03
2.278399999999999892e+01 1.250200000000000067e+01 4.020300000000000296e+01 4.498804999999999943e+00 2.356818019851905643e-01
2.279200000000000159e+01 5.983999999999999986e+00 3.900099999999999767e+01 1.014140999999999959e+00 1.912338504251591409e-01
2.279400000000000048e+01 1.298399999999999999e+01 2.707700000000000173e+01 -9.786150000000000126e-01 -1.895682648283081584e-01
2.279599999999999937e+01 1.847299999999999898e+01 3.506600000000000250e+01 1.862212999999999896e+00 2.722019706802177308e-01
2.279899999999999949e+01 2.018299999999999983e+01 3.465400000000000347e+01 8.455945999999999740e-01 2.895634286274035851e-01
2.282300000000000040e+01 2.288800000000000168e+01 4.047999999999999687e+01 4.639510999999999719e+00 4.208403035617353655e-02
2.282799999999999940e+01 1.727799999999999869e+01 4.384799999999999898e+01 1.138679999999999914e+01 2.234620303176445832e-01
2.284600000000000009e+01 1.200399999999999956e+01 2.750400000000000134e+01 -1.234892000000000101e+00 -1.887580187395848375e-01
2.285500000000000043e+01 1.450300000000000011e+01 2.717500000000000071e+01 -6.482560999999999574e+00 -1.974214378195045250e-01
2.285900000000000176e+01 1.138599999999999923e+01 3.995400000000000063e+01 -7.782655000000000545e-01 2.213146224596459211e-01
2.286400000000000077e+01 1.046000000000000085e+01 3.909199999999999875e+01 -1.498456000000000010e+00 2.166445327306937563e-01
2.286799999999999855e+01 1.610399999999999920e+01 3.399499999999999744e+01 2.530807999999999947e+00 3.937334771820459774e-03
2.289099999999999824e+01 4.581900000000000084e+00 3.811299999999999955e+01 5.089607999999999910e-01 1.934013840447204591e-01
2.289699999999999847e+01 2.025100000000000122e+01 3.747500000000000142e+01 -1.190511000000000097e+00 2.551282229131162094e-01
2.289699999999999847e+01 2.025100000000000122e+01 3.834100000000000108e+01 -7.703365999999999936e+00 2.433227692696334210e-01
2.290200000000000102e+01 2.302899999999999991e+01 4.748100000000000165e+01 -1.754990999999999968e+00 2.251187241279643259e-01
2.292899999999999849e+01 1.748799999999999955e+01 3.325200000000000244e+01 3.163070999999999966e+00 8.965681041326334366e-03
2.293199999999999861e+01 1.304599999999999937e+01 4.062599999999999767e+01 1.682701000000000002e+00 2.347608312469135206e-01
2.293299999999999983e+01 2.138400000000000034e+01 3.909899999999999665e+01 5.984765000000000335e+00 2.284553048345565607e-01
2.293299999999999983e+01 7.437299999999999578e+00 3.853499999999999659e+01 2.250182000000000127e+00 2.095062321303957642e-01
2.293799999999999883e+01 1.932199999999999918e+01 3.478900000000000148e+01 1.357161000000000062e+00 2.797065162142386985e-01
2.294000000000000128e+01 9.280000000000000471e-01 2.959400000000000119e+01 -1.073294999999999944e-01 -3.844023492253884622e-01
2.294200000000000017e+01 4.265900000000000247e+00 3.735300000000000153e+01 -4.551630000000000287e+00 1.945268461112567571e-01
2.295299999999999940e+01 1.052200000000000024e+01 2.691400000000000148e+01 -2.006045999999999996e+00 -3.852548144781658968e-01
2.295400000000000063e+01 3.292199999999999793e+00 3.738900000000000290e+01 -3.924204999999999899e+01 1.951267851358603755e-01
2.296300000000000097e+01 5.653999999999999915e+00 2.664399999999999835e+01 -6.755270000000000330e+00 -3.855808885447994383e-01
2.296699999999999875e+01 2.244299999999999962e+00 3.590599999999999881e+01 -1.514771999999999963e+01 1.973928288975285716e-01
2.296699999999999875e+01 2.244299999999999962e+00 3.742600000000000193e+01 -2.587464999999999904e+01 1.957113990103195311e-01
2.296699999999999875e+01 3.183699999999999974e+00 3.590599999999999881e+01 -2.685372999999999877e+01 1.969766989586115846e-01
2.296699999999999875e+01 4.049000000000000377e+00 3.450600000000000023e+01 -1.003420999999999985e+01 1.986997566488220568e-01
2.296699999999999875e+01 7.925699999999999967e-01 3.238400000000000034e+01 6.287835000000000285e+00 -1.073380879117990898e-02
2.298300000000000054e+01 9.959099999999999397e+00 2.608899999999999864e+01 -2.014801999999999982e+00 -3.862643494218471751e-01
2.298799999999999955e+01 1.718400000000000105e+01 3.395199999999999818e+01 1.421246000000000009e+00 4.446586235708913093e-03
2.299800000000000111e+01 1.567300000000000004e+01 3.000700000000000145e+01 -1.174260000000000081e+00 3.136069463397882229e-02
2.301300000000000168e+01 4.772199999999999775e+00 3.496200000000000330e+01 -1.361200999999999972e+01 1.977340629930236515e-01
2.303000000000000114e+01 1.914900000000000047e+00 3.666599999999999682e+01 -1.234697000000000067e+01 1.967261552060028673e-01
2.305600000000000094e+01 1.536899999999999977e+01 2.930699999999999861e+01 -3.495425000000000004e+00 -1.867592036390534338e-01
2.305900000000000105e+01 1.690399999999999991e+01 4.471300000000000097e+01 1.471502000000000088e+01 2.231060666234045420e-01
2.305999999999999872e+01 1.834900000000000020e+01 3.460499999999999687e+01 1.499095000000000066e+00 3.799362792739535612e-03
2.306200000000000117e+01 5.261700000000000266e+00 3.567699999999999960e+01 -1.261646999999999963e+01 1.963766224919831216e-01
2.307000000000000028e+01 2.274500000000000099e+01 4.298799999999999955e+01 6.485896999999999579e+00 5.976013653367023837e-02
2.308999999999999986e+01 1.976000000000000156e+01 4.304099999999999682e+01 7.699510000000000076e+00 2.185205929976754002e-01
2.309199999999999875e+01 4.705599999999999561e+00 3.655599999999999739e+01 -1.586603999999999903e+00 1.954210539715592332e-01
2.309299999999999997e+01 4.075300000000000367e+00 2.668499999999999872e+01 -1.607473999999999847e+01 -3.855319535317881519e-01
2.309299999999999997e+01 5.014700000000000379e+00 2.668499999999999872e+01 -1.878408999999999907e+01 -3.856268233321040739e-01
2.309400000000000119e+01 1.745200000000000173e+01 3.044399999999999906e+01 8.574071999999999250e+00 -5.857482189335881662e-02
2.311899999999999977e+01 2.073600000000000065e+01 3.551700000000000301e+01 1.026645000000000030e+00 2.821834662950800654e-01
2.311899999999999977e+01 1.692399999999999949e+01 4.566599999999999682e+01 1.446789000000000058e+01 2.221962303582668830e-01
2.312399999999999878e+01 1.758299999999999974e+00 2.927199999999999847e+01 -8.335709000000000035e-01 -3.845746508630963345e-01
2.312900000000000134e+01 2.223000000000000043e+01 4.748100000000000165e+01 -1.209000000000000075e+00 2.694761732685704847e-01
2.312900000000000134e+01 2.382799999999999940e+01 4.748100000000000165e+01 -1.393605999999999900e+00 2.270389360026580650e-01
2.313500000000000156e+01 3.530100000000000016e+00 3.663700000000000045e+01 -2.403155999999999892e+01 1.960380829154325100e-01
2.313800000000000168e+01 6.459299999999999820e+00 2.679799999999999827e+01 4.513455999999999690e+00 -3.857405422965872743e-01
2.315599999999999881e+01 2.102100000000000080e+01 3.471099999999999852e+01 8.453884999999999872e-01 2.897039240873051091e-01
2.315599999999999881e+01 3.745899999999999785e+00 2.744500000000000028e+01 -1.260472999999999999e+01 -3.852394162964003499e-01
2.316499999999999915e+01 1.811299999999999955e+01 4.278600000000000136e+01 1.060840999999999923e+01 2.237009796020718588e-01
2.316700000000000159e+01 9.759999999999999787e+00 3.903399999999999892e+01 -1.259529000000000032e+01 2.155815116703446999e-01
2.317399999999999949e+01 2.252100000000000080e+01 3.970100000000000051e+01 4.662802000000000113e+00 4.812532127210288058e-02
2.318599999999999994e+01 8.272000000000000242e+00 3.863199999999999790e+01 -1.713031000000000148e+01 2.116923640071766699e-01
2.319200000000000017e+01 2.255900000000000105e+01 4.672099999999999653e+01 -1.045212000000000030e+00 2.695047546939466909e-01
2.319200000000000017e+01 2.255900000000000105e+01 4.824099999999999966e+01 -9.765755999999999881e-01 2.260125395774775503e-01
2.319200000000000017e+01 2.349899999999999878e+01 4.672099999999999653e+01 -1.105202999999999935e+00 2.244440557123839886e-01
2.319200000000000017e+01 2.349899999999999878e+01 4.824099999999999966e+01 -1.676018000000000008e+00 2.278478012535251340e-01
2.319699999999999918e+01 1.792099999999999937e+01 3.395199999999999818e+01 2.343367000000000200e+00 8.272922710048528916e-03
2.320899999999999963e+01 1.663700000000000045e+01 4.664800000000000324e+01 2.551032999999999973e+01 2.220209817004432651e-01
2.321399999999999864e+01 3.442499999999999893e+00 2.814499999999999957e+01 -2.762154000000000220e+00 -3.850047943761938929e-01
2.322700000000000031e+01 1.960200000000000031e+01 3.386099999999999710e+01 6.734468000000000121e-01 2.381416406125173579e-01
2.322700000000000031e+01 2.065200000000000102e+01 3.386099999999999710e+01 6.733008000000000326e-01 2.470036374463406015e-01
2.322800000000000153e+01 9.114699999999999136e+00 2.606400000000000006e+01 -8.906553000000000386e-01 -3.867195565372922306e-01
2.323900000000000077e+01 2.115299999999999869e+01 3.601700000000000301e+01 1.192981999999999987e+00 2.751975878924074470e-01
2.324200000000000088e+01 4.087100000000000399e+00 3.386200000000000188e+01 -6.381101000000000134e+00 2.000477802245417824e-01
2.324200000000000088e+01 1.157099999999999973e+01 2.701300000000000168e+01 -7.672902000000000333e-01 -1.823343528772805588e-01
2.324200000000000088e+01 1.243699999999999939e+01 2.701300000000000168e+01 -7.787532000000000343e-01 -1.842751047717403612e-01
2.325700000000000145e+01 2.713999999999999968e+00 3.666599999999999682e+01 -6.458659000000000106e+01 1.965393355337918257e-01
2.325900000000000034e+01 2.201699999999999946e+01 3.871099999999999852e+01 3.097646999999999817e+00 6.106575312816625578e-02
2.326300000000000168e+01 1.374300000000000033e+01 2.678699999999999903e+01 -2.235285000000000188e+00 -1.867645486785623477e-01
2.326399999999999935e+01 1.784299999999999997e+01 4.351100000000000279e+01 8.871254000000000417e+00 2.230013175219108246e-01
2.326699999999999946e+01 2.087999999999999901e+01 3.702000000000000313e+01 4.556472000000000300e+00 2.593608356834266049e-01
2.326800000000000068e+01 1.302999999999999936e+01 4.422999999999999687e+01 2.741149000000000058e+00 2.285730228605436787e-01
2.326800000000000068e+01 1.328400000000000070e+01 4.333599999999999852e+01 4.058682000000000123e+00 2.296135484433054208e-01
2.327199999999999847e+01 1.840299999999999869e+01 3.296900000000000119e+01 2.734325000000000117e+00 1.954175041486377537e-02
2.327299999999999969e+01 5.458700000000000330e+00 3.840500000000000114e+01 9.570288000000000406e-02 1.928787580093613285e-01
2.327299999999999969e+01 6.509299999999999642e+00 3.840500000000000114e+01 4.766580000000000261e-01 1.920239288500345531e-01
2.327899999999999991e+01 1.901899999999999835e+01 4.288400000000000034e+01 2.853190000000000115e+00 2.211846074209639634e-01
2.329400000000000048e+01 1.368200000000000038e+01 4.657699999999999818e+01 1.574779000000000018e+01 2.256065481619612678e-01
2.329400000000000048e+01 1.512800000000000011e+01 4.738300000000000267e+01 2.243198999999999899e+01 2.235513838263652464e-01
2.329400000000000048e+01 1.317800000000000082e+01 4.512599999999999767e+01 6.225687999999999889e+00 2.274061428191443690e-01
2.329599999999999937e+01 2.239300000000000068e+01 3.683200000000000074e+01 9.183573000000000430e-01 3.351467375003541749e-01
2.330499999999999972e+01 5.259599999999999831e+00 3.657099999999999795e+01 -2.662443000000000115e+00 1.953143640240185275e-01
2.332300000000000040e+01 1.331799999999999962e+01 4.576400000000000290e+01 3.836240000000000094e+00 2.266464317645330573e-01
2.332400000000000162e+01 1.213899999999999935e+01 4.024199999999999733e+01 5.894326000000000398e+00 2.355494389708702729e-01
2.332499999999999929e+01 1.503599999999999959e+01 2.760600000000000165e+01 -2.600605999999999973e+00 -1.848873259028760985e-01
2.332499999999999929e+01 1.536100000000000065e+01 2.834299999999999997e+01 -3.763786000000000342e+01 -1.844092004864310019e-01
2.332799999999999940e+01 1.878200000000000003e+01 3.390500000000000114e+01 1.931151000000000062e+00 1.356216566068051133e-02
2.332900000000000063e+01 2.095100000000000051e+01 3.860799999999999699e+01 6.155190000000000161e+00 2.365539984343202062e-01
2.332999999999999829e+01 2.944999999999999840e+00 3.348299999999999699e+01 -1.218581999999999965e+01 2.008782993229639158e-01
2.333200000000000074e+01 1.546700000000000053e+01 2.889399999999999835e+01 -9.495426000000000144e+00 -1.839218037778335701e-01
2.333699999999999974e+01 2.140200000000000102e+01 4.372099999999999653e+01 1.523799999999999955e+01 7.066891181538806355e-02
2.334400000000000119e+01 5.090300000000000047e+00 3.755499999999999972e+01 -1.107086999999999932e-01 1.941868009932829209e-01
2.336400000000000077e+01 1.310800000000000054e+01 2.665200000000000102e+01 -7.079813000000000356e-01 -1.825531038107726656e-01
2.336599999999999966e+01 1.720599999999999907e+00 3.289000000000000057e+01 -4.891224000000000238e+00 2.018243809448475035e-01
2.336700000000000088e+01 2.979499999999999815e+00 2.862199999999999989e+01 -1.109186999999999923e+00 -3.849256825101720070e-01
2.337199999999999989e+01 4.591899999999999871e+00 2.767200000000000060e+01 5.397489000000000203e+00 -3.853660954111532977e-01
2.337199999999999989e+01 1.368999999999999950e+01 4.111899999999999977e+01 2.584512999999999838e+00 2.335033128061413665e-01
2.337199999999999989e+01 1.389899999999999913e+01 4.185499999999999687e+01 3.401009999999999867e+00 2.318186387801416948e-01
2.338400000000000034e+01 9.479300000000000281e+00 2.536299999999999955e+01 -1.174692999999999987e+00 -3.879233058105401311e-01
2.338400000000000034e+01 1.041900000000000048e+01 2.536299999999999955e+01 -2.044112999999999847e+00 -3.881522970884175305e-01
2.338800000000000168e+01 2.064799999999999969e+01 3.790800000000000125e+01 3.319694999999999840e+00 2.463695347208615938e-01
2.340899999999999892e+01 1.118399999999999928e+01 2.626899999999999835e+01 -3.843398000000000092e+00 -3.868660354265881507e-01
2.341400000000000148e+01 2.154599999999999937e+01 3.683200000000000074e+01 3.115228999999999804e+00 2.596096949562299305e-01
2.343599999999999994e+01 1.094400000000000084e+01 3.975900000000000034e+01 -1.539118999999999904e-01 2.212188683399087252e-01
2.343900000000000006e+01 1.676399999999999935e+01 2.982499999999999929e+01 3.017527999999999988e+00 -3.683672598347025040e-02
2.344800000000000040e+01 7.182400000000000340e+00 2.674399999999999977e+01 2.887967000000000173e+00 -3.862035142375922492e-01
2.346499999999999986e+01 7.799999999999999989e-02 3.096900000000000119e+01 1.139045999999999914e+01 -8.836758747799330904e-02
2.346499999999999986e+01 3.318900000000000183e-01 3.007499999999999929e+01 5.172329999999999650e+00 -3.845314767773158615e-01
2.346499999999999986e+01 3.318900000000000183e-01 3.186299999999999955e+01 2.265566000000000102e+01 -9.388988946649942657e-02
2.346999999999999886e+01 2.192500000000000071e+01 3.596000000000000085e+01 2.351142999999999983e+00 2.716748997709438340e-01
2.349200000000000088e+01 5.924699999999999633e+00 2.759700000000000131e+01 9.480826000000000420e+00 -3.855971000531723258e-01
2.349500000000000099e+01 2.322800000000000153e+01 4.095499999999999829e+01 7.963519999999999932e+00 4.570891961278713417e-02
2.351300000000000168e+01 1.814399999999999835e+01 3.090700000000000003e+01 5.300424000000000246e-01 -5.440358205372834710e-02
2.351800000000000068e+01 1.716499999999999915e+01 4.505700000000000216e+01 2.029656999999999911e+01 2.224697161202559559e-01
2.353200000000000003e+01 9.002599999999999270e+00 3.879999999999999716e+01 -4.727602999999999867e+01 2.144635982834474375e-01
2.354500000000000171e+01 2.322700000000000031e+01 4.192199999999999704e+01 9.454466000000000037e+00 5.185955000329365433e-02
2.355000000000000071e+01 2.165700000000000003e+01 3.520199999999999818e+01 1.554693000000000103e+00 2.803959585411982536e-01
2.355000000000000071e+01 2.328699999999999903e+01 3.683200000000000074e+01 1.240652000000000088e+00 3.149826348221652084e-01
2.355699999999999861e+01 2.458299999999999930e+00 2.900499999999999901e+01 -1.735826000000000091e+00 -3.849001218587708717e-01
2.357000000000000028e+01 5.374900000000000233e+00 2.789900000000000091e+01 2.057077999999999918e+01 -3.854746164071616854e-01
2.357199999999999918e+01 1.744500000000000028e+01 4.423499999999999943e+01 1.518937000000000026e+01 2.229019729367746616e-01
2.357499999999999929e+01 1.841900000000000048e+01 3.157700000000000173e+01 -2.596188999999999858e+00 4.070916731768719349e-02
2.358399999999999963e+01 1.919600000000000151e+01 3.323499999999999943e+01 9.258364000000000038e-01 2.517209566855626093e-02
2.358699999999999974e+01 2.039699999999999847e+01 4.357099999999999795e+01 4.347696000000000005e+00 7.572281079024464900e-02
2.358800000000000097e+01 2.216600000000000037e+01 4.352700000000000102e+01 1.983359000000000094e+01 6.633744637239126496e-02
2.359299999999999997e+01 7.748300000000000409e+00 3.794400000000000261e+01 -6.209190999999999683e+00 2.107879635899755910e-01
2.359400000000000119e+01 1.725300000000000011e+01 4.605400000000000205e+01 5.592742999999999576e+00 2.215785531995715374e-01
2.359700000000000131e+01 2.138400000000000034e+01 3.790800000000000125e+01 5.346112999999999893e+00 2.427017727039895156e-01
2.359799999999999898e+01 5.983999999999999986e+00 3.755499999999999972e+01 6.142166000000000015e-01 1.938803228915609300e-01
2.359900000000000020e+01 2.499099999999999877e+00 3.313400000000000034e+01 -6.104845000000000077e+00 2.016372819335452427e-01
2.362099999999999866e+01 2.291799999999999926e+01 3.598199999999999932e+01 3.566418999999999784e+00 3.322102836684498461e-01
2.362099999999999866e+01 2.291799999999999926e+01 3.768200000000000216e+01 1.840750000000000108e+00 3.082581564496245652e-01
2.362300000000000111e+01 2.302899999999999991e+01 4.618800000000000239e+01 -1.515444999999999931e+00 2.702367467131925882e-01
2.362300000000000111e+01 2.302899999999999991e+01 4.877400000000000091e+01 -5.033712000000000408e+00 2.280236525104922252e-01
2.362800000000000011e+01 4.206299999999999706e+00 2.859900000000000020e+01 1.206306000000000012e+01 -3.851526477635798251e-01
2.362800000000000011e+01 5.071500000000000341e+00 2.859900000000000020e+01 5.898599999999999710e+01 -3.851865022686210560e-01
2.363200000000000145e+01 1.171700000000000053e+01 2.608099999999999952e+01 1.062322999999999906e+00 -2.674902058449226683e-01
2.363800000000000168e+01 3.654500000000000082e+00 3.337100000000000222e+01 -1.338857999999999926e+01 2.012763962252954175e-01
2.364199999999999946e+01 1.889300000000000068e+01 3.253499999999999659e+01 1.079936999999999925e+00 3.179322347080219824e-02
2.366100000000000136e+01 5.844299999999999606e+00 3.525999999999999801e+01 -3.456020000000000092e+00 1.975472224636821428e-01
2.366100000000000136e+01 5.844299999999999606e+00 3.612500000000000000e+01 -3.859900999999999804e+00 1.960908737752248554e-01
2.366199999999999903e+01 2.179899999999999949e+01 4.701100000000000279e+01 -3.120090999999999948e+00 2.734804266238668458e-01
2.366199999999999903e+01 2.179899999999999949e+01 4.795100000000000051e+01 -3.636909000000000169e+00 2.720266131769503160e-01
2.366199999999999903e+01 2.425900000000000034e+01 4.701100000000000279e+01 -4.340487000000000428e+00 2.273249894644663593e-01
2.366199999999999903e+01 2.425900000000000034e+01 4.795100000000000051e+01 -6.759778999999999982e+00 2.291875616001891325e-01
2.366499999999999915e+01 1.717000000000000171e+01 4.658400000000000318e+01 1.762643999999999878e+01 2.214398958591750621e-01
2.367899999999999849e+01 1.134200000000000053e+01 4.005499999999999972e+01 2.556054000000000048e+00 2.237509279260104511e-01
2.370799999999999841e+01 2.012699999999999889e+01 3.326500000000000057e+01 6.485794000000000281e-01 2.273486840398910025e-01
2.371399999999999864e+01 6.920200000000000351e+00 3.767000000000000171e+01 4.007842000000000127e+00 1.932086224967510257e-01
2.375199999999999889e+01 2.150199999999999889e+01 3.418599999999999994e+01 1.147167999999999966e+00 2.446814616206810789e-01
2.376099999999999923e+01 1.267500000000000071e+01 2.616100000000000136e+01 2.954981000000000080e+00 -2.722215654953034636e-01
2.376500000000000057e+01 1.616700000000000159e+01 2.916100000000000136e+01 -1.198404999999999943e+00 -1.776368938793330687e-01
2.376800000000000068e+01 4.910000000000000142e+00 3.422299999999999898e+01 -4.265940999999999761e+00 1.997937602523073009e-01
2.377100000000000080e+01 1.124600000000000044e+01 2.555999999999999872e+01 -2.736279000000000128e+00 -3.888394856068332350e-01
2.377599999999999980e+01 2.285300000000000153e+01 4.000699999999999790e+01 4.380891000000000091e+00 2.858190097736600377e-01
2.378600000000000136e+01 1.574900000000000055e+01 4.742600000000000193e+01 2.164516000000000062e+01 2.229356636466126584e-01
2.378999999999999915e+01 1.862699999999999889e+01 4.347399999999999665e+01 -4.065991000000000355e+00 2.215644104445374241e-01
2.379400000000000048e+01 1.460200000000000031e+01 2.711499999999999844e+01 -5.514930999999999583e-01 -2.761237555361783502e-01
2.379700000000000060e+01 1.304599999999999937e+01 4.062599999999999767e+01 1.107718000000000025e+01 2.347082696160086301e-01
2.381500000000000128e+01 9.948999999999999844e+00 2.482999999999999829e+01 -1.083245999999999931e+00 -3.897884622696531909e-01
2.381599999999999895e+01 1.765599999999999881e+01 2.993799999999999883e+01 2.082737999999999978e+00 -2.171855133706811561e-02
2.381899999999999906e+01 1.427800000000000047e+01 4.705799999999999983e+01 9.775686999999999571e+00 2.247707475258278187e-01
2.382499999999999929e+01 7.995599999999999596e+00 2.645700000000000074e+01 1.510627999999999971e-01 -3.870389388567861966e-01
2.384700000000000131e+01 3.001199999999999868e+00 3.314399999999999835e+01 -7.832724999999999937e+00 2.018113369023918635e-01
2.384799999999999898e+01 6.746999999999999886e+00 2.737699999999999889e+01 1.702469999999999928e+01 -3.861512537467525763e-01
2.385399999999999920e+01 8.719300000000000495e+00 2.565299999999999869e+01 -2.419922999999999824e+00 -3.881187669197015966e-01
2.386499999999999844e+01 6.416599999999999859e+00 3.685499999999999687e+01 -2.186005000000000198e+00 1.949071621938161247e-01
2.386799999999999855e+01 1.045299999999999940e+01 3.936299999999999955e+01 -3.644400999999999780e+00 2.202533979972836897e-01
2.387399999999999878e+01 2.257900000000000063e+01 3.853300000000000125e+01 8.030587000000000586e+00 3.003359868857045645e-01
2.387399999999999878e+01 2.257900000000000063e+01 3.939800000000000324e+01 7.443894000000000233e+00 2.925895890312167347e-01
2.388599999999999923e+01 2.384700000000000131e+01 4.617499999999999716e+01 -5.315184999999999604e+00 4.153204129694586244e-02
2.388700000000000045e+01 1.372899999999999920e+01 4.284000000000000341e+01 7.390309000000000239e+00 2.301279337749705112e-01
2.389099999999999824e+01 1.960600000000000165e+01 4.346900000000000119e+01 -1.263074000000000030e+00 2.191438073010971710e-01
2.391600000000000037e+01 1.716199999999999948e+00 2.905199999999999960e+01 -1.610114000000000045e+00 -3.850438888519954750e-01
2.392099999999999937e+01 4.729499999999999815e+00 3.361599999999999966e+01 -4.332500999999999713e+00 2.010622418759654695e-01
2.392800000000000082e+01 5.411699999999999733e+00 3.456000000000000227e+01 -4.128407000000000160e+00 1.992527291140659684e-01
2.393599999999999994e+01 2.296199999999999974e+01 4.341299999999999670e+01 8.583351000000000175e-01 6.292827091984394550e-02
2.393599999999999994e+01 3.747100000000000097e+00 2.863599999999999923e+01 -2.516117999999999966e-01 -3.853189028114358261e-01
2.393900000000000006e+01 1.516399999999999970e+01 2.797299999999999898e+01 -1.189846999999999966e+01 -1.777053369556987061e-01
2.395100000000000051e+01 1.786499999999999844e+01 4.625699999999999790e+01 3.268848000000000198e+00 2.206537418311452503e-01
2.395200000000000173e+01 2.226899999999999835e+01 4.625099999999999767e+01 -5.747580000000000133e+00 2.742939767198770973e-01
2.395200000000000173e+01 2.226899999999999835e+01 4.871099999999999852e+01 -1.062390000000000079e+01 2.267662986966011152e-01
2.398900000000000077e+01 7.315699999999999648e+00 3.745300000000000296e+01 -1.605496999999999952e+00 1.936216441791076270e-01
2.398999999999999844e+01 9.280000000000000471e-01 2.959400000000000119e+01 -3.994774999999999854e-01 -3.848942068241603121e-01
2.398999999999999844e+01 9.280000000000000471e-01 3.234400000000000119e+01 7.857014000000000387e+00 -6.074461969101319775e-03
2.400600000000000023e+01 6.378700000000000259e+00 2.808500000000000085e+01 4.138203000000000031e+01 -3.858308967744169538e-01
2.400900000000000034e+01 1.756200000000000117e+01 4.548899999999999721e+01 1.673863000000000056e+01 2.216448128597706124e-01
2.401500000000000057e+01 2.332700000000000173e+01 4.259700000000000131e+01 6.415200999999999709e+00 5.739837240192526002e-02
2.401999999999999957e+01 9.097699999999999676e+00 3.857399999999999807e+01 -2.142837000000000103e+01 2.157122562555587597e-01
2.402199999999999847e+01 8.495599999999999596e+00 3.821999999999999886e+01 -1.155170999999999992e+01 2.138214640217772078e-01
2.402499999999999858e+01 4.638899999999999579e+00 2.908999999999999986e+01 9.507946000000000453e+00 -2.586848569495827088e-01
2.402499999999999858e+01 1.414600000000000080e+01 2.635399999999999920e+01 -7.031230999999999766e-03 -2.688736320205603603e-01
2.402499999999999858e+01 2.387900000000000134e+01 4.887700000000000244e+01 -1.347724999999999973e+01 2.299734056947373428e-01
2.403099999999999881e+01 2.247800000000000153e+01 3.532300000000000040e+01 4.524130000000000429e+00 3.341953376290566213e-01
2.407499999999999929e+01 1.877199999999999847e+01 4.625699999999999790e+01 -1.357919000000000098e+00 2.192267717913490566e-01
2.407700000000000173e+01 2.097700000000000031e+01 3.333599999999999852e+01 6.336924999999999919e-01 2.251615444921417630e-01
2.409199999999999875e+01 3.846999999999999975e+00 3.313199999999999790e+01 -9.709293999999999869e+00 2.020530143917242949e-01
2.410200000000000031e+01 8.197699999999999321e+00 3.746099999999999852e+01 -1.517493999999999943e+01 2.121910929621213526e-01
2.410399999999999920e+01 1.353999999999999915e+01 2.608800000000000097e+01 2.715253000000000139e+00 -2.645707001362670452e-01
2.410500000000000043e+01 1.969399999999999906e+01 3.277400000000000091e+01 6.602173999999999543e-01 2.141913695422005826e-01
2.410600000000000165e+01 1.894099999999999895e+01 3.190399999999999991e+01 -1.569307999999999925e+00 1.928951395432081939e-01
2.411799999999999855e+01 1.335500000000000043e+01 4.370499999999999829e+01 5.729133000000000031e+00 2.291131635539054301e-01
2.411799999999999855e+01 1.335500000000000043e+01 4.475500000000000256e+01 1.225577999999999967e+01 2.277824220439986502e-01
2.412900000000000134e+01 2.730900000000000105e+01 4.102799999999999869e+01 1.663542000000000076e-01 1.706630835452246087e-01
2.413599999999999923e+01 1.881700000000000017e+01 3.097299999999999898e+01 -1.073118999999999934e+00 -3.561763368876676942e-03
2.413899999999999935e+01 1.071599999999999930e+01 3.969800000000000040e+01 4.373593000000000064e-01 2.223520368823511950e-01
2.414399999999999835e+01 1.375300000000000011e+01 4.620799999999999841e+01 1.084872999999999976e+01 2.259884275303710999e-01
2.414399999999999835e+01 9.189000000000000057e+00 2.489300000000000068e+01 -6.978948000000000373e-01 -3.898229113502460486e-01
2.414399999999999835e+01 1.070899999999999963e+01 2.489300000000000068e+01 -7.966619999999999813e-01 -3.907738720162975965e-01
2.414600000000000080e+01 2.376800000000000068e+01 3.630700000000000216e+01 1.531050999999999940e+00 3.001089741670759925e-01
2.414600000000000080e+01 2.376800000000000068e+01 3.735699999999999932e+01 1.625990000000000046e+00 2.895605279205877292e-01
2.414699999999999847e+01 3.300499999999999989e+00 2.880199999999999960e+01 -8.598537000000000319e+00 -3.853563362381391411e-01
2.415700000000000003e+01 1.490300000000000047e+01 4.739200000000000301e+01 1.732779999999999987e+01 2.239959521190993397e-01
2.417999999999999972e+01 2.478399999999999892e+01 4.759400000000000119e+01 -5.950213999999999892e+00 2.300568260323351821e-01
2.419399999999999906e+01 1.928600000000000092e+00 3.251899999999999835e+01 -5.102502000000000315e+00 -6.170996621672591650e-03
2.419699999999999918e+01 1.705300000000000082e+01 2.935699999999999932e+01 5.136008999999999602e+00 -2.099530046953162338e-03
2.420400000000000063e+01 1.219200000000000017e+01 4.038000000000000256e+01 3.413007999999999953e+01 2.352010093560530923e-01
2.420700000000000074e+01 1.844800000000000040e+01 3.012300000000000111e+01 2.025600999999999985e+00 2.196699050660285563e-02
2.420799999999999841e+01 7.452200000000000379e+00 2.721399999999999864e+01 1.480036999999999914e+01 -3.867464335487834082e-01
2.421000000000000085e+01 2.108999999999999986e+01 4.368399999999999750e+01 8.119638000000000133e+00 7.304738639783786569e-02
2.422299999999999898e+01 1.666100000000000136e+01 4.719400000000000261e+01 4.503161999999999665e+01 2.220625748278933220e-01
2.422400000000000020e+01 1.362400000000000055e+01 4.525000000000000000e+01 1.754628999999999905e+01 2.270197509778689449e-01
2.423100000000000165e+01 1.831800000000000139e+01 4.545600000000000307e+01 -1.134394999999999987e-01 2.204757009081738661e-01
2.424200000000000088e+01 1.215000000000000036e+01 2.556500000000000128e+01 6.797438999999999565e-01 -2.640378069823703933e-01
2.424399999999999977e+01 1.833899999999999864e+01 4.402199999999999847e+01 1.033336999999999950e+00 2.217568868976734220e-01
2.426200000000000045e+01 5.983999999999999986e+00 3.636399999999999721e+01 -3.980383999999999922e+00 1.963976101885648862e-01
2.426500000000000057e+01 6.136599999999999611e+00 2.871099999999999852e+01 1.663907999999999987e+01 -2.577086877383439334e-01
2.428000000000000114e+01 2.338599999999999923e+01 3.808800000000000097e+01 2.015662000000000020e+01 2.886078654335678673e-01
2.428000000000000114e+01 2.366799999999999926e+01 4.146800000000000352e+01 1.860040000000000049e+01 2.726646863930800579e-01
2.428000000000000114e+01 2.366799999999999926e+01 4.233299999999999841e+01 8.424838999999999523e-01 -7.486989172046223939e-02
2.428300000000000125e+01 2.479100000000000037e+01 4.696000000000000085e+01 -1.002332999999999963e+01 -7.969245699674604166e-02
2.428800000000000026e+01 1.917399999999999949e+01 4.396000000000000085e+01 -7.189043999999999990e+00 2.200187874128475551e-01
2.428800000000000026e+01 2.243299999999999983e+01 4.396000000000000085e+01 -1.983228999999999909e+00 6.819926014830539340e-02
2.428800000000000026e+01 2.270299999999999940e+01 4.566199999999999903e+01 -1.016066999999999965e+01 7.365915106978317139e-02
2.428800000000000026e+01 2.335500000000000043e+01 4.566199999999999903e+01 -8.723964000000000496e+00 -4.917063745047827589e-02
2.428900000000000148e+01 2.339399999999999835e+01 4.048499999999999943e+01 3.297628000000000004e+00 2.762423637777754459e-01
2.430199999999999960e+01 1.409500000000000064e+01 4.142199999999999704e+01 6.359067999999999721e+00 2.326241057260231282e-01
2.430199999999999960e+01 1.803600000000000136e+01 4.472200000000000131e+01 7.671457000000000193e+00 2.216194061357059653e-01
2.430199999999999960e+01 1.957100000000000151e+01 4.625699999999999790e+01 -1.648965000000000103e+01 8.381412602291089808e-02
2.431500000000000128e+01 4.026699999999999724e-01 3.044399999999999906e+01 3.247504999999999864e+00 -2.597494655937470087e-01
2.431500000000000128e+01 4.026699999999999724e-01 3.149399999999999977e+01 4.204288000000000025e+00 -8.748620435954243546e-02
2.431700000000000017e+01 3.136799999999999855e+01 4.422399999999999665e+01 -5.518308000000000213e+00 -2.003196195413133734e-02
2.432799999999999940e+01 3.938899999999999846e+00 2.903099999999999881e+01 -2.456235999999999975e-01 -3.854296918271530314e-01
2.432799999999999940e+01 5.338899999999999757e+00 2.903099999999999881e+01 2.811211000000000126e+00 -2.582007301196199700e-01
2.432999999999999829e+01 1.413899999999999935e+01 4.232000000000000028e+01 8.976153999999999300e+00 2.307800102335695880e-01
2.435099999999999909e+01 2.275400000000000134e+01 4.930899999999999750e+01 -1.175299000000000049e+01 2.287135878831222102e-01
2.435300000000000153e+01 5.429499999999999993e+00 3.388300000000000267e+01 -6.973940999999999946e+00 2.009464550675149341e-01
2.435399999999999920e+01 2.138500000000000156e+01 4.752300000000000324e+01 -7.446826999999999863e+00 2.759966487881643227e-01
2.436100000000000065e+01 5.902599999999999625e+00 3.495600000000000307e+01 -9.335623999999999256e+00 1.988954748588649124e-01
2.436100000000000065e+01 6.111699999999999910e+00 3.569200000000000017e+01 -9.279844000000000648e+00 1.975435093549321175e-01
2.436499999999999844e+01 1.830199999999999960e+01 4.701700000000000301e+01 -7.330259999999999998e+00 2.199303296042370570e-01
2.436499999999999844e+01 1.924200000000000088e+01 4.549699999999999989e+01 -1.496316999999999986e+01 2.188424520218962555e-01
2.436499999999999844e+01 1.924200000000000088e+01 4.701700000000000301e+01 -1.629876000000000147e+01 8.580648228173820558e-02
2.437199999999999989e+01 1.565499999999999936e+01 2.837000000000000099e+01 1.465068999999999955e+00 -1.714765194325276743e-01
2.438299999999999912e+01 2.641499999999999915e+01 4.102799999999999869e+01 3.851090999999999820e-01 1.539786986385070777e-01
2.438299999999999912e+01 2.820299999999999940e+01 4.102799999999999869e+01 -1.394710000000000116e-01 1.687710576504796722e-01
2.440399999999999991e+01 2.524999999999999911e+00 2.886700000000000088e+01 -8.593470999999999194e+00 -3.854151723762428983e-01
2.441199999999999903e+01 9.613599999999999923e+00 3.901100000000000279e+01 -2.263615999999999850e+00 2.188037719477164966e-01
2.443900000000000006e+01 7.078700000000000436e+00 2.781800000000000139e+01 1.596625000000000050e+01 -3.864766288106843417e-01
2.445400000000000063e+01 2.678399999999999892e+01 4.017799999999999727e+01 5.500935999999999604e-01 1.622954798365893736e-01
2.445400000000000063e+01 2.678399999999999892e+01 4.187800000000000011e+01 1.217427000000000037e+00 1.658645533645796977e-01
2.445400000000000063e+01 2.783399999999999963e+01 4.017799999999999727e+01 2.225732999999999961e+00 1.948928225792088964e-01
2.445400000000000063e+01 2.783399999999999963e+01 4.187800000000000011e+01 7.321758000000000433e-01 1.873653918943595509e-01
2.446799999999999997e+01 2.153900000000000148e+01 4.826400000000000290e+01 -2.545266999999999946e+00 2.746584562355679493e-01
2.447100000000000009e+01 2.324299999999999855e+01 3.545700000000000074e+01 3.396447999999999912e+00 3.115860605028150099e-01
2.448199999999999932e+01 2.043900000000000006e+01 4.388799999999999812e+01 -2.376031000000000115e-01 7.681605246212722116e-02
2.448699999999999832e+01 1.299600000000000044e+01 2.555300000000000082e+01 9.821222000000000563e+00 -2.673876984959691061e-01
2.449200000000000088e+01 2.201699999999999946e+01 3.461999999999999744e+01 2.447154999999999969e+00 2.970353595417370429e-01
2.449699999999999989e+01 1.476800000000000068e+01 2.702400000000000091e+01 -2.039794000000000052e-01 -2.733041062554854017e-01
2.449699999999999989e+01 3.185000000000000142e+01 4.502100000000000080e+01 -3.159666999999999781e+00 -1.879565649923447407e-02
2.449899999999999878e+01 7.764999999999999680e+00 3.696999999999999886e+01 -5.107562999999999853e+00 1.948179394526289854e-01
2.450000000000000000e+01 2.345299999999999940e+01 4.941400000000000148e+01 -1.186466000000000065e+01 2.301032050251129168e-01
