1.420199999999999996e+01 6.554699999999999704e+01 2.095999999999999943e+02 1.441743999999999915e+00 1.277798726023277875e-01
1.420899999999999963e+01 5.793599999999999994e+01 1.829099999999999966e+02 4.358384000000000036e+00 -1.429817682362853615e-01
1.420899999999999963e+01 5.880199999999999960e+01 1.829099999999999966e+02 3.641071999999999864e+00 -1.423681978513646473e-01
1.421299999999999919e+01 6.311200000000000188e+01 2.091100000000000136e+02 -2.557134000000000018e+00 1.244172878992451797e-01
1.422300000000000075e+01 6.137299999999999756e+01 2.015800000000000125e+02 9.553601000000000454e+00 1.181323195819000693e-01
1.422499999999999964e+01 6.543200000000000216e+01 1.951500000000000057e+02 -2.900447000000000219e+00 -8.165072017268533433e-02
1.424200000000000088e+01 5.702000000000000313e+01 1.857700000000000102e+02 5.258650000000000269e+00 -1.437916607029739724e-01
1.424499999999999922e+01 5.141299999999999670e+01 2.033899999999999864e+02 -1.475642000000000031e+01 2.282085838538472355e-01
1.424600000000000044e+01 6.493399999999999750e+01 2.096599999999999966e+02 1.468525999999999998e+00 1.271475971512174563e-01
1.424600000000000044e+01 7.870300000000000296e+01 2.018400000000000034e+02 3.934263000000000066e+00 -1.679874402963089097e-01
1.424600000000000044e+01 7.870300000000000296e+01 2.027100000000000080e+02 2.299917000000000211e+00 -2.588807356121568537e-01
1.424600000000000044e+01 7.902800000000000580e+01 2.034399999999999977e+02 -5.666115999999999708e+00 -2.576747800895447527e-01
1.424699999999999989e+01 5.826100000000000279e+01 1.987500000000000000e+02 1.904530000000000101e+01 2.283592740574877100e-01
1.425200000000000067e+01 6.183700000000000330e+01 2.086500000000000057e+02 1.220936000000000021e+00 1.227635437937071305e-01
1.426600000000000001e+01 6.513500000000000512e+01 1.972700000000000102e+02 -3.615944999999999965e+00 4.786450223846208316e-03
1.428100000000000058e+01 6.020400000000000063e+01 2.022800000000000011e+02 -3.328529000000000071e+00 1.180139227670173180e-01
1.428100000000000058e+01 6.107000000000000028e+01 2.022800000000000011e+02 -4.188977000000000395e+00 1.183149732748436656e-01
1.428999999999999915e+01 6.014900000000000091e+01 2.081200000000000045e+02 -3.351653000000000215e+00 1.210507863120799665e-01
1.428999999999999915e+01 7.013299999999999557e+01 1.892400000000000091e+02 8.589252000000000109e+00 1.127598017747592600e-02
1.429800000000000004e+01 7.457800000000000296e+01 1.899799999999999898e+02 -2.792075000000000085e+00 -2.835719878631613455e-01
1.429899999999999949e+01 7.800000000000000000e+01 2.050500000000000114e+02 -1.725750999999999991e+01 -2.591031717342496266e-01
1.430000000000000071e+01 5.928300000000000125e+01 2.020399999999999920e+02 -3.185624999999999929e+00 1.176744229323325452e-01
1.430899999999999928e+01 5.668900000000000006e+01 2.077800000000000011e+02 -2.623500999999999905e+01 1.190467355277129435e-01
1.431099999999999994e+01 6.640999999999999659e+01 2.089699999999999989e+02 6.318118000000000345e-02 1.278822246492847536e-01
1.431700000000000017e+01 6.406699999999999307e+01 1.978300000000000125e+02 -5.503334999999999866e+00 1.180412281709467548e-01
1.431700000000000017e+01 5.910499999999999687e+01 1.821299999999999955e+02 9.769837000000000771e+00 -1.420147235106918315e-01
1.432799999999999940e+01 6.154899999999999949e+01 1.933199999999999932e+02 -6.596364999999999590e+00 -1.555672145485975377e-01
1.433600000000000030e+01 6.298199999999999932e+01 1.940800000000000125e+02 -3.172674000000000216e+00 -1.555948058394727718e-01
1.433699999999999974e+01 6.820300000000000296e+01 1.865099999999999909e+02 -1.888698000000000043e-01 -1.525662619861605229e-01
1.434299999999999997e+01 5.517199999999999704e+01 1.956899999999999977e+02 -8.000224000000000224e-01 -2.273523055502504331e-01
1.434399999999999942e+01 6.971699999999999875e+01 1.884799999999999898e+02 7.306189999999999429e+01 1.271034484436959697e-02
1.435299999999999976e+01 4.965999999999999659e+01 1.989600000000000080e+02 2.487519999999999953e+00 1.145268613416230812e-02
1.435500000000000043e+01 6.010099999999999909e+01 2.069699999999999989e+02 -1.849744000000000099e+01 1.202917160403960545e-01
1.436599999999999966e+01 6.020900000000000318e+01 1.820099999999999909e+02 1.281087999999999916e+01 -1.410883575940561629e-01
1.437100000000000044e+01 4.916100000000000136e+01 2.014399999999999977e+02 -4.915263999999999633e+00 9.529899327197239450e-03
1.437100000000000044e+01 4.938799999999999812e+01 2.022400000000000091e+02 -2.264705000000000013e+01 8.467935206521786870e-03
1.437100000000000044e+01 5.061299999999999955e+01 2.030900000000000034e+02 -2.683137999999999934e+01 2.281516595385275625e-01
1.437500000000000000e+01 5.642699999999999960e+01 2.070099999999999909e+02 -1.888813999999999993e+01 1.186565722605106010e-01
1.438299999999999912e+01 4.953600000000000136e+01 1.998899999999999864e+02 -1.781401999999999930e+00 1.065982186328730610e-02
1.439400000000000013e+01 5.522200000000000131e+01 2.092500000000000000e+02 -5.671299999999999564e+00 1.192382684048737540e-01
1.439499999999999957e+01 7.865000000000000568e+01 1.960099999999999909e+02 5.630416000000000309e-01 -1.083723636637714746e-02
1.440000000000000036e+01 4.928300000000000125e+01 2.006299999999999955e+02 -8.477209000000000216e+00 1.017307428552449711e-02
1.440300000000000047e+01 5.709199999999999875e+01 1.850000000000000000e+02 6.480084999999999873e+00 -1.435868876242908931e-01
1.440799999999999947e+01 7.690999999999999659e+01 1.958000000000000114e+02 -7.440141000000000115e-01 -1.397406563503445984e-02
1.441000000000000014e+01 6.124799999999999756e+01 1.824900000000000091e+02 2.922269000000000005e+00 -2.599393234539394415e-01
1.441600000000000037e+01 5.400500000000000256e+01 1.951999999999999886e+02 -9.104112999999999900e+00 -2.247478865858475727e-01
1.441600000000000037e+01 6.239099999999999824e+01 1.987599999999999909e+02 -3.049884000000000039e+00 1.178154319835648389e-01
1.442099999999999937e+01 4.405400000000000205e+01 1.971800000000000068e+02 -3.222867999999999711e+01 -1.879871010907258333e-01
1.442500000000000071e+01 5.981600000000000250e+01 2.062400000000000091e+02 -2.808444000000000074e+01 1.197523155828806030e-01
1.442600000000000016e+01 5.876400000000000290e+01 1.906899999999999977e+02 -3.120166000000000039e+01 -2.794703402472266118e-01
1.442699999999999960e+01 6.904600000000000648e+01 1.861399999999999864e+02 -8.407508999999999233e+00 -1.522695155196644445e-01
1.442699999999999960e+01 6.998600000000000421e+01 1.861399999999999864e+02 -1.414343000000000039e+01 -2.793904589947545647e-01
1.442699999999999960e+01 6.998600000000000421e+01 1.876599999999999966e+02 9.960188000000000486e+00 -2.802891507972627427e-01
1.442900000000000027e+01 6.313799999999999812e+01 1.862299999999999898e+02 3.855176999999999854e+00 -1.537529204137949856e-01
1.443299999999999983e+01 5.673100000000000165e+01 2.063100000000000023e+02 -6.511180000000000412e+00 1.185091842250606681e-01
1.443299999999999983e+01 5.759599999999999653e+01 2.063100000000000023e+02 -8.410688999999999638e+00 1.188115432214594119e-01
1.443999999999999950e+01 7.693800000000000239e+01 1.934900000000000091e+02 -6.438947999999999894e+00 -8.298559568170113879e-03
1.445199999999999996e+01 5.236500000000000199e+01 2.123400000000000034e+02 -1.645418000000000092e+01 1.196003092961955838e-01
1.445199999999999996e+01 5.388499999999999801e+01 2.123400000000000034e+02 -4.242472999999999672e+01 1.201627674271016077e-01
1.446100000000000030e+01 8.010999999999999943e+01 1.963400000000000034e+02 -1.197811000000000015e-01 -8.559731496831961967e-03
1.446100000000000030e+01 8.010999999999999943e+01 1.982299999999999898e+02 1.611495999999999995e+01 -1.272522285237288366e-02
1.446299999999999919e+01 7.279900000000000659e+01 2.085000000000000000e+02 1.429783999999999935e+02 5.393262396803690656e-02
1.446899999999999942e+01 7.064499999999999602e+01 1.898799999999999955e+02 -2.418445999999999874e+00 9.854867675951298200e-03
1.447000000000000064e+01 6.242300000000000182e+01 1.832100000000000080e+02 2.095830999999999944e-01 -1.533634523267000116e-01
1.447100000000000009e+01 6.548499999999999943e+01 1.867500000000000000e+02 -4.083051999999999793e-01 -1.533258940776714152e-01
1.447100000000000009e+01 6.688500000000000512e+01 1.867500000000000000e+02 3.215425999999999895e+00 -1.529884335153054720e-01
1.447300000000000075e+01 6.879200000000000159e+01 2.090800000000000125e+02 2.626060000000000016e+01 1.304178245971533145e-01
1.447300000000000075e+01 7.011100000000000421e+01 2.098199999999999932e+02 -8.803138000000000574e+00 5.415423662909315400e-02
1.447300000000000075e+01 7.148199999999999932e+01 2.091800000000000068e+02 8.320010999999999157e+00 5.419363956737054122e-02
1.447700000000000031e+01 5.701800000000000068e+01 1.840500000000000114e+02 7.456845000000000390e+00 -1.435082932642809672e-01
1.447899999999999920e+01 7.557800000000000296e+01 1.890600000000000023e+02 -2.067647000000000013e+00 -2.833177733395116360e-01
1.447899999999999920e+01 7.687099999999999511e+01 1.883300000000000125e+02 -3.834233999999999920e+00 -2.831344246888124472e-01
1.447899999999999920e+01 7.816400000000000148e+01 1.890600000000000023e+02 -7.586458999999999619e+00 -2.835869438354013949e-01
1.447899999999999920e+01 7.839100000000000534e+01 1.898499999999999943e+02 -4.835551999999999850e+01 -2.839469600361070323e-01
1.448499999999999943e+01 6.063199999999999790e+01 1.924600000000000080e+02 -3.483296999999999866e+00 -2.800102468242454679e-01
1.448900000000000077e+01 5.750200000000000244e+01 1.830399999999999920e+02 8.405851999999999435e+00 -1.431153147760386435e-01
1.448900000000000077e+01 5.876700000000000301e+01 2.062299999999999898e+02 -1.253336999999999968e+01 1.192976441483856453e-01
1.449000000000000021e+01 7.031499999999999773e+01 1.869000000000000057e+02 -2.191860000000000142e+01 -2.799756594604428939e-01
1.449000000000000021e+01 6.466299999999999670e+01 1.942500000000000000e+02 6.145290000000000141e+00 -1.554865727430678468e-01
1.450000000000000000e+01 5.692699999999999960e+01 1.972500000000000000e+02 1.300664000000000087e+01 2.282257090654414289e-01
1.451200000000000045e+01 5.184599999999999653e+01 2.040900000000000034e+02 4.052764999999999951e+00 2.282327578548579150e-01
1.451299999999999990e+01 7.913599999999999568e+01 2.011399999999999864e+02 1.205804000000000009e+01 -1.694877023997500010e-01
1.451500000000000057e+01 6.268399999999999750e+01 1.866500000000000057e+02 -8.699272000000000116e-01 -1.539513859747308755e-01
1.451800000000000068e+01 5.595300000000000296e+01 2.077800000000000011e+02 -1.705048999999999992e+01 1.189339415001819111e-01
1.451900000000000013e+01 7.723600000000000421e+01 2.066399999999999864e+02 2.329476999999999798e+00 -1.493606841973574573e-01
1.452100000000000080e+01 5.735099999999999909e+01 1.904499999999999886e+02 -1.366723999999999961e+01 -1.744263964349429541e-01
1.452599999999999980e+01 8.047400000000000375e+01 1.972899999999999920e+02 3.976560999999999790e+00 -1.002148667548767580e-02
1.452699999999999925e+01 5.012800000000000011e+01 1.982800000000000011e+02 -4.007085000000000008e+00 1.146490670744918818e-02
1.453299999999999947e+01 6.456699999999999307e+01 1.859600000000000080e+02 7.296937999999999480e-01 -1.533582430441224331e-01
1.453899999999999970e+01 5.834799999999999898e+01 1.820900000000000034e+02 3.546853000000000034e+00 -1.424424635385485582e-01
1.455799999999999983e+01 5.713499999999999801e+01 1.979399999999999977e+02 1.461198000000000086e+01 2.282657297671623342e-01
1.455799999999999983e+01 5.713499999999999801e+01 1.995699999999999932e+02 2.395476000000000028e+01 2.283517003347200480e-01
1.455899999999999928e+01 5.708800000000000097e+01 1.963199999999999932e+02 1.041193999999999953e+01 -1.153695743508616200e-02
1.456199999999999939e+01 5.200300000000000011e+01 2.092400000000000091e+02 -2.484726999999999908e+00 1.184333852257144493e-01
1.456199999999999939e+01 5.200300000000000011e+01 2.100999999999999943e+02 -5.841455999999999982e+00 1.187269007433012502e-01
1.456600000000000072e+01 7.756799999999999784e+01 2.057500000000000000e+02 -7.151885000000000048e+00 -1.496562501026653114e-01
1.456700000000000017e+01 6.366299999999999670e+01 1.837500000000000000e+02 1.555064999999999920e+00 -1.531365562329605745e-01
1.457399999999999984e+01 7.210500000000000398e+01 1.903199999999999932e+02 -2.074733000000000160e+01 -2.823931979169764239e-01
1.458399999999999963e+01 6.771999999999999886e+01 2.082899999999999920e+02 2.397537999999999947e+00 1.282490264457464835e-01
1.458399999999999963e+01 5.026899999999999835e+01 1.952299999999999898e+02 -6.496356999999999715e+00 -2.219979113080919608e-01
1.458399999999999963e+01 5.702199999999999847e+01 1.896800000000000068e+02 -1.530228999999999928e+01 -1.748454007613411409e-01
1.458500000000000085e+01 4.982500000000000284e+01 1.975800000000000125e+02 -1.217718999999999951e+01 1.228009853821225225e-02
1.459399999999999942e+01 6.173899999999999721e+01 2.006100000000000136e+02 1.105811999999999955e+02 1.182265160367051149e-01
1.460299999999999976e+01 5.858299999999999841e+01 2.019799999999999898e+02 -4.373586999999999669e+00 1.176941909501468125e-01
1.460500000000000043e+01 6.130700000000000216e+01 2.088899999999999864e+02 1.561440999999999946e+01 1.227835125988784720e-01
1.461899999999999977e+01 5.728999999999999915e+01 1.889300000000000068e+02 -5.413414999999999644e+00 -2.801130165663873739e-01
1.462400000000000055e+01 5.829299999999999926e+01 1.905000000000000000e+02 -4.259356999999999971e+01 -2.794618097010011515e-01
1.462899999999999956e+01 6.200999999999999801e+01 1.998400000000000034e+02 2.743858000000000175e+01 1.181157447101871261e-01
1.463799999999999990e+01 6.387400000000000233e+01 1.862299999999999898e+02 5.954812999999999912e-01 -1.535994742666567103e-01
1.463799999999999990e+01 6.403199999999999648e+01 1.845999999999999943e+02 -4.897655999999999565e+00 -1.532094745651898793e-01
1.464499999999999957e+01 5.178799999999999670e+01 1.951299999999999955e+02 -1.061023999999999923e+01 -2.229962050391508244e-01
1.464499999999999957e+01 6.057000000000000028e+01 2.062100000000000080e+02 -3.498850999999999800e+01 1.203212012458307889e-01
1.465199999999999925e+01 5.240800000000000125e+01 1.952800000000000011e+02 -4.901138999999999690e+00 -2.239452566998644811e-01
1.466000000000000014e+01 5.465699999999999648e+01 2.103899999999999864e+02 -1.618357000000000046e+00 1.197238964964593144e-01
1.466000000000000014e+01 5.486599999999999966e+01 2.096500000000000057e+02 -1.580872999999999973e+00 1.194708831064133364e-01
1.466300000000000026e+01 6.700900000000000034e+01 2.082100000000000080e+02 -3.303856999999999822e+00 1.274976238202724654e-01
1.466600000000000037e+01 7.428300000000000125e+01 2.093300000000000125e+02 -2.192946999999999846e+01 -1.538802907677535026e-01
1.466600000000000037e+01 7.580299999999999727e+01 2.093300000000000125e+02 -4.993684999999999974e+01 -1.491922539524974112e-01
1.466699999999999982e+01 5.582000000000000028e+01 1.961999999999999886e+02 1.019866000000000028e+01 -9.942994852212377194e-03
1.466999999999999993e+01 6.090899999999999892e+01 1.820600000000000023e+02 2.098171999999999926e+00 -2.597704601602447982e-01
1.467399999999999949e+01 5.146999999999999886e+01 2.060300000000000011e+02 -3.746964000000000183e+00 1.174907043525597328e-01
1.467500000000000071e+01 7.647700000000000387e+01 1.942299999999999898e+02 -5.307610000000000383e+00 -1.092400227072539733e-02
1.467500000000000071e+01 7.647700000000000387e+01 1.950999999999999943e+02 -2.278357000000000188e+00 -1.290676572773639952e-02
1.467800000000000082e+01 6.063700000000000045e+01 2.027700000000000102e+02 -3.242027000000000214e+00 1.186517184013897303e-01
1.467999999999999972e+01 7.945600000000000307e+01 1.960500000000000114e+02 1.225942000000000087e+00 -8.861252262522731002e-03
1.468200000000000038e+01 5.948199999999999932e+01 1.907199999999999989e+02 -3.309352000000000071e+00 -1.423771677901153887e-01
1.468599999999999994e+01 5.444500000000000028e+01 1.955000000000000000e+02 -1.359520999999999979e+01 -2.265306761511564348e-01
1.469599999999999973e+01 6.270499999999999829e+01 1.836699999999999875e+02 1.081333000000000055e+01 -1.533874655994395542e-01
1.469599999999999973e+01 6.357099999999999795e+01 1.869300000000000068e+02 -1.145996999999999932e+00 -1.538331541878234510e-01
1.469800000000000040e+01 5.044299999999999784e+01 1.989600000000000080e+02 -5.995918999999999777e+00 1.034519696655071194e-02
1.470299999999999940e+01 6.026700000000000301e+01 2.055099999999999909e+02 -2.496495000000000175e+01 1.197983289567542686e-01
1.471000000000000085e+01 5.869599999999999795e+01 1.813499999999999943e+02 9.323061999999999738e-01 -1.420480630853652171e-01
1.471000000000000085e+01 5.965400000000000347e+01 1.813499999999999943e+02 1.816440999999999972e+00 -2.597839260828705976e-01
1.471400000000000041e+01 6.177000000000000313e+01 2.020200000000000102e+02 -4.639580999999999844e-01 1.188164870442770943e-01
1.471400000000000041e+01 6.406199999999999761e+01 2.094799999999999898e+02 4.429283999999999999e+00 1.261198046466576739e-01
1.471499999999999986e+01 5.694299999999999784e+01 1.984099999999999966e+02 1.863402999999999921e+01 2.282769882363301084e-01
1.471599999999999930e+01 6.432699999999999818e+01 1.934399999999999977e+02 2.024716000000000093e+01 -1.553177025706259928e-01
1.471700000000000053e+01 6.951600000000000534e+01 1.869000000000000057e+02 -1.937453000000000003e+01 -2.795630580983327063e-01
1.471799999999999997e+01 6.267000000000000171e+01 1.854699999999999989e+02 4.209063000000000443e+00 -1.537255676878472310e-01
1.471799999999999997e+01 6.360600000000000165e+01 1.854699999999999989e+02 -4.307417000000000051e+00 -1.535048024889122675e-01
1.472400000000000020e+01 6.194700000000000273e+01 1.866500000000000057e+02 1.278478999999999921e+00 -1.541169999776426658e-01
1.472400000000000020e+01 5.666899999999999693e+01 1.992500000000000000e+02 2.705653999999999826e+01 2.283100060821275645e-01
1.472700000000000031e+01 5.133200000000000074e+01 2.069099999999999966e+02 -2.527921000000000085e+00 1.177242834063597227e-01
1.472700000000000031e+01 5.158599999999999852e+01 2.078000000000000114e+02 -2.492967000000000155e+00 1.180056547410102546e-01
1.473000000000000043e+01 6.552899999999999636e+01 1.964399999999999977e+02 -3.453027000000000069e+00 -8.865211997313535153e-02
1.473099999999999987e+01 7.387800000000000011e+01 1.902500000000000000e+02 -1.875277000000000083e+00 -2.830194343837680870e-01
1.473099999999999987e+01 7.506900000000000261e+01 1.895900000000000034e+02 -2.026304999999999801e+00 -2.831791883948701072e-01
1.474099999999999966e+01 5.674600000000000222e+01 2.004600000000000080e+02 2.186959999999999837e+01 2.283698672646153338e-01
1.474200000000000088e+01 5.189500000000000313e+01 2.106399999999999864e+02 -1.045360999999999940e+01 1.189941357060993188e-01
1.474200000000000088e+01 5.189500000000000313e+01 2.115800000000000125e+02 -1.501154999999999973e+01 1.193325558269395098e-01
1.474200000000000088e+01 5.435499999999999687e+01 2.115800000000000125e+02 -5.953338999999999714e+01 1.201949439444698758e-01
1.474399999999999977e+01 7.790600000000000591e+01 1.959699999999999989e+02 2.263291000000000053e-01 -1.172617183605993013e-02
1.475099999999999945e+01 5.721999999999999886e+01 2.011999999999999886e+02 7.059317000000000064e+00 1.173074548013990775e-01
1.475099999999999945e+01 5.721999999999999886e+01 2.057700000000000102e+02 -2.231466000000000172e+00 1.186914586963185025e-01
1.475099999999999945e+01 6.476699999999999591e+01 1.974499999999999886e+02 -3.569688000000000194e+00 1.184353057738761761e-01
1.475300000000000011e+01 6.916100000000000136e+01 1.882700000000000102e+02 2.029279000000000011e+01 1.273079477772529056e-02
1.475600000000000023e+01 5.013900000000000290e+01 1.996599999999999966e+02 -8.167944000000000315e+00 9.894969560260038002e-03
1.476600000000000001e+01 7.349899999999999523e+01 2.085600000000000023e+02 2.226446999999999932e+01 -1.566758360285452345e-01
1.477100000000000080e+01 6.578400000000000603e+01 2.093300000000000125e+02 2.197738999999999887e+00 1.278214247398224979e-01
1.477399999999999913e+01 6.618500000000000227e+01 1.868000000000000114e+02 4.515420999999999907e+00 -1.532194340360058804e-01
1.477699999999999925e+01 5.827600000000000335e+01 2.058799999999999955e+02 -4.438822000000000045e+00 1.191483220997743980e-01
1.478100000000000058e+01 6.054599999999999937e+01 2.085999999999999943e+02 3.804031000000000162e+00 1.220732688023722090e-01
1.478100000000000058e+01 5.312500000000000000e+01 2.124099999999999966e+02 -2.951043999999999912e+01 1.200844160029918284e-01
1.478299999999999947e+01 6.225099999999999767e+01 1.859499999999999886e+02 3.632626000000000133e+00 -1.539177460304974876e-01
1.478299999999999947e+01 6.225099999999999767e+01 1.873499999999999943e+02 1.793889999999999985e+00 -1.542023484216442086e-01
1.478299999999999947e+01 6.311599999999999966e+01 1.873499999999999943e+02 9.481035000000000157e-02 -1.540301915578512204e-01
1.478299999999999947e+01 6.925400000000000489e+01 1.876699999999999875e+02 2.864076999999999984e+01 -2.798401675853353643e-01
1.480000000000000071e+01 7.208599999999999852e+01 2.085399999999999920e+02 2.393374000000000024e+01 5.364985819471528028e-02
1.481099999999999994e+01 5.782099999999999795e+01 1.896800000000000068e+02 -9.088435999999999737e+00 -2.798210864100392214e-01
1.481099999999999994e+01 6.935399999999999920e+01 1.890399999999999920e+02 9.381149000000000626e+00 1.134541193229963475e-02
1.481300000000000061e+01 6.052199999999999847e+01 2.075500000000000114e+02 -5.358601000000000170e+00 1.213102712210392536e-01
1.481700000000000017e+01 6.245700000000000074e+01 1.934799999999999898e+02 -2.986556999999999906e+00 -1.554952014706700025e-01
1.481700000000000017e+01 6.350699999999999790e+01 1.934799999999999898e+02 1.171701000000000015e+01 -1.553996643526798227e-01
1.481799999999999962e+01 7.775799999999999557e+01 1.923700000000000045e+02 -4.674571000000000254e+00 -2.433097159197926494e-03
1.483300000000000018e+01 5.114300000000000068e+01 2.035200000000000102e+02 -6.696722000000000286e+00 2.281696642521099938e-01
1.484099999999999930e+01 4.992099999999999937e+01 2.026699999999999875e+02 -3.425668999999999897e+01 6.928276340444269703e-03
1.484099999999999930e+01 6.860899999999999466e+01 1.868300000000000125e+02 1.149999999999999911e+00 -1.527060319501609698e-01
1.485100000000000087e+01 6.765900000000000603e+01 1.867899999999999920e+02 2.015204999999999913e+00 -1.528980081858991313e-01
1.485599999999999987e+01 5.722999999999999687e+01 1.871699999999999875e+02 3.036850999999999967e+00 -1.434182092877467896e-01
1.486100000000000065e+01 5.877000000000000313e+01 2.052899999999999920e+02 -5.991482000000000419e+00 1.191404497976612104e-01
1.486200000000000010e+01 5.548299999999999699e+01 2.084300000000000068e+02 1.708860999999999963e+00 1.192955433130291343e-01
1.487199999999999989e+01 7.958400000000000318e+01 1.986800000000000068e+02 8.557175000000000864e+00 -1.382622409711424527e-02
1.487400000000000055e+01 4.979899999999999949e+01 1.959900000000000091e+02 -5.712727000000000110e+00 -2.240378541653014755e-01
1.487400000000000055e+01 4.979899999999999949e+01 1.969199999999999875e+02 -1.653545000000000087e+01 -2.264845577810831456e-01
1.487400000000000055e+01 5.924499999999999744e+01 1.899099999999999966e+02 -5.762287999999999855e-01 -1.423509969087470017e-01
1.487700000000000067e+01 5.808299999999999841e+01 1.889199999999999875e+02 -4.259095000000000297e+00 -1.430275215323544014e-01
1.488000000000000078e+01 6.192099999999999937e+01 2.011599999999999966e+02 1.390948999999999991e+01 1.186746251140368552e-01
1.489199999999999946e+01 6.313799999999999812e+01 1.845999999999999943e+02 2.616509999999999891e+00 -1.534636548212942042e-01
1.490099999999999980e+01 7.834300000000000352e+01 1.910200000000000102e+02 -9.457217999999999236e+00 -2.838735421818565086e-01
1.490300000000000047e+01 6.172299999999999898e+01 1.829499999999999886e+02 7.971562999999999732e+00 -2.599170878790327266e-01
1.490300000000000047e+01 7.134499999999999886e+01 1.902599999999999909e+02 -1.719243999999999994e+00 8.778939279568494583e-03
1.490600000000000058e+01 7.745600000000000307e+01 1.930500000000000114e+02 -7.382951000000000263e+00 -5.142432715715667887e-03
1.491300000000000026e+01 5.102900000000000347e+01 1.951599999999999966e+02 -7.620997000000000021e+00 -2.228922173222334102e-01
1.491600000000000037e+01 5.321500000000000341e+01 1.952100000000000080e+02 -3.600598999999999883e-01 -2.248524602420292895e-01
1.491699999999999982e+01 7.673799999999999955e+01 2.076800000000000068e+02 -2.000086000000000030e+00 -1.487819491515757209e-01
1.492099999999999937e+01 5.711200000000000188e+01 1.861699999999999875e+02 2.822235000000000049e+00 -1.433709623942363287e-01
1.492200000000000060e+01 6.077600000000000335e+01 2.090399999999999920e+02 9.865033000000000385e+00 1.226932512427116873e-01
1.492500000000000071e+01 6.506300000000000239e+01 1.934399999999999977e+02 9.139977999999999270e+00 -1.552452561060079506e-01
1.492500000000000071e+01 6.548999999999999488e+01 1.948499999999999943e+02 -1.671753999999999962e+00 2.621536180519038785e-03
1.492500000000000071e+01 6.569899999999999807e+01 1.955900000000000034e+02 -7.494397000000000197e+00 -8.367694856379662149e-02
1.492900000000000027e+01 5.579599999999999937e+01 2.064199999999999875e+02 -1.502232999999999929e+00 1.186240322993090401e-01
1.492999999999999972e+01 6.500000000000000000e+01 1.864499999999999886e+02 1.028945999999999916e+00 -1.534227442893043858e-01
1.493399999999999928e+01 4.983800000000000097e+01 2.001500000000000057e+02 -8.167944000000000315e+00 9.528743351075303486e-03
1.493599999999999994e+01 7.939199999999999591e+01 1.995999999999999943e+02 1.049571000000000076e+01 -1.553305715245137386e-02
1.494200000000000017e+01 5.764900000000000091e+01 1.880900000000000034e+02 4.968944999999999723e+00 -1.431911149330762079e-01
1.494500000000000028e+01 6.269299999999999784e+01 2.094799999999999898e+02 3.105504999999999960e+00 1.248131599053288188e-01
1.494599999999999973e+01 7.843600000000000705e+01 2.022700000000000102e+02 -2.175581999999999994e+01 -1.662392774721608013e-01
1.494599999999999973e+01 7.864499999999999602e+01 2.015399999999999920e+02 -6.542660999999999838e+00 -1.682703701720003053e-01
1.494599999999999973e+01 7.864499999999999602e+01 2.030099999999999909e+02 -1.700664000000000087e+01 -2.584024770594829379e-01
1.494599999999999973e+01 7.864499999999999602e+01 2.046100000000000136e+02 -2.450038999999999945e+01 -2.572748106644600075e-01
1.494599999999999973e+01 7.887199999999999989e+01 2.038100000000000023e+02 -2.834038999999999930e+01 -2.573474954961502137e-01
1.494899999999999984e+01 7.611100000000000421e+01 1.886299999999999955e+02 -1.616586000000000078e+00 -2.827459701081908028e-01
1.494899999999999984e+01 7.763100000000000023e+01 1.886299999999999955e+02 -2.782433000000000156e+00 -2.828659089427963957e-01
1.495199999999999996e+01 6.933599999999999852e+01 2.095200000000000102e+02 4.716935000000000144e+01 5.306820333923446820e-02
1.495199999999999996e+01 7.088599999999999568e+01 2.095200000000000102e+02 1.110177999999999940e+02 5.444938493909569355e-02
1.495599999999999952e+01 7.627299999999999613e+01 2.085699999999999932e+02 -3.040693999999999875e+01 -1.486645795820735194e-01
1.496400000000000041e+01 5.427100000000000080e+01 2.105500000000000114e+02 -8.689092999999999734e+00 1.198392254047396382e-01
1.498099999999999987e+01 5.993699999999999761e+01 2.027199999999999989e+02 -1.143076999999999899e+00 1.186090237841078421e-01
1.498099999999999987e+01 6.133700000000000330e+01 2.027199999999999989e+02 1.253700999999999954e+00 1.191315291385815212e-01
1.498099999999999987e+01 6.025200000000000244e+01 1.920000000000000000e+02 -1.055603000000000069e+00 -2.801612281305487229e-01
1.498199999999999932e+01 6.330400000000000205e+01 2.094000000000000057e+02 4.813486000000000153e+00 1.253591472380650718e-01
1.498399999999999999e+01 6.389399999999999835e+01 1.927400000000000091e+02 1.470547000000000004e+01 -1.551904129333770144e-01
1.498399999999999999e+01 6.476000000000000512e+01 1.927400000000000091e+02 8.110286999999999580e+00 -1.551012442368039923e-01
1.498700000000000010e+01 5.609899999999999665e+01 2.057199999999999989e+02 3.681887999999999828e+00 1.184936697060925415e-01
1.499499999999999922e+01 7.504300000000000637e+01 2.093899999999999864e+02 -3.855232000000000170e+01 -1.509665974801828459e-01
1.499900000000000055e+01 5.583899999999999864e+01 2.004099999999999966e+02 2.630602999999999980e+01 2.283159275650493147e-01
1.500000000000000000e+01 7.961799999999999500e+01 2.005500000000000114e+02 1.001104999999999912e+01 2.165068465783771823e-01
1.500200000000000067e+01 6.174000000000000199e+01 2.093799999999999955e+02 3.933364999999999867e+01 1.238511482282994985e-01
1.500900000000000034e+01 5.555599999999999739e+01 2.073400000000000034e+02 -5.218707000000000207e+00 1.189637973177841979e-01
1.501800000000000068e+01 5.052499999999999858e+01 1.978400000000000034e+02 -1.516793000000000013e+01 1.098539349081692311e-02
1.504299999999999926e+01 5.490500000000000114e+01 1.961200000000000045e+02 4.714385999999999854e-01 -9.379365959493844371e-03
1.504499999999999993e+01 6.148299999999999699e+01 1.856599999999999966e+02 8.614191999999999183e+00 -1.540400029838160101e-01
1.505499999999999972e+01 6.199399999999999977e+01 1.848400000000000034e+02 7.959215000000000373e+00 -1.537865674120822979e-01
1.505799999999999983e+01 5.614200000000000301e+01 1.997100000000000080e+02 2.592325999999999908e+01 2.282942861060452133e-01
1.506000000000000050e+01 6.744199999999999307e+01 2.077199999999999989e+02 -1.446685000000000088e+01 1.273186066485754442e-01
1.506499999999999950e+01 6.140400000000000347e+01 2.060900000000000034e+02 -7.279900999999999733e+00 1.210557211402402550e-01
1.507499999999999929e+01 8.003900000000000148e+01 1.966100000000000136e+02 7.610038999999999554e-01 -8.564436947576064413e-03
1.507499999999999929e+01 7.823600000000000421e+01 1.919099999999999966e+02 -3.709744999999999848e+00 4.791561555832262657e-04
1.507799999999999940e+01 5.610999999999999943e+01 2.011599999999999966e+02 2.127910999999999930e+01 2.283527545885943866e-01
1.507799999999999940e+01 6.978700000000000614e+01 1.897400000000000091e+02 -9.464306999999999928e-03 9.943257983093050159e-03
1.508099999999999952e+01 5.777600000000000335e+01 1.824300000000000068e+02 1.816918000000000033e+00 -1.425647983999954738e-01
1.508900000000000041e+01 5.161399999999999721e+01 2.042599999999999909e+02 2.554201999999999861e-01 2.281936189529480408e-01
1.508900000000000041e+01 5.161399999999999721e+01 2.051299999999999955e+02 -3.385797000000000168e+00 1.175289265429552837e-01
1.509600000000000009e+01 6.630899999999999750e+01 2.084799999999999898e+02 5.973180000000000156e+00 1.273099453996162089e-01
1.509900000000000020e+01 5.653799999999999670e+01 1.978300000000000125e+02 1.679130999999999929e+01 2.282174010735256720e-01
1.510100000000000087e+01 5.912899999999999778e+01 2.024699999999999989e+02 -5.589647000000000254e+00 1.183476821843662402e-01
1.510999999999999943e+01 5.448799999999999955e+01 2.097400000000000091e+02 -2.673833999999999822e+00 1.196625680762880145e-01
1.511599999999999966e+01 6.277400000000000091e+01 1.983199999999999932e+02 -5.117595999999999812e+00 1.182720888606787202e-01
1.511599999999999966e+01 6.406699999999999307e+01 1.975999999999999943e+02 -8.728965000000000529e+00 1.184765545714118601e-01
1.511599999999999966e+01 6.525799999999999557e+01 1.969399999999999977e+02 -3.253438000000000052e+00 6.015973270095157158e-03
1.511999999999999922e+01 6.240699999999999648e+01 2.002700000000000102e+02 1.356329999999999991e+01 1.187092172106305465e-01
1.511999999999999922e+01 5.990400000000000347e+01 1.911599999999999966e+02 6.847470000000000390e+00 -1.419002391008372110e-01
1.512299999999999933e+01 6.110099999999999909e+01 2.053899999999999864e+02 -5.467417000000000193e+00 1.204865702838089775e-01
1.512299999999999933e+01 6.110099999999999909e+01 2.067899999999999920e+02 -1.199756000000000000e+01 1.213851764752875428e-01
1.512400000000000055e+01 7.732500000000000284e+01 1.954199999999999875e+02 -6.902846000000000259e-01 -1.111193572326567812e-02
1.512599999999999945e+01 6.498699999999999477e+01 2.095200000000000102e+02 8.616263000000000005e+00 1.272959054646606303e-01
1.512700000000000067e+01 5.771000000000000085e+01 2.016800000000000068e+02 2.594233000000000011e+00 1.177662114638621527e-01
1.513100000000000023e+01 4.945100000000000051e+01 2.009699999999999989e+02 -1.183375000000000021e+01 8.920972885107217656e-03
1.513100000000000023e+01 4.945100000000000051e+01 2.019099999999999966e+02 -1.863014000000000081e+01 7.986465258212891924e-03
1.513100000000000023e+01 7.865000000000000568e+01 1.958000000000000114e+02 -8.471931999999999796e-01 -9.282711716280415970e-03
1.513199999999999967e+01 6.050300000000000011e+01 1.815800000000000125e+02 9.708323000000000036e+00 -2.595738934958978783e-01
1.513299999999999912e+01 6.180400000000000205e+01 1.929600000000000080e+02 -4.729015999999999664e+00 -1.554403154110345631e-01
1.514700000000000024e+01 5.765299999999999869e+01 2.052800000000000011e+02 -3.816723000000000088e+00 1.189299958672052904e-01
1.514899999999999913e+01 5.917499999999999716e+01 1.808100000000000023e+02 1.165845000000000020e+00 -2.595993560066064409e-01
1.515000000000000036e+01 6.554099999999999682e+01 1.933799999999999955e+02 1.036644000000000077e+01 4.526918044379072033e-03
1.515000000000000036e+01 6.243599999999999994e+01 1.991100000000000136e+02 -2.134257999999999988e+00 1.183944046969388070e-01
1.515300000000000047e+01 5.875600000000000023e+01 1.890500000000000114e+02 -8.535496000000000194e-01 -1.424490105942194385e-01
1.516399999999999970e+01 7.457800000000000296e+01 1.899799999999999898e+02 -2.023867999999999778e+00 -2.828044600502471750e-01
1.516499999999999915e+01 6.084300000000000352e+01 1.820099999999999909e+02 5.703136999999999901e+00 -2.596672152443105785e-01
1.516600000000000037e+01 7.687399999999999523e+01 1.946699999999999875e+02 -4.178975999999999580e+00 -1.030832425499171763e-02
1.517300000000000004e+01 7.702400000000000091e+01 1.937500000000000000e+02 -9.539725999999999928e+00 -7.744432467630057819e-03
1.517699999999999960e+01 5.716700000000000159e+01 1.844600000000000080e+02 5.036629999999999718e+00 -1.430582584182898409e-01
1.517900000000000027e+01 6.268399999999999750e+01 1.878400000000000034e+02 6.659603999999999857e+00 -1.542418803600795474e-01
1.518299999999999983e+01 5.749099999999999966e+01 1.834499999999999886e+02 9.213124999999999787e+00 -1.427734767383915526e-01
1.518299999999999983e+01 8.008700000000000330e+01 1.978700000000000045e+02 8.350317000000000434e+00 -1.105171518130697826e-02
1.518900000000000006e+01 5.792099999999999937e+01 1.816500000000000057e+02 4.427048000000000094e+00 -1.423567684413672985e-01
1.518900000000000006e+01 5.084000000000000341e+01 1.993899999999999864e+02 -1.815056999999999832e+01 9.018648739352905924e-03
1.519999999999999929e+01 6.705700000000000216e+01 1.867199999999999989e+02 3.147470000000000212e+00 -1.530767243913271347e-01
1.520500000000000007e+01 5.062199999999999989e+01 2.028300000000000125e+02 -2.266894999999999882e+01 2.281167562808504301e-01
1.520800000000000018e+01 6.523699999999999477e+01 1.926800000000000068e+02 7.299566999999999695e+00 -1.550365562463477676e-01
1.520800000000000018e+01 6.523699999999999477e+01 1.940800000000000125e+02 5.083328999999999986e+00 3.666782965235542043e-03
1.521100000000000030e+01 5.845300000000000296e+01 1.883499999999999943e+02 5.008316999999999908e-01 -1.425533733560120364e-01
1.521199999999999974e+01 5.265500000000000114e+01 2.118700000000000045e+02 -5.082399999999999807e+01 1.199378977624294684e-01
1.521199999999999974e+01 5.359499999999999886e+01 2.118700000000000045e+02 -5.391322999999999865e+01 1.202855926003958686e-01
1.521499999999999986e+01 5.627300000000000324e+01 1.969900000000000091e+02 1.017266000000000048e+01 2.281646842122443120e-01
1.521499999999999986e+01 5.627300000000000324e+01 1.988199999999999932e+02 3.588631000000000171e+01 2.282503879360236465e-01
1.521599999999999930e+01 5.522999999999999687e+01 2.012199999999999989e+02 6.164549000000000056e+00 2.283084273667201070e-01
1.522199999999999953e+01 5.935399999999999920e+01 2.046100000000000136e+02 -9.147743000000000180e+00 1.193376897033805450e-01
1.522199999999999953e+01 6.021900000000000119e+01 2.046100000000000136e+02 -9.593386000000000635e+00 1.197050140388254968e-01
1.523000000000000043e+01 7.250600000000000023e+01 2.080200000000000102e+02 6.345835000000000292e+01 5.325057962339759671e-02
1.523499999999999943e+01 7.279800000000000182e+01 1.905699999999999932e+02 -4.160273000000000110e+00 -2.823198680700323981e-01
1.523900000000000077e+01 7.810099999999999909e+01 1.893899999999999864e+02 -1.539258000000000060e+01 -2.829605369452915520e-01
1.524399999999999977e+01 6.876399999999999579e+01 1.886999999999999886e+02 7.538987999999999801e+00 1.162252497794896179e-02
1.524699999999999989e+01 7.824800000000000466e+01 1.903300000000000125e+02 -2.409269000000000105e+01 -2.833254732435009915e-01
1.524799999999999933e+01 6.885699999999999932e+01 2.087500000000000000e+02 1.225109999999999921e+01 1.298827322094840420e-01
1.525399999999999956e+01 7.767700000000000671e+01 2.061800000000000068e+02 6.344519000000000020e+00 -2.721426310508203161e-01
1.525799999999999912e+01 6.305299999999999727e+01 1.927500000000000000e+02 -3.997318999999999733e-01 -1.552726249972594397e-01
1.526600000000000001e+01 7.137300000000000466e+01 2.087800000000000011e+02 4.948875999999999920e+01 5.368311061420995983e-02
1.527500000000000036e+01 5.232600000000000051e+01 2.111100000000000136e+02 -1.023847999999999914e+01 1.195795853668860376e-01
1.527500000000000036e+01 5.392399999999999949e+01 2.111100000000000136e+02 -2.487412000000000134e+01 1.201310181806295035e-01
1.527699999999999925e+01 6.147800000000000153e+01 1.870300000000000011e+02 5.481040000000000134e+00 -1.543033507782565761e-01
1.527800000000000047e+01 7.687099999999999511e+01 1.885600000000000023e+02 -2.323666999999999927e+00 -2.824859040876870897e-01
1.527999999999999936e+01 5.737100000000000222e+01 1.854199999999999875e+02 1.300511999999999890e+00 -1.429553554910467372e-01
1.528400000000000070e+01 7.737000000000000455e+01 2.070800000000000125e+02 2.592858000000000018e+01 -2.719268141684282325e-01
1.528700000000000081e+01 6.207000000000000028e+01 1.839300000000000068e+02 1.211963000000000079e+01 -1.536357077288487971e-01
1.528800000000000026e+01 7.011100000000000421e+01 2.095900000000000034e+02 1.024840999999999980e+01 5.399929032948722757e-02
1.528999999999999915e+01 6.665200000000000102e+01 2.077500000000000000e+02 -8.208062999999999221e+00 1.267530242189347789e-01
1.529199999999999982e+01 6.839700000000000557e+01 1.877500000000000000e+02 1.196702999999999939e+01 -1.531448874793919501e-01
1.529499999999999993e+01 5.576800000000000068e+01 1.966399999999999864e+02 7.427230999999999916e+00 -1.304692211402504534e-02
1.530199999999999960e+01 6.432200000000000273e+01 1.868000000000000114e+02 2.480287000000000130e+00 -1.536967149930785204e-01
1.530599999999999916e+01 5.217000000000000171e+01 2.088499999999999943e+02 6.029689999999999772e-01 1.187698678939470565e-01
1.530599999999999916e+01 5.492000000000000171e+01 2.088499999999999943e+02 5.123456000000000010e+00 1.195650840708033791e-01
1.530700000000000038e+01 5.994500000000000028e+01 1.901800000000000068e+02 4.471258000000000266e+01 -1.416586828735835746e-01
1.531000000000000050e+01 5.259400000000000119e+01 2.103499999999999943e+02 -6.787785000000000402e+00 1.194006391176662962e-01
1.533000000000000007e+01 5.236500000000000199e+01 2.096599999999999966e+02 -3.812171999999999894e+00 1.191030115087902130e-01
1.534399999999999942e+01 5.055899999999999750e+01 1.956899999999999977e+02 -6.158623000000000403e+00 -2.245342152934682589e-01
1.534399999999999942e+01 6.369400000000000261e+01 2.095900000000000034e+02 3.509672999999999821e-01 1.261027459867686273e-01
1.534600000000000009e+01 5.203099999999999881e+01 2.083000000000000114e+02 -9.199806999999999846e-01 1.185870436965353603e-01
1.536500000000000021e+01 5.564500000000000313e+01 2.019199999999999875e+02 3.455100999999999978e+00 1.175600257807585258e-01
1.536500000000000021e+01 5.650999999999999801e+01 2.019199999999999875e+02 5.114284999999999748e+00 1.177203653132943700e-01
1.537899999999999956e+01 7.913599999999999568e+01 2.011399999999999864e+02 -6.211988999999999983e+00 -1.686510667770543537e-01
1.538000000000000078e+01 6.432699999999999818e+01 1.922500000000000000e+02 1.783163999999999971e+00 -1.550260348107151687e-01
1.538100000000000023e+01 5.807999999999999829e+01 1.874900000000000091e+02 1.433891000000000027e+01 -1.426291364359390246e-01
1.538499999999999979e+01 7.943200000000000216e+01 1.960200000000000102e+02 3.043054999999999843e+00 -7.960922753496219029e-03
1.538599999999999923e+01 5.504899999999999949e+01 2.078899999999999864e+02 1.343954000000000093e+00 1.192669717970087084e-01
1.540000000000000036e+01 5.994500000000000028e+01 2.034199999999999875e+02 -2.646259999999999724e-01 1.191841071422151954e-01
1.540000000000000036e+01 6.081099999999999994e+01 2.034199999999999875e+02 2.415994999999999848e+01 1.195268591312110551e-01
1.540000000000000036e+01 6.081099999999999994e+01 2.045200000000000102e+02 -5.561713000000000351e-01 1.200595980865924728e-01
1.540399999999999991e+01 5.149799999999999756e+01 1.955999999999999943e+02 -1.137485000000000035e+01 -2.251648225944256898e-01
1.540700000000000003e+01 5.022999999999999687e+01 1.964600000000000080e+02 -1.497761000000000031e+01 -2.263498464980547298e-01
1.540900000000000070e+01 5.407300000000000040e+01 1.956599999999999966e+02 6.457216999999999985e+00 -2.277034730094371628e-01
1.541499999999999915e+01 7.800199999999999534e+01 2.058300000000000125e+02 -1.117163000000000039e+01 -2.713718698450104383e-01
1.541499999999999915e+01 7.821099999999999852e+01 2.050999999999999943e+02 -3.025372000000000128e+01 -2.576738455103508296e-01
1.541999999999999993e+01 5.528099999999999881e+01 2.068400000000000034e+02 9.471878000000000242e+00 1.189559301505710709e-01
1.541999999999999993e+01 5.539900000000000091e+01 2.059900000000000091e+02 1.453667000000000087e+01 1.186825043009639424e-01
1.542500000000000071e+01 5.449399999999999977e+01 2.012199999999999989e+02 1.294496000000000002e+01 2.282637224109386465e-01
1.543099999999999916e+01 7.501099999999999568e+01 1.892800000000000011e+02 -1.153466000000000102e+00 -2.824169484584800882e-01
1.544100000000000072e+01 6.221900000000000119e+01 2.099199999999999875e+02 -4.946425999999999767e+00 1.250154388452179854e-01
1.544299999999999962e+01 6.849699999999999989e+01 2.079699999999999989e+02 -4.092489999999999739e+00 1.285290524135219159e-01
1.544299999999999962e+01 6.695000000000000284e+01 2.071500000000000057e+02 -1.628322000000000003e+01 1.263224291821263279e-01
1.544899999999999984e+01 7.328000000000000114e+01 2.081699999999999875e+02 4.398939000000000021e+01 -1.563481659123325263e-01
1.545199999999999996e+01 5.771099999999999852e+01 1.866399999999999864e+02 7.153558999999999557e+00 -1.427535688551327397e-01
1.546700000000000053e+01 7.387800000000000011e+01 1.900399999999999920e+02 -7.003538000000000263e-01 -2.823680046575458014e-01
1.548099999999999987e+01 6.081300000000000239e+01 2.081200000000000045e+02 1.643828999999999851e+01 1.223834436856187508e-01
1.548099999999999987e+01 6.476699999999999591e+01 1.974499999999999886e+02 -3.191298999999999886e+00 1.188565385605560298e-01
1.548300000000000054e+01 6.198400000000000176e+01 1.877800000000000011e+02 1.527837000000000067e+01 -1.543663538587068951e-01
1.548300000000000054e+01 5.479699999999999704e+01 2.005200000000000102e+02 4.128772000000000020e+01 2.282504102810142543e-01
1.548300000000000054e+01 5.479699999999999704e+01 2.019199999999999875e+02 5.814109000000000194e+00 2.282956356192881453e-01
1.548499999999999943e+01 5.839999999999999858e+01 1.808700000000000045e+02 1.027412999999999910e+00 -1.418396003198593713e-01
1.548499999999999943e+01 5.995000000000000284e+01 1.808700000000000045e+02 2.715193000000000190e+00 -2.593602763667511302e-01
1.548600000000000065e+01 7.551200000000000045e+01 2.089600000000000080e+02 -3.694268000000000285e+01 -1.495830665831802686e-01
1.548799999999999955e+01 6.800400000000000489e+01 2.071800000000000068e+02 -3.572782000000000124e+01 1.271624126191922000e-01
1.548900000000000077e+01 6.086500000000000199e+01 2.091500000000000057e+02 1.853863000000000127e+01 1.232058307321713259e-01
1.550000000000000000e+01 6.240599999999999881e+01 2.008600000000000136e+02 3.523871000000000198e+00 1.191646095851042891e-01
1.550000000000000000e+01 6.240599999999999881e+01 2.017199999999999989e+02 5.377129000000000048e+00 1.195022261559166576e-01
1.550200000000000067e+01 5.312500000000000000e+01 2.111100000000000136e+02 -3.366414000000000328e+01 1.199634551301997087e-01
1.550600000000000023e+01 6.084799999999999898e+01 1.924799999999999898e+02 -7.737376999999999727e-01 -1.554289982286731486e-01
1.550699999999999967e+01 5.237500000000000000e+01 1.955600000000000023e+02 -3.763041999999999776e-01 -2.259625023322848203e-01
1.551200000000000045e+01 6.919700000000000273e+01 1.894000000000000057e+02 -1.197003999999999913e+01 1.033996838330606023e-02
1.552699999999999925e+01 5.958800000000000097e+01 1.893499999999999943e+02 9.201057000000000130e+01 -1.417118550648972242e-01
1.553100000000000058e+01 7.767700000000000671e+01 1.928799999999999955e+02 -1.075128999999999913e+01 -3.507587178314373194e-03
1.553299999999999947e+01 7.180599999999999739e+01 2.080800000000000125e+02 3.353363999999999834e+01 5.300560809596741724e-02
1.553599999999999959e+01 6.108599999999999852e+01 1.852299999999999898e+02 1.441854000000000013e+01 -1.540709907003815771e-01
1.553599999999999959e+01 6.199000000000000199e+01 2.023700000000000045e+02 1.287531000000000070e+01 1.196386383205077786e-01
1.554800000000000004e+01 6.066799999999999926e+01 1.869799999999999898e+02 8.631349000000000160e+00 -1.544454418711845300e-01
1.555499999999999972e+01 6.196399999999999864e+01 2.058400000000000034e+02 -3.347564999999999902e+00 1.215703913325051622e-01
1.555599999999999916e+01 6.084199999999999875e+01 2.074799999999999898e+02 1.106128999999999918e+00 1.219937011562352014e-01
1.555599999999999916e+01 6.180100000000000193e+01 2.065300000000000011e+02 -2.718210000000000015e+00 1.219482606667445096e-01
1.555599999999999916e+01 6.076400000000000290e+01 1.874900000000000091e+02 3.845508999999999844e+00 -1.545196816811712781e-01
1.555899999999999928e+01 7.115500000000000114e+01 1.906899999999999977e+02 -7.141066999999999609e+00 7.813805482773439337e-03
1.556099999999999994e+01 5.850300000000000011e+01 2.021100000000000136e+02 -1.181915000000000049e+00 1.183662376943145633e-01
1.556099999999999994e+01 5.850300000000000011e+01 2.048600000000000136e+02 -8.089515999999999707e+00 1.193543248915117233e-01
1.556700000000000017e+01 6.103499999999999659e+01 1.861599999999999966e+02 9.714209999999999567e+00 -1.542386030669721797e-01
1.557199999999999918e+01 7.964199999999999591e+01 1.989900000000000091e+02 2.193217000000000194e+00 -1.328996313792251902e-02
1.557699999999999996e+01 5.165699999999999648e+01 2.074300000000000068e+02 5.182528999999999719e+00 1.183830266064449521e-01
1.558600000000000030e+01 6.330700000000000216e+01 1.978899999999999864e+02 -3.793400000000000105e+00 1.185978633459022491e-01
1.558999999999999986e+01 6.250399999999999778e+01 1.925900000000000034e+02 -7.264853999999999479e-01 -1.552868531766521953e-01
1.559200000000000053e+01 5.925200000000000244e+01 1.885800000000000125e+02 6.452322999999999809e+00 -1.418347985363093144e-01
1.560100000000000087e+01 5.021099999999999852e+01 2.006800000000000068e+02 -1.995392999999999972e+01 7.973757593827245777e-03
1.560100000000000087e+01 5.021099999999999852e+01 2.021999999999999886e+02 -8.158097999999999672e+01 2.280720483500014717e-01
