6.709399999999999409e+01 5.335699999999999932e+01 1.290800000000000125e+02 -1.171153999999999940e+01 8.862304431712901553e-02
6.709399999999999409e+01 3.475399999999999778e+01 1.067199999999999989e+02 1.540756000000000014e+00 1.371434743078597807e-01
6.709399999999999409e+01 4.604500000000000171e+01 1.206400000000000006e+02 2.906516999999999840e+01 7.878775425221772044e-02
6.709499999999999886e+01 2.759700000000000131e+01 1.115400000000000063e+02 1.360063000000000066e+01 -1.367115555502311508e-01
6.709499999999999886e+01 3.260499999999999687e+01 1.031400000000000006e+02 3.126621000000000095e+00 -1.128350456126741702e-01
6.709600000000000364e+01 5.691400000000000148e+01 1.463499999999999943e+02 6.236979000000000273e-01 2.311763058424722850e-01
6.709600000000000364e+01 3.082100000000000151e+01 1.414699999999999989e+02 1.501755999999999958e+01 1.715788339024428566e-01
6.709699999999999420e+01 3.182900000000000063e+01 1.040600000000000023e+02 3.143971000000000071e+00 -1.170145158064756635e-01
6.710200000000000387e+01 5.046699999999999875e+01 1.331999999999999886e+02 -3.604258999999999880e+00 1.054283132854211269e-01
6.710899999999999466e+01 1.466099999999999959e+01 1.299099999999999966e+02 -1.430795999999999957e+01 -3.499999999999999778e-01
6.711100000000000421e+01 3.408700000000000330e+01 1.470600000000000023e+02 1.237162000000000006e+01 1.710416230057348330e-01
6.711299999999999955e+01 4.454200000000000159e+01 1.191599999999999966e+02 2.475580000000000069e+01 8.470538172188242509e-02
6.711400000000000432e+01 4.141100000000000136e+01 1.367700000000000102e+02 -3.415176999999999907e+01 1.734595284467086440e-01
6.711400000000000432e+01 3.549900000000000233e+01 1.478499999999999943e+02 3.303090999999999866e+01 1.708678010885130161e-01
6.711599999999999966e+01 3.348899999999999721e+01 1.075300000000000011e+02 1.638816000000000050e+00 1.468175483274604398e-01
6.712000000000000455e+01 5.407800000000000296e+01 1.130600000000000023e+02 -1.123227999999999893e+00 -2.458327223364395464e-01
6.712399999999999523e+01 4.924300000000000210e+01 1.277399999999999949e+02 -1.094335000000000058e+01 1.184501550663651787e-01
6.712600000000000477e+01 2.794000000000000128e+01 1.402199999999999989e+02 1.551219999999999999e+01 4.946301588497355184e-02
6.713400000000000034e+01 3.173900000000000077e+01 1.010900000000000034e+02 3.133233000000000157e+00 -9.354099037864312127e-02
6.713400000000000034e+01 3.276899999999999835e+01 1.022199999999999989e+02 5.616179000000000032e-01 -1.063155249844759398e-01
6.713500000000000512e+01 1.203800000000000026e+01 1.257199999999999989e+02 -4.015741000000000227e+00 -3.499999999999999778e-01
6.713599999999999568e+01 5.449499999999999744e+01 1.298499999999999943e+02 -1.026586999999999961e+01 9.715538885083112308e-02
6.713700000000000045e+01 2.255600000000000094e+01 1.212000000000000028e+02 6.341656000000000404e+00 -3.499999999999999778e-01
6.713700000000000045e+01 4.639099999999999824e+01 1.493000000000000114e+02 1.188967000000000063e+01 7.087615479590575820e-03
6.713700000000000045e+01 4.744100000000000250e+01 1.493000000000000114e+02 2.370477999999999952e+01 6.092513163448159443e-03
6.713800000000000523e+01 2.614900000000000091e+01 1.149200000000000017e+02 9.222058000000000533e+00 -1.426997824488346611e-01
6.713800000000000523e+01 2.614900000000000091e+01 1.163199999999999932e+02 -1.395240999999999953e+00 -1.459250613460533197e-01
6.713800000000000523e+01 2.701500000000000057e+01 1.149200000000000017e+02 2.105257999999999896e+01 1.506940360347780172e-01
6.713800000000000523e+01 2.701500000000000057e+01 1.163199999999999932e+02 1.587677000000000049e+01 1.480196935012274839e-01
6.713899999999999579e+01 2.897200000000000131e+01 1.106200000000000045e+02 1.269100000000000072e+01 1.292184178176936371e-01
6.714199999999999591e+01 2.130099999999999838e+01 1.206299999999999955e+02 8.583408000000000371e+00 -3.500000000000000333e-01
6.714400000000000546e+01 6.161299999999999955e+01 1.226299999999999955e+02 2.216149000000000058e+01 1.042026001022300086e-01
6.714499999999999602e+01 5.071099999999999852e+01 1.278299999999999983e+02 -1.376284000000000063e+01 1.155782832395193804e-01
6.714600000000000080e+01 6.072099999999999653e+01 1.292299999999999898e+02 -3.602185999999999666e+01 2.767144816201187046e-02
6.715699999999999648e+01 5.958400000000000318e+01 1.251800000000000068e+02 1.407961999999999989e+02 1.638167658909091551e-01
6.715900000000000603e+01 5.218999999999999773e+01 1.122199999999999989e+02 5.473176999999999737e+00 -2.405039179705123209e-01
6.716200000000000614e+01 1.574900000000000055e+01 1.256800000000000068e+02 -9.919774000000000314e+00 -3.499999999999999778e-01
6.716299999999999670e+01 4.738300000000000267e+01 1.284799999999999898e+02 -5.246260000000000367e+00 -3.223098518463633766e-02
6.716500000000000625e+01 5.191899999999999693e+01 1.107600000000000051e+02 8.113257000000000829e+00 -2.380311119103955542e-01
6.716599999999999682e+01 2.176999999999999957e+01 1.226299999999999955e+02 3.494721999999999884e+00 -3.499999999999999778e-01
6.716700000000000159e+01 4.511500000000000199e+01 1.035799999999999983e+02 2.295254999999999868e+01 -3.500000000000000333e-01
6.716700000000000159e+01 4.536899999999999977e+01 1.044699999999999989e+02 1.413452999999999982e+01 -3.499999999999999778e-01
6.716800000000000637e+01 3.347599999999999909e+01 1.059800000000000040e+02 2.918233000000000033e+01 1.577643376616738591e-01
6.716800000000000637e+01 4.292199999999999704e+01 1.363899999999999864e+02 -4.130798999999999666e+01 1.729595602996301662e-01
6.717199999999999704e+01 2.276999999999999957e+01 1.144300000000000068e+02 2.186999999999999833e+00 -3.499999999999999778e-01
6.717199999999999704e+01 2.428999999999999915e+01 1.144300000000000068e+02 -6.462499999999999911e-01 -1.228588485492331933e-01
6.717300000000000182e+01 1.992299999999999827e+01 1.238900000000000006e+02 3.995014999999999983e+00 -3.500000000000000333e-01
6.717400000000000659e+01 1.080799999999999983e+01 1.265400000000000063e+02 -1.754607000000000028e+00 -3.500000000000000333e-01
6.717400000000000659e+01 1.080799999999999983e+01 1.274800000000000040e+02 -1.959362000000000048e+00 -3.500000000000000333e-01
6.717400000000000659e+01 5.026100000000000279e+01 1.100100000000000051e+02 6.529247999999999941e+00 -2.291384173159096704e-01
6.717400000000000659e+01 4.514699999999999847e+01 1.065100000000000051e+02 1.483811999999999998e+01 -3.499999999999999778e-01
6.717799999999999727e+01 3.305499999999999972e+01 1.422899999999999920e+02 1.787606999999999857e+01 1.717573973664667242e-01
6.718099999999999739e+01 4.701400000000000290e+01 1.302500000000000000e+02 -3.370149000000000061e+00 -2.772562620439233266e-02
6.718999999999999773e+01 4.357500000000000284e+01 1.016299999999999955e+02 1.614039000000000001e+00 -3.499999999999999778e-01
6.719299999999999784e+01 4.725900000000000034e+01 1.294099999999999966e+02 -8.880295999999999745e-01 -3.303087340689524892e-02
6.719400000000000261e+01 4.179800000000000182e+01 1.204099999999999966e+02 1.638081999999999994e+01 8.502387234796812687e-02
6.719400000000000261e+01 4.179800000000000182e+01 1.212699999999999960e+02 1.461436999999999919e+01 8.338658623904694756e-02
6.719499999999999318e+01 3.087900000000000134e+01 1.012300000000000040e+02 2.515636999999999901e+00 -8.999760874564843860e-02
6.719599999999999795e+01 2.584600000000000009e+01 1.156200000000000045e+02 6.694987000000000243e+00 -1.417124380951537421e-01
6.719599999999999795e+01 2.731800000000000139e+01 1.156200000000000045e+02 1.916620999999999952e+01 1.466491889232949819e-01
6.719899999999999807e+01 4.851599999999999824e+01 1.277199999999999989e+02 -8.603536000000000072e+00 1.225404627001852598e-01
6.719899999999999807e+01 6.105100000000000193e+01 1.300300000000000011e+02 -6.043498000000000303e+01 2.971932330595030217e-02
6.719899999999999807e+01 4.611599999999999966e+01 1.227699999999999960e+02 -1.706247000000000069e+00 6.816145931201449126e-02
6.719899999999999807e+01 4.632500000000000284e+01 1.220300000000000011e+02 1.007055000000000033e+00 7.168772740302169211e-02
6.720300000000000296e+01 3.665999999999999659e+01 1.013100000000000023e+02 1.651306999999999903e+01 -7.599259664125321279e-02
6.720399999999999352e+01 1.956400000000000006e+01 1.175199999999999960e+02 5.086858999999999575e+00 -3.499999999999999778e-01
6.720600000000000307e+01 4.705499999999999972e+01 1.311599999999999966e+02 -5.357401000000000302e+00 -2.051765145532718354e-02
6.720600000000000307e+01 3.346699999999999875e+01 1.430800000000000125e+02 1.527126999999999946e+01 1.716703831382416501e-01
6.720999999999999375e+01 4.032600000000000051e+01 1.006400000000000006e+02 2.030321999999999960e+01 -3.499999999999999778e-01
6.720999999999999375e+01 4.320000000000000284e+01 1.195699999999999932e+02 2.612909000000000148e+01 8.506702354787536169e-02
6.720999999999999375e+01 5.697899999999999920e+01 1.436200000000000045e+02 2.335093000000000174e+01 2.362982912630403332e-01
6.721299999999999386e+01 5.730599999999999739e+01 1.457700000000000102e+02 2.653680000000000039e+00 2.318214575098573316e-01
6.722100000000000364e+01 2.207999999999999829e+01 1.219000000000000057e+02 5.027783999999999587e+00 -3.499999999999999778e-01
6.722199999999999420e+01 4.520499999999999829e+01 1.054300000000000068e+02 2.217495999999999867e+01 -3.499999999999999778e-01
6.722299999999999898e+01 5.924900000000000233e+01 1.261299999999999955e+02 3.583326000000000278e+01 1.626434521487283846e-01
6.723000000000000398e+01 1.737300000000000111e+01 1.302800000000000011e+02 2.116422999999999988e+01 -3.499999999999999778e-01
6.723000000000000398e+01 1.737300000000000111e+01 1.316800000000000068e+02 -1.483131999999999895e+00 -3.499999999999999778e-01
6.723499999999999943e+01 3.306000000000000227e+01 1.002800000000000011e+02 5.979843999999999937e+00 -9.478456068528426370e-02
6.723600000000000421e+01 3.952199999999999847e+01 1.456500000000000057e+02 -2.308033999999999963e+01 1.709923763812432607e-01
6.724699999999999989e+01 1.758699999999999974e+01 1.248499999999999943e+02 -1.834833999999999909e-01 -3.499999999999999778e-01
6.725100000000000477e+01 4.771800000000000352e+01 1.103199999999999932e+02 2.892847000000000079e+01 -3.499999999999999778e-01
6.725300000000000011e+01 5.918500000000000227e+01 1.271800000000000068e+02 1.238094000000000028e+00 1.638515904118489908e-01
6.725700000000000500e+01 4.200900000000000034e+01 1.218400000000000034e+02 1.836598000000000042e+01 8.148468469670769321e-02
6.726000000000000512e+01 3.092699999999999960e+01 1.038900000000000006e+02 5.433807999999999971e-01 -1.104467301919590944e-01
6.726500000000000057e+01 3.756099999999999994e+01 1.022999999999999972e+02 2.061093999999999937e+01 -5.828637041473450076e-02
6.726500000000000057e+01 3.216100000000000136e+01 1.048700000000000045e+02 5.034990999999999772e+00 -1.244181647605833441e-01
6.726900000000000546e+01 4.862299999999999756e+01 1.103499999999999943e+02 6.259121000000000379e+00 -3.499999999999999778e-01
6.726900000000000546e+01 4.221900000000000119e+01 1.476500000000000057e+02 9.846192000000000277e+00 1.148841325920153117e-02
6.726900000000000546e+01 4.384899999999999665e+01 1.476500000000000057e+02 1.089465000000000039e+01 9.361213695369479185e-03
6.726999999999999602e+01 5.206700000000000017e+01 1.101099999999999994e+02 7.968416999999999639e+00 -2.374768319258980520e-01
6.726999999999999602e+01 2.091600000000000037e+01 1.166200000000000045e+02 7.129215000000000302e+00 -3.499999999999999778e-01
6.727100000000000080e+01 4.246900000000000119e+01 1.408700000000000045e+02 -6.996693999999999747e+00 1.719696670858563148e-01
6.727100000000000080e+01 6.200399999999999778e+01 1.322500000000000000e+02 1.367423000000000055e+00 1.070909359707050423e-01
6.727299999999999613e+01 5.874399999999999977e+01 1.263700000000000045e+02 5.435573999999999906e+00 1.588252227029574581e-01
6.727400000000000091e+01 3.903099999999999881e+01 1.023700000000000045e+02 9.368076000000000292e+00 -3.500000000000000333e-01
6.727500000000000568e+01 5.150200000000000244e+01 1.283799999999999955e+02 -1.533860999999999919e+00 1.127591148969955270e-01
6.727800000000000580e+01 5.475200000000000244e+01 1.305399999999999920e+02 -9.362125000000000696e+00 1.552067369254074847e-01
6.728000000000000114e+01 2.033200000000000074e+01 1.230400000000000063e+02 1.730585000000000040e+00 -3.499999999999999778e-01
6.728100000000000591e+01 5.198100000000000165e+01 1.117500000000000000e+02 6.467941999999999858e+00 -2.391314590742475710e-01
6.728799999999999670e+01 1.767599999999999838e+01 1.309799999999999898e+02 5.233805000000000263e-01 -3.499999999999999778e-01
6.729200000000000159e+01 5.477300000000000324e+01 1.314799999999999898e+02 -1.222422000000000075e+01 1.630394919448687474e-01
6.729200000000000159e+01 3.210699999999999932e+01 1.003900000000000006e+02 4.395483999999999725e+00 -9.130807578593735929e-02
6.729600000000000648e+01 6.048899999999999721e+01 1.237900000000000063e+02 2.349439999999999884e+01 1.668682334138689438e-01
6.729699999999999704e+01 2.075100000000000122e+01 1.225400000000000063e+02 1.891526000000000041e+00 -3.500000000000000333e-01
6.729900000000000659e+01 4.088499999999999801e+01 1.460300000000000011e+02 -1.165186000000000055e+00 9.972520172629764645e-02
6.729900000000000659e+01 2.969699999999999918e+01 1.021299999999999955e+02 1.858751000000000042e+00 -8.936177621592439335e-02
6.729900000000000659e+01 2.969699999999999918e+01 1.030699999999999932e+02 1.857836000000000043e+00 -9.625455160980130043e-02
6.730299999999999727e+01 3.401800000000000068e+01 1.067199999999999989e+02 4.426827000000000290e+00 1.469296838533275251e-01
6.730400000000000205e+01 4.782800000000000296e+01 1.485500000000000114e+02 2.012008000000000152e+01 5.238226644474942503e-03
6.730899999999999750e+01 4.741499999999999915e+01 1.096200000000000045e+02 1.907176000000000116e+01 -3.499999999999999778e-01
6.731199999999999761e+01 2.946600000000000108e+01 1.406999999999999886e+02 9.182508000000000337e+00 4.938656033839449594e-02
6.731300000000000239e+01 5.701500000000000057e+01 1.427599999999999909e+02 1.123853000000000080e+01 2.382245866120393796e-01
6.731600000000000250e+01 1.633099999999999952e+01 1.326299999999999955e+02 -8.748293999999999793e-01 -3.499999999999999778e-01
6.731699999999999307e+01 5.892499999999999716e+01 1.412199999999999989e+02 1.188208999999999982e+01 2.382833926632736965e-01
6.732099999999999795e+01 5.455299999999999727e+01 1.322400000000000091e+02 -9.884854000000000696e+00 1.675391070667194005e-01
6.733100000000000307e+01 5.595000000000000284e+01 1.367800000000000011e+02 -1.720889999999999986e+01 1.597890103206932033e-01
6.733199999999999363e+01 3.872800000000000153e+01 1.030699999999999932e+02 1.697030000000000172e+01 -3.499999999999999778e-01
6.733299999999999841e+01 3.405799999999999983e+01 1.452599999999999909e+02 1.689312999999999931e+01 1.712375427910111381e-01
6.733400000000000318e+01 1.962300000000000111e+01 1.361599999999999966e+02 -3.123784999999999812e+00 -1.366046926998474853e-01
6.734099999999999397e+01 5.064800000000000324e+01 1.092600000000000051e+02 4.417633999999999617e+00 -2.273703803989675643e-01
6.734099999999999397e+01 5.169800000000000040e+01 1.092600000000000051e+02 3.803341000000000083e+00 -2.334608872402001156e-01
6.734099999999999397e+01 3.394899999999999807e+01 1.444600000000000080e+02 3.047530000000000072e+01 1.713723647856701948e-01
6.734399999999999409e+01 4.267600000000000193e+01 1.229500000000000028e+02 1.924609999999999843e+01 7.640474822078716088e-02
6.734600000000000364e+01 2.182000000000000028e+01 1.212000000000000028e+02 5.699180000000000135e+00 -3.499999999999999778e-01
6.735200000000000387e+01 5.756499999999999773e+01 1.182000000000000028e+02 9.460468999999999795e+00 -3.302884129848190353e-01
6.735200000000000387e+01 5.777400000000000091e+01 1.189300000000000068e+02 3.740971000000000046e+00 9.169744177671597385e-02
6.735200000000000387e+01 5.896500000000000341e+01 1.195999999999999943e+02 -1.271047999999999956e+00 9.176702819646805065e-02
6.735200000000000387e+01 5.457699999999999818e+01 1.392400000000000091e+02 -2.387072999999999823e+01 1.510367037037557147e-01
6.735299999999999443e+01 4.506600000000000250e+01 1.484300000000000068e+02 7.400095000000000312e+00 8.196149474710218846e-03
6.735500000000000398e+01 1.762399999999999878e+01 1.352199999999999989e+02 -7.228335000000000399e+00 -3.500000000000000333e-01
6.736100000000000421e+01 6.278099999999999881e+01 1.198400000000000034e+02 9.514189999999999259e+00 -1.629158969404955748e-01
6.736100000000000421e+01 6.278099999999999881e+01 1.216200000000000045e+02 2.990156999999999954e+01 -1.652168694731706300e-01
6.736100000000000421e+01 6.303499999999999659e+01 1.207300000000000040e+02 2.675677999999999912e+01 -1.639503224057820563e-01
6.736400000000000432e+01 1.617899999999999849e+01 1.334900000000000091e+02 -9.697936999999999808e-01 -3.500000000000000333e-01
6.736400000000000432e+01 1.640599999999999881e+01 1.342899999999999920e+02 -1.034723999999999933e+01 -3.499999999999999778e-01
6.736499999999999488e+01 6.197200000000000131e+01 1.188400000000000034e+02 4.751280000000000392e+00 -1.619521930419691724e-01
6.736799999999999500e+01 4.762299999999999756e+01 1.326299999999999955e+02 -6.149124999999999730e+00 1.056351367005863989e-01
6.736899999999999977e+01 3.553900000000000148e+01 1.012199999999999989e+02 1.562246000000000024e+01 -9.121095934055881149e-02
6.737199999999999989e+01 5.298799999999999955e+01 1.384900000000000091e+02 -1.040869999999999962e+01 1.418640766183477397e-01
6.737800000000000011e+01 5.771699999999999875e+01 1.417700000000000102e+02 7.973815000000000097e+00 2.395383523906982892e-01
6.738500000000000512e+01 2.516199999999999903e+01 1.403899999999999864e+02 1.600983000000000089e+01 4.927210148106459658e-02
6.738800000000000523e+01 4.393800000000000239e+01 1.246700000000000017e+02 -1.261650999999999989e+01 6.366966439956023294e-02
6.738899999999999579e+01 5.564600000000000080e+01 1.360800000000000125e+02 -8.462771999999999295e+00 1.578870822477722868e-01
6.739000000000000057e+01 1.840399999999999991e+01 1.358499999999999943e+02 5.454120999999999775e+00 -1.349885352959165064e-01
6.739400000000000546e+01 5.486399999999999721e+01 1.471599999999999966e+02 -8.739314000000000249e+00 2.308935025269060193e-01
6.739700000000000557e+01 5.265699999999999648e+01 1.290300000000000011e+02 -1.270919999999999916e+01 8.487878241077227714e-02
6.739900000000000091e+01 5.282999999999999829e+01 1.334699999999999989e+02 -6.240698000000000079e+00 1.594118605341154904e-01
6.739900000000000091e+01 5.621399999999999864e+01 1.464000000000000057e+02 -8.182499999999999218e+00 2.315320813147084544e-01
6.740000000000000568e+01 1.330000000000000071e+01 1.307800000000000011e+02 -5.778539999999999566e+00 -3.499999999999999778e-01
6.740000000000000568e+01 4.680499999999999972e+01 1.080600000000000023e+02 1.564505999999999952e+00 -3.499999999999999778e-01
6.740000000000000568e+01 4.713000000000000256e+01 1.087999999999999972e+02 1.211078999999999972e+01 -3.499999999999999778e-01
6.740000000000000568e+01 2.178500000000000014e+01 1.398300000000000125e+02 3.891983000000000192e+00 4.912448085409228116e-02
6.740399999999999636e+01 4.406900000000000261e+01 1.401100000000000136e+02 -1.979221000000000075e+01 1.711251160479349831e-01
6.740399999999999636e+01 4.525999999999999801e+01 1.394499999999999886e+02 -1.656388000000000105e+01 1.703428917259016684e-01
6.740399999999999636e+01 4.546900000000000119e+01 1.387100000000000080e+02 -1.483521000000000001e+01 1.703343665947991692e-01
6.740500000000000114e+01 2.658200000000000074e+01 1.156200000000000045e+02 1.618825999999999965e+01 -1.465883865408402487e-01
6.740600000000000591e+01 4.941299999999999670e+01 1.476899999999999977e+02 4.368316999999999695e+01 3.151641782429992489e-03
6.740600000000000591e+01 1.802499999999999858e+01 1.240600000000000023e+02 7.643263000000000140e-01 -3.499999999999999778e-01
6.740900000000000603e+01 5.196399999999999864e+01 1.469199999999999875e+02 -2.127676999999999907e+01 2.312109197188523813e-01
6.741100000000000136e+01 5.924900000000000233e+01 1.378799999999999955e+02 1.208968999999999916e+01 2.421609790972814591e-01
6.741400000000000148e+01 1.558699999999999974e+01 1.298700000000000045e+02 -1.485533999999999910e+00 -3.500000000000000333e-01
6.742000000000000171e+01 4.878999999999999915e+01 1.331500000000000057e+02 -8.199386999999999759e+00 1.071120382523920861e-01
6.742100000000000648e+01 6.112599999999999767e+01 1.305699999999999932e+02 -3.165014000000000038e+01 1.096397955059983664e-01
6.742199999999999704e+01 2.163400000000000034e+01 1.388400000000000034e+02 2.807491999999999877e+00 4.897807171993987657e-02
6.742400000000000659e+01 4.280499999999999972e+01 1.239099999999999966e+02 1.769806000000000168e+01 7.172232494198152453e-02
6.742700000000000671e+01 3.740200000000000102e+01 1.028299999999999983e+02 1.597995000000000054e+01 -6.266077686600429741e-02
6.743000000000000682e+01 5.987299999999999756e+01 1.357599999999999909e+02 8.879469999999999530e+00 2.030322104851954301e-01
6.743300000000000693e+01 3.271200000000000330e+01 1.074200000000000017e+02 2.979089000000000098e+00 1.205412219753314168e-01
6.743500000000000227e+01 4.025099999999999767e+01 1.407400000000000091e+02 7.518930000000000291e+01 1.722018975814611219e-01
6.743600000000000705e+01 4.565200000000000102e+01 1.236400000000000006e+02 4.360848999999999975e+00 6.285835391895193414e-02
6.744199999999999307e+01 4.557999999999999829e+01 1.072099999999999937e+02 -8.195211000000000467e+00 -3.499999999999999778e-01
6.744199999999999307e+01 4.435600000000000165e+01 1.365399999999999920e+02 -4.085313000000000017e+01 1.711154311736512723e-01
6.744400000000000261e+01 2.316000000000000014e+01 1.407500000000000000e+02 9.725678999999999519e+00 4.924910238029999582e-02
6.744599999999999795e+01 2.028200000000000003e+01 1.365600000000000023e+02 -5.729084000000000287e+00 -2.599611528600552224e-01
6.744599999999999795e+01 5.382800000000000296e+01 1.361800000000000068e+02 4.799313999999999858e+00 1.468909622928017134e-01
6.744599999999999795e+01 3.389200000000000301e+01 1.435099999999999909e+02 2.260302000000000078e+01 1.714466388635857430e-01
6.744799999999999329e+01 5.001100000000000279e+01 1.277699999999999960e+02 -1.246364999999999945e+01 1.175613071036516744e-01
6.744799999999999329e+01 5.953399999999999892e+01 1.386899999999999977e+02 1.322361000000000075e+01 2.404010797949389655e-01
6.744799999999999329e+01 4.725900000000000034e+01 1.320399999999999920e+02 -3.406559999999999810e+00 1.011139540312294693e-01
6.745300000000000296e+01 2.735399999999999920e+01 1.132199999999999989e+02 1.822060000000000102e+01 1.497511333808888845e-01
6.745499999999999829e+01 4.837700000000000244e+01 1.480300000000000011e+02 2.156184999999999974e+01 4.430130417255271139e-03
6.745999999999999375e+01 1.280599999999999916e+01 1.256299999999999955e+02 -1.219688000000000017e+01 -3.499999999999999778e-01
6.746399999999999864e+01 1.127800000000000047e+01 1.257800000000000011e+02 -1.788057000000000007e+00 -3.500000000000000888e-01
6.746500000000000341e+01 1.117900000000000027e+01 1.283000000000000114e+02 -9.330942000000000291e+00 -3.499999999999999778e-01
6.746500000000000341e+01 1.138799999999999990e+01 1.290300000000000011e+02 -2.444259999999999877e+00 -3.499999999999999778e-01
6.746500000000000341e+01 1.504899999999999949e+01 1.256200000000000045e+02 -9.781219000000000108e+00 -3.499999999999999778e-01
6.747199999999999420e+01 4.362199999999999989e+01 1.364499999999999886e+02 -3.126829999999999998e+01 1.714854855759060104e-01
6.747199999999999420e+01 6.133500000000000085e+01 1.189399999999999977e+02 1.260149000000000008e+01 -1.623644424852412338e-01
6.747199999999999420e+01 5.615500000000000114e+01 1.150999999999999943e+02 -1.403237999999999985e+00 -2.480295556427383752e-01
6.747400000000000375e+01 4.139500000000000313e+01 1.416599999999999966e+02 -7.563845999999999847e+00 1.716185429750269331e-01
6.747799999999999443e+01 4.403999999999999915e+01 1.023799999999999955e+02 4.836604999999999599e+00 -3.500000000000000333e-01
6.747799999999999443e+01 4.548899999999999721e+01 1.373000000000000114e+02 -2.342212999999999923e+01 1.700856898016696039e-01
6.748199999999999932e+01 5.269599999999999795e+01 1.369399999999999977e+02 -7.436091000000000228e+00 1.397706498208699799e-01
6.748199999999999932e+01 2.120700000000000074e+01 1.374499999999999886e+02 -4.135531000000000290e+00 4.874392827222771840e-02
6.748199999999999932e+01 5.800800000000000267e+01 1.263700000000000045e+02 6.855478999999999878e+00 1.638055497933787463e-01
6.748499999999999943e+01 3.770499999999999829e+01 1.035300000000000011e+02 9.977304999999999424e+00 -5.693366750100647966e-02
6.748900000000000432e+01 1.959600000000000009e+01 1.230400000000000063e+02 4.645401999999999809e+00 -3.500000000000000333e-01
6.749099999999999966e+01 2.040899999999999892e+01 1.207999999999999972e+02 1.011980999999999931e+01 -3.499999999999999778e-01
6.749099999999999966e+01 2.040899999999999892e+01 1.222000000000000028e+02 3.938292000000000126e+00 -3.499999999999999778e-01
6.749099999999999966e+01 5.575200000000000244e+01 1.381999999999999886e+02 -1.746890000000000143e+01 1.576269730844525596e-01
6.749200000000000443e+01 5.321699999999999875e+01 1.390800000000000125e+02 -1.232798000000000016e+01 1.433001172177544857e-01
6.750199999999999534e+01 5.454800000000000182e+01 1.136800000000000068e+02 -4.176794000000000118e+00 -2.459381807051218838e-01
6.750400000000000489e+01 3.265699999999999648e+01 1.059300000000000068e+02 7.496802999999999884e+00 1.310981602331933449e-01
6.750499999999999545e+01 2.752100000000000080e+01 1.399799999999999898e+02 1.962120000000000175e+01 4.911003321840809455e-02
6.750600000000000023e+01 5.457999999999999829e+01 1.360300000000000011e+02 1.140694000000000052e+01 1.515126907935816503e-01
6.750700000000000500e+01 3.870700000000000074e+01 1.035799999999999983e+02 1.433070999999999984e+01 -3.500000000000000333e-01
6.751000000000000512e+01 4.497500000000000142e+01 1.196500000000000057e+02 2.161274999999999835e+01 8.128328848859323053e-02
6.751099999999999568e+01 5.881600000000000250e+01 1.252600000000000051e+02 2.729522000000000048e+01 1.573947147020710868e-01
6.751300000000000523e+01 3.713000000000000256e+01 1.021500000000000057e+02 1.903713000000000122e+01 -6.722636574933357756e-02
6.751800000000000068e+01 3.167000000000000171e+01 1.416999999999999886e+02 6.275225999999999971e+01 1.713728295254900724e-01
6.751900000000000546e+01 3.132700000000000173e+01 1.100499999999999972e+02 2.420258000000000020e+00 1.128472954273810752e-01
6.751900000000000546e+01 3.153600000000000136e+01 1.093199999999999932e+02 8.633264000000000493e-01 1.159503330801304744e-01
6.751900000000000546e+01 3.176300000000000168e+01 1.085199999999999960e+02 2.108579000000000203e+00 1.196775363368238060e-01
6.752100000000000080e+01 5.961800000000000210e+01 1.278799999999999955e+02 -7.145982000000000056e+00 2.218817089035880763e-02
6.752200000000000557e+01 6.142300000000000182e+01 1.351699999999999875e+02 2.140944999999999965e+01 1.017500141962399268e-01
6.752299999999999613e+01 3.627400000000000091e+01 1.474600000000000080e+02 8.409420000000000073e+01 1.706344379937936029e-01
6.753400000000000603e+01 1.168099999999999916e+01 1.297599999999999909e+02 -9.655609999999999360e+00 -3.499999999999999778e-01
6.753499999999999659e+01 4.155799999999999983e+01 1.467400000000000091e+02 8.082732000000000028e+00 9.833699592199204864e-02
6.753900000000000148e+01 3.299799999999999756e+01 1.066400000000000006e+02 8.258091999999999544e+00 1.613284735515276846e-01
6.754000000000000625e+01 5.831099999999999994e+01 1.270699999999999932e+02 2.126682999999999879e+00 1.675373992353141883e-01
6.754099999999999682e+01 5.478099999999999881e+01 1.345200000000000102e+02 -1.299643999999999977e+01 1.514240228067030292e-01
6.754699999999999704e+01 4.200099999999999767e+01 1.364399999999999977e+02 -3.372156999999999982e+01 1.719411381128498340e-01
6.754800000000000182e+01 4.400999999999999801e+01 1.196400000000000006e+02 4.829793999999999699e+01 8.246794219429612327e-02
6.754800000000000182e+01 3.384100000000000108e+01 1.003199999999999932e+02 4.934167000000000414e+00 -9.817281113019978023e-02
6.754900000000000659e+01 2.071199999999999974e+01 1.215000000000000000e+02 4.762940999999999647e+00 -3.499999999999999778e-01
6.754900000000000659e+01 1.339300000000000068e+01 1.255100000000000051e+02 -1.121877999999999931e+00 -3.499999999999999778e-01
6.754900000000000659e+01 4.002600000000000335e+01 1.376299999999999955e+02 -1.050169999999999959e+01 1.724293404192994705e-01
6.755100000000000193e+01 5.352000000000000313e+01 1.397800000000000011e+02 -9.889647000000000077e+00 1.448924580270153362e-01
6.755100000000000193e+01 5.438600000000000279e+01 1.397800000000000011e+02 -3.369480999999999682e+01 1.493706166627685183e-01
6.755100000000000193e+01 3.973700000000000188e+01 1.385900000000000034e+02 4.589644999999999975e-01 1.724201116743782070e-01
6.755299999999999727e+01 3.965699999999999648e+01 1.396699999999999875e+02 8.258273000000000419e-01 1.722812758594292615e-01
6.755700000000000216e+01 1.421499999999999986e+01 1.304799999999999898e+02 -7.053386999999999851e+00 -3.499999999999999778e-01
6.755800000000000693e+01 3.041499999999999915e+01 1.409900000000000091e+02 1.727823000000000064e+01 4.919102577671018162e-02
6.756100000000000705e+01 1.656899999999999906e+01 1.255900000000000034e+02 7.145584000000000380e-01 -3.499999999999999778e-01
6.756399999999999295e+01 2.118400000000000105e+01 1.218400000000000034e+02 5.325433000000000305e+00 -3.499999999999999778e-01
6.756499999999999773e+01 5.332900000000000063e+01 1.468000000000000114e+02 -1.009348999999999918e+01 2.315643139617782897e-01
6.756799999999999784e+01 4.527799999999999869e+01 1.203499999999999943e+02 2.098920999999999992e+01 7.870007337468466757e-02
6.756799999999999784e+01 5.400399999999999778e+01 1.294499999999999886e+02 -1.333798999999999957e+01 9.405473343225075056e-02
6.757200000000000273e+01 4.454899999999999949e+01 1.477100000000000080e+02 9.400804000000000826e+00 8.735223315242009873e-03
6.757299999999999329e+01 5.510799999999999699e+01 1.353000000000000114e+02 8.869454000000000349e+01 1.539211796602055760e-01
6.757500000000000284e+01 3.262299999999999756e+01 1.418000000000000114e+02 5.750903000000000276e+01 1.714350997797174370e-01
6.758299999999999841e+01 5.978499999999999659e+01 1.194099999999999966e+02 7.048507999999999996e+00 9.589374348282790617e-02
6.758899999999999864e+01 3.016700000000000159e+01 1.013700000000000045e+02 1.768000999999999934e+00 -8.782285446440078747e-02
6.758899999999999864e+01 3.016700000000000159e+01 1.038299999999999983e+02 4.516024000000000149e-01 -8.829279716350282858e-02
6.759000000000000341e+01 2.977799999999999869e+01 1.107900000000000063e+02 7.336572999999999567e+00 1.211047100987015790e-01
6.759000000000000341e+01 5.454500000000000171e+01 1.331999999999999886e+02 -1.860434000000000054e+01 1.760819203863018267e-01
6.759199999999999875e+01 4.303399999999999892e+01 1.476899999999999977e+02 5.524958999999999953e+00 1.068881865778696649e-02
6.759499999999999886e+01 1.678200000000000003e+01 1.319000000000000057e+02 -1.102438999999999947e+00 -3.499999999999999778e-01
6.759499999999999886e+01 4.808299999999999841e+01 1.282100000000000080e+02 -6.175214999999999677e+00 1.221289419597574727e-01
6.759600000000000364e+01 1.855499999999999972e+01 1.231400000000000006e+02 1.035954000000000041e+00 -3.499999999999999778e-01
6.759900000000000375e+01 3.466100000000000136e+01 1.011099999999999994e+02 7.435241000000000433e+00 -1.051820228705672156e-01
6.760299999999999443e+01 5.731300000000000239e+01 1.162900000000000063e+02 5.224904000000000437e+00 -2.362640028299776151e-01
6.760399999999999920e+01 5.828799999999999670e+01 1.255799999999999983e+02 1.254490000000000016e+01 1.533517607171372699e-01
6.761100000000000421e+01 3.753999999999999915e+01 1.459799999999999898e+02 7.589254000000000389e+00 1.708022455438055476e-01
6.761700000000000443e+01 6.109700000000000131e+01 1.230699999999999932e+02 1.533514000000000088e+01 1.680634812627760932e-01
6.762000000000000455e+01 2.844699999999999918e+01 1.112199999999999989e+02 1.808943999999999974e+01 1.375462773867154598e-01
6.762399999999999523e+01 1.249399999999999977e+01 1.305200000000000102e+02 -2.114677999999999969e+01 -3.499999999999999778e-01
6.762900000000000489e+01 5.697999999999999687e+01 1.445800000000000125e+02 2.237390999999999863e+01 2.341351865550576061e-01
6.762999999999999545e+01 4.291599999999999682e+01 1.012199999999999989e+02 4.693335000000000257e+00 -3.499999999999999778e-01
6.763400000000000034e+01 2.861599999999999966e+01 1.404900000000000091e+02 1.347381000000000029e+01 4.907844411780901833e-02
6.763700000000000045e+01 1.892299999999999827e+01 1.360999999999999943e+02 1.894911999999999930e+00 -1.356770111144751101e-01
6.763800000000000523e+01 5.748599999999999710e+01 1.173199999999999932e+02 1.282872000000000057e+01 -2.344065470004512153e-01
6.764100000000000534e+01 4.031799999999999784e+01 1.456299999999999955e+02 -9.988526000000000238e+00 1.704176758069786413e-01
6.764199999999999591e+01 2.191199999999999903e+01 1.155999999999999943e+02 -8.481573999999999502e-01 -3.499999999999999778e-01
6.764199999999999591e+01 2.223699999999999832e+01 1.148599999999999994e+02 1.458029000000000019e+00 -3.499999999999999778e-01
6.764199999999999591e+01 2.353000000000000114e+01 1.141400000000000006e+02 2.692658999999999914e+00 -3.500000000000000333e-01
6.764199999999999591e+01 2.506500000000000128e+01 1.145699999999999932e+02 2.827529000000000181e+00 -1.296440289859595862e-01
6.765000000000000568e+01 1.921999999999999886e+01 1.197000000000000028e+02 2.580880000000000063e+00 -3.500000000000000333e-01
6.765300000000000580e+01 1.697500000000000142e+01 1.311299999999999955e+02 -3.419857000000000036e-01 -3.499999999999999778e-01
6.765600000000000591e+01 6.158700000000000330e+01 1.313199999999999932e+02 -1.031949999999999967e+01 1.085039820738884220e-01
6.765600000000000591e+01 3.135999999999999943e+01 1.043799999999999955e+02 1.654703999999999953e+00 -1.156463356949272853e-01
6.766100000000000136e+01 2.596399999999999864e+01 1.399399999999999977e+02 1.286773999999999951e+01 4.900740784358834090e-02
6.767600000000000193e+01 2.025100000000000122e+01 1.170400000000000063e+02 2.774858000000000047e+00 -3.499999999999999778e-01
6.767700000000000671e+01 5.918999999999999773e+01 1.245600000000000023e+02 3.359561999999999671e+01 1.589163271329867011e-01
6.768099999999999739e+01 4.782500000000000284e+01 1.289399999999999977e+02 -6.534139999999999837e+00 -3.130530560103514381e-02
6.768600000000000705e+01 3.126999999999999957e+01 1.005799999999999983e+02 2.720149000000000150e+00 -8.909376655664238975e-02
6.768800000000000239e+01 3.476100000000000279e+01 1.474499999999999886e+02 1.361322999999999972e+01 1.705867560723860754e-01
6.768899999999999295e+01 3.978199999999999648e+01 1.010799999999999983e+02 6.847120999999999569e+00 -3.499999999999999778e-01
6.768899999999999295e+01 4.110099999999999909e+01 1.003499999999999943e+02 6.838251999999999775e+00 -3.500000000000000333e-01
6.768899999999999295e+01 4.250000000000000000e+01 1.199699999999999989e+02 2.109005000000000152e+01 8.295677031157908110e-02
6.768999999999999773e+01 5.200200000000000244e+01 1.335099999999999909e+02 -6.998606999999999800e+00 1.091553345233671618e-01
6.769100000000000250e+01 2.807799999999999940e+01 1.120699999999999932e+02 1.721745999999999910e+01 1.422064929004123179e-01
6.769100000000000250e+01 4.323799999999999955e+01 1.246099999999999994e+02 3.258935999999999833e+00 6.545063135425961687e-02
6.769199999999999307e+01 4.451899999999999835e+01 1.030900000000000034e+02 8.849227000000000842e+00 -3.499999999999999223e-01
6.769700000000000273e+01 2.767000000000000171e+01 1.128199999999999932e+02 1.822060000000000102e+01 1.465238712690309919e-01
6.769700000000000273e+01 5.943999999999999773e+01 1.364600000000000080e+02 2.338197000000000081e+00 2.051695904879058396e-01
6.769700000000000273e+01 3.386399999999999721e+01 1.426500000000000057e+02 1.878643999999999892e+01 1.713606740404805540e-01
6.770000000000000284e+01 4.702199999999999847e+01 1.488499999999999943e+02 1.149470999999999954e+01 6.697481488762849558e-03
6.770300000000000296e+01 1.908200000000000074e+01 1.188199999999999932e+02 3.790738999999999859e+00 -3.499999999999999778e-01
6.770300000000000296e+01 1.933599999999999852e+01 1.179300000000000068e+02 2.065172000000000008e+00 -3.499999999999999778e-01
6.770300000000000296e+01 2.140700000000000003e+01 1.162300000000000040e+02 5.855787000000000075e-01 -3.499999999999999778e-01
6.770300000000000296e+01 1.645899999999999963e+01 1.304099999999999966e+02 6.195374999999999632e-01 -3.499999999999999778e-01
6.770399999999999352e+01 4.585099999999999909e+01 1.485099999999999909e+02 4.490359999999999907e+00 7.678433200389507204e-03
6.770499999999999829e+01 3.890999999999999659e+01 1.455200000000000102e+02 -3.846707999999999794e-01 1.706612831134275421e-01
6.770799999999999841e+01 5.049600000000000222e+01 1.334199999999999875e+02 -8.050501999999999825e+00 1.073483354191316075e-01
6.770900000000000318e+01 4.905299999999999727e+01 1.098100000000000023e+02 5.142262999999999806e+00 -3.499999999999999778e-01
6.771999999999999886e+01 2.692099999999999937e+01 1.139200000000000017e+02 1.978320000000000078e+01 1.529424595126190334e-01
6.772100000000000364e+01 5.982300000000000040e+01 1.390500000000000114e+02 8.388417000000000456e+00 2.387118355594046726e-01
6.772700000000000387e+01 3.944100000000000250e+01 1.018799999999999955e+02 7.736791000000000196e+00 -3.499999999999999778e-01
6.773000000000000398e+01 4.247200000000000131e+01 1.009800000000000040e+02 6.515659999999999563e+00 -3.499999999999999778e-01
6.773099999999999454e+01 3.258599999999999852e+01 9.984199999999999875e+01 5.461192999999999742e+00 -9.112706147858007366e-02
6.773300000000000409e+01 5.570400000000000063e+01 1.354600000000000080e+02 6.371936999999999962e+00 1.566129166096849323e-01
6.773699999999999477e+01 5.104699999999999704e+01 1.283899999999999864e+02 -6.955212999999999646e+00 1.139006781492561682e-01
6.773799999999999955e+01 5.120400000000000063e+01 1.469900000000000091e+02 -2.698845999999999989e+01 1.397361144500539332e-01
6.773999999999999488e+01 5.313199999999999790e+01 1.129000000000000057e+02 1.103346999999999944e+01 -2.422562680107011590e-01
6.774099999999999966e+01 5.480100000000000193e+01 1.144699999999999989e+02 -2.376717999999999975e+01 -2.458131189011217577e-01
6.774399999999999977e+01 5.255599999999999739e+01 1.381100000000000136e+02 -1.764906999999999826e+01 1.395547201767370071e-01
6.774500000000000455e+01 4.900200000000000244e+01 1.282199999999999989e+02 -7.066664000000000279e+00 1.176182051342138102e-01
6.774599999999999511e+01 4.505599999999999739e+01 1.365999999999999943e+02 -3.384852999999999668e+01 1.691863386161277794e-01
6.774899999999999523e+01 5.312800000000000011e+01 1.362400000000000091e+02 1.370074999999999932e+01 1.424051276196557081e-01
6.774899999999999523e+01 5.822500000000000142e+01 1.416399999999999864e+02 1.216873000000000005e+01 2.384556761691438709e-01
6.775300000000000011e+01 3.980700000000000216e+01 1.036299999999999955e+02 4.350103999999999971e+00 -3.499999999999999778e-01
6.775799999999999557e+01 1.997599999999999909e+01 1.215000000000000000e+02 2.536287000000000180e+00 -3.500000000000000333e-01
6.776300000000000523e+01 2.142299999999999827e+01 1.380600000000000023e+02 -2.312269000000000130e+00 4.867999434195517672e-02
6.777200000000000557e+01 5.237800000000000011e+01 1.113100000000000023e+02 7.768945999999999685e+00 -2.388048691858459249e-01
6.777299999999999613e+01 4.976200000000000045e+01 1.094599999999999937e+02 4.674680000000000391e+00 -3.500000000000000333e-01
6.777700000000000102e+01 4.069500000000000028e+01 1.415999999999999943e+02 3.750994000000000028e+01 1.713001921045852749e-01
6.777700000000000102e+01 4.209499999999999886e+01 1.415999999999999943e+02 -2.984452000000000105e+00 1.708659643768662140e-01
6.778100000000000591e+01 5.532500000000000284e+01 1.389600000000000080e+02 -4.125430999999999671e+01 1.541991541055778014e-01
6.778199999999999648e+01 3.818399999999999750e+01 1.043100000000000023e+02 2.803168000000000148e+01 -7.832296357341669846e-02
6.778199999999999648e+01 5.437199999999999989e+01 1.353000000000000114e+02 1.311764000000000010e+02 1.493840786607269489e-01
6.778400000000000603e+01 5.826500000000000057e+01 1.193299999999999983e+02 2.334299999999999820e+00 8.848377378049046560e-02
6.778600000000000136e+01 5.209400000000000119e+01 1.289799999999999898e+02 -8.982499000000000677e+00 8.320182760170934111e-02
6.778700000000000614e+01 4.816899999999999693e+01 1.096200000000000045e+02 9.594056000000000139e+00 -3.499999999999999778e-01
6.778799999999999670e+01 3.946600000000000108e+01 1.028700000000000045e+02 5.276950000000000252e+00 -3.499999999999999778e-01
6.778900000000000148e+01 4.774000000000000199e+01 1.299300000000000068e+02 -6.814999000000000251e+00 -2.881973230999802099e-02
6.779300000000000637e+01 5.755199999999999960e+01 1.179300000000000068e+02 9.629186999999999941e+00 -2.336494130327357033e-01
6.779600000000000648e+01 5.946900000000000119e+01 1.407800000000000011e+02 6.850854999999999961e+01 2.372860543196436411e-01
6.779600000000000648e+01 5.970000000000000284e+01 1.399600000000000080e+02 1.215186000000000064e+02 2.378899188721939895e-01
6.779699999999999704e+01 5.339200000000000301e+01 1.343400000000000034e+02 6.866235999999999784e+00 1.743302942481124163e-01
6.779800000000000182e+01 5.559100000000000108e+01 1.344199999999999875e+02 -2.515893000000000157e+01 1.548445823136407329e-01
6.780200000000000671e+01 5.673499999999999943e+01 1.456999999999999886e+02 8.869495000000000573e+00 2.323295331267695718e-01
6.780800000000000693e+01 4.007500000000000284e+01 1.044500000000000028e+02 8.212419000000000580e+00 -3.499999999999999778e-01
6.780899999999999750e+01 1.492800000000000082e+01 1.303400000000000034e+02 1.132255999999999929e+00 -3.499999999999999778e-01
6.781000000000000227e+01 4.517699999999999960e+01 1.244200000000000017e+02 -3.924990999999999897e+00 5.765942596918745972e-02
6.781000000000000227e+01 3.542399999999999949e+01 1.015499999999999972e+02 1.491558000000000028e+01 -9.164570745099684390e-02
6.781100000000000705e+01 3.950300000000000011e+01 1.043299999999999983e+02 1.294147000000000070e+01 -3.500000000000000333e-01
6.781300000000000239e+01 4.224300000000000210e+01 1.223900000000000006e+02 2.581286000000000058e+01 7.684187293991474876e-02
6.781399999999999295e+01 1.907100000000000151e+01 1.221899999999999977e+02 1.432665000000000077e+00 -3.499999999999999778e-01
6.781799999999999784e+01 5.007399999999999807e+01 1.471200000000000045e+02 1.621158000000000143e+01 1.380324474780467991e-01
6.781900000000000261e+01 3.424499999999999744e+01 1.457299999999999898e+02 1.492826999999999948e+01 1.708057456251264872e-01
6.781900000000000261e+01 3.424499999999999744e+01 1.466899999999999977e+02 1.576820000000000022e+01 1.706427292585293298e-01
6.782200000000000273e+01 5.634599999999999653e+01 1.363400000000000034e+02 -2.449368000000000123e+01 1.595460287842114522e-01
6.782200000000000273e+01 5.634599999999999653e+01 1.372100000000000080e+02 -1.404349999999999987e+01 1.595571032839220305e-01
6.782200000000000273e+01 5.117300000000000182e+01 1.086700000000000017e+02 3.872428999999999899e+00 -2.262703840110472098e-01
6.782899999999999352e+01 5.567699999999999960e+01 1.468400000000000034e+02 -3.835409999999999986e+00 2.311274031063134393e-01
6.782999999999999829e+01 3.082000000000000028e+01 1.105600000000000023e+02 6.170969000000000371e+00 1.146956435840875282e-01
6.783400000000000318e+01 1.419899999999999984e+01 1.255499999999999972e+02 -1.925715000000000066e+00 -3.500000000000000333e-01
6.783599999999999852e+01 5.263400000000000034e+01 1.120900000000000034e+02 4.879923999999999928e+00 -2.402236406172160998e-01
6.783700000000000330e+01 4.476899999999999835e+01 1.398400000000000034e+02 -1.924344999999999928e+01 1.695191125550909172e-01
6.784499999999999886e+01 4.957800000000000296e+01 1.282700000000000102e+02 -5.978269000000000055e+00 1.159002483866905103e-01
6.784499999999999886e+01 6.204800000000000182e+01 1.344199999999999875e+02 1.560078999999999994e+01 1.033258370122749625e-01
6.784799999999999898e+01 5.406300000000000239e+01 1.468799999999999955e+02 -5.378108000000000111e+00 2.314351229059732895e-01
6.785099999999999909e+01 4.880899999999999750e+01 1.475399999999999920e+02 3.386607999999999663e+01 4.151405984408862090e-03
6.785699999999999932e+01 4.468500000000000227e+01 1.246700000000000017e+02 -2.067010000000000147e+01 5.802507913019131630e-02
6.785899999999999466e+01 3.549900000000000233e+01 1.475300000000000011e+02 1.722173000000000087e+01 1.704300213355589011e-01
6.786100000000000421e+01 5.502700000000000102e+01 1.397199999999999989e+02 -2.862556999999999974e+01 1.520270275323714892e-01
6.786299999999999955e+01 5.925999999999999801e+01 1.196200000000000045e+02 2.785479000000000038e+00 9.038670448515571942e-02
6.786599999999999966e+01 5.254800000000000182e+01 1.095900000000000034e+02 1.608568999999999960e+01 -2.371939520864667639e-01
6.786599999999999966e+01 5.254800000000000182e+01 1.106400000000000006e+02 1.935311000000000092e+01 -2.384787005750221012e-01
6.787000000000000455e+01 4.627199999999999847e+01 1.076299999999999955e+02 -1.839075000000000060e+01 -3.499999999999999778e-01
6.787000000000000455e+01 1.296000000000000085e+01 1.312400000000000091e+02 -3.716429000000000205e+00 -3.500000000000000333e-01
6.787199999999999989e+01 1.937399999999999878e+01 1.214899999999999949e+02 3.310925999999999814e+00 -3.499999999999999778e-01
6.787399999999999523e+01 4.508899999999999864e+01 1.068199999999999932e+02 5.508637000000000228e+00 -3.500000000000000333e-01
6.787600000000000477e+01 3.682699999999999818e+01 1.467599999999999909e+02 4.759542999999999857e+00 1.704766503640313402e-01
6.787800000000000011e+01 3.332300000000000040e+01 1.418600000000000136e+02 1.491972999999999949e+01 1.712500052756505964e-01
6.788400000000000034e+01 1.713800000000000168e+01 1.252000000000000028e+02 1.526553000000000049e+00 -3.499999999999999778e-01
6.788500000000000512e+01 3.438799999999999812e+01 1.439799999999999898e+02 4.941378000000000270e+01 1.710424548008681045e-01
6.788599999999999568e+01 6.048499999999999943e+01 1.193499999999999943e+02 1.667588000000000070e+00 -1.628352997084889231e-01
6.788599999999999568e+01 6.218500000000000227e+01 1.193499999999999943e+02 7.247024999999999828e+00 -1.621640959273225047e-01
6.788599999999999568e+01 6.218500000000000227e+01 1.220999999999999943e+02 1.923226000000000013e+01 -8.003247895922029065e-02
6.789100000000000534e+01 6.153600000000000136e+01 1.224399999999999977e+02 1.180770000000000053e+01 1.037264349211952236e-01
6.789799999999999613e+01 1.574900000000000055e+01 1.258900000000000006e+02 -5.811738000000000071e+00 -3.499999999999999778e-01
6.789900000000000091e+01 4.605700000000000216e+01 1.215999999999999943e+02 3.632712999999999681e+01 7.083289914453223812e-02
6.789900000000000091e+01 4.605700000000000216e+01 1.224699999999999989e+02 2.612244000000000010e+00 6.646376879762046219e-02
6.790099999999999625e+01 4.956000000000000227e+01 1.331399999999999864e+02 -1.269696000000000069e+01 1.050846485801142649e-01
6.790200000000000102e+01 5.964600000000000080e+01 1.374499999999999886e+02 1.221707999999999927e+01 2.041737610830386962e-01
6.790200000000000102e+01 4.308400000000000318e+01 1.404000000000000057e+02 -1.361450999999999922e+01 1.704750367597190064e-01
6.790500000000000114e+01 5.536200000000000188e+01 1.336100000000000136e+02 -3.268806000000000012e+01 1.860886125025364435e-01
6.790699999999999648e+01 2.393299999999999983e+01 1.406899999999999977e+02 1.142778999999999989e+01 4.897477238440559044e-02
6.791400000000000148e+01 6.007200000000000273e+01 1.287500000000000000e+02 -2.669817000000000107e+01 2.398406040629895777e-02
