-9.881500000000000838e+00 2.051500000000000057e+01 -2.166400000000000148e+01 4.261192999999999564e+00 -3.636205633756072753e-01
-9.876300000000000523e+00 1.632999999999999829e+01 1.026200000000000045e+01 -8.442298999999999776e-01 -2.248229488732713527e-02
-9.875000000000000000e+00 3.435600000000000165e+01 -1.068699999999999939e+01 -1.027152000000000065e+01 -3.632720165352309460e-01
-9.875000000000000000e+00 3.681600000000000250e+01 -1.162700000000000067e+01 -9.268662000000000845e+00 -3.631763999072609717e-01
-9.875000000000000000e+00 3.681600000000000250e+01 -1.068699999999999939e+01 -1.548194999999999943e+01 -3.631671756521381300e-01
-9.873699999999999477e+00 2.859600000000000009e+01 -2.084199999999999875e+01 -2.847595000000000098e+00 -3.634694178093503814e-01
-9.868900000000000006e+00 1.305100000000000016e+01 -9.660000000000000142e+00 6.537091000000000207e+00 -2.543611464074495565e-01
-9.866099999999999426e+00 2.914300000000000068e+01 1.394999999999999929e+01 1.376749000000000045e+01 -1.173257167853882302e-02
-9.865099999999999980e+00 3.111700000000000088e+01 -2.753800000000000026e+01 -4.022478999999999694e+00 -3.634095279611595508e-01
-9.857699999999999463e+00 2.881200000000000117e+01 -2.033399999999999963e+01 -3.440120999999999984e+00 -3.634658289161203371e-01
-9.857699999999999463e+00 3.107799999999999940e+01 -2.119900000000000162e+01 -1.273751999999999995e+01 -3.634071690112160025e-01
-9.857699999999999463e+00 3.107799999999999940e+01 -2.033399999999999963e+01 -8.309969999999999857e+00 -3.634060710065141198e-01
-9.857499999999999929e+00 2.950799999999999912e+01 3.836399999999999810e+00 3.345130999999999943e+01 -3.641860465849927064e-01
-9.857499999999999929e+00 2.950799999999999912e+01 4.701699999999999768e+00 1.919369000000000014e+01 -3.642835560569884779e-01
-9.849999999999999645e+00 3.375999999999999801e+01 -2.818199999999999861e+01 1.760223000000000093e+00 -3.633624127612072874e-01
-9.849999999999999645e+00 3.650999999999999801e+01 -2.818199999999999861e+01 1.770246000000000042e-01 -3.633118295648932738e-01
-9.847300000000000608e+00 2.328399999999999892e+01 -2.793799999999999883e+01 -4.443870999999999932e-02 -3.635346698628843520e-01
-9.841300000000000381e+00 2.558099999999999952e+01 -2.768700000000000117e+01 -1.559889000000000081e+00 -3.635029931081264487e-01
-9.840999999999999304e+00 3.236899999999999977e+01 -1.027199999999999891e+00 5.283272000000000190e+00 -3.635175036245493763e-01
-9.837400000000000588e+00 1.590000000000000036e+01 6.867099999999999760e+00 -1.248803000000000107e+00 -2.485406447741032865e-02
-9.833600000000000563e+00 1.546499999999999986e+01 -1.634499999999999886e+01 -1.046452000000000027e+01 -2.745301457853329685e-01
-9.832800000000000651e+00 2.725900000000000034e+01 -2.376599999999999824e+01 -2.889235999999999888e-02 -3.634905758067663584e-01
-9.831599999999999895e+00 1.333600000000000030e+01 -8.854300000000000281e+00 5.790814000000000128e+00 -2.544960585217165283e-01
-9.829900000000000304e+00 2.514900000000000091e+01 1.537800000000000011e+01 1.064798000000000044e+01 8.106981456243596285e-02
-9.829100000000000392e+00 2.976599999999999824e+01 -2.926399999999999935e+01 -3.153741999999999823e+00 -3.634325881299522165e-01
-9.827999999999999403e+00 3.548100000000000165e+01 1.280499999999999972e+01 6.158528999999999698e+00 -2.706069839837796920e-01
-9.827899999999999636e+00 1.334200000000000053e+01 -1.048799999999999955e+01 4.163293999999999606e+00 -2.542204073073806581e-01
-9.821699999999999875e+00 2.994500000000000028e+01 -1.957600000000000051e+01 -7.282092999999999705e+00 -3.634382194785194531e-01
-9.821500000000000341e+00 2.821799999999999997e+01 -2.229200000000000159e+01 2.126006999999999980e+00 -3.634759657844239822e-01
-9.819300000000000139e+00 1.401200000000000045e+01 1.967000000000000082e+00 3.641824000000000172e+00 -1.132626937933798733e-01
-9.816100000000000492e+00 2.800199999999999889e+01 -2.383399999999999963e+01 -3.058340999999999976e-01 -3.634760161459419936e-01
-9.815500000000000114e+00 3.163400000000000034e+01 -2.679100000000000037e+01 8.685410999999999548e-01 -3.634008790624751462e-01
-9.809300000000000352e+00 2.823300000000000054e+01 -2.833500000000000085e+01 -1.989899000000000084e+00 -3.634596505598436389e-01
-9.807999999999999829e+00 1.567999999999999972e+01 6.112899999999999778e+00 -2.918825000000000003e+00 -2.497864734012119475e-02
-9.804000000000000270e+00 1.911599999999999966e+01 -2.593900000000000006e+01 7.543564000000000380e-01 -3.636020482601277637e-01
-9.804000000000000270e+00 1.911599999999999966e+01 -2.488899999999999935e+01 5.087042000000000286e+00 -3.636110381713690831e-01
-9.800200000000000244e+00 3.152299999999999969e+01 2.140400000000000080e+00 1.594292000000000087e+01 -3.638018447004510159e-01
-9.799500000000000099e+00 2.731700000000000017e+01 -2.234900000000000020e+01 6.331559999999999633e+00 -3.634960123382865449e-01
-9.793699999999999406e+00 2.221799999999999997e+01 1.481199999999999939e+01 4.257193000000000005e+00 8.106823871738770559e-02
-9.789999999999999147e+00 3.099599999999999866e+01 -2.844099999999999895e+01 -4.824562000000000239e+00 -3.634134464277137266e-01
-9.788000000000000256e+00 1.555799999999999983e+01 1.007700000000000040e+00 4.952422000000000324e+00 9.708092570946959265e-02
-9.787900000000000489e+00 3.625800000000000267e+01 -2.249399999999999977e+01 -5.138968000000000202e+00 -3.632816885778186178e-01
-9.785700000000000287e+00 1.232499999999999929e+01 -4.809300000000000352e+00 -2.663187000000000193e-01 -2.592278548080847456e-01
-9.784000000000000696e+00 1.394899999999999984e+01 -1.215900000000000070e+01 1.474680999999999997e+01 -2.539870311191305130e-01
-9.781000000000000583e+00 1.549399999999999977e+01 5.414299999999999669e-02 4.648450999999999667e+00 9.728124095919613024e-02
-9.773799999999999599e+00 1.478500000000000014e+01 -1.931099999999999994e+01 3.878658000000000161e+00 -3.637151080114819357e-01
-9.773400000000000531e+00 1.303299999999999947e+01 -8.154299999999999216e+00 5.735500000000000043e+00 -2.546015351995506437e-01
-9.769000000000000128e+00 3.354099999999999682e+01 -2.745299999999999940e+01 7.787595000000000489e-01 -3.633667252873689635e-01
-9.766700000000000159e+00 1.444899999999999984e+01 -1.047499999999999964e+01 2.112573999999999952e+00 -2.542145297783914848e-01
-9.759199999999999875e+00 3.625200000000000244e+01 -2.151200000000000045e+01 8.586634999999999351e+00 -3.632740859613503015e-01
-9.744600000000000151e+00 1.571000000000000085e+01 -1.223300000000000054e+01 6.426299000000000594e-02 -2.539716643771729454e-01
-9.741199999999999193e+00 2.701300000000000168e+01 -2.304899999999999949e+01 2.169762000000000057e+01 -3.635011836639846505e-01
-9.741199999999999193e+00 2.848600000000000065e+01 -2.304899999999999949e+01 7.435308000000000028e+00 -3.634705134127082515e-01
-9.740800000000000125e+00 1.611400000000000077e+01 8.882400000000000517e+00 -3.615784000000000109e+00 -2.362659948602719578e-02
-9.740800000000000125e+00 1.611400000000000077e+01 9.747600000000000264e+00 -1.993128999999999929e+00 -2.263942196558386272e-02
-9.738400000000000389e+00 2.094399999999999906e+01 -2.340899999999999892e+01 3.792282999999999848e+00 -3.636025286502799769e-01
-9.738400000000000389e+00 2.094399999999999906e+01 -2.200900000000000034e+01 1.815739999999999910e+00 -3.636153347691662985e-01
-9.736900000000000333e+00 2.704100000000000037e+01 -2.813400000000000034e+01 -4.620029999999999859e+00 -3.634810588617792826e-01
-9.733999999999999986e+00 3.273499999999999943e+01 -2.523299999999999987e-01 3.591720000000000024e+00 -3.634972938207422510e-01
-9.733999999999999986e+00 3.273499999999999943e+01 7.983299999999999841e-01 4.746084999999999887e+00 -3.635409883947872678e-01
-9.732900000000000773e+00 3.240800000000000125e+01 -2.669500000000000028e+01 1.333975000000000044e+01 -3.633880025717794449e-01
-9.725799999999999557e+00 3.600399999999999778e+01 -2.067800000000000082e+01 3.903927000000000191e+01 -3.632741550200299097e-01
-9.724700000000000344e+00 3.229399999999999693e+01 -1.983899999999999997e+00 4.521225000000000271e+00 -3.634871837049442056e-01
-9.721000000000000085e+00 1.464700000000000024e+01 -2.019099999999999895e+01 1.020335999999999999e+01 -3.637071036827406734e-01
-9.721000000000000085e+00 1.490099999999999980e+01 -2.108500000000000085e+01 4.161915999999999727e+00 -3.636945975031777301e-01
-9.721000000000000085e+00 1.634700000000000131e+01 -2.189099999999999824e+01 2.940872000000000153e+00 -3.636725965911437597e-01
-9.720900000000000318e+00 4.268599999999999994e+01 -2.509199999999999875e+01 5.808057999999999943e+00 -3.631875198028174934e-01
-9.720900000000000318e+00 4.268599999999999994e+01 -2.245400000000000063e+01 3.883418999999999954e+01 -3.631648623106930041e-01
-9.718999999999999417e+00 2.506299999999999883e+01 2.195700000000000074e+01 2.822006999999999977e+01 -5.486331181191338169e-02
-9.718999999999999417e+00 2.638200000000000145e+01 1.959199999999999875e+01 1.652159999999999940e+01 -2.285206497807771436e-02
-9.718999999999999417e+00 2.638200000000000145e+01 2.269200000000000017e+01 5.680982999999999805e+01 -1.194577882294134141e-01
-9.718999999999999417e+00 2.770100000000000051e+01 2.032700000000000173e+01 2.423404999999999987e+01 -2.093705561072927157e-01
-9.718999999999999417e+00 2.770100000000000051e+01 2.195700000000000074e+01 2.758151000000000153e+01 -6.369238694983553328e-02
-9.718999999999999417e+00 2.793199999999999861e+01 2.114199999999999946e+01 4.818263999999999925e+01 -1.890116092166848893e-01
-9.718400000000000816e+00 1.385999999999999943e+01 -3.463699999999999779e+00 -2.038262999999999880e-01 -2.559686173670119302e-01
-9.714700000000000557e+00 1.969399999999999906e+01 -2.162999999999999901e+01 -7.277694000000000329e+00 -3.636372598956558733e-01
-9.711000000000000298e+00 3.504599999999999937e+01 1.362100000000000044e+01 1.344026000000000032e+01 -2.690183315032744771e-01
-9.706500000000000128e+00 1.529800000000000004e+01 -1.143800000000000061e+01 -3.881250999999999785e+00 -2.540601595306725136e-01
-9.706300000000000594e+00 2.204899999999999949e+01 1.385999999999999943e+01 2.971252999999999922e+00 8.535115590027091137e-02
-9.700100000000000833e+00 3.390400000000000347e+01 -8.330199999999999605e+00 -1.484677999999999942e+00 -3.632891934902469089e-01
-9.698700000000000543e+00 3.477700000000000102e+01 -9.847500000000000142e+00 -2.067625999999999920e+01 -3.632470393622115323e-01
-9.694100000000000605e+00 1.447100000000000009e+01 -2.829000000000000181e+00 4.986279999999999824e+00 -2.562902740763234322e-01
-9.689600000000000435e+00 3.542300000000000182e+01 -1.295199999999999996e+01 -2.117374999999999829e+01 -3.632325704941395950e-01
-9.689099999999999824e+00 3.402700000000000102e+01 1.082900000000000063e+01 9.962172999999999945e+00 -3.640689628598979821e-01
-9.686299999999999244e+00 1.454100000000000037e+01 -1.293299999999999983e+01 3.972113999999999923e+00 -2.538700411022835057e-01
-9.686299999999999244e+00 1.540700000000000003e+01 -1.293299999999999983e+01 -1.589078999999999908e+00 -2.538708172982270250e-01
-9.680999999999999162e+00 4.393999999999999773e+01 -2.425199999999999889e+01 2.179780999999999835e+01 -3.631800882859218538e-01
-9.680999999999999162e+00 4.393999999999999773e+01 -2.329400000000000048e+01 2.432177000000000078e+01 -3.631719310979740212e-01
-9.680500000000000327e+00 4.191799999999999926e+01 -2.523799999999999955e+01 4.809561000000000419e+00 -3.631896023651989269e-01
-9.680099999999999483e+00 2.124699999999999989e+01 -2.270899999999999963e+01 4.000924000000000369e+00 -3.636061309926172935e-01
-9.675300000000000011e+00 3.021099999999999852e+01 1.298399999999999999e+01 6.048019000000000034e+00 -2.351925623353005174e-02
-9.675300000000000011e+00 3.161100000000000065e+01 1.298399999999999999e+01 1.165237000000000078e+00 -2.920109190468131999e-01
-9.672299999999999898e+00 3.258700000000000330e+01 -6.262999999999999901e+00 1.190216000000000030e+01 -3.633775676956429446e-01
-9.667099999999999582e+00 4.055899999999999750e+01 -2.428000000000000114e+01 1.165554999999999897e+00 -3.632029359736688168e-01
-9.666100000000000136e+00 1.524099999999999966e+01 -1.375399999999999956e+00 6.884459999999999802e+00 -7.876494231838734872e-02
-9.666100000000000136e+00 1.544999999999999929e+01 -6.393699999999999939e-01 4.444510000000000183e+00 -7.959528921709536908e-02
-9.665100000000000691e+00 2.498999999999999844e+01 2.026099999999999923e+01 8.649328000000000571e+00 -1.897581460947122449e-03
-9.664999999999999147e+00 1.915899999999999892e+01 -2.116199999999999903e+01 -1.954973999999999990e+00 -3.636506830888945330e-01
-9.661400000000000432e+00 3.166700000000000159e+01 -2.241299999999999848e+00 2.118504000000000076e+01 -3.635344056675327562e-01
-9.651699999999999946e+00 2.268700000000000117e+01 1.736100000000000065e+01 3.718840999999999841e+00 4.480088098263419749e-02
-9.651699999999999946e+00 2.373699999999999832e+01 1.736100000000000065e+01 4.407887999999999806e+00 6.500781061696084273e-02
-9.649499999999999744e+00 3.358800000000000097e+01 -9.090500000000000469e+00 -5.137107999999999564e+00 -3.633024188477348981e-01
-9.643499999999999517e+00 2.470899999999999963e+01 2.114199999999999946e+01 1.527734000000000059e+01 3.424012811802122636e-02
-9.639599999999999724e+00 3.579899999999999949e+01 -1.958999999999999986e+01 2.638999000000000095e+01 -3.632724423894642118e-01
-9.631999999999999673e+00 1.298600000000000065e+01 -3.505599999999999827e+00 -3.745303999999999967e+00 -1.853979664137195837e-01
-9.627900000000000347e+00 1.913700000000000045e+01 1.275099999999999945e+01 6.088987999999999623e+00 7.746199070370927975e-02
-9.618999999999999773e+00 2.068900000000000006e+01 1.224300000000000033e+01 -1.160946000000000033e+01 8.986755525582360016e-02
-9.618999999999999773e+00 2.187999999999999901e+01 1.290700000000000003e+01 -1.678327000000000169e+01 8.881340499679404865e-02
-9.611299999999999955e+00 1.253999999999999915e+01 -4.216000000000000192e+00 1.040281999999999929e+00 -1.852155035473627698e-01
-9.608000000000000540e+00 1.954799999999999827e+01 -2.400300000000000011e+01 2.009566999999999837e+01 -3.636189166533562722e-01
-9.603999999999999204e+00 1.634199999999999875e+01 1.137100000000000044e+01 -1.911346999999999907e+00 -2.088796054996137214e-02
-9.596299999999999386e+00 4.092799999999999727e+01 -2.512999999999999901e+01 1.883979999999999988e+00 -3.632071137729366295e-01
-9.596299999999999386e+00 4.092799999999999727e+01 -2.342999999999999972e+01 8.005248999999999171e+00 -3.631860342710734879e-01
-9.593999999999999417e+00 3.338100000000000023e+01 8.339199999999999946e+00 -3.050085000000000157e+00 -3.640436942680128629e-01
-9.593999999999999417e+00 3.359000000000000341e+01 9.075300000000000367e+00 9.367252000000000578e+00 -3.640511604005070567e-01
-9.593999999999999417e+00 3.384400000000000119e+01 9.968999999999999417e+00 9.096517999999999660e+00 -3.640432981111357824e-01
-9.592599999999999127e+00 3.233899999999999864e+01 1.367200000000000060e+01 7.306500999999999968e-02 -2.958742115661988636e-01
-9.592000000000000526e+00 3.689999999999999858e+01 -2.430399999999999849e+01 -3.836375000000000202e-01 -3.632866521100224788e-01
-9.590099999999999625e+00 2.994000000000000128e+01 5.401699999999999946e+00 2.060988000000000042e+00 -3.643344592441891683e-01
-9.588200000000000500e+00 2.269500000000000028e+01 -2.783399999999999963e+01 -7.909494000000000247e-02 -3.635491440449362677e-01
-9.585200000000000387e+00 1.990899999999999892e+01 -2.328099999999999881e+01 6.162581000000000309e+00 -3.636217944100504362e-01
-9.584699999999999775e+00 3.634599999999999653e+01 -1.238700000000000045e+01 -1.818543999999999983e+01 -3.631934994304434894e-01
-9.584699999999999775e+00 3.634599999999999653e+01 -9.927300000000000679e+00 -2.415110999999999919e+01 -3.631716484207921924e-01
-9.583700000000000330e+00 3.267900000000000205e+01 -9.401500000000000412e+00 -4.557705999999999591e+00 -3.633429585845857068e-01
-9.572400000000000020e+00 1.792899999999999849e+01 1.197700000000000031e+01 -5.508522000000000141e+00 -2.590459000260400546e-02
-9.568300000000000693e+00 2.130499999999999972e+01 -2.724699999999999989e+01 -2.717147000000000201e+00 -3.635713877570053709e-01
-9.560900000000000176e+00 2.900700000000000145e+01 -2.929899999999999949e+01 -3.977669000000000121e+00 -3.634507852522924631e-01
-9.557600000000000762e+00 1.518500000000000050e+01 -1.047499999999999964e+01 -1.313460000000000072e+01 -2.541471695778405038e-01
-9.557000000000000384e+00 3.387700000000000244e+01 -7.246699999999999697e+00 5.474326999999999721e+00 -3.632878602660873923e-01
-9.557000000000000384e+00 3.264699999999999847e+01 1.259400000000000075e+00 -1.382341000000000042e+00 -3.635645112077832142e-01
-9.550700000000000855e+00 2.219399999999999906e+01 1.558000000000000007e+01 3.415926999999999936e+00 7.713118190587010814e-02
-9.550300000000000011e+00 1.492399999999999949e+01 5.225200000000000067e+00 2.581218000000000146e+01 -1.131380627109331016e-01
-9.548099999999999810e+00 1.994300000000000139e+01 -2.239099999999999824e+01 -3.768959000000000059e-01 -3.636310936589918219e-01
-9.546300000000000452e+00 1.832999999999999829e+01 -2.199899999999999878e+01 2.443633999999999862e+00 -3.636552305638539040e-01
-9.541800000000000281e+00 3.386800000000000210e+01 1.421599999999999930e+01 9.293184999999999363e+00 -2.894629037048750964e-01
-9.541399999999999437e+00 3.259100000000000108e+01 -1.120700000000000074e+01 -1.136453000000000024e+01 -3.633360614655135601e-01
-9.535000000000000142e+00 3.680599999999999739e+01 -2.340200000000000102e+01 -5.951027999999999984e+00 -3.632835480647240156e-01
-9.534299999999999997e+00 2.221999999999999886e+01 1.655399999999999849e+01 3.316221999999999781e+00 4.747371296314102651e-02
-9.532099999999999795e+00 2.775000000000000000e+01 -2.304899999999999949e+01 8.935843999999999454e+00 -3.634925596052949182e-01
-9.527900000000000702e+00 1.381000000000000050e+01 -9.616199999999999193e+00 2.044840999999999909e+00 -2.542564857024492420e-01
-9.527300000000000324e+00 3.298400000000000176e+01 5.514300000000000423e+00 -1.233062999999999931e+01 -3.638240978762813382e-01
-9.525299999999999656e+00 3.428499999999999659e+01 -2.903200000000000003e+01 -6.052615000000000078e-02 -3.633626430592863943e-01
-9.525299999999999656e+00 3.598499999999999943e+01 -2.903200000000000003e+01 4.366840000000000166e-01 -3.633326242760051561e-01
-9.518000000000000682e+00 2.417699999999999960e+01 1.659600000000000009e+01 8.146554000000000073e+00 6.992591331755354522e-02
-9.517899999999999139e+00 1.345700000000000074e+01 5.131499999999999950e+00 7.449626000000000658e+01 -1.133377874579067912e-01
-9.517500000000000071e+00 3.515299999999999869e+01 -9.373100000000000875e+00 -1.113394000000000084e+01 -3.632219312987151616e-01
-9.513400000000000745e+00 1.478200000000000003e+01 -1.340900000000000070e+01 3.711866000000000110e+00 -2.537673880145830396e-01
-9.512000000000000455e+00 3.518999999999999773e+01 1.212899999999999956e+01 1.036091000000000051e+01 -3.653396543470802671e-01
-9.506700000000000372e+00 3.228000000000000114e+01 2.057199999999999918e+00 -3.397686999999999902e+00 -3.636669054975269488e-01
-9.502800000000000580e+00 3.210000000000000142e+01 -5.978399999999999714e+00 2.405891000000000091e+01 -3.634065186816789472e-01
-9.502000000000000668e+00 3.539699999999999847e+01 -1.886899999999999977e+01 3.397171000000000163e+01 -3.632829866029986809e-01
-9.499700000000000699e+00 3.052599999999999980e+01 -2.920100000000000051e+01 -9.239580999999999378e+00 -3.634277192301501591e-01
-9.491899999999999338e+00 3.355599999999999739e+01 -1.108099999999999952e+01 -1.289531000000000027e+01 -3.632962264308181588e-01
-9.477999999999999758e+00 1.220299999999999940e+01 3.334000000000000075e+00 6.003413000000000110e+00 -1.134743166252086405e-01
-9.477999999999999758e+00 1.220299999999999940e+01 4.291999999999999815e+00 4.438750999999999891e+00 -1.134872609620191097e-01
-9.475099999999999412e+00 3.481600000000000250e+01 -1.464000000000000057e+01 -1.992524999999999835e+01 -3.632543234880010741e-01
-9.474299999999999500e+00 3.458500000000000085e+01 -1.794500000000000028e+01 -7.586834000000000078e-01 -3.633019654106123264e-01
-9.474000000000000199e+00 2.980399999999999849e+01 3.005999999999999783e+00 3.401801999999999992e+01 -3.640657322269121865e-01
-9.474000000000000199e+00 3.099500000000000099e+01 2.342000000000000082e+00 1.277637000000000000e+01 -3.638723976147974493e-01
-9.471000000000000085e+00 2.051099999999999923e+01 -2.270899999999999963e+01 2.256302999999999948e+00 -3.636225324164313322e-01
-9.466100000000000847e+00 3.146499999999999986e+01 5.415899999999999714e+00 -3.152855000000000185e+00 -3.641464716147757574e-01
-9.462899999999999423e+00 2.783299999999999841e+01 1.462899999999999956e+01 8.146672000000000580e+00 -2.724175573291061705e-02
-9.461499999999999133e+00 1.490399999999999991e+01 -9.647999999999999687e+00 -6.075127999999999778e-02 -2.542435946414787207e-01
-9.450900000000000745e+00 1.478599999999999959e+01 -1.443500000000000050e+01 7.415111999999999703e+00 -2.536587248018252749e-01
-9.450300000000000367e+00 2.677700000000000102e+01 1.462100000000000044e+01 7.614037999999999862e+00 -3.622853631129963059e-02
-9.444800000000000750e+00 1.314700000000000024e+01 2.198500000000000121e+00 3.287808000000000064e+00 -1.133771276888963647e-01
-9.444699999999999207e+00 2.514799999999999969e+01 -2.817800000000000082e+01 1.645742000000000038e+00 -3.635164719235801090e-01
-9.442399999999999238e+00 3.365599999999999881e+01 -9.554700000000000415e+00 -8.405177999999999372e+00 -3.632925964084828263e-01
-9.433600000000000207e+00 3.238799999999999812e+01 -1.038100000000000023e+01 -8.412138000000000559e+00 -3.633463725729663696e-01
-9.431300000000000239e+00 3.434400000000000119e+01 -9.147500000000000853e+00 -7.268463999999999814e+00 -3.632586658495061127e-01
-9.425100000000000477e+00 2.951200000000000045e+01 -2.146699999999999875e+01 -2.591062000000000087e-01 -3.634613555275491015e-01
-9.425100000000000477e+00 2.951200000000000045e+01 -2.006700000000000017e+01 -4.683980000000000032e+00 -3.634643189603793401e-01
-9.425100000000000477e+00 3.037800000000000011e+01 -2.146699999999999875e+01 -5.015670000000000073e+00 -3.634400526002609655e-01
-9.425100000000000477e+00 3.037800000000000011e+01 -2.006700000000000017e+01 -1.106555999999999962e+01 -3.634411500777387505e-01
-9.423999999999999488e+00 1.507300000000000040e+01 -1.864699999999999847e+01 1.297987000000000002e+01 -3.499999999999999778e-01
-9.413399999999999324e+00 2.627299999999999969e+01 -2.810200000000000031e+01 -1.570224999999999982e+00 -3.635007703541731638e-01
-9.408400000000000318e+00 1.506600000000000072e+01 -1.545899999999999963e+01 -7.703473999999999933e+00 -2.743991859503168151e-01
-9.402900000000000702e+00 1.992800000000000082e+01 1.219699999999999918e+01 1.674427999999999983e+01 7.033207495670985854e-02
-9.400700000000000500e+00 1.899899999999999878e+01 -2.238299999999999912e+01 1.444318999999999908e+00 -3.636473210525433819e-01
-9.397199999999999775e+00 2.465800000000000125e+01 1.577500000000000036e+01 1.074463000000000079e+01 7.718959189394360154e-02
-9.384999999999999787e+00 4.191100000000000136e+01 -2.251899999999999835e+01 1.067873999999999945e+01 -3.631680249889659429e-01
-9.384999999999999787e+00 4.346099999999999852e+01 -2.502700000000000102e+01 8.202436000000000504e+00 -3.631879641490370347e-01
-9.384999999999999787e+00 4.346099999999999852e+01 -2.251899999999999835e+01 2.284046000000000021e+01 -3.631666457598690112e-01
-9.384100000000000108e+00 3.396000000000000085e+01 -1.025500000000000078e+01 -1.101978000000000080e+01 -3.632766621829722209e-01
-9.382099999999999440e+00 1.954200000000000159e+01 -2.694500000000000028e+01 1.740890999999999966e-01 -3.635987924840309304e-01
-9.379799999999999471e+00 1.439400000000000013e+01 -9.255000000000000782e+00 2.088187000000000015e+00 -2.542727372663661223e-01
-9.376799999999999358e+00 1.259999999999999964e+01 -7.663400000000000212e+00 -2.209595999999999894e+00 -2.545298895144366136e-01
-9.375999999999999446e+00 3.468299999999999983e+01 -1.683299999999999841e+01 -6.404150999999999705e+00 -3.632918542381394778e-01
-9.366799999999999571e+00 2.920899999999999963e+01 -2.076699999999999946e+01 -1.866295000000000037e+00 -3.634725377691213621e-01
-9.366799999999999571e+00 3.068100000000000094e+01 -2.076699999999999946e+01 -1.115897000000000006e+01 -3.634348164642035584e-01
-9.348399999999999821e+00 1.479400000000000048e+01 1.186800000000000077e+00 3.359233999999999831e+00 -1.099255064256228903e-01
-9.342399999999999594e+00 1.930300000000000082e+01 -2.308299999999999841e+01 1.700096999999999969e+00 -3.636379916398905232e-01
-9.340299999999999159e+00 2.747400000000000020e+01 -2.862500000000000000e+01 -2.598892999999999898e+00 -3.634818634946818672e-01
-9.336299999999999599e+00 3.197599999999999909e+01 -2.718599999999999994e+01 1.751411000000000051e+00 -3.634068351028052479e-01
-9.336299999999999599e+00 3.284100000000000108e+01 -2.718599999999999994e+01 3.646453000000000166e+00 -3.633904478477408828e-01
-9.336000000000000298e+00 1.884499999999999886e+01 1.211599999999999966e+01 1.629504999999999981e+01 7.710446372825137396e-02
-9.331099999999999284e+00 1.391200000000000081e+01 -8.488300000000000622e+00 2.225344000000000211e+00 -2.543857333426084444e-01
-9.327899999999999636e+00 2.916700000000000159e+01 1.399699999999999989e+01 7.899873999999999619e+00 -1.087570550448697763e-02
-9.326100000000000279e+00 3.159299999999999997e+01 -2.792800000000000082e+01 -1.354115000000000002e+01 -3.634141699373482082e-01
-9.320899999999999963e+00 3.283200000000000074e+01 -5.533799999999999830e-01 -1.904352999999999962e+00 -3.634494793659913126e-01
-9.316800000000000637e+00 3.707800000000000296e+01 -2.532499999999999929e+01 -1.842546000000000017e+00 -3.632976557905670534e-01
-9.316499999999999559e+00 1.171000000000000085e+01 -5.501100000000000101e+00 -2.390547999999999895e+00 -1.847580398789064882e-01
-9.311799999999999855e+00 1.477999999999999936e+01 -1.845599999999999907e+00 2.954667000000000154e+00 -2.565857411188475767e-01
-9.290100000000000691e+00 1.509699999999999953e+01 4.867699999999999805e-01 3.959293000000000173e+00 -6.283730608557590129e-03
-9.289099999999999469e+00 2.407300000000000040e+01 -2.828300000000000125e+01 1.906784999999999952e+00 -3.635347256102082758e-01
-9.278100000000000236e+00 3.314399999999999835e+01 -2.788599999999999923e+01 1.325757000000000074e+00 -3.633870465635403724e-01
-9.276999999999999247e+00 3.127299999999999969e+01 -2.989700000000000024e+00 8.755632999999999555e+00 -3.635269897142182627e-01
-9.275800000000000267e+00 1.364700000000000024e+01 -2.603899999999999881e+00 -2.078353999999999857e+01 -1.820940105573091439e-01
-9.274499999999999744e+00 1.175600000000000023e+01 -6.391300000000000203e+00 -2.853791999999999884e+00 -2.585938882751646628e-01
-9.271000000000000796e+00 3.462100000000000222e+01 1.413700000000000045e+01 1.897728000000000037e+01 -2.812620114248042258e-01
-9.263999999999999346e+00 3.707800000000000296e+01 -2.708500000000000085e+01 4.883421000000000234e+00 -3.633095906957259924e-01
-9.263999999999999346e+00 3.721600000000000108e+01 -2.620499999999999829e+01 7.164435000000000109e+00 -3.633017526951233811e-01
-9.256999999999999673e+00 3.472299999999999898e+01 -1.560299999999999976e+01 -1.193848000000000020e+01 -3.632820664137829114e-01
-9.256999999999999673e+00 3.472299999999999898e+01 -1.408500000000000085e+01 -1.621497000000000099e+01 -3.632615734543703789e-01
-9.256999999999999673e+00 3.493200000000000216e+01 -1.633899999999999864e+01 -9.117786999999999864e+00 -3.632826056314640839e-01
-9.256999999999999673e+00 3.493200000000000216e+01 -1.334900000000000020e+01 -1.841234999999999999e+01 -3.632422258764985146e-01
-9.253700000000000259e+00 1.610699999999999932e+01 -1.266499999999999915e+01 -2.617316999999999894e+01 -2.744652459883802353e-01
-9.253700000000000259e+00 1.610699999999999932e+01 -1.180000000000000071e+01 -1.224868999999999986e+01 -2.538584865328924467e-01
-9.250400000000000844e+00 1.583099999999999952e+01 7.739499999999999602e+00 -1.195653999999999995e+00 -2.425494130537644497e-02
-9.250400000000000844e+00 1.583099999999999952e+01 8.646499999999999631e+00 -1.685602000000000045e+00 -1.128831283093101739e-01
-9.249900000000000233e+00 1.571700000000000053e+01 9.314999999999999503e+00 -1.509088999999999903e+00 -1.128608274640670872e-01
-9.246900000000000119e+00 1.422400000000000020e+01 5.166999999999999815e+00 6.201552999999999827e+01 -1.132713206586281884e-01
-9.244999999999999218e+00 3.270900000000000318e+01 -1.465000000000000080e+00 -6.218590000000000506e-01 -3.634339753716780974e-01
-9.242599999999999483e+00 3.091100000000000136e+01 1.271599999999999930e+01 8.563653999999999655e+00 -2.089776496929204586e-01
-9.242599999999999483e+00 3.210199999999999676e+01 1.338000000000000078e+01 7.043673000000000073e+00 -2.089719437621170572e-01
-9.240000000000000213e+00 2.560699999999999932e+01 1.988800000000000168e+01 1.401436999999999955e+01 -2.613876692864344764e-02
-9.240000000000000213e+00 2.560699999999999932e+01 2.239600000000000080e+01 5.359985999999999962e+01 -1.070959571522890966e-02
-9.240000000000000213e+00 2.715700000000000003e+01 1.988800000000000168e+01 1.282616999999999940e+01 -1.901474700243425964e-02
-9.240000000000000213e+00 2.715700000000000003e+01 2.239600000000000080e+01 6.051982000000000284e+01 -4.841010698767948123e-02
-9.237399999999999167e+00 3.481400000000000006e+01 -8.826000000000000512e+00 -7.985190000000000232e+00 -3.632278543049681230e-01
-9.237000000000000099e+00 3.345400000000000063e+01 6.274300000000000210e+00 -1.167209000000000074e+01 -3.637151505890575676e-01
-9.237000000000000099e+00 3.345400000000000063e+01 7.213700000000000223e+00 -3.607905000000000229e+01 -3.638173773352602058e-01
-9.233200000000000074e+00 3.585199999999999676e+01 -1.872500000000000142e+01 1.112494999999999976e+02 -3.632777325330707741e-01
-9.232300000000000395e+00 3.335199999999999676e+01 -6.396700000000000053e+00 8.517405999999999366e+00 -3.633122433768043447e-01
-9.231700000000000017e+00 2.776699999999999946e+01 -2.907999999999999829e+01 5.754331999999999780e-01 -3.634782596527247889e-01
-9.217399999999999594e+00 1.716199999999999903e+01 -2.173900000000000077e+01 3.151705999999999896e+00 -3.636800874971387598e-01
-9.215700000000000003e+00 1.270800000000000018e+01 -2.702999999999999847e+00 -5.438564999999999650e+00 -1.853940973725696773e-01
-9.211299999999999599e+00 2.314099999999999824e+01 1.662600000000000122e+01 4.691253999999999813e+00 6.934405009047944768e-02
-9.199699999999999989e+00 1.226099999999999923e+01 -3.623200000000000198e+00 -2.247447000000000195e+00 -1.851296734599592042e-01
-9.197900000000000631e+00 3.222399999999999665e+01 5.450999999999999623e+00 -1.012331999999999965e+01 -3.639836591073618566e-01
-9.195700000000000429e+00 1.549699999999999989e+01 -2.156599999999999895e+01 7.906232000000000149e+00 -3.636982104570984364e-01
-9.187300000000000466e+00 3.466499999999999915e+01 1.127899999999999991e+01 6.186690999999999718e+00 -3.636769879953371531e-01
-9.182000000000000384e+00 1.268200000000000038e+01 2.559000000000000163e+00 8.044000999999999735e+00 -1.134484370969802702e-01
-9.182000000000000384e+00 1.268200000000000038e+01 5.067000000000000171e+00 1.510861000000000054e+01 -1.134783831431355611e-01
-9.179100000000000037e+00 3.451100000000000279e+01 -8.125999999999999446e+00 -2.097284000000000148e+00 -3.632394854970178999e-01
-9.178399999999999892e+00 3.320400000000000063e+01 7.985899999999999999e+00 -4.006617000000000317e+00 -3.639998531939417914e-01
-9.175000000000000711e+00 3.322399999999999665e+01 -1.025500000000000078e+01 -1.273648000000000025e+01 -3.633043168058897598e-01
-9.163399999999999324e+00 1.579700000000000060e+01 9.937500000000000000e+00 -1.378875000000000073e+00 -1.128097832235747527e-01
-9.160000000000000142e+00 3.110300000000000153e+01 -3.774099999999999788e+00 1.820464000000000127e+01 -3.635114211913632043e-01
-9.160000000000000142e+00 3.131299999999999883e+01 -4.510100000000000442e+00 2.241216000000000008e+01 -3.634763838656706048e-01
-9.159900000000000375e+00 1.716100000000000136e+01 1.180000000000000071e+01 -3.385027999999999793e+01 -2.331882166853023811e-02
-9.159900000000000375e+00 3.282999999999999829e+01 1.406900000000000084e+01 1.042873999999999945e+01 -2.039521631281307479e-01
-9.157700000000000173e+00 2.994500000000000028e+01 -2.076699999999999946e+01 -1.737349000000000032e+00 -3.634614701550009097e-01
-9.157500000000000639e+00 2.923999999999999844e+01 4.269099999999999895e+00 1.039610000000000056e+01 -3.642460095353120542e-01
-9.157500000000000639e+00 2.944900000000000162e+01 3.532999999999999918e+00 1.935931000000000068e+01 -3.641460229326087816e-01
-9.157500000000000639e+00 2.944900000000000162e+01 5.005099999999999660e+00 2.489570000000000116e-01 -3.643207489173109770e-01
-9.157500000000000639e+00 3.064000000000000057e+01 5.669100000000000250e+00 -3.390213000000000254e-01 -3.642953889149144198e-01
-9.156800000000000495e+00 3.565400000000000347e+01 -9.512499999999999289e+00 -7.151108999999999583e+01 -3.631877232741443362e-01
-9.148999999999999133e+00 1.584399999999999942e+01 6.225200000000000067e+00 -2.586230000000000029e+00 -2.537866529966733078e-02
-9.148999999999999133e+00 1.584399999999999942e+01 7.090499999999999581e+00 -8.603507000000000238e-01 -2.481653182442552716e-02
-9.146900000000000475e+00 2.607700000000000173e+01 1.467999999999999972e+01 1.059394999999999953e+01 9.014229095575407302e-02
-9.146000000000000796e+00 1.178700000000000081e+01 -4.503499999999999837e+00 -2.114611000000000129e-01 -1.848928992548771744e-01
-9.144299999999999429e+00 3.627600000000000335e+01 -2.177599999999999980e+01 -1.652993000000000023e+01 -3.632964958491203822e-01
-9.139900000000000801e+00 1.878999999999999915e+01 -2.289199999999999946e+01 1.645893999999999968e+00 -3.636516282875744133e-01
-9.133499999999999730e+00 1.365099999999999980e+01 1.383599999999999941e+00 5.007750999999999841e+00 -1.133575658882290532e-01
-9.132199999999999207e+00 1.545500000000000007e+01 -1.776999999999999957e+01 1.088017999999999930e+01 -3.500000000000000333e-01
-9.128099999999999881e+00 3.622899999999999920e+01 -1.917000000000000171e+01 1.843628000000000000e+01 -3.632746272533783349e-01
-9.128000000000000114e+00 3.574799999999999756e+01 1.327899999999999991e+01 1.499245999999999945e+01 -2.744883664041929405e-01
-9.122700000000000031e+00 3.170599999999999952e+01 -5.232700000000000351e+00 1.459187000000000012e+01 -3.634322995909506915e-01
-9.121999999999999886e+00 1.593099999999999916e+01 1.086100000000000065e+01 -1.405424000000000007e+00 -1.126912878254057171e-01
-9.115600000000000591e+00 2.875199999999999889e+01 1.428800000000000026e+01 9.141204000000000107e+00 -1.581485272881633444e-02
-9.115000000000000213e+00 3.687899999999999778e+01 -1.195599999999999952e+01 -2.881689000000000078e+01 -3.631582327647980835e-01
-9.115000000000000213e+00 3.687899999999999778e+01 -1.035800000000000054e+01 -4.324472000000000094e+01 -3.631390392998677941e-01
-9.115000000000000213e+00 3.710600000000000165e+01 -1.115700000000000003e+01 -6.264820999999999884e+01 -3.631398206009419094e-01
-9.114900000000000446e+00 3.695100000000000051e+01 -2.772800000000000153e+01 3.571000000000000174e+00 -3.633190291248143966e-01
-9.114699999999999136e+00 4.145300000000000296e+01 -2.572599999999999909e+01 4.474535000000000373e+00 -3.632157838459196819e-01
-9.110900000000000887e+00 2.180600000000000094e+01 -2.782300000000000040e+01 -3.117461000000000260e-01 -3.635715131994438076e-01
-9.103999999999999204e+00 1.572499999999999964e+01 -1.081799999999999962e+01 -1.901945999999999870e+01 -2.539343571450645154e-01
-9.102700000000000458e+00 2.136499999999999844e+01 1.243399999999999928e+01 -2.132987999999999928e+01 9.063746715149634259e-02
-9.096500000000000696e+00 2.343799999999999883e+01 -2.813700000000000045e+01 2.175610000000000044e-01 -3.635486594788497894e-01
-9.085499999999999687e+00 3.362599999999999767e+01 -2.862199999999999989e+01 -9.855268999999999835e-02 -3.633838668542166417e-01
-9.081599999999999895e+00 1.909400000000000119e+01 -2.359199999999999875e+01 2.958739000000000008e+00 -3.636423141000250103e-01
-9.079499999999999460e+00 3.606499999999999773e+01 -2.098199999999999932e+01 2.144131000000000142e+01 -3.632981221057506316e-01
-9.077600000000000335e+00 3.113400000000000034e+01 -2.883500000000000085e+01 -1.863447000000000076e+00 -3.634276434100121023e-01
-9.076999999999999957e+00 3.708299999999999841e+01 -1.802499999999999858e+01 -1.004005999999999954e+00 -3.632349949380938581e-01
-9.073399999999999466e+00 1.330000000000000071e+01 -7.721700000000000230e+00 -1.136972000000000094e+00 -2.544170007093097263e-01
-9.070999999999999730e+00 4.007800000000000296e+01 -2.480499999999999972e+01 1.424578999999999984e-01 -3.632355742210605642e-01
-9.070999999999999730e+00 4.007800000000000296e+01 -2.375499999999999901e+01 1.841096000000000066e+00 -3.632243771140045707e-01
-9.069599999999999440e+00 3.246099999999999852e+01 -2.781099999999999994e+01 -1.886975999999999987e+00 -3.634046964841989302e-01
-9.065099999999999270e+00 2.049099999999999966e+01 -2.720499999999999829e+01 -2.606419999999999959e+00 -3.635931434788176597e-01
-9.062400000000000233e+00 2.736700000000000088e+01 1.433900000000000041e+01 4.861229999999999940e+00 -3.005051087311008673e-02
-9.059699999999999420e+00 1.894900000000000162e+01 -2.632600000000000051e+01 8.025830000000000464e-01 -3.636180795548127342e-01
-9.045700000000000074e+00 1.952199999999999847e+01 1.157099999999999973e+01 1.566848000000000063e+01 7.132168498528035361e-02
-9.045700000000000074e+00 2.038800000000000168e+01 1.157099999999999973e+01 1.111742999999999926e+00 9.199745658901546663e-02
-9.041700000000000514e+00 3.528499999999999659e+01 -1.821199999999999974e+01 3.307744999999999891e+01 -3.632992526223008944e-01
-9.041299999999999670e+00 3.029500000000000171e+01 2.609399999999999942e+00 2.131777999999999906e+01 -3.639637644953233608e-01
-9.036300000000000665e+00 2.967399999999999949e+01 1.342800000000000082e+01 5.571115999999999957e+00 -4.616408363546784487e-03
-9.035899999999999821e+00 3.710499999999999687e+01 -2.478399999999999892e+01 8.727432999999999552e+00 -3.633013803792244922e-01
-9.030900000000000816e+00 2.192500000000000071e+01 1.409900000000000020e+01 1.256092999999999904e+00 8.524495885241464843e-02
-9.029999999999999361e+00 2.976599999999999824e+01 -2.949099999999999966e+01 -2.158386999999999833e+00 -3.634503210587171629e-01
-9.028900000000000148e+00 1.560399999999999920e+01 -9.915399999999999991e+00 -3.067804999999999893e+01 -2.540422993158859000e-01
-9.016799999999999926e+00 2.584100000000000108e+01 -2.859299999999999997e+01 2.784736000000000100e+00 -3.635141896495276415e-01
-9.016799999999999926e+00 2.670599999999999952e+01 -2.859299999999999997e+01 -4.672413000000000260e-01 -3.635013123313927119e-01
-9.014699999999999491e+00 3.627199999999999847e+01 -2.018799999999999883e+01 5.992664999999999687e+00 -3.632876866992756915e-01
-9.011400000000000077e+00 2.502400000000000091e+01 -2.907400000000000162e+01 1.626714999999999911e+00 -3.635234517810568278e-01
-9.010999999999999233e+00 3.531300000000000239e+01 1.405400000000000027e+01 1.212541000000000047e+01 -2.719128325248367783e-01
-9.006800000000000139e+00 1.892899999999999849e+01 -2.453399999999999892e+01 4.271131999999999707e+00 -3.636365931440623811e-01
-9.006099999999999994e+00 3.175400000000000134e+01 2.516000000000000014e+00 -1.079840000000000089e+01 -3.637555580964010327e-01
-9.002000000000000668e+00 3.723700000000000188e+01 -2.387199999999999989e+01 -4.942041999999999824e+00 -3.632930370822545774e-01
-9.002000000000000668e+00 3.723700000000000188e+01 -2.293199999999999861e+01 -9.363474999999999326e+00 -3.632857902617228629e-01
-9.000000000000000000e+00 3.513499999999999801e+01 -2.935699999999999932e+01 -1.127269999999999939e-01 -3.633605663001505670e-01
-9.000000000000000000e+00 3.658100000000000307e+01 -2.855099999999999838e+01 1.124250999999999934e+01 -3.633322591829212245e-01
-8.987000000000000099e+00 1.557499999999999929e+01 -1.588499999999999979e+01 -1.421554000000000073e+01 -3.499999999999999778e-01
-8.987000000000000099e+00 1.578400000000000070e+01 -1.662099999999999866e+01 1.892789999999999973e+00 -2.743880990656561436e-01
-8.986299999999999955e+00 1.567399999999999949e+01 -1.336500000000000021e+01 -2.982724999999999937e+01 -2.743438950903381301e-01
-8.976100000000000634e+00 4.268599999999999994e+01 -2.212600000000000122e+01 1.045717999999999925e+01 -3.631657308370758175e-01
-8.975500000000000256e+00 3.314500000000000313e+01 8.579499999999999460e+00 3.762049000000000198e+00 -3.640630501712366907e-01
-8.967000000000000526e+00 3.298400000000000176e+01 1.692700000000000093e+00 -1.115456999999999965e+01 -3.634839909590902307e-01
-8.966100000000000847e+00 1.518200000000000038e+01 -1.072000000000000064e+00 6.681084000000000245e+00 -2.568602303227097705e-01
-8.966100000000000847e+00 1.518200000000000038e+01 -2.067499999999999893e-01 5.767552000000000234e+00 -1.833891443552864431e-01
-8.954599999999999227e+00 3.626700000000000301e+01 -1.799599999999999866e+01 4.233895999999999771e-01 -3.632674743872204015e-01
-8.948999999999999844e+00 3.222999999999999687e+01 -2.240000000000000213e+00 7.779015000000000235e+00 -3.634492127322807020e-01
-8.944000000000000838e+00 2.512800000000000011e+01 2.066300000000000026e+01 8.505580999999999392e+01 3.904346461354098207e-04
-8.944000000000000838e+00 2.512800000000000011e+01 2.162099999999999866e+01 2.645230000000000103e+01 4.597604637234627839e-02
-8.944000000000000838e+00 2.763599999999999923e+01 2.066300000000000026e+01 1.263812999999999960e+02 -2.055703834819692655e-01
-8.944000000000000838e+00 2.763599999999999923e+01 2.162099999999999866e+01 3.647326999999999941e+01 -1.803753006026278527e-01
-8.940799999999999415e+00 2.219300000000000139e+01 1.505599999999999916e+01 4.948248000000000424e+00 8.054150953431564453e-02
-8.939500000000000668e+00 2.097400000000000020e+01 1.158699999999999974e+01 -1.798462999999999923e+01 9.262541261542012183e-02
-8.923999999999999488e+00 1.536500000000000021e+01 5.499600000000000044e+00 4.849986999999999604e+00 -1.131504700361791738e-01
-8.912499999999999645e+00 2.456299999999999883e+01 -2.876200000000000045e+01 2.865177000000000085e+00 -3.635337746612994914e-01
-8.906100000000000350e+00 1.479899999999999949e+01 -1.968700000000000117e+01 7.371871999999999758e+00 -3.499999999999999778e-01
-8.906000000000000583e+00 4.400500000000000256e+01 -2.458800000000000097e+01 7.524983000000000288e+01 -3.631865358604681182e-01
-8.906000000000000583e+00 4.400500000000000256e+01 -2.295799999999999841e+01 2.975672000000000139e+01 -3.631728991212513913e-01
-8.906000000000000583e+00 4.423599999999999710e+01 -2.377299999999999969e+01 1.756876000000000104e+01 -3.631798121478508334e-01
-8.904099999999999682e+00 2.638200000000000145e+01 1.982300000000000040e+01 1.562012000000000000e+01 -3.384790697830661332e-02
-8.904099999999999682e+00 2.638200000000000145e+01 2.246099999999999852e+01 1.684552999999999940e+02 -4.089789398166798762e-02
-8.893000000000000682e+00 1.485999999999999943e+01 -2.079400000000000048e+01 2.987910999999999984e+00 -3.637210081715008259e-01
-8.892899999999999139e+00 3.420300000000000296e+01 -6.649899999999999700e+00 2.972430000000000128e+00 -3.632437223502111845e-01
-8.889400000000000190e+00 4.060999999999999943e+01 -2.281400000000000006e+01 3.085075999999999929e+00 -3.632062945278596855e-01
-8.889400000000000190e+00 3.522099999999999653e+01 -8.812500000000000000e+00 -9.085917999999999495e+00 -3.631956580116311173e-01
-8.888899999999999579e+00 1.479100000000000037e+01 -8.822300000000000253e+00 -4.317661000000000193e+00 -2.541644825239259831e-01
-8.885099999999999554e+00 3.507999999999999829e+01 -1.726599999999999824e+01 -4.851345000000000240e-01 -3.633042679777813699e-01
-8.884000000000000341e+00 3.306000000000000227e+01 2.730000000000000204e-01 1.440240999999999971e+01 -3.634134721135696688e-01
-8.882799999999999585e+00 3.641899999999999693e+01 -1.964199999999999946e+01 1.843628000000000000e+01 -3.632831282060682287e-01
-8.882199999999999207e+00 2.841000000000000014e+01 -2.992399999999999949e+01 -7.923481999999999470e-01 -3.634735416542400621e-01
-8.879200000000000870e+00 1.408000000000000007e+01 -2.112999999999999989e+00 -1.850641999999999898e+00 -2.561151636519944375e-01
-8.862000000000000099e+00 2.543900000000000006e+01 -2.977400000000000091e+01 5.834666000000000352e+00 -3.635173748427699136e-01
-8.853799999999999670e+00 1.413499999999999979e+01 6.011100000000000332e-01 2.723230000000000040e+00 -1.863646883063260484e-01
-8.849999999999999645e+00 3.788199999999999790e+01 -1.802499999999999858e+01 -3.372412000000000187e+00 -3.632177395416790189e-01
-8.836399999999999366e+00 1.792899999999999849e+01 1.176800000000000068e+01 -3.181652000000000058e+01 -2.678488456007304189e-02
-8.832700000000000884e+00 2.258500000000000085e+01 1.607400000000000162e+01 5.352356000000000336e+00 7.376795813483226494e-02
-8.831699999999999662e+00 1.640099999999999980e+01 1.162100000000000044e+01 -3.349509999999999987e+00 -1.125218636868048766e-01
-8.829299999999999926e+00 1.313599999999999923e+01 1.757700000000000040e+00 5.836918999999999969e+00 -1.134320306323460398e-01
-8.823199999999999932e+00 1.616900000000000048e+01 -2.166100000000000136e+01 8.352584999999999482e+00 -3.637013426700813623e-01
-8.801999999999999602e+00 2.178600000000000136e+01 5.626999999999999780e+00 1.558474000000000004e+01 -8.076907264977833956e-02
-8.798000000000000043e+00 1.237199999999999989e+01 -7.324699999999999989e+00 -1.805711999999999984e+00 -2.543544438920165018e-01
-8.793100000000000804e+00 2.273799999999999955e+01 -2.807900000000000063e+01 -5.106716999999999507e-01 -3.635651711934595465e-01
-8.791299999999999670e+00 2.731299999999999883e+01 -2.981500000000000128e+01 3.071759000000000128e+00 -3.634922255316470063e-01
-8.786699999999999733e+00 3.755299999999999727e+01 -1.878500000000000014e+01 -6.843371000000000315e+00 -3.632417828505406510e-01
-8.786699999999999733e+00 3.755299999999999727e+01 -1.726500000000000057e+01 5.072280000000000122e+00 -3.632201315508084560e-01
-8.785399999999999210e+00 2.385699999999999932e+01 1.618400000000000105e+01 8.577272999999999925e+00 7.261740683214751302e-02
-8.785099999999999909e+00 1.317800000000000082e+01 -2.169999999999999929e+00 -2.010794999999999888e+01 -1.851204167685161495e-01
-8.784800000000000608e+00 1.786199999999999832e+01 -2.200700000000000145e+01 2.025873999999999953e+00 -3.636817629807568286e-01
-8.778000000000000469e+00 3.261699999999999733e+01 -5.956299999999999706e+00 1.438213999999999970e+01 -3.633483672532383801e-01
-8.775100000000000122e+00 3.454800000000000182e+01 -1.507199999999999918e+01 -1.847175999999999974e+01 -3.633081481945157343e-01
-8.775100000000000122e+00 3.475699999999999790e+01 -1.580799999999999983e+01 -1.374759000000000064e+01 -3.633072877438834336e-01
-8.775100000000000122e+00 3.475699999999999790e+01 -1.433600000000000030e+01 -1.457760999999999996e+01 -3.632904857495098394e-01
-8.767300000000000537e+00 3.269400000000000261e+01 5.983999999999999986e+00 -1.046992000000000012e+01 -3.638864868834382205e-01
-8.761599999999999611e+00 1.967999999999999972e+01 1.081600000000000072e+01 1.641297999999999924e+00 9.326879812413421678e-02
-8.761599999999999611e+00 2.054599999999999937e+01 1.081600000000000072e+01 -1.474478000000000044e+01 9.397998562239136267e-02
-8.761499999999999844e+00 1.517099999999999937e+01 -9.215400000000000702e+00 -1.000994999999999990e+01 -2.540495813072409792e-01
-8.759000000000000341e+00 2.666700000000000159e+01 1.439799999999999969e+01 1.043652999999999942e+01 9.554622352323823009e-02
-8.749399999999999622e+00 2.627299999999999969e+01 -2.929299999999999926e+01 8.363025999999999627e+00 -3.635105556767240231e-01
-8.746299999999999741e+00 4.060300000000000153e+01 -2.565500000000000114e+01 1.639235999999999915e+00 -3.632417401467814555e-01
-8.746299999999999741e+00 4.230299999999999727e+01 -2.565500000000000114e+01 8.189294999999999547e+00 -3.632078521250329262e-01
