9.869599999999999485e-01 4.214399999999999835e+01 3.625200000000000244e+01 -2.838691999999999993e+00 -1.516042208569706451e-01
9.869599999999999485e-01 4.406000000000000227e+01 3.935199999999999676e+01 -4.522040999999999755e+00 -1.295376193622787553e-01
9.967599999999999794e-01 2.391100000000000136e+01 3.009600000000000009e+01 4.390306999999999960e+01 3.595569352825655259e-03
9.977099999999999858e-01 4.558200000000000074e+01 2.298900000000000077e+01 1.653993000000000047e+00 -2.663307942551420560e-01
9.985699999999999577e-01 3.421500000000000341e+01 3.520300000000000296e+01 1.387616000000000049e+01 8.038156491760092837e-02
1.000699999999999923e+00 2.711700000000000088e+01 3.738300000000000267e+01 -1.244345999999999997e+01 -3.894295755625526434e-01
1.004000000000000004e+00 3.817799999999999727e+01 4.324000000000000199e+01 -1.153166000000000047e+01 -5.383051606867834959e-02
1.010699999999999932e+00 4.526599999999999824e+01 3.865200000000000102e+01 -2.765315999999999885e+00 -8.293052194410264338e-03
1.011200000000000099e+00 4.771000000000000085e+01 3.732900000000000063e+01 -7.383459000000000216e+00 -8.709727487305649052e-02
1.019200000000000106e+00 2.829100000000000037e+01 3.919100000000000250e+01 -1.069471999999999978e+00 -1.624472121797952417e-01
1.020100000000000007e+00 3.060999999999999943e+01 3.999000000000000199e+01 1.289743000000000084e+00 -1.777498377759379744e-01
1.022699999999999942e+00 3.556000000000000227e+01 4.218200000000000216e+01 -1.231600000000000072e+01 -1.220593956520843182e-01
1.023700000000000054e+00 3.985999999999999943e+01 3.455199999999999960e+01 7.140384000000000064e+00 -5.539687011586916926e-02
1.033600000000000074e+00 3.465200000000000102e+01 3.587100000000000222e+01 3.304568000000000172e+00 1.051326773170433021e-01
1.039800000000000058e+00 2.540800000000000125e+01 3.451400000000000290e+01 -3.442889000000000088e+00 -2.156135126945883107e-01
1.060999999999999943e+00 2.232199999999999918e+01 3.125600000000000023e+01 4.790644000000000347e+01 2.563357489012821899e-01
1.062999999999999945e+00 2.483699999999999974e+01 2.742699999999999960e+01 1.015356000000000058e+01 6.491210457128039277e-03
1.063099999999999934e+00 3.143900000000000006e+01 2.357600000000000051e+01 -2.435601999999999823e+00 -1.323825141357153068e-01
1.080999999999999961e+00 3.525600000000000023e+01 4.288199999999999790e+01 -1.375619999999999976e+01 -1.250760475140908490e-01
1.086300000000000043e+00 2.071600000000000108e+01 3.110900000000000176e+01 2.603558999999999912e+01 2.486778318339738225e-01
1.090100000000000069e+00 4.661399999999999721e+01 3.783299999999999841e+01 -5.159157000000000437e+00 -3.745023456393574424e-02
1.094000000000000083e+00 4.833299999999999841e+01 2.699699999999999989e+01 -6.302897999999999890e+00 -2.274628750965630442e-01
1.096799999999999997e+00 2.825100000000000122e+01 3.824000000000000199e+01 -1.306912999999999947e+01 -1.678706525684373618e-01
1.100600000000000023e+00 4.406400000000000006e+01 2.226500000000000057e+01 6.304117000000000193e-01 -2.914570841282668745e-01
1.105599999999999916e+00 3.587100000000000222e+01 3.366499999999999915e+01 6.493009999999999948e+00 3.543493597315883759e-01
1.105599999999999916e+00 3.673599999999999710e+01 3.366499999999999915e+01 4.648755999999999666e+00 3.460691790237603316e-01
1.106500000000000039e+00 4.656300000000000239e+01 2.285300000000000153e+01 3.058459000000000039e+00 -1.616824653559560399e-01
1.106700000000000017e+00 2.346199999999999974e+01 2.650600000000000023e+01 4.765598999999999918e+00 -3.015095067468360514e-03
1.114700000000000024e+00 3.534000000000000341e+01 2.318400000000000105e+01 3.517265000000000086e+00 -4.809915283005724435e-03
1.121299999999999963e+00 3.075199999999999889e+01 2.341199999999999903e+01 -1.060556000000000054e+00 1.246748038874806730e-01
1.128400000000000070e+00 3.664699999999999847e+01 4.199799999999999756e+01 -1.130784000000000056e+01 -1.444635726022913402e-01
1.129000000000000004e+00 4.231600000000000250e+01 4.272800000000000153e+01 4.818684000000000189e+00 -4.000000000000000083e-02
1.129000000000000004e+00 4.231600000000000250e+01 4.359300000000000352e+01 -6.651839000000000501e-01 -3.999999999999999389e-02
1.131299999999999972e+00 2.127299999999999969e+01 2.718799999999999883e+01 8.045203000000000770e+00 2.460266135762352313e-01
1.135000000000000009e+00 4.996999999999999886e+01 3.476200000000000045e+01 1.160485999999999933e+02 1.087775336612230026e-01
1.135000000000000009e+00 5.029800000000000182e+01 3.401700000000000301e+01 4.112760000000000105e+01 1.159637403884089812e-01
1.136600000000000055e+00 3.797299999999999898e+01 2.020799999999999841e+01 3.459242000000000150e+00 -2.409976421846642819e-02
1.137899999999999912e+00 4.414300000000000068e+01 4.012500000000000000e+01 -6.457836999999999605e+00 -1.465988783808712392e-01
1.138400000000000079e+00 3.282300000000000040e+01 4.200399999999999778e+01 -2.853867000000000154e+00 -9.099276830222188805e-02
1.144300000000000095e+00 3.398700000000000188e+01 4.364200000000000301e+01 -4.972305999999999671e+00 -1.215705923386605908e-01
1.144300000000000095e+00 3.492699999999999960e+01 4.364200000000000301e+01 -8.193714999999999193e+00 -1.179311274312175445e-01
1.162900000000000045e+00 3.591799999999999926e+01 3.659799999999999898e+01 -9.642943999999999960e-01 1.636820411489242968e-02
1.163000000000000034e+00 3.410099999999999909e+01 2.366400000000000148e+01 -7.849981999999999793e+00 -3.811735186981651813e-02
1.189100000000000046e+00 4.786399999999999721e+01 2.208899999999999864e+01 3.585097999999999896e+00 -1.588607852245275676e-01
1.194600000000000106e+00 4.115999999999999659e+01 2.165700000000000003e+01 3.800242999999999816e-01 -5.294424446052716643e-02
1.195999999999999952e+00 4.288000000000000256e+01 3.625200000000000244e+01 -4.769731999999999861e-01 -1.247025053446052106e-01
1.196600000000000108e+00 3.312599999999999767e+01 4.270400000000000063e+01 -3.398404999999999898e+00 -2.238010218439292487e-01
1.201600000000000001e+00 2.607300000000000040e+01 3.282099999999999795e+01 1.980007999999999990e+00 -2.422771885256626290e-01
1.208700000000000108e+00 4.377400000000000091e+01 4.097500000000000142e+01 -2.650126000000000204e+00 -1.730930536759535954e-01
1.225700000000000012e+00 2.929200000000000159e+01 2.385800000000000054e+01 -2.092667000000000055e+00 9.841917802397241732e-02
1.226599999999999913e+00 3.094399999999999906e+01 4.053099999999999881e+01 1.083976999999999968e+01 -1.623774651610894737e-01
1.226599999999999913e+00 3.180900000000000105e+01 4.053099999999999881e+01 1.014367000000000019e+00 -1.642602804851885367e-01
1.228699999999999903e+00 2.578999999999999915e+01 3.340800000000000125e+01 1.314203000000000010e+00 -2.294535275504028249e-01
1.229000000000000092e+00 4.911800000000000210e+01 2.292899999999999849e+01 6.245847999999999622e+00 -1.616341285820131479e-01
1.229000000000000092e+00 4.911800000000000210e+01 2.388700000000000045e+01 1.852120000000000033e+01 -1.659023749750720700e-01
1.238599999999999923e+00 2.594300000000000139e+01 3.571600000000000108e+01 -2.379974999999999952e+00 1.542559036357731526e-02
1.250999999999999890e+00 2.937099999999999866e+01 3.798599999999999710e+01 -6.115065000000000417e+00 -2.038949889109367974e-01
1.250999999999999890e+00 2.937099999999999866e+01 3.938600000000000279e+01 -2.371793999999999958e+00 -1.798479195989013124e-01
1.250999999999999890e+00 3.023600000000000065e+01 3.798599999999999710e+01 -6.081892999999999994e+00 -2.362864919493226912e-01
1.250999999999999890e+00 3.023600000000000065e+01 3.938600000000000279e+01 -2.580509999999999859e+00 -1.881610155367169634e-01
1.258599999999999941e+00 2.488500000000000156e+01 2.949200000000000088e+01 1.543136999999999937e+01 1.371341503814901309e-02
1.261400000000000077e+00 5.158700000000000330e+01 3.109700000000000131e+01 -1.974334999999999951e+01 1.194033502445476652e-01
1.264499999999999957e+00 3.646600000000000108e+01 2.218599999999999994e+01 2.865127000000000201e+00 -1.086622576160088116e-01
1.264999999999999902e+00 3.768399999999999750e+01 4.283100000000000307e+01 -1.066685000000000016e+01 -5.228566525929818909e-02
1.268999999999999906e+00 4.258400000000000318e+01 4.503699999999999903e+01 -5.659650000000000070e+00 -4.000000000000000777e-02
1.284899999999999931e+00 3.064099999999999824e+01 4.123100000000000165e+01 3.020191000000000159e+01 -1.485722543648873295e-01
1.284899999999999931e+00 3.211299999999999955e+01 4.123100000000000165e+01 -6.900441000000000491e-01 -1.505328512381527983e-01
1.291299999999999892e+00 2.633800000000000097e+01 2.925900000000000034e+01 5.469316000000000066e+00 1.201926158578668496e-01
1.297199999999999909e+00 3.712500000000000000e+01 3.436500000000000199e+01 3.308530000000000193e+00 1.713696284519777846e-01
1.297199999999999909e+00 3.712500000000000000e+01 3.576500000000000057e+01 2.209296000000000038e-01 -5.901576002694684797e-02
1.307500000000000107e+00 4.204200000000000159e+01 2.166499999999999915e+01 -7.483735999999999722e-01 -6.749733242324913729e-02
1.309299999999999908e+00 2.906800000000000139e+01 3.868599999999999994e+01 -2.707104000000000177e+00 -1.804472859420664099e-01
1.309299999999999908e+00 3.053999999999999915e+01 3.868599999999999994e+01 -5.854930999999999663e+00 -2.157944973216995022e-01
1.315800000000000081e+00 4.225300000000000011e+01 4.585799999999999699e+01 -4.817388000000000225e+00 -5.661564140094874770e-02
1.318599999999999994e+00 4.847500000000000142e+01 2.548100000000000165e+01 3.437044999999999906e+00 -1.875446680069294547e-01
1.323900000000000077e+00 2.519999999999999929e+01 2.836199999999999832e+01 1.265573999999999977e+01 1.286528943290790074e-02
1.328999999999999959e+00 4.875200000000000244e+01 2.895499999999999829e+01 1.834367999999999910e+01 8.928876868798668598e-02
1.328999999999999959e+00 4.994299999999999784e+01 2.961899999999999977e+01 2.619486999999999899e+00 1.092647653912954403e-01
1.328999999999999959e+00 5.123599999999999710e+01 3.033999999999999986e+01 -2.450022999999999840e+00 1.873486472785338211e-02
1.329599999999999893e+00 2.894300000000000139e+01 2.609299999999999997e+01 -7.292038999999999938e+00 7.890602659890302850e-02
1.329599999999999893e+00 2.894300000000000139e+01 2.756500000000000128e+01 -2.786220999999999837e-01 2.330389696801763166e-01
1.329599999999999893e+00 2.915200000000000102e+01 2.682900000000000063e+01 -1.044134000000000029e+01 2.038940860079751227e-01
1.330899999999999972e+00 4.485399999999999920e+01 3.938499999999999801e+01 -8.360124000000000777e+00 -1.170488814236064073e-01
1.338000000000000078e+00 2.644399999999999906e+01 3.231300000000000239e+01 -3.261665999999999954e+00 -2.568670140964668946e-01
1.339599999999999902e+00 4.098799999999999955e+01 4.675800000000000267e+01 2.070784000000000091e+01 -5.489423051033097412e-02
1.344300000000000050e+00 2.348999999999999844e+01 3.097299999999999898e+01 2.088598999999999961e+01 2.538459892023821607e-01
1.346600000000000019e+00 4.899300000000000210e+01 3.590100000000000335e+01 -9.342475000000000307e+00 -1.307887845769670210e-01
1.348999999999999977e+00 3.689999999999999858e+01 2.128800000000000026e+01 6.639834999999999710e+00 -4.568846903388734150e-03
1.350100000000000078e+00 2.932999999999999829e+01 4.207600000000000051e+01 -7.987302999999999820e+00 -1.387029619936429314e-01
1.351299999999999946e+00 4.079599999999999937e+01 2.095599999999999952e+01 -1.206712000000000007e+00 -5.193969171080080327e-02
1.351299999999999946e+00 2.771699999999999875e+01 2.840200000000000102e+01 2.033797999999999995e+00 1.295823001410712771e-01
1.355499999999999927e+00 3.742900000000000205e+01 3.506499999999999773e+01 3.145176000000000194e+00 1.856714099093708659e-01
1.359099999999999975e+00 4.832600000000000051e+01 3.713900000000000290e+01 -2.069491999999999976e+01 -9.405443805810295710e-02
1.364200000000000079e+00 2.781800000000000139e+01 3.753999999999999915e+01 -1.131837999999999944e+01 -1.559886411784950355e-01
1.373699999999999921e+00 3.914300000000000068e+01 4.674699999999999989e+01 1.118355000000000032e+01 -5.368626791686503807e-02
1.386500000000000066e+00 3.917699999999999960e+01 1.968199999999999861e+01 -3.909203999999999901e+00 -4.183750101653388453e-02
1.389999999999999902e+00 2.807600000000000051e+01 4.027799999999999869e+01 3.116350000000000176e+00 -1.466175002983147180e-01
1.389999999999999902e+00 2.807600000000000051e+01 4.123599999999999710e+01 6.518521999999999927e+00 -3.757185162349839791e-01
1.391699999999999937e+00 3.225999999999999801e+01 2.353300000000000125e+01 -6.169217999999999646e-01 -1.248793423893735099e-01
1.391699999999999937e+00 3.325600000000000023e+01 2.353300000000000125e+01 -1.727818000000000076e+00 -8.477077148845188481e-02
1.396300000000000097e+00 2.674800000000000111e+01 3.161299999999999955e+01 2.716645000000000199e+00 -4.484989952904167715e-02
1.409299999999999997e+00 4.361800000000000210e+01 4.157600000000000051e+01 -5.468715000000000437e+00 -4.000000000000000083e-02
1.416299999999999892e+00 2.060699999999999932e+01 2.800700000000000145e+01 2.717312000000000172e+00 2.502166856491440106e-01
1.417999999999999927e+00 5.187400000000000233e+01 3.150400000000000134e+01 -4.508555999999999564e+00 1.201892556498728865e-01
1.417999999999999927e+00 5.187400000000000233e+01 3.255400000000000205e+01 4.730224999999999902e+00 1.202058055197538222e-01
1.443799999999999972e+00 4.700999999999999801e+01 3.759599999999999653e+01 -1.568661999999999956e+01 -4.109038636157383295e-02
1.450700000000000101e+00 4.603099999999999881e+01 3.851800000000000068e+01 -4.813539999999999708e+00 -1.124270698151182482e-02
1.455699999999999994e+00 4.322500000000000142e+01 2.232400000000000162e+01 6.839245999999999936e-01 -9.334339295864206576e-02
1.466199999999999948e+00 3.632699999999999818e+01 3.453600000000000136e+01 4.517136999999999958e+00 1.653984988460054373e-01
1.493999999999999995e+00 3.137699999999999889e+01 4.123100000000000165e+01 3.654666999999999888e+01 -1.460922445148197246e-01
1.494899999999999896e+00 4.053099999999999881e+01 4.689300000000000068e+01 2.877376999999999896e+01 -5.408744066196009836e-02
1.497500000000000053e+00 4.734199999999999875e+01 2.183500000000000085e+01 1.621588000000000029e+00 -1.586971073802662391e-01
1.510999999999999899e+00 3.814399999999999835e+01 1.948000000000000043e+01 3.971149999999999958e-01 -3.737490103811880876e-02
1.514899999999999913e+00 3.574699999999999989e+01 4.335099999999999909e+01 -1.420182999999999929e+01 -1.247065468442762060e-01
1.515800000000000036e+00 3.280100000000000193e+01 4.292900000000000205e+01 -5.961807000000000301e+00 -3.780701560750331924e-01
1.516000000000000014e+00 2.882199999999999918e+01 2.461799999999999855e+01 -2.598726000000000091e+00 7.870062551798004402e-02
1.518299999999999983e+00 2.980399999999999849e+01 3.868599999999999994e+01 -4.987258999999999887e+00 -1.986887851955346784e-01
1.523600000000000065e+00 2.867500000000000071e+01 2.556200000000000117e+01 -1.307768000000000086e+01 7.184990282729883382e-02
1.524999999999999911e+00 3.621399999999999864e+01 4.248899999999999721e+01 -1.191995999999999967e+01 -1.349723173789673936e-01
1.524999999999999911e+00 4.863900000000000290e+01 2.215399999999999991e+01 8.187172999999999590e+00 -1.594531429127578614e-01
1.526000000000000023e+00 2.671799999999999997e+01 3.019200000000000017e+01 1.227557000000000009e+01 1.301106320939609540e-01
1.526000000000000023e+00 2.671799999999999997e+01 3.105699999999999861e+01 5.418311000000000099e+00 -6.450690680063256299e-02
1.526100000000000012e+00 2.155499999999999972e+01 3.142999999999999972e+01 1.192667000000000002e+02 2.562492323419688356e-01
1.530200000000000005e+00 4.874399999999999977e+01 2.471900000000000119e+01 2.723098999999999847e+01 -1.739868441828302525e-01
1.532200000000000006e+00 2.019000000000000128e+01 2.962300000000000111e+01 9.805205000000000837e+00 2.530042738726831497e-01
1.551099999999999923e+00 3.730199999999999960e+01 2.046399999999999864e+01 5.225413999999999781e+00 -2.042063324326339607e-02
1.559500000000000108e+00 3.548499999999999943e+01 3.470700000000000074e+01 5.313895999999999731e+00 1.635530617157812949e-01
1.559500000000000108e+00 3.548499999999999943e+01 3.610699999999999932e+01 7.743001999999999940e-01 9.791270043243076315e-02
1.559500000000000108e+00 3.635099999999999909e+01 3.610699999999999932e+01 -6.398603999999999958e-01 1.993435111219087896e-01
1.562000000000000055e+00 2.558500000000000085e+01 2.943299999999999983e+01 1.397950999999999944e+01 2.529482892788542658e-02
1.564699999999999980e+00 4.043500000000000227e+01 2.013899999999999935e+01 -5.747803000000000218e-01 -5.386100344133663148e-02
1.566000000000000059e+00 2.030099999999999838e+01 3.058999999999999986e+01 2.058786999999999878e+01 2.511288234966436717e-01
1.567600000000000104e+00 5.078900000000000148e+01 3.362100000000000222e+01 2.403042999999999907e+01 1.242462761743381855e-01
1.572100000000000053e+00 3.002299999999999969e+01 2.369000000000000128e+01 -5.792607000000000284e+00 9.222503893340831815e-02
1.574300000000000033e+00 2.041000000000000014e+01 2.883099999999999952e+01 4.930557000000000301e+00 2.543446482870649894e-01
1.574899999999999967e+00 3.445700000000000074e+01 4.417499999999999716e+01 -9.858295000000000030e+00 -1.189582472196464707e-01
1.578000000000000069e+00 2.192699999999999960e+01 2.701399999999999935e+01 9.955576999999999899e+00 2.466120565251970764e-01
1.581700000000000106e+00 4.635199999999999676e+01 2.194300000000000139e+01 2.300943999999999878e+00 -2.589483977819480032e-01
1.591199999999999948e+00 3.667300000000000182e+01 3.523599999999999710e+01 1.916496999999999895e+00 1.774029178660383732e-01
1.595699999999999896e+00 3.480100000000000193e+01 2.339699999999999847e+01 -1.361010000000000053e+00 -2.560903380782959468e-02
1.598000000000000087e+00 2.476099999999999923e+01 3.443500000000000227e+01 -3.818845000000000156e-01 5.629073024344981302e-02
1.611399999999999944e+00 2.431500000000000128e+01 3.035999999999999943e+01 2.348691000000000173e+01 1.553404110385056026e-02
1.614000000000000101e+00 4.942600000000000193e+01 3.520100000000000051e+01 1.499798999999999971e+01 -1.421021840793174618e-01
1.617799999999999905e+00 3.518200000000000216e+01 3.540699999999999648e+01 5.962913999999999604e+00 6.681575462745097116e-02
1.619399999999999951e+00 3.579899999999999949e+01 2.286499999999999844e+01 2.087219999999999853e+00 -8.836766371777679194e-03
1.621099999999999985e+00 3.009700000000000131e+01 4.211099999999999710e+01 1.662830999999999904e+01 -1.345307149296110782e-01
1.624500000000000055e+00 2.411599999999999966e+01 2.700900000000000034e+01 1.432671000000000028e+01 6.251217854872797870e-04
1.629399999999999959e+00 2.121499999999999986e+01 2.745299999999999940e+01 4.474874999999999936e+00 2.496358594653650120e-01
1.633000000000000007e+00 3.698400000000000176e+01 4.266799999999999926e+01 -9.482492000000000587e+00 -1.426539535558170591e-01
1.638500000000000068e+00 4.474399999999999977e+01 2.237099999999999866e+01 7.490345999999999949e-01 -2.798127731057615253e-01
1.641499999999999959e+00 4.433500000000000085e+01 4.144400000000000261e+01 1.391216000000000008e+00 -1.685569033526891081e-01
1.660400000000000098e+00 2.626000000000000156e+01 3.611099999999999710e+01 -4.852795000000000414e+00 -3.940304816790863862e-01
1.661299999999999999e+00 2.508999999999999986e+01 3.367499999999999716e+01 1.136967000000000061e+00 6.191841331287360750e-02
1.661299999999999999e+00 2.508999999999999986e+01 3.519500000000000028e+01 -2.881475000000000009e+00 -4.212546130523776161e-02
1.685999999999999943e+00 2.855499999999999972e+01 4.201100000000000279e+01 -4.365612999999999855e-01 -1.346337463078529639e-01
1.692499999999999893e+00 2.567599999999999838e+01 3.238799999999999812e+01 3.195898000000000128e+00 -1.297235943021152471e-01
1.694299999999999917e+00 4.924300000000000210e+01 2.946300000000000097e+01 2.544900000000000162e+01 1.063270668098327959e-01
1.700700000000000101e+00 2.738500000000000156e+01 3.695000000000000284e+01 -9.971012999999999238e+00 -3.881516913730314045e-01
1.713500000000000023e+00 3.816100000000000136e+01 4.380899999999999750e+01 -1.316700999999999944e+01 -5.684954449970801293e-02
1.719600000000000017e+00 2.539399999999999835e+01 3.297500000000000142e+01 1.699607000000000090e+00 -1.218557200052714229e-01
1.720599999999999907e+00 4.311399999999999721e+01 4.239099999999999824e+01 -6.242370000000000196e+00 -3.999999999999999389e-02
1.721899999999999986e+00 3.850999999999999801e+01 4.475000000000000000e+01 3.384907999999999806e-01 -5.574514164515394221e-02
1.722599999999999909e+00 3.173600000000000065e+01 4.207099999999999795e+01 -2.112554999999999961e+00 -3.737130173464794369e-01
1.733999999999999986e+00 4.462400000000000233e+01 4.064999999999999858e+01 5.580570999999999726e-01 -1.480755616044654999e-01
1.742699999999999916e+00 5.134899999999999665e+01 3.340400000000000347e+01 1.476742999999999917e+01 1.239553541987637175e-01
1.746699999999999919e+00 2.291100000000000136e+01 3.149800000000000111e+01 2.521811999999999898e+01 2.559609417489088212e-01
1.747200000000000086e+00 4.771000000000000085e+01 3.753799999999999670e+01 -1.732952999999999832e+01 -6.902622518682005603e-02
1.752399999999999958e+00 3.836299999999999955e+01 4.564699999999999847e+01 5.114895999999999887e+00 -5.379677124060718713e-02
1.755100000000000104e+00 2.387500000000000000e+01 3.122899999999999920e+01 6.237541000000000224e+00 2.451308337571120322e-01
1.756599999999999939e+00 2.569099999999999895e+01 2.875900000000000034e+01 1.685729999999999862e+01 2.332758896983088207e-02
1.756599999999999939e+00 2.709100000000000108e+01 2.875900000000000034e+01 6.919857999999999620e+00 1.238938812793125982e-01
1.759100000000000108e+00 4.252499999999999858e+01 2.226599999999999824e+01 1.689409000000000050e-01 -8.050717578891279647e-02
1.762199999999999989e+00 2.845200000000000173e+01 2.796099999999999852e+01 6.108162999999999787e-01 2.462686855954152043e-01
1.763099999999999890e+00 4.163199999999999790e+01 2.117999999999999972e+01 -3.045094000000000189e+00 -6.905555891780162936e-02
1.778899999999999926e+00 4.281099999999999994e+01 4.309100000000000108e+01 -7.947309999999999652e-01 -4.000000000000000777e-02
1.783199999999999896e+00 3.323400000000000176e+01 4.362899999999999778e+01 -8.426482000000000028e+00 -9.162632271608152357e-02
1.794000000000000039e+00 4.806600000000000250e+01 2.656400000000000006e+01 1.985254999999999992e+00 -2.244428984665863269e-01
1.794000000000000039e+00 4.827499999999999858e+01 2.582799999999999940e+01 2.889883000000000024e+01 -1.985422384513528260e-01
1.794000000000000039e+00 4.827499999999999858e+01 2.730000000000000071e+01 1.878651999999999944e+01 -2.410900585819352460e-01
1.794399999999999995e+00 4.002499999999999858e+01 1.981899999999999906e+01 -1.488982999999999945e+00 -5.356686285587321239e-02
1.796799999999999953e+00 2.830900000000000105e+01 3.940899999999999892e+01 3.696997999999999784e+00 -1.432052339160016508e-01
1.797099999999999920e+00 2.232199999999999918e+01 3.146499999999999986e+01 2.705210999999999899e+01 2.616760814091306786e-01
1.798699999999999966e+00 5.070300000000000296e+01 2.990899999999999892e+01 -4.021314000000000277e-01 2.504645665453054601e-02
1.799199999999999910e+00 3.143900000000000006e+01 2.336700000000000088e+01 -6.970598999999999545e-01 -1.685289669943514645e-01
1.800699999999999967e+00 4.156499999999999773e+01 4.655499999999999972e+01 7.938296000000000241e+00 -5.436288534174706782e-02
1.802699999999999969e+00 5.145700000000000074e+01 3.056899999999999906e+01 -7.624990000000000379e+00 2.716655014596180279e-02
1.826899999999999968e+00 3.591799999999999926e+01 3.540699999999999648e+01 8.374352999999999270e+00 1.714073971459554591e-01
1.835499999999999909e+00 3.085399999999999920e+01 4.206300000000000239e+01 1.217914999999999992e+01 -1.320955188761019916e-01
1.838400000000000034e+00 3.971600000000000108e+01 4.685900000000000176e+01 2.038326999999999956e+01 -5.272052678835441319e-02
1.849699999999999900e+00 4.407200000000000273e+01 4.231099999999999994e+01 1.227031999999999989e+01 -4.000000000000000083e-02
1.853699999999999903e+00 2.853399999999999892e+01 3.870499999999999829e+01 -8.233082999999999929e-01 -1.510509294351083664e-01
1.857799999999999896e+00 2.601500000000000057e+01 3.146900000000000119e+01 9.543974000000000402e+00 -1.448303476015656011e-01
1.858999999999999986e+00 4.292099999999999937e+01 4.456700000000000017e+01 -1.031072999999999951e+01 -4.000000000000000083e-02
1.858999999999999986e+00 4.292099999999999937e+01 4.550699999999999790e+01 -1.514887000000000050e+01 -5.571778129936122426e-02
1.862000000000000099e+00 2.078000000000000114e+01 3.136499999999999844e+01 4.544476999999999833e+01 2.504616603586315438e-01
1.863599999999999923e+00 4.573100000000000165e+01 3.888900000000000290e+01 -3.508391000000000037e+00 3.845975186561251865e-03
1.879299999999999971e+00 3.210000000000000142e+01 4.277199999999999847e+01 -1.395697000000000010e+01 -3.751948807954288978e-01
1.899100000000000010e+00 3.410099999999999909e+01 2.345499999999999829e+01 -3.296702999999999939e+00 -7.088222087779963432e-02
1.901599999999999957e+00 2.494000000000000128e+01 3.238799999999999812e+01 4.184376999999999569e+00 3.770723472214576599e-02
1.901699999999999946e+00 5.000500000000000256e+01 3.449099999999999966e+01 4.983959000000000117e+01 1.219216374963074945e-01
1.904300000000000104e+00 3.369700000000000273e+01 4.411200000000000188e+01 -2.474814999999999898e+01 7.207212207975840709e-03
1.904300000000000104e+00 3.521699999999999875e+01 4.411200000000000188e+01 -9.427164000000000499e+01 -1.262054105456900388e-01
1.910600000000000076e+00 2.855099999999999838e+01 3.787299999999999756e+01 -2.092891999999999975e+00 -1.586357598606088215e-01
1.910700000000000065e+00 4.665699999999999648e+01 3.816100000000000136e+01 -5.299043000000000170e+00 -1.727584697664025920e-02
1.912400000000000100e+00 2.518199999999999861e+01 3.147299999999999898e+01 4.040071000000000190e+00 3.688148593959217347e-02
1.913799999999999946e+00 2.458399999999999963e+01 2.776599999999999824e+01 9.760046000000000888e+00 5.421909721512061832e-03
1.941400000000000015e+00 3.764099999999999824e+01 4.328499999999999659e+01 -1.803339000000000070e+01 8.682624306223184207e-02
1.950099999999999945e+00 3.862299999999999756e+01 1.893599999999999994e+01 1.265503000000000045e-01 -4.916270070306596324e-02
1.957400000000000029e+00 4.793900000000000006e+01 2.173499999999999943e+01 1.714129999999999932e+00 -1.584644413633053139e-01
1.958599999999999897e+00 2.515200000000000102e+01 2.992399999999999949e+01 1.412837999999999994e+01 2.476911886576808192e-02
1.958599999999999897e+00 2.601800000000000068e+01 2.992399999999999949e+01 1.509394999999999953e+01 3.599916439692182890e-02
1.960499999999999909e+00 4.853600000000000136e+01 2.826200000000000045e+01 2.792815999999999832e+01 -1.277698479678875398e-01
1.964099999999999957e+00 2.461100000000000065e+01 3.122899999999999920e+01 2.107508999999999910e-01 2.299814766018840329e-01
1.976699999999999902e+00 4.372299999999999898e+01 2.278500000000000014e+01 3.284829999999999917e+00 -1.700945212326382960e-01
1.989999999999999991e+00 3.736899999999999977e+01 1.977599999999999980e+01 3.374832000000000054e+00 -3.458287963001717424e-02
2.004000000000000004e+00 4.918299999999999983e+01 2.259299999999999997e+01 2.197406000000000148e+01 -1.609791358616268486e-01
2.004000000000000004e+00 4.918299999999999983e+01 2.422299999999999898e+01 3.916664000000000101e+01 -1.688875037674226198e-01
2.004000000000000004e+00 4.941400000000000148e+01 2.340800000000000125e+01 2.043376999999999910e+01 -1.640964411685217617e-01
2.008799999999999919e+00 2.426699999999999946e+01 3.203000000000000114e+01 -1.146800999999999959e+00 2.220819301543058566e-01
2.016900000000000137e+00 2.484900000000000020e+01 3.062399999999999878e+01 4.506185000000000329e+00 2.750584242343672575e-02
2.016900000000000137e+00 2.632100000000000151e+01 3.062399999999999878e+01 1.186996000000000073e+01 4.230029946272249181e-02
2.029599999999999849e+00 2.888500000000000156e+01 2.639600000000000080e+01 -5.798262000000000249e+00 1.814907592122944335e-01
2.029599999999999849e+00 2.888500000000000156e+01 2.726099999999999923e+01 -9.274149000000000420e-01 2.110245415630759569e-01
2.039699999999999847e+00 2.951000000000000156e+01 2.421099999999999852e+01 -6.466174999999999784e+00 6.145787709055287179e-02
2.046600000000000197e+00 4.872599999999999909e+01 3.633400000000000318e+01 -2.312921000000000049e+01 -1.022113191773107027e-01
2.052000000000000046e+00 3.628999999999999915e+01 2.246799999999999997e+01 6.541638999999999982e+00 -1.211529812038965315e-01
2.060000000000000053e+00 2.639099999999999824e+01 2.881700000000000017e+01 8.846394000000000091e+00 1.143805900721450997e-01
2.061999999999999833e+00 2.069900000000000162e+01 2.806299999999999883e+01 4.886142999999999681e+00 2.520227980372128362e-01
2.063299999999999912e+00 4.687700000000000244e+01 2.134700000000000131e+01 3.115705000000000169e+00 -2.479512870337591823e-01
2.071099999999999941e+00 4.544400000000000261e+01 2.210300000000000153e+01 1.857177000000000078e+00 -1.522053379366316295e-01
2.074899999999999967e+00 2.553099999999999881e+01 3.583299999999999841e+01 -8.302583000000000268e+00 -3.706878052541547064e-02
2.076200000000000045e+00 2.456400000000000006e+01 3.297899999999999920e+01 1.383445999999999954e+00 2.743531427018864460e-02
2.079200000000000159e+00 2.877700000000000102e+01 2.506200000000000117e+01 -3.349298999999999804e+00 5.153612804308978224e-02
2.089100000000000179e+00 2.440299999999999869e+01 3.383800000000000097e+01 8.349942999999999671e-01 2.978517747456936246e-02
2.094899999999999984e+00 2.932999999999999829e+01 4.240400000000000347e+01 -2.583752000000000137e+01 -1.266850905654669512e-01
2.111299999999999955e+00 4.108599999999999852e+01 2.048600000000000065e+01 -9.990487000000000117e-01 -6.798924839146849863e-02
2.115099999999999980e+00 2.268700000000000117e+01 2.683500000000000085e+01 1.458590000000000053e+00 2.428109835301472397e-01
2.126900000000000013e+00 4.875200000000000244e+01 2.906599999999999895e+01 2.685022000000000020e+01 -3.229946870232013219e-03
2.127699999999999925e+00 3.225999999999999801e+01 2.332400000000000162e+01 -9.493215999999999877e-01 -1.619715513885668923e-01
2.130999999999999783e+00 2.432999999999999829e+01 3.490500000000000114e+01 -2.623973000000000000e-01 3.407124809752430650e-02
2.130999999999999783e+00 4.529800000000000182e+01 3.958899999999999864e+01 -5.484289000000000414e+00 -1.337843991541629030e-01
2.139299999999999979e+00 4.518900000000000006e+01 4.039000000000000057e+01 -1.271625000000000005e+00 -1.319239653732465212e-01
2.143299999999999983e+00 2.334299999999999997e+01 3.198900000000000077e+01 2.220142000000000060e+00 2.378344012706134214e-01
2.143600000000000172e+00 3.053200000000000003e+01 2.345799999999999841e+01 -7.835701000000000471e-01 7.055237933192318178e-02
2.145099999999999785e+00 4.997200000000000131e+01 2.974099999999999966e+01 6.129315000000000069e+00 2.412172481542162669e-02
2.149300000000000210e+00 4.245100000000000051e+01 4.626700000000000301e+01 -1.643131999999999948e+01 -5.408843001054227523e-02
2.154700000000000060e+00 3.686299999999999955e+01 2.157300000000000040e+01 6.097902000000000378e+00 -6.409034576418400075e-03
2.154700000000000060e+00 3.707200000000000273e+01 2.083699999999999974e+01 3.555654000000000092e+00 -1.997630173806643622e-02
2.165000000000000036e+00 2.801099999999999923e+01 3.994200000000000017e+01 1.178369999999999918e+00 -1.283182746599680624e-01
2.165000000000000036e+00 2.801099999999999923e+01 4.157200000000000273e+01 5.338930000000000398e+00 -3.732698785769558159e-01
2.168099999999999916e+00 2.858599999999999852e+01 2.601099999999999923e+01 -5.939056000000000335e-01 1.735475174827161848e-01
2.172299999999999898e+00 2.675700000000000145e+01 3.637500000000000000e+01 -1.108792999999999918e+00 -3.897933211874363146e-01
2.173200000000000021e+00 4.728900000000000148e+01 3.804699999999999704e+01 -1.272255000000000003e+01 -2.976468204974356754e-02
2.177999999999999936e+00 2.811799999999999855e+01 3.717300000000000182e+01 2.033295000000000030e+01 -1.432312726097329514e-01
2.191800000000000193e+00 4.892600000000000193e+01 3.552300000000000324e+01 -7.277905999999999764e+00 -1.187380243277580821e-01
2.193700000000000205e+00 2.275400000000000134e+01 3.195599999999999952e+01 5.644109000000000265e+00 2.469160480988050188e-01
2.195600000000000218e+00 2.526999999999999957e+01 2.812699999999999889e+01 7.075853000000000392e+00 1.676049403569700169e-02
2.206900000000000084e+00 4.361200000000000188e+01 4.293699999999999761e+01 3.196588999999999903e+00 -4.000000000000000777e-02
2.215599999999999792e+00 4.820600000000000307e+01 2.536199999999999832e+01 3.137460000000000093e+01 -1.864706956853949271e-01
2.216600000000000126e+00 2.771699999999999875e+01 2.840200000000000102e+01 2.341086999999999918e+00 2.544681767813236073e-01
2.225999999999999979e+00 2.558500000000000085e+01 3.062399999999999878e+01 1.531511000000000067e+01 3.676590944944394673e-02
2.245200000000000085e+00 3.252199999999999847e+01 4.338000000000000256e+01 -3.279737999999999687e+01 -3.765641832601333006e-01
2.258000000000000007e+00 2.168400000000000105e+01 3.175700000000000145e+01 7.314758000000000315e+00 2.545678491477519900e-01
2.258000000000000007e+00 3.332399999999999807e+01 2.323100000000000165e+01 -2.613592999999999833e+00 -1.221027125526708002e-01
2.265200000000000102e+00 4.330899999999999750e+01 4.363700000000000045e+01 -2.603406999999999805e+00 -3.999999999999999389e-02
2.267999999999999794e+00 5.194500000000000028e+01 3.113500000000000156e+01 3.444503999999999788e+00 3.397274547496499653e-02
2.267999999999999794e+00 5.194500000000000028e+01 3.292300000000000182e+01 1.885029000000000110e+01 2.308513059651728580e-02
2.267999999999999794e+00 5.219899999999999807e+01 3.202900000000000347e+01 2.862331000000000181e+00 2.882796171110621475e-02
2.278099999999999792e+00 4.856900000000000261e+01 3.721000000000000085e+01 -3.261171999999999827e+01 -7.985621445595474099e-02
2.280100000000000016e+00 4.302300000000000324e+01 2.272599999999999909e+01 3.002339999999999787e+00 -9.973045208265914063e-02
2.280100000000000016e+00 4.442300000000000182e+01 2.272599999999999909e+01 2.472782000000000036e+00 -1.593658019282911120e-01
2.286000000000000032e+00 3.784799999999999898e+01 1.900100000000000122e+01 8.948871000000000464e+00 -4.738032449493161102e-02
2.286000000000000032e+00 3.939800000000000324e+01 1.900100000000000122e+01 -9.267977999999999383e+00 -5.765444608401706222e-02
2.297400000000000109e+00 2.014699999999999847e+01 3.096499999999999986e+01 2.708098000000000116e+00 2.460014186416919768e-01
2.315500000000000114e+00 2.090200000000000102e+01 3.159600000000000009e+01 7.390983000000000303e+00 2.486437180343249176e-01
2.337600000000000122e+00 3.310699999999999932e+01 4.377499999999999858e+01 -1.615192000000000050e+01 -9.478863059686501447e-02
2.341000000000000192e+00 2.000499999999999901e+01 3.011100000000000065e+01 2.534107999999999805e+00 2.496632396476862747e-01
2.341000000000000192e+00 2.023600000000000065e+01 2.929599999999999937e+01 6.753955000000000375e+00 2.539285708387429841e-01
2.346400000000000041e+00 2.409299999999999997e+01 2.737000000000000099e+01 7.045105000000000395e-01 2.843981314256688580e-03
2.352700000000000014e+00 4.507300000000000040e+01 4.099300000000000210e+01 1.311597000000000079e+01 -1.452288463062781365e-01
2.374000000000000110e+00 3.445700000000000074e+01 4.440200000000000102e+01 -4.549969000000000108e+01 -2.212943867394055394e-02
2.374000000000000110e+00 3.575000000000000000e+01 4.368099999999999739e+01 -3.776066999999999751e+01 -1.690730963945766968e-02
2.374000000000000110e+00 3.694100000000000250e+01 4.301700000000000301e+01 -1.755086000000000013e+01 -3.624380367968624284e-02
2.374000000000000110e+00 3.813199999999999790e+01 4.368099999999999739e+01 -2.074219000000000079e+01 -5.508688205234133634e-02
2.374000000000000110e+00 3.834100000000000108e+01 4.441700000000000159e+01 -6.476299000000000028e+00 -5.398490269633450522e-02
2.375000000000000000e+00 4.492199999999999704e+01 4.198599999999999710e+01 1.332944999999999958e+01 -1.622281174855425001e-01
2.386400000000000077e+00 4.198899999999999721e+01 2.176200000000000045e+01 -7.049013999999999669e+00 -8.522536455977292036e-02
2.407700000000000173e+00 3.111700000000000088e+01 4.257000000000000028e+01 -6.007629999999999804e+00 -3.701432430787490735e-01
2.408599999999999852e+00 4.611099999999999710e+01 3.864699999999999847e+01 2.261540999999999801e+00 6.777274090609733057e-03
2.421300000000000008e+00 2.480000000000000071e+01 3.566499999999999915e+01 -3.453441999999999901e+00 4.670314337982419545e-02
2.430000000000000160e+00 3.485999999999999943e+01 2.326300000000000168e+01 -2.607870999999999828e+00 -5.593412603666007149e-02
2.430899999999999839e+00 4.046800000000000352e+01 2.010800000000000054e+01 -1.121458000000000066e+00 -6.605577465895549893e-02
2.431700000000000195e+00 4.602700000000000102e+01 2.141799999999999926e+01 2.273340999999999834e+00 -1.518645720012309630e-01
2.431700000000000195e+00 4.772699999999999676e+01 2.141799999999999926e+01 4.977668000000000426e+00 -2.463360133698503096e-01
2.431999999999999940e+00 5.082000000000000028e+01 3.007400000000000162e+01 4.370146999999999782e-01 3.538776098135557741e-02
2.443299999999999805e+00 2.192699999999999960e+01 2.701399999999999935e+01 2.384920000000000151e+00 2.447946146949034341e-01
2.452199999999999935e+00 3.822899999999999920e+01 4.516799999999999926e+01 2.574813999999999936e+00 -5.226946485123283581e-02
2.459499999999999797e+00 2.348799999999999955e+01 2.687999999999999901e+01 7.192545000000000188e-01 2.948135116238080958e-04
2.477799999999999780e+00 4.874399999999999977e+01 2.209700000000000131e+01 8.589601000000000042e+00 -1.593921492616247881e-01
2.479800000000000004e+00 2.377700000000000102e+01 3.257900000000000063e+01 -4.026968000000000103e+00 2.131833780712916737e-01
2.483000000000000096e+00 4.863900000000000290e+01 2.466199999999999903e+01 6.125650000000000261e+01 -1.725543248758955872e-01
2.483000000000000096e+00 3.836699999999999733e+01 4.611200000000000188e+01 1.185008000000000017e+01 -5.095202079149108165e-02
2.483999999999999986e+00 2.814999999999999858e+01 2.770200000000000173e+01 1.442329999999999890e+00 2.260409748386049689e-01
2.490800000000000125e+00 5.040299999999999869e+01 3.415200000000000102e+01 2.993108000000000146e+01 1.242477112553041357e-02
2.520500000000000185e+00 2.848799999999999955e+01 2.682900000000000063e+01 -3.352240000000000220e-01 1.917028092563742292e-01
2.524300000000000210e+00 3.269299999999999784e+01 2.283299999999999841e+01 -4.880184000000000188e-01 -1.525869153580196036e-01
2.524399999999999977e+00 4.493999999999999773e+01 2.229599999999999937e+01 7.792810000000000015e-01 -1.552039662775447360e-01
2.525700000000000056e+00 2.626000000000000156e+01 3.611099999999999710e+01 -2.456546000000000163e+01 -3.893029257320653191e-01
2.527000000000000135e+00 2.573600000000000065e+01 2.848699999999999832e+01 1.532380999999999993e+01 2.562835771527560702e-02
2.527000000000000135e+00 2.713599999999999923e+01 2.848699999999999832e+01 3.207580999999999793e+00 1.170107231342898818e-01
2.544999999999999929e+00 2.835000000000000142e+01 4.220300000000000296e+01 -1.139631000000000061e+00 -2.890867597084989526e-01
2.549900000000000055e+00 3.675099999999999767e+01 2.194699999999999918e+01 7.716364999999999696e+00 -7.771215634483551356e-03
2.559600000000000097e+00 4.924300000000000210e+01 2.946300000000000097e+01 3.948080000000000211e+01 1.620499974725158818e-02
2.560400000000000009e+00 4.046399999999999864e+01 4.702499999999999858e+01 9.919021000000000754e+00 -5.089010811455514649e-02
2.567299999999999915e+00 4.800099999999999767e+01 3.790899999999999892e+01 -1.075145999999999979e+01 -5.779345175964974851e-02
2.574399999999999800e+00 3.971600000000000108e+01 4.706799999999999784e+01 5.211062000000000083e+00 -5.033754366668896640e-02
2.576200000000000045e+00 3.123199999999999932e+01 2.319099999999999895e+01 -5.926063000000000303e-01 5.911764865656421453e-02
2.580200000000000049e+00 4.840299999999999869e+01 2.778099999999999881e+01 2.641972000000000165e+01 -1.251770901530002977e-01
2.580999999999999961e+00 4.161899999999999977e+01 2.091700000000000159e+01 -9.139236000000000359e+00 -8.204625916948682374e-02
2.582199999999999829e+00 2.945499999999999829e+01 4.258599999999999852e+01 -6.853761000000000436e+00 -2.852424590610792010e-01
2.604400000000000048e+00 4.935000000000000142e+01 3.474799999999999756e+01 2.453203999999999851e+01 -1.262253997208117873e-01
2.610599999999999810e+00 2.860900000000000176e+01 3.756900000000000261e+01 4.713747999999999827e+00 -1.409229934570092324e-01
2.610599999999999810e+00 2.881800000000000139e+01 3.830499999999999972e+01 -4.476064000000000043e+00 -1.388974938470582399e-01
2.619000000000000217e+00 4.298400000000000176e+01 4.583599999999999852e+01 -3.559991000000000128e+01 -5.400038369104837033e-02
2.619000000000000217e+00 4.321099999999999852e+01 4.503699999999999903e+01 -3.574824000000000268e+01 -5.546158238375446109e-02
2.632299999999999862e+00 2.738299999999999912e+01 3.673199999999999932e+01 2.163040000000000163e+01 -1.134699618350432093e-01
2.638799999999999812e+00 2.844999999999999929e+01 3.944599999999999795e+01 2.182637999999999856e+00 -1.219639756873305697e-01
2.639299999999999979e+00 3.180999999999999872e+01 4.324199999999999733e+01 -6.895862000000000158e+00 -3.734559609518808276e-01
2.641700000000000159e+00 2.224500000000000099e+01 3.224799999999999756e+01 3.533218000000000192e+00 2.386110874194367626e-01
2.642500000000000071e+00 2.840500000000000114e+01 2.563500000000000156e+01 -8.077881999999999563e-01 1.609290233928618308e-01
2.658999999999999808e+00 2.819000000000000128e+01 2.644399999999999906e+01 -3.352240000000000220e-01 1.824136289584078474e-01
2.680800000000000072e+00 2.399800000000000111e+01 3.340299999999999869e+01 -4.364963000000000370e+00 -9.004334927818482756e-03
2.691600000000000215e+00 3.409199999999999875e+01 2.319699999999999918e+01 -7.644142000000000436e+00 -1.034168787539959944e-01
2.699699999999999989e+00 4.439699999999999847e+01 4.283599999999999852e+01 3.388763000000000147e+01 -4.000000000000000083e-02
2.704499999999999904e+00 4.330899999999999750e+01 4.409199999999999875e+01 -2.004790999999999990e+00 -3.999999999999999389e-02
2.708699999999999886e+00 3.878900000000000148e+01 4.696099999999999852e+01 4.249920999999999793e+01 -4.976952797884763580e-02
2.712699999999999889e+00 4.253199999999999648e+01 2.232999999999999829e+01 -1.427720000000000100e+00 3.013081361699806310e-02
2.712699999999999889e+00 4.372299999999999898e+01 2.299399999999999977e+01 4.635771000000000086e+00 -1.684675217328802377e-01
2.750199999999999978e+00 3.000900000000000034e+01 2.380199999999999960e+01 5.403078000000000047e-01 3.267752761304525133e-02
2.757600000000000051e+00 4.812599999999999767e+01 2.669000000000000128e+01 1.496565999999999974e+01 -2.209979991645933395e-01
2.761400000000000077e+00 4.696000000000000085e+01 3.843200000000000216e+01 2.155149000000000092e-01 -1.171767823843601966e-02
2.765000000000000124e+00 3.707300000000000040e+01 2.025499999999999901e+01 4.048704999999999998e+00 -3.732928853834029809e-02
2.765000000000000124e+00 3.730400000000000205e+01 1.944000000000000128e+01 3.395105000000000040e+00 -4.635024595537842046e-02
2.765000000000000124e+00 3.862299999999999756e+01 1.870499999999999829e+01 -1.129431000000000046e-01 -5.857243515981530591e-02
2.765000000000000124e+00 3.994200000000000017e+01 1.944000000000000128e+01 9.629493999999999554e-01 -6.657352593397940221e-02
2.778999999999999915e+00 4.911800000000000210e+01 2.292899999999999849e+01 2.592661000000000016e+01 -1.614723450895527435e-01
2.778999999999999915e+00 4.911800000000000210e+01 2.388700000000000045e+01 1.792921000000000049e+02 -1.656917150613162193e-01
2.778999999999999915e+00 2.458399999999999963e+01 2.776599999999999824e+01 5.268492000000000175e+00 1.115275958767528511e-02
2.792600000000000193e+00 2.141499999999999915e+01 3.213700000000000045e+01 4.737763000000000169e+00 2.385255255362498661e-01
2.793299999999999894e+00 5.134899999999999665e+01 3.065399999999999991e+01 3.981164000000000147e+00 4.333185279032087528e-02
2.793299999999999894e+00 5.134899999999999665e+01 3.340400000000000347e+01 1.737308000000000163e+01 2.578157725885554807e-02
2.806599999999999984e+00 3.624099999999999966e+01 4.328499999999999659e+01 -3.251088000000000022e+01 -3.157598467912741541e-02
2.806599999999999984e+00 3.764099999999999824e+01 4.328499999999999659e+01 -1.673410000000000153e+01 6.524844739295998508e-02
2.810099999999999820e+00 4.140299999999999869e+01 4.683700000000000330e+01 -2.826867000000000019e+00 -5.111732007557959895e-02
2.823399999999999910e+00 2.391600000000000037e+01 3.443500000000000227e+01 -4.480916999999999817e-01 -4.449710705058808162e-03
2.826400000000000023e+00 3.643999999999999773e+01 2.239499999999999957e+01 1.691113000000000088e+00 2.165905518465570112e-01
2.830400000000000027e+00 2.643599999999999994e+01 2.854500000000000171e+01 6.463708999999999705e+00 1.092068870393092944e-01
2.843399999999999928e+00 2.419200000000000017e+01 3.529899999999999949e+01 -5.128104000000000440e+00 1.425314522060305324e-02
2.843700000000000117e+00 3.369700000000000273e+01 4.411200000000000188e+01 -3.959167999999999665e+01 -1.729676894490100175e-02
2.843700000000000117e+00 3.521699999999999875e+01 4.411200000000000188e+01 -1.500985000000000014e+02 -3.503027333504436791e-02
2.848899999999999988e+00 2.129100000000000037e+01 2.740200000000000102e+01 1.499827999999999939e+00 2.456004719180414908e-01
2.853000000000000203e+00 3.026099999999999923e+01 4.250699999999999790e+01 -3.194503999999999788e+00 -3.655152268811682204e-01
2.859199999999999964e+00 2.006299999999999883e+01 3.124399999999999977e+01 2.905282000000000142e+00 2.384986017111311030e-01
2.862600000000000033e+00 3.556000000000000227e+01 2.299599999999999866e+01 -5.441512999999999600e+00 2.804733843249441749e-01
2.865000000000000213e+00 2.762500000000000000e+01 4.038300000000000267e+01 1.420789999999999997e+00 -2.757768800307007773e-01
2.886400000000000077e+00 2.904100000000000037e+01 2.474599999999999866e+01 -9.812134999999999607e-01 1.837690997071058513e-02
2.890099999999999891e+00 1.997299999999999898e+01 3.009100000000000108e+01 2.118774000000000157e+00 2.466169070707231459e-01
2.891000000000000014e+00 2.555999999999999872e+01 3.595499999999999829e+01 -4.165178999999999832e+01 -9.765890097965167216e-02
2.901699999999999946e+00 3.182900000000000063e+01 2.252700000000000102e+01 -3.255614000000000008e-01 -1.833955565705980562e-01
2.901699999999999946e+00 3.287899999999999778e+01 2.252700000000000102e+01 -5.644677000000000167e-01 -1.520719568134029920e-01
2.906000000000000139e+00 4.515299999999999869e+01 4.066100000000000136e+01 4.687973999999999641e+00 -1.353123489568667792e-01
2.906000000000000139e+00 4.536299999999999955e+01 3.992499999999999716e+01 -2.919737000000000027e+00 -1.399855912789907952e-01
2.906000000000000139e+00 4.569100000000000250e+01 3.917999999999999972e+01 -2.937021000000000104e+00 -1.233496631008324240e-01
2.907999999999999918e+00 2.750000000000000000e+01 4.090899999999999892e+01 3.876342999999999872e+00 -2.831189235769879242e-01
2.911999999999999922e+00 2.076999999999999957e+01 2.843199999999999861e+01 4.931525999999999854e+00 2.528611139339890790e-01
2.912999999999999812e+00 2.268700000000000117e+01 2.672400000000000020e+01 2.207204000000000110e-01 2.377849933381971925e-01
2.915599999999999969e+00 4.793900000000000006e+01 2.579500000000000171e+01 2.534434999999999860e+01 -1.941100379997245939e-01
2.916599999999999859e+00 2.744999999999999929e+01 2.796900000000000119e+01 2.303795000000000037e+00 -1.357170419223538704e-01
2.936700000000000088e+00 2.860500000000000043e+01 4.239900000000000091e+01 2.029529999999999834e+00 -2.901925140474538312e-01
2.956999999999999851e+00 4.543099999999999739e+01 2.189900000000000091e+01 2.975764999999999993e+00 -1.524158339150659680e-01
