-2.868799999999999883e+01 5.455799999999999983e+01 -4.529500000000000171e+01 7.493922000000000416e+00 -1.437409318531274460e-01
-2.868700000000000117e+01 7.458799999999999386e+01 -5.916499999999999915e+01 4.097713999999999857e+00 -5.475453942704490429e-02
-2.866400000000000148e+01 7.246699999999999875e+01 -3.542699999999999960e+01 1.397014000000000067e+02 -1.440168617248102356e-01
-2.866300000000000026e+01 5.911500000000000199e+01 -6.207399999999999807e+01 -1.034329999999999927e+01 -1.657212365954494337e-01
-2.866000000000000014e+01 7.244899999999999807e+01 -4.622099999999999653e+01 -2.734860000000000113e+01 -1.499047511119181442e-01
-2.865899999999999892e+01 7.290399999999999636e+01 -4.600099999999999767e+01 -1.116469999999999985e+01 -1.498262332883478209e-01
-2.865700000000000003e+01 6.647799999999999443e+01 -6.587099999999999511e+01 -3.212749000000000077e+00 -1.663774618795344495e-01
-2.865700000000000003e+01 6.647799999999999443e+01 -6.460899999999999466e+01 -6.569490000000000052e+00 -1.665364020802733991e-01
-2.865700000000000003e+01 6.520499999999999829e+01 -6.669199999999999307e+01 -5.075524999999999842e+00 -1.661910285374712803e-01
-2.865299999999999869e+01 6.283500000000000085e+01 -4.099099999999999966e+01 4.171427999999999692e+00 -1.460216940296970578e-01
-2.864900000000000091e+01 6.024900000000000233e+01 -3.644599999999999795e+01 1.027354999999999935e-02 -1.421491682430863213e-01
-2.864799999999999969e+01 5.994800000000000040e+01 -6.357900000000000063e+01 -3.640991000000000088e+00 -1.658305420783336426e-01
-2.864799999999999969e+01 6.148299999999999699e+01 -6.511400000000000432e+01 -5.700023999999999980e+00 -1.659774766120388212e-01
-2.864600000000000080e+01 5.637400000000000233e+01 -4.170900000000000318e+01 7.171101000000000170e+00 -1.426149178002360240e-01
-2.864399999999999835e+01 7.258899999999999864e+01 -5.055599999999999739e+01 1.874501999999999891e+00 -1.509842726082126219e-01
-2.864399999999999835e+01 6.035399999999999920e+01 -6.249499999999999744e+01 -7.435113999999999557e+00 -1.660524236021443389e-01
-2.864099999999999824e+01 5.519599999999999795e+01 -4.416199999999999903e+01 3.722414999999999807e+00 -1.434137120194362569e-01
-2.863400000000000034e+01 5.095600000000000307e+01 -4.940500000000000114e+01 6.165797999999999668e+00 -1.437957446234505166e-01
-2.863400000000000034e+01 5.121000000000000085e+01 -5.029899999999999949e+01 1.415664999999999951e+00 -1.450280117301424032e-01
-2.863400000000000034e+01 5.121000000000000085e+01 -4.851100000000000279e+01 8.165324000000000026e+00 -1.432070272996130711e-01
-2.863400000000000034e+01 5.141899999999999693e+01 -4.777499999999999858e+01 5.168752999999999709e+00 -1.427503020367919540e-01
-2.863400000000000034e+01 7.167400000000000659e+01 -3.289999999999999858e+01 2.888034999999999997e+01 -1.427341012016346000e-01
-2.862900000000000134e+01 7.428400000000000603e+01 -5.986500000000000199e+01 5.274645999999999724e+00 -5.489235754542805268e-02
-2.861299999999999955e+01 5.879999999999999716e+01 -5.156900000000000261e+01 -5.139747999999999983e+00 -1.648643873740873178e-01
-2.860699999999999932e+01 7.170499999999999829e+01 -4.761299999999999955e+01 -2.339138000000000162e+01 -1.503167800724280467e-01
-2.860500000000000043e+01 7.473499999999999943e+01 -6.288700000000000045e+01 -1.388960999999999935e+01 -5.526238517905966013e-02
-2.860399999999999920e+01 7.376800000000000068e+01 -4.031600000000000250e+01 -3.517893000000000114e+01 -1.466285715180637994e-01
-2.860000000000000142e+01 6.776099999999999568e+01 -6.661499999999999488e+01 -2.189401000000000153e+00 -5.619019724363442936e-02
-2.860000000000000142e+01 6.776099999999999568e+01 -6.386500000000000199e+01 4.882442000000000171e+00 -1.666511631109416636e-01
-2.860000000000000142e+01 6.946099999999999852e+01 -6.661499999999999488e+01 3.186926000000000148e+00 -5.608023174915825748e-02
-2.859700000000000131e+01 7.526699999999999591e+01 -4.113499999999999801e+01 -3.267600999999999800e+01 -1.470563828264143114e-01
-2.859700000000000131e+01 7.559199999999999875e+01 -4.187199999999999989e+01 -5.306649000000000171e+01 -1.474444175392244927e-01
-2.859600000000000009e+01 5.634700000000000131e+01 -5.911599999999999966e+01 -2.497726000000000113e+00 -1.647811499335624652e-01
-2.859600000000000009e+01 5.634700000000000131e+01 -5.817600000000000193e+01 -7.460791000000000395e+00 -1.647610616413678342e-01
-2.858599999999999852e+01 7.798600000000000421e+01 -5.600099999999999767e+01 2.109231000000000122e+01 -5.412042230548468058e-02
-2.858500000000000085e+01 6.027700000000000102e+01 -6.433899999999999864e+01 -3.851970000000000116e+00 -1.658794368393850527e-01
-2.858299999999999841e+01 5.213799999999999812e+01 -4.666499999999999915e+01 4.059255000000000280e+01 -1.425622799379814842e-01
-2.858099999999999952e+01 7.788100000000000023e+01 -5.343599999999999994e+01 1.212991999999999990e+02 -1.509488349421879705e-01
-2.857999999999999829e+01 6.147599999999999909e+01 -4.176899999999999835e+01 6.819293000000000049e+00 -1.458785598858881039e-01
-2.857900000000000063e+01 7.524800000000000466e+01 -5.831799999999999784e+01 -4.403922000000000114e-01 -5.461858268090504648e-02
-2.857300000000000040e+01 7.212099999999999511e+01 -3.464999999999999858e+01 4.249096999999999724e+01 -1.435889398859310773e-01
-2.857199999999999918e+01 6.205700000000000216e+01 -6.033700000000000330e+01 -7.636231999999999687e+00 -1.665501350841530059e-01
-2.855799999999999983e+01 5.938400000000000034e+01 -3.862500000000000000e+01 -7.172151000000000387e+00 -1.428021142376870167e-01
-2.855600000000000094e+01 7.296399999999999864e+01 -6.461400000000000432e+01 2.856129000000000029e-01 -5.561659275981493261e-02
-2.855399999999999849e+01 7.180299999999999727e+01 -3.385799999999999699e+01 3.865469000000000221e+01 -1.431749833329858945e-01
-2.854799999999999827e+01 5.973400000000000176e+01 -3.950399999999999778e+01 -7.033754000000000062e+00 -1.435186979674660246e-01
-2.853399999999999892e+01 6.729500000000000171e+01 -6.056499999999999773e+01 -7.065949999999999953e+00 -1.668691053297393367e-01
-2.852499999999999858e+01 5.826800000000000068e+01 -6.060699999999999932e+01 -4.906844999999999679e+00 -1.656624554023964080e-01
-2.852499999999999858e+01 5.604500000000000171e+01 -5.146900000000000119e+01 1.416030000000000066e-02 -1.638549286253371540e-01
-2.852100000000000080e+01 7.710399999999999920e+01 -5.671500000000000341e+01 4.449613000000000262e+00 -5.428833251490107481e-02
-2.851999999999999957e+01 6.927599999999999625e+01 -6.264200000000000301e+01 -3.689620000000000122e+00 -5.563080776372220093e-02
-2.851999999999999957e+01 6.927599999999999625e+01 -6.177700000000000102e+01 -6.690265000000000128e+00 -5.549428688490737338e-02
-2.850799999999999912e+01 5.717900000000000205e+01 -5.108599999999999852e+01 -1.251916999999999947e+00 -1.642843776342600426e-01
-2.850700000000000145e+01 6.005599999999999739e+01 -6.155299999999999727e+01 -7.439356000000000080e+00 -1.661820291631818380e-01
-2.850400000000000134e+01 6.410399999999999920e+01 -6.370499999999999829e+01 -2.398081000000000174e+01 -1.666455240875487631e-01
-2.850199999999999889e+01 6.132200000000000273e+01 -6.251700000000000301e+01 -8.328227999999999298e+00 -1.663974182267479451e-01
-2.849599999999999866e+01 7.149500000000000455e+01 -3.856799999999999784e+01 9.407977000000000700e+00 -1.455804985693568976e-01
-2.849299999999999855e+01 7.603100000000000591e+01 -5.684300000000000352e+01 -1.116670999999999969e+00 -5.437122372429871453e-02
-2.849200000000000088e+01 6.549800000000000466e+01 -3.350300000000000011e+01 6.667744999999999322e+01 -1.421117341981404381e-01
-2.848600000000000065e+01 6.126599999999999824e+01 -6.098899999999999721e+01 -7.422335000000000349e+00 -1.664870837852049923e-01
-2.847500000000000142e+01 6.741500000000000625e+01 -3.270100000000000051e+01 1.575811999999999991e+01 -1.420184065193277334e-01
-2.846999999999999886e+01 6.214699999999999847e+01 -6.355899999999999750e+01 -1.077591999999999928e+01 -1.664694613030760217e-01
-2.846999999999999886e+01 6.828000000000000114e+01 -3.188500000000000156e+01 6.544209000000000387e+00 -1.417649680184935312e-01
-2.846699999999999875e+01 5.924900000000000233e+01 -5.532099999999999795e+01 -6.049317000000000277e+00 -1.657458398575669123e-01
-2.846699999999999875e+01 5.857099999999999795e+01 -6.130700000000000216e+01 -3.367875999999999870e+00 -1.658007249425809404e-01
-2.846199999999999974e+01 5.982600000000000051e+01 -4.018800000000000239e+01 -2.688296999999999937e+00 -1.440008964771102851e-01
-2.846199999999999974e+01 6.003499999999999659e+01 -4.092399999999999949e+01 7.048947000000000074e+00 -1.445822040989559465e-01
-2.846000000000000085e+01 6.090999999999999659e+01 -6.168500000000000227e+01 -6.183631000000000100e+00 -1.664140912796717442e-01
-2.845899999999999963e+01 6.343500000000000227e+01 -4.017600000000000193e+01 6.362245999999999846e+00 -1.458439109972585468e-01
-2.845899999999999963e+01 6.343500000000000227e+01 -3.931099999999999994e+01 6.130361999999999867e+00 -1.453398638869153880e-01
-2.845799999999999841e+01 6.020799999999999841e+01 -3.582399999999999807e+01 5.131170000000000453e-01 -1.418482424710209577e-01
-2.845799999999999841e+01 6.020799999999999841e+01 -3.495799999999999841e+01 1.795020999999999978e+00 -1.414439328080754898e-01
-2.845400000000000063e+01 6.812999999999999545e+01 -6.100399999999999778e+01 -7.296719999999999651e+00 -1.668961460521263540e-01
-2.845200000000000173e+01 7.369700000000000273e+01 -4.536999999999999744e+01 -3.425295999999999896e+00 -1.495860045226989343e-01
-2.843900000000000006e+01 6.326100000000000279e+01 -5.967799999999999727e+01 -5.984159000000000006e+00 -1.668117398189242206e-01
-2.843799999999999883e+01 6.327199999999999847e+01 -6.363499999999999801e+01 -1.514492000000000083e+01 -1.666342962091649227e-01
-2.843799999999999883e+01 7.119199999999999307e+01 -3.926800000000000068e+01 7.362636000000000180e+00 -1.459590473590970383e-01
-2.843499999999999872e+01 7.572700000000000387e+01 -5.754299999999999926e+01 -4.203921999999999937e-01 -5.451065690297579591e-02
-2.843299999999999983e+01 6.609000000000000341e+01 -6.438599999999999568e+01 -1.365521000000000029e+01 -1.667236800370411332e-01
-2.843199999999999861e+01 5.829999999999999716e+01 -6.207399999999999807e+01 -2.339843999999999813e+00 -1.656907872086181011e-01
-2.842200000000000060e+01 6.964799999999999613e+01 -3.122899999999999920e+01 -2.458096000000000103e+01 -1.416667539291347200e-01
-2.841600000000000037e+01 7.441400000000000148e+01 -4.493099999999999739e+01 -7.138526999999999845e+00 -1.492443512115944060e-01
-2.841600000000000037e+01 7.136599999999999966e+01 -4.092600000000000193e+01 -6.670186000000000170e+00 -1.469484323673391490e-01
-2.841600000000000037e+01 7.223199999999999932e+01 -4.092600000000000193e+01 -2.373866999999999905e+01 -1.469502745845946146e-01
-2.841300000000000026e+01 6.394700000000000273e+01 -3.350300000000000011e+01 2.011145000000000138e+01 -1.418057802500603815e-01
-2.840299999999999869e+01 6.206499999999999773e+01 -6.809699999999999420e+01 -2.878903999999999908e+00 -1.657208280331740891e-01
-2.840299999999999869e+01 6.358500000000000085e+01 -6.809699999999999420e+01 -4.105355000000000310e+00 -6.957655635351572831e-02
-2.838299999999999912e+01 6.263300000000000267e+01 -3.324499999999999744e+01 8.592421000000000220e+01 -1.413921152203418130e-01
-2.838200000000000145e+01 6.119800000000000040e+01 -3.403900000000000148e+01 5.146148000000000167e+00 -1.415259174277571641e-01
-2.837399999999999878e+01 7.101600000000000534e+01 -3.188500000000000156e+01 -1.607724999999999937e+01 -1.421383442444682510e-01
-2.837399999999999878e+01 5.476299999999999812e+01 -4.486200000000000188e+01 5.708276999999999823e+00 -1.436601621202583667e-01
-2.837099999999999866e+01 6.597199999999999420e+01 -3.365899999999999892e+01 2.767601000000000155e+01 -1.422416895616938348e-01
-2.837099999999999866e+01 6.683799999999999386e+01 -3.365899999999999892e+01 1.831229000000000084e+01 -1.423828146244320858e-01
-2.837000000000000099e+01 7.598399999999999466e+01 -5.831799999999999784e+01 4.168914000000000231e-01 -5.462924113923336294e-02
-2.836700000000000088e+01 5.863600000000000279e+01 -6.284899999999999665e+01 -1.787781999999999982e+00 -1.658059850236887622e-01
-2.836700000000000088e+01 7.294700000000000273e+01 -4.027199999999999847e+01 -3.163205999999999918e+01 -1.465640124994316562e-01
-2.836599999999999966e+01 7.439600000000000080e+01 -5.178000000000000114e+01 -1.347001000000000026e+01 -1.511280889483684886e-01
-2.836100000000000065e+01 5.714500000000000313e+01 -4.046099999999999852e+01 -1.280985000000000040e+00 -1.424396662456635654e-01
-2.835800000000000054e+01 7.440000000000000568e+01 -6.335399999999999920e+01 -3.286229000000000067e+00 -5.541702877058730936e-02
-2.835800000000000054e+01 7.106300000000000239e+01 -4.022599999999999909e+01 -2.332463999999999871e+00 -1.465097343857067469e-01
-2.835800000000000054e+01 5.270400000000000063e+01 -4.624399999999999977e+01 4.121312000000000353e+01 -1.428550968644859975e-01
-2.834199999999999875e+01 7.144899999999999807e+01 -4.896900000000000119e+01 -5.564358000000000359e+00 -1.507482128305753788e-01
-2.834199999999999875e+01 7.165800000000000125e+01 -4.970499999999999829e+01 -7.118121999999999616e+00 -1.509243489467247956e-01
-2.833699999999999974e+01 7.330899999999999750e+01 -5.136599999999999966e+01 -1.050770000000000037e-01 -1.511690495670266476e-01
-2.833599999999999852e+01 6.459699999999999420e+01 -6.741800000000000637e+01 -6.899356000000000044e+00 -1.662682767229348713e-01
-2.833500000000000085e+01 7.474200000000000443e+01 -4.034799999999999898e+01 -3.518111999999999995e+01 -1.466010301126193238e-01
-2.832499999999999929e+01 5.225200000000000244e+01 -5.300600000000000023e+01 4.676800999999999875e-01 -1.619634949304468718e-01
-2.832499999999999929e+01 5.377199999999999847e+01 -5.300600000000000023e+01 -2.330055999999999905e+00 -1.630474509673728867e-01
-2.832400000000000162e+01 6.614000000000000057e+01 -5.980700000000000216e+01 -6.273208999999999591e+00 -1.670341177788442766e-01
-2.830900000000000105e+01 7.623999999999999488e+01 -5.268200000000000216e+01 -1.242672999999999917e+01 -1.510887865155283172e-01
-2.830600000000000094e+01 5.681700000000000017e+01 -5.987599999999999767e+01 -5.027707999999999622e+00 -1.653296242790402992e-01
-2.830600000000000094e+01 5.681700000000000017e+01 -5.741599999999999682e+01 -1.426069999999999993e+01 -1.652545470232621994e-01
-2.828900000000000148e+01 7.558400000000000318e+01 -4.434000000000000341e+01 -1.286151000000000089e+01 -1.487798097299471434e-01
-2.828699999999999903e+01 6.823799999999999955e+01 -6.326599999999999824e+01 4.384318000000000382e+00 -5.586873248104053113e-02
-2.828500000000000014e+01 7.835999999999999943e+01 -5.516899999999999693e+01 4.150531000000000148e+01 -5.404297955755175270e-02
-2.828500000000000014e+01 7.835999999999999943e+01 -5.421099999999999852e+01 1.112502999999999957e+02 -1.510659660392141834e-01
-2.828200000000000003e+01 7.217100000000000648e+01 -3.850500000000000256e+01 -6.098112999999999673e+00 -1.455356524813779528e-01
-2.827899999999999991e+01 7.300499999999999545e+01 -5.066599999999999682e+01 -3.092515999999999821e+00 -1.510497411594622086e-01
-2.827499999999999858e+01 6.419400000000000261e+01 -5.955199999999999960e+01 5.450194999999999901e+00 -1.670176000625332724e-01
-2.827199999999999847e+01 5.915400000000000347e+01 -6.334799999999999898e+01 -3.203807999999999989e+00 -1.660191227944529946e-01
-2.826200000000000045e+01 5.592099999999999937e+01 -4.251299999999999812e+01 2.881866000000000039e+00 -1.428896712392885293e-01
-2.826099999999999923e+01 6.095199999999999818e+01 -3.711899999999999977e+01 -6.483509999999999884e+00 -1.429384923051502665e-01
-2.826099999999999923e+01 6.214300000000000068e+01 -3.778300000000000125e+01 -5.582245999999999597e+00 -1.439148279514181061e-01
-2.825600000000000023e+01 5.406700000000000017e+01 -4.569100000000000250e+01 7.947827000000000197e+00 -1.437489312928163510e-01
-2.825400000000000134e+01 7.490800000000000125e+01 -6.131199999999999761e+01 1.917212999999999923e+01 -5.515563841202042461e-02
-2.825400000000000134e+01 7.490800000000000125e+01 -6.044599999999999795e+01 5.807653000000000176e+00 -5.503889416303901078e-02
-2.825300000000000011e+01 7.667100000000000648e+01 -5.741499999999999915e+01 3.481593000000000049e-01 -5.448207875939273942e-02
-2.824699999999999989e+01 5.770199999999999818e+01 -3.901299999999999812e+01 -5.986347999999999558e+00 -1.419856817672517368e-01
-2.824599999999999866e+01 6.484099999999999397e+01 -6.385699999999999932e+01 -6.251758999999999844e+01 -1.668899882245678534e-01
-2.824299999999999855e+01 7.503799999999999670e+01 -6.237599999999999767e+01 3.815501999999999949e+00 -5.528161409532311721e-02
-2.823600000000000065e+01 7.325300000000000011e+01 -3.672899999999999920e+01 4.426158000000000037e+00 -1.446406056447723243e-01
-2.822800000000000153e+01 7.174899999999999523e+01 -4.648799999999999955e+01 -1.452410000000000068e+01 -1.500914918474852977e-01
-2.822599999999999909e+01 7.591299999999999670e+01 -4.357999999999999829e+01 -2.270351000000000141e+01 -1.483184555542648997e-01
-2.822400000000000020e+01 7.186799999999999500e+01 -3.920499999999999829e+01 -1.038069999999999915e+01 -1.459078680981333587e-01
-2.822400000000000020e+01 7.349800000000000466e+01 -3.757500000000000284e+01 -1.777768000000000126e-01 -1.450858428491827445e-01
-2.821900000000000119e+01 6.069899999999999807e+01 -6.494700000000000273e+01 -4.137107999999999564e+00 -1.662531797131200084e-01
-2.821699999999999875e+01 5.923299999999999699e+01 -5.206000000000000227e+01 -3.345047000000000104e+00 -1.654209185729318410e-01
-2.821300000000000097e+01 5.686500000000000199e+01 -4.131199999999999761e+01 2.336549000000000209e+00 -1.428077042420794751e-01
-2.821300000000000097e+01 7.717300000000000182e+01 -5.327799999999999869e+01 1.679689000000000121e+01 -1.510906041360230712e-01
-2.821000000000000085e+01 5.794500000000000028e+01 -5.623700000000000188e+01 -5.948690000000000033e+00 -1.656939973199302030e-01
-2.820899999999999963e+01 7.569799999999999329e+01 -4.277100000000000080e+01 -3.596524000000000143e+01 -1.478806165268236050e-01
-2.819999999999999929e+01 5.968099999999999739e+01 -5.462100000000000222e+01 -6.802806000000000353e+00 -1.660089019850528591e-01
-2.819699999999999918e+01 7.555100000000000193e+01 -5.916899999999999693e+01 1.754413000000000000e+00 -5.482741818193903605e-02
-2.818700000000000117e+01 6.270400000000000063e+01 -3.848299999999999699e+01 1.026555000000000106e+00 -1.445883251282328585e-01
-2.818400000000000105e+01 6.572100000000000364e+01 -6.625499999999999545e+01 -7.231595000000000439e+00 -1.666586247280432143e-01
-2.818400000000000105e+01 6.712099999999999511e+01 -6.625499999999999545e+01 -1.717449999999999921e+00 -5.637096489859917681e-02
-2.816700000000000159e+01 6.176400000000000290e+01 -6.111399999999999721e+01 -1.060092999999999996e+01 -1.668691831335532005e-01
-2.816000000000000014e+01 5.590100000000000335e+01 -4.362500000000000000e+01 2.402762000000000064e+00 -1.437079617071070070e-01
-2.815800000000000125e+01 5.953600000000000136e+01 -5.275999999999999801e+01 -1.281123000000000012e+00 -1.656896228177483499e-01
-2.815599999999999881e+01 6.864000000000000057e+01 -6.704999999999999716e+01 -1.525203000000000086e+00 -5.636133036756228037e-02
-2.815299999999999869e+01 7.312900000000000489e+01 -3.982500000000000284e+01 -2.239584999999999937e+01 -1.462773815839912284e-01
-2.815299999999999869e+01 7.312900000000000489e+01 -3.842499999999999716e+01 -5.217862000000000222e+00 -1.455067035837739053e-01
-2.814999999999999858e+01 5.162199999999999989e+01 -4.727499999999999858e+01 5.824919999999999654e+00 -1.426608175611333018e-01
-2.814900000000000091e+01 7.179900000000000659e+01 -4.022599999999999909e+01 -2.679934000000000083e+01 -1.464876041404923335e-01
-2.814699999999999847e+01 6.217600000000000193e+01 -4.150200000000000244e+01 2.955089000000000077e+00 -1.461625103004444981e-01
-2.814199999999999946e+01 6.560399999999999920e+01 -6.408499999999999375e+01 -1.786217999999999861e+01 -1.669743403169347273e-01
-2.814199999999999946e+01 6.700400000000000489e+01 -6.408499999999999375e+01 -1.168333000000000066e+00 -1.669748898409791071e-01
-2.814000000000000057e+01 7.008700000000000330e+01 -6.625799999999999557e+01 1.079974999999999907e+00 -5.617593818285619017e-02
-2.813899999999999935e+01 7.524800000000000466e+01 -5.986899999999999977e+01 3.954352000000000089e+00 -5.496497204056478847e-02
-2.813899999999999935e+01 7.679900000000000659e+01 -5.831799999999999784e+01 2.174986000000000175e+01 -5.463429970915849310e-02
-2.813700000000000045e+01 6.260099999999999909e+01 -6.334100000000000108e+01 -2.018169999999999931e+01 -1.668615454412081534e-01
-2.812399999999999878e+01 7.345499999999999829e+01 -6.421699999999999875e+01 -4.537734999999999630e+00 -5.566950191305726492e-02
-2.811899999999999977e+01 5.541899999999999693e+01 -5.182600000000000051e+01 6.768400999999999446e-01 -1.639868832439655977e-01
-2.811499999999999844e+01 5.951700000000000301e+01 -6.404900000000000659e+01 -5.737517999999999674e+00 -1.662002063755299575e-01
-2.809799999999999898e+01 5.419299999999999784e+01 -5.266299999999999670e+01 -7.006667000000000201e+00 -1.634802324394760975e-01
-2.809499999999999886e+01 7.184099999999999397e+01 -6.533199999999999363e+01 -1.292264999999999997e+00 -5.594514832052018688e-02
-2.809199999999999875e+01 5.674499999999999744e+01 -5.120199999999999818e+01 -9.956804999999999684e-01 -1.644927117179991183e-01
-2.808800000000000097e+01 6.065100000000000335e+01 -4.141100000000000136e+01 9.439700000000000202e+00 -1.453332549568759902e-01
-2.808699999999999974e+01 6.857599999999999341e+01 -6.290899999999999892e+01 -4.915547000000000111e+00 -5.587783121272039966e-02
-2.808699999999999974e+01 6.857599999999999341e+01 -6.150900000000000034e+01 -1.076155999999999935e+01 -1.671151872972613528e-01
-2.807999999999999829e+01 6.207600000000000051e+01 -6.285300000000000153e+01 -1.885745999999999967e+01 -1.668939587955193260e-01
-2.807400000000000162e+01 7.646299999999999386e+01 -5.909300000000000352e+01 1.970707999999999904e+00 -5.478428636202233026e-02
-2.804799999999999827e+01 6.756199999999999761e+01 -3.218200000000000216e+01 2.791101000000000099e+01 -1.416787418480833227e-01
-2.804299999999999926e+01 5.805700000000000216e+01 -5.136899999999999977e+01 -7.076189000000000506e-01 -1.650641449894086898e-01
-2.804200000000000159e+01 6.671500000000000341e+01 -3.296800000000000352e+01 2.114848999999999890e+01 -1.419210115564023822e-01
-2.803500000000000014e+01 5.178199999999999648e+01 -5.224600000000000222e+01 -6.278147999999999840e+00 -1.617791045070519629e-01
-2.802899999999999991e+01 6.458899999999999864e+01 -3.384400000000000119e+01 2.396440000000000126e+01 -1.420000981010602070e-01
-2.802899999999999991e+01 6.887900000000000489e+01 -6.220900000000000318e+01 -8.590001000000000886e+00 -5.577286746911193360e-02
-2.802700000000000102e+01 7.428000000000000114e+01 -5.129800000000000182e+01 -8.097070000000000434e+00 -1.511072949745350391e-01
-2.802599999999999980e+01 5.950800000000000267e+01 -3.772099999999999653e+01 6.201453000000000104e-01 -1.424647881116164472e-01
-2.802299999999999969e+01 5.976200000000000045e+01 -5.410499999999999687e+01 -1.167934000000000028e+00 -1.661069645644265846e-01
-2.802299999999999969e+01 5.976200000000000045e+01 -5.324000000000000199e+01 -3.829347000000000167e-01 -1.659541842856655236e-01
-2.802100000000000080e+01 6.543999999999999773e+01 -5.974900000000000233e+01 -5.064779999999999838e+00 -1.672648847694394314e-01
-2.801500000000000057e+01 5.165500000000000114e+01 -5.079500000000000171e+01 -8.762574000000000751e+00 -1.463894923840834139e-01
-2.801500000000000057e+01 7.260399999999999920e+01 -3.920499999999999829e+01 -1.428462999999999994e+01 -1.458935005098777604e-01
-2.801300000000000168e+01 5.948799999999999955e+01 -3.620600000000000307e+01 1.565080000000000027e+00 -1.416703571934660455e-01
-2.801200000000000045e+01 7.293200000000000216e+01 -4.550399999999999778e+01 -1.791353999999999891e+00 -1.497039481384241366e-01
-2.800799999999999912e+01 7.131699999999999307e+01 -3.335999999999999943e+01 4.070653999999999684e+01 -1.427652297699570916e-01
-2.799599999999999866e+01 5.301200000000000045e+01 -5.306900000000000261e+01 -2.455538999999999916e+00 -1.628702400622344393e-01
-2.797599999999999909e+01 7.423699999999999477e+01 -4.461399999999999721e+01 -2.262313999999999936e+00 -1.490207626937578578e-01
-2.796999999999999886e+01 7.568999999999999773e+01 -5.203600000000000136e+01 -4.481311000000000178e+01 -1.511005600732238940e-01
-2.796900000000000119e+01 6.417499999999999716e+01 -6.776000000000000512e+01 -6.899356000000000044e+00 -7.012607866471659568e-02
-2.796699999999999875e+01 5.981099999999999994e+01 -3.702100000000000080e+01 9.445928999999999576e-01 -1.422828765822690689e-01
-2.796699999999999875e+01 5.981099999999999994e+01 -3.539099999999999824e+01 2.221098000000000017e+00 -1.414734428743546490e-01
-2.796399999999999864e+01 7.288599999999999568e+01 -3.585900000000000176e+01 2.188488999999999862e+01 -1.441235023276174476e-01
-2.796000000000000085e+01 7.218099999999999739e+01 -4.578799999999999670e+01 -6.229567000000000299e+00 -1.499336046669996203e-01
-2.795899999999999963e+01 6.073499999999999943e+01 -3.452100000000000080e+01 3.017907000000000117e+00 -1.415640266044602691e-01
-2.795200000000000173e+01 7.040800000000000125e+01 -3.151899999999999835e+01 -2.468612999999999857e+01 -1.417923362366462769e-01
-2.794300000000000139e+01 7.260500000000000398e+01 -3.502499999999999858e+01 4.763866000000000156e+01 -1.436840871099897554e-01
-2.794300000000000139e+01 5.336599999999999966e+01 -4.597800000000000153e+01 1.413490000000000002e+01 -1.434137220021100834e-01
-2.794099999999999895e+01 5.775699999999999790e+01 -6.159700000000000131e+01 -1.811018000000000017e+00 -1.660742033278592433e-01
-2.794000000000000128e+01 7.405500000000000682e+01 -6.399099999999999966e+01 -2.134034999999999904e+00 -5.564618660157193142e-02
-2.794000000000000128e+01 6.885099999999999909e+01 -3.140899999999999892e+01 -8.426517000000000479e+00 -1.415023282852695963e-01
-2.793900000000000006e+01 7.430899999999999750e+01 -3.985699999999999932e+01 -1.255865999999999971e+01 -1.462715725274807421e-01
-2.793499999999999872e+01 6.278199999999999648e+01 -6.031199999999999761e+01 -5.793997000000000064e+00 -1.672178358480353733e-01
-2.793499999999999872e+01 6.369400000000000261e+01 -6.031199999999999761e+01 -4.303226999999999691e+00 -1.672849707852860357e-01
-2.793400000000000105e+01 7.471599999999999397e+01 -6.963899999999999579e+01 1.381013000000000046e+00 -6.983444492307747109e-02
-2.793299999999999983e+01 6.130499999999999972e+01 -6.686700000000000443e+01 -3.400847999999999871e+00 -1.662929392012679752e-01
-2.793299999999999983e+01 6.153199999999999648e+01 -6.766599999999999682e+01 -3.815351000000000159e+00 -1.661531866964189308e-01
-2.793299999999999983e+01 6.282500000000000284e+01 -6.838700000000000045e+01 -2.821288000000000018e+00 -6.965022702248156727e-02
-2.792899999999999849e+01 6.176899999999999835e+01 -6.199699999999999989e+01 -7.059446999999999584e+00 -1.670588371365983316e-01
-2.792000000000000171e+01 6.313600000000000279e+01 -4.004800000000000182e+01 5.051768000000000036e+00 -1.457567668540829808e-01
-2.792000000000000171e+01 6.313600000000000279e+01 -3.918299999999999983e+01 3.608515999999999835e+00 -1.451274855054040525e-01
-2.791100000000000136e+01 5.845700000000000074e+01 -3.865699999999999648e+01 -3.300253000000000103e+00 -1.423414944182614383e-01
-2.790899999999999892e+01 7.214900000000000091e+01 -5.010199999999999676e+01 -6.574568000000000190e+00 -1.510788479230985859e-01
-2.790700000000000003e+01 7.143800000000000239e+01 -4.804599999999999937e+01 -9.429717999999999378e+00 -1.505949942176443290e-01
-2.790200000000000102e+01 6.315800000000000125e+01 -3.384100000000000108e+01 2.086583999999999861e+01 -1.416799164278761958e-01
-2.789999999999999858e+01 6.749399999999999977e+01 -6.343200000000000216e+01 -2.455456000000000027e-01 -5.609354904896206306e-02
-2.789699999999999847e+01 7.532500000000000284e+01 -4.083100000000000307e+01 -1.693249000000000137e+01 -1.467882759226610823e-01
-2.789600000000000080e+01 6.525600000000000023e+01 -6.700799999999999557e+01 -2.853091000000000044e+00 -5.668615558278163741e-02
-2.788800000000000168e+01 5.750000000000000000e+01 -6.085900000000000176e+01 -2.048827999999999872e+00 -1.660744004660485440e-01
-2.788800000000000168e+01 5.786099999999999710e+01 -6.255299999999999727e+01 5.263497000000000314e-01 -1.660943407725657128e-01
-2.788599999999999923e+01 7.804399999999999693e+01 -5.630400000000000205e+01 3.617647999999999975e+00 -5.431836805710761606e-02
-2.788400000000000034e+01 6.708299999999999841e+01 -3.225999999999999801e+01 8.879756999999999323e+01 -1.415907667423532967e-01
-2.788100000000000023e+01 6.642100000000000648e+01 -6.619700000000000273e+01 -4.517934999999999590e+00 -5.654313916677718155e-02
-2.787999999999999901e+01 6.260900000000000176e+01 -4.080199999999999960e+01 3.693409000000000275e-02 -1.459879717895365969e-01
-2.786599999999999966e+01 7.366299999999999670e+01 -3.893099999999999739e+01 -1.022104000000000035e+01 -1.457457123641431596e-01
-2.786199999999999832e+01 7.700499999999999545e+01 -3.082499999999999929e+01 1.545776000000000039e+01 -1.422831803117666771e-01
-2.785500000000000043e+01 6.338400000000000034e+01 -6.342000000000000171e+01 -2.258671000000000006e+01 -1.671855874710837797e-01
-2.785399999999999920e+01 7.174500000000000455e+01 -3.416100000000000136e+01 2.912154999999999916e+01 -1.431605531677383469e-01
-2.784799999999999898e+01 7.757899999999999352e+01 -5.702000000000000313e+01 -2.901603000000000154e+00 -5.446278092282468009e-02
-2.784400000000000119e+01 6.147599999999999909e+01 -4.156000000000000227e+01 4.966070000000000206e+00 -1.459310800503396677e-01
-2.783899999999999864e+01 6.630400000000000205e+01 -6.414300000000000068e+01 -1.136443000000000048e+01 -1.672088780861983870e-01
-2.783800000000000097e+01 6.545600000000000307e+01 -3.368800000000000239e+01 2.104379000000000133e+01 -1.420189948269632019e-01
-2.783699999999999974e+01 5.741700000000000159e+01 -5.691899999999999693e+01 -1.301051000000000002e+01 -1.659641106975878189e-01
-2.783599999999999852e+01 5.605700000000000216e+01 -5.864600000000000080e+01 -1.843382000000000076e+00 -1.654954137338306430e-01
-2.783599999999999852e+01 5.628399999999999892e+01 -5.944500000000000028e+01 -9.008298999999999168e+00 -1.656249987878439522e-01
-2.783599999999999852e+01 5.628399999999999892e+01 -5.784700000000000131e+01 -1.768196000000000012e+01 -1.655636163679685136e-01
-2.783599999999999852e+01 5.723299999999999699e+01 -6.039399999999999835e+01 -4.188730999999999760e+00 -1.660415963610497869e-01
-2.782799999999999940e+01 5.138199999999999790e+01 -4.806000000000000227e+01 2.387157000000000195e+00 -1.432343633088208057e-01
-2.782799999999999940e+01 6.025200000000000244e+01 -3.738600000000000279e+01 5.587481000000000364e+00 -1.427544712235093161e-01
-2.782799999999999940e+01 6.165200000000000102e+01 -3.738600000000000279e+01 -1.518710000000000004e+00 -1.435238309193175577e-01
-2.782700000000000173e+01 5.892600000000000193e+01 -3.806499999999999773e+01 7.627979999999999761e-01 -1.423235377660364009e-01
-2.782499999999999929e+01 5.998700000000000188e+01 -6.480899999999999750e+01 -3.363858000000000015e+00 -1.665129109421470133e-01
-2.781400000000000006e+01 7.409199999999999875e+01 -3.796099999999999852e+01 2.593077999999999772e-01 -1.452366186191303421e-01
-2.780600000000000094e+01 7.758499999999999375e+01 -5.391499999999999915e+01 3.740643000000000029e+01 -1.512222832415348328e-01
-2.780399999999999849e+01 6.203600000000000136e+01 -3.402400000000000091e+01 9.808179000000000869e+00 -1.415137833556318336e-01
-2.779599999999999937e+01 7.533799999999999386e+01 -4.147999999999999687e+01 -2.112621000000000038e+01 -1.471261187039301088e-01
-2.779100000000000037e+01 6.988400000000000034e+01 -6.656699999999999307e+01 -1.536966999999999972e+00 -5.635888345959338963e-02
-2.778999999999999915e+01 5.544899999999999807e+01 -4.450099999999999767e+01 1.021484000000000059e+00 -1.441211678195154222e-01
-2.778999999999999915e+01 7.727599999999999625e+01 -5.771999999999999886e+01 1.772138999999999909e+00 -5.459980251075609303e-02
-2.778399999999999892e+01 5.128099999999999881e+01 -4.992999999999999972e+01 2.135745000000000005e+00 -1.450944267528526399e-01
-2.778399999999999892e+01 5.128099999999999881e+01 -4.888000000000000256e+01 1.294667999999999930e+00 -1.439643380158848740e-01
-2.776800000000000068e+01 7.293000000000000682e+01 -5.026500000000000057e+01 -6.406856000000000328e+00 -1.510711158168788759e-01
-2.776200000000000045e+01 6.009300000000000352e+01 -4.062100000000000222e+01 8.415162000000000475e+00 -1.445802603383283258e-01
-2.775400000000000134e+01 6.786299999999999955e+01 -6.283700000000000330e+01 -4.609179000000000137e+00 -5.604086628046406338e-02
-2.775400000000000134e+01 6.786299999999999955e+01 -6.143699999999999761e+01 -9.825086000000000652e+00 -1.673900793614557514e-01
-2.775100000000000122e+01 6.111599999999999966e+01 -6.579399999999999693e+01 -3.993488000000000149e+00 -1.666566482275441130e-01
-2.774899999999999878e+01 7.530700000000000216e+01 -3.873599999999999710e+01 2.841480999999999923e+01 -1.456609997459520078e-01
-2.774800000000000111e+01 6.826200000000000045e+01 -3.165800000000000125e+01 1.012185000000000024e+01 -1.414694758476931491e-01
-2.773799999999999955e+01 7.526399999999999579e+01 -4.240299999999999869e+01 -1.907120000000000104e+01 -1.476330585997003841e-01
-2.773400000000000176e+01 6.246399999999999864e+01 -6.084700000000000131e+01 -4.673282999999999632e+00 -1.673686733651887082e-01
-2.772700000000000031e+01 7.518899999999999295e+01 -5.132200000000000273e+01 -2.925046999999999997e+01 -1.510624299211191512e-01
-2.770499999999999829e+01 5.980599999999999739e+01 -3.907600000000000051e+01 1.812227000000000032e+00 -1.434672218025641044e-01
-2.770299999999999940e+01 7.390099999999999625e+01 -6.963899999999999579e+01 9.314488000000000767e+00 -6.996262943957944069e-02
-2.770299999999999940e+01 7.553100000000000591e+01 -6.963899999999999579e+01 -9.327860000000000040e-01 -5.597254656588943750e-02
-2.770100000000000051e+01 7.603799999999999670e+01 -5.971000000000000085e+01 2.194557000000000091e+00 -5.499992189452451719e-02
-2.769699999999999918e+01 5.897599999999999909e+01 -3.703399999999999892e+01 1.541344999999999965e+00 -1.418184468032283319e-01
-2.769500000000000028e+01 6.816599999999999682e+01 -6.213700000000000045e+01 -7.706394000000000410e+00 -5.593131363070093925e-02
-2.768900000000000006e+01 7.801999999999999602e+01 -5.559599999999999653e+01 3.218704999999999927e+01 -5.425653619350002954e-02
-2.768499999999999872e+01 5.854099999999999682e+01 -5.575600000000000023e+01 -4.993322000000000038e+00 -1.663594233760759544e-01
-2.768400000000000105e+01 6.936499999999999488e+01 -6.713700000000000045e+01 -1.055644999999999945e+00 -5.650125494880029603e-02
-2.768199999999999861e+01 5.996399999999999864e+01 -3.966299999999999670e+01 8.417595000000000383e+00 -1.439197382724898278e-01
-2.768100000000000094e+01 5.892799999999999727e+01 -6.371300000000000097e+01 -1.172665999999999986e+00 -1.665499822875408653e-01
-2.767899999999999849e+01 6.669799999999999329e+01 -6.049099999999999966e+01 -5.921645999999999965e+00 -1.675145185781818369e-01
-2.767899999999999849e+01 7.800300000000000011e+01 -5.466299999999999670e+01 3.350509999999999877e+01 -1.513097516297209344e-01
-2.767599999999999838e+01 6.216100000000000136e+01 -6.154699999999999704e+01 -5.111423000000000272e+00 -1.673727441059885412e-01
-2.767099999999999937e+01 7.730400000000000205e+01 -5.885600000000000165e+01 1.091534000000000049e+01 -5.478831330540508138e-02
-2.767099999999999937e+01 7.374399999999999977e+01 -5.045499999999999829e+01 -6.018622999999999834e+00 -1.510488981335815217e-01
-2.766600000000000037e+01 7.246999999999999886e+01 -6.495099999999999341e+01 -4.739800999999999931e+00 -5.599280028011784094e-02
-2.766199999999999903e+01 5.708599999999999852e+01 -3.961200000000000188e+01 -1.323324999999999918e-01 -1.419960129661541337e-01
-2.766199999999999903e+01 7.087800000000000011e+01 -3.227900000000000347e+01 2.474136000000000024e+01 -1.421289551855239863e-01
-2.765800000000000125e+01 7.445900000000000318e+01 -6.365800000000000125e+01 -2.513961000000000112e+00 -5.565594043602285768e-02
-2.765599999999999881e+01 5.868500000000000227e+01 -3.620600000000000307e+01 3.322045999999999832e+00 -1.412185346296921107e-01
-2.765500000000000114e+01 7.459099999999999397e+01 -4.395400000000000063e+01 1.742309000000000108e+00 -1.485575370266914996e-01
-2.765500000000000114e+01 5.210699999999999932e+01 -4.671600000000000108e+01 3.218119000000000085e+01 -1.428347007327233631e-01
-2.765399999999999991e+01 7.462099999999999511e+01 -3.894599999999999795e+01 -2.388049000000000088e+00 -1.457395950682518759e-01
-2.764900000000000091e+01 6.477400000000000091e+01 -6.027199999999999847e+01 -2.405113000000000056e+00 -1.675648816372995731e-01
-2.764199999999999946e+01 6.768099999999999739e+01 -6.674399999999999977e+01 -4.076801999999999926e-01 -5.662696085923751843e-02
-2.764199999999999946e+01 7.171599999999999397e+01 -4.940200000000000102e+01 -6.824144000000000432e+00 -1.509956350120281454e-01
-2.763800000000000168e+01 7.423699999999999477e+01 -7.041400000000000148e+01 2.510191999999999979e+00 -6.975834248148916894e-02
-2.763800000000000168e+01 7.423699999999999477e+01 -6.886400000000000432e+01 1.160042999999999935e+01 -5.611047789318902856e-02
-2.763800000000000168e+01 7.519499999999999318e+01 -7.041400000000000148e+01 1.688755999999999924e+00 -6.972902547332408829e-02
-2.763800000000000168e+01 7.519499999999999318e+01 -6.886400000000000432e+01 1.093134000000000050e+01 -5.599763883203047465e-02
-2.763700000000000045e+01 6.446500000000000341e+01 -3.422800000000000153e+01 1.372607999999999961e+01 -1.420739372169949333e-01
-2.763100000000000023e+01 7.618999999999999773e+01 -3.082499999999999929e+01 5.561822000000000266e+00 -1.421544593265988976e-01
-2.763100000000000023e+01 7.781999999999999318e+01 -3.082499999999999929e+01 4.001368999999999687e+01 -1.423173060918871691e-01
-2.762800000000000011e+01 7.397899999999999920e+01 -3.704999999999999716e+01 3.831091999999999942e+00 -1.447289864031071627e-01
-2.762300000000000111e+01 6.964799999999999613e+01 -3.145599999999999952e+01 -1.147414000000000023e+01 -1.415686227020141186e-01
-2.761299999999999955e+01 7.615999999999999659e+01 -3.874600000000000222e+01 2.237141000000000091e+01 -1.456579192566016534e-01
-2.760999999999999943e+01 5.854800000000000182e+01 -5.176599999999999824e+01 -1.602621000000000073e+00 -1.656855888528539211e-01
-2.760200000000000031e+01 7.337199999999999989e+01 -4.484499999999999886e+01 -2.208696999999999910e+00 -1.491949331137623347e-01
-2.759400000000000119e+01 5.604500000000000171e+01 -5.146900000000000119e+01 8.646865000000000023e+00 -1.647001096876254400e-01
-2.759199999999999875e+01 5.834000000000000341e+01 -6.332800000000000296e+01 5.035195999999999561e-01 -1.665169304660341076e-01
-2.758999999999999986e+01 7.485099999999999909e+01 -3.792300000000000182e+01 9.846954999999999458e+00 -1.452050019377650325e-01
-2.758599999999999852e+01 7.473399999999999466e+01 -5.056300000000000239e+01 -7.208630000000000315e+00 -1.509771195788410514e-01
-2.758500000000000085e+01 5.905400000000000205e+01 -3.535600000000000165e+01 8.140242999999999896e+00 -1.410464412380171007e-01
-2.758399999999999963e+01 7.495999999999999375e+01 -4.310399999999999920e+01 -8.023640999999999579e+00 -1.480262951776487867e-01
-2.758099999999999952e+01 7.801200000000000045e+01 -5.771999999999999886e+01 -2.070380999999999805e+00 -5.459627617622542228e-02
-2.757700000000000173e+01 5.623400000000000176e+01 -4.193699999999999761e+01 4.377307999999999755e-01 -1.428807234013615424e-01
-2.756899999999999906e+01 7.314499999999999602e+01 -6.483599999999999852e+01 -6.964597000000000149e-01 -5.594453439108915127e-02
-2.756599999999999895e+01 7.652599999999999625e+01 -3.160000000000000142e+01 3.108998999999999846e+00 -1.424765068920192390e-01
-2.756599999999999895e+01 7.652599999999999625e+01 -3.005000000000000071e+01 3.238434999999999953e+00 -1.418854804135990799e-01
-2.756599999999999895e+01 7.748399999999999466e+01 -3.160000000000000142e+01 1.206769000000000069e+01 -1.425665095471759514e-01
-2.756599999999999895e+01 7.748399999999999466e+01 -3.005000000000000071e+01 8.704641999999999769e+00 -1.419872358590180406e-01
-2.756500000000000128e+01 5.254200000000000159e+01 -5.253600000000000136e+01 -1.035177000000000014e+00 -1.628846467845250223e-01
-2.756099999999999994e+01 5.981900000000000261e+01 -3.808599999999999852e+01 3.110214000000000034e+00 -1.429278712044783350e-01
-2.756099999999999994e+01 6.208500000000000085e+01 -3.808599999999999852e+01 -1.550391000000000075e+00 -1.440668973271033715e-01
-2.755300000000000082e+01 7.585099999999999909e+01 -3.950300000000000011e+01 -2.139133000000000173e+00 -1.460295225181462431e-01
-2.754799999999999827e+01 5.465500000000000114e+01 -5.226100000000000279e+01 -2.512859999999999872e+00 -1.642177667148472520e-01
-2.752899999999999991e+01 7.743300000000000693e+01 -3.786899999999999977e+01 1.746480999999999950e+00 -1.452412484773645818e-01
-2.752799999999999869e+01 7.148099999999999454e+01 -4.692099999999999937e+01 -6.601729999999999876e+00 -1.503605153999405530e-01
-2.752799999999999869e+01 7.168999999999999773e+01 -4.618500000000000227e+01 -2.795272000000000201e+00 -1.501456023815073704e-01
-2.752700000000000102e+01 5.954299999999999926e+01 -3.466199999999999903e+01 4.450115000000000265e+00 -1.410263854410961637e-01
-2.752499999999999858e+01 6.095199999999999818e+01 -3.732800000000000296e+01 1.166944999999999899e+00 -1.431663133775482322e-01
-2.751599999999999824e+01 6.417300000000000182e+01 -6.101200000000000045e+01 -3.051765000000000061e+00 -1.676618031637310824e-01
-2.751000000000000156e+01 7.507500000000000284e+01 -6.274900000000000233e+01 3.953850999999999782e+00 -5.553399169616123066e-02
-2.750799999999999912e+01 5.476299999999999812e+01 -4.486200000000000188e+01 3.961282999999999888e+00 -1.439040706707902240e-01
-2.750499999999999901e+01 6.823699999999999477e+01 -6.736499999999999488e+01 -2.059314999999999785e+00 -5.669905156503445010e-02
-2.750499999999999901e+01 7.119899999999999807e+01 -6.574399999999999977e+01 -7.831680000000000419e+00 -5.625936598215711820e-02
-2.750000000000000000e+01 6.593500000000000227e+01 -6.033700000000000330e+01 -5.209055000000000213e+00 -1.676766945989014990e-01
-2.748999999999999844e+01 6.480800000000000693e+01 -6.363499999999999801e+01 -1.739149000000000100e+01 -1.675435825681155511e-01
-2.748699999999999832e+01 6.243599999999999994e+01 -3.891599999999999682e+01 -1.114441000000000015e+00 -1.447099931742212298e-01
-2.746300000000000097e+01 6.206499999999999773e+01 -6.809699999999999420e+01 -3.628185000000000215e+00 -6.999637765908359177e-02
-2.746300000000000097e+01 6.358500000000000085e+01 -6.809699999999999420e+01 -1.546555000000000035e+01 -7.026983673993900115e-02
-2.746099999999999852e+01 6.270400000000000063e+01 -3.457600000000000051e+01 2.596900000000000208e+00 -1.418678792310535675e-01
-2.746000000000000085e+01 5.616899999999999693e+01 -4.319299999999999784e+01 -1.176617000000000024e+00 -1.437732438496553689e-01
-2.745400000000000063e+01 6.737800000000000011e+01 -6.214200000000000301e+01 -5.750860999999999557e+00 -1.676102457230555232e-01
-2.745299999999999940e+01 6.598300000000000409e+01 -6.671200000000000330e+01 -1.904554000000000080e+00 -5.683358601442924790e-02
-2.744800000000000040e+01 5.255299999999999727e+01 -4.606099999999999994e+01 7.802553999999999768e+00 -1.427862446993981294e-01
-2.744800000000000040e+01 6.464900000000000091e+01 -6.758899999999999864e+01 -3.439867000000000008e+00 -7.063152203274511431e-02
-2.744699999999999918e+01 6.190899999999999892e+01 -4.106900000000000261e+01 1.400107999999999908e+00 -1.459270376230121791e-01
-2.744500000000000028e+01 6.756199999999999761e+01 -3.171600000000000108e+01 3.366051000000000215e+01 -1.412944961888438766e-01
-2.744300000000000139e+01 6.152100000000000080e+01 -3.460199999999999676e+01 2.097913999999999835e+00 -1.416182126906979089e-01
-2.744200000000000017e+01 6.673699999999999477e+01 -6.365200000000000102e+01 -5.883136999999999617e+00 -5.637092995533262568e-02
-2.744000000000000128e+01 5.840500000000000114e+01 -3.529899999999999949e+01 2.751351999999999798e+00 -1.406275364949509943e-01
-2.743700000000000117e+01 6.286800000000000210e+01 -6.290800000000000125e+01 -1.239364999999999917e+01 -1.675786330876082308e-01
-2.743700000000000117e+01 6.286800000000000210e+01 -6.150800000000000267e+01 -5.383502000000000010e+00 -1.676616284829739179e-01
-2.742899999999999849e+01 6.274000000000000199e+01 -3.961599999999999966e+01 -1.122975999999999974e+00 -1.452661594425638525e-01
-2.742800000000000082e+01 7.481699999999999307e+01 -6.818999999999999773e+01 3.360625000000000195e+00 -5.607011657141540428e-02
-2.742399999999999949e+01 7.372299999999999898e+01 -6.465000000000000568e+01 -3.683457000000000203e+00 -5.591123531884770875e-02
-2.742200000000000060e+01 7.223600000000000421e+01 -3.455799999999999983e+01 2.589076999999999984e+01 -1.433088089401325926e-01
-2.741499999999999915e+01 7.372700000000000387e+01 -4.404800000000000182e+01 -1.277228000000000030e+00 -1.486452164474702242e-01
-2.741300000000000026e+01 5.744400000000000261e+01 -5.105599999999999739e+01 8.945846000000000353e-02 -1.653319946708795285e-01
-2.741199999999999903e+01 6.713100000000000023e+01 -6.119100000000000250e+01 -5.925892000000000159e+00 -1.676869016780661581e-01
-2.740899999999999892e+01 7.535399999999999920e+01 -6.101200000000000045e+01 7.962628999999999735e+00 -5.531628318519102999e-02
-2.740800000000000125e+01 6.226200000000000045e+01 -4.029699999999999704e+01 -8.996985000000000454e+00 -1.456156183225510159e-01
-2.740599999999999881e+01 5.232800000000000296e+01 -5.186099999999999710e+01 -1.409692999999999918e-01 -1.627674685989101977e-01
-2.740500000000000114e+01 6.594700000000000273e+01 -3.329200000000000159e+01 2.509547999999999845e+01 -1.417738429549981194e-01
-2.740500000000000114e+01 6.630800000000000693e+01 -3.255599999999999739e+01 1.964846999999999966e+01 -1.414638801805540025e-01
-2.740399999999999991e+01 7.523300000000000409e+01 -6.183700000000000330e+01 2.508057000000000158e+01 -5.543692799172574015e-02
-2.740399999999999991e+01 7.660599999999999454e+01 -3.783599999999999852e+01 1.445293000000000028e+01 -1.451842164475310726e-01
-2.739699999999999847e+01 7.360500000000000398e+01 -3.618500000000000227e+01 3.112925999999999860e+00 -1.442247121946357846e-01
-2.739499999999999957e+01 7.844100000000000250e+01 -5.673700000000000188e+01 -1.393460999999999927e+01 -5.446574242679571437e-02
-2.739099999999999824e+01 5.383599999999999852e+01 -4.531700000000000017e+01 6.316958999999999769e+00 -1.434604343495952949e-01
-2.739099999999999824e+01 7.571999999999999886e+01 -3.780199999999999960e+01 2.493346000000000018e+01 -1.451385461316629655e-01
-2.738400000000000034e+01 6.704000000000000625e+01 -6.295199999999999818e+01 -2.997497000000000078e+00 -5.626335132735953148e-02
-2.738200000000000145e+01 5.333100000000000307e+01 -5.242499999999999716e+01 1.182549999999999990e-01 -1.636093953126525891e-01
-2.737900000000000134e+01 6.256499999999999773e+01 -6.220799999999999841e+01 -1.248196000000000083e+01 -1.676609720191221675e-01
-2.737000000000000099e+01 7.697700000000000387e+01 -3.868200000000000216e+01 1.075450000000000017e+01 -1.455969675342064229e-01
-2.736599999999999966e+01 5.681700000000000017e+01 -5.987599999999999767e+01 -4.384572999999999610e+00 -1.664323073780829831e-01
-2.736599999999999966e+01 5.681700000000000017e+01 -5.741599999999999682e+01 -1.605101000000000155e+01 -1.663022414301754681e-01
-2.736599999999999966e+01 5.673599999999999710e+01 -4.112299999999999756e+01 -3.061582000000000026e+00 -1.427538398478802595e-01
