6.399000000000000021e+00 6.434700000000000308e+00 -6.123300000000000409e+00 1.239543000000000061e+00 -3.629724660490868393e-01
6.399000000000000021e+00 9.185299999999999798e+00 -6.123300000000000409e+00 8.246264999999999290e+00 -3.629906490675987030e-01
6.399499999999999744e+00 3.982200000000000273e+01 2.604299999999999837e+00 3.820028000000000201e+00 1.311096889275099042e-01
6.402099999999999902e+00 3.767000000000000171e+01 3.068900000000000006e+01 2.171962999999999866e+00 2.747579740562410278e-01
6.402400000000000091e+00 1.739099999999999824e+01 1.954100000000000037e+01 1.600572999999999979e+01 -1.216976871545220468e-01
6.412700000000000067e+00 2.212399999999999878e+01 2.386499999999999844e+01 -2.666174999999999962e+00 -1.207276648711242267e-01
6.414299999999999891e+00 3.580599999999999739e+01 1.743700000000000028e+00 4.531496999999999886e+00 -4.152307834506292761e-02
6.417900000000000382e+00 1.422499999999999964e+01 -7.036599999999999966e+00 1.842853000000000074e+00 -1.114543883332510810e-01
6.418000000000000149e+00 3.263100000000000023e+01 1.428599999999999959e+01 3.249378000000000100e+01 -4.066682986883025930e-02
6.418000000000000149e+00 3.489600000000000080e+01 1.515199999999999925e+01 9.565808999999999784e+00 2.022015016800408349e-01
6.418599999999999639e+00 1.955900000000000105e+01 -2.542300000000000004e+00 -9.015959000000000501e+00 -1.099986471450065811e-01
6.421700000000000408e+00 3.957000000000000028e+01 4.514400000000000190e+00 9.084557999999999467e+00 1.308212003099084864e-01
6.421999999999999709e+00 1.445100000000000051e+01 -6.225500000000000256e+00 1.634599000000000046e+01 -1.113505449392934443e-01
6.422600000000000087e+00 2.859900000000000020e+01 3.207000000000000028e+01 3.852763000000000204e+01 -1.169403602287093086e-01
6.423000000000000043e+00 2.090899999999999892e+01 -1.415099999999999980e+01 -1.018475999999999937e+00 -2.981436373232662640e-01
6.423300000000000232e+00 1.719900000000000162e+01 8.756000000000000227e+00 1.312401000000000018e+01 -1.103924463895922664e-01
6.426000000000000156e+00 3.799399999999999977e+01 9.589999999999999636e-01 -1.625485000000000069e+00 -4.436791375458397357e-02
6.427200000000000024e+00 2.166000000000000014e+01 -6.921800000000000175e+00 -6.154842000000000368e-01 -2.978988135553011785e-01
6.427299999999999791e+00 2.707100000000000151e+01 3.192299999999999827e+01 -7.117945999999999884e+00 -5.744216139054235393e-02
6.435500000000000220e+00 1.613200000000000145e+01 -4.409200000000000230e+00 1.030259999999999998e+01 -1.108820583404578619e-01
6.437700000000000422e+00 1.727599999999999980e+01 -8.727000000000000313e+00 -2.902118999999999893e+00 -1.111317362003362286e-01
6.438600000000000101e+00 2.862099999999999866e+01 -1.968499999999999917e+00 -5.841247000000000078e+00 -2.205339144574208488e-01
6.442000000000000171e+00 1.543999999999999950e+01 2.473199999999999932e+01 -1.747812000000000054e+01 -7.491570651607065701e-02
6.442700000000000315e+00 7.809999999999999609e+00 -7.044100000000000250e+00 1.049924999999999997e+00 -3.629935491753225607e-01
6.447000000000000064e+00 2.366799999999999926e+01 2.597500000000000142e+01 -1.060403999999999947e+01 -1.007708674519982583e-01
6.450700000000000323e+00 3.954999999999999716e+01 1.673000000000000043e+00 1.050600000000000023e+01 1.314763529592825608e-01
6.452899999999999636e+00 6.024600000000000399e+00 1.710000000000000142e+01 2.011361000000000132e+01 -1.234038741885690460e-01
6.453599999999999781e+00 2.522500000000000142e+01 2.850400000000000134e+01 -1.733049000000000062e+00 -6.349862650512157550e-03
6.453899999999999970e+00 5.312400000000000233e+01 2.597500000000000142e+01 1.354787999999999926e+01 -2.018547111478302958e-01
6.455799999999999983e+00 1.387599999999999945e+01 1.342300000000000004e+01 9.473380999999999830e+00 -1.146652098159335054e-01
6.456999999999999851e+00 1.810900000000000176e+01 -2.528000000000000025e+00 2.161160000000000192e+00 -1.103454205330288984e-01
6.457399999999999807e+00 2.219200000000000017e+01 -1.541900000000000048e+00 -3.128019000000000105e+01 -2.976797743577694333e-01
6.457399999999999807e+00 2.219200000000000017e+01 -6.766499999999999737e-01 -1.646612000000000009e+01 -2.976152478661864276e-01
6.460700000000000109e+00 1.622299999999999898e+01 1.884100000000000108e+01 -6.691874000000000322e+00 -1.215263201378989494e-01
6.460700000000000109e+00 1.708800000000000097e+01 1.884100000000000108e+01 1.291268999999999956e+01 -1.207280309847171829e-01
6.461199999999999832e+00 6.088000000000000078e+00 -5.365000000000000213e+00 4.236299999999999955e+00 -3.629651656154585515e-01
6.461299999999999599e+00 1.417500000000000071e+01 -2.321499999999999897e+00 8.448667000000000371e+00 -1.112170813171599743e-01
6.461500000000000021e+00 5.387400000000000411e+00 8.308199999999999363e+00 3.162995000000000001e+00 -2.991596905725049105e-01
6.466199999999999726e+00 3.201400000000000290e+01 1.176299999999999901e+00 -7.652624000000000315e+00 -2.210572172520964274e-01
6.467600000000000016e+00 4.804200000000000159e+01 3.110500000000000043e+01 -8.493441999999999936e+00 4.715429028214915969e-02
6.471499999999999808e+00 3.452300000000000324e+01 2.487800000000000011e+00 5.898289000000000115e+00 -3.981516871598677482e-02
6.472199999999999953e+00 3.986200000000000188e+01 5.567199999999999704e+00 -1.225714999999999932e+01 1.303017846373604738e-01
6.472800000000000331e+00 3.004899999999999949e+01 -6.163499999999999535e-01 -4.937909000000000326e+00 -2.207256597228491324e-01
6.475799999999999557e+00 1.272600000000000087e+01 -1.446499999999999897e+00 1.121884999999999977e+01 -1.115912445806198361e-01
6.475900000000000212e+00 3.507600000000000051e+01 1.166799999999999926e+01 -7.853712999999999944e+00 -4.652771638163931411e-02
6.476099999999999746e+00 2.399099999999999966e+01 8.522999999999999687e+00 1.425558000000000014e+01 -3.982343540485249744e-01
6.476899999999999658e+00 1.593699999999999939e+01 1.242399999999999949e+01 2.403291000000000111e+01 -1.127484832839765333e-01
6.479499999999999815e+00 7.057500000000000107e+00 1.748000000000000043e+01 1.157472999999999974e+00 -3.010748924586729158e-01
6.479800000000000004e+00 4.408500000000000085e+01 1.235899999999999999e+01 -7.560335000000000250e-01 1.706992891723345118e-01
6.480000000000000426e+00 1.789000000000000057e+01 2.623799999999999955e+01 -4.783281000000000205e+01 -1.896304358261254319e-01
6.482499999999999929e+00 2.600000000000000000e+01 1.844600000000000151e+01 1.067803999999999931e+01 -3.182116367477598740e-01
6.483200000000000074e+00 2.985000000000000142e+01 3.236899999999999977e+01 1.210815999999999981e+01 1.914260717982015358e-01
6.487899999999999778e+00 3.381099999999999994e+01 1.345700000000000074e+01 1.186095000000000077e+01 -4.453847191447410370e-02
6.488100000000000200e+00 5.405899999999999750e+01 2.495400000000000063e+01 -2.227551000000000059e+00 -2.013751878772826465e-01
6.489700000000000024e+00 2.331899999999999906e+01 2.671900000000000119e+01 -2.912621999999999822e+00 -1.029486453682143116e-01
6.490400000000000169e+00 2.640299999999999869e+01 2.935799999999999965e+00 1.351773999999999987e+01 -2.197295616194694379e-01
6.490700000000000358e+00 2.084499999999999886e+01 3.086700000000000088e+01 -1.614017000000000124e+01 1.544847109965225094e-03
6.490700000000000358e+00 2.236499999999999844e+01 3.086700000000000088e+01 -3.602170999999999879e+01 -8.953325786867764868e-02
6.490700000000000358e+00 4.061699999999999733e+01 8.009299999999999642e+00 -2.847072999999999965e+01 3.139634852892969064e-01
6.494399999999999729e+00 1.674399999999999977e+01 2.105600000000000094e+01 -1.599054999999999893e+00 -1.290065955570350587e-01
6.495400000000000063e+00 1.805999999999999872e+01 -2.483799999999999897e-01 2.304015000000000057e+01 -1.102257625233047100e-01
6.498599999999999710e+00 2.038899999999999935e+01 -1.380100000000000016e+01 -3.334877999999999787e+00 -2.980411938403416117e-01
6.500000000000000000e+00 4.216299999999999670e+01 1.045299999999999940e+01 -6.379730000000000345e+00 3.146684735034876446e-01
6.501900000000000013e+00 1.491999999999999993e+01 2.286499999999999844e+01 -9.439147999999999428e+00 -6.611255956180780990e-02
6.501900000000000013e+00 1.491999999999999993e+01 2.392699999999999960e+01 -1.536872999999999934e+01 -6.995829675358414268e-02
6.503700000000000259e+00 1.803300000000000125e+01 -8.270099999999999341e+00 -4.474645999999999901e+00 -1.110668130613539778e-01
6.503700000000000259e+00 1.956899999999999906e+01 -6.735000000000000320e+00 -1.176448000000000071e+01 -1.106692598569843089e-01
6.504599999999999937e+00 1.179899999999999949e+01 -6.736600000000000366e-01 1.367140999999999984e+01 -1.119078363419918620e-01
6.507200000000000095e+00 1.888900000000000023e+00 1.073000000000000043e+01 5.953980999999999746e+00 -3.001718948788046903e-01
6.509100000000000108e+00 1.425500000000000078e+01 1.958800000000000097e+01 -4.466653999999999769e+01 -5.717544071633177960e-02
6.511999999999999567e+00 1.631899999999999906e+01 1.166699999999999982e+01 2.601993999999999829e+01 -1.122757770282799550e-01
6.512900000000000134e+00 7.006300000000000416e+00 2.693900000000000183e+00 4.328329000000000093e+00 -2.984901502164033493e-01
6.514400000000000190e+00 1.902700000000000102e+01 4.589500000000000135e+00 2.667794999999999916e+01 -1.097622840301886171e-01
6.514999999999999680e+00 7.312899999999999956e+00 1.852600000000000025e+00 6.379326999999999970e+00 -2.984223392977913836e-01
6.515900000000000247e+00 3.194300000000000139e+01 2.630700000000000260e-01 -8.469773999999999248e+00 -2.210754449864373028e-01
6.516000000000000014e+00 3.428699999999999903e+01 3.030799999999999983e+01 1.836886999999999937e+00 3.800000000000000600e-01
6.520599999999999952e+00 2.003300000000000125e+01 2.274800000000000111e+01 -1.140068999999999999e+00 -1.398720348295995064e-01
6.520599999999999952e+00 2.089900000000000091e+01 2.274800000000000111e+01 4.973931000000000324e+00 -1.327696917577334268e-01
6.520800000000000374e+00 3.369700000000000273e+01 1.031400000000000006e+01 8.662770999999999333e+00 -4.144513302617881811e-02
6.520800000000000374e+00 3.516899999999999693e+01 1.031400000000000006e+01 1.860263000000000000e+00 -4.548179104273271378e-02
6.523900000000000254e+00 3.494299999999999784e+01 1.421499999999999986e+01 5.653844999999999565e-01 2.024609995439944632e-01
6.527000000000000135e+00 2.360399999999999920e+01 2.752499999999999858e+01 -3.276480999999999977e+00 -9.675235265831985676e-02
6.527300000000000324e+00 3.248100000000000165e+01 1.562400000000000055e+01 -1.791949999999999932e+01 -4.189305606121321995e-02
6.527300000000000324e+00 3.474600000000000222e+01 1.562400000000000055e+01 8.311019999999999186e+00 2.024750063920482401e-01
6.528999999999999915e+00 4.246300000000000097e+01 1.137899999999999956e+01 -1.468839000000000006e+00 3.148979741498092455e-01
6.530899999999999928e+00 2.908899999999999864e+01 -1.446900000000000075e+00 -5.734703999999999802e+00 -2.206072907540290173e-01
6.530999999999999694e+00 1.449000000000000021e+01 -8.598300000000000054e+00 5.538691000000000031e+00 -1.117033418715420306e-01
6.531399999999999650e+00 2.431700000000000017e+01 7.675500000000000433e+00 7.148988000000000120e+00 -3.185549530021880016e-01
6.533000000000000362e+00 1.813800000000000168e+01 2.886400000000000077e+01 3.255020999999999987e+01 -6.155988242090417589e-02
6.533000000000000362e+00 1.813800000000000168e+01 2.982199999999999918e+01 -1.566589999999999927e+00 -6.477162513116657694e-02
6.533599999999999852e+00 1.961400000000000077e+01 1.054800000000000004e+01 2.004357999999999862e+01 -1.102225760981393049e-01
6.534399999999999764e+00 2.368700000000000117e+01 9.223000000000000753e+00 1.919292000000000087e+01 -3.982258505564220119e-01
6.535199999999999676e+00 5.381099999999999994e+01 2.406099999999999994e+01 5.948932000000000109e+00 -2.021973287570543454e-01
6.540399999999999991e+00 1.989000000000000057e+01 2.136599999999999966e+01 2.236317999999999984e+01 -1.387876281321780148e-01
6.541000000000000369e+00 2.049200000000000088e+01 -6.713099999999999845e+00 -1.786886999999999892e+00 -2.976196021304372552e-01
6.542200000000000237e+00 1.701699999999999946e+01 8.088599999999999568e+00 2.323307000000000144e+01 -1.108452716150791773e-01
6.543099999999999916e+00 1.822400000000000020e+01 1.054100000000000037e+01 2.073345000000000127e+01 -1.109292994022369888e-01
6.543999999999999595e+00 8.964000000000000412e+00 1.430900000000000061e+00 1.355898000000000003e+01 -3.628941414993868131e-01
6.544900000000000162e+00 3.345199999999999818e+01 2.416599999999999859e+00 -5.578030999999999962e-02 -3.816748112184882580e-02
6.551700000000000301e+00 1.046499999999999986e+01 9.450699999999999656e-01 1.161077000000000048e+01 -1.124800295327125221e-01
6.555299999999999905e+00 2.127899999999999991e+01 1.072100000000000009e+01 2.593929999999999936e+01 -3.983146959331794745e-01
6.555299999999999905e+00 2.267899999999999849e+01 1.072100000000000009e+01 2.460022000000000020e+01 -3.982541154420394247e-01
6.557199999999999918e+00 9.397999999999999687e+00 1.970799999999999841e+01 -2.347904000000000124e+01 -3.014331405696246136e-01
6.557299999999999685e+00 6.759299999999999642e+00 -2.987600000000000033e+00 -1.104756000000000071e+00 -3.629450296413253563e-01
6.557699999999999640e+00 1.518099999999999916e+01 1.323499999999999943e+01 2.726040000000000063e+01 -1.142993649406186807e-01
6.562000000000000277e+00 1.926500000000000057e+01 -7.434999999999999609e+00 -1.078511999999999915e+01 -1.108865449316721596e-01
6.562100000000000044e+00 2.575400000000000134e+01 2.908599999999999852e+01 -6.989624000000000059e+00 -9.886706253119489224e-03
6.562100000000000044e+00 3.279800000000000182e+01 3.044500000000000028e+01 2.638461999999999752e-01 3.799999999999999489e-01
6.562999999999999723e+00 3.116700000000000159e+01 3.135399999999999920e+01 -1.167666000000000093e+00 1.876933312039223423e-01
6.563399999999999679e+00 3.361399999999999721e+01 1.638200000000000145e+01 6.035505999999999815e+00 -4.843340676773801728e-02
6.565100000000000158e+00 4.359599999999999653e+01 1.213700000000000045e+01 6.024651999999999674e+00 3.154202730638829277e-01
6.565400000000000347e+00 2.028099999999999881e+01 -1.316099999999999959e+01 -2.801025999999999794e+00 -2.979884207979113797e-01
6.566099999999999604e+00 1.410800000000000054e+01 -7.840600000000000236e+00 -1.585820999999999925e+00 -1.117642034026849751e-01
6.566699999999999982e+00 1.082800000000000012e-01 1.515600000000000058e+01 5.761140000000000150e+00 2.791186123853565126e-01
6.569899999999999629e+00 1.550999999999999979e+01 1.873199999999999932e+01 -2.604998000000000147e+01 -1.229764753027364765e-01
6.572899999999999743e+00 1.939199999999999946e+01 3.066199999999999903e+01 -1.371998999999999924e+01 -4.086008917751911967e-02
6.578899999999999970e+00 1.973000000000000043e+01 2.344800000000000040e+01 -1.665594000000000108e+01 -1.446949805166855563e-01
6.579100000000000392e+00 3.486500000000000199e+01 9.614000000000000767e+00 5.042455000000000354e+00 -4.420887975798212799e-02
6.579100000000000392e+00 3.486500000000000199e+01 1.101399999999999935e+01 2.996169000000000193e-01 -4.550402256415936320e-02
6.582699999999999996e+00 4.606700000000000017e+01 1.272400000000000020e+01 -1.657685000000000075e+00 1.733689873939252279e-01
6.583700000000000330e+00 3.577000000000000313e+01 3.069200000000000017e+01 7.263614000000000459e-01 3.016000373308758142e-01
6.583899999999999864e+00 2.032600000000000051e+01 -2.486899999999999888e+00 -1.038195999999999941e+01 -1.101962315044507923e-01
6.584500000000000242e+00 2.100100000000000122e+01 3.562499999999999695e-02 -4.273468000000000266e-01 -1.098075432741446172e-01
6.584600000000000009e+00 3.266100000000000136e+01 7.466099999999999959e+00 7.024709999999999788e+00 -3.767576433272877556e-02
6.586400000000000254e+00 1.862999999999999901e+01 2.060800000000000054e+01 2.757091000000000136e+01 -1.454300889003194708e-01
6.586700000000000443e+00 7.734099999999999753e+00 1.830000000000000071e+01 -5.940768000000000271e+00 -3.012261730457073683e-01
6.589699999999999669e+00 2.401399999999999935e+01 6.975500000000000256e+00 -7.181066999999999645e+00 -3.981882350081258348e-01
6.594100000000000072e+00 1.759100000000000108e+01 5.853799999999999670e+00 1.521724000000000032e+01 -1.105264967670102072e-01
6.598700000000000010e+00 1.958599999999999852e+01 2.066600000000000037e+01 3.089795000000000158e+01 -1.401290754708000297e-01
6.598700000000000010e+00 1.958599999999999852e+01 2.206599999999999895e+01 3.657757999999999843e+00 -1.426429824259092538e-01
6.604499999999999815e+00 1.660800000000000054e+01 1.087299999999999933e+01 2.600198999999999927e+01 -1.122057008193188682e-01
6.608900000000000219e+00 2.681099999999999994e+01 -4.392500000000000071e+00 -1.314035999999999982e+00 -2.204492751785925297e-01
6.609300000000000175e+00 6.508399999999999963e+00 5.324399999999999800e+00 -3.469666000000000139e-01 -2.986803621652150964e-01
6.611699999999999910e+00 4.574099999999999966e+01 3.187099999999999866e+01 -3.618489999999999895e+01 2.368819058624179602e-02
6.613699999999999690e+00 2.201500000000000057e+01 -7.719000000000000306e+00 2.608847000000000249e-01 -2.980191095915365462e-01
6.613699999999999690e+00 2.306500000000000128e+01 -7.719000000000000306e+00 4.317355000000000054e+00 -2.982486663984121322e-01
6.620700000000000252e+00 3.152899999999999991e+01 8.224399999999999267e+00 8.405326000000000519e+00 -3.517183896783758479e-02
6.621400000000000396e+00 5.208599999999999852e+01 2.615200000000000102e+01 6.144472000000000378e+00 -2.037922720666056065e-01
6.623000000000000220e+00 5.064900000000000091e+01 1.665399999999999991e+01 2.945917000000000119e-01 -5.197441495227751729e-03
6.623000000000000220e+00 5.219899999999999807e+01 1.665399999999999991e+01 9.595801000000000469e-01 -3.433714050926407659e-03
6.625300000000000189e+00 1.893599999999999994e+01 -8.195000000000000284e+00 -4.671922000000000352e+00 -1.111130258202719101e-01
6.630300000000000082e+00 1.536700000000000088e+01 -1.024900000000000055e+01 -1.837876999999999938e+01 -1.118360082180121229e-01
6.632399999999999629e+00 1.737000000000000099e+01 2.125100000000000122e+01 3.982584000000000124e+00 -1.311947735524578718e-01
6.632399999999999629e+00 1.823499999999999943e+01 1.985099999999999909e+01 3.428567999999999927e+01 -1.245750029130895387e-01
6.635299999999999976e+00 3.119099999999999895e+01 -3.317200000000000149e-01 -1.247697999999999929e+01 -2.209743541080373963e-01
6.640600000000000058e+00 4.030400000000000205e+01 3.088899999999999935e+01 -1.112907000000000046e+01 2.908160701512442770e-01
6.641000000000000014e+00 1.516999999999999993e+01 -1.072700000000000031e+01 -1.773729000000000156e+01 -1.119200214048347297e-01
6.642599999999999838e+00 3.138400000000000034e+01 9.134100000000000108e+00 1.323551999999999929e+01 -3.494639712538579607e-02
6.643399999999999750e+00 1.970100000000000051e+01 4.695700000000000429e+00 2.675678999999999874e+01 -1.099802234685842706e-01
6.644000000000000128e+00 7.935100000000000264e+00 6.227699999999999569e+00 -1.039502000000000065e-01 -2.984883447528414169e-01
6.649200000000000443e+00 8.994199999999999307e+00 -3.021999999999999797e+00 -1.109436999999999962e+01 -3.629678538200681870e-01
6.650000000000000355e+00 1.606000000000000094e+00 1.586800000000000033e+01 8.401664999999999495e+00 2.797622863635499391e-01
6.650299999999999656e+00 3.306300000000000239e+01 1.023399999999999999e+01 1.503510999999999953e+01 -3.995730889064878777e-02
6.650999999999999801e+00 4.504800000000000182e+01 8.242000000000000881e+00 -2.844129000000000129e+00 1.712012775431786538e-01
6.650999999999999801e+00 2.859299999999999997e+01 5.921000000000000263e+00 1.697521000000000058e+01 -2.200796242551868453e-01
6.650999999999999801e+00 2.978399999999999892e+01 5.256999999999999673e+00 1.429665999999999926e+01 -2.204517771776192403e-01
6.655199999999999783e+00 1.821199999999999974e+01 2.139600000000000080e+01 1.419843000000000011e+01 -1.503373710266524832e-01
6.657600000000000406e+00 6.246599999999999930e+00 4.356399999999999828e+00 2.820224000000000064e+00 -2.986606992877206546e-01
6.660700000000000287e+00 2.316899999999999959e+00 9.928699999999999193e+00 5.386118999999999879e+00 -2.999252163598247756e-01
6.661800000000000388e+00 3.420700000000000074e+01 8.781100000000000350e+00 5.189957999999999849e+00 -4.214589870696125451e-02
6.661900000000000155e+00 1.291000000000000014e+01 1.143500000000000050e+01 1.203293000000000035e+01 -1.148224852969161186e-01
6.662799999999999834e+00 1.630399999999999849e+01 1.017300000000000004e+01 2.347924000000000078e+01 -1.123379754802101838e-01
6.662899999999999601e+00 2.405799999999999983e+01 1.516999999999999993e+01 2.305884000000000000e+01 -3.170393177492060177e-01
6.664699999999999847e+00 2.832900000000000063e+01 2.676000000000000156e+00 1.719522999999999868e+01 -2.202391365072207952e-01
6.671299999999999564e+00 2.086499999999999844e+01 5.919299999999999784e+00 1.898494000000000170e+01 -1.097631910071946715e-01
6.675500000000000433e+00 2.094399999999999906e+01 -2.275599999999999845e+00 -1.461303999999999981e+01 -1.102604278575712027e-01
6.676899999999999835e+00 2.001500000000000057e+01 -1.415099999999999980e+01 -1.812133999999999912e+00 -2.979969114551523357e-01
6.676899999999999835e+00 2.180300000000000082e+01 -1.415099999999999980e+01 5.572600999999999694e+00 -2.982830290363583381e-01
6.677100000000000257e+00 7.924000000000000377e+00 -2.866400000000000059e+00 -7.903891999999999918e+00 -3.629593520809393792e-01
6.679999999999999716e+00 2.029100000000000037e+01 2.543100000000000094e+01 -1.394646999999999970e+01 -1.465367715531465942e-01
6.682699999999999640e+00 3.897200000000000131e+01 9.519600000000000284e-01 9.144020000000000481e-01 -4.601289396232771667e-02
6.683699999999999974e+00 5.350099999999999767e+01 1.860800000000000054e+01 5.796238999999999919e+00 -6.072893997376755835e-04
6.684999999999999609e+00 3.581199999999999761e+01 1.166799999999999926e+01 -4.121620000000000061e+00 1.327345965452301491e-01
6.689400000000000013e+00 1.536999999999999922e+01 -5.135600000000000165e+00 3.344667999999999974e+00 -1.115379218052274801e-01
6.690500000000000114e+00 1.856099999999999994e+01 2.212500000000000000e+01 -3.427340000000000053e+00 -1.507084635343227397e-01
6.698900000000000077e+00 2.519099999999999895e+01 1.441099999999999959e+01 1.740358000000000160e+01 -3.183011663418239823e-01
6.700899999999999856e+00 3.168799999999999883e+01 9.834099999999999397e+00 1.534905000000000008e+01 -3.604891608525023772e-02
6.706000000000000405e+00 2.818799999999999883e+01 -2.668499999999999872e+00 -3.952261000000000024e+00 -2.205675626846001491e-01
6.706999999999999851e+00 3.347999999999999687e+01 3.048799999999999955e+01 -4.303423000000000442e+00 3.800000000000000044e-01
6.707900000000000418e+00 4.127900000000000347e+01 8.842999999999999972e+00 -2.000160999999999945e+01 3.142225663927592505e-01
6.708099999999999952e+00 2.995299999999999940e+01 4.292500000000000426e+00 1.276186000000000043e+01 -2.205582855146970833e-01
6.710700000000000109e+00 3.389800000000000324e+01 1.140300000000000047e+01 -9.492065000000000197e+00 -4.342662015285508187e-02
6.714000000000000412e+00 2.443400000000000105e+01 1.997400000000000020e+01 1.196599999999999930e+01 -3.154910496050329916e-01
6.714000000000000412e+00 2.562500000000000000e+01 1.930999999999999872e+01 7.814753999999999756e+00 -3.177490075469654451e-01
6.714999999999999858e+00 6.603900000000000325e+00 3.518299999999999983e+00 8.626405000000000101e+00 -2.985605789565955459e-01
6.716099999999999959e+00 2.142399999999999949e+01 2.618900000000000006e+01 -1.127382000000000106e+00 -1.338864666370524481e-01
6.722199999999999953e+00 1.312700000000000067e+01 1.068599999999999994e+01 2.137857999999999947e+01 -1.145192934518682870e-01
6.723499999999999588e+00 1.829100000000000037e+01 4.589500000000000135e+00 2.652890000000000015e+01 -1.106471710525613883e-01
6.723499999999999588e+00 3.046900000000000119e+01 3.213300000000000267e+01 3.286627000000000187e+00 1.886309492970405510e-01
6.724199999999999733e+00 9.384299999999999642e+00 -3.922000000000000153e+00 -9.674322000000000088e+00 -3.629869890095650531e-01
6.725500000000000256e+00 2.678999999999999915e+01 2.566399999999999793e+00 1.700055000000000049e+01 -2.199276794692960890e-01
6.725500000000000256e+00 2.681000000000000050e+00 9.050700000000000855e+00 7.123370999999999453e-01 -2.997099988863017872e-01
6.727000000000000313e+00 1.680799999999999983e+01 -9.484500000000000597e+00 -4.041256999999999877e+00 -1.116871923476340928e-01
6.727299999999999613e+00 5.450999999999999801e+01 1.942500000000000071e+01 7.211987999999999843e+00 1.183697388620664776e-03
6.728200000000000180e+00 4.747899999999999920e+01 1.611100000000000065e+01 -5.046939000000000064e+00 -9.391057120852152468e-03
6.728900000000000325e+00 9.138400000000000745e+00 -4.801999999999999602e+00 2.034116000000000035e+00 -3.629952129296297736e-01
6.729899999999999771e+00 4.844599999999999795e+01 2.748499999999999943e+01 -6.484393000000000518e-01 2.475343903330887163e-03
6.729899999999999771e+00 1.786599999999999966e+01 5.010699999999999932e+00 1.294636999999999993e+01 -1.108267479220343271e-01
6.730000000000000426e+00 2.718499999999999872e+01 5.954600000000000115e+00 7.331280999999999715e+00 -3.200528244691738800e-01
6.734899999999999665e+00 1.698400000000000176e+01 9.878199999999999648e+00 2.560727999999999938e+01 -1.122215171590233568e-01
6.735699999999999577e+00 2.275300000000000011e+01 2.455600000000000094e+01 -3.152308000000000110e+00 -1.178588029681315874e-01
6.739899999999999558e+00 5.908999999999999808e+00 -3.968199999999999950e+00 -3.572263999999999995e-01 -3.629642233543163288e-01
6.741999999999999993e+00 5.319700000000000273e+01 1.790800000000000125e+01 3.205875000000000341e+01 -1.487801355436594187e-03
6.743199999999999861e+00 3.464300000000000068e+01 1.236800000000000033e+01 -3.071734000000000009e+01 -4.686515889466034979e-02
6.743199999999999861e+00 3.550900000000000034e+01 1.096799999999999997e+01 -2.164290000000000103e-01 -4.770217214986998550e-02
6.743199999999999861e+00 3.550900000000000034e+01 1.236800000000000033e+01 -7.720809000000000033e+00 -4.953225909114047920e-02
6.745000000000000107e+00 4.620000000000000107e+00 8.276899999999999480e+00 2.827278999999999876e+00 -2.992579081204899127e-01
6.745599999999999596e+00 4.885300000000000153e+01 2.703399999999999892e+01 -9.192323000000000022e+00 2.962011907726938391e-03
6.745599999999999596e+00 5.004399999999999693e+01 2.637000000000000099e+01 -1.472293000000000074e+00 5.184170716394058756e-03
6.745899999999999785e+00 2.203900000000000148e+01 2.604899999999999949e+01 -1.116760999999999893e+00 -1.255384307398738075e-01
6.745899999999999785e+00 2.290500000000000114e+01 2.604899999999999949e+01 -5.054033000000000442e+00 -1.140252528984308233e-01
6.747700000000000031e+00 2.143400000000000105e+01 -1.500099999999999945e+01 -9.169564000000000048e-01 -2.982588309862688192e-01
6.747700000000000031e+00 2.143400000000000105e+01 -1.330100000000000016e+01 -1.869794999999999929e-01 -2.981840887823372088e-01
6.752100000000000435e+00 2.127299999999999969e+01 2.361199999999999832e+01 -8.255164000000000391e-01 -1.328049899892768393e-01
6.752600000000000158e+00 6.945700000000000429e+00 8.826800000000000423e+00 1.838391999999999982e+01 -2.988720052273355909e-01
6.752600000000000158e+00 8.345700000000000784e+00 6.561499999999999666e+00 5.104186000000000334e+00 -2.984213128353629951e-01
6.752600000000000158e+00 8.345700000000000784e+00 8.826800000000000423e+00 2.579072999999999993e+01 -2.985834061568909403e-01
6.753400000000000070e+00 9.141700000000000159e+00 1.920700000000000074e+01 -4.488139000000000323e+01 -3.011291402393336258e-01
6.754999999999999893e+00 2.252100000000000080e+01 6.027400000000000091e+00 2.469248999999999938e+01 -3.981842427846860599e-01
6.756999999999999673e+00 2.452499999999999858e+01 2.844600000000000151e+01 -3.935986999999999902e+00 -1.915200259213230560e-01
6.763600000000000279e+00 2.634400000000000119e+01 1.518999999999999950e+01 1.086147000000000062e+01 -3.193602466909167825e-01
6.764599999999999724e+00 1.942899999999999849e+01 2.907299999999999884e-01 1.836357999999999890e+01 -1.105211005439478839e-01
6.764899999999999913e+00 6.087399999999999700e+00 8.366500000000000270e+00 4.134633000000000003e+00 -2.989902535093665326e-01
6.765200000000000102e+00 2.970499999999999829e+01 3.327999999999999847e+00 1.143049000000000071e+01 -2.205571350827064125e-01
6.766000000000000014e+00 2.605300000000000082e+01 5.196299999999999919e+00 6.551430000000000309e-01 -3.195975840998921402e-01
6.767999999999999794e+00 2.473199999999999932e+01 -6.280000000000000249e+00 2.185630000000000095e+01 -2.985746550206170857e-01
6.768299999999999983e+00 2.585600000000000165e+01 4.599700000000000344e+00 1.066613000000000078e+01 -3.195369298544884495e-01
6.769099999999999895e+00 1.486200000000000010e+01 9.489399999999999835e+00 2.061339999999999861e+01 -1.132403098488545812e-01
6.770599999999999952e+00 3.822200000000000042e+00 1.603999999999999915e+01 1.344706000000000046e+01 1.005656204152569205e-01
6.774899999999999700e+00 3.522299999999999898e+01 2.429499999999999993e+00 4.476713000000000164e+00 -4.139161934314656427e-02
6.776200000000000223e+00 3.074899999999999878e+01 -5.580699999999999550e-01 -6.750585000000000058e+00 -2.209333400050677854e-01
6.778699999999999726e+00 1.264000000000000057e+01 -6.828800000000000425e-01 1.751328000000000173e+01 -1.122594552963388503e-01
6.778999999999999915e+00 4.946399999999999864e+01 1.706500000000000128e+01 -1.641110000000000069e+00 -6.505034667606146397e-03
6.779399999999999871e+00 3.210499999999999687e+01 1.015399999999999991e+01 2.079027999999999921e+01 -3.754054516150602538e-02
6.779700000000000060e+00 2.810999999999999943e+01 -3.332300000000000040e+00 -2.174800999999999984e+00 -2.206111338712079539e-01
6.780700000000000394e+00 9.974299999999999500e+00 1.985300000000000153e+01 -2.579222000000000037e+01 -3.011520524048816316e-01
6.780700000000000394e+00 1.148000000000000043e+01 1.985300000000000153e+01 -1.040573999999999977e+01 -5.409549369944510744e-02
6.780999999999999694e+00 2.283500000000000085e+01 3.010699999999999932e+01 -2.652550000000000097e+01 2.942483583115544990e-02
6.781799999999999606e+00 1.859499999999999886e+01 3.889499999999999957e+00 5.080335999999999785e+01 -1.107102008693196388e-01
6.781799999999999606e+00 1.946000000000000085e+01 3.889499999999999957e+00 3.464341000000000292e+01 -1.104700678168462902e-01
6.782899999999999707e+00 6.357499999999999929e+00 1.742099999999999937e+01 2.062406999999999879e+00 -1.091157343973298416e-01
6.785999999999999588e+00 5.405299999999999727e+01 2.099800000000000111e+01 9.490202999999999278e+00 2.522998188348362335e-03
6.787300000000000111e+00 4.821500000000000341e+01 2.825700000000000145e+01 -4.512959999999999638e+00 3.727628999261317112e-03
6.787300000000000111e+00 4.821500000000000341e+01 2.919300000000000139e+01 1.079827000000000092e+00 4.457717097165313225e-02
6.788000000000000256e+00 2.046600000000000108e+01 2.344800000000000040e+01 -7.674278000000000155e+00 -1.404562820598875272e-01
6.788599999999999746e+00 2.319099999999999895e+01 2.937500000000000000e+01 -2.870061000000000107e+01 2.393651229716640960e-02
6.790300000000000225e+00 1.673600000000000065e+01 -4.266799999999999926e+00 1.235853999999999964e+01 -1.113958206908064463e-01
6.791299999999999670e+00 3.311099999999999710e+01 1.351500000000000057e+01 2.431907999999999959e+01 -4.313825859768475462e-02
6.793499999999999872e+00 1.624899999999999878e+01 -1.250099999999999989e+00 1.938650000000000162e+01 -1.113654405768868677e-01
6.793499999999999872e+00 1.744000000000000128e+01 -3.386200000000000099e+00 8.000799000000000660e+00 -1.112100976079531678e-01
6.798700000000000188e+00 3.810300000000000153e+01 3.117999999999999972e+01 4.765375000000000028e-01 2.777128975859246007e-01
6.798700000000000188e+00 3.915299999999999869e+01 3.117999999999999972e+01 -1.747551999999999994e+00 2.854461741152085064e-01
6.804199999999999804e+00 2.320799999999999841e+01 2.534900000000000020e+01 -6.245029999999999859e+00 -1.126821027696700284e-01
6.807699999999999640e+00 4.112700000000000244e+01 3.129299999999999926e+01 -8.916721000000000785e+00 2.957302792307383021e-01
6.809099999999999930e+00 -1.660000000000000087e-01 1.132399999999999984e+01 3.474439999999999973e+00 2.793249529956552957e-01
6.809300000000000352e+00 5.976200000000000401e+00 -3.180499999999999883e+00 -4.238775000000000182e-01 -3.629594428168903542e-01
6.809700000000000308e+00 1.627299999999999969e+01 -1.002699999999999925e+01 -5.890760000000000218e+00 -1.119244303214675523e-01
6.809899999999999842e+00 1.926300000000000168e+01 -1.298600000000000065e+01 -1.716761999999999899e+00 -1.118187068114171040e-01
6.810399999999999565e+00 2.010500000000000043e+01 2.431200000000000117e+01 -2.489263000000000048e+01 -1.465413262605494704e-01
6.820100000000000051e+00 2.160500000000000043e+01 3.092999999999999972e+01 -4.537754000000000332e+01 -1.150446836704487746e-01
6.821900000000000297e+00 2.664699999999999847e+01 1.589000000000000057e+01 5.372454000000000285e+00 -3.196966469166188651e-01
6.822000000000000064e+00 2.652499999999999858e+01 1.745700000000000074e+01 1.915537999999999963e+00 -3.194902805489598374e-01
6.824099999999999611e+00 3.407300000000000040e+01 1.308000000000000007e+01 -1.840767999999999915e+01 -4.615753059268796338e-02
6.829399999999999693e+00 2.618700000000000117e+01 2.978600000000000136e+01 -7.153300999999999910e+00 -1.319418119923432275e-02
6.832900000000000418e+00 1.463899999999999935e+01 -9.968099999999999739e+00 -1.245744999999999969e+01 -1.121999627911301756e-01
6.840900000000000425e+00 2.508999999999999986e+01 7.716000000000000192e+00 4.469589000000000034e+00 -3.190745300087536873e-01
6.844699999999999562e+00 5.404299999999999926e+01 1.858500000000000085e+01 1.440347000000000044e+00 -3.214987759893253724e-05
6.845900000000000318e+00 2.658599999999999852e+01 1.679200000000000159e+01 6.425058999999999632e-01 -3.196237743351255101e-01
6.846400000000000041e+00 1.701099999999999923e+01 2.576200000000000045e+01 -4.204124000000000194e+01 -1.949772415375973789e-01
6.846499999999999808e+00 5.330700000000000216e+01 2.223900000000000077e+01 1.109615999999999936e+01 3.375053695394705615e-03
6.846499999999999808e+00 5.351599999999999824e+01 2.150300000000000011e+01 1.076641000000000048e+01 2.603733934405017339e-03
6.846499999999999808e+00 5.351599999999999824e+01 2.297500000000000142e+01 9.686958000000000624e+00 -2.034674528626045920e-01
6.848300000000000054e+00 3.275200000000000244e+01 2.358400000000000052e+00 2.701272000000000048e-02 -3.748866639184443572e-02
6.849000000000000199e+00 -1.419999999999999929e+00 1.216399999999999970e+01 2.211514999999999898e+00 2.787375076132527218e-01
6.849199999999999733e+00 2.769800000000000040e+01 -4.235199999999999854e+00 -2.560423000000000116e+00 -2.206173823082658580e-01
6.850299999999999834e+00 1.359099999999999930e+01 -1.677999999999999936e+00 9.548482999999999166e+00 -1.121386072430395203e-01
6.850699999999999790e+00 1.554700000000000060e+01 2.232499999999999929e+01 -1.724447999999999936e+01 -7.113309216559685066e-02
6.851300000000000168e+00 1.885900000000000176e+01 -2.809699999999999864e+00 -8.209151999999999560e+00 -1.110170699831272978e-01
6.855199999999999960e+00 2.929899999999999949e+01 3.233700000000000330e+01 2.865146999999999977e+01 -1.512082145001681366e-01
6.855999999999999872e+00 2.041100000000000136e+01 -1.521400000000000041e+01 -1.261921999999999988e+00 -2.981095294810360841e-01
6.857000000000000206e+00 3.338499999999999801e+01 1.108399999999999963e+01 -5.483946000000000431e+00 -4.204330720696318469e-02
6.857300000000000395e+00 1.665500000000000114e+01 1.835000000000000142e+01 6.727781999999999929e-01 -1.239837834920524962e-01
6.857700000000000351e+00 4.487299999999999756e+01 1.236400000000000077e+01 -2.183825999999999823e+00 1.717029231607578310e-01
6.858600000000000030e+00 3.706400000000000006e+01 1.154600000000000071e+00 3.289518999999999860e+00 -4.376283642946292296e-02
6.860999999999999766e+00 2.319000000000000128e+01 1.919200000000000017e+01 2.627915000000000134e+01 -1.223309054643667987e-01
6.861100000000000421e+00 1.448099999999999987e+01 1.329299999999999926e+01 1.904207999999999856e+01 -1.166084619182283788e-01
6.863100000000000200e+00 4.628300000000000125e+01 3.207800000000000296e+01 -2.745757000000000048e+01 3.461178005470322283e-02
6.865499999999999936e+00 3.209799999999999898e+01 3.050300000000000011e+01 3.940866000000000202e+00 1.899188423124927305e-01
6.866999999999999993e+00 1.976899999999999835e+01 3.048300000000000054e+01 -4.870374000000000336e+01 -3.491727987880685613e-02
6.868000000000000327e+00 1.437100000000000044e+01 -1.072700000000000031e+01 -4.967373000000000260e+00 -1.123372496455079805e-01
6.868000000000000327e+00 1.596899999999999942e+01 -1.072700000000000031e+01 -3.828212000000000170e+00 -1.121001468899538722e-01
6.873000000000000220e+00 4.260300000000000153e+01 3.197500000000000142e+01 -1.400219000000000102e+00 1.166159773395064325e-01
6.873000000000000220e+00 4.423299999999999699e+01 3.151200000000000045e+01 -7.858789999999999942e+00 1.339362130521404570e-01
6.875899999999999679e+00 5.116599999999999682e+01 2.624099999999999966e+01 6.640767999999999560e+00 -2.061138722026000514e-01
6.877100000000000435e+00 1.467399999999999949e+01 -1.821099999999999941e+00 9.274186999999999514e+00 -1.119258555863955201e-01
6.878000000000000114e+00 4.424900000000000233e+01 8.242000000000000881e+00 -2.942051000000000194e+00 3.149866495202662819e-01
6.878000000000000114e+00 4.584700000000000131e+01 8.242000000000000881e+00 -1.234385000000000066e+00 1.719452307277011260e-01
6.880700000000000038e+00 1.963200000000000145e+01 -1.213599999999999923e+01 -1.508796000000000026e+00 -1.117820875734840957e-01
6.880700000000000038e+00 2.068199999999999861e+01 -1.213599999999999923e+01 7.971548000000000522e-01 -2.979955311070959234e-01
6.882900000000000240e+00 2.353900000000000148e+01 6.208000000000000185e+00 -1.132890000000000086e+01 -3.981105484524015137e-01
6.883300000000000196e+00 1.165799999999999947e+01 -1.069999999999999979e-01 1.145697999999999972e+01 -1.127915605032033530e-01
6.884000000000000341e+00 1.325500000000000078e+01 1.257000000000000028e+01 -2.490825999999999851e+01 -1.167014607873875232e-01
6.887999999999999901e+00 3.196099999999999852e+01 7.524399999999999977e+00 6.144910000000000316e+00 -3.673446599083508846e-02
6.887999999999999901e+00 3.336099999999999710e+01 7.524399999999999977e+00 5.417501000000000122e-01 -3.998875445840044396e-02
6.889100000000000001e+00 4.796999999999999886e+01 1.653699999999999903e+01 -4.549414999999999765e+00 -8.657553707404948978e-03
6.893299999999999983e+00 1.778800000000000026e+01 1.910800000000000054e+01 2.201991999999999905e+01 -1.256432963736557329e-01
6.897000000000000242e+00 2.631099999999999994e+01 3.069300000000000139e+01 -6.227807999999999566e+00 -1.505932191336467087e-02
6.897000000000000242e+00 2.653800000000000026e+01 3.149200000000000088e+01 -7.722439999999999749e+00 -2.701545712481019310e-02
6.897000000000000242e+00 2.783099999999999952e+01 3.221300000000000097e+01 -4.276342999999999783e+00 -9.260838737623414141e-02
6.897300000000000431e+00 3.455799999999999983e+01 1.344400000000000084e+01 -2.708454999999999835e+00 -4.857045862811513320e-02
6.899200000000000443e+00 2.478699999999999903e+01 7.016000000000000014e+00 -2.549878000000000000e+01 -3.190067466620438164e-01
6.899200000000000443e+00 2.478699999999999903e+01 8.416000000000000369e+00 1.118074999999999974e+01 -3.188933160031855452e-01
6.900000000000000355e+00 4.182600000000000051e+01 9.481600000000000250e+00 -8.105102000000000473e+00 3.144529250614253590e-01
6.903400000000000425e+00 1.345800000000000018e+01 1.977599999999999980e+01 -1.478055999999999948e+01 -5.939005497040590609e-02
6.907300000000000217e+00 -3.669999999999999929e-01 1.454100000000000037e+01 6.024661000000000044e+00 2.787549597071078411e-01
6.915000000000000036e+00 1.895799999999999841e+01 1.068900000000000006e+01 1.884697999999999851e+01 -1.125096497477646451e-01
6.923000000000000043e+00 2.570299999999999940e+01 3.203100000000000058e+00 7.585594999999999644e+00 -3.195756153916713971e-01
6.923300000000000232e+00 4.012599999999999767e+01 7.612700000000000244e+00 -2.073406999999999911e+01 1.293536207912062974e-01
6.923700000000000188e+00 2.042899999999999849e+01 1.065000000000000036e+01 2.599031000000000091e+01 -1.118610045558297711e-01
6.924299999999999677e+00 7.284699999999999953e+00 -6.448000000000000398e+00 6.371493000000000073e+00 -3.630105576158206282e-01
6.924299999999999677e+00 8.335300000000000153e+00 -6.448000000000000398e+00 1.633689999999999998e+01 -3.630177112858000710e-01
6.926000000000000156e+00 1.481900000000000084e+01 1.911100000000000065e+01 -9.133386000000000138e+01 -6.148801527125234007e-02
6.927999999999999936e+00 1.735999999999999943e+01 -1.381000000000000005e+00 1.617277999999999949e+01 -1.114066639923307483e-01
6.927999999999999936e+00 1.756899999999999906e+01 -6.449799999999999978e-01 2.196350999999999942e+01 -1.113429367611573906e-01
6.930500000000000327e+00 3.498700000000000188e+01 3.045700000000000074e+01 1.179316999999999993e+01 2.975953598830384239e-01
6.931300000000000239e+00 1.469999999999999929e+01 -1.148700000000000010e+01 -3.298691999999999958e+00 -1.124175869638897041e-01
6.931300000000000239e+00 1.564000000000000057e+01 -1.148700000000000010e+01 -3.263383999999999840e+00 -1.122834114090191654e-01
6.933300000000000018e+00 1.694000000000000128e+01 8.900199999999999889e+00 1.454618999999999929e+01 -1.127513253476151445e-01
6.937599999999999767e+00 2.005900000000000105e+01 -7.203999999999999737e+00 -3.037625999999999937e+00 -1.113419361890019832e-01
6.939000000000000057e+00 1.963100000000000023e+01 2.008200000000000074e+01 3.998436000000000234e+01 -1.414836330566278388e-01
6.939899999999999736e+00 1.397999999999999909e+00 1.112700000000000067e+01 7.873388000000000275e+00 -4.314687931677541749e-02
6.941300000000000026e+00 4.457800000000000296e+01 7.482000000000000206e+00 -2.175530999999999882e+00 1.706697995316647232e-01
6.941300000000000026e+00 4.457800000000000296e+01 9.002000000000000668e+00 -3.066479000000000177e+00 1.708033787583976004e-01
6.941300000000000026e+00 4.551800000000000068e+01 7.482000000000000206e+00 -1.335105999999999904e+00 1.715248296976994991e-01
6.941300000000000026e+00 4.551800000000000068e+01 9.002000000000000668e+00 -1.878841999999999901e+00 1.717532442487983146e-01
6.947400000000000020e+00 7.235100000000000087e+00 6.169400000000000439e+00 -1.299368000000000078e+00 -2.985714210988343886e-01
6.954100000000000392e+00 1.128899999999999970e+01 7.429999999999999938e-01 1.344116999999999962e+01 -1.131328925661575779e-01
6.959800000000000431e+00 5.423899999999999721e+01 2.055900000000000105e+01 9.490202999999999278e+00 2.253399034636967453e-03
6.961700000000000443e+00 4.316299999999999670e+01 1.164600000000000080e+01 1.766914000000000096e+00 3.151900311438786129e-01
6.962399999999999700e+00 5.446399999999999864e+01 2.551300000000000168e+01 -1.034874999999999989e+00 -2.016797441589984197e-01
6.962900000000000311e+00 2.103699999999999903e+01 -7.345799999999999663e+00 -9.145830000000000348e-01 -2.977767147375517398e-01
6.963499999999999801e+00 2.957999999999999829e+01 -1.050300000000000011e+00 -3.835723000000000216e+00 -2.207836040808179023e-01
6.966499999999999915e+00 1.594200000000000017e+01 1.824099999999999966e+01 -2.590722999999999843e+01 -1.253011775982039999e-01
6.966999999999999638e+00 5.157000000000000028e+00 -3.314999999999999947e+00 -2.662900999999999740e-01 -2.985426619906420553e-01
6.970299999999999940e+00 4.750699999999999790e+01 3.180999999999999872e+01 -4.688369000000000142e+01 5.041750508457103208e-02
6.976600000000000357e+00 5.152199999999999669e+00 1.680099999999999838e+01 5.794540999999999720e+00 -7.572566557943298526e-02
6.977400000000000269e+00 3.646999999999999886e+01 1.354899999999999993e+00 1.327069000000000054e+00 -4.316900049412235318e-02
6.978900000000000325e+00 4.023199999999999932e+01 2.045999999999999819e+00 1.281104999999999938e+00 1.309742402448785259e-01
6.982899999999999885e+00 1.687099999999999866e+01 7.081199999999999939e+00 2.051050000000000040e+01 -1.123985345477997166e-01
6.982899999999999885e+00 1.707999999999999829e+01 6.345200000000000173e+00 1.667311000000000121e+01 -1.121453202117105308e-01
6.991600000000000037e+00 4.002799999999999869e+01 2.931900000000000173e+00 2.258436999999999983e+01 1.308984165599758609e-01
6.995099999999999874e+00 8.703699999999999548e+00 -5.597999999999999865e+00 1.015038999999999980e+01 -3.630161910555360083e-01
6.996000000000000441e+00 2.033999999999999986e+01 5.069300000000000139e+00 2.262865000000000038e+01 -1.109591608120687745e-01
6.996000000000000441e+00 2.553800000000000026e+01 -5.037799999999999834e+00 5.656522999999999968e+00 -2.988096290063502192e-01
6.996699999999999697e+00 2.744399999999999906e+01 2.420599999999999863e+00 2.800887000000000171e+01 -2.201696917549272325e-01
6.998599999999999710e+00 1.750000000000000000e+01 -8.923600000000000421e+00 -2.853814999999999991e+00 -1.119262703979556350e-01
6.999100000000000321e+00 2.146300000000000097e+01 -1.844200000000000061e+00 -1.968252999999999986e+01 -1.108112412957970028e-01
6.999100000000000321e+00 2.146300000000000097e+01 -4.081299999999999928e-01 -1.096967000000000070e+01 -1.107214408692412250e-01
7.002200000000000202e+00 1.741700000000000159e+01 1.057799999999999940e+01 2.130781999999999954e+01 -1.136367222737210830e-01
7.005399999999999849e+00 2.432900000000000063e+01 -7.121400000000000396e+00 1.027332000000000001e+01 -2.984982068228611007e-01
7.008000000000000007e+00 2.292699999999999960e+01 1.833899999999999864e+01 3.318294999999999817e+01 -1.251334759829110799e-01
7.008000000000000007e+00 2.313599999999999923e+01 1.760300000000000153e+01 3.741512000000000171e+01 -1.248618510254206476e-01
7.008000000000000007e+00 2.339000000000000057e+01 1.670899999999999963e+01 2.868375999999999948e+01 -3.161405263611022365e-01
7.009000000000000341e+00 1.715899999999999892e+01 2.154700000000000060e+01 8.570244999999999669e-01 -1.727871715954246434e-01
7.010299999999999976e+00 1.558500000000000085e+01 1.311999999999999922e+01 2.678212999999999866e+01 -1.166855891888717717e-01
7.011700000000000266e+00 3.556499999999999773e+01 9.881299999999999528e+00 7.061988999999999628e-01 -4.733600595205476186e-02
7.011999999999999567e+00 1.891300000000000026e+01 3.011799999999999855e+01 -6.636804999999999843e+00 -5.846580704101570630e-02
7.012400000000000411e+00 1.098600000000000065e+01 1.443000000000000060e+00 1.515816000000000052e+01 -1.134454630107062101e-01
7.014000000000000234e+00 5.621200000000000330e+01 2.610699999999999932e+01 -1.098367999999999967e+01 -1.993235506212394370e-01
7.017999999999999794e+00 1.720499999999999829e+01 4.900800000000000267e+00 2.845447000000000060e+01 -1.119618849463133586e-01
7.019899999999999807e+00 4.285999999999999943e+01 1.094599999999999973e+01 -6.120482000000000422e-01 3.149746169413030761e-01
7.019999999999999574e+00 8.778299999999999770e+00 7.261499999999999844e+00 1.245542000000000016e+01 -2.983483095713800881e-01
7.019999999999999574e+00 8.778299999999999770e+00 8.126799999999999358e+00 1.486809000000000047e+01 -2.984026439167757894e-01
7.020800000000000374e+00 1.976599999999999824e+01 -7.961400000000000254e+00 -1.071915000000000084e+01 -1.115742004086255346e-01
7.028200000000000003e+00 2.171900000000000119e+01 -1.126100000000000101e+00 -1.589283999999999963e+01 -3.980348035290231512e-01
7.031299999999999883e+00 2.028600000000000136e+01 2.093299999999999983e+01 3.253258999999999901e+01 -1.396339156385524860e-01
7.031299999999999883e+00 2.028600000000000136e+01 2.179899999999999949e+01 1.740593000000000146e+01 -1.410548001878344504e-01
7.032399999999999984e+00 8.419000000000000483e+00 -4.792300000000000004e+00 3.089906000000000041e+00 -3.630081347400889724e-01
7.033199999999999896e+00 3.333700000000000330e+01 1.308000000000000007e+01 -1.890425000000000022e+00 -4.432275612724335262e-02
