1.197199999999999989e+02 -1.752400000000000091e+01 1.078799999999999955e+02 -2.874893999999999838e+00 -5.168024079666681120e-02
1.197300000000000040e+02 1.023300000000000054e+01 1.064000000000000057e+02 2.847223000000000059e+00 -9.009428156447357727e-02
1.197300000000000040e+02 1.023300000000000054e+01 1.074500000000000028e+02 1.301107000000000014e+01 1.394911359341359514e-02
1.197399999999999949e+02 -1.488899999999999935e+01 1.218100000000000023e+02 -5.079741000000000284e+00 -2.237731899568521643e-01
1.197399999999999949e+02 -1.891999999999999904e+00 9.715500000000000114e+01 1.843482000000000065e+00 -1.105315858567483128e-01
1.197600000000000051e+02 -8.798500000000000654e+00 1.210900000000000034e+02 1.554725999999999964e+01 -2.224406285342185596e-01
1.197600000000000051e+02 5.463099999999999845e+00 1.151099999999999994e+02 1.082901999999999987e+01 9.219001990278442860e-02
1.197600000000000051e+02 1.681699999999999973e+00 1.197500000000000000e+02 1.759640999999999877e+01 -2.656835022215853215e-01
1.197699999999999960e+02 -4.915700000000000180e+00 9.975300000000000011e+01 -7.034738000000000380e-01 -1.303790988819165109e-01
1.197800000000000011e+02 -1.636499999999999844e+01 1.045400000000000063e+02 -2.594510999999999790e+00 -1.153878420906879337e-01
1.197800000000000011e+02 -6.622900000000000453e-01 9.809399999999999409e+01 3.893550000000000066e-01 -1.056020802441176160e-01
1.197800000000000011e+02 -6.622900000000000453e-01 9.903400000000000603e+01 9.359363999999999351e+00 -1.079197828117884062e-01
1.197800000000000011e+02 -6.622900000000000453e-01 9.989900000000000091e+01 1.419037999999999933e+01 -1.092734646580226510e-01
1.197800000000000011e+02 1.646700000000000053e+00 1.169500000000000028e+02 1.604336999999999902e+00 -2.009160968989728568e-01
1.197900000000000063e+02 1.656700000000000061e+00 1.229899999999999949e+02 2.246000000000000085e+01 -1.551255495509425708e-01
1.197900000000000063e+02 3.461300000000000043e+00 1.229899999999999949e+02 7.104197999999999524e+01 -2.628626131396839538e-01
1.197900000000000063e+02 -4.118699999999999584e+00 9.879800000000000182e+01 -4.969841999999999871e-01 -1.269216204452093544e-01
1.197999999999999972e+02 8.105999999999999872e+00 1.186400000000000006e+02 -6.087393000000000143e+01 1.277276600021152141e-02
1.197999999999999972e+02 -1.694600000000000151e+01 1.088199999999999932e+02 -2.254220999999999808e+00 -5.244924687465542246e-02
1.197999999999999972e+02 -1.615800000000000125e+01 1.207900000000000063e+02 -1.055781999999999998e+00 -2.244447402038238226e-01
1.198100000000000023e+02 1.119200000000000017e+01 1.173100000000000023e+02 -3.981009999999999849e+01 -1.611503969506156153e-01
1.198100000000000023e+02 -1.368200000000000038e+01 1.221400000000000006e+02 5.577297999999999867e+00 -2.233496430319772408e-01
1.198199999999999932e+02 -1.499000000000000021e+01 1.054599999999999937e+02 1.411777999999999977e+00 -1.192386850739823451e-01
1.198199999999999932e+02 1.333000000000000007e+01 1.170499999999999972e+02 -3.193259999999999987e+00 -1.597726756829507544e-01
1.198400000000000034e+02 -1.760200000000000031e+01 1.125000000000000000e+02 -1.985155000000000003e+00 -5.264528829721806108e-02
1.198400000000000034e+02 4.384999999999999787e+00 1.227500000000000000e+02 5.329749000000000336e+01 -2.628991675301893260e-01
1.198400000000000034e+02 6.107000000000000206e+00 1.051800000000000068e+02 1.479766000000000137e-01 -5.467706041304569442e-02
1.198400000000000034e+02 -7.477800000000000002e-01 1.237699999999999960e+02 1.277588000000000079e+01 -2.617295227779486977e-01
1.198499999999999943e+02 -1.271900000000000031e+00 1.253400000000000034e+02 2.231290999999999869e+01 -1.538957798302056645e-01
1.198499999999999943e+02 -1.239000000000000057e+01 1.217300000000000040e+02 2.882534000000000063e+01 -2.232054637969743960e-01
1.198499999999999943e+02 -9.565599999999999881e+00 1.028700000000000045e+02 -4.986087000000000380e+00 -1.321187238532235964e-01
1.198599999999999994e+02 -1.670899999999999963e+01 1.175999999999999943e+02 5.528104000000000351e-01 -2.392624810512281319e-01
1.198599999999999994e+02 -1.670899999999999963e+01 1.192099999999999937e+02 -6.092168999999999501e-01 -2.252597251503713482e-01
1.198700000000000045e+02 -1.001600000000000046e+00 1.245100000000000051e+02 1.486617000000000033e+01 -2.613873770481109915e-01
1.198700000000000045e+02 1.013499999999999979e+01 1.081700000000000017e+02 1.919584000000000046e+01 9.558508847692982757e-02
1.198700000000000045e+02 1.173199999999999932e+01 1.112500000000000000e+02 -4.788649000000000377e+00 1.020227366547156456e-01
1.198700000000000045e+02 -1.661499999999999844e+01 1.201500000000000057e+02 -8.098237999999999825e-01 -2.247941434203624134e-01
1.198900000000000006e+02 8.503899999999999793e+00 1.089599999999999937e+02 7.407137000000000304e-01 9.231445579249400457e-02
1.199000000000000057e+02 1.437500000000000000e+01 1.159200000000000017e+02 1.980007999999999990e+00 -1.665624656669826009e-01
1.199000000000000057e+02 -1.674699999999999989e+01 1.185100000000000051e+02 8.268678999999999890e-01 -2.256109013536820029e-01
1.199099999999999966e+02 1.435800000000000054e+01 1.142000000000000028e+02 -1.255649999999999933e+00 -1.842618919180571135e-01
1.199099999999999966e+02 2.559000000000000163e+00 1.230699999999999932e+02 4.065417999999999665e+01 -1.555016920871543085e-01
1.199099999999999966e+02 -1.207099999999999973e+01 1.078400000000000034e+02 9.187132999999999328e+00 -6.064791177135168965e-02
1.199099999999999966e+02 1.461999999999999922e+01 1.150799999999999983e+02 1.050750000000000073e+00 -1.746227649713758823e-01
1.199200000000000017e+02 1.140300000000000047e+01 1.104300000000000068e+02 6.195832000000000228e+00 9.647823171139890963e-02
1.199200000000000017e+02 -5.141700000000000159e+00 1.261599999999999966e+02 -3.715430000000000010e+00 -2.588911752001016864e-01
1.199200000000000017e+02 1.339400000000000013e+01 1.135999999999999943e+02 -3.517236000000000029e+00 1.222982496734269092e-01
1.199200000000000017e+02 2.487899999999999778e+00 1.045000000000000000e+02 3.758444000000000074e+01 -7.573329139985163216e-02
1.199300000000000068e+02 2.596999999999999975e+00 1.037000000000000028e+02 9.681646000000000640e+00 -6.817288450541331146e-02
1.199300000000000068e+02 2.957699999999999996e+00 1.029599999999999937e+02 -1.410171999999999981e+00 -5.882730554032124248e-02
1.199300000000000068e+02 -1.710699999999999932e+01 1.170699999999999932e+02 3.457683999999999713e+01 -2.386998478156100167e-01
1.199399999999999977e+02 6.627699999999999925e+00 1.155600000000000023e+02 -8.317522999999999556e+00 -8.098731079672086275e-03
1.199500000000000028e+02 3.390600000000000058e+00 1.143799999999999955e+02 1.460221999999999909e+00 6.410508936600842200e-02
1.199500000000000028e+02 4.790600000000000414e+00 1.143799999999999955e+02 4.118243999999999794e+00 8.856285648882686323e-02
1.199500000000000028e+02 -7.868999999999999773e+00 9.972100000000000364e+01 -3.512477000000000071e+00 -1.326903920791168701e-01
1.199500000000000028e+02 -6.349000000000000199e+00 9.972100000000000364e+01 -1.278814999999999991e+01 -1.436618708734325456e-01
1.199500000000000028e+02 1.013299999999999912e+01 1.184099999999999966e+02 -9.402523999999999660e+01 -1.604633300010913088e-01
1.199599999999999937e+02 -1.831299999999999883e+01 1.149399999999999977e+02 -6.912966999999999862e-01 -2.366345780021680001e-01
1.199699999999999989e+02 -1.535599999999999987e+01 1.101099999999999994e+02 3.041509000000000018e+00 -5.444889493342944947e-02
1.199699999999999989e+02 6.118299999999999628e+00 1.152399999999999949e+02 -1.555990999999999902e+00 9.234108123257714351e-02
1.199699999999999989e+02 6.425699999999999745e-01 1.230999999999999943e+02 -1.313908999999999949e+01 -1.545161949033073412e-01
1.199800000000000040e+02 4.253000000000000114e+00 1.065699999999999932e+02 -9.549837999999999383e+00 -5.927094917136778440e-02
1.199800000000000040e+02 -1.810900000000000176e+01 1.067399999999999949e+02 -8.727952000000000155e+00 -1.160097203343565669e-01
1.200000000000000000e+02 3.181000000000000050e+00 1.064099999999999966e+02 -3.401212999999999909e+01 -8.817791911073136202e-02
1.200000000000000000e+02 -1.035500000000000043e+01 1.074300000000000068e+02 -4.700352999999999892e-01 1.512207054796346414e-02
1.200100000000000051e+02 8.614100000000000534e+00 1.185100000000000051e+02 -1.937069999999999936e+01 1.468066036258963182e-02
1.200199999999999960e+02 -1.836299999999999955e+01 1.057699999999999960e+02 -5.385582000000000313e+00 -1.143724058445783343e-01
1.200400000000000063e+02 -6.425399999999999778e+00 1.244300000000000068e+02 3.420926000000000133e+00 -2.854624471598793956e-01
1.200499999999999972e+02 2.079299999999999926e+00 1.162500000000000000e+02 4.729757000000000211e+00 -2.014334943081892981e-01
1.200600000000000023e+02 -1.554299999999999926e+01 1.117699999999999960e+02 -2.809242999999999935e+00 -5.434092298292744067e-02
1.200699999999999932e+02 1.779999999999999916e-01 1.009200000000000017e+02 -6.026290999999999620e+00 1.968074652108120492e-01
1.200699999999999932e+02 -2.652000000000000135e+00 9.733400000000000318e+01 -4.837026999999999854e-01 -3.118679326151146090e-03
1.200699999999999932e+02 -1.131999999999999895e+00 9.733400000000000318e+01 -3.203612000000000126e+00 -1.099257895149118036e-01
1.200699999999999932e+02 -1.514600000000000080e+01 1.109399999999999977e+02 -5.333904000000000423e+00 -5.469956101702287687e-02
1.200799999999999983e+02 -1.802700000000000102e+01 1.050000000000000000e+02 -5.063620000000000232e+00 -1.135773525667628236e-01
1.200900000000000034e+02 1.101900000000000013e+01 1.095100000000000051e+02 1.402084999999999937e+01 8.918734463245413246e-02
1.200900000000000034e+02 -1.798699999999999832e+01 1.078799999999999955e+02 -4.196219000000000143e+00 -5.056825368915514318e-02
1.200900000000000034e+02 -5.966099999999999959e+00 1.234599999999999937e+02 1.907544000000000040e+01 -2.858154458810570064e-01
1.200900000000000034e+02 -5.756999999999999673e+00 1.227300000000000040e+02 4.762044999999999817e+01 -2.862123028651284984e-01
1.200999999999999943e+02 7.767900000000000027e+00 1.089599999999999937e+02 -2.715653000000000006e+01 -8.424298638786782700e-02
1.200999999999999943e+02 9.239900000000000446e+00 1.089599999999999937e+02 8.886692000000000036e+00 9.046473092228911328e-02
1.200999999999999943e+02 -4.504699999999999704e+00 1.274200000000000017e+02 -4.147667000000000215e+00 -2.590692126323698719e-01
1.200999999999999943e+02 -3.565300000000000136e+00 1.274200000000000017e+02 -1.504956999999999923e+01 -2.594858627049114741e-01
1.201099999999999994e+02 -1.812800000000000011e+01 1.127600000000000051e+02 -1.173405000000000031e+00 -5.191201503881630319e-02
1.201099999999999994e+02 6.884000000000000341e+00 1.048299999999999983e+02 -4.170830999999999844e-01 -5.876556422908633948e-02
1.201099999999999994e+02 8.583999999999999631e+00 1.048299999999999983e+02 5.972807999999999673e+00 -7.693591908923679001e-02
1.201099999999999994e+02 -6.113699999999999690e+00 1.218100000000000023e+02 5.664949000000000012e+01 -2.870977782681266577e-01
1.201099999999999994e+02 -1.447799999999999976e+01 1.059200000000000017e+02 -1.118834000000000106e+00 -1.207244195129905107e-01
1.201099999999999994e+02 -1.066099999999999959e+01 1.214300000000000068e+02 5.384678000000000075e+00 -2.227760745372693307e-01
1.201200000000000045e+02 -6.169599999999999973e+00 1.255000000000000000e+02 -1.739246000000000070e+00 -2.583289787441630514e-01
1.201200000000000045e+02 1.856500000000000039e+00 1.018100000000000023e+02 -3.223043000000000102e+00 2.513270111380503519e-02
1.201200000000000045e+02 -1.645899999999999963e+01 1.091500000000000057e+02 -1.923690999999999873e-01 -5.257063988876649330e-02
1.201200000000000045e+02 -1.350699999999999967e+01 1.071200000000000045e+02 3.273611999999999966e+00 -5.699901646813101269e-02
1.201200000000000045e+02 -1.563299999999999912e+01 1.216400000000000006e+02 -6.221725000000000172e-01 -2.239128074935822499e-01
1.201299999999999955e+02 5.638899999999999579e+00 1.059399999999999977e+02 -2.031080000000000038e-02 -5.990671034062059613e-02
1.201400000000000006e+02 -1.675100000000000122e+01 1.121200000000000045e+02 -1.446917999999999926e+00 -5.296045422336955605e-02
1.201400000000000006e+02 -1.551500000000000057e+01 1.046099999999999994e+02 1.793894000000000100e+00 -1.164931915440987342e-01
1.201500000000000057e+02 7.241500000000000270e+00 1.175100000000000051e+02 -1.195002000000000031e+01 5.185878628259101529e-03
1.201599999999999966e+02 8.071300000000000807e+00 1.082600000000000051e+02 -8.796711999999999421e+00 -8.479616769938053134e-02
1.201599999999999966e+02 8.071300000000000807e+00 1.096599999999999966e+02 -5.728646000000000349e+00 8.818613449979285923e-02
1.201599999999999966e+02 8.936500000000000554e+00 1.096599999999999966e+02 1.471799999999999997e+01 8.676450702275599614e-02
1.201599999999999966e+02 -1.909000000000000030e+00 1.261200000000000045e+02 1.781912000000000162e+01 -2.603835352659285562e-01
1.201599999999999966e+02 -1.765099999999999980e+01 1.086599999999999966e+02 -2.660788999999999849e+00 -5.103813322047968948e-02
1.201599999999999966e+02 -1.168999999999999950e+01 1.216700000000000017e+02 6.181767999999999930e+00 -2.229543388909356327e-01
1.201599999999999966e+02 -3.750300000000000189e+00 9.807699999999999818e+01 -8.989913000000000487e-01 -1.276221251783620780e-01
1.201700000000000017e+02 -9.702799999999999869e+00 1.214699999999999989e+02 8.369066999999999368e+00 -2.224160014162877841e-01
1.201899999999999977e+02 -1.822800000000000153e+01 1.159599999999999937e+02 -2.080064000000000135e+00 -2.372599802832932314e-01
1.202000000000000028e+02 1.190800000000000081e+00 1.193499999999999943e+02 1.986601999999999890e+01 -2.647441752752365263e-01
1.202000000000000028e+02 2.381699999999999928e+00 1.200100000000000051e+02 2.399127000000000010e+01 -1.557745168217235798e-01
1.202099999999999937e+02 -1.042399999999999949e+01 1.043299999999999983e+02 -1.193152000000000079e+01 -1.306705306468485817e-01
1.202099999999999937e+02 1.173499999999999943e+01 1.168900000000000006e+02 -1.477248999999999945e+01 -1.596575191343039546e-01
1.202099999999999937e+02 -8.468999999999999417e+00 1.208599999999999994e+02 2.658063999999999893e+01 -2.222738626626405423e-01
1.202099999999999937e+02 -7.068999999999999950e+00 1.208599999999999994e+02 3.654711000000000354e+01 -2.883125061355625296e-01
1.202099999999999937e+02 -1.015000000000000036e+01 1.052500000000000000e+02 -1.171152000000000015e+01 -6.713681454273043303e-02
1.202199999999999989e+02 -4.516399999999999970e+00 9.902100000000000080e+01 -1.872338000000000058e+00 -1.330939397493374754e-01
1.202300000000000040e+02 -1.011700000000000088e+01 1.033700000000000045e+02 -6.814343000000000039e+00 -1.302933518052513950e-01
1.202399999999999949e+02 1.060299999999999976e+01 1.176500000000000057e+02 -1.053429000000000002e+02 -1.603338289755507629e-01
1.202399999999999949e+02 -7.075599999999999667e+00 1.255999999999999943e+02 -5.801632999999999790e-02 -2.579384239837358983e-01
1.202500000000000000e+02 -5.649000000000000021e+00 9.978000000000000114e+01 -7.347002999999999950e+00 -5.367290137802397526e-02
1.202699999999999960e+02 -9.922700000000000742e+00 1.058700000000000045e+02 -1.413677000000000028e+01 -6.744948888752202998e-02
1.202699999999999960e+02 -9.922700000000000742e+00 1.067300000000000040e+02 -6.449494999999999756e+00 -6.679480162963606638e-02
1.202699999999999960e+02 -2.568699999999999872e-01 1.233799999999999955e+02 8.289229999999999876e+00 -2.618780678269732043e-01
1.202800000000000011e+02 1.100100000000000078e+00 1.174399999999999977e+02 3.678825999999999929e+00 -1.996116803423244046e-01
1.202800000000000011e+02 9.372999999999999332e+00 1.184699999999999989e+02 -1.128764999999999930e+02 1.860640243389787007e-02
1.202900000000000063e+02 2.659800000000000164e+00 1.025199999999999960e+02 -4.009216999999999587e+00 3.890441987663292162e-02
1.202900000000000063e+02 1.264499999999999957e+01 1.124899999999999949e+02 -6.312575999999999965e+00 1.096094577828706090e-01
1.203100000000000023e+02 -1.163799999999999990e+01 1.073499999999999943e+02 -3.095766999999999936e+00 -6.107594002517355986e-02
1.203100000000000023e+02 -2.372700000000000031e+00 1.264300000000000068e+02 2.118971000000000160e+01 -2.599891961170487376e-01
1.203100000000000023e+02 -1.105499999999999972e+01 1.074899999999999949e+02 -3.315406999999999993e+00 -6.265760427748691408e-02
1.203199999999999932e+02 -1.286700000000000088e+01 1.219800000000000040e+02 4.374672999999999945e+01 -2.230903463893717797e-01
1.203199999999999932e+02 3.609999999999999876e+00 1.230400000000000063e+02 9.623534999999999684e+01 -1.558189635964121467e-01
1.203199999999999932e+02 4.928499999999999659e+00 1.206800000000000068e+02 2.830993000000000137e+01 -2.651282817616468779e-01
1.203199999999999932e+02 4.928499999999999659e+00 1.223100000000000023e+02 3.916669000000000267e+01 -2.631333938042618170e-01
1.203199999999999932e+02 5.160000000000000142e+00 1.215000000000000000e+02 2.507471999999999923e+01 -2.640321705276261199e-01
1.203199999999999932e+02 3.447000000000000064e+00 1.199399999999999977e+02 4.398396000000000328e+01 -2.660708149399048095e-01
1.203199999999999932e+02 -9.046900000000000830e+00 1.024300000000000068e+02 -6.605300999999999867e+00 -1.336954511629416809e-01
1.203199999999999932e+02 9.751699999999999591e+00 1.069300000000000068e+02 9.940310999999999453e+00 -9.297086148854888377e-02
1.203199999999999932e+02 -1.760099999999999909e+01 1.122199999999999989e+02 -1.270346999999999893e+00 -5.193127756845181825e-02
1.203299999999999983e+02 -1.890800000000000125e+01 1.069300000000000068e+02 -2.581008000000000191e+00 -1.150389890190815639e-01
1.203400000000000034e+02 -1.870400000000000063e+01 1.078199999999999932e+02 -2.008391000000000037e+00 -4.947181315880306435e-02
1.203400000000000034e+02 8.334899999999999531e-01 1.182900000000000063e+02 1.237673000000000023e+01 -2.644236359561595862e-01
1.203499999999999943e+02 1.054999999999999938e+00 1.016899999999999977e+02 -6.577339000000000269e+00 2.198898426744315682e-01
1.203499999999999943e+02 -1.710600000000000165e+01 1.180300000000000011e+02 2.172639999999999905e+00 -2.391033447030280201e-01
1.203599999999999994e+02 7.568800000000000416e+00 1.179500000000000028e+02 -3.306349999999999767e+01 8.932786508079647650e-03
1.203700000000000045e+02 7.118599999999999817e+00 1.159599999999999937e+02 -1.476914000000000016e+01 -4.375361898788293277e-03
1.203700000000000045e+02 7.327700000000000102e+00 1.167000000000000028e+02 -1.073577000000000048e+01 1.043651500796156971e-03
1.203799999999999955e+02 2.899700000000000166e+00 1.147800000000000011e+02 1.985621000000000080e+00 6.736555232645960456e-02
1.203799999999999955e+02 4.090600000000000236e+00 1.141200000000000045e+02 2.123281999999999947e-01 9.081022061402219125e-02
1.203799999999999955e+02 -6.956500000000000128e+00 1.247199999999999989e+02 1.123810999999999893e+00 -2.854518129539651006e-01
1.203799999999999955e+02 8.425399999999999778e+00 1.078499999999999943e+02 1.886222000000000065e+00 -8.733598964317476621e-02
1.203900000000000006e+02 -1.739099999999999824e+01 1.188400000000000034e+02 1.816152999999999865e-02 -2.254268238783945222e-01
1.204099999999999966e+02 -1.713100000000000023e+01 1.197600000000000051e+02 5.284837000000000007e-01 -2.249499647998078888e-01
1.204099999999999966e+02 4.953000000000000291e+00 1.062999999999999972e+02 -8.789341999999999544e+00 -6.090650842832447814e-02
1.204200000000000017e+02 -5.628199999999999648e+00 1.264300000000000068e+02 -1.134775000000000089e+00 -2.583875479227711325e-01
1.204200000000000017e+02 -8.628999999999999559e+00 1.009500000000000028e+02 -4.694262000000000157e+00 -1.320516128930409872e-01
1.204200000000000017e+02 -8.401999999999999247e+00 1.001500000000000057e+02 -5.292919000000000374e+00 -1.306529067520056375e-01
1.204200000000000017e+02 -7.108999999999999986e+00 9.943099999999999739e+01 -3.371278000000000219e+00 -1.368429701088317851e-01
1.204200000000000017e+02 1.221799999999999997e+01 1.117500000000000000e+02 -3.046907999999999908e-02 1.011588083364792778e-01
1.204200000000000017e+02 -1.783200000000000074e+01 1.167900000000000063e+02 4.387357999999999869e+00 -2.379580154536357628e-01
1.204200000000000017e+02 -1.750400000000000134e+01 1.175000000000000000e+02 1.499357999999999969e+01 -2.385542732107609198e-01
1.204300000000000068e+02 2.480999999999999872e+00 1.052800000000000011e+02 -7.705344000000000193e+00 -8.126189269027390971e-02
1.204300000000000068e+02 2.689999999999999947e+00 1.060199999999999960e+02 -2.389467000000000141e+01 -8.535070866648764021e-02
1.204300000000000068e+02 3.880999999999999783e+00 1.066800000000000068e+02 -2.353988999999999976e+01 -6.064682116681817392e-02
1.204300000000000068e+02 9.109299999999999287e+00 1.056800000000000068e+02 2.963401000000000174e+00 -8.828177592569283472e-02
1.204399999999999977e+02 1.248300000000000054e+01 1.168400000000000034e+02 3.621119000000000199e+00 -1.569403400306529917e-01
1.204399999999999977e+02 1.383200000000000074e+01 1.135300000000000011e+02 -3.355506999999999795e-01 1.241385501197758562e-01
1.204500000000000028e+02 5.605500000000000149e+00 1.147000000000000028e+02 -2.011025000000000063e+00 8.702724777396660116e-02
1.204599999999999937e+02 2.615299999999999958e+00 1.156200000000000045e+02 3.498787000000000091e+00 -2.020643760909692777e-01
1.204699999999999989e+02 6.300600000000000200e+00 1.055199999999999960e+02 -2.321600000000000108e+00 -6.231609625493966798e-02
1.204699999999999989e+02 1.464299999999999935e+00 1.231899999999999977e+02 1.849884000000000084e+00 -1.544602138629079247e-01
1.204699999999999989e+02 7.733999999999999986e+00 1.047600000000000051e+02 2.029885999999999857e+00 -7.041296470522431794e-02
1.204800000000000040e+02 -1.464000000000000057e+01 1.219800000000000040e+02 4.998840000000000394e+00 -2.234824205743641823e-01
1.204800000000000040e+02 -1.039000000000000057e+01 1.037699999999999960e+02 -1.093127999999999922e+01 -1.296502789616743034e-01
1.205000000000000000e+02 -5.334699999999999775e+00 1.271800000000000068e+02 -6.264569999999999972e+00 -2.584840508222678301e-01
1.205000000000000000e+02 1.510100000000000087e+01 1.145499999999999972e+02 1.119083999999999968e+00 -1.771238333556280631e-01
1.205000000000000000e+02 1.510100000000000087e+01 1.155999999999999943e+02 3.487067000000000139e+00 -1.648624290328166986e-01
1.205100000000000051e+02 -1.716600000000000037e+01 1.091500000000000057e+02 9.359947999999999269e+00 -5.110664365025598121e-02
1.205100000000000051e+02 1.103500000000000014e+01 1.169500000000000028e+02 -3.875679999999999836e+01 -1.603210491996528708e-01
1.205100000000000051e+02 -3.399900000000000144e+00 9.738500000000000512e+01 -9.783074999999999966e-01 -3.159369382818221546e-03
1.205100000000000051e+02 1.560599999999999987e+00 1.166899999999999977e+02 7.867796000000000234e+00 -2.000949435860818471e-01
1.205100000000000051e+02 -1.628200000000000003e+01 1.094500000000000028e+02 3.500630999999999826e+00 -5.219536266494981952e-02
1.205100000000000051e+02 -1.628200000000000003e+01 1.117099999999999937e+02 1.799724000000000101e+00 -5.281386437661274996e-02
1.205199999999999960e+02 -1.754799999999999827e+01 1.044500000000000028e+02 -7.877172999999999981e+00 -1.127683752468821715e-01
1.205300000000000011e+02 -4.035000000000000142e+00 1.279500000000000028e+02 -1.826767999999999859e+01 -2.590116903931188874e-01
1.205400000000000063e+02 -1.871799999999999997e+01 1.142900000000000063e+02 7.751352999999999716e-01 -2.358196203797480184e-01
1.205400000000000063e+02 -6.894900000000000473e-01 1.240799999999999983e+02 1.246388999999999925e+01 -2.611679242725673533e-01
1.205400000000000063e+02 -1.891999999999999904e+00 9.704399999999999693e+01 -9.116263999999999479e-01 -4.390360060333530325e-04
1.205400000000000063e+02 -5.990100000000000424e-01 9.776500000000000057e+01 -1.232276000000000060e+01 -1.138022726056542727e-01
1.205400000000000063e+02 -3.719999999999999973e-01 9.856399999999999295e+01 -2.851151000000000124e+01 -1.145902268607257024e-01
1.205499999999999972e+02 -1.844399999999999906e+01 1.133799999999999955e+02 9.057294999999999652e-01 -2.353538778985442836e-01
1.205499999999999972e+02 -1.848799999999999955e+01 1.084599999999999937e+02 -2.066403000000000212e+00 -4.953954676911297150e-02
1.205499999999999972e+02 8.503899999999999793e+00 1.101500000000000057e+02 9.109379000000000559e+00 8.281991029678742455e-02
1.205499999999999972e+02 -1.125699999999999967e+01 1.221700000000000017e+02 7.469994999999999941e+00 -2.224684212061092681e-01
1.205499999999999972e+02 -1.020700000000000074e+01 1.221700000000000017e+02 8.502045999999999992e+00 -2.221183549449733674e-01
1.205600000000000023e+02 -6.553300000000000125e+00 1.264899999999999949e+02 5.682157000000000180e-02 -2.579727161473263641e-01
1.205600000000000023e+02 1.333000000000000007e+01 1.168400000000000034e+02 2.966038999999999870e+00 -1.554995346535287815e-01
1.205600000000000023e+02 -1.916300000000000026e+01 1.060300000000000011e+02 -3.035953000000000124e+00 -1.133818458403034884e-01
1.205600000000000023e+02 -1.880199999999999960e+01 1.052900000000000063e+02 -3.849791000000000185e+00 -1.126839708324647721e-01
1.205699999999999932e+02 -9.433500000000000218e-01 1.248100000000000023e+02 1.791998999999999853e+01 -2.608511260995806658e-01
1.205699999999999932e+02 -4.943899999999999961e-01 9.937999999999999545e+01 -1.762037000000000120e+01 -1.181663833136760572e-01
1.205699999999999932e+02 1.178999999999999915e+01 1.109399999999999977e+02 4.338784999999999670e+00 9.181833602686166607e-02
1.205699999999999932e+02 -2.805299999999999905e+00 1.271299999999999955e+02 -1.277388000000000012e+01 -2.595567322826808354e-01
1.205799999999999983e+02 -1.485599999999999987e+01 1.050199999999999960e+02 5.035203000000000095e+00 -1.179498776600247656e-01
1.205900000000000034e+02 -6.185100000000000042e-01 1.002800000000000011e+02 -4.363216999999999679e+00 -1.205704738788386521e-01
1.205999999999999943e+02 -6.385299999999999976e+00 1.238299999999999983e+02 1.705940999999999974e+01 -2.856239803003233213e-01
1.205999999999999943e+02 7.799299999999999677e+00 1.076800000000000068e+02 -5.303247999999999962e+00 -8.509548496219139502e-02
1.205999999999999943e+02 -7.913700000000000401e+00 1.255699999999999932e+02 6.638226000000000404e-01 -2.853830718468040595e-01
1.206099999999999994e+02 7.309800000000000075e+00 1.084899999999999949e+02 -2.584881000000000029e+01 -8.409696259419489894e-02
1.206200000000000045e+02 1.146199999999999974e+01 1.101200000000000045e+02 6.662107999999999919e+00 8.609778538332994724e-02
1.206200000000000045e+02 -6.718300000000000161e+00 1.210600000000000023e+02 8.046752999999999645e+01 -2.878735307894960682e-01
1.206299999999999955e+02 1.681699999999999973e+00 1.197500000000000000e+02 1.787989999999999924e+01 -2.649212154832000232e-01
1.206299999999999955e+02 2.329600000000000115e+00 1.041299999999999955e+02 3.186567000000000149e+01 1.637005636597001768e-01
1.206299999999999955e+02 -1.359900000000000020e+01 1.066899999999999977e+02 -3.573048000000000002e+00 -5.564564638287021470e-02
1.206400000000000006e+02 8.366300000000000736e+00 1.180600000000000023e+02 -2.531418999999999997e+01 1.324360946867256597e-02
1.206500000000000057e+02 -7.769000000000000128e+00 1.205900000000000034e+02 3.714345000000000141e+01 -2.219609958004795658e-01
1.206500000000000057e+02 -5.216400000000000148e+00 9.928900000000000148e+01 -2.968304999999999971e+00 -5.395954743187721808e-02
1.206500000000000057e+02 -1.622899999999999920e+01 1.211599999999999966e+02 -1.395058000000000131e-01 -2.241253777482629383e-01
1.206500000000000057e+02 -3.151100000000000012e-01 1.009800000000000040e+02 -2.067608999999999853e+01 -1.181078962859584136e-01
1.206599999999999966e+02 2.410299999999999887e+00 1.046599999999999966e+02 1.278400000000000070e+01 -7.812404811835463314e-02
1.206700000000000017e+02 -1.636499999999999844e+01 1.042900000000000063e+02 -2.570710000000000051e+00 -1.138758679403167884e-01
1.206700000000000017e+02 -7.545300000000000118e+00 1.247199999999999989e+02 4.734316999999999886e+00 -2.856501692189177266e-01
1.206700000000000017e+02 -7.545300000000000118e+00 1.264200000000000017e+02 -4.188668999999999865e-01 -2.575923278755454793e-01
1.206800000000000068e+02 -6.341400000000000148e+00 9.936499999999999488e+01 -3.341717000000000048e+00 -1.431623876587505007e-01
1.206800000000000068e+02 -1.312899999999999956e+00 1.256299999999999955e+02 6.218659999999999854e+01 -1.533636559748152439e-01
1.206899999999999977e+02 8.929000000000000270e+00 1.070400000000000063e+02 5.833650999999999698e+00 -9.173787004798536482e-02
1.207000000000000028e+02 -1.082000000000000028e+01 1.048400000000000034e+02 -2.002638999999999925e+01 -6.359768677425900463e-02
1.207000000000000028e+02 -1.305700000000000038e+01 1.070999999999999943e+02 -3.873514000000000124e+00 -5.671096650441370679e-02
1.207000000000000028e+02 2.762999999999999901e+00 1.199500000000000028e+02 2.767436999999999969e+01 -1.555745815467390880e-01
1.207000000000000028e+02 2.762999999999999901e+00 1.231200000000000045e+02 3.826932000000000045e+01 -1.549349315761869295e-01
1.207000000000000028e+02 9.796799999999999287e+00 1.093199999999999932e+02 1.025869999999999926e+01 8.306085607114335745e-02
1.207000000000000028e+02 -1.062299999999999933e+01 1.070000000000000000e+02 -8.816221000000000529e+00 -6.334655743477059231e-02
1.207099999999999937e+02 -1.368200000000000038e+01 1.218799999999999955e+02 4.935187999999999797e-01 -2.232453782235280515e-01
1.207199999999999989e+02 -4.567300000000000360e+00 9.834399999999999409e+01 -1.966148000000000007e+00 -1.298436562827395002e-01
1.207199999999999989e+02 2.597799999999999887e+00 1.032399999999999949e+02 -5.205094000000000110e-01 1.725368807914589298e-01
1.207300000000000040e+02 7.329100000000000392e+00 1.095600000000000023e+02 -4.080125000000000313e+01 1.814001269000480310e-01
1.207500000000000000e+02 -9.537800000000000722e+00 1.028299999999999983e+02 -5.972966999999999693e+00 -1.316693770385022888e-01
1.207600000000000051e+02 2.086899999999999977e+00 1.231400000000000006e+02 3.089350999999999914e+01 -1.545126976081636905e-01
1.207800000000000011e+02 1.754999999999999893e+00 1.019599999999999937e+02 -3.055476000000000081e+00 2.368382274961012557e-01
1.207800000000000011e+02 -1.584900000000000020e+01 1.101500000000000057e+02 3.174764999999999837e+00 -5.245621342358851302e-02
1.207800000000000011e+02 -1.584900000000000020e+01 1.110100000000000051e+02 -1.396918000000000104e+00 -5.269624536015930089e-02
1.207800000000000011e+02 9.899399999999999977e+00 1.180100000000000051e+02 -9.718317000000000405e+01 2.088227853938388542e-02
1.207900000000000063e+02 1.238599999999999923e+01 1.122500000000000000e+02 -4.682971000000000217e-01 9.762945837348811773e-02
1.207900000000000063e+02 -6.024399999999999977e+00 1.231599999999999966e+02 3.957961999999999847e+01 -2.858097239108775001e-01
1.207999999999999972e+02 4.384999999999999787e+00 1.202399999999999949e+02 1.818635000000000090e+01 -2.657280405062389383e-01
1.207999999999999972e+02 4.384999999999999787e+00 1.227500000000000000e+02 9.171071000000000595e+01 -1.560089106980084850e-01
1.208100000000000023e+02 6.627699999999999925e+00 1.155600000000000023e+02 -8.213886999999999716e+00 -7.785503855466416497e-03
1.208100000000000023e+02 -1.038000000000000078e+01 1.063199999999999932e+02 -1.751208000000000098e+01 -6.425894506772412973e-02
1.208100000000000023e+02 3.390600000000000058e+00 1.143799999999999955e+02 2.501208999999999794e+00 6.655561880917575113e-02
1.208100000000000023e+02 -8.923999999999999488e+00 1.211400000000000006e+02 2.763764000000000109e+01 -2.220634775471068689e-01
1.208199999999999932e+02 -1.698199999999999932e+01 1.117699999999999960e+02 3.212073999999999763e-01 -5.165577230553106830e-02
1.208299999999999983e+02 1.457600000000000051e+01 1.137000000000000028e+02 -7.793052999999999786e-01 -1.848493640399775928e-01
1.208299999999999983e+02 1.457600000000000051e+01 1.164500000000000028e+02 5.681545999999999985e+00 -1.547058140982798258e-01
1.208400000000000034e+02 8.419999999999999707e-01 1.232999999999999972e+02 2.534933000000000103e+00 -1.538791672228492780e-01
1.208400000000000034e+02 -1.205100000000000016e+01 1.222600000000000051e+02 7.793739999999999668e+00 -2.225862710596263339e-01
1.208499999999999943e+02 4.847999999999999865e+00 1.144099999999999966e+02 4.651915999999999940e+00 8.970398542610731607e-02
1.208499999999999943e+02 9.070399999999999352e+00 1.065499999999999972e+02 5.090279999999999916e+00 -9.383087435614567706e-02
1.208499999999999943e+02 -4.127299999999999969e+00 9.757899999999999352e+01 -1.096462999999999965e+00 -1.233482731148870526e-01
1.208599999999999994e+02 9.203900000000000858e+00 1.100999999999999943e+02 1.159007000000000076e+01 7.885413009979064247e-02
1.208599999999999994e+02 -1.043999999999999950e+01 1.054800000000000040e+02 -2.552878000000000114e+01 -6.435250867445042877e-02
1.208599999999999994e+02 -1.832300000000000040e+01 1.045199999999999960e+02 -3.578615999999999797e+00 -1.116431194469626742e-01
1.208599999999999994e+02 3.181000000000000050e+00 1.064099999999999966e+02 -3.073930999999999969e+01 -8.936276502899742624e-02
1.208599999999999994e+02 -1.835699999999999932e+01 1.126899999999999977e+02 -6.362280000000000157e-01 -5.073296392629111917e-02
1.208599999999999994e+02 -4.794999999999999929e+00 1.278900000000000006e+02 -5.919131000000000142e+00 -2.584998409088691829e-01
1.208599999999999994e+02 -3.274999999999999911e+00 1.278900000000000006e+02 -1.692847000000000079e+01 -2.591358292859031742e-01
1.208799999999999955e+02 -8.826299999999999812e+00 1.021099999999999994e+02 -5.959101999999999677e+00 -1.339672440301388212e-01
1.208799999999999955e+02 -8.617200000000000415e+00 1.013799999999999955e+02 -4.694262000000000157e+00 -1.332275446426833543e-01
1.208799999999999955e+02 -1.864199999999999946e+01 1.155300000000000011e+02 -1.298245000000000093e+00 -2.365989993980407713e-01
1.208799999999999955e+02 6.096400000000000041e+00 1.150900000000000034e+02 -3.241445999999999827e+00 -1.166315962751029479e-02
1.208799999999999955e+02 -2.796300000000000008e+00 9.715500000000000114e+01 -2.498610000000000220e+00 -6.120406526100495527e-04
1.208900000000000006e+02 -7.868999999999999773e+00 9.972100000000000364e+01 -5.022096000000000338e+00 -1.322274787912635641e-01
1.208900000000000006e+02 6.108999999999999986e+00 1.057600000000000051e+02 -1.476266999999999996e+00 -6.590169048681503161e-02
1.208900000000000006e+02 -1.157300000000000040e+01 1.070999999999999943e+02 -5.423195999999999906e+00 -6.001588526049207728e-02
1.209000000000000057e+02 -1.670100000000000051e+01 1.206500000000000057e+02 5.279947000000000390e-01 -2.243851137423659436e-01
1.209000000000000057e+02 -1.403200000000000003e+01 1.059899999999999949e+02 -1.183319999999999972e+01 -5.397198476110408316e-02
1.209200000000000017e+02 3.700999999999999845e-01 1.178599999999999994e+02 1.104720999999999975e+01 -1.979316537066376502e-01
1.209200000000000017e+02 3.700999999999999845e-01 1.187300000000000040e+02 1.845335999999999999e+01 -2.630032490684202640e-01
1.209200000000000017e+02 -1.108999999999999986e+01 1.040300000000000011e+02 -2.495477999999999952e+01 -1.267691269744721239e-01
1.209200000000000017e+02 -6.021300000000000097e+00 1.222399999999999949e+02 7.384063999999999339e+01 -2.864436315836563773e-01
1.209200000000000017e+02 -1.938899999999999935e+01 1.064099999999999966e+02 -3.424727999999999994e+00 1.552021817592635911e-01
1.209200000000000017e+02 -1.938899999999999935e+01 1.074599999999999937e+02 -4.876829999999999776e-01 1.534189337888762217e-01
1.209300000000000068e+02 4.724000000000000199e+00 1.063199999999999932e+02 -1.270091000000000037e+01 -6.269031036684712122e-02
1.209300000000000068e+02 -1.794699999999999918e+01 1.091299999999999955e+02 1.314321999999999946e+01 -4.963031121702554671e-02
1.209399999999999977e+02 1.173499999999999943e+01 1.166800000000000068e+02 -3.527553999999999856e+00 -1.615924401610249750e-01
1.209500000000000028e+02 -1.829100000000000037e+01 1.162900000000000063e+02 -1.151623999999999981e+00 -2.372757165266402846e-01
1.209599999999999937e+02 7.208700000000000330e+00 1.053599999999999994e+02 -1.188776999999999973e+00 -7.395306553435143648e-02
1.209599999999999937e+02 8.259299999999999642e+00 1.053599999999999994e+02 1.472285000000000066e+00 -8.574613571252116817e-02
1.209599999999999937e+02 8.259299999999999642e+00 1.070600000000000023e+02 3.751824000000000048e+00 -8.988854853561460689e-02
1.209800000000000040e+02 -1.078700000000000081e+01 1.033299999999999983e+02 -1.522938000000000081e+01 -1.264975940710071356e-01
1.209800000000000040e+02 2.049100000000000144e+00 1.161299999999999955e+02 1.818766000000000105e+01 -2.004105916096477757e-01
1.209800000000000040e+02 -1.787199999999999989e+01 1.183100000000000023e+02 3.813468999999999998e+00 -2.386015328137106040e-01
1.209800000000000040e+02 -1.787199999999999989e+01 1.193599999999999994e+02 1.873680000000000012e+00 -2.251274283319989189e-01
1.210000000000000000e+02 7.761700000000000266e+00 1.102600000000000051e+02 -1.394913999999999987e+00 8.395707643009464594e-02
1.210000000000000000e+02 -1.235699999999999932e+01 1.071599999999999966e+02 5.439996999999999971e+00 -5.767148761467136980e-02
1.210100000000000051e+02 -1.438199999999999967e+01 1.219399999999999977e+02 6.631755000000000067e+00 -2.233156606842788272e-01
1.210100000000000051e+02 -1.298199999999999932e+01 1.219399999999999977e+02 4.083136999999999794e+00 -2.229545446544619336e-01
1.210100000000000051e+02 -1.131999999999999895e+00 9.733400000000000318e+01 -8.203086000000000766e+00 -1.229802285050379529e-01
1.210199999999999960e+02 -2.075600000000000023e+01 1.107500000000000000e+02 -1.007611000000000034e+00 -3.544322833104288084e-02
1.210199999999999960e+02 -1.786799999999999855e+01 1.117800000000000011e+02 -2.060723999999999889e-01 -5.057553735899446984e-02
1.210300000000000011e+02 8.627700000000000813e+00 1.062099999999999937e+02 2.311280000000000001e+00 -9.224702552039748538e-02
1.210300000000000011e+02 -1.798000000000000043e+01 1.167600000000000051e+02 3.108922999999999881e+00 -2.377437132927444630e-01
1.210300000000000011e+02 -6.089400000000000368e+00 1.270499999999999972e+02 -2.912484000000000184e-01 -2.578762389297869495e-01
1.210300000000000011e+02 1.302100000000000080e+01 1.167199999999999989e+02 3.952650999999999915e+00 -1.567407395273589799e-01
1.210300000000000011e+02 -1.911400000000000077e+01 1.137900000000000063e+02 4.293504999999999683e+00 -3.765715691643027607e-02
1.210300000000000011e+02 -1.911400000000000077e+01 1.147999999999999972e+02 3.459004999999999885e+00 -2.357978943207756917e-01
1.210400000000000063e+02 -1.073199999999999932e+01 1.227600000000000051e+02 8.425867000000000218e+00 -2.218720199889815115e-01
1.210400000000000063e+02 -1.199699999999999989e+01 1.040999999999999943e+02 -1.066968999999999923e+01 -1.233475206396285884e-01
1.210499999999999972e+02 6.819099999999999717e+00 1.089599999999999937e+02 -3.024880999999999887e+01 -8.500653039066076444e-02
1.210499999999999972e+02 1.175199999999999995e-01 1.014699999999999989e+02 -8.906912000000000162e+00 1.909692780417258096e-01
1.210499999999999972e+02 -6.227400000000000269e+00 1.214500000000000028e+02 1.100897999999999968e+02 -2.871599997006858973e-01
1.210600000000000023e+02 -1.023799999999999955e+01 1.028900000000000006e+02 -8.100631999999999167e+00 -1.279198964236863134e-01
1.210699999999999932e+02 7.060299999999999798e+00 1.162600000000000051e+02 -3.898026000000000213e+00 -1.739898132064851815e-03
1.210799999999999983e+02 3.635299999999999976e+00 1.200100000000000051e+02 2.737205000000000155e+01 -1.558574064047877072e-01
1.210799999999999983e+02 3.635299999999999976e+00 1.230600000000000023e+02 5.491633000000000209e+01 -1.551277028387117729e-01
1.210799999999999983e+02 9.141999999999999460e+00 1.180999999999999943e+02 -1.830377999999999972e+01 1.849434559248134408e-02
1.210799999999999983e+02 -8.468999999999999417e+00 1.208599999999999994e+02 4.180646000000000129e+01 -2.219219685526793440e-01
1.210799999999999983e+02 -9.356700000000000017e+00 1.218400000000000034e+02 2.369324999999999903e+01 -2.217703429555390460e-01
1.210799999999999983e+02 6.550900000000000389e+00 1.082000000000000028e+02 -2.055553000000000097e+01 -8.237344378755270813e-02
1.210799999999999983e+02 6.550900000000000389e+00 1.097199999999999989e+02 -2.919037000000000148e+01 1.838014368281054856e-01
1.210799999999999983e+02 7.597900000000000098e+00 1.176899999999999977e+02 -3.769646999999999970e+00 9.176159250432193784e-03
1.210799999999999983e+02 9.222900000000000542e-01 1.171500000000000057e+02 6.212431999999999732e+00 -1.984601610202711974e-01
1.210799999999999983e+02 -7.105500000000000149e+00 1.240600000000000023e+02 2.149549999999999983e+01 -2.856969645314694217e-01
1.210799999999999983e+02 -1.015099999999999891e+00 9.984799999999999898e+01 -1.994629000000000119e+01 -1.328293358343980990e-01
1.210799999999999983e+02 -1.015099999999999891e+00 1.007099999999999937e+02 -5.958186999999999678e+00 -1.325530117989697776e-01
1.210799999999999983e+02 -1.706500000000000128e+01 1.041400000000000006e+02 -4.931394000000000055e+00 -1.121184308649388478e-01
1.210900000000000034e+02 4.863999999999999879e+00 1.210199999999999960e+02 5.357316000000000145e+01 -2.645881425292135325e-01
1.210900000000000034e+02 4.863999999999999879e+00 1.219699999999999989e+02 1.000441000000000003e+02 -1.563391430954967076e-01
1.210999999999999943e+02 2.909499999999999975e+00 1.152399999999999949e+02 3.670720999999999901e+00 -2.020029158060306362e-01
1.211099999999999994e+02 7.265900000000000247e+00 1.070799999999999983e+02 1.045390000000000041e+00 -8.412922523160085153e-02
1.211099999999999994e+02 2.391599999999999948e+00 1.021099999999999994e+02 -5.201196999999999626e+00 2.745904530455655149e-02
1.211099999999999994e+02 -8.219800000000000439e-01 1.252399999999999949e+02 2.188363999999999976e+01 -1.531679257468754329e-01
1.211200000000000045e+02 4.090600000000000236e+00 1.143299999999999983e+02 6.379131000000000107e+00 9.174034211771193992e-02
1.211299999999999955e+02 2.748299999999999965e+00 1.057099999999999937e+02 -3.386090000000000089e+01 -8.489978080791873993e-02
1.211400000000000006e+02 6.854300000000000281e+00 1.075000000000000000e+02 -8.030521000000000242e+00 -8.271454930914086401e-02
1.211400000000000006e+02 6.854300000000000281e+00 1.104200000000000017e+02 -1.889774999999999849e+01 8.874029347369012666e-02
1.211500000000000057e+02 -7.019999999999999574e+00 1.270199999999999960e+02 -5.021421000000000356e-01 -2.575083481658632656e-01
1.211599999999999966e+02 -9.853400000000000603e+00 1.226200000000000045e+02 1.414509999999999934e+01 -2.215712671763978014e-01
1.211599999999999966e+02 3.880999999999999783e+00 1.064699999999999989e+02 -1.596014000000000088e+01 -9.357990036357374808e-02
1.211700000000000017e+02 -2.059600000000000009e+01 1.145799999999999983e+02 1.536912999999999974e+00 -3.838571089411685344e-02
1.211700000000000017e+02 1.082499999999999929e+01 1.094500000000000028e+02 2.082281000000000049e+00 7.396844510579086984e-02
1.211800000000000068e+02 -1.563299999999999912e+01 1.216400000000000006e+02 1.739517000000000024e+01 -2.236877883391809319e-01
1.211800000000000068e+02 9.360500000000000487e-01 1.195000000000000000e+02 2.328556999999999988e+01 -2.633145327351147924e-01
1.211800000000000068e+02 1.051999999999999957e+01 1.171500000000000057e+02 -3.937154999999999916e+01 2.086892312082232886e-02
1.212000000000000028e+02 -1.551500000000000057e+01 1.046099999999999994e+02 -3.742229000000000028e+00 -1.151556368721875501e-01
1.212000000000000028e+02 -1.154299999999999926e+01 1.032999999999999972e+02 -7.162529000000000146e+00 -1.230242948013112736e-01
1.212000000000000028e+02 -8.395300000000000651e+00 1.250499999999999972e+02 1.544251000000000040e+00 -2.857094046786360919e-01
1.212000000000000028e+02 -8.395300000000000651e+00 1.260999999999999943e+02 -2.032593000000000039e-01 -2.851666305547390090e-01
1.212000000000000028e+02 1.214700000000000024e+01 1.104800000000000040e+02 5.476340999999999681e+00 8.312578823107111270e-02
1.212099999999999937e+02 -1.156400000000000006e+01 1.049399999999999977e+02 -1.990569999999999951e+01 -5.952682791137077489e-02
1.212099999999999937e+02 1.054999999999999938e+00 1.016899999999999977e+02 -3.209427999999999948e+00 2.121716019857671776e-01
1.212099999999999937e+02 -1.654899999999999949e+01 1.098799999999999955e+02 2.583142000000000138e+01 -5.081261386415263093e-02
1.212099999999999937e+02 -1.654899999999999949e+01 1.112800000000000011e+02 5.779173000000000116e+00 -5.132166539896267782e-02
1.212300000000000040e+02 1.318200000000000038e+00 1.234099999999999966e+02 1.169935000000000080e+01 -1.537220199964774436e-01
1.212399999999999949e+02 -7.138399999999999856e+00 9.955299999999999727e+01 -1.561684999999999945e+01 -1.372779588566718223e-01
1.212399999999999949e+02 -1.866100000000000136e+01 1.115100000000000051e+02 -4.228590999999999878e-01 -4.954154073906239658e-02
1.212399999999999949e+02 -1.746000000000000085e+01 1.112000000000000028e+02 1.173774000000000095e+00 -5.037882833422285822e-02
1.212399999999999949e+02 4.093800000000000217e-01 1.237900000000000063e+02 4.498148999999999731e+00 -1.533760365044192775e-01
1.212399999999999949e+02 -1.401099999999999923e+01 1.048400000000000034e+02 -7.227125000000000021e+00 -1.186826194012517294e-01
1.212399999999999949e+02 -1.985000000000000142e+01 1.147999999999999972e+02 2.777080999999999911e+00 -3.855673818198469827e-02
1.212399999999999949e+02 -2.938200000000000256e-01 1.248400000000000034e+02 3.980630000000000002e-01 -1.531872112402455632e-01
1.212600000000000051e+02 -1.922100000000000009e+01 1.057300000000000040e+02 -3.339716999999999825e+00 1.567667471702427762e-01
1.212600000000000051e+02 -1.750600000000000023e+01 1.097300000000000040e+02 1.824270999999999887e+01 -4.971410300284449801e-02
1.212699999999999960e+02 -1.279599999999999937e+01 1.040999999999999943e+02 -6.879794000000000409e+00 -1.204333871821651469e-01
1.212699999999999960e+02 -1.102999999999999936e+01 1.025699999999999932e+02 -6.454189000000000398e+00 -1.231594444368824676e-01
1.212699999999999960e+02 6.019999999999999574e+00 1.089599999999999937e+02 -4.561621000000000237e+01 -8.255031936551640581e-02
1.212699999999999960e+02 -1.624599999999999866e+01 1.105799999999999983e+02 5.951131000000000171e+00 -5.129600554554653025e-02
1.212699999999999960e+02 -2.164999999999999858e+01 1.107500000000000000e+02 -9.568545000000000522e-01 -3.580228381243977936e-02
1.212699999999999960e+02 -1.986199999999999832e+01 1.107500000000000000e+02 -5.790146999999999933e-01 -3.542351577370279198e-02
1.212800000000000011e+02 7.733999999999999986e+00 1.062099999999999937e+02 3.634360000000000035e+00 -8.728064891218528798e-02
1.212800000000000011e+02 -8.535500000000000753e+00 1.006099999999999994e+02 -1.023579999999999934e+01 -1.307545098285247953e-01
1.212800000000000011e+02 -1.894000000000000128e+01 1.048900000000000006e+02 -4.205394000000000077e+00 -1.111755813363517753e-01
1.212900000000000063e+02 8.503899999999999793e+00 1.103599999999999994e+02 1.153677000000000064e+01 7.905845240605463564e-02
1.212900000000000063e+02 -1.876999999999999957e+01 1.089099999999999966e+02 7.887671000000000543e-01 -4.826870181548800071e-02
1.212900000000000063e+02 -1.114000000000000057e+01 1.052099999999999937e+02 -3.373017000000000110e+01 -6.071703654249581417e-02
1.212900000000000063e+02 -1.114000000000000057e+01 1.066099999999999994e+02 -1.467460999999999949e+01 -6.041491624106807429e-02
1.212999999999999972e+02 -6.622900000000000453e-01 9.809399999999999409e+01 -1.157953000000000010e+01 -1.290415520911792069e-01
1.212999999999999972e+02 -6.622900000000000453e-01 9.903400000000000603e+01 -3.579975000000000307e+01 -1.327102427994869271e-01
1.213100000000000023e+02 -2.147599999999999909e+01 1.145799999999999983e+02 -6.469875999999999960e-01 -3.851578372687440577e-02
1.213100000000000023e+02 -1.734700000000000131e+01 1.202099999999999937e+02 4.103663000000000172e-01 -2.246063813764961614e-01
