6.901900000000000546e+01 9.040999999999999659e+01 2.789999999999999858e+01 -6.675984000000000362e-01 -1.567216530021315127e-02
6.902500000000000568e+01 8.913700000000000045e+01 2.680799999999999983e+01 -1.361061999999999994e+00 1.630602066438386483e-02
6.903100000000000591e+01 7.215200000000000102e+01 2.837500000000000000e+01 -1.651751000000000147e+01 -2.757414001843677687e-01
6.904300000000000637e+01 9.030299999999999727e+01 2.264300000000000068e+01 3.396908000000000150e-01 -8.893951755769362311e-02
6.904999999999999716e+01 7.935899999999999466e+01 3.435000000000000142e+01 8.707117999999999469e+00 -1.680478693402935042e-01
6.906499999999999773e+01 9.183400000000000318e+01 2.439099999999999824e+01 -5.204109999999999986e-02 -1.004405434833025579e-01
6.906900000000000261e+01 7.472100000000000364e+01 2.258599999999999852e+01 -2.769353999999999871e+00 -1.114457458215081936e-01
6.907099999999999795e+01 9.292600000000000193e+01 2.801999999999999957e+01 1.319477000000000011e-01 -3.821624523891693770e-02
6.908299999999999841e+01 7.324599999999999511e+01 2.850799999999999912e+01 -5.447046999999999883e+01 -2.725280282459534575e-01
6.909900000000000375e+01 7.511100000000000421e+01 2.300400000000000134e+01 -2.745728000000000169e+00 -1.100445620653486001e-01
6.910899999999999466e+01 8.299599999999999511e+01 3.185900000000000176e+01 9.177941999999999823e+00 -2.702700722448315163e-01
6.910999999999999943e+01 8.446299999999999386e+01 2.906800000000000139e+01 1.451143000000000072e+01 -1.025929077894544190e-02
6.912800000000000011e+01 9.283199999999999363e+01 2.892200000000000060e+01 -1.850322999999999940e+00 -3.912682434363874001e-02
6.914600000000000080e+01 9.333100000000000307e+01 2.605000000000000071e+01 -1.280594000000000010e+00 -1.107944045541393863e-01
6.914600000000000080e+01 9.333100000000000307e+01 2.710000000000000142e+01 6.792671000000000125e-01 -2.648703887838851218e-02
6.914900000000000091e+01 7.935899999999999466e+01 3.703999999999999915e+01 4.330816999999999695e+00 -1.934929698445629898e-01
6.915099999999999625e+01 8.190099999999999625e+01 2.776800000000000068e+01 3.039675000000000082e+01 -7.998891510255176640e-02
6.915099999999999625e+01 8.309199999999999875e+01 2.843199999999999861e+01 1.247203000000000017e+01 -1.268508710241651738e-02
6.915699999999999648e+01 7.235200000000000387e+01 1.544800000000000040e+01 -5.751844000000000179e+00 -1.046287228124198332e-01
6.915800000000000125e+01 9.086899999999999977e+01 2.873000000000000043e+01 -3.765957999999999806e-01 -2.722949898694062079e-02
6.916200000000000614e+01 7.185599999999999454e+01 1.618100000000000094e+01 -5.795268000000000086e+00 -1.044709556676587381e-01
6.916400000000000148e+01 7.110899999999999466e+01 2.210900000000000176e+01 -4.559186999999999657e+00 -1.026098140386180191e-01
6.916899999999999693e+01 8.040300000000000580e+01 3.438400000000000034e+01 5.181723999999999997e+00 -2.523588550459166524e-01
6.917900000000000205e+01 7.369700000000000273e+01 1.461100000000000065e+01 -6.668363000000000262e+00 -1.047291690245498730e-01
6.918600000000000705e+01 8.166400000000000148e+01 2.683800000000000097e+01 2.525412999999999997e+01 -7.000974948866245384e-02
6.918899999999999295e+01 7.810500000000000398e+01 3.524199999999999733e+01 2.085872000000000170e+00 -1.620636506015956657e-01
6.918899999999999295e+01 7.810500000000000398e+01 3.620000000000000284e+01 2.829422000000000104e+00 -1.692154027308410691e-01
6.918899999999999295e+01 8.061299999999999955e+01 3.524199999999999733e+01 9.039348999999999634e+00 -1.860404757719460178e-01
6.918899999999999295e+01 8.061299999999999955e+01 3.620000000000000284e+01 6.517621000000000109e+00 -1.959897758940205292e-01
6.919100000000000250e+01 9.156300000000000239e+01 2.968199999999999861e+01 -9.990345000000000475e-01 9.357604172685492216e-02
6.919100000000000250e+01 9.250300000000000011e+01 2.968199999999999861e+01 -1.939692999999999889e+00 -6.504557860693568894e-02
6.919400000000000261e+01 7.449800000000000466e+01 2.095599999999999952e+01 3.687427999999999817e-01 -1.031317854594499400e-01
6.920699999999999363e+01 8.722400000000000375e+01 2.459700000000000131e+01 2.394070999999999838e+00 3.721193414280503375e-02
6.921299999999999386e+01 7.104800000000000182e+01 2.058699999999999974e+01 -1.472469000000000028e+00 -1.095834332839456665e-01
6.921399999999999864e+01 8.793000000000000682e+01 2.548000000000000043e+01 -6.460789000000000115e-01 3.369204556788024663e-02
6.921999999999999886e+01 7.697199999999999420e+01 3.051399999999999935e+01 -2.110379999999999967e+01 -2.804894861499598879e-01
6.922299999999999898e+01 7.141299999999999670e+01 2.140899999999999892e+01 -8.489952000000000609e+00 -1.067629108954925021e-01
6.922299999999999898e+01 7.458599999999999852e+01 2.203399999999999892e+01 5.859190999999999860e+01 -1.019217261792403628e-01
6.922499999999999432e+01 8.158100000000000307e+01 2.632600000000000051e+01 -1.433454999999999924e+00 -6.491495752998002744e-02
6.923099999999999454e+01 7.780299999999999727e+01 3.039099999999999824e+01 -1.884843000000000046e+01 -2.809298594684829786e-01
6.923099999999999454e+01 7.866899999999999693e+01 3.039099999999999824e+01 -5.561557999999999780e+00 -2.820317814551421831e-01
6.924399999999999977e+01 8.400600000000000023e+01 3.208400000000000318e+01 1.885817000000000121e+01 3.666029284279001543e-02
6.924699999999999989e+01 7.481699999999999307e+01 1.483900000000000041e+01 -1.486477999999999966e+01 -1.046364579232451630e-01
6.925400000000000489e+01 7.575100000000000477e+01 3.011599999999999966e+01 -8.165388000000000090e+00 -2.800261379730299427e-01
6.927400000000000091e+01 8.025000000000000000e+01 3.166199999999999903e+01 -4.599687000000000303e+00 -3.645405807114030505e-01
6.927899999999999636e+01 8.026200000000000045e+01 2.402299999999999969e+01 -1.236627999999999972e+01 -7.358247651845860327e-02
6.928400000000000603e+01 7.623499999999999943e+01 3.040899999999999892e+01 -6.505991999999999997e+00 -2.805085235672409860e-01
6.928799999999999670e+01 8.538100000000000023e+01 3.116300000000000026e+01 2.319872000000000156e+01 2.408963647632440808e-02
6.929000000000000625e+01 7.896599999999999397e+01 3.085399999999999920e+01 -2.483516999999999975e+00 -2.837720646056512974e-01
6.929900000000000659e+01 8.668999999999999773e+01 2.386899999999999977e+01 3.337181999999999871e+00 -3.195732337047575700e-02
6.930100000000000193e+01 9.158599999999999852e+01 2.366799999999999926e+01 6.665447000000000344e+00 -9.386427226068971841e-02
6.930299999999999727e+01 7.601800000000000068e+01 1.576699999999999946e+01 -3.310696000000000083e+01 -8.860816096018497845e-02
6.930299999999999727e+01 7.601800000000000068e+01 1.670700000000000074e+01 -4.584208000000000283e+01 -9.039669639832276227e-02
6.930700000000000216e+01 8.825700000000000500e+01 2.200300000000000011e+01 -1.084905000000000008e+00 -4.574120297733528379e-02
6.931499999999999773e+01 7.112399999999999523e+01 1.956500000000000128e+01 2.480541999999999803e+00 -1.132403047248648625e-01
6.932999999999999829e+01 8.156600000000000250e+01 2.570499999999999829e+01 -8.243569000000000813e+00 -5.918218894641097405e-02
6.934799999999999898e+01 7.926999999999999602e+01 3.155399999999999849e+01 -3.362554999999999961e+00 -2.866066077875514262e-01
6.935099999999999909e+01 8.688200000000000500e+01 2.292399999999999949e+01 -1.017050000000000010e+00 -3.198741972892128055e-02
6.935200000000000387e+01 7.712099999999999511e+01 2.275000000000000000e+01 -6.867853000000000208e+00 -1.006884618845066137e-01
6.935500000000000398e+01 7.588700000000000045e+01 2.294000000000000128e+01 4.119002999999999970e-01 -1.004197859702345985e-01
6.935899999999999466e+01 7.122499999999999432e+01 1.874500000000000099e+01 -1.971934000000000076e+00 -1.032008840341005901e-01
6.936199999999999477e+01 7.452599999999999625e+01 2.899899999999999878e+01 -9.291147000000000489e+00 -2.691839163843571803e-01
6.936299999999999955e+01 7.853700000000000614e+01 3.439099999999999824e+01 5.274042999999999815e+00 -1.642854335949143485e-01
6.936299999999999955e+01 8.003400000000000603e+01 3.360099999999999909e+01 1.157156999999999947e+01 -2.472111792526813789e-01
6.937199999999999989e+01 8.118399999999999750e+01 3.166900000000000048e+01 2.165989000000000164e+00 -3.653778660495156094e-01
6.938299999999999557e+01 8.123600000000000421e+01 2.489799999999999969e+01 -6.752655999999999992e+00 -5.330892293518707525e-02
6.938800000000000523e+01 7.847100000000000364e+01 2.212300000000000111e+01 -6.062050000000000161e+00 -1.008549073963476567e-01
6.938800000000000523e+01 7.976399999999999579e+01 2.284400000000000119e+01 -1.398406999999999911e+01 -7.601690824549862946e-02
6.939199999999999591e+01 8.217300000000000182e+01 3.173499999999999943e+01 1.694472000000000023e+01 -2.472680294748330621e-01
6.939400000000000546e+01 7.518600000000000705e+01 1.807499999999999929e+01 -1.078008999999999951e+01 -1.041396314337282025e-01
6.939799999999999613e+01 7.075499999999999545e+01 2.176500000000000057e+01 -5.805810000000000137e+00 -1.027453579133998096e-01
6.939799999999999613e+01 7.075499999999999545e+01 2.328300000000000125e+01 -8.528893999999999309e+00 -9.390354725083586984e-02
6.940600000000000591e+01 8.548000000000000398e+01 3.015899999999999892e+01 1.127392000000000039e+01 3.110078758349979662e-03
6.942100000000000648e+01 8.956999999999999318e+01 2.729899999999999949e+01 -1.422882999999999898e+00 6.677356080103466138e-03
6.943300000000000693e+01 7.048699999999999477e+01 2.252400000000000091e+01 -5.149594999999999700e+00 -9.794372215486354949e-02
6.944899999999999807e+01 8.627599999999999625e+01 2.455900000000000105e+01 -3.132276000000000060e+00 -3.368923593644862491e-02
6.946299999999999386e+01 8.855400000000000205e+01 2.632499999999999929e+01 -2.221159000000000106e+00 2.511060237051363636e-02
6.946899999999999409e+01 7.156900000000000261e+01 2.789199999999999946e+01 -1.544159999999999933e+01 -2.774034373884154414e-01
6.948000000000000398e+01 7.367799999999999727e+01 2.899899999999999878e+01 -1.118512999999999913e+01 -2.719648904641278064e-01
6.948499999999999943e+01 7.858400000000000318e+01 3.697500000000000142e+01 4.945235999999999876e+01 -1.857200989633710775e-01
6.948499999999999943e+01 8.013400000000000034e+01 3.697500000000000142e+01 3.474074999999999847e+01 -2.024675374914462755e-01
6.949099999999999966e+01 9.284199999999999875e+01 2.504100000000000037e+01 -2.547096999999999944e+00 -1.009016143105731650e-01
6.950900000000000034e+01 7.481600000000000250e+01 1.990500000000000114e+01 -3.677700999999999887e+00 -1.030618733074372961e-01
6.950900000000000034e+01 7.506999999999999318e+01 1.901099999999999923e+01 -4.585188999999999737e+00 -1.035437432702538685e-01
6.951300000000000523e+01 7.502899999999999636e+01 2.981400000000000006e+01 -6.235985999999999585e+00 -2.812185490982679337e-01
6.952100000000000080e+01 7.912199999999999989e+01 3.209499999999999886e+01 6.800087999999999688e-01 -2.891882707580329948e-01
6.952100000000000080e+01 8.094599999999999795e+01 3.209499999999999886e+01 -3.051018000000000008e+00 -2.427645294592963021e-01
6.952400000000000091e+01 8.977800000000000580e+01 2.204700000000000060e+01 1.004557999999999979e-01 -8.654785643139770168e-02
6.952899999999999636e+01 7.168999999999999773e+01 2.545400000000000063e+01 -1.047625999999999991e+01 -7.762322889030447148e-02
6.952899999999999636e+01 7.168999999999999773e+01 2.631899999999999906e+01 -2.293365999999999971e+01 -6.904356055121593783e-02
6.953400000000000603e+01 7.115900000000000603e+01 2.417200000000000060e+01 -7.169566999999999801e+00 -8.781901356379215318e-02
6.953700000000000614e+01 7.154300000000000637e+01 2.726300000000000168e+01 -2.579378000000000171e+01 -2.772048385709420804e-01
6.954000000000000625e+01 8.999200000000000443e+01 2.843799999999999883e+01 -4.285190999999999861e-01 -4.468448166898815813e-03
6.954099999999999682e+01 7.978100000000000591e+01 3.236200000000000188e+01 2.228971000000000036e+00 -3.650260834407307309e-01
6.954399999999999693e+01 9.074899999999999523e+01 2.946399999999999864e+01 -2.464723000000000053e-01 1.065887573989027504e-01
6.954699999999999704e+01 7.947799999999999443e+01 3.279099999999999682e+01 4.947129999999999583e+00 -1.703539559053392771e-01
6.954699999999999704e+01 8.059000000000000341e+01 3.279099999999999682e+01 4.458885000000000431e+00 -2.444954392493653150e-01
6.954699999999999704e+01 7.822400000000000375e+01 3.115399999999999991e+01 -3.756463000000000108e+00 -2.847082031327728968e-01
6.956799999999999784e+01 9.115300000000000580e+01 2.296799999999999997e+01 7.872899999999999565e+00 -8.952828028106098179e-02
6.956900000000000261e+01 7.154099999999999682e+01 2.492899999999999849e+01 -6.514988999999999919e+00 -8.208217579625635973e-02
6.958400000000000318e+01 8.239199999999999591e+01 2.816499999999999915e+01 2.117267000000000010e+01 -1.103441151505915249e-02
6.959099999999999397e+01 9.030800000000000693e+01 2.919900000000000162e+01 -9.879522000000000304e-02 1.036536675282921094e-01
6.959199999999999875e+01 8.906300000000000239e+01 2.196600000000000108e+01 -1.403963999999999990e+00 -6.854651356988915312e-02
6.959300000000000352e+01 7.554800000000000182e+01 1.500699999999999967e+01 -7.748770000000000380e+00 -8.860630616195983023e-02
6.959399999999999409e+01 7.564700000000000557e+01 1.752700000000000102e+01 -1.245168999999999926e+01 -1.037575281134009153e-01
6.960599999999999454e+01 7.852700000000000102e+01 3.185399999999999920e+01 2.522397999999999918e+00 -2.877425475521991904e-01
6.960800000000000409e+01 9.336599999999999966e+01 2.844999999999999929e+01 -2.082803000000000182e+00 -2.045166457292637782e-02
6.961299999999999955e+01 8.485599999999999454e+01 2.926300000000000168e+01 5.936640999999999835e+00 -4.347273714099314859e-03
6.961299999999999955e+01 8.485599999999999454e+01 3.201299999999999812e+01 3.383756000000000341e+01 -1.699372986129673857e-01
6.961400000000000432e+01 8.698099999999999454e+01 2.537099999999999866e+01 -1.397293000000000007e-01 3.745414330047781848e-02
6.961700000000000443e+01 8.092799999999999727e+01 3.360099999999999909e+01 6.737427000000000277e+00 -2.480027352773799265e-01
6.962199999999999989e+01 7.806799999999999784e+01 3.471699999999999875e+01 1.983681000000000028e+00 -1.646452629983352622e-01
6.962199999999999989e+01 9.203300000000000125e+01 3.021499999999999986e+01 -6.938177999999999734e+00 1.162173742262487403e-01
6.962900000000000489e+01 7.409300000000000352e+01 2.969900000000000162e+01 -6.343418999999999919e+00 -2.712709785239138527e-01
6.963899999999999579e+01 8.390099999999999625e+01 2.861700000000000088e+01 2.422550999999999988e+01 -5.774770207039202005e-03
6.965500000000000114e+01 7.642100000000000648e+01 2.280799999999999983e+01 -1.953400000000000025e+00 -9.960755543714094884e-02
6.966100000000000136e+01 9.326300000000000523e+01 2.939199999999999946e+01 -4.112034000000000411e+00 -2.945560602747056972e-02
6.967600000000000193e+01 8.740699999999999648e+01 2.207400000000000162e+01 -1.576753000000000071e+00 -3.947691837218075817e-02
6.967600000000000193e+01 8.547700000000000387e+01 2.455900000000000105e+01 -5.966620999999999730e-01 -3.780126226727908295e-02
6.968000000000000682e+01 7.158499999999999375e+01 2.856299999999999883e+01 -6.381006000000000178e+00 -2.780018551126782755e-01
6.968200000000000216e+01 8.899299999999999500e+01 2.745200000000000173e+01 -1.041579999999999950e+00 1.587928749035101561e-02
6.969799999999999329e+01 9.112800000000000011e+01 2.243100000000000094e+01 2.096391999999999811e+00 -8.696964559681805151e-02
6.970000000000000284e+01 7.266599999999999682e+01 2.914399999999999835e+01 -6.827056999999999931e+00 -2.754502615756412864e-01
6.971999999999999886e+01 7.114900000000000091e+01 1.758299999999999841e+01 -8.344858000000000331e+00 -1.029814650384915098e-01
6.971999999999999886e+01 7.140300000000000580e+01 1.668900000000000006e+01 -5.190061000000000035e+00 -1.033064616451844914e-01
6.972299999999999898e+01 7.856100000000000705e+01 3.393200000000000216e+01 2.124479000000000006e+00 -1.668711887966645990e-01
6.972799999999999443e+01 9.066400000000000148e+01 2.205999999999999872e+01 6.250107000000000301e-01 -8.600015891100008802e-02
6.973900000000000432e+01 8.580599999999999739e+01 2.379899999999999949e+01 1.004637999999999920e+00 -3.126758772152853777e-02
6.973900000000000432e+01 8.580599999999999739e+01 2.531899999999999906e+01 -9.558967000000000436e-01 3.177165233263377908e-02
6.974899999999999523e+01 8.926999999999999602e+01 2.826500000000000057e+01 -4.425332000000000154e-01 9.563124975285306612e-03
6.976699999999999591e+01 7.321299999999999386e+01 2.975199999999999889e+01 -4.720301000000000080e+00 -2.743905970010181994e-01
6.976900000000000546e+01 8.375199999999999534e+01 3.242699999999999960e+01 1.763400000000000034e+01 -2.728714483628435494e-01
6.978100000000000591e+01 7.886400000000000432e+01 3.323199999999999932e+01 1.321222000000000030e+01 -1.684637244152683844e-01
6.979800000000000182e+01 8.805700000000000216e+01 2.896699999999999875e+01 9.313971000000000444e+00 2.400870196334291967e-02
6.979999999999999716e+01 8.957200000000000273e+01 2.919900000000000162e+01 1.515047000000000033e+00 1.134170534884215709e-01
6.980100000000000193e+01 7.401999999999999602e+01 1.465099999999999980e+01 -6.130100999999999800e+00 -1.037000547758577113e-01
6.980899999999999750e+01 8.186299999999999955e+01 3.229200000000000159e+01 9.840481000000000478e+00 -2.432697815293747290e-01
6.980899999999999750e+01 8.272899999999999920e+01 3.229200000000000159e+01 2.089799999999999969e+01 -2.663762605141813955e-01
6.981799999999999784e+01 7.299099999999999966e+01 1.513599999999999923e+01 -5.795457999999999998e+00 -1.036145327991615517e-01
6.982099999999999795e+01 7.738299999999999557e+01 3.114499999999999957e+01 -1.092088000000000036e+01 -2.852052350726205221e-01
6.982800000000000296e+01 8.609300000000000352e+01 3.055499999999999972e+01 8.268890999999999991e+00 -1.864344041625467518e-01
6.982800000000000296e+01 8.146999999999999886e+01 3.289399999999999835e+01 9.415608000000000644e+00 -2.450533281269721697e-01
6.984199999999999875e+01 7.927200000000000557e+01 2.227899999999999991e+01 -5.746236999999999817e+00 -7.819079243389966127e-02
6.984600000000000364e+01 8.073199999999999932e+01 2.435500000000000043e+01 -9.504429000000000016e+00 -6.636626298533036816e-02
6.986599999999999966e+01 9.205599999999999739e+01 2.395299999999999940e+01 7.146844999999999448e-01 -9.337370489779719951e-02
6.987399999999999523e+01 7.540699999999999648e+01 2.252499999999999858e+01 2.718020999999999798e+00 -1.096629667858513013e-01
6.988899999999999579e+01 7.768600000000000705e+01 3.567399999999999949e+01 3.303754000000000079e+00 -1.696175584625887189e-01
6.988899999999999579e+01 8.103199999999999648e+01 3.480899999999999750e+01 1.355320000000000036e+01 -2.563213780241680451e-01
6.991599999999999682e+01 8.890399999999999636e+01 2.896699999999999875e+01 1.700774999999999926e+00 1.396213088063532129e-02
6.991599999999999682e+01 8.736700000000000443e+01 3.128999999999999915e+01 1.492127999999999943e+01 -1.955460406706432952e-01
6.992000000000000171e+01 8.190300000000000580e+01 2.527100000000000080e+01 -1.872803000000000040e+01 -5.604333706991380254e-02
6.992000000000000171e+01 8.190300000000000580e+01 2.621099999999999852e+01 -3.091564999999999941e+01 -6.424287709040422956e-02
6.992100000000000648e+01 8.179200000000000159e+01 2.700799999999999912e+01 5.585018000000000482e-01 -7.179707532691823046e-02
6.992100000000000648e+01 8.200100000000000477e+01 2.774399999999999977e+01 1.169502999999999915e+01 -8.355168896016736124e-03
6.993300000000000693e+01 8.764700000000000557e+01 2.602700000000000102e+01 -8.002749999999999586e-01 3.191882566831237555e-02
6.994299999999999784e+01 9.351800000000000068e+01 2.745499999999999829e+01 1.208247000000000071e+01 -1.192507377046499312e-01
6.995000000000000284e+01 8.856100000000000705e+01 2.815200000000000102e+01 1.785528999999999922e+00 1.985396492217702397e-02
6.995099999999999341e+01 9.127299999999999613e+01 3.015200000000000102e+01 -6.740359999999999907e+00 1.342610885751560901e-01
6.995099999999999341e+01 9.279300000000000637e+01 3.015200000000000102e+01 -1.768862999999999985e+01 -1.197574493171054376e-02
6.995199999999999818e+01 8.570699999999999363e+01 3.176000000000000156e+01 1.415442999999999962e+01 -1.763362752168363967e-01
6.995399999999999352e+01 7.356799999999999784e+01 3.054899999999999949e+01 -4.370493999999999879e+00 -2.744443155706257631e-01
6.995399999999999352e+01 7.461799999999999500e+01 3.054899999999999949e+01 -4.769739000000000395e+00 -2.846401084593067066e-01
6.995399999999999352e+01 7.548399999999999466e+01 3.054899999999999949e+01 -1.239284999999999970e+00 -2.841208951852803866e-01
6.995399999999999352e+01 8.815699999999999648e+01 2.675700000000000145e+01 -1.058036999999999894e+00 2.689607436912350158e-02
6.996399999999999864e+01 7.804000000000000625e+01 3.653600000000000136e+01 4.560654999999999859e+01 -1.794847655099022499e-01
6.996399999999999864e+01 7.935899999999999466e+01 3.727100000000000080e+01 3.184231000000000122e+01 -1.995854708001799094e-01
6.996399999999999864e+01 8.067799999999999727e+01 3.653600000000000136e+01 6.410750000000000171e+01 2.736993932599229157e-02
6.996399999999999864e+01 8.090900000000000603e+01 3.572099999999999653e+01 3.839262000000000086e+01 -2.653644844578811335e-01
6.996599999999999397e+01 7.005599999999999739e+01 2.205399999999999849e+01 -5.344819000000000209e+00 -9.798993698217202397e-02
6.996599999999999397e+01 7.005599999999999739e+01 2.299399999999999977e+01 -5.626692000000000249e+00 -9.277077018027705957e-02
6.996800000000000352e+01 7.223300000000000409e+01 2.984400000000000119e+01 -9.507419999999999760e+00 -2.777838629246538460e-01
6.997899999999999920e+01 7.171899999999999409e+01 2.975499999999999901e+01 -7.462082999999999799e+00 -2.791723862418874491e-01
6.998099999999999454e+01 8.625000000000000000e+01 2.320499999999999829e+01 1.079848999999999926e+01 -3.360667251470707273e-02
6.998199999999999932e+01 8.750100000000000477e+01 2.977700000000000102e+01 9.844903000000000404e+00 -1.985169330287445966e-01
6.998300000000000409e+01 8.584099999999999397e+01 2.964399999999999835e+01 7.502174000000000120e+00 -2.892242027110267233e-01
6.998799999999999955e+01 7.776999999999999602e+01 3.188899999999999935e+01 5.746629999999999683e+00 -2.888126615873145564e-01
6.998799999999999955e+01 8.651399999999999579e+01 3.159600000000000009e+01 3.993536000000000197e+00 -1.843374484343031638e-01
6.999599999999999511e+01 9.340200000000000102e+01 2.568100000000000094e+01 -6.844995000000000385e-01 -1.292137473012739401e-01
6.999599999999999511e+01 9.365600000000000591e+01 2.657499999999999929e+01 2.120964999999999989e+01 -1.182893016765540484e-01
6.999599999999999511e+01 9.104500000000000171e+01 2.129899999999999949e+01 -6.691562000000000232e+00 -8.345767826056924021e-02
6.999800000000000466e+01 8.315900000000000603e+01 2.857000000000000028e+01 7.511363000000000056e+01 -7.287755849703439481e-03
7.000199999999999534e+01 7.642600000000000193e+01 3.093199999999999861e+01 -2.218344000000000094e+00 -2.851009791236565061e-01
7.001900000000000546e+01 8.175199999999999534e+01 3.339900000000000091e+01 9.212021000000000015e+00 -2.469570614606390324e-01
7.002599999999999625e+01 9.018500000000000227e+01 2.136799999999999855e+01 -3.526171000000000166e+00 -8.439269967240167758e-02
7.003300000000000125e+01 7.759099999999999397e+01 2.228800000000000026e+01 -5.271531000000000411e+00 -9.887314033040386918e-02
7.004600000000000648e+01 7.807299999999999329e+01 3.258899999999999864e+01 6.084922999999999860e+00 -2.924502528600397833e-01
7.005200000000000671e+01 8.716299999999999670e+01 2.896699999999999875e+01 3.702145999999999937e+00 -1.873936065712770715e-01
7.005899999999999750e+01 7.095699999999999363e+01 1.831200000000000117e+01 -4.885887000000000313e+00 -1.020224478698655013e-01
7.005899999999999750e+01 7.095699999999999363e+01 1.917800000000000082e+01 -2.862565000000000026e+00 -1.115521948931994106e-01
7.006000000000000227e+01 8.688800000000000523e+01 3.051500000000000057e+01 5.188041000000000125e+00 -1.932120269015966396e-01
7.006300000000000239e+01 7.478799999999999670e+01 1.471700000000000053e+01 -2.035743000000000080e+01 -1.032327059336323460e-01
7.006300000000000239e+01 7.608100000000000307e+01 1.543800000000000061e+01 -9.057584000000000302e+00 -8.608264670299327348e-02
7.006300000000000239e+01 7.608100000000000307e+01 1.703600000000000136e+01 -2.139423999999999992e+01 -8.871677639064394494e-02
7.006300000000000239e+01 7.630800000000000693e+01 1.623699999999999832e+01 -3.646047999999999689e+01 -8.630005546310207110e-02
7.010200000000000387e+01 7.067199999999999704e+01 2.017399999999999949e+01 3.525001000000000051e+00 -1.072511080626375179e-01
7.011100000000000421e+01 7.059699999999999420e+01 2.376399999999999935e+01 -5.869422000000000139e+00 -8.819419321357067909e-02
7.012099999999999511e+01 8.806300000000000239e+01 3.051599999999999824e+01 9.515069000000000443e+00 -2.052615713752183046e-01
7.012300000000000466e+01 8.753199999999999648e+01 2.811700000000000088e+01 2.714646000000000114e+00 2.953600974004396557e-02
7.012300000000000466e+01 8.858199999999999363e+01 2.981700000000000017e+01 8.520115000000000549e+00 -2.063478195558531014e-01
7.012300000000000466e+01 7.481699999999999307e+01 2.122899999999999920e+01 1.397808999999999990e+01 -1.002799929004879187e-01
7.012900000000000489e+01 8.844400000000000261e+01 2.174299999999999855e+01 -1.492234000000000060e+00 -5.359329480261755541e-02
7.014100000000000534e+01 7.497400000000000375e+01 2.182499999999999929e+01 3.752629999999999910e+01 -9.954091300308240409e-02
7.014700000000000557e+01 8.818200000000000216e+01 3.128999999999999915e+01 2.597203999999999979e+01 -2.065956490914861998e-01
7.014900000000000091e+01 7.276099999999999568e+01 3.057300000000000040e+01 -5.598143000000000313e+00 -2.773884841658159073e-01
7.015399999999999636e+01 7.055500000000000682e+01 2.112999999999999901e+01 -5.269813000000000081e+00 -1.028111191608611363e-01
7.016100000000000136e+01 9.318099999999999739e+01 2.521199999999999974e+01 -3.690866999999999898e+00 -1.317980406749854061e-01
7.016599999999999682e+01 7.219100000000000250e+01 3.056800000000000139e+01 -5.475348999999999577e+00 -2.791662440639252063e-01
7.016599999999999682e+01 8.232299999999999329e+01 3.291799999999999926e+01 1.118660000000000032e+01 -2.447702889882128474e-01
7.017000000000000171e+01 8.627599999999999625e+01 2.585200000000000031e+01 -9.542401999999999163e+00 3.396738516799072127e-02
7.017100000000000648e+01 7.118800000000000239e+01 2.899599999999999866e+01 -6.419255999999999851e+00 -2.797616123506258545e-01
7.017700000000000671e+01 7.610699999999999932e+01 2.258299999999999841e+01 -2.254523999999999972e+00 -9.834926845810484930e-02
7.017900000000000205e+01 7.240800000000000125e+01 1.582099999999999973e+01 -5.032564999999999955e+00 -1.028826636427038199e-01
7.018099999999999739e+01 8.783499999999999375e+01 2.741700000000000159e+01 -6.398076000000000318e-01 2.805161304480897552e-02
7.018099999999999739e+01 8.420300000000000296e+01 3.265400000000000347e+01 8.090220000000000411e+00 -1.626944130361202834e-01
7.018899999999999295e+01 9.152500000000000568e+01 2.199800000000000111e+01 -4.990253000000000050e+00 -8.469169213882934977e-02
7.018899999999999295e+01 7.113500000000000512e+01 2.807999999999999829e+01 -7.671655999999999587e+00 -2.790498945556270094e-01
7.019400000000000261e+01 9.004300000000000637e+01 2.998900000000000077e+01 2.333747999999999934e+00 1.451356892958636513e-01
7.020099999999999341e+01 8.681100000000000705e+01 2.255499999999999972e+01 -9.659210999999999769e-01 -3.950067872581144307e-02
7.020600000000000307e+01 8.025000000000000000e+01 2.369999999999999929e+01 -1.478220999999999918e+01 -6.971528183383722543e-02
7.020600000000000307e+01 7.092000000000000171e+01 2.975499999999999901e+01 -5.244004999999999583e+00 -2.814244361883341816e-01
7.020699999999999363e+01 9.157800000000000296e+01 2.291400000000000148e+01 2.565767000000000131e+00 -8.795527835413816109e-02
7.020900000000000318e+01 7.533700000000000330e+01 1.857799999999999940e+01 -1.505838999999999928e+01 -1.020294635142368067e-01
7.020900000000000318e+01 8.504600000000000648e+01 2.408899999999999864e+01 4.464370999999999756e-01 -3.889654054663581328e-02
7.020900000000000318e+01 8.504600000000000648e+01 2.502899999999999991e+01 -4.738939999999999819e-01 2.575843232814075193e-02
7.020999999999999375e+01 8.143300000000000693e+01 2.451099999999999923e+01 -4.862157999999999980e+00 -5.238341239110646391e-02
7.021200000000000330e+01 8.688800000000000523e+01 3.206499999999999773e+01 3.440039000000000069e+00 -1.850666342901032269e-01
7.021200000000000330e+01 8.784600000000000364e+01 3.206499999999999773e+01 1.640718999999999994e+01 -1.990257544450175498e-01
7.021299999999999386e+01 7.150900000000000034e+01 2.762300000000000111e+01 -7.730527000000000371e+00 -2.779204666450004746e-01
7.021299999999999386e+01 8.140900000000000603e+01 3.412599999999999767e+01 1.357658999999999949e+01 -2.509695576642904657e-01
7.022100000000000364e+01 7.173300000000000409e+01 2.675499999999999901e+01 -1.752558000000000149e+01 -2.771190734248033527e-01
7.022400000000000375e+01 8.671200000000000330e+01 2.977299999999999969e+01 5.071026999999999951e+00 -1.936644241810059064e-01
7.022400000000000375e+01 7.790600000000000591e+01 3.345000000000000284e+01 2.926665999999999990e+00 -1.672847276308346010e-01
7.022400000000000375e+01 9.179300000000000637e+01 2.123900000000000077e+01 -4.819353999999999694e+00 -8.243700207809770419e-02
7.022899999999999920e+01 7.195799999999999841e+01 2.588700000000000045e+01 -1.078130999999999950e+01 -7.202153664903010455e-02
7.024500000000000455e+01 7.199899999999999523e+01 1.620799999999999841e+01 -3.452761999999999887e+00 -1.026459919895293532e-01
7.024800000000000466e+01 7.771099999999999852e+01 3.425699999999999790e+01 1.646055000000000046e+00 -1.675872236625812195e-01
7.025499999999999545e+01 9.057299999999999329e+01 3.009299999999999997e+01 -8.350016000000000105e-01 1.463126863306680181e-01
7.025700000000000500e+01 7.756499999999999773e+01 3.529399999999999693e+01 2.625040999999999958e+00 -1.703893872327711667e-01
7.026900000000000546e+01 7.159900000000000375e+01 2.462600000000000122e+01 -4.998472999999999722e+00 -8.265581620972403676e-02
7.026900000000000546e+01 7.124899999999999523e+01 3.051500000000000057e+01 -4.535283999999999871e+00 -2.818188844791158498e-01
7.028700000000000614e+01 8.620799999999999841e+01 2.889900000000000091e+01 1.792793999999999999e+00 1.528611421779922652e-02
7.028700000000000614e+01 9.052400000000000091e+01 2.047899999999999920e+01 -3.755065999999999793e+00 -8.247422102316467885e-02
7.028700000000000614e+01 9.146399999999999864e+01 2.047899999999999920e+01 -4.083472000000000435e+00 -8.153215689476210615e-02
7.029000000000000625e+01 8.325400000000000489e+01 3.288799999999999812e+01 1.323207000000000022e+01 -1.590236874189206173e-01
7.029200000000000159e+01 7.760299999999999443e+01 3.270100000000000051e+01 1.917357999999999896e+00 -2.936326988496791301e-01
7.029300000000000637e+01 8.004300000000000637e+01 2.284600000000000009e+01 -1.685399999999999920e+01 -6.996571975812075628e-02
7.029399999999999693e+01 7.570499999999999829e+01 1.782999999999999829e+01 -1.512845000000000084e+01 -1.021085269378699117e-01
7.030500000000000682e+01 7.572599999999999909e+01 3.087300000000000111e+01 -1.241645000000000110e+00 -2.862930910648684435e-01
7.031300000000000239e+01 8.512300000000000466e+01 3.244599999999999795e+01 1.431755000000000067e+01 -1.669708381676734410e-01
7.031499999999999773e+01 7.464400000000000546e+01 2.035600000000000165e+01 -1.010523999999999978e+00 -1.006353070116728088e-01
7.031499999999999773e+01 7.485299999999999443e+01 1.962000000000000099e+01 -5.875755999999999979e+00 -1.012066935099412979e-01
7.035399999999999920e+01 8.249200000000000443e+01 2.814099999999999824e+01 1.610688000000000031e+01 -6.066377317354760927e-03
7.039000000000000057e+01 8.901500000000000057e+01 3.051699999999999946e+01 1.265906999999999982e+01 -2.157164035254516554e-01
7.040999999999999659e+01 7.652500000000000568e+01 3.120400000000000063e+01 4.109035999999999939e-02 -2.876397248158757969e-01
7.042100000000000648e+01 9.203300000000000125e+01 3.044200000000000017e+01 -1.812569999999999837e+01 -2.413989672505333639e-01
7.042100000000000648e+01 9.332599999999999341e+01 2.972100000000000009e+01 -2.298534000000000077e+01 -3.311486156321089558e-01
7.042100000000000648e+01 9.355299999999999727e+01 2.892200000000000060e+01 -2.505733000000000033e+01 -3.210567614349890131e-01
7.043099999999999739e+01 8.385899999999999466e+01 2.883699999999999974e+01 9.272297000000000011e+00 -2.795323739604319568e-01
7.043500000000000227e+01 7.409300000000000352e+01 3.114499999999999957e+01 -4.353647999999999740e+00 -2.883021558867749912e-01
7.044299999999999784e+01 7.858400000000000318e+01 3.697500000000000142e+01 6.549025000000000318e+01 -1.909049154249388702e-01
7.044299999999999784e+01 8.013400000000000034e+01 3.697500000000000142e+01 2.054268999999999892e+02 8.275063454157776527e-03
7.046800000000000352e+01 8.611199999999999477e+01 3.212899999999999778e+01 6.334547999999999845e+00 -1.764193338952670387e-01
7.047599999999999909e+01 7.834099999999999397e+01 2.201399999999999935e+01 -7.969085999999999892e+00 -8.363158813245492873e-02
7.048999999999999488e+01 8.933199999999999363e+01 2.146900000000000119e+01 -3.329400000000000137e+00 -8.532307525845944651e-02
7.049500000000000455e+01 9.265500000000000114e+01 2.454400000000000048e+01 -2.194771999999999945e+00 -9.370662946779266533e-02
7.049899999999999523e+01 8.551600000000000534e+01 2.332900000000000063e+01 8.449097999999999331e+00 -2.554919988669563380e-01
7.049899999999999523e+01 8.551600000000000534e+01 2.578900000000000148e+01 2.544420999999999822e+00 2.729641776561129649e-02
7.052800000000000580e+01 8.898099999999999454e+01 3.106400000000000006e+01 1.531151000000000018e+01 -2.172745352298746657e-01
7.053300000000000125e+01 7.402800000000000580e+01 1.500699999999999967e+01 -7.073052999999999813e+00 -1.024910293571104775e-01
7.053300000000000125e+01 7.554800000000000182e+01 1.500699999999999967e+01 -1.673094999999999999e+01 -8.665271295433503440e-02
7.053499999999999659e+01 7.109199999999999875e+01 1.781500000000000128e+01 -6.689619000000000426e+00 -1.014714929793246456e-01
7.055599999999999739e+01 8.697100000000000364e+01 2.764799999999999969e+01 9.733125000000000249e-01 3.168640720073599010e-02
7.056600000000000250e+01 8.670900000000000318e+01 2.634299999999999997e+01 -3.292588999999999988e+00 3.380002400198849066e-02
7.056799999999999784e+01 7.137399999999999523e+01 1.696000000000000085e+01 -5.663037000000000099e+00 -1.018137776387590954e-01
7.057399999999999807e+01 7.567400000000000659e+01 2.209199999999999875e+01 1.077406000000000086e+00 -9.801287565748753594e-02
7.059499999999999886e+01 8.662099999999999511e+01 2.835300000000000153e+01 1.665100999999999942e+00 -1.839608292994154293e-01
7.062099999999999511e+01 8.205899999999999750e+01 2.744099999999999895e+01 6.429534999999999556e+00 -3.357649318958177889e-03
7.062199999999999989e+01 8.373799999999999955e+01 3.317300000000000182e+01 1.183131000000000022e+01 -1.583916413880395724e-01
7.062500000000000000e+01 8.701200000000000045e+01 2.704299999999999926e+01 -2.238356000000000012e+00 3.190759566191594954e-02
7.063299999999999557e+01 9.338700000000000045e+01 2.804500000000000171e+01 4.134216000000000335e+00 -3.179841919046123566e-01
7.063800000000000523e+01 8.074099999999999966e+01 2.409700000000000131e+01 -1.746262000000000114e+01 -6.387581820731697002e-02
7.065099999999999625e+01 8.207099999999999795e+01 2.655699999999999861e+01 -1.144060999999999950e+01 7.136257691374492179e-04
7.065099999999999625e+01 8.736700000000000443e+01 3.260900000000000176e+01 4.477464000000000333e+00 -1.873735453435972365e-01
7.065399999999999636e+01 7.946599999999999397e+01 2.201899999999999835e+01 -6.930047000000000068e+00 -7.326042152507385163e-02
7.065800000000000125e+01 9.228400000000000603e+01 2.076999999999999957e+01 -8.313086999999999449e+00 -8.101197517462202513e-02
7.067000000000000171e+01 8.051000000000000512e+01 3.673599999999999710e+01 2.054268999999999892e+02 5.985106396045853467e-04
7.067600000000000193e+01 7.670600000000000307e+01 2.212500000000000000e+01 -1.605804999999999927e+00 -9.751418587783086678e-02
7.068000000000000682e+01 8.219299999999999784e+01 2.574099999999999966e+01 -2.304269000000000034e+01 -6.099981608863035143e-02
7.068300000000000693e+01 7.322199999999999420e+01 1.550999999999999979e+01 -6.126087000000000060e+00 -1.021794535839935375e-01
7.068899999999999295e+01 8.966299999999999670e+01 3.053999999999999915e+01 1.075667999999999935e+01 -2.217712837349776200e-01
7.068999999999999773e+01 8.200799999999999557e+01 3.381300000000000239e+01 1.522335999999999956e+01 -2.485389327475223398e-01
7.069100000000000250e+01 8.862099999999999511e+01 3.176899999999999835e+01 5.409855000000000302e+01 -2.130649147827551049e-01
7.069199999999999307e+01 8.538299999999999557e+01 2.902199999999999847e+01 8.460876999999999981e+00 -2.855832777659133570e-01
7.069799999999999329e+01 9.197400000000000375e+01 2.248100000000000165e+01 -5.637184999999999668e+00 -8.531360798979591153e-02
7.070000000000000284e+01 7.171899999999999409e+01 3.104799999999999827e+01 -1.268595999999999968e+01 -2.816801114842565346e-01
7.070699999999999363e+01 8.472799999999999443e+01 3.306499999999999773e+01 7.422740000000000116e+00 -1.597306391737618736e-01
7.070799999999999841e+01 7.036599999999999966e+01 1.926599999999999824e+01 -5.318731999999999793e+00 -1.080446434852155441e-01
7.071299999999999386e+01 7.582500000000000284e+01 3.114499999999999957e+01 4.001814000000000426e+00 -2.886222922934900126e-01
7.071800000000000352e+01 9.099399999999999977e+01 1.994600000000000151e+01 -4.228049000000000390e+00 -8.145805167405938130e-02
7.072100000000000364e+01 8.473199999999999932e+01 2.908299999999999841e+01 1.353337999999999930e+01 -2.830226978963184536e-01
7.072599999999999909e+01 6.976600000000000534e+01 2.252400000000000091e+01 -1.048935999999999957e+01 -9.294384356394497226e-02
7.072599999999999909e+01 6.999299999999999500e+01 2.172500000000000142e+01 -5.849239999999999995e+00 -9.732650297522918437e-02
7.072599999999999909e+01 6.999299999999999500e+01 2.332300000000000040e+01 -7.302293999999999841e+00 -8.868470157650534813e-02
7.072599999999999909e+01 8.740699999999999648e+01 2.207400000000000162e+01 6.331233000000000111e+00 -4.833765373549463173e-02
7.072899999999999920e+01 7.326099999999999568e+01 3.118700000000000117e+01 -6.484182999999999808e+00 -2.899275245858033978e-01
7.073099999999999454e+01 7.800499999999999545e+01 3.626500000000000057e+01 2.681099000000000032e+01 -1.822460679012726237e-01
7.073099999999999454e+01 8.071299999999999386e+01 3.626500000000000057e+01 1.028499000000000052e+02 1.223822520789447608e-02
7.073799999999999955e+01 7.278400000000000603e+01 1.610699999999999932e+01 -2.786128000000000160e+00 -1.019384035294844254e-01
7.073900000000000432e+01 7.048900000000000432e+01 2.928500000000000014e+01 -5.467558999999999614e+00 -2.819730140089003467e-01
7.073900000000000432e+01 7.048900000000000432e+01 3.022500000000000142e+01 -4.800259999999999749e+00 -2.833001748219537985e-01
7.074699999999999989e+01 7.534399999999999409e+01 1.922299999999999898e+01 -1.361252999999999957e+01 -1.004550254707510526e-01
7.074699999999999989e+01 7.534399999999999409e+01 2.148900000000000077e+01 4.231339000000000183e+00 -9.838523952488052726e-02
7.075700000000000500e+01 8.976399999999999579e+01 2.076899999999999835e+01 -3.715307999999999833e+00 -8.370569185662006528e-02
7.077299999999999613e+01 7.490300000000000580e+01 3.121499999999999986e+01 -8.909717000000000331e-01 -2.892509017604495414e-01
7.077899999999999636e+01 7.935899999999999466e+01 3.703999999999999915e+01 2.787819000000000003e+01 7.688500648490764755e-02
7.078000000000000114e+01 8.626399999999999579e+01 2.293299999999999983e+01 4.614812999999999832e+00 -4.090692478063829435e-02
7.078400000000000603e+01 7.598099999999999454e+01 1.738299999999999912e+01 -7.491115999999999531e+01 -1.012216043846136532e-01
7.079999999999999716e+01 8.102599999999999625e+01 3.539200000000000301e+01 3.220067999999999842e+01 -2.602931159753242296e-01
7.080500000000000682e+01 7.730200000000000671e+01 3.244100000000000250e+01 2.479620000000000157e+00 -2.940504848838193519e-01
7.080700000000000216e+01 9.245900000000000318e+01 2.163400000000000034e+01 -6.601436999999999777e+00 -8.226964814444001628e-02
7.080899999999999750e+01 9.197199999999999420e+01 2.314799999999999969e+01 -3.178345000000000198e+00 -8.767201166754730324e-02
7.080899999999999750e+01 9.218099999999999739e+01 2.388400000000000034e+01 3.544534000000000074e+00 -9.058883724197526466e-02
7.082299999999999329e+01 7.601800000000000068e+01 1.576699999999999946e+01 -7.485170999999999708e+01 -8.523106295902169172e-02
7.082500000000000284e+01 8.206600000000000250e+01 2.511799999999999855e+01 -1.284981999999999935e+01 -5.683019707993132441e-02
7.082899999999999352e+01 9.318099999999999739e+01 2.521199999999999974e+01 -4.704043999999999670e+00 -1.178250214549583508e-01
7.083799999999999386e+01 7.178300000000000125e+01 2.471999999999999886e+01 -4.751116999999999813e+00 -8.070502931973719263e-02
7.083799999999999386e+01 7.178300000000000125e+01 2.619200000000000017e+01 -7.993300999999999767e+00 -6.811769474115132728e-02
7.083799999999999386e+01 7.199200000000000443e+01 2.545599999999999952e+01 -7.010451999999999906e+00 -7.481008716058096253e-02
7.084000000000000341e+01 8.276500000000000057e+01 3.356700000000000017e+01 1.126789999999999914e+01 -2.463957152829120145e-01
7.084600000000000364e+01 9.333100000000000307e+01 2.605000000000000071e+01 9.306634000000000739e+00 -1.093738275139935351e-01
7.084600000000000364e+01 9.333100000000000307e+01 2.710000000000000142e+01 3.850164000000000186e+01 -3.143456456656158471e-01
7.085800000000000409e+01 7.063800000000000523e+01 1.833399999999999963e+01 -6.301575999999999844e+00 -1.110069476399243860e-01
7.086199999999999477e+01 7.478799999999999670e+01 1.494400000000000084e+01 -1.963963999999999999e+01 -1.019245373554814316e-01
7.086400000000000432e+01 8.315900000000000603e+01 2.857000000000000028e+01 3.059956000000000031e+01 -2.777585279067823487e-01
7.089300000000000068e+01 9.284600000000000364e+01 3.025499999999999901e+01 -2.719228999999999985e+01 -2.159118278581078076e-01
7.089499999999999602e+01 9.126500000000000057e+01 3.029899999999999949e+01 -3.123820999999999959e+00 -2.526256079402443566e-01
7.089799999999999613e+01 9.293800000000000239e+01 2.079299999999999926e+01 -9.066853999999999303e+00 -8.022338954285421209e-02
7.091299999999999670e+01 7.145000000000000284e+01 2.731899999999999906e+01 -8.703725999999999630e+00 -2.783876292712205158e-01
7.092199999999999704e+01 8.659999999999999432e+01 3.264399999999999835e+01 1.328842999999999996e+01 -1.766017143961990388e-01
7.095699999999999363e+01 7.036899999999999977e+01 2.006599999999999895e+01 -9.304294999999999760e+00 -1.044673029245073159e-01
7.095699999999999363e+01 7.036899999999999977e+01 2.093100000000000094e+01 -8.324540999999999968e+00 -1.009364173848958102e-01
7.096099999999999852e+01 7.751200000000000045e+01 2.208800000000000097e+01 -7.951304999999999623e-01 -9.657759764317923323e-02
7.096800000000000352e+01 7.097700000000000387e+01 2.825799999999999912e+01 -7.794830000000000148e+00 -2.799811509644601903e-01
7.096800000000000352e+01 7.247799999999999443e+01 3.108299999999999841e+01 -2.681215999999999866e+01 -2.798242201387134420e-01
7.096899999999999409e+01 8.498300000000000409e+01 2.376000000000000156e+01 1.434955999999999898e+00 -2.581527540780949037e-01
7.096899999999999409e+01 8.498300000000000409e+01 2.535800000000000054e+01 6.122466000000000186e+00 2.430817530989484374e-02
7.097499999999999432e+01 7.579900000000000659e+01 1.895100000000000051e+01 -2.469538000000000011e+01 -1.000699183569324358e-01
7.098199999999999932e+01 8.912999999999999545e+01 3.124800000000000111e+01 1.916207999999999956e+01 -2.192348338481266146e-01
7.098699999999999477e+01 8.814199999999999591e+01 3.254399999999999693e+01 1.056479000000000035e+01 -2.020302797905636771e-01
7.099200000000000443e+01 7.754399999999999693e+01 3.300399999999999778e+01 6.117168999999999635e+00 -2.974067554099935062e-01
7.099599999999999511e+01 8.616400000000000148e+01 2.620400000000000063e+01 -5.401721999999999912e-01 3.083721027641703888e-02
7.101000000000000512e+01 7.606799999999999784e+01 1.819200000000000017e+01 -1.373652000000000051e+01 -1.003852784146047616e-01
7.101500000000000057e+01 7.491200000000000614e+01 1.992299999999999827e+01 -9.919543000000000887e+00 -9.939511056512209675e-02
7.101500000000000057e+01 7.491200000000000614e+01 2.078900000000000148e+01 9.816468999999999667e+00 -9.858707222569987327e-02
7.102200000000000557e+01 9.384499999999999886e+01 2.079299999999999926e+01 -7.195993999999999780e+00 -3.622839255787140278e-01
7.102599999999999625e+01 8.036299999999999955e+01 2.336499999999999844e+01 -1.256051000000000073e+01 -6.594000121730166086e-02
7.102899999999999636e+01 7.095900000000000318e+01 3.098499999999999943e+01 -9.186953000000000813e+00 -2.835513897409249751e-01
7.104500000000000171e+01 7.606600000000000250e+01 1.668199999999999861e+01 -2.323330999999999946e+01 -8.584802738461425053e-02
7.104500000000000171e+01 7.752400000000000091e+01 3.390200000000000102e+01 1.144482999999999961e+01 -1.720384864474356346e-01
7.104699999999999704e+01 9.023399999999999466e+01 2.000900000000000034e+01 -3.924923000000000162e+00 -8.234952294131239747e-02
7.104699999999999704e+01 9.175400000000000489e+01 2.000900000000000034e+01 -5.264460999999999835e+00 -8.083612203575581134e-02
7.105299999999999727e+01 7.354500000000000171e+01 1.582399999999999984e+01 -9.272382000000000346e+00 -1.015187720657980963e-01
7.106300000000000239e+01 8.148000000000000398e+01 3.449499999999999744e+01 4.585611000000000104e+01 -2.528105439650866204e-01
7.106399999999999295e+01 8.327200000000000557e+01 3.369100000000000250e+01 1.456359999999999921e+01 -1.339535330493492049e-01
7.108100000000000307e+01 8.559300000000000352e+01 3.283400000000000318e+01 1.153658000000000072e+01 -1.659084070672827982e-01
7.108400000000000318e+01 8.888500000000000512e+01 2.157400000000000162e+01 -2.339795000000000069e+00 -8.602884922714337801e-02
7.109499999999999886e+01 7.232399999999999807e+01 1.673300000000000054e+01 -6.804933000000000121e+00 -1.011464097006282287e-01
7.109799999999999898e+01 7.738599999999999568e+01 3.478199999999999648e+01 2.346804000000000112e+00 -1.741174730052483799e-01
7.109799999999999898e+01 7.764000000000000057e+01 3.567600000000000193e+01 5.105424000000000184e+00 -1.789185949144977972e-01
7.111299999999999955e+01 8.815099999999999625e+01 2.190700000000000003e+01 1.004784000000000077e+01 1.777047696094666979e-02
7.111400000000000432e+01 8.474800000000000466e+01 2.442500000000000071e+01 3.891209000000000334e-02 2.457680524035824737e-02
7.112500000000000000e+01 8.608299999999999841e+01 2.875499999999999901e+01 2.626024999999999832e+00 -1.900788990796376809e-01
7.112900000000000489e+01 8.039199999999999591e+01 2.239199999999999946e+01 -6.546285000000000132e+00 -6.397981622078688368e-02
7.113100000000000023e+01 8.272599999999999909e+01 2.787000000000000099e+01 6.262790999999999997e+00 -2.765260088014354078e-01
7.113200000000000500e+01 8.678100000000000591e+01 2.243100000000000094e+01 4.662550000000000028e-02 2.450889508701470029e-02
7.114900000000000091e+01 8.153199999999999648e+01 2.445100000000000051e+01 -5.367013000000000034e+00 -5.439799250152523025e-02
7.115099999999999625e+01 7.119100000000000250e+01 1.762199999999999989e+01 -7.319910000000000139e+00 -1.005919670238850372e-01
7.115500000000000114e+01 7.600600000000000023e+01 2.172200000000000131e+01 1.506893000000000038e+00 -9.703229169619417838e-02
7.118099999999999739e+01 9.326300000000000523e+01 2.845200000000000173e+01 -6.760679999999999801e+00 -3.198580418259165392e-01
