1.831299999999999883e+01 2.950900000000000034e+01 1.730200000000000102e+02 1.039947000000000088e+01 -2.838649735228794199e-02
1.831500000000000128e+01 2.762399999999999878e+01 1.673600000000000136e+02 2.026447999999999894e+01 -2.123161447095114895e-01
1.831800000000000139e+01 2.836499999999999844e+01 1.800399999999999920e+02 9.901154000000000011e+00 -8.606318677618641708e-03
1.832000000000000028e+01 2.943900000000000006e+01 1.794900000000000091e+02 3.953232999999999997e+00 -5.595953502358428505e-02
1.832600000000000051e+01 3.415299999999999869e+01 1.572899999999999920e+02 6.938384000000000107e+00 -2.772345678461092811e-01
1.833599999999999852e+01 2.450700000000000145e+01 1.639399999999999977e+02 3.931194000000000077e+00 -3.878788707660672797e-02
1.833599999999999852e+01 2.471600000000000108e+01 1.631999999999999886e+02 5.147761000000000031e+00 9.605138764231557769e-02
1.835600000000000165e+01 2.947400000000000020e+01 1.746699999999999875e+02 2.905505000000000138e+01 -5.020406314198435499e-02
1.837699999999999889e+01 2.503200000000000003e+01 1.666399999999999864e+02 8.143821000000000865e+00 -1.841530267799763310e-01
1.838599999999999923e+01 2.431899999999999906e+01 1.785399999999999920e+02 -1.383148999999999962e+00 1.165428136694543343e-01
1.839600000000000080e+01 2.668700000000000117e+01 1.801500000000000057e+02 1.712088999999999972e+00 -6.528651682450155314e-02
1.839699999999999847e+01 1.291399999999999970e+01 1.762800000000000011e+02 4.644987999999999673e+00 -1.307336180710185203e-01
1.839699999999999847e+01 1.291399999999999970e+01 1.772299999999999898e+02 1.675790999999999897e+01 -1.333919356545372470e-01
1.842500000000000071e+01 1.671999999999999886e+01 1.775300000000000011e+02 1.765628999999999849e+01 -2.773254687348865044e-01
1.843400000000000105e+01 2.556099999999999994e+01 1.592400000000000091e+02 1.373635999999999946e+01 -8.843971611449634451e-02
1.843700000000000117e+01 1.416799999999999926e+01 1.754399999999999977e+02 7.792396000000000100e+00 -8.956155844855902270e-02
1.844600000000000151e+01 2.678600000000000136e+01 1.674000000000000057e+02 1.210158000000000023e+01 -2.044280313518823944e-01
1.846099999999999852e+01 2.838500000000000156e+01 1.665099999999999909e+02 2.075125999999999848e+01 -2.011421873897453472e-01
1.846999999999999886e+01 2.865899999999999892e+01 1.656699999999999875e+02 2.190118999999999971e+01 -1.956365847301936856e-01
1.847299999999999898e+01 1.711400000000000077e+01 1.784799999999999898e+02 6.772156999999999982e+00 -2.893692229407310856e-01
1.847400000000000020e+01 3.209199999999999875e+01 1.555500000000000114e+02 8.761889000000000038e+00 -2.410844798705877312e-01
1.848300000000000054e+01 2.576399999999999935e+01 1.800999999999999943e+02 -3.760619999999999852e+00 2.185142138223089003e-01
1.848300000000000054e+01 2.823999999999999844e+01 1.674199999999999875e+02 7.278481000000000201e+00 -2.162393320572900124e-01
1.848400000000000176e+01 2.430399999999999849e+01 1.802500000000000000e+02 -5.786979999999999791e+00 1.891847376324128360e-01
1.848400000000000176e+01 2.524399999999999977e+01 1.802500000000000000e+02 -1.209031000000000056e+01 2.100798733086708947e-01
1.849200000000000088e+01 3.058599999999999852e+01 1.554600000000000080e+02 2.421906999999999854e+01 1.054255068953811464e-01
1.850799999999999912e+01 2.896999999999999886e+01 1.738600000000000136e+02 1.293125000000000036e+01 -4.094212998057528835e-02
1.854400000000000048e+01 3.350500000000000256e+01 1.575699999999999932e+02 9.589081999999999439e+00 -6.691908489972911434e-02
1.854500000000000171e+01 3.354200000000000159e+01 1.564699999999999989e+02 2.742323999999999984e+00 -2.398458930316940685e-01
1.854700000000000060e+01 2.397500000000000142e+01 1.794900000000000091e+02 3.002805000000000057e-01 1.925495740895189767e-01
1.855399999999999849e+01 2.958399999999999963e+01 1.545999999999999943e+02 7.534511000000000180e+00 9.776391724057802157e-02
1.856500000000000128e+01 2.873799999999999955e+01 1.746699999999999875e+02 1.138927999999999940e+01 -4.898440627289390309e-02
1.858299999999999841e+01 2.952499999999999858e+01 1.763100000000000023e+02 6.997544000000000430e+00 -1.290814812414960711e-01
1.858500000000000085e+01 3.332699999999999818e+01 1.619799999999999898e+02 7.443330999999999698e+00 2.126028703328660535e-02
1.858500000000000085e+01 3.332699999999999818e+01 1.629399999999999977e+02 1.738272999999999868e+01 4.212715804729885022e-02
1.858800000000000097e+01 2.916799999999999926e+01 1.754499999999999886e+02 1.000037000000000020e+01 -1.397841879426489631e-01
1.858800000000000097e+01 2.580099999999999838e+01 1.565999999999999943e+02 1.008938999999999986e+01 -2.179429826119856964e-04
1.860600000000000165e+01 1.461700000000000088e+01 1.798799999999999955e+02 2.107334000000000174e+01 -2.837980661234518753e-01
1.860600000000000165e+01 1.616700000000000159e+01 1.798799999999999955e+02 4.000578000000000145e+01 -2.893983622908810061e-01
1.861199999999999832e+01 2.934799999999999898e+01 1.645999999999999943e+02 1.640246000000000137e+01 3.021836505512542209e-02
1.861199999999999832e+01 3.086299999999999955e+01 1.644799999999999898e+02 3.390437000000000012e+01 4.449321192676827796e-02
1.862000000000000099e+01 1.542300000000000004e+01 1.759199999999999875e+02 3.233204000000000189e+00 -2.523066957827724832e-01
1.862099999999999866e+01 3.312199999999999989e+01 1.613000000000000114e+02 9.265831000000000373e+00 7.217508544782150030e-03
1.862199999999999989e+01 2.587199999999999989e+01 1.737599999999999909e+02 -1.676728999999999914e+00 -1.077787494543351876e-01
1.862399999999999878e+01 2.803399999999999892e+01 1.737500000000000000e+02 5.284787999999999819e+00 2.791536327616815916e-01
1.864099999999999824e+01 2.566300000000000026e+01 1.557199999999999989e+02 4.186004999999999754e+00 3.485046402449545888e-01
1.864099999999999824e+01 2.591700000000000159e+01 1.548300000000000125e+02 4.852928999999999604e+00 3.272387303612593890e-01
1.864099999999999824e+01 2.736299999999999955e+01 1.540200000000000102e+02 6.336039000000000421e+00 4.017370229797294356e-02
1.866300000000000026e+01 2.557199999999999918e+01 1.794900000000000091e+02 -1.633492000000000033e+01 2.114824177689665630e-01
1.868299999999999983e+01 2.739099999999999824e+01 1.736599999999999966e+02 2.212495999999999796e+00 2.941647189681800834e-01
1.868599999999999994e+01 2.373100000000000165e+01 1.654000000000000057e+02 3.071201999999999988e+00 -2.706897147227191325e-02
1.868700000000000117e+01 2.751500000000000057e+01 1.801100000000000136e+02 1.491206999999999994e+01 -4.552461856107051924e-02
1.870499999999999829e+01 3.285900000000000176e+01 1.605600000000000023e+02 7.131511999999999851e+00 -9.272181294144360431e-02
1.871900000000000119e+01 2.503600000000000136e+01 1.782899999999999920e+02 6.817690999999999946e+00 1.287659923173553600e-01
1.872200000000000131e+01 2.498199999999999932e+01 1.610300000000000011e+02 7.352274000000000420e+00 1.520604744659527219e-01
1.872200000000000131e+01 2.519099999999999895e+01 1.617700000000000102e+02 1.034272999999999954e+01 1.492599623396353437e-01
1.873000000000000043e+01 3.289999999999999858e+01 1.596599999999999966e+02 5.588765999999999678e+00 -8.560640705120312055e-02
1.874200000000000088e+01 2.397200000000000131e+01 1.644099999999999966e+02 3.651924000000000170e+00 -3.264339457360226210e-02
1.875100000000000122e+01 2.408899999999999864e+01 1.664699999999999989e+02 3.151568000000000147e+00 -1.322230330716535687e-02
1.877400000000000091e+01 2.477400000000000091e+01 1.794900000000000091e+02 -2.297165000000000035e+01 1.224440861319568696e-01
1.878500000000000014e+01 2.992699999999999960e+01 1.789199999999999875e+02 2.126435999999999993e+01 3.326031126964464069e-02
1.878500000000000014e+01 3.018100000000000094e+01 1.780300000000000011e+02 1.659357999999999933e+01 6.363606269142327299e-03
1.879899999999999949e+01 1.576500000000000057e+01 1.766599999999999966e+02 3.390086999999999851e+00 -2.629026632262280172e-01
1.880099999999999838e+01 2.498999999999999844e+01 1.602100000000000080e+02 1.059830000000000005e+01 1.487419062613278553e-01
1.882300000000000040e+01 2.597100000000000009e+01 1.671299999999999955e+02 1.110679999999999978e+01 -1.968160995319298556e-01
1.885500000000000043e+01 2.495200000000000173e+01 1.627500000000000000e+02 4.585979000000000028e+00 -8.114134596703617697e-02
1.886199999999999832e+01 2.985800000000000054e+01 1.770399999999999920e+02 1.208458000000000077e+01 -1.248644955109399213e-01
1.886700000000000088e+01 2.605199999999999960e+01 1.588400000000000034e+02 1.358033000000000001e+01 -8.983213026629725817e-02
1.886700000000000088e+01 2.626099999999999923e+01 1.580999999999999943e+02 1.970598999999999990e+01 -1.806389867534956006e-01
1.887199999999999989e+01 2.630799999999999983e+01 1.794900000000000091e+02 1.150717000000000034e+01 2.284854355795201408e-01
1.887600000000000122e+01 1.368900000000000006e+01 1.759799999999999898e+02 9.464705999999999619e+00 -1.161363807503864587e-01
1.887600000000000122e+01 1.464700000000000024e+01 1.759799999999999898e+02 -5.934929000000000343e+00 -8.765776757911043771e-02
1.887600000000000122e+01 2.853800000000000026e+01 1.798300000000000125e+02 8.146687000000000012e+00 -5.824563423658726639e-03
1.888100000000000023e+01 3.284799999999999898e+01 1.637100000000000080e+02 1.608476999999999890e+01 5.193473181013837092e-02
1.888899999999999935e+01 2.548900000000000077e+01 1.776899999999999977e+02 2.391077999999999903e+01 -6.270048269470665514e-02
1.890200000000000102e+01 1.413799999999999990e+01 1.791100000000000136e+02 1.076933999999999969e+01 -3.499999999999999778e-01
1.890200000000000102e+01 1.664600000000000080e+01 1.781500000000000057e+02 -3.167056999999999789e+00 -2.859460331589701587e-01
1.890200000000000102e+01 1.664600000000000080e+01 1.791100000000000136e+02 5.590995000000000203e+01 -2.921283548158041810e-01
1.891199999999999903e+01 2.540200000000000102e+01 1.745200000000000102e+02 3.912952000000000097e-02 -1.293758600877312481e-01
1.891199999999999903e+01 2.540200000000000102e+01 1.754600000000000080e+02 -6.190565999999999569e+00 -1.148341052416490815e-01
1.892800000000000082e+01 2.588899999999999935e+01 1.786399999999999864e+02 2.463673999999999964e+01 1.386313814383008103e-01
1.893299999999999983e+01 1.620499999999999829e+01 1.774199999999999875e+02 1.575319999999999965e+01 -2.751563050253069131e-01
1.893900000000000006e+01 2.855099999999999838e+01 1.753600000000000136e+02 3.540793999999999997e+00 2.433323067071880563e-01
1.894099999999999895e+01 1.335299999999999976e+01 1.767599999999999909e+02 1.302627999999999986e+01 -1.295344793499333957e-01
1.894200000000000017e+01 1.539199999999999946e+01 1.799499999999999886e+02 1.773501999999999867e+01 -2.863135847563373915e-01
1.895100000000000051e+01 2.663200000000000145e+01 1.736899999999999977e+02 2.037754000000000065e+00 3.110951368688996133e-01
1.895499999999999829e+01 3.156700000000000017e+01 1.561500000000000057e+02 1.273687999999999931e+01 -2.453735584908459388e-01
1.895499999999999829e+01 3.261699999999999733e+01 1.561500000000000057e+02 8.139286999999999495e+00 -2.399888375625751080e-01
1.895599999999999952e+01 3.280299999999999727e+01 1.587899999999999920e+02 8.222282999999999120e+00 1.405915311129003233e-02
1.895899999999999963e+01 2.582700000000000173e+01 1.768799999999999955e+02 1.692094000000000165e+01 -6.952544846040781268e-02
1.896900000000000119e+01 2.774599999999999866e+01 1.670399999999999920e+02 1.282916999999999952e+01 -2.180692997434949265e-01
1.897100000000000009e+01 2.565200000000000102e+01 1.762299999999999898e+02 1.144031999999999938e+00 -8.753799319973196158e-02
1.897599999999999909e+01 1.362400000000000055e+01 1.775200000000000102e+02 1.728162999999999982e+01 -1.267493553960940544e-01
1.899299999999999855e+01 3.014699999999999847e+01 1.554000000000000057e+02 1.537865000000000038e+01 1.085057858995981117e-01
1.899699999999999989e+01 2.885399999999999920e+01 1.760600000000000023e+02 7.199538000000000437e+00 -5.533451143538715977e-02
1.900700000000000145e+01 1.408099999999999952e+01 1.781500000000000057e+02 1.461487999999999943e+01 -2.746306219781372571e-01
1.900700000000000145e+01 2.590399999999999991e+01 1.571599999999999966e+02 9.731804000000000343e+00 1.269435955644090397e-01
1.901099999999999923e+01 2.792200000000000060e+01 1.745200000000000102e+02 -1.878811999999999927e+00 2.691885316470151723e-01
1.901399999999999935e+01 3.057700000000000173e+01 1.561599999999999966e+02 1.734380000000000166e+01 1.158175247296181209e-01
1.902599999999999980e+01 3.298599999999999710e+01 1.570000000000000000e+02 7.296115999999999602e+00 -2.429556315952365042e-01
1.904700000000000060e+01 1.499499999999999922e+01 1.767199999999999989e+02 -1.031007000000000007e+00 -2.623225948245390127e-01
1.907600000000000051e+01 3.372399999999999665e+01 1.615500000000000114e+02 7.209224999999999994e+00 8.101678785379633901e-03
1.907799999999999940e+01 2.648100000000000165e+01 1.671399999999999864e+02 1.176404999999999923e+01 -2.047569159661053462e-01
1.908299999999999841e+01 3.266799999999999926e+01 1.578300000000000125e+02 1.276089999999999947e+01 4.161213402162568936e-02
1.914999999999999858e+01 2.449200000000000088e+01 1.635600000000000023e+02 3.835900000000000087e+00 8.148610607843291553e-02
1.916199999999999903e+01 3.360000000000000142e+01 1.607899999999999920e+02 5.516596999999999973e+00 -1.034595753298884341e-01
1.916600000000000037e+01 2.651300000000000168e+01 1.543400000000000034e+02 6.309003999999999834e+00 1.675119836492232339e-02
1.916600000000000037e+01 2.821300000000000097e+01 1.543400000000000034e+02 1.182845000000000013e+01 6.133560909643238912e-02
1.916799999999999926e+01 2.698999999999999844e+01 1.795099999999999909e+02 1.423184999999999967e+01 -5.382385606889532326e-02
1.917200000000000060e+01 1.416799999999999926e+01 1.767599999999999909e+02 1.704067999999999827e+01 -1.121302244354033945e-01
1.919300000000000139e+01 2.876899999999999835e+01 1.650500000000000114e+02 1.447896000000000072e+01 -1.953862699482649401e-01
1.919999999999999929e+01 2.661499999999999844e+01 1.768700000000000045e+02 1.811959999999999837e+01 -4.629635552990297997e-02
1.920499999999999829e+01 2.821799999999999997e+01 1.661299999999999955e+02 1.988495999999999952e+01 -2.170207706988960816e-01
1.921499999999999986e+01 3.003500000000000014e+01 1.642700000000000102e+02 1.509407000000000032e+01 2.712410686257842735e-02
1.922400000000000020e+01 2.774500000000000099e+01 1.753899999999999864e+02 -3.183333999999999975e+01 2.554096285453765214e-01
1.923199999999999932e+01 3.195200000000000173e+01 1.642100000000000080e+02 8.032102000000000075e+00 4.736712601751501966e-02
1.923699999999999832e+01 1.442500000000000071e+01 1.775300000000000011e+02 1.559012000000000064e+01 -2.707333499351580186e-01
1.923900000000000077e+01 2.662099999999999866e+01 1.786599999999999966e+02 1.806381999999999977e+01 -3.310757993551630834e-02
1.923999999999999844e+01 1.531099999999999994e+01 1.774000000000000057e+02 1.243384000000000000e+01 -2.720034775506717795e-01
1.924599999999999866e+01 2.629200000000000159e+01 1.776299999999999955e+02 3.054446000000000083e+01 -4.117916220309437991e-02
1.927100000000000080e+01 2.467699999999999960e+01 1.669399999999999977e+02 1.112233000000000027e+00 -1.820744276924374794e-01
1.928200000000000003e+01 2.804799999999999827e+01 1.760900000000000034e+02 2.118827000000000016e+00 2.400653942328694890e-01
1.930199999999999960e+01 2.911199999999999832e+01 1.642100000000000080e+02 1.095430999999999955e+01 1.755124514501271715e-02
1.930999999999999872e+01 2.933099999999999952e+01 1.766599999999999966e+02 8.230603999999999587e+00 -5.429079752153230520e-02
1.930999999999999872e+01 2.933099999999999952e+01 1.794099999999999966e+02 -2.402222999999999997e-01 -6.706948746152696650e-02
1.931700000000000017e+01 2.322100000000000009e+01 1.648499999999999943e+02 3.391868000000000105e+00 -2.258223854152140858e-02
1.931700000000000017e+01 2.322100000000000009e+01 1.659600000000000080e+02 3.255012999999999934e+00 -1.099860351867619490e-02
1.932000000000000028e+01 2.623699999999999832e+01 1.759600000000000080e+02 -8.871781000000000361e+00 -6.562940206748596461e-02
1.933699999999999974e+01 3.185999999999999943e+01 1.578100000000000023e+02 1.601199000000000083e+01 5.423019377391759960e-02
1.935500000000000043e+01 2.537699999999999889e+01 1.596299999999999955e+02 2.494028000000000134e+01 1.298734991750148116e-01
1.935999999999999943e+01 3.339200000000000301e+01 1.632700000000000102e+02 5.846316000000000201e+01 4.083571701928652431e-02
1.935999999999999943e+01 3.371999999999999886e+01 1.625300000000000011e+02 1.463626999999999967e+01 2.463798968086748989e-02
1.938100000000000023e+01 1.491300000000000026e+01 1.794000000000000057e+02 2.690532999999999788e+02 -2.845453036302237892e-01
1.938100000000000023e+01 1.587100000000000044e+01 1.778499999999999943e+02 4.187427999999999706e+00 -2.805981553487839064e-01
1.938100000000000023e+01 1.587100000000000044e+01 1.794000000000000057e+02 -6.057287999999999784e+00 -2.888324328574408684e-01
1.938200000000000145e+01 2.616199999999999903e+01 1.742299999999999898e+02 -9.316202999999999790e+00 -8.582672098957154494e-02
1.938200000000000145e+01 2.710200000000000031e+01 1.742299999999999898e+02 -3.702600000000000335e+01 2.946661085759292864e-01
1.938299999999999912e+01 3.218299999999999983e+01 1.570000000000000000e+02 1.669848999999999961e+01 -2.462669948922120988e-01
1.938400000000000034e+01 3.121000000000000085e+01 1.567599999999999909e+02 1.773246999999999929e+01 -2.512969172820339048e-01
1.939600000000000080e+01 3.216299999999999670e+01 1.585099999999999909e+02 8.053855000000000430e+00 2.806989009048736078e-02
1.940399999999999991e+01 2.925900000000000034e+01 1.551200000000000045e+02 8.849247000000000085e+00 8.900083606667902325e-02
1.943100000000000094e+01 3.419599999999999795e+01 1.611599999999999966e+02 1.904034999999999922e+00 -2.947348989496310218e-02
1.943400000000000105e+01 2.763500000000000156e+01 1.794900000000000091e+02 9.026068000000000424e+00 -4.192126235778072252e-02
1.944500000000000028e+01 2.583299999999999841e+01 1.749900000000000091e+02 -3.737556000000000100e+00 -9.072905044790847973e-02
1.944500000000000028e+01 2.743100000000000094e+01 1.749900000000000091e+02 -9.051040000000000418e+00 2.697907788479060320e-01
1.944600000000000151e+01 1.457699999999999996e+01 1.786299999999999955e+02 1.778994000000000142e+01 -2.817909284233325318e-01
1.944600000000000151e+01 1.620700000000000074e+01 1.786299999999999955e+02 -5.577937000000000367e+00 -2.902518929060305952e-01
1.948100000000000165e+01 1.484800000000000075e+01 1.778600000000000136e+02 6.584685999999999595e+00 -2.763073787768931533e-01
1.949099999999999966e+01 2.598799999999999955e+01 1.551899999999999977e+02 3.825987000000000027e+00 3.192048231993024898e-01
1.949599999999999866e+01 3.385999999999999943e+01 1.603799999999999955e+02 2.665944999999999787e+00 -1.078735480485630838e-01
1.950100000000000122e+01 2.504899999999999949e+01 1.605099999999999909e+02 5.801065999999999612e+00 1.376838071524997820e-01
1.950600000000000023e+01 3.086299999999999955e+01 1.642299999999999898e+02 2.546114000000000033e+01 3.127540407739538841e-02
1.952899999999999991e+01 2.710600000000000165e+01 1.757500000000000000e+02 -1.964359999999999928e+01 2.574050803075175753e-01
1.953500000000000014e+01 2.736299999999999955e+01 1.542700000000000102e+02 1.067548999999999992e+01 3.037286865463357730e-02
1.953800000000000026e+01 2.969900000000000162e+01 1.558899999999999864e+02 1.199291000000000018e+01 1.087518153066618226e-01
1.960600000000000165e+01 3.409700000000000131e+01 1.620600000000000023e+02 1.583864999999999945e+01 1.140652654107097291e-02
1.963500000000000156e+01 2.985600000000000165e+01 1.775099999999999909e+02 2.434979999999999922e+00 -3.387527417492736809e-02
1.963500000000000156e+01 2.985600000000000165e+01 1.785600000000000023e+02 3.774112000000000133e+00 7.090036075268477296e-03
1.966100000000000136e+01 2.377700000000000102e+01 1.639499999999999886e+02 3.356368999999999936e+00 -2.151215572590804703e-02
1.966100000000000136e+01 2.377700000000000102e+01 1.668600000000000136e+02 -2.217480000000000118e+00 -1.923708599235962324e-01
1.967200000000000060e+01 2.663200000000000145e+01 1.749900000000000091e+02 -1.656578999999999979e+01 -5.532530683258515131e-02
1.967699999999999960e+01 1.539199999999999946e+01 1.786299999999999955e+02 2.376748999999999779e+00 -2.862670439837345926e-01
1.967899999999999849e+01 2.848100000000000165e+01 1.765800000000000125e+02 8.710475999999999885e+00 -5.475732297004710925e-02
1.967899999999999849e+01 2.848100000000000165e+01 1.794799999999999898e+02 1.933123000000000147e+01 -1.368257925092689412e-02
1.969099999999999895e+01 2.849899999999999878e+01 1.547400000000000091e+02 6.231912999999999592e+00 5.723272992054393576e-02
1.969200000000000017e+01 3.271800000000000352e+01 1.590999999999999943e+02 3.281400999999999790e+00 1.100106596849574321e-03
1.969200000000000017e+01 2.590700000000000003e+01 1.586999999999999886e+02 1.631615000000000038e+01 1.336528213174393021e-01
1.969699999999999918e+01 2.551800000000000068e+01 1.670500000000000114e+02 -1.913035000000000041e+00 -1.953875187614661502e-01
1.969699999999999918e+01 2.514600000000000080e+01 1.613499999999999943e+02 5.173142000000000351e+00 1.364628587558775197e-01
1.973000000000000043e+01 2.701800000000000068e+01 1.782299999999999898e+02 1.096465000000000067e+01 -2.135624381842115248e-03
1.975400000000000134e+01 2.705900000000000105e+01 1.774499999999999886e+02 1.100963999999999920e+01 -1.574285317512975207e-02
1.976500000000000057e+01 2.747299999999999898e+01 1.766299999999999955e+02 3.547063000000000077e+00 -1.968606684622270508e-02
1.977299999999999969e+01 3.018499999999999872e+01 1.566100000000000136e+02 9.420082999999999984e+00 1.204330638036869433e-01
1.977700000000000102e+01 2.506599999999999895e+01 1.630500000000000114e+02 4.423772999999999733e+00 -7.977601429658362497e-02
1.977700000000000102e+01 2.527499999999999858e+01 1.623100000000000023e+02 5.817196000000000033e+00 -8.163398850511964511e-02
1.981400000000000006e+01 2.648100000000000165e+01 1.669399999999999977e+02 6.609436999999999784e+00 -2.091933861831367092e-01
1.981800000000000139e+01 2.582100000000000151e+01 1.573899999999999864e+02 1.083023999999999987e+01 1.398661216651291561e-01
1.981800000000000139e+01 2.603000000000000114e+01 1.581299999999999955e+02 1.119130000000000003e+01 1.364723769069226544e-01
1.982799999999999940e+01 3.146300000000000097e+01 1.573799999999999955e+02 1.040390999999999977e+01 -2.539068678508141774e-01
1.982799999999999940e+01 3.146300000000000097e+01 1.582500000000000000e+02 8.271585999999999217e+00 4.480474074161673592e-02
1.983200000000000074e+01 2.835399999999999920e+01 1.653300000000000125e+02 1.601832999999999885e+01 -2.024860306564156276e-01
1.983800000000000097e+01 3.366499999999999915e+01 1.628100000000000023e+02 5.206877999999999673e+01 2.151538690748563271e-02
1.983899999999999864e+01 3.284799999999999898e+01 1.637100000000000080e+02 5.283330000000000126e+01 3.696896255285773980e-02
1.986599999999999966e+01 2.568199999999999861e+01 1.565500000000000114e+02 5.184331000000000245e+00 1.239953810090614200e-01
1.989199999999999946e+01 2.805900000000000105e+01 1.660399999999999920e+02 1.270026999999999973e+01 -2.186137102033532675e-01
1.990299999999999869e+01 3.344800000000000040e+01 1.597500000000000000e+02 3.274897000000000169e+00 -1.104300115674902438e-01
1.992899999999999849e+01 2.829700000000000060e+01 1.643000000000000114e+02 1.190642000000000067e+01 -1.989506908127908202e-01
1.997500000000000142e+01 3.463499999999999801e+01 1.606800000000000068e+02 2.811558999999999919e+00 -3.868220770464579628e-02
1.997500000000000142e+01 3.463499999999999801e+01 1.616399999999999864e+02 4.508030000000000115e+01 2.130574012124392402e-01
1.998699999999999832e+01 3.033800000000000097e+01 1.636299999999999955e+02 1.151934999999999931e+01 8.202443820159983565e-03
2.000300000000000011e+01 2.894600000000000151e+01 1.555999999999999943e+02 1.162423000000000073e+01 8.773797317143607055e-02
2.004299999999999926e+01 2.792099999999999937e+01 1.547299999999999898e+02 5.472184000000000381e+00 3.223370526569643152e-02
2.005600000000000094e+01 2.686499999999999844e+01 1.547299999999999898e+02 5.147351999999999705e+00 1.328965491594041523e-02
2.007199999999999918e+01 3.132799999999999940e+01 1.637400000000000091e+02 4.658849000000000018e+00 1.627266474358268072e-02
2.009600000000000009e+01 3.189600000000000080e+01 1.589499999999999886e+02 2.996325999999999823e+00 1.285307047503316327e-02
2.011599999999999966e+01 3.101800000000000068e+01 1.573100000000000023e+02 2.091539000000000037e+00 -2.579288149950926812e-01
2.015399999999999991e+01 2.908500000000000085e+01 1.628899999999999864e+02 -2.656638000000000055e+00 8.592750095755558037e-02
2.015399999999999991e+01 2.995100000000000051e+01 1.628899999999999864e+02 9.539011999999999603e+00 -8.837874009065049830e-03
2.016000000000000014e+01 2.795599999999999952e+01 1.771800000000000068e+02 8.085858999999999241e+00 -2.270307418131075478e-02
2.016000000000000014e+01 2.795599999999999952e+01 1.788799999999999955e+02 1.115526999999999980e+01 -2.223398767744186322e-02
2.016000000000000014e+01 2.900600000000000023e+01 1.771800000000000068e+02 3.499115000000000197e+00 -5.066539770130046305e-02
2.016000000000000014e+01 2.900600000000000023e+01 1.788799999999999955e+02 1.455108000000000068e+01 5.587614571909313606e-03
2.016300000000000026e+01 2.866900000000000048e+01 1.635800000000000125e+02 -2.857031000000000098e+00 -3.315403625386483671e-03
2.017000000000000171e+01 2.455499999999999972e+01 1.634699999999999989e+02 3.622275999999999829e+00 -7.791816584880320584e-02
2.017500000000000071e+01 3.207300000000000040e+01 1.637800000000000011e+02 -1.179613999999999940e-01 2.213691697218994961e-02
2.018199999999999861e+01 3.340299999999999869e+01 1.630600000000000023e+02 2.855311999999999983e+01 1.704203344164007677e-02
2.019099999999999895e+01 2.604599999999999937e+01 1.555000000000000000e+02 4.497088999999999892e+00 1.141327953324557248e-01
2.021699999999999875e+01 2.287699999999999889e+01 1.654000000000000057e+02 3.031798999999999911e+00 -3.038169938846555472e-03
2.021699999999999875e+01 2.314600000000000080e+01 1.644600000000000080e+02 2.528220999999999830e+00 -1.093379901319205434e-02
2.021699999999999875e+01 2.314600000000000080e+01 1.663499999999999943e+02 1.591325000000000101e+00 7.557554204397388953e-03
2.021699999999999875e+01 2.467699999999999960e+01 1.672100000000000080e+02 -8.670775000000000787e+00 -1.855848696917868912e-01
2.023100000000000165e+01 2.758699999999999974e+01 1.780300000000000011e+02 5.252356999999999942e+00 7.772667623583218513e-03
2.023100000000000165e+01 2.937500000000000000e+01 1.780300000000000011e+02 7.954282000000000297e-01 -2.396082983728133747e-02
2.027100000000000080e+01 2.937900000000000134e+01 1.563000000000000114e+02 9.905900000000000816e+00 1.080034023380360975e-01
2.027100000000000080e+01 3.415599999999999881e+01 1.599000000000000057e+02 3.798302000000000067e+00 -5.338033640358071791e-02
2.027100000000000080e+01 3.415599999999999881e+01 1.624099999999999966e+02 3.795401999999999987e+01 2.206027058407992736e-01
2.031599999999999895e+01 2.535999999999999943e+01 1.593899999999999864e+02 1.175282999999999944e+01 1.056125671118611775e-01
2.031700000000000017e+01 3.268099999999999739e+01 1.593400000000000034e+02 4.033706999999999709e+00 -1.328028802907439687e-02
2.033899999999999864e+01 2.733099999999999952e+01 1.666100000000000136e+02 1.701942000000000021e+01 -2.212706360211291745e-01
2.039099999999999824e+01 2.653200000000000003e+01 1.551699999999999875e+02 3.643082000000000154e+00 4.993482404627908912e-03
2.039099999999999824e+01 2.823199999999999932e+01 1.551699999999999875e+02 6.592171999999999699e+00 5.160126052452224110e-02
2.042399999999999949e+01 3.294800000000000040e+01 1.633000000000000114e+02 1.946538999999999930e+01 1.208300162240328983e-02
2.042800000000000082e+01 3.079200000000000159e+01 1.629000000000000057e+02 7.775614000000000026e+00 -1.147944068980898819e-02
2.044300000000000139e+01 2.567500000000000071e+01 1.670500000000000114e+02 -7.489157999999999760e+00 -2.014841117761273781e-01
2.047700000000000031e+01 2.500799999999999912e+01 1.618799999999999955e+02 5.295154000000000138e+00 1.270254694897768322e-01
2.047700000000000031e+01 2.500799999999999912e+01 1.627400000000000091e+02 4.285898000000000430e+00 -7.970435164556545493e-02
2.048499999999999943e+01 2.848100000000000165e+01 1.780300000000000011e+02 3.554097000000000062e+00 -1.810949998142624001e-02
2.048600000000000065e+01 2.486199999999999832e+01 1.608400000000000034e+02 5.869893000000000249e+00 1.222465821317191281e-01
2.052100000000000080e+01 2.510900000000000176e+01 1.600099999999999909e+02 5.039509999999999934e+00 1.097196449745007907e-01
2.052799999999999869e+01 3.119600000000000151e+01 1.578100000000000023e+02 -1.132336000000000009e+00 6.440108535483504704e-02
2.052799999999999869e+01 3.140500000000000114e+01 1.585500000000000114e+02 -2.924392000000000102e+00 3.086211432827253368e-02
2.054899999999999949e+01 3.052700000000000102e+01 1.569099999999999966e+02 -9.442945999999999174e+00 -2.617103162634871194e-01
2.055000000000000071e+01 2.951800000000000068e+01 1.624000000000000057e+02 3.928481999999999807e+00 7.826517493397186498e-02
2.061400000000000077e+01 3.159400000000000119e+01 1.632400000000000091e+02 1.489444999999999908e+00 -5.662262645934724482e-03
2.065800000000000125e+01 2.386899999999999977e+01 1.670200000000000102e+02 3.176146000000000247e-01 -1.948735617035792234e-01
2.066400000000000148e+01 2.785600000000000165e+01 1.638400000000000034e+02 1.278130999999999950e+01 8.412836075689698878e-02
2.066400000000000148e+01 2.785600000000000165e+01 1.647100000000000080e+02 1.891550000000000153e+01 -1.227597242102707320e-01
2.066400000000000148e+01 2.785600000000000165e+01 1.657599999999999909e+02 2.112705000000000055e+01 -2.189878798239377478e-01
2.067099999999999937e+01 3.013200000000000145e+01 1.565900000000000034e+02 1.029662999999999995e+00 1.320864484255042659e-01
2.070700000000000074e+01 2.824500000000000099e+01 1.631899999999999977e+02 2.480424000000000184e+00 9.353128062081814131e-02
2.071600000000000108e+01 2.600700000000000145e+01 1.560200000000000102e+02 6.345418999999999699e+00 1.211809530017460279e-01
2.071600000000000108e+01 2.600700000000000145e+01 1.570699999999999932e+02 1.251530999999999949e+01 1.282734271287930272e-01
2.073999999999999844e+01 2.620200000000000173e+01 1.578799999999999955e+02 1.119453999999999994e+01 1.258147409208717205e-01
2.075000000000000000e+01 3.338100000000000023e+01 1.596100000000000136e+02 4.738914000000000293e+00 -6.379025190890874608e-02
2.075000000000000000e+01 3.470000000000000284e+01 1.603400000000000034e+02 3.857777000000000012e+00 -5.629853156816842091e-02
2.075000000000000000e+01 3.470000000000000284e+01 1.619699999999999989e+02 1.582355000000000018e+02 1.987531366212177963e-01
2.075000000000000000e+01 3.493099999999999739e+01 1.611599999999999966e+02 2.192569999999999908e+01 -4.810097866217519225e-02
2.076000000000000156e+01 2.738200000000000145e+01 1.550999999999999943e+02 6.493189000000000100e+00 8.858693010324707184e-03
2.076800000000000068e+01 2.882300000000000040e+01 1.558899999999999864e+02 1.531038000000000032e+01 8.795255150089133223e-02
2.077299999999999969e+01 2.377700000000000102e+01 1.639499999999999886e+02 2.289232999999999851e+00 -2.028575893845899203e-01
2.081500000000000128e+01 2.689499999999999957e+01 1.666100000000000136e+02 1.276056999999999952e+01 -1.215050249830280371e-01
2.081899999999999906e+01 3.197700000000000031e+01 1.593100000000000023e+02 2.571174999999999855e+01 -1.007265665218966613e-02
2.082000000000000028e+01 3.338100000000000023e+01 1.628000000000000114e+02 5.265177999999999692e+00 -9.839875093701228731e-03
2.085300000000000153e+01 3.132400000000000162e+01 1.628400000000000034e+02 5.460440000000000182e+00 -2.149880772161798237e-02
2.091400000000000148e+01 2.874800000000000111e+01 1.624699999999999989e+02 4.966858000000000217e+00 8.620157260021235612e-02
2.093100000000000094e+01 2.589000000000000057e+01 1.588199999999999932e+02 1.103556000000000026e+01 1.145897149673574117e-01
2.100000000000000000e+01 3.027599999999999980e+01 1.622599999999999909e+02 1.282980000000000054e+01 6.449580467427165620e-02
2.101800000000000068e+01 3.096099999999999852e+01 1.574000000000000057e+02 -2.461100000000000065e+01 -2.630278430620129893e-01
2.101800000000000068e+01 3.128600000000000136e+01 1.581399999999999864e+02 -7.681307999999999581e+00 4.594493524560012282e-02
2.107499999999999929e+01 2.310600000000000165e+01 1.647599999999999909e+02 2.670339999999999936e+00 1.426401998795606002e-03
2.107999999999999829e+01 2.966799999999999926e+01 1.565800000000000125e+02 -1.520550999999999986e+00 1.219460880497861693e-01
2.110000000000000142e+01 2.312099999999999866e+01 1.660699999999999932e+02 -1.234969999999999901e+00 -1.989692338217380896e-01
2.111799999999999855e+01 2.619500000000000028e+01 1.666699999999999875e+02 -6.921799000000000035e+00 -1.200807532652671955e-01
2.113299999999999912e+01 3.207300000000000040e+01 1.628199999999999932e+02 9.760929000000000855e+00 -2.821839463773900825e-02
2.120200000000000173e+01 2.471900000000000119e+01 1.672299999999999898e+02 -6.410591000000000150e+00 -1.911106815597532482e-01
2.122899999999999920e+01 3.415599999999999881e+01 1.599000000000000057e+02 8.859978999999999161e+00 -8.595633675818634134e-02
2.122899999999999920e+01 3.415599999999999881e+01 1.624099999999999966e+02 8.732859999999999445e+01 1.858560250060090624e-01
2.124099999999999966e+01 2.685699999999999932e+01 1.556999999999999886e+02 5.892402999999999835e+00 -4.259867944289995670e-03
2.124099999999999966e+01 2.790700000000000003e+01 1.556999999999999886e+02 9.646884999999999266e+00 3.911657808111755619e-02
2.126000000000000156e+01 2.737500000000000000e+01 1.652400000000000091e+02 6.963001000000000218e+00 -1.227278953914778536e-01
2.127199999999999847e+01 2.712999999999999901e+01 1.660800000000000125e+02 1.109525999999999968e+01 -1.223968986877048970e-01
2.129700000000000060e+01 2.708999999999999986e+01 1.644300000000000068e+02 8.806642999999999333e+00 5.357596364864208871e-02
2.129899999999999949e+01 2.669200000000000017e+01 1.583000000000000114e+02 7.906616999999999784e+00 1.203844730243128491e-01
2.131200000000000117e+01 2.648799999999999955e+01 1.565500000000000114e+02 6.220543000000000156e+00 1.251345922336647709e-01
2.132700000000000173e+01 2.468299999999999983e+01 1.613499999999999943e+02 9.321673999999999793e+00 1.090879184353595599e-01
2.132700000000000173e+01 2.493700000000000117e+01 1.604600000000000080e+02 5.190309000000000061e+00 9.495589321087780088e-02
2.133800000000000097e+01 3.245700000000000074e+01 1.597299999999999898e+02 2.161730000000000018e+01 -4.168396425471807692e-02
2.135300000000000153e+01 2.677899999999999991e+01 1.573799999999999955e+02 7.334723999999999577e+00 1.251273997315369146e-01
2.135999999999999943e+01 2.759600000000000009e+01 1.636399999999999864e+02 9.036179999999999879e+00 -1.012742572866799778e-01
2.137399999999999878e+01 3.132400000000000162e+01 1.589699999999999989e+02 -1.547562000000000104e+00 4.718031771939188920e-03
2.137999999999999901e+01 2.482100000000000151e+01 1.622299999999999898e+02 6.380536000000000207e+00 1.136446894048545320e-01
2.138200000000000145e+01 2.950499999999999901e+01 1.621800000000000068e+02 1.467836999999999925e+01 7.354623214039719692e-02
2.138299999999999912e+01 2.896799999999999997e+01 1.565200000000000102e+02 8.280590999999999369e+00 9.657402210681594046e-02
2.140700000000000003e+01 2.818700000000000117e+01 1.628899999999999864e+02 7.788228000000000151e+00 9.167437867613228986e-02
2.140800000000000125e+01 2.829400000000000048e+01 1.564399999999999977e+02 1.266431000000000040e+01 6.720421563122846997e-02
2.143299999999999983e+01 2.484100000000000108e+01 1.631299999999999955e+02 4.936411999999999800e+00 1.096561331384673793e-01
2.147800000000000153e+01 3.089300000000000068e+01 1.621800000000000068e+02 6.066304999999999836e+00 4.914086268098121629e-02
2.148799999999999955e+01 3.042800000000000082e+01 1.569699999999999989e+02 -1.472730999999999923e+01 -2.701055649732369002e-01
2.152400000000000091e+01 2.386899999999999977e+01 1.670200000000000102e+02 2.585122999999999838e+00 -1.976400205471318949e-01
2.152400000000000091e+01 2.556899999999999906e+01 1.670200000000000102e+02 -7.088115000000000387e-01 -1.184531612635989495e-01
2.152499999999999858e+01 3.463499999999999801e+01 1.606800000000000068e+02 2.418024000000000129e+01 -7.656662623783577759e-02
2.152499999999999858e+01 3.463499999999999801e+01 1.616399999999999864e+02 3.912624999999999886e+01 1.602460614763676627e-01
2.153800000000000026e+01 3.168499999999999872e+01 1.622599999999999909e+02 7.053975000000000328e+00 -5.193832722465904078e-02
2.156500000000000128e+01 3.338100000000000023e+01 1.598400000000000034e+02 2.618148000000000053e+01 -8.809982915311606599e-02
2.156500000000000128e+01 3.338100000000000023e+01 1.624799999999999898e+02 -1.845674999999999955e+01 -4.532554997292191634e-02
2.156599999999999895e+01 2.738200000000000145e+01 1.565500000000000114e+02 1.086528000000000027e+01 2.973586719346226620e-02
2.158699999999999974e+01 2.769000000000000128e+01 1.570800000000000125e+02 1.212195999999999962e+01 4.280018613193336402e-02
2.159400000000000119e+01 3.168100000000000094e+01 1.597899999999999920e+02 1.461484000000000094e+02 -3.744816187424597487e-02
2.159700000000000131e+01 2.372700000000000031e+01 1.641999999999999886e+02 2.991353000000000151e+00 4.877836648328600505e-02
2.161599999999999966e+01 2.665599999999999881e+01 1.661500000000000057e+02 5.361347999999999558e+00 -1.214069544752485186e-01
2.162300000000000111e+01 3.267499999999999716e+01 1.623600000000000136e+02 2.042331000000000074e+01 -5.328457060496030046e-02
2.166400000000000148e+01 2.665700000000000003e+01 1.643000000000000114e+02 5.872276000000000273e+00 4.971589370649999451e-02
2.167299999999999827e+01 2.693100000000000094e+01 1.651500000000000057e+02 8.056815000000000282e+00 -1.219640034480665713e-01
2.168199999999999861e+01 2.731099999999999994e+01 1.580600000000000023e+02 1.268753000000000064e+01 3.385647920247986196e-03
2.169999999999999929e+01 2.440899999999999892e+01 1.638300000000000125e+02 1.385423000000000071e+00 1.187470879854423955e-01
2.170599999999999952e+01 2.618700000000000117e+01 1.592800000000000011e+02 8.406377000000000876e+00 1.030750956974471472e-01
2.172200000000000131e+01 2.696099999999999852e+01 1.635999999999999943e+02 1.012011000000000038e+01 -1.002798123881315229e-01
2.175199999999999889e+01 2.782600000000000051e+01 1.632400000000000091e+02 8.160555999999999699e+00 9.478285000735327259e-02
2.177799999999999869e+01 3.089799999999999969e+01 1.577299999999999898e+02 -1.046204000000000001e+01 -2.712913208105474649e-01
2.181700000000000017e+01 2.966799999999999926e+01 1.569099999999999966e+02 -8.991376000000000701e+00 1.186247754070582638e-01
2.182000000000000028e+01 2.870700000000000074e+01 1.569499999999999886e+02 3.203530000000000211e+00 8.552786159475835037e-02
2.185200000000000031e+01 2.553300000000000125e+01 1.599799999999999898e+02 4.162772000000000361e+00 6.078401709556401078e-02
2.185900000000000176e+01 3.182999999999999829e+01 1.611599999999999966e+02 4.668228000000000044e+00 2.596070764345830353e-02
2.187500000000000000e+01 2.825300000000000011e+01 1.577199999999999989e+02 6.690310000000000201e+00 5.172864054853690968e-02
2.187699999999999889e+01 3.095799999999999841e+01 1.586699999999999875e+02 -2.513793000000000077e+01 1.612900656838044816e-02
2.189499999999999957e+01 3.210099999999999909e+01 1.603899999999999864e+02 2.696548999999999907e+01 3.916311320918139730e-03
2.190099999999999980e+01 2.691600000000000037e+01 1.589099999999999966e+02 6.668281999999999599e+00 1.117868663139287150e-01
2.191100000000000136e+01 2.867800000000000082e+01 1.624900000000000091e+02 1.291773000000000060e+01 8.324257695848283345e-02
2.195499999999999829e+01 3.094500000000000028e+01 1.597899999999999920e+02 1.576609999999999978e+01 -3.228935856160053408e-02
2.197599999999999909e+01 2.661400000000000077e+01 1.655900000000000034e+02 7.339634000000000214e+00 -1.214857885790940478e-01
2.200400000000000134e+01 3.022800000000000153e+01 1.618600000000000136e+02 1.094557999999999964e+01 5.523964551353362229e-02
2.200400000000000134e+01 3.290200000000000102e+01 1.603799999999999955e+02 2.911140999999999934e+01 -1.284936846144742141e-03
2.200400000000000134e+01 3.290200000000000102e+01 1.619300000000000068e+02 -9.265841999999999246e+00 -7.441088930123329614e-02
2.200400000000000134e+01 3.385999999999999943e+01 1.603799999999999955e+02 8.648278999999999428e+01 -1.006879469778806657e-01
2.200400000000000134e+01 3.385999999999999943e+01 1.619300000000000068e+02 -2.493880000000000052e+01 1.389081854009084904e-01
2.201300000000000168e+01 3.124899999999999878e+01 1.604900000000000091e+02 3.930760000000000076e+01 -6.269922139555310359e-02
2.202400000000000091e+01 3.118400000000000105e+01 1.613400000000000034e+02 -1.694223999999999952e+00 3.544392155119129029e-02
2.204899999999999949e+01 2.301899999999999835e+01 1.656500000000000057e+02 2.202484999999999804e+00 -2.054684080629247123e-01
2.204899999999999949e+01 2.327299999999999969e+01 1.647599999999999909e+02 2.937552000000000163e+00 -5.439192936211525303e-02
2.204899999999999949e+01 2.327299999999999969e+01 1.665399999999999920e+02 4.016488999999999976e+00 -2.002238698911358306e-01
2.204899999999999949e+01 2.471900000000000119e+01 1.673499999999999943e+02 5.575534000000000212e+00 -1.164075798616393403e-01
2.204899999999999949e+01 2.616499999999999915e+01 1.665399999999999920e+02 1.116681999999999952e+01 -1.200321625037088780e-01
2.206899999999999906e+01 3.256600000000000250e+01 1.611599999999999966e+02 7.225564999999999571e+00 -1.094112459436715479e-01
2.206899999999999906e+01 3.419599999999999795e+01 1.611599999999999966e+02 2.822141999999999928e+00 -1.003628655579001244e-01
2.209700000000000131e+01 2.822800000000000153e+01 1.626699999999999875e+02 8.909124999999999517e+00 8.824382409021960805e-02
2.211899999999999977e+01 2.739300000000000068e+01 1.631100000000000136e+02 1.166024999999999956e+01 -1.016838117963940330e-01
2.213299999999999912e+01 2.773300000000000054e+01 1.586999999999999886e+02 1.057541999999999938e+01 2.632689894594328860e-03
2.215500000000000114e+01 2.626099999999999923e+01 1.638700000000000045e+02 7.395990000000000286e+00 4.318121237889717412e-02
2.215500000000000114e+01 2.626099999999999923e+01 1.647400000000000091e+02 5.983314000000000021e+00 4.310254274629822524e-02
2.217699999999999960e+01 2.500799999999999912e+01 1.608300000000000125e+02 6.787134000000000000e+00 6.710785388126883078e-02
2.217699999999999960e+01 2.500799999999999912e+01 1.618799999999999955e+02 8.580109000000000208e+00 8.175992247720711981e-02
2.220100000000000051e+01 2.520299999999999940e+01 1.626800000000000068e+02 6.726213000000000442e+00 8.851561064774619847e-02
2.224800000000000111e+01 2.919800000000000040e+01 1.574399999999999977e+02 -1.877180000000000071e+00 9.751168839238669173e-02
2.224800000000000111e+01 3.013800000000000168e+01 1.574399999999999977e+02 -8.252269000000000077e+00 -2.859792817069127802e-01
2.226999999999999957e+01 3.033500000000000085e+01 1.597199999999999989e+02 1.567989000000000077e+00 -2.470770679207376710e-02
2.230000000000000071e+01 3.338100000000000023e+01 1.611599999999999966e+02 3.081320999999999977e+00 -1.168701967448448620e-01
2.231099999999999994e+01 3.046699999999999875e+01 1.581999999999999886e+02 -2.193121999999999971e+01 4.017948661588219977e-02
2.231299999999999883e+01 2.636899999999999977e+01 1.594300000000000068e+02 4.125274000000000107e+00 9.517285288398738552e-02
2.234600000000000009e+01 3.019900000000000162e+01 1.589600000000000080e+02 -2.321458000000000155e+01 7.927130461225992408e-03
2.235000000000000142e+01 3.046399999999999864e+01 1.606800000000000068e+02 1.051726000000000028e+01 4.809863288578754281e-02
2.238800000000000168e+01 2.504899999999999949e+01 1.635600000000000023e+02 4.751430000000000042e+00 1.045083715363571697e-01
2.241600000000000037e+01 2.885200000000000031e+01 1.581699999999999875e+02 2.052512000000000114e+00 5.875498682010436846e-02
2.242200000000000060e+01 2.669300000000000139e+01 1.631699999999999875e+02 1.105505999999999922e+01 -1.004425788685131549e-01
2.243599999999999994e+01 2.941300000000000026e+01 1.620500000000000114e+02 1.939514000000000138e+01 6.742257861815906250e-02
2.253800000000000026e+01 2.966799999999999926e+01 1.581999999999999886e+02 -2.806812000000000040e+01 4.815611588424743156e-02
2.257400000000000162e+01 2.386899999999999977e+01 1.642700000000000102e+02 5.029956999999999567e+00 3.926594732514129132e-02
2.257400000000000162e+01 2.386899999999999977e+01 1.670200000000000102e+02 1.288602000000000025e+01 -2.052111435453613242e-01
2.257400000000000162e+01 2.556899999999999906e+01 1.670200000000000102e+02 9.201276999999999262e+00 -1.180820441568836560e-01
2.262099999999999866e+01 2.724099999999999966e+01 1.593600000000000136e+02 4.839685000000000237e+00 -3.582835760483880916e-02
2.267800000000000082e+01 2.575799999999999912e+01 1.603100000000000023e+02 6.386173999999999573e+00 5.133692344815686537e-02
2.269399999999999906e+01 2.843700000000000117e+01 1.589000000000000057e+02 2.522879000000000094e+00 1.886132771920515094e-02
2.269999999999999929e+01 2.567699999999999960e+01 1.637599999999999909e+02 6.637482000000000326e+00 3.577395897661682367e-02
2.269999999999999929e+01 2.598000000000000043e+01 1.630600000000000023e+02 6.659957000000000349e+00 9.103024865770195651e-02
2.271600000000000108e+01 2.899899999999999878e+01 1.622899999999999920e+02 7.710099999999999731e+00 7.316765699925063815e-02
2.276000000000000156e+01 2.569300000000000139e+01 1.622400000000000091e+02 5.240579000000000320e+00 7.701102346374522067e-02
2.276099999999999923e+01 2.993799999999999883e+01 1.601500000000000057e+02 2.251643999999999934e+01 -4.182049450881759889e-02
2.276099999999999923e+01 2.993799999999999883e+01 1.611999999999999886e+02 1.286922000000000033e+01 5.397437297424817482e-02
2.280300000000000082e+01 2.536499999999999844e+01 1.613499999999999943e+02 7.200541000000000302e+00 6.471069487131776710e-02
2.283299999999999841e+01 2.952400000000000091e+01 1.591999999999999886e+02 -1.083781000000000105e+00 3.621746154940386491e-04
2.289900000000000091e+01 2.334400000000000119e+01 1.651200000000000045e+02 3.215017000000000014e+00 2.276996007164325958e-02
2.289900000000000091e+01 2.334400000000000119e+01 1.661699999999999875e+02 4.477862000000000009e+00 -2.080487446641595961e-01
2.289900000000000091e+01 2.609400000000000119e+01 1.651200000000000045e+02 1.081340999999999930e+01 3.192751402033958824e-02
2.289900000000000091e+01 2.609400000000000119e+01 1.661699999999999875e+02 3.605884999999999962e+01 -1.198521073011125926e-01
2.294300000000000139e+01 2.471900000000000119e+01 1.641999999999999886e+02 7.986886000000000152e+00 3.486993620625079143e-02
2.294300000000000139e+01 2.471900000000000119e+01 1.670999999999999943e+02 1.224225000000000030e+01 -1.163579706109831025e-01
2.305499999999999972e+01 2.644800000000000040e+01 1.597899999999999920e+02 5.498793000000000042e+00 4.267035593411559052e-02
2.305499999999999972e+01 2.814799999999999969e+01 1.625399999999999920e+02 1.690225999999999829e+01 8.410737246897112551e-02
2.318199999999999861e+01 2.640299999999999869e+01 1.625999999999999943e+02 8.587828000000000017e+00 9.600195012207980716e-02
2.328600000000000136e+01 2.908800000000000097e+01 1.598300000000000125e+02 7.208947000000000216e+00 3.114342281021252878e-01
2.328600000000000136e+01 2.908800000000000097e+01 1.615300000000000011e+02 1.125853000000000037e+01 6.700191691973395036e-02
2.335699999999999932e+01 2.945700000000000074e+01 1.606800000000000068e+02 1.541843000000000075e+01 6.135224215708490192e-02
2.337099999999999866e+01 2.809799999999999898e+01 1.597199999999999989e+02 5.396130000000000315e+00 3.130757302162643918e-01
