2.104200000000000159e+01 1.878900000000000148e+01 6.804699999999999704e+01 1.234909000000000034e+01 -2.783934012693890514e-01
2.104200000000000159e+01 1.899899999999999878e+01 6.878300000000000125e+01 7.562598000000000376e+00 -2.776594796240378638e-01
2.104500000000000171e+01 3.519500000000000028e+01 5.267300000000000182e+01 1.285646000000000011e-01 -2.682674748726642314e-02
2.104700000000000060e+01 2.499699999999999989e+01 5.210699999999999932e+01 5.436130000000000351e+00 8.339619041285804835e-02
2.104799999999999827e+01 1.891799999999999926e+01 6.389600000000000080e+01 1.524451999999999963e+01 -1.715255067996840355e-01
2.105399999999999849e+01 4.032300000000000040e+01 5.454099999999999682e+01 4.313422000000000089e+00 -5.937216166993315725e-02
2.105799999999999983e+01 2.904799999999999827e+01 4.737199999999999989e+01 6.161849000000000132e+00 1.971433413744470842e-03
2.107300000000000040e+01 3.296099999999999852e+01 5.968299999999999983e+01 1.180556999999999945e+01 7.279545405669170244e-02
2.107799999999999940e+01 2.105000000000000071e+01 7.286100000000000421e+01 2.829753999999999881e+00 -2.678029482787065430e-01
2.108299999999999841e+01 4.148700000000000188e+01 4.884899999999999665e+01 3.628694999999999737e+01 -6.066978911789614728e-05
2.109600000000000009e+01 1.781500000000000128e+01 6.016400000000000148e+01 2.700963999999999920e+00 -1.821042271097534082e-01
2.110200000000000031e+01 3.266299999999999670e+01 5.880700000000000216e+01 7.316796000000000078e+00 7.302749456799531580e-02
2.110900000000000176e+01 1.922100000000000009e+01 5.829099999999999682e+01 3.039779000000000231e-01 -1.865304624326855343e-01
2.111499999999999844e+01 2.940500000000000114e+01 4.656900000000000261e+01 4.572817999999999827e+00 1.167090010526130065e-03
2.111499999999999844e+01 3.085099999999999909e+01 4.576299999999999812e+01 6.417919000000000374e+00 -3.824192149410775982e-03
2.111499999999999844e+01 3.229699999999999704e+01 4.656900000000000261e+01 1.089509999999999934e+01 -6.613960215759882508e-03
2.111799999999999855e+01 3.738700000000000045e+01 4.665699999999999648e+01 2.290127000000000024e+00 8.908876229915875869e-03
2.112000000000000099e+01 3.086599999999999966e+01 7.995099999999999341e+01 7.743780000000000108e+00 -3.500000000000000333e-01
2.113800000000000168e+01 2.695799999999999841e+01 7.550799999999999557e+01 2.663110000000000088e+00 -3.500000000000000333e-01
2.113800000000000168e+01 2.416499999999999915e+01 4.822299999999999898e+01 4.857028999999999819e+00 -1.043178272446834975e-01
2.114600000000000080e+01 2.470200000000000173e+01 7.334099999999999397e+01 -1.362012000000000000e+01 -2.681860594138701370e-01
2.114699999999999847e+01 1.937099999999999866e+01 6.953799999999999670e+01 3.754103999999999886e+00 -2.770403862389081429e-01
2.114799999999999969e+01 3.545000000000000284e+01 6.289399999999999835e+01 1.892398000000000025e+01 7.429652566982095085e-02
2.114900000000000091e+01 1.796699999999999875e+01 5.913100000000000023e+01 1.901753999999999944e+00 -1.859882590852692252e-01
2.115099999999999980e+01 3.328099999999999881e+01 5.337599999999999767e+01 -1.501411999999999969e+00 -1.892286628195047338e-02
2.115099999999999980e+01 3.414699999999999847e+01 5.197599999999999909e+01 6.162862999999999758e+00 -2.637021131487545661e-02
2.115099999999999980e+01 3.414699999999999847e+01 5.337599999999999767e+01 1.402120999999999951e+00 1.390464110018992117e-01
2.116100000000000136e+01 4.084000000000000341e+01 5.022099999999999653e+01 8.539601999999999293e+01 -5.813353614552608725e-03
2.116100000000000136e+01 4.084000000000000341e+01 5.108700000000000330e+01 4.850292999999999921e+01 -8.000435719242577140e-03
2.116199999999999903e+01 2.494300000000000139e+01 4.754500000000000171e+01 4.779969000000000356e+00 -1.073252967491189480e-01
2.116199999999999903e+01 2.590099999999999980e+01 4.754500000000000171e+01 5.489283999999999608e+00 -1.094154115310992104e-01
2.117599999999999838e+01 2.901599999999999824e+01 7.946500000000000341e+01 5.406954999999999956e+00 -3.499999999999999778e-01
2.117899999999999849e+01 4.070400000000000063e+01 5.176899999999999835e+01 1.066414999999999935e+02 6.114351700687181701e-02
2.117999999999999972e+01 4.070600000000000307e+01 5.719899999999999807e+01 9.119542000000000481e-01 -5.332393487307659358e-02
2.117999999999999972e+01 4.070600000000000307e+01 5.813900000000000290e+01 -2.703418000000000099e+00 -5.150559558496633356e-02
2.119600000000000151e+01 3.314300000000000068e+01 7.575799999999999557e+01 4.398363999999999940e+00 -3.500000000000000333e-01
2.119600000000000151e+01 3.314300000000000068e+01 7.715800000000000125e+01 1.345474999999999977e+00 -3.500000000000000333e-01
2.119800000000000040e+01 3.212500000000000000e+01 5.860099999999999909e+01 7.791095000000000326e+00 7.177915607256592223e-02
2.119800000000000040e+01 3.464800000000000324e+01 7.041899999999999693e+01 -1.138932999999999929e+01 -4.129761406962104836e-02
2.119800000000000040e+01 3.485699999999999932e+01 7.115500000000000114e+01 -3.003460000000000107e+01 -4.037229306488005626e-02
2.120100000000000051e+01 3.580400000000000205e+01 6.239900000000000091e+01 1.489296000000000042e+01 7.557205348458520544e-02
2.120899999999999963e+01 3.297800000000000153e+01 5.267600000000000193e+01 1.401645000000000030e+00 -2.012112286530858690e-02
2.121199999999999974e+01 3.970100000000000051e+01 5.965800000000000125e+01 2.028628000000000098e-01 1.470448359649997039e-01
2.121499999999999986e+01 3.443900000000000006e+01 6.925100000000000477e+01 -7.968639999999999723e+00 5.198411095975982027e-02
2.121499999999999986e+01 4.112100000000000222e+01 4.792099999999999937e+01 7.706653000000000198e+00 3.044284053238554590e-03
2.122400000000000020e+01 1.798699999999999832e+01 6.211399999999999721e+01 8.776923999999999282e+00 -1.751612285970909899e-01
2.124099999999999966e+01 2.865200000000000102e+01 7.759099999999999397e+01 1.269876000000000005e+01 -3.499999999999999778e-01
2.124099999999999966e+01 2.865200000000000102e+01 7.852200000000000557e+01 1.662414000000000058e+01 -3.500000000000000333e-01
2.124200000000000088e+01 2.410699999999999932e+01 5.097399999999999665e+01 4.042529000000000039e+00 -2.086952131716222070e-01
2.124200000000000088e+01 2.410699999999999932e+01 5.323899999999999721e+01 3.109586999999999879e+00 6.735328838683266039e-02
2.124399999999999977e+01 3.392699999999999960e+01 4.760600000000000165e+01 5.997863999999999862e+00 -2.336124892611739223e-02
2.124399999999999977e+01 3.532699999999999818e+01 4.760600000000000165e+01 1.870756000000000085e+00 -9.486507164430246775e-02
2.124800000000000111e+01 2.274599999999999866e+01 5.403699999999999903e+01 2.434050000000000047e+00 5.893295452285467195e-02
2.124899999999999878e+01 2.187900000000000134e+01 5.509400000000000119e+01 1.664636000000000005e+00 -3.323876073840166534e-02
2.125100000000000122e+01 3.308100000000000307e+01 7.787000000000000455e+01 3.355929999999999858e+00 -3.499999999999999778e-01
2.125400000000000134e+01 3.445900000000000318e+01 5.267300000000000182e+01 1.361747999999999958e+00 -2.493273999157955001e-02
2.125499999999999901e+01 3.284000000000000341e+01 7.645799999999999841e+01 2.663333000000000172e+00 -3.500000000000000333e-01
2.126000000000000156e+01 3.824300000000000210e+01 6.045499999999999829e+01 -1.779439999999999911e+00 1.494502667940709739e-01
2.126300000000000168e+01 2.072599999999999909e+01 7.245499999999999829e+01 -1.398484999999999978e+01 -2.691590052084178453e-01
2.126800000000000068e+01 3.433599999999999852e+01 6.830899999999999750e+01 -4.315755000000000230e+00 6.705208353197815441e-02
2.127799999999999869e+01 3.673700000000000188e+01 6.055100000000000193e+01 4.582099999999999618e+00 -1.268908676091181666e-02
2.129400000000000048e+01 3.275300000000000011e+01 7.869100000000000250e+01 7.481622999999999912e+00 -3.499999999999999778e-01
2.129400000000000048e+01 3.610900000000000176e+01 4.708500000000000085e+01 1.945931000000000077e+00 3.435798325478600559e-03
2.130000000000000071e+01 3.432600000000000051e+01 6.405700000000000216e+01 2.469819000000000031e+01 7.112907254146917657e-02
2.133399999999999963e+01 3.180600000000000094e+01 5.971800000000000352e+01 7.955408000000000479e-01 6.972744213565981730e-02
2.133500000000000085e+01 3.087600000000000122e+01 5.971600000000000108e+01 7.534797000000000189e+00 6.635945182050816127e-02
2.134900000000000020e+01 2.685699999999999932e+01 4.834100000000000108e+01 8.393144999999999811e+01 -1.400191866071115454e-01
2.134900000000000020e+01 2.772299999999999898e+01 4.834100000000000108e+01 1.716644000000000148e+01 -1.071861127097073207e-01
2.137000000000000099e+01 3.946500000000000341e+01 4.714200000000000301e+01 1.363338000000000072e+01 5.326820788455642261e-03
2.137999999999999901e+01 4.059400000000000119e+01 4.740299999999999869e+01 5.668772999999999840e+00 4.567939495718536559e-03
2.141000000000000014e+01 3.086700000000000088e+01 6.123100000000000165e+01 1.641866999999999877e+01 6.503841045726090064e-02
2.141000000000000014e+01 3.173199999999999932e+01 6.123100000000000165e+01 1.483441000000000010e+01 6.795892579595372296e-02
2.141799999999999926e+01 3.371399999999999864e+01 5.267600000000000193e+01 8.670538999999999774e+00 -2.267102486842568349e-02
2.144200000000000017e+01 3.171600000000000108e+01 7.974399999999999977e+01 8.680308999999999386e+00 -3.499999999999999778e-01
2.144300000000000139e+01 4.090400000000000347e+01 4.953499999999999659e+01 7.256857999999999720e+01 -4.844552520944044212e-03
2.144500000000000028e+01 1.999599999999999866e+01 5.820400000000000063e+01 -4.386048000000000169e-01 -1.867717460892876491e-01
2.144500000000000028e+01 1.844600000000000151e+01 5.835600000000000165e+01 1.200326999999999922e+00 -1.885463171440329710e-01
2.144900000000000162e+01 1.839099999999999824e+01 6.276200000000000045e+01 1.539947000000000088e+01 -1.746769198897300535e-01
2.144900000000000162e+01 1.860000000000000142e+01 6.349799999999999756e+01 1.243303000000000047e+01 -1.731782625292406785e-01
2.144900000000000162e+01 1.860000000000000142e+01 6.613599999999999568e+01 8.220967999999999165e+00 -1.733081831086907554e-01
2.144999999999999929e+01 2.400199999999999889e+01 7.328300000000000125e+01 -1.016180000000000083e+00 -2.677392099283326110e-01
2.145799999999999841e+01 2.825700000000000145e+01 7.679099999999999682e+01 -5.145084999999999908e+00 -3.499999999999999778e-01
2.145899999999999963e+01 2.146099999999999852e+01 5.578900000000000148e+01 2.126968000000000192e+00 -9.681401538589557570e-03
2.146399999999999864e+01 3.357600000000000051e+01 7.645799999999999841e+01 1.112673999999999941e+00 -3.499999999999999778e-01
2.146600000000000108e+01 2.049800000000000111e+01 7.168800000000000239e+01 -7.806524999999999714e+00 -2.723209013907269549e-01
2.146799999999999997e+01 3.056400000000000006e+01 6.053099999999999881e+01 1.354271999999999920e+01 6.460880579131653145e-02
2.146799999999999997e+01 3.203600000000000136e+01 6.053099999999999881e+01 7.025884999999999714e+00 6.981182620670317585e-02
2.146799999999999997e+01 2.515599999999999881e+01 7.407500000000000284e+01 -2.915242000000000111e+00 -3.499999999999999778e-01
2.147100000000000009e+01 4.033500000000000085e+01 5.637899999999999778e+01 5.996554999999999858e+00 -5.468441060171639473e-02
2.147100000000000009e+01 4.033500000000000085e+01 5.895900000000000318e+01 -1.850152999999999892e+01 -4.954436693064512981e-02
2.149800000000000111e+01 3.800999999999999801e+01 4.650399999999999778e+01 9.388811999999999713e+00 8.360138755566948882e-03
2.149899999999999878e+01 2.999399999999999977e+01 7.989499999999999602e+01 5.447644000000000375e+00 -3.499999999999999778e-01
2.150900000000000034e+01 2.453999999999999915e+01 5.167399999999999949e+01 5.584883999999999737e+00 8.786588905479596201e-02
2.150900000000000034e+01 2.453999999999999915e+01 5.253900000000000148e+01 3.644566999999999890e+00 7.443654174988675876e-02
2.152299999999999969e+01 2.020499999999999829e+01 7.093500000000000227e+01 2.138955999999999857e+00 -2.758003341094352190e-01
2.152899999999999991e+01 2.157799999999999940e+01 5.649399999999999977e+01 -3.165048000000000084e+00 -1.840434690457536798e-02
2.152899999999999991e+01 2.157799999999999940e+01 5.735999999999999943e+01 -1.085346999999999973e+01 -1.023978337783306401e-02
2.153099999999999881e+01 2.321399999999999864e+01 7.323600000000000421e+01 2.450052000000000063e-01 -2.673278245506439665e-01
2.153200000000000003e+01 3.446600000000000108e+01 7.456900000000000261e+01 2.913272999999999779e+00 -3.500000000000000333e-01
2.153200000000000003e+01 3.424499999999999744e+01 7.615999999999999659e+01 -7.484412999999999760e-01 -3.499999999999999778e-01
2.153900000000000148e+01 1.893199999999999861e+01 6.842900000000000205e+01 7.619311999999999863e+00 -2.801306347335488223e-01
2.154700000000000060e+01 3.462700000000000244e+01 4.766499999999999915e+01 6.461181999999999981e+00 -2.924662342279622448e-02
2.154799999999999827e+01 2.856899999999999906e+01 4.774799999999999756e+01 1.075158000000000058e+01 -1.062068221903191556e-01
2.154799999999999827e+01 3.278799999999999670e+01 4.696600000000000108e+01 9.152919999999999945e+00 -1.393352915475364572e-02
2.155000000000000071e+01 3.332600000000000051e+01 6.679900000000000659e+01 9.918988000000000582e+00 6.675574765499650565e-02
2.155199999999999960e+01 2.154899999999999949e+01 7.306300000000000239e+01 7.681110999999999578e+00 -2.668397637636300557e-01
2.155399999999999849e+01 3.410499999999999687e+01 7.536199999999999477e+01 1.241776999999999909e+00 -3.499999999999999778e-01
2.155600000000000094e+01 2.673799999999999955e+01 4.774199999999999733e+01 4.479755000000000109e+01 -1.090370460576983308e-01
2.155900000000000105e+01 3.396500000000000341e+01 6.748900000000000432e+01 -8.785621000000000791e+00 6.734059413532841876e-02
2.156400000000000006e+01 3.392099999999999937e+01 7.692799999999999727e+01 -5.958941000000000238e-02 -3.499999999999999778e-01
2.156400000000000006e+01 4.010900000000000176e+01 5.571099999999999852e+01 8.492350999999999317e+00 -5.609559453818078328e-02
2.157100000000000151e+01 3.447800000000000153e+01 7.375499999999999545e+01 7.631465999999999639e+00 -3.500000000000000333e-01
2.157100000000000151e+01 3.468699999999999761e+01 7.301900000000000546e+01 1.059544999999999959e+00 -3.499999999999999223e-01
2.157100000000000151e+01 3.494100000000000250e+01 7.212500000000000000e+01 -2.479892999999999859e+01 -4.008090818143689865e-02
2.157100000000000151e+01 2.744900000000000162e+01 7.590500000000000114e+01 -4.802856999999999821e-01 -3.499999999999999778e-01
2.157300000000000040e+01 4.109100000000000108e+01 4.841700000000000159e+01 2.356766999999999967e+01 -8.753120342705224526e-04
2.160099999999999909e+01 2.542200000000000060e+01 4.700099999999999767e+01 5.249750999999999834e+00 -1.096155348512417305e-01
2.163599999999999923e+01 2.649699999999999989e+01 7.498699999999999477e+01 1.227340000000000098e+00 -3.499999999999999778e-01
2.164000000000000057e+01 3.000100000000000122e+01 4.608800000000000097e+01 3.957041999999999948e+00 1.299868827487242169e-03
2.164000000000000057e+01 3.170100000000000051e+01 4.608800000000000097e+01 8.742672999999999917e+00 -3.430560881588013561e-03
2.164099999999999824e+01 2.416799999999999926e+01 4.784100000000000108e+01 9.381112999999999147e+00 -1.042447156420811816e-01
2.164499999999999957e+01 1.852499999999999858e+01 6.438400000000000034e+01 9.372227000000000530e+00 -1.732820293640809917e-01
2.164499999999999957e+01 1.852499999999999858e+01 6.525000000000000000e+01 9.447342000000000795e+00 -1.734589107760952931e-01
2.165800000000000125e+01 4.009300000000000352e+01 5.491400000000000148e+01 6.464940000000000353e+00 -5.817157282758602527e-02
2.167599999999999838e+01 3.489699999999999847e+01 6.334100000000000108e+01 1.865812000000000026e+01 7.362804520199905944e-02
2.167699999999999960e+01 3.130000000000000071e+01 6.053099999999999881e+01 5.485781000000000240e+00 6.767322017949385649e-02
2.167999999999999972e+01 1.997500000000000142e+01 7.004600000000000648e+01 1.977265999999999968e+00 -2.778866524436220398e-01
2.168299999999999983e+01 3.378099999999999881e+01 7.760299999999999443e+01 4.074239000000000388e+00 -3.499999999999999223e-01
2.169099999999999895e+01 2.241400000000000148e+01 5.409100000000000108e+01 2.549386000000000152e+00 5.150230087637042153e-02
2.169600000000000151e+01 3.338100000000000023e+01 6.587600000000000477e+01 1.283262000000000036e+01 6.781871202906489260e-02
2.171099999999999852e+01 3.743699999999999761e+01 6.028300000000000125e+01 2.214836000000000027e+00 -1.389508627271101096e-02
2.173300000000000054e+01 3.362599999999999767e+01 6.518999999999999773e+01 8.989452999999999250e+00 6.903939869778516480e-02
2.174099999999999966e+01 3.876800000000000068e+01 5.985900000000000176e+01 2.857146000000000186e+00 1.489910790632236748e-01
2.174200000000000088e+01 1.840299999999999869e+01 6.685800000000000409e+01 9.889927999999999386e+00 -2.826193258662156316e-01
2.174299999999999855e+01 3.885600000000000165e+01 4.649199999999999733e+01 8.646563999999999695e+00 7.551158043980275673e-03
2.177599999999999980e+01 4.016100000000000136e+01 4.691199999999999903e+01 3.632826999999999806e+00 5.254368356425027226e-03
2.179599999999999937e+01 2.114499999999999957e+01 5.806000000000000227e+01 -4.820109000000000421e+00 -1.773708194082909608e-03
2.182199999999999918e+01 3.471399999999999864e+01 7.540099999999999625e+01 -1.199554999999999927e+00 -3.500000000000000333e-01
2.182700000000000173e+01 1.763200000000000145e+01 6.093699999999999761e+01 5.053872000000000142e+00 -1.827231371248849712e-01
2.182700000000000173e+01 1.788599999999999923e+01 6.183100000000000307e+01 8.800235999999999947e+00 -1.791963150778312364e-01
2.182799999999999940e+01 2.335099999999999909e+01 4.965599999999999881e+01 4.000367999999999924e+00 -2.083015535358697934e-01
2.182799999999999940e+01 2.360500000000000043e+01 4.876200000000000045e+01 5.742110000000000269e+00 -1.016290241346074208e-01
2.182799999999999940e+01 2.360500000000000043e+01 5.054999999999999716e+01 1.092331000000000074e+01 -2.079731839269024218e-01
2.183599999999999852e+01 3.720000000000000284e+01 4.643399999999999750e+01 3.965705999999999953e+00 6.161431449593900503e-03
2.185699999999999932e+01 1.842200000000000060e+01 6.781900000000000261e+01 8.993911999999999907e+00 -2.827760873818466192e-01
2.185699999999999932e+01 3.498199999999999932e+01 7.615999999999999659e+01 -1.325379000000000040e+01 -3.500000000000000333e-01
2.185699999999999932e+01 3.448899999999999721e+01 7.018200000000000216e+01 9.010407999999999751e-01 -4.355963980280017772e-02
2.185699999999999932e+01 3.469800000000000040e+01 7.091800000000000637e+01 -2.045943000000000112e+01 -4.253971529290344333e-02
2.185999999999999943e+01 4.049499999999999744e+01 5.409000000000000341e+01 3.184007000000000076e+01 -6.071980204972403372e-02
2.185999999999999943e+01 4.063100000000000023e+01 5.234899999999999665e+01 1.689686999999999983e+01 6.270552083645952735e-02
2.185999999999999943e+01 4.074900000000000233e+01 5.319599999999999795e+01 2.745653000000000077e+01 -6.345962427545544238e-02
2.186100000000000065e+01 4.081099999999999994e+01 5.150099999999999767e+01 1.762966000000000122e+01 6.093241099546641004e-02
2.186100000000000065e+01 4.057200000000000273e+01 5.065400000000000347e+01 5.222934999999999661e+01 -1.051374248981133686e-02
2.186299999999999955e+01 3.618099999999999739e+01 6.110999999999999943e+01 8.769702000000000552e+00 6.209340861355876207e-02
2.187399999999999878e+01 2.766100000000000136e+01 4.779200000000000159e+01 1.737998999999999938e+01 -1.072771743087828911e-01
2.187699999999999889e+01 2.102400000000000091e+01 7.221299999999999386e+01 3.708915999999999880e+00 -2.697709192985637272e-01
2.187699999999999889e+01 3.343800000000000239e+01 7.832999999999999829e+01 6.884226999999999919e+01 -3.499999999999999778e-01
2.187999999999999901e+01 1.945700000000000074e+01 6.928000000000000114e+01 1.109478000000000009e+01 -2.800428900374650754e-01
2.189699999999999847e+01 3.366199999999999903e+01 6.438299999999999557e+01 1.810498000000000118e+01 7.020716466946347323e-02
2.190200000000000102e+01 3.234199999999999875e+01 7.938700000000000045e+01 4.533574999999999910e+00 -3.499999999999999778e-01
2.190500000000000114e+01 3.224600000000000222e+01 4.658899999999999864e+01 9.662257999999999569e+00 -8.386856618803012128e-03
2.191199999999999903e+01 1.925900000000000034e+01 5.795000000000000284e+01 -6.702418999999999460e-01 -1.894768723438523816e-01
2.191499999999999915e+01 4.117900000000000205e+01 4.761699999999999733e+01 1.004861000000000004e+01 1.424272900535909596e-03
2.192000000000000171e+01 3.465299999999999869e+01 7.692000000000000171e+01 -1.173123000000000005e+01 -3.499999999999999223e-01
2.192099999999999937e+01 2.936799999999999855e+01 4.685399999999999920e+01 6.316544999999999632e+00 4.859176973441745387e-03
2.192099999999999937e+01 2.239900000000000091e+01 7.313400000000000034e+01 2.474680000000000213e+00 -2.668066442335114696e-01
2.192200000000000060e+01 2.341600000000000037e+01 5.357200000000000273e+01 2.836123000000000172e+00 5.800294909668109178e-02
2.192399999999999949e+01 1.767099999999999937e+01 5.960999999999999943e+01 1.562631000000000103e+00 -1.881057322210203941e-01
2.192699999999999960e+01 2.782300000000000040e+01 7.629999999999999716e+01 -6.384564000000000350e-01 -3.500000000000000333e-01
2.193400000000000105e+01 4.050699999999999790e+01 4.910199999999999676e+01 4.085114999999999696e+01 -6.331638809581536902e-03
2.193400000000000105e+01 4.050699999999999790e+01 4.996800000000000352e+01 6.743291000000000679e+01 -9.200068079584617156e-03
2.193700000000000117e+01 2.464699999999999847e+01 4.706600000000000250e+01 5.127832999999999863e+00 -1.067991163889777939e-01
2.193700000000000117e+01 2.619699999999999918e+01 4.706600000000000250e+01 1.004460000000000086e+01 -1.106414031566519823e-01
2.194000000000000128e+01 4.076899999999999835e+01 5.686999999999999744e+01 -1.031179000000000068e+00 -5.366186941440403979e-02
2.194000000000000128e+01 4.076899999999999835e+01 5.846800000000000352e+01 -2.185782999999999987e+01 -5.044196169314859451e-02
2.194000000000000128e+01 4.099600000000000222e+01 5.766899999999999693e+01 -3.466830000000000211e+01 -5.215956670729334638e-02
2.194399999999999906e+01 3.506000000000000227e+01 4.717399999999999949e+01 2.835955999999999921e+00 -3.085813463003337677e-03
2.195799999999999841e+01 2.454899999999999949e+01 5.281300000000000239e+01 3.975763999999999854e+00 6.681501306751616576e-02
2.196000000000000085e+01 2.448400000000000176e+01 7.369400000000000261e+01 -6.558017999999999681e+00 -3.499999999999999778e-01
2.196699999999999875e+01 3.086599999999999966e+01 8.006900000000000261e+01 1.194405000000000072e+01 -3.499999999999999778e-01
2.198499999999999943e+01 2.093900000000000006e+01 7.122299999999999898e+01 -1.996750999999999943e+00 -2.739956198451648506e-01
2.200400000000000134e+01 2.596399999999999864e+01 7.433400000000000318e+01 -1.513063000000000002e+01 -3.499999999999999778e-01
2.200900000000000034e+01 3.085099999999999909e+01 4.601700000000000301e+01 6.019726999999999606e+00 7.751034153262846712e-05
2.201099999999999923e+01 3.587400000000000233e+01 6.206099999999999994e+01 1.217385999999999946e+01 7.765079570137004006e-02
2.201200000000000045e+01 2.898499999999999943e+01 7.823199999999999932e+01 1.707484000000000002e+00 -3.499999999999999778e-01
2.202599999999999980e+01 2.454500000000000171e+01 5.182399999999999807e+01 7.475073000000000079e+00 8.163315841585719324e-02
2.202799999999999869e+01 3.439900000000000091e+01 6.798000000000000398e+01 -1.684787999999999997e+01 6.802689024108363181e-02
2.202799999999999869e+01 3.451500000000000057e+01 6.957699999999999818e+01 -1.017672999999999917e+01 5.053220909137327160e-02
2.202799999999999869e+01 3.462599999999999767e+01 6.877899999999999636e+01 -1.352961999999999954e+01 5.353333715366605239e-02
2.203500000000000014e+01 2.874899999999999878e+01 7.735899999999999466e+01 -1.174108000000000018e+01 -3.499999999999999778e-01
2.205199999999999960e+01 2.935699999999999932e+01 7.933400000000000318e+01 3.767722000000000016e+00 -3.500000000000000333e-01
2.205699999999999861e+01 3.634400000000000119e+01 4.651500000000000057e+01 2.289597999999999800e+00 2.874491622516547711e-03
2.205999999999999872e+01 3.937199999999999989e+01 5.934100000000000108e+01 -1.439746000000000059e+01 1.481371858052218105e-01
2.206899999999999906e+01 2.698799999999999955e+01 7.538400000000000034e+01 3.329809000000000019e+00 -3.499999999999999778e-01
2.207400000000000162e+01 3.415899999999999892e+01 4.732300000000000040e+01 4.024370000000000225e+00 -2.837069588287233907e-02
2.208299999999999841e+01 4.105499999999999972e+01 4.694200000000000017e+01 6.241729999999999556e+00 4.256893230495238656e-03
2.208399999999999963e+01 3.804099999999999682e+01 6.005299999999999727e+01 6.011060999999999765e+00 1.505638219431597868e-01
2.210000000000000142e+01 2.878500000000000014e+01 4.744800000000000040e+01 6.587241999999999820e+00 6.428405245120437719e-03
2.210000000000000142e+01 2.979200000000000159e+01 4.644100000000000250e+01 5.958596000000000004e+00 4.364068612046656873e-03
2.211700000000000088e+01 3.540500000000000114e+01 4.661399999999999721e+01 2.150425999999999949e+00 4.927474805917683980e-04
2.213599999999999923e+01 1.812800000000000011e+01 6.481699999999999307e+01 2.511796000000000006e+01 -1.750931808528443934e-01
2.214399999999999835e+01 3.673700000000000188e+01 6.055100000000000193e+01 -1.321339999999999959e+00 -1.130674407393463324e-02
2.214900000000000091e+01 1.833200000000000074e+01 6.306600000000000250e+01 1.577410000000000068e+01 -1.771048777404101993e-01
2.214900000000000091e+01 1.833200000000000074e+01 6.393099999999999739e+01 1.792143000000000086e+01 -1.754468504283188957e-01
2.214900000000000091e+01 1.833200000000000074e+01 6.570300000000000296e+01 1.660137999999999892e+01 -1.954341750821672885e-01
2.214900000000000091e+01 1.833200000000000074e+01 6.656799999999999784e+01 1.141746999999999979e+01 -7.499298225473374768e-02
2.214900000000000091e+01 2.073300000000000054e+01 7.033599999999999852e+01 7.197974999999999568e+00 -2.779478553183903355e-01
2.216100000000000136e+01 3.957800000000000296e+01 4.605199999999999960e+01 4.532172000000000089e+00 9.177055551332581954e-03
2.216499999999999915e+01 3.409499999999999886e+01 6.368299999999999983e+01 1.961355999999999966e+01 7.238082757648035825e-02
2.219999999999999929e+01 2.424899999999999878e+01 5.341199999999999903e+01 -4.089763999999999733e+00 5.669078003712052505e-02
2.220200000000000173e+01 3.291299999999999670e+01 7.918000000000000682e+01 9.390743000000000507e+00 -3.500000000000000333e-01
2.221600000000000108e+01 2.156400000000000006e+01 5.546600000000000108e+01 1.092623000000000033e+01 3.955355915650038412e-02
2.221600000000000108e+01 2.181800000000000139e+01 5.457200000000000273e+01 3.206789999999999807e+00 4.573448252269533831e-02
2.221699999999999875e+01 4.061500000000000199e+01 4.617699999999999960e+01 4.109392999999999851e+00 8.381416412213378922e-03
2.222400000000000020e+01 2.309900000000000020e+01 7.319199999999999307e+01 7.116160000000000263e-01 -2.668732268677400654e-01
2.222899999999999920e+01 2.044500000000000028e+01 5.832699999999999818e+01 -1.249619000000000035e+01 -1.879520556915388885e-01
2.222899999999999920e+01 2.163599999999999923e+01 5.766299999999999670e+01 -6.925813999999999915e+00 -2.038468795552716636e-02
2.222899999999999920e+01 2.184499999999999886e+01 5.692699999999999960e+01 -2.283265000000000100e+00 -2.992951898655372284e-02
2.224699999999999989e+01 3.183200000000000074e+01 8.004500000000000171e+01 1.915632999999999919e+00 -3.499999999999999778e-01
2.225900000000000034e+01 3.402300000000000324e+01 6.718600000000000705e+01 -2.535213999999999857e+00 6.832752590107735169e-02
2.226000000000000156e+01 1.890599999999999881e+01 6.878499999999999659e+01 7.947362000000000037e+00 -2.830024367131954155e-01
2.227299999999999969e+01 4.103199999999999648e+01 4.811299999999999955e+01 1.963363000000000014e+01 -3.057704214743270973e-03
2.231599999999999895e+01 3.424199999999999733e+01 7.754600000000000648e+01 -6.894886999999999766e+00 -3.499999999999999223e-01
2.231599999999999895e+01 3.298100000000000165e+01 4.703000000000000114e+01 5.188670000000000115e+00 -1.919371454840877039e-02
2.231899999999999906e+01 3.164600000000000080e+01 4.618999999999999773e+01 6.585960000000000036e+00 -1.005643379395923824e-03
2.232199999999999918e+01 3.373799999999999955e+01 6.628199999999999648e+01 7.645118000000000080e+00 6.876334158714436651e-02
2.235800000000000054e+01 3.982500000000000284e+01 5.534700000000000131e+01 8.154215999999999909e+00 -5.651633101302774159e-02
2.235800000000000054e+01 4.003399999999999892e+01 5.608299999999999841e+01 1.342666000000000004e+01 -5.468776787766817943e-02
2.235999999999999943e+01 2.733200000000000074e+01 7.590399999999999636e+01 1.227803999999999895e+00 -3.499999999999999778e-01
2.236199999999999832e+01 2.410900000000000176e+01 5.100000000000000000e+01 9.447020999999999447e+00 -1.015272216402696159e-01
2.237699999999999889e+01 3.451500000000000057e+01 7.346999999999999886e+01 5.060538000000000203e+00 -3.500000000000000333e-01
2.237699999999999889e+01 3.472399999999999665e+01 7.420600000000000307e+01 2.072773999999999894e+00 -3.499999999999999778e-01
2.239000000000000057e+01 3.541299999999999670e+01 7.568999999999999773e+01 -1.009417999999999971e+01 -3.500000000000000333e-01
2.239000000000000057e+01 3.541299999999999670e+01 7.662999999999999545e+01 -2.888128000000000029e+01 -3.499999999999999778e-01
2.239199999999999946e+01 3.800999999999999801e+01 4.625000000000000000e+01 1.427688999999999986e+01 4.538822195882323898e-03
2.239699999999999847e+01 2.835600000000000165e+01 7.673099999999999454e+01 -6.593659999999999854e+00 -3.499999999999999778e-01
2.240200000000000102e+01 2.187399999999999878e+01 7.253799999999999670e+01 4.104865000000000208e+00 -2.683143942333675036e-01
2.241000000000000014e+01 4.023599999999999710e+01 5.889900000000000091e+01 -2.077533000000000030e+01 -4.876478063931204837e-02
2.241000000000000014e+01 1.873100000000000165e+01 5.754399999999999693e+01 1.928123999999999949e+00 -8.310561497912180573e-02
2.241600000000000037e+01 2.377499999999999858e+01 4.825000000000000000e+01 7.719770999999999717e+00 -1.015093730575261227e-01
2.241600000000000037e+01 2.410300000000000153e+01 4.750500000000000256e+01 5.111806999999999768e+00 -1.033426423089638391e-01
2.241600000000000037e+01 2.542200000000000060e+01 4.677000000000000313e+01 1.355067000000000021e+01 -1.096024041625037748e-01
2.241600000000000037e+01 2.679299999999999926e+01 4.740599999999999881e+01 3.187925999999999860e+01 -1.085208138380341358e-01
2.241600000000000037e+01 2.030000000000000071e+01 6.963599999999999568e+01 3.095094999999999885e+01 -2.806004468954721442e-01
2.241799999999999926e+01 4.004200000000000159e+01 5.459799999999999898e+01 4.981279999999999930e+00 -5.888499164938454378e-02
2.243599999999999994e+01 2.526399999999999935e+01 7.406699999999999307e+01 -1.867840999999999951e+01 -3.500000000000000333e-01
2.243599999999999994e+01 2.645499999999999829e+01 7.473099999999999454e+01 -2.225582000000000171e+00 -3.500000000000000333e-01
2.246600000000000108e+01 2.389399999999999835e+01 7.335699999999999932e+01 -3.647609999999999797e+00 -2.668110052096693274e-01
2.247100000000000009e+01 1.771499999999999986e+01 5.763000000000000256e+01 3.669595999999999858e+00 -8.333790993052259122e-02
2.247299999999999898e+01 2.150499999999999901e+01 7.168800000000000239e+01 2.297721000000000124e+00 -2.716833127189720032e-01
2.249200000000000088e+01 3.001599999999999824e+01 7.974399999999999977e+01 3.655994000000000188e+00 -3.499999999999999778e-01
2.250400000000000134e+01 3.457800000000000296e+01 4.681099999999999994e+01 5.538488000000000300e-01 -5.652878180916116359e-03
2.250600000000000023e+01 3.877100000000000080e+01 4.608500000000000085e+01 6.393169999999999575e+00 6.047714546222625331e-03
2.251000000000000156e+01 2.178999999999999915e+01 7.088200000000000500e+01 8.937618000000000507e-01 -2.748371158036222450e-01
2.253099999999999881e+01 2.283200000000000074e+01 7.261799999999999500e+01 4.237932999999999950e+00 -2.683774550423117522e-01
2.253300000000000125e+01 2.927599999999999980e+01 4.705100000000000193e+01 5.981268000000000029e+00 7.506139576818869792e-03
2.253699999999999903e+01 1.745299999999999940e+01 5.686200000000000188e+01 4.757125999999999855e-01 -8.436947208878872728e-02
2.254799999999999827e+01 3.587500000000000000e+01 4.608100000000000307e+01 2.026000999999999941e+00 2.467442333247607273e-03
2.256899999999999906e+01 2.148699999999999832e+01 7.018200000000000216e+01 1.796758999999999995e+00 -2.778214303152381492e-01
2.257100000000000151e+01 4.075000000000000000e+01 5.180199999999999960e+01 3.405658999999999992e+00 6.206529405386151943e-02
2.257100000000000151e+01 2.394999999999999929e+01 5.380100000000000193e+01 8.399107999999999574e-01 4.594643505768512132e-02
2.257199999999999918e+01 3.476800000000000068e+01 7.236499999999999488e+01 -1.669271000000000171e+01 -4.249671476667953030e-02
2.257799999999999940e+01 1.805699999999999861e+01 6.595000000000000284e+01 9.653679999999999595e+00 -1.988626909557411060e-01
2.257799999999999940e+01 1.805699999999999861e+01 6.681600000000000250e+01 8.321467999999999421e+00 -8.077301126646871388e-02
2.257799999999999940e+01 1.805699999999999861e+01 6.786599999999999966e+01 8.015240000000000364e+00 -2.872355177139936377e-01
2.257999999999999829e+01 4.070100000000000051e+01 5.079699999999999704e+01 8.634358000000000644e+00 5.965921113761990524e-02
2.258299999999999841e+01 3.765400000000000347e+01 5.999199999999999733e+01 -1.366679000000000066e+01 1.518192851997300641e-01
2.259700000000000131e+01 3.339500000000000313e+01 6.481499999999999773e+01 1.437402999999999942e+01 7.001784414865276640e-02
2.259700000000000131e+01 3.360399999999999920e+01 6.407899999999999352e+01 1.892925999999999931e+01 7.143171137891210498e-02
2.259700000000000131e+01 3.360399999999999920e+01 6.555100000000000193e+01 7.250142999999999560e+00 6.959559099882270394e-02
2.259900000000000020e+01 4.149199999999999733e+01 4.646900000000000119e+01 6.129731999999999736e+00 4.990046238403356670e-03
2.260300000000000153e+01 2.804799999999999827e+01 4.779099999999999682e+01 1.182507000000000019e+01 -1.056875823761535688e-01
2.260800000000000054e+01 2.508200000000000074e+01 5.217799999999999727e+01 1.225990999999999964e+01 6.995495165020174100e-02
2.260800000000000054e+01 2.508200000000000074e+01 5.304299999999999926e+01 3.204708000000000112e+00 5.696895220459419207e-02
2.261599999999999966e+01 3.445400000000000063e+01 6.991400000000000148e+01 1.408204000000000011e+00 4.880980483615436627e-02
2.261599999999999966e+01 3.466299999999999670e+01 7.065000000000000568e+01 -1.373385999999999996e+01 -4.532053577737714389e-02
2.261599999999999966e+01 3.489000000000000057e+01 7.144899999999999807e+01 -4.462324000000000268e+01 -4.414040752919778932e-02
2.261899999999999977e+01 3.368099999999999739e+01 4.708800000000000097e+01 4.184661000000000186e+00 -2.725147485506968642e-02
2.262399999999999878e+01 3.719500000000000028e+01 4.619299999999999784e+01 2.556249999999999911e+00 2.156003644545310440e-03
2.263400000000000034e+01 2.356800000000000139e+01 4.904699999999999704e+01 4.171785999999999994e+00 -1.002661423509840360e-01
2.263400000000000034e+01 4.024000000000000199e+01 4.953499999999999659e+01 4.165597999999999956e+01 -1.223875778075445009e-02
2.263400000000000034e+01 4.044899999999999807e+01 4.879899999999999949e+01 2.458246000000000109e+01 -9.192063476125517801e-03
2.263400000000000034e+01 4.044899999999999807e+01 5.027100000000000080e+01 3.285251000000000232e+01 5.822309219150492016e-02
2.266100000000000136e+01 2.114499999999999957e+01 5.806000000000000227e+01 -5.701027999999999984e+00 6.044510984525387765e-02
2.266199999999999903e+01 3.353900000000000148e+01 7.882299999999999329e+01 2.262404000000000082e+01 -3.500000000000000333e-01
2.267099999999999937e+01 1.780000000000000071e+01 6.026100000000000279e+01 2.342378000000000071e+00 -1.888445224131890532e-01
2.267399999999999949e+01 1.829299999999999926e+01 5.682300000000000040e+01 5.024354999999999905e+00 -8.379753657081931428e-02
2.267500000000000071e+01 4.059700000000000131e+01 5.269200000000000017e+01 2.058720999999999890e+01 -6.535091566812670227e-02
2.267599999999999838e+01 3.375999999999999801e+01 7.820099999999999341e+01 3.120372000000000057e+01 -3.499999999999999778e-01
2.267999999999999972e+01 3.494299999999999784e+01 7.739000000000000057e+01 -2.123265999999999920e+01 -3.499999999999999778e-01
2.268100000000000094e+01 3.504200000000000159e+01 7.487000000000000455e+01 3.317869999999999986e-01 -3.499999999999999778e-01
2.269000000000000128e+01 3.868099999999999739e+01 5.912700000000000244e+01 -1.011997999999999998e+01 1.496994655228023052e-01
2.269000000000000128e+01 4.055199999999999960e+01 5.377199999999999847e+01 3.209951999999999828e+01 -6.172516907270141073e-02
2.269800000000000040e+01 4.009000000000000341e+01 4.558100000000000307e+01 4.948425000000000296e+00 1.033663920315526681e-02
2.269999999999999929e+01 4.070600000000000307e+01 5.719899999999999807e+01 -6.289610999999999841e+00 -5.236870100591588251e-02
2.269999999999999929e+01 4.070600000000000307e+01 5.813900000000000290e+01 -2.606985999999999848e+01 -5.039889532312243764e-02
2.272899999999999920e+01 1.778999999999999915e+01 6.156099999999999994e+01 4.073777999999999899e+00 -1.846951340883724313e-01
2.273199999999999932e+01 1.764699999999999847e+01 6.429200000000000159e+01 1.644605999999999923e+01 -1.975298517204931714e-01
2.273199999999999932e+01 1.764699999999999847e+01 6.534199999999999875e+01 2.327027999999999963e+01 -1.990779914274994622e-01
2.273900000000000077e+01 3.947599999999999909e+01 5.896200000000000330e+01 -2.466996999999999929e+01 1.484473103961437834e-01
2.274099999999999966e+01 2.241400000000000148e+01 5.409100000000000108e+01 3.163863000000000092e+00 4.521913745728600026e-02
2.274200000000000088e+01 4.146500000000000341e+01 4.755199999999999960e+01 1.327971999999999930e+01 -2.075487145077034145e-03
2.274500000000000099e+01 3.085099999999999909e+01 4.622599999999999909e+01 1.020293000000000028e+01 3.163723438145805891e-03
2.274699999999999989e+01 3.476100000000000279e+01 6.340999999999999659e+01 1.060003000000000029e+01 7.505903548730491481e-02
2.275700000000000145e+01 1.792999999999999972e+01 6.338199999999999790e+01 6.509844000000000186e+00 -1.790942701378897550e-01
2.276300000000000168e+01 3.592399999999999949e+01 6.244700000000000273e+01 1.888524999999999920e+01 7.860712383909626566e-02
2.276399999999999935e+01 1.665399999999999991e+01 5.686200000000000188e+01 1.983578999999999981e+00 -8.474904931607066261e-02
2.276899999999999835e+01 2.692999999999999972e+01 7.568699999999999761e+01 1.229603000000000002e+00 -3.499999999999999778e-01
2.278699999999999903e+01 1.791799999999999926e+01 6.249799999999999756e+01 4.773492000000000068e+00 -1.817763063161362547e-01
2.279599999999999937e+01 3.448299999999999699e+01 6.925300000000000011e+01 -3.645819000000000187e+01 5.098288454265732794e-02
2.281299999999999883e+01 3.673799999999999955e+01 6.085699999999999932e+01 -1.515121000000000073e+01 -9.672528334424675134e-03
2.281700000000000017e+01 2.949099999999999966e+01 7.889400000000000546e+01 3.106727999999999934e+00 -3.499999999999999778e-01
2.282700000000000173e+01 1.698300000000000054e+01 5.610199999999999676e+01 2.706767000000000145e+00 -8.537273421099324244e-02
2.282700000000000173e+01 1.698300000000000054e+01 5.762199999999999989e+01 1.213316999999999979e+00 -8.331091711930416199e-02
2.282700000000000173e+01 1.792299999999999827e+01 5.610199999999999676e+01 5.523359000000000130e+00 -8.462530878121195255e-02
2.282900000000000063e+01 2.776599999999999824e+01 7.639400000000000546e+01 -8.787614999999999732e-01 -3.499999999999999778e-01
2.282900000000000063e+01 2.884700000000000131e+01 7.712699999999999534e+01 -1.019795000000000051e+01 -3.499999999999999778e-01
2.282999999999999829e+01 2.230799999999999983e+01 7.174500000000000455e+01 1.843444000000000083e+00 -2.712591646514226906e-01
2.283500000000000085e+01 2.462500000000000000e+01 5.143699999999999761e+01 1.415740000000000087e+01 8.147686431695665144e-02
2.283599999999999852e+01 1.929599999999999937e+01 5.793699999999999761e+01 -3.727012999999999909e+00 -8.226596044813999642e-02
2.284900000000000020e+01 1.960000000000000142e+01 6.936799999999999500e+01 1.553468999999999944e+01 -2.835315027120605125e-01
2.285000000000000142e+01 3.808700000000000330e+01 5.929200000000000159e+01 -3.974663000000000057e+00 1.509932694829725641e-01
2.285500000000000043e+01 2.148799999999999955e+01 5.547099999999999653e+01 9.451368000000000436e+00 3.524496013794014421e-02
2.285699999999999932e+01 3.676200000000000045e+01 5.498299999999999699e+01 2.506291999999999831e+01 1.443456769382872318e-01
2.286100000000000065e+01 3.841899999999999693e+01 5.604999999999999716e+01 8.285939000000000476e+01 -5.256168194439372193e-02
2.286499999999999844e+01 3.667199999999999704e+01 4.603399999999999892e+01 2.233486999999999778e+00 8.356551323950306290e-04
2.286899999999999977e+01 2.596399999999999864e+01 7.433400000000000318e+01 -1.750942999999999827e+01 -3.499999999999999778e-01
2.287500000000000000e+01 2.464999999999999858e+01 5.374300000000000210e+01 -3.246014000000000177e+00 4.327449130113591308e-02
2.287699999999999889e+01 3.511500000000000199e+01 4.614399999999999835e+01 2.380291999999999852e+00 -2.561414032623415826e-03
2.287999999999999901e+01 1.755799999999999983e+01 5.919800000000000040e+01 1.317536999999999958e+00 -1.934869736878258584e-01
2.288700000000000045e+01 3.221699999999999875e+01 4.659499999999999886e+01 7.586341000000000001e+00 -1.194976235624879354e-02
2.289499999999999957e+01 2.464699999999999847e+01 4.706600000000000250e+01 5.573509999999999742e+00 -1.052524258976346994e-01
2.289499999999999957e+01 2.619699999999999918e+01 4.706600000000000250e+01 1.241661000000000037e+01 -1.422014970001107548e-01
2.289699999999999847e+01 2.936199999999999832e+01 7.793600000000000705e+01 -3.859884999999999788e+00 -3.500000000000000333e-01
2.289999999999999858e+01 2.448400000000000176e+01 7.369400000000000261e+01 -8.247787000000000646e+00 -3.499999999999999778e-01
2.290299999999999869e+01 1.858200000000000074e+01 6.871599999999999397e+01 7.668763000000000218e+00 -2.867595594678227777e-01
2.290299999999999869e+01 3.075100000000000122e+01 8.018500000000000227e+01 7.964337000000000444e+00 -3.499999999999999778e-01
2.290599999999999881e+01 2.734799999999999898e+01 4.773299999999999699e+01 3.854511999999999716e+01 -1.064401958533520293e-01
2.290599999999999881e+01 2.874800000000000111e+01 4.773299999999999699e+01 1.207076999999999956e+01 8.859286456107272681e-03
2.292899999999999849e+01 2.157799999999999940e+01 5.649399999999999977e+01 4.501165000000000305e+00 6.195566167971598703e-02
2.292899999999999849e+01 2.157799999999999940e+01 5.735999999999999943e+01 -3.009239000000000219e-01 4.776587420426071928e-02
2.292899999999999849e+01 3.310699999999999932e+01 7.952299999999999613e+01 7.648935999999999957e+00 -3.500000000000000333e-01
2.293499999999999872e+01 3.131200000000000117e+01 8.049500000000000455e+01 -1.387398999999999916e+01 -3.499999999999999778e-01
2.294300000000000139e+01 4.093599999999999994e+01 4.556900000000000261e+01 7.195825000000000138e+00 9.306475566665835600e-03
2.295599999999999952e+01 3.958500000000000085e+01 5.522699999999999676e+01 1.114226999999999990e+01 -5.633417911033940240e-02
2.296399999999999864e+01 2.353200000000000003e+01 7.288500000000000512e+01 2.668994000000000089e+00 -2.676485598494842133e-01
2.298699999999999832e+01 2.728500000000000014e+01 7.604399999999999693e+01 6.490907999999999678e-01 -3.500000000000000333e-01
2.298799999999999955e+01 4.186299999999999955e+01 4.709799999999999898e+01 1.235186000000000028e+01 -3.180533741681729524e-04
2.298999999999999844e+01 3.953099999999999881e+01 5.611299999999999955e+01 1.690840000000000032e+01 -5.365252617685286468e-02
2.299299999999999855e+01 4.212899999999999778e+01 4.592399999999999949e+01 8.393774999999999764e+00 7.037683407628711474e-03
2.299500000000000099e+01 3.225099999999999767e+01 8.039600000000000080e+01 -1.602520000000000167e+01 -3.499999999999999778e-01
2.300100000000000122e+01 2.218700000000000117e+01 7.045000000000000284e+01 -1.220164999999999944e+00 -2.761931029313965391e-01
2.301399999999999935e+01 2.094300000000000139e+01 6.965000000000000568e+01 1.356070000000000064e+01 -2.808079738416277560e-01
2.302199999999999847e+01 2.178099999999999881e+01 5.485699999999999932e+01 3.830531999999999826e+00 3.791801566923468092e-02
2.302400000000000091e+01 3.794100000000000250e+01 5.766899999999999693e+01 2.814171999999999940e+01 1.493045178596776601e-01
2.303000000000000114e+01 3.409499999999999886e+01 6.368299999999999983e+01 1.595298000000000016e+01 7.376702149048289248e-02
2.304100000000000037e+01 1.734400000000000119e+01 5.843900000000000006e+01 1.048371999999999993e+01 -8.172580687662879539e-02
2.304100000000000037e+01 3.575999999999999801e+01 7.717600000000000193e+01 -4.678175999999999668e+00 -3.499999999999999778e-01
2.305199999999999960e+01 2.022100000000000009e+01 5.805700000000000216e+01 -5.726166000000000089e+00 6.969389513141917292e-02
2.305799999999999983e+01 2.987199999999999989e+01 4.657000000000000028e+01 5.976943999999999591e+00 8.128080896407935060e-03
2.305900000000000105e+01 3.820900000000000318e+01 5.690999999999999659e+01 4.981143999999999750e+01 1.475215913585877225e-01
2.305999999999999872e+01 3.599199999999999733e+01 5.487199999999999989e+01 2.998726999999999876e+01 1.454297835548396256e-01
2.306299999999999883e+01 2.326399999999999935e+01 5.388400000000000034e+01 -6.530491000000000490e-01 4.300259757970593261e-02
2.306700000000000017e+01 3.924000000000000199e+01 4.565200000000000102e+01 5.082183999999999813e+00 6.576819494713645291e-03
2.306700000000000017e+01 4.093999999999999773e+01 4.840200000000000102e+01 2.131389000000000067e+01 -9.029434795976796005e-03
2.307199999999999918e+01 3.753199999999999648e+01 5.509400000000000119e+01 4.919527999999999679e+01 -5.404735084069543088e-02
2.308099999999999952e+01 3.630499999999999972e+01 6.155700000000000216e+01 2.486828000000000038e+00 6.419210110167918037e-02
2.308200000000000074e+01 3.582699999999999818e+01 7.611799999999999500e+01 -1.023048999999999964e+01 -3.499999999999999778e-01
2.308299999999999841e+01 3.448199999999999932e+01 7.327800000000000580e+01 -3.408800999999999970e+00 -3.499999999999999778e-01
2.308299999999999841e+01 3.469100000000000250e+01 7.401399999999999579e+01 4.414558000000000426e+00 -3.499999999999999778e-01
2.308500000000000085e+01 1.911499999999999844e+01 6.903799999999999670e+01 1.410443000000000069e+01 -2.859330028324630346e-01
2.309400000000000119e+01 3.791400000000000148e+01 4.627600000000000335e+01 8.342019000000000517e+00 -2.038465200564768074e-03
2.310200000000000031e+01 3.555100000000000193e+01 7.529600000000000648e+01 -7.097226000000000035e+00 -3.499999999999999778e-01
2.310300000000000153e+01 1.886400000000000077e+01 5.723700000000000188e+01 1.570772999999999975e+00 -8.280753580401180314e-02
2.310699999999999932e+01 3.746699999999999875e+01 5.594100000000000250e+01 5.787926000000000215e+01 1.465042036443432449e-01
2.310800000000000054e+01 3.425099999999999767e+01 7.780400000000000205e+01 -1.497208000000000006e+01 -3.499999999999999778e-01
2.311499999999999844e+01 3.546900000000000119e+01 6.325200000000000244e+01 1.460440000000000005e+01 7.722483363113523402e-02
2.311799999999999855e+01 3.629599999999999937e+01 5.417199999999999704e+01 2.057150999999999996e+01 1.425452647643950799e-01
2.311799999999999855e+01 3.716100000000000136e+01 5.417199999999999704e+01 2.238936999999999955e+01 -5.682795705634452466e-02
2.311899999999999977e+01 3.612400000000000233e+01 7.679300000000000637e+01 -1.118290000000000006e+01 -3.499999999999999778e-01
2.311899999999999977e+01 3.392499999999999716e+01 6.592700000000000671e+01 -2.068659999999999943e+00 7.040954067061844235e-02
