-1.960800000000000054e+01 1.288600000000000136e+02 4.217000000000000171e+01 -1.908379000000000048e+01 -4.097016674475215114e-01
-1.960300000000000153e+01 1.409600000000000080e+02 5.733200000000000074e+01 -3.092864000000000058e+00 8.990544144854231701e-02
-1.960200000000000031e+01 1.296699999999999875e+02 4.806900000000000261e+01 -2.266156000000000148e+01 -3.761042353754094902e-01
-1.959900000000000020e+01 1.479699999999999989e+02 6.257600000000000051e+01 -6.012857000000000340e+00 8.717786912020250578e-02
-1.959900000000000020e+01 1.340800000000000125e+02 3.003399999999999892e+01 -9.216240000000000876e+00 -1.632691006541535650e-01
-1.959900000000000020e+01 1.444799999999999898e+02 5.405700000000000216e+01 -3.049875000000000114e+00 8.529364543177038460e-02
-1.959700000000000131e+01 1.673100000000000023e+02 5.178999999999999915e+01 -5.776464999999999961e+00 2.148834011822520762e-01
-1.959499999999999886e+01 1.427100000000000080e+02 5.591400000000000148e+01 -2.133879999999999999e+00 8.712865702643327048e-02
-1.959499999999999886e+01 1.659000000000000057e+02 6.828300000000000125e+01 -2.416154999999999831e+01 9.468162233704194297e-02
-1.959299999999999997e+01 1.637100000000000080e+02 5.918699999999999761e+01 3.014347000000000065e+01 2.126749107595839183e-01
-1.959299999999999997e+01 1.405900000000000034e+02 5.645100000000000051e+01 -1.987754999999999939e+00 9.040130686925867964e-02
-1.959100000000000108e+01 1.665200000000000102e+02 3.868900000000000006e+01 3.327033999999999825e+00 -6.850916966945821973e-02
-1.959100000000000108e+01 1.667299999999999898e+02 3.942499999999999716e+01 1.060877999999999988e+00 -6.843419935319619563e-02
-1.958899999999999864e+01 1.685000000000000000e+02 5.631799999999999784e+01 -1.551536999999999944e+00 2.128660023719488037e-01
-1.958800000000000097e+01 1.273599999999999994e+02 4.260199999999999676e+01 -1.619687000000000054e+01 -4.089994336523342655e-01
-1.958699999999999974e+01 1.418600000000000136e+02 5.256000000000000227e+01 -4.735161999999999871e+00 8.840025481947579034e-02
-1.958399999999999963e+01 1.290099999999999909e+02 4.679899999999999949e+01 -1.626166999999999874e+01 -4.105379377737502500e-01
-1.958099999999999952e+01 1.313799999999999955e+02 5.207800000000000296e+01 -1.088288000000000011e+01 -1.547412861730920464e-01
-1.957999999999999829e+01 1.328199999999999932e+02 5.531400000000000006e+01 -5.124864000000000086e-01 1.155109283035531675e-01
-1.957900000000000063e+01 1.646599999999999966e+02 6.318399999999999750e+01 3.403032000000000057e+00 2.141478970571491780e-01
-1.957799999999999940e+01 1.390900000000000034e+02 5.297099999999999653e+01 4.619829000000000185e+00 9.352466206708598406e-02
-1.957600000000000051e+01 1.623400000000000034e+02 7.078000000000000114e+01 -9.820498000000000616e+00 9.831843111467998553e-02
-1.957300000000000040e+01 1.422599999999999909e+02 5.738300000000000267e+01 -7.560354000000000241e+00 8.787417570035599423e-02
-1.957000000000000028e+01 1.360900000000000034e+02 3.817799999999999727e+01 -1.059368000000000087e+01 -2.686923920954333855e-01
-1.956899999999999906e+01 1.434600000000000080e+02 6.766500000000000625e+01 -1.236012000000000022e+01 1.076449285671244871e-01
-1.956899999999999906e+01 1.449900000000000091e+02 6.920000000000000284e+01 -5.573334000000000010e+00 1.094193270739766549e-01
-1.955999999999999872e+01 1.414300000000000068e+02 5.359599999999999653e+01 -1.015749000000000013e+00 8.884931599959261517e-02
-1.955900000000000105e+01 1.321100000000000136e+02 4.132500000000000284e+01 -2.503667999999999783e+00 -4.109831973392411575e-01
-1.955300000000000082e+01 1.315600000000000023e+02 5.044700000000000273e+01 -1.010502999999999929e+01 -1.506813825845868260e-01
-1.955300000000000082e+01 1.437100000000000080e+02 6.389000000000000057e+01 -5.313283000000000200e+00 9.444352324954523314e-02
-1.954899999999999949e+01 1.390900000000000034e+02 3.555100000000000193e+01 -1.441126000000000040e+01 -1.584273447716531003e-01
-1.954400000000000048e+01 1.396599999999999966e+02 3.040500000000000114e+01 -8.594015999999999877e+00 -1.663202318626341714e-01
-1.953900000000000148e+01 1.674600000000000080e+02 6.835099999999999909e+01 -1.785053999999999874e+01 2.159715863232453403e-01
-1.953200000000000003e+01 1.661399999999999864e+02 6.330700000000000216e+01 2.852056999999999931e+01 2.143613728689335862e-01
-1.953200000000000003e+01 1.676899999999999977e+02 6.374799999999999756e+01 -4.549801999999999680e+00 2.146603044217437195e-01
-1.952899999999999991e+01 1.292700000000000102e+02 5.755299999999999727e+01 -9.237565999999999278e+00 -1.605807847686642198e-01
-1.952299999999999969e+01 1.316899999999999977e+02 5.137800000000000011e+01 -8.931668000000000163e+00 -1.537535740501349557e-01
-1.951999999999999957e+01 1.390800000000000125e+02 5.197899999999999920e+01 2.274243999999999843e+01 9.355593485820654087e-02
-1.951899999999999835e+01 1.619000000000000057e+02 5.920700000000000074e+01 -1.443942000000000014e+01 2.123217981343888394e-01
-1.951599999999999824e+01 1.422299999999999898e+02 5.171000000000000085e+01 -4.414257000000000097e+00 8.789612173948563312e-02
-1.951599999999999824e+01 1.608300000000000125e+02 3.192000000000000171e+01 -2.180108999999999853e+00 -1.073544399851506653e-01
-1.951599999999999824e+01 1.469399999999999977e+02 3.008899999999999864e+01 -7.506381000000000192e+00 9.053700930367446220e-02
-1.950900000000000034e+01 1.608300000000000125e+02 7.140800000000000125e+01 -2.648586999999999847e+01 9.963979303113515429e-02
-1.950799999999999912e+01 1.580000000000000000e+02 3.267600000000000193e+01 4.944753999999999650e+00 -1.082523372148643526e-01
-1.950799999999999912e+01 1.594000000000000057e+02 3.267600000000000193e+01 -1.706231000000000053e+00 -1.071867290814475099e-01
-1.950600000000000023e+01 1.495600000000000023e+02 2.946000000000000085e+01 -1.013719999999999999e+01 8.864336176497367159e-02
-1.950600000000000023e+01 1.437899999999999920e+02 6.842499999999999716e+01 -2.238487999999999900e+01 1.093441031631248173e-01
-1.950400000000000134e+01 1.708600000000000136e+02 4.888199999999999790e+01 2.193597000000000108e+01 2.176611705690649767e-01
-1.950100000000000122e+01 1.538300000000000125e+02 2.931500000000000128e+01 3.572932000000000219e+00 -1.934212415853533290e-02
-1.949500000000000099e+01 1.411699999999999875e+02 5.592199999999999704e+01 2.682311999999999941e+01 8.910294450550462764e-02
-1.949399999999999977e+01 1.664499999999999886e+02 3.498299999999999699e+01 2.467013000000000034e+01 -1.736400138022654305e-01
-1.949299999999999855e+01 1.429799999999999898e+02 3.717399999999999949e+01 1.268970999999999982e+01 -1.602572523017683215e-01
-1.948999999999999844e+01 1.401599999999999966e+02 2.981200000000000117e+01 -8.390850000000000364e+00 -1.675238128805686677e-01
-1.948999999999999844e+01 1.404799999999999898e+02 2.907499999999999929e+01 -7.910605999999999582e+00 -1.688461446240475117e-01
-1.948999999999999844e+01 1.417800000000000011e+02 2.835399999999999920e+01 -1.164971000000000068e+01 -1.700813453177980050e-01
-1.948900000000000077e+01 1.445999999999999943e+02 6.289000000000000057e+01 -4.657435000000000436e+00 8.991120541010311218e-02
-1.948600000000000065e+01 1.446100000000000136e+02 2.980000000000000071e+01 1.051398999999999972e+01 -1.683474777026673919e-01
-1.948300000000000054e+01 1.523000000000000114e+02 2.940099999999999980e+01 -2.050994999999999990e+01 -1.995199281188873158e-02
-1.948300000000000054e+01 1.607700000000000102e+02 5.996600000000000108e+01 -1.738310000000000022e+00 2.123762809142779595e-01
-1.948000000000000043e+01 1.424099999999999966e+02 3.866299999999999670e+01 8.694342999999999932e+00 -2.718262101856914748e-01
-1.947700000000000031e+01 1.676899999999999977e+02 5.631799999999999784e+01 1.406517999999999979e+01 2.126303988103959153e-01
-1.947400000000000020e+01 1.649600000000000080e+02 6.861499999999999488e+01 -2.066304999999999836e+01 9.514605303029242955e-02
-1.947200000000000131e+01 1.621999999999999886e+02 3.284100000000000108e+01 -9.285368000000000510e-01 -1.731087286898388977e-01
-1.947200000000000131e+01 1.621999999999999886e+02 3.389099999999999824e+01 1.559387999999999996e+00 -1.730137157192951913e-01
-1.946300000000000097e+01 1.385200000000000102e+02 5.040500000000000114e+01 -7.442989999999999995e+00 9.507932887528991461e-02
-1.946300000000000097e+01 1.387199999999999989e+02 5.114099999999999824e+01 -3.726072999999999968e+00 9.443841346682912974e-02
-1.946099999999999852e+01 1.461599999999999966e+02 6.289500000000000313e+01 -5.977907000000000082e+00 8.886029928482228057e-02
-1.946099999999999852e+01 1.475600000000000023e+02 6.289500000000000313e+01 -6.592937000000000047e+00 8.817629114706627969e-02
-1.946099999999999852e+01 1.455600000000000023e+02 7.111799999999999500e+01 -3.152976999999999919e+00 -5.219035850676564253e-02
-1.946000000000000085e+01 1.390399999999999920e+02 4.906000000000000227e+01 -1.681385999999999825e+01 9.420158898931527136e-02
-1.945400000000000063e+01 1.651899999999999977e+02 3.582300000000000040e+01 6.568438999999999695e+00 -1.733884737747512506e-01
-1.945400000000000063e+01 1.651899999999999977e+02 3.678099999999999881e+01 4.754979999999999762e+00 -1.733108764050366735e-01
-1.945400000000000063e+01 1.651899999999999977e+02 3.764600000000000080e+01 1.861601999999999979e+00 -6.849367782132602389e-02
-1.945400000000000063e+01 1.676999999999999886e+02 3.582300000000000040e+01 7.872612000000000165e+00 -1.737565812544519805e-01
-1.945400000000000063e+01 1.676999999999999886e+02 3.678099999999999881e+01 -2.937047999999999881e+00 -1.736851724463483460e-01
-1.945100000000000051e+01 1.477100000000000080e+02 7.085599999999999454e+01 -1.120050999999999952e+01 1.092713298553192880e-01
-1.944699999999999918e+01 1.509499999999999886e+02 2.877400000000000091e+01 -1.964202999999999832e+01 -2.017244586487295863e-02
-1.944500000000000028e+01 1.347599999999999909e+02 3.775099999999999767e+01 -1.165853000000000073e+01 -2.680412001007165257e-01
-1.944399999999999906e+01 1.567400000000000091e+02 2.979400000000000048e+01 1.831899999999999906e+01 -1.238417201860123190e-01
-1.944099999999999895e+01 1.463100000000000023e+02 7.136599999999999966e+01 -7.129197999999999702e+00 -5.235079502180388367e-02
-1.944000000000000128e+01 1.316899999999999977e+02 5.621300000000000097e+01 -4.456902000000000186e+01 1.205933352503582023e-01
-1.943700000000000117e+01 1.552700000000000102e+02 2.846399999999999864e+01 9.635468999999999840e-01 -1.231063878448269422e-01
-1.943700000000000117e+01 1.423400000000000034e+02 5.662199999999999989e+01 -6.547221999999999653e+00 8.731823762248878962e-02
-1.943700000000000117e+01 1.420800000000000125e+02 3.948299999999999699e+01 2.943366999999999845e+00 -2.707628789181908413e-01
-1.943499999999999872e+01 1.451999999999999886e+02 5.764699999999999847e+01 -3.678313999999999862e+00 8.471400286865946039e-02
-1.943400000000000105e+01 1.370200000000000102e+02 3.069099999999999895e+01 -1.943856999999999857e+01 -1.642213326288625430e-01
-1.943299999999999983e+01 1.703499999999999943e+02 4.058700000000000330e+01 -4.673479999999999634e+00 -6.873432265285822629e-02
-1.942999999999999972e+01 1.680399999999999920e+02 5.713100000000000023e+01 3.079447000000000045e+01 2.129013839863081736e-01
-1.942899999999999849e+01 1.459199999999999875e+02 5.780899999999999750e+01 2.138848000000000127e+01 8.428684739082506483e-02
-1.942899999999999849e+01 1.435800000000000125e+02 6.491899999999999693e+01 -9.925708999999999449e+00 9.828918170505507312e-02
-1.942800000000000082e+01 1.300000000000000000e+02 5.372699999999999676e+01 -2.789956000000000103e+01 -1.689681963028817901e-01
-1.942800000000000082e+01 1.280999999999999943e+02 5.731099999999999994e+01 -1.624465999999999966e+01 -1.535507693253183870e-01
-1.942599999999999838e+01 1.453499999999999943e+02 2.995200000000000173e+01 -1.979545000000000110e+00 -1.682604120799389702e-01
-1.942500000000000071e+01 1.609099999999999966e+02 3.681400000000000006e+01 -1.297719000000000023e+01 -1.724800132657081098e-01
-1.942399999999999949e+01 1.476399999999999864e+02 5.778099999999999881e+01 1.044038999999999930e+02 8.350015024910205363e-02
-1.941799999999999926e+01 1.280699999999999932e+02 5.416499999999999915e+01 -9.908849000000000018e+00 -1.556663880733829830e-01
-1.941600000000000037e+01 1.575300000000000011e+02 7.478000000000000114e+01 -3.639177000000000106e+01 1.057984554033100100e-01
-1.941300000000000026e+01 1.393799999999999955e+02 3.974399999999999977e+01 -8.700687999999999533e+00 -2.688978015679944211e-01
-1.941199999999999903e+01 1.328199999999999932e+02 4.065800000000000125e+01 -8.956405999999999423e+00 -3.757970382918430219e-01
-1.941199999999999903e+01 1.329499999999999886e+02 3.091799999999999926e+01 -1.048077999999999932e+01 -1.588239141163232948e-01
-1.941100000000000136e+01 1.631999999999999886e+02 3.904399999999999693e+01 -2.495122999999999980e+00 -6.798120834337387230e-02
-1.940899999999999892e+01 1.394900000000000091e+02 3.605199999999999960e+01 -1.551356000000000002e+01 -1.582740271294246770e-01
-1.940599999999999881e+01 1.585300000000000011e+02 7.475499999999999545e+01 -4.491038000000000352e+01 1.050747417260738670e-01
-1.940599999999999881e+01 1.679199999999999875e+02 4.016100000000000136e+01 -3.613391000000000020e+00 -6.850163679795132077e-02
-1.940299999999999869e+01 1.612700000000000102e+02 6.197500000000000142e+01 -5.688502999999999865e+00 2.132514606408609514e-01
-1.940200000000000102e+01 1.365900000000000034e+02 5.470600000000000307e+01 -8.444134000000000029e+00 1.001594583165197616e-01
-1.939699999999999847e+01 1.565200000000000102e+02 2.930399999999999849e+01 1.918346999999999980e+01 -1.234667208358324053e-01
-1.939099999999999824e+01 1.274800000000000040e+02 4.647099999999999653e+01 -2.318308999999999997e+01 -3.952794616486184909e-01
-1.938899999999999935e+01 1.377599999999999909e+02 3.946999999999999886e+01 -6.789487000000000272e+00 -2.680147212478643515e-01
-1.938800000000000168e+01 1.267500000000000000e+02 5.520199999999999818e+01 -1.046959000000000017e+01 -1.494360211602345223e-01
-1.938800000000000168e+01 1.267500000000000000e+02 5.625200000000000244e+01 -8.740444000000000102e+00 -1.544558867088674514e-01
-1.938700000000000045e+01 1.677299999999999898e+02 5.766499999999999915e+01 1.114187000000000083e+01 2.129815371012360736e-01
-1.938599999999999923e+01 1.419699999999999989e+02 5.591400000000000148e+01 9.228486000000000189e+00 8.761535525647742850e-02
-1.938400000000000034e+01 1.606800000000000068e+02 3.900399999999999778e+01 -2.621077999999999975e+01 -6.754531023807570922e-02
-1.938400000000000034e+01 1.618700000000000045e+02 3.966799999999999926e+01 -1.326295000000000002e+01 -6.765399400954624776e-02
-1.938200000000000145e+01 1.408199999999999932e+02 3.532000000000000028e+01 -2.396920000000000073e+01 -1.602355086599319134e-01
-1.938200000000000145e+01 1.422199999999999989e+02 3.532000000000000028e+01 -6.823288999999999938e+00 -1.613017931639380564e-01
-1.937900000000000134e+01 1.419399999999999977e+02 5.799000000000000199e+01 -7.947973000000000399e-01 8.800777618262806135e-02
-1.936899999999999977e+01 1.265600000000000023e+02 4.428099999999999881e+01 -1.982485000000000142e+01 -3.942582907967760453e-01
-1.936700000000000088e+01 1.408199999999999932e+02 4.017799999999999727e+01 -2.748219000000000189e+00 -2.552683081173240387e-01
-1.936599999999999966e+01 1.256099999999999994e+02 4.510000000000000142e+01 -1.452567999999999948e+01 -3.943984980782170302e-01
-1.935999999999999943e+01 1.591599999999999966e+02 7.339799999999999613e+01 -2.312721000000000160e+01 1.029951696866080457e-01
-1.935999999999999943e+01 1.593600000000000136e+02 7.266200000000000614e+01 -1.828076000000000079e+01 1.019382599935746148e-01
-1.935800000000000054e+01 1.693100000000000023e+02 5.631799999999999784e+01 2.658954000000000040e-01 2.132867778778715917e-01
-1.935500000000000043e+01 1.337899999999999920e+02 3.781900000000000261e+01 -1.489567000000000085e+01 -2.667483968919710513e-01
-1.935500000000000043e+01 1.490099999999999909e+02 5.846900000000000119e+01 -2.073560000000000070e+00 8.318419770275317648e-02
-1.935500000000000043e+01 1.492199999999999989e+02 5.920499999999999829e+01 -3.276038999999999923e+00 8.334397246461819342e-02
-1.935200000000000031e+01 1.356399999999999864e+02 2.983899999999999864e+01 -8.548678999999999917e+00 -1.652564522302406858e-01
-1.935000000000000142e+01 1.379600000000000080e+02 3.438499999999999801e+01 -4.390681000000000012e+01 -1.585512616461791091e-01
-1.934799999999999898e+01 1.489399999999999977e+02 6.013700000000000045e+01 -4.704881000000000313e+00 8.368760359628109324e-02
-1.934600000000000009e+01 1.633199999999999932e+02 7.020699999999999363e+01 1.102923000000000009e+01 9.731890062879462733e-02
-1.934499999999999886e+01 1.708899999999999864e+02 4.543399999999999750e+01 -8.568735000000000213e+00 2.195422566257182739e-01
-1.933399999999999963e+01 1.268299999999999983e+02 4.345199999999999818e+01 -1.539405000000000001e+01 -3.940425013584336056e-01
-1.933299999999999841e+01 1.518499999999999943e+02 6.965099999999999625e+01 -1.441450999999999993e+01 1.021771879278259021e-01
-1.933200000000000074e+01 1.437400000000000091e+02 5.797800000000000153e+01 -7.826071999999999917e+00 8.577675105595089500e-02
-1.933200000000000074e+01 1.484000000000000057e+02 6.187599999999999767e+01 -9.850827999999999918e+00 8.478211630425591672e-02
-1.932900000000000063e+01 1.674300000000000068e+02 5.836500000000000199e+01 8.022125000000000838e+00 2.131137754950850616e-01
-1.932700000000000173e+01 1.343300000000000125e+02 3.321999999999999886e+01 -3.073744999999999905e+01 -1.553004944992281422e-01
-1.932600000000000051e+01 1.303600000000000136e+02 4.880100000000000193e+01 -1.597175000000000011e+01 -3.763007643345062658e-01
-1.932300000000000040e+01 1.271599999999999966e+02 4.719500000000000028e+01 -2.811393999999999949e+01 -3.955486593295104436e-01
-1.932199999999999918e+01 1.259300000000000068e+02 4.800399999999999778e+01 -2.065024999999999977e+01 -3.958419769942741473e-01
-1.932199999999999918e+01 1.495800000000000125e+02 6.984099999999999397e+01 -1.508688000000000073e+01 1.047833265795370672e-01
-1.931899999999999906e+01 1.387599999999999909e+02 4.960699999999999932e+01 -1.270874000000000059e+01 9.439013127870717057e-02
-1.931700000000000017e+01 1.400999999999999943e+02 4.796500000000000341e+01 -3.216172000000000253e+01 9.213990355382994935e-02
-1.931700000000000017e+01 1.412899999999999920e+02 4.730100000000000193e+01 -9.089335999999999416e+00 1.057781103633768094e-01
-1.930799999999999983e+01 1.355399999999999920e+02 3.287599999999999767e+01 -5.963143000000000171e+01 -1.578877336840265322e-01
-1.930799999999999983e+01 1.367299999999999898e+02 3.353999999999999915e+01 -1.983865000000000123e+01 -1.583121372225221868e-01
-1.930499999999999972e+01 1.295600000000000023e+02 4.222800000000000153e+01 -9.924621000000000137e+00 -4.099783502207199892e-01
-1.929299999999999926e+01 1.671500000000000057e+02 5.554299999999999926e+01 9.846246999999999971e+00 2.127330335206487066e-01
-1.929299999999999926e+01 1.680200000000000102e+02 5.554299999999999926e+01 5.593290999999999791e+00 2.131389532022089084e-01
-1.929299999999999926e+01 1.689799999999999898e+02 5.554299999999999926e+01 1.154498000000000024e+00 2.135603144934409559e-01
-1.929299999999999926e+01 1.689799999999999898e+02 5.709300000000000352e+01 7.231183999999999834e+00 2.130635862838363703e-01
-1.928900000000000148e+01 1.379300000000000068e+02 3.066900000000000048e+01 -1.434445999999999977e+01 -1.649061055412421040e-01
-1.928900000000000148e+01 1.335300000000000011e+02 3.705100000000000193e+01 -1.176552000000000042e+01 -2.679081183373565600e-01
-1.928800000000000026e+01 1.630099999999999909e+02 7.090699999999999648e+01 -2.542418000000000108e-02 9.823763060279452897e-02
-1.928200000000000003e+01 1.430800000000000125e+02 6.584300000000000352e+01 -5.889312999999999576e+00 1.022877535165059026e-01
-1.927899999999999991e+01 1.431200000000000045e+02 6.657800000000000296e+01 -6.226185000000000080e+00 1.047698233386153560e-01
-1.927599999999999980e+01 1.603799999999999955e+02 7.156499999999999773e+01 -2.412003999999999948e+01 1.000124131544569972e-01
-1.926699999999999946e+01 1.366399999999999864e+02 2.994699999999999918e+01 -8.835532999999999859e+00 -1.656850949332427658e-01
-1.926699999999999946e+01 1.684000000000000057e+02 6.382099999999999795e+01 -6.746811000000000114e+00 2.147624364640758343e-01
-1.926500000000000057e+01 1.330399999999999920e+02 3.240100000000000335e+01 -3.325668000000000291e+01 -2.618776833991676156e-01
-1.925799999999999912e+01 1.660099999999999909e+02 5.921500000000000341e+01 7.145298999999999623e+00 2.131050062311509730e-01
-1.925799999999999912e+01 1.670600000000000023e+02 5.921500000000000341e+01 4.859103000000000172e+00 2.132847682502637399e-01
-1.925300000000000011e+01 1.544499999999999886e+02 7.020300000000000296e+01 -1.835050999999999988e+01 1.012021716736385690e-01
-1.924800000000000111e+01 1.406800000000000068e+02 5.341700000000000159e+01 -9.820474999999999621e-01 8.938277664945244727e-02
-1.924599999999999866e+01 1.626299999999999955e+02 6.224600000000000222e+01 2.164893000000000178e+00 2.135608729727482835e-01
-1.924099999999999966e+01 1.389600000000000080e+02 3.046300000000000097e+01 -8.289483000000000601e+00 -1.659028553528582584e-01
-1.924099999999999966e+01 1.575600000000000023e+02 3.197599999999999909e+01 6.041953999999999603e+00 -1.228526017079701188e-01
-1.923999999999999844e+01 1.621999999999999886e+02 7.124800000000000466e+01 -3.546300000000000008e+00 9.890561376169702823e-02
-1.923900000000000077e+01 1.376500000000000057e+02 5.660699999999999932e+01 -4.825522000000000311e+00 9.650587118676819121e-02
-1.923799999999999955e+01 1.614399999999999977e+02 3.611899999999999977e+01 -1.080657000000000068e+01 -1.726985647042608985e-01
-1.923300000000000054e+01 1.651200000000000045e+02 3.525000000000000000e+01 -8.808129000000000097e-01 -1.734670212815184465e-01
-1.923199999999999932e+01 1.688499999999999943e+02 5.079099999999999682e+01 -2.255330999999999975e+00 2.161407322469876546e-01
-1.923000000000000043e+01 1.638400000000000034e+02 6.286099999999999710e+01 1.816966999999999999e+00 2.139460840436488986e-01
-1.922899999999999920e+01 1.703700000000000045e+02 4.933100000000000307e+01 2.077629999999999910e+01 2.173949908703342315e-01
-1.922899999999999920e+01 1.402199999999999989e+02 5.963799999999999812e+01 2.203063000000000216e+00 9.098691014530689569e-02
-1.922800000000000153e+01 1.314499999999999886e+02 4.184300000000000352e+01 -8.052179000000000642e+00 -4.106159133219141610e-01
-1.922800000000000153e+01 1.415999999999999943e+02 5.662199999999999989e+01 -5.447161000000000364e-01 8.786087317989410561e-02
-1.922500000000000142e+01 1.420999999999999943e+02 4.733500000000000085e+01 -1.934186000000000050e+01 1.046382496273356583e-01
-1.922400000000000020e+01 1.246500000000000057e+02 4.625600000000000023e+01 -1.286571999999999960e+01 -3.948962232152442020e-01
-1.922400000000000020e+01 1.246500000000000057e+02 4.719599999999999795e+01 -1.265446999999999989e+01 -3.954427645028793514e-01
-1.921699999999999875e+01 1.378000000000000114e+02 5.760000000000000142e+01 -5.395506000000000135e+00 9.612464688483551845e-02
-1.921699999999999875e+01 1.497199999999999989e+02 2.871199999999999974e+01 -7.048239999999999839e+00 8.809137332653943497e-02
-1.921600000000000108e+01 1.283100000000000023e+02 4.663600000000000279e+01 -1.718786000000000058e+01 -4.103528730045355455e-01
-1.921600000000000108e+01 1.618700000000000045e+02 3.470199999999999818e+01 -5.200625999999999749e+00 -1.729251303844810683e-01
-1.921600000000000108e+01 1.611999999999999886e+02 5.926599999999999824e+01 -2.908307999999999893e+01 2.121927973006290657e-01
-1.921499999999999986e+01 1.283700000000000045e+02 4.159400000000000119e+01 -1.349410999999999916e+01 -4.096854210269348928e-01
-1.920899999999999963e+01 1.302400000000000091e+02 5.704999999999999716e+01 -1.279104000000000063e+01 1.273130524872497227e-01
-1.920799999999999841e+01 1.422400000000000091e+02 3.905499999999999972e+01 8.966414000000000328e+00 -2.711529846117000098e-01
-1.920700000000000074e+01 1.279599999999999937e+02 4.207300000000000040e+01 -1.550209000000000081e+01 -4.094227720153226224e-01
-1.920700000000000074e+01 1.645300000000000011e+02 6.931499999999999773e+01 -1.499835999999999991e+01 9.598493459464288446e-02
-1.920700000000000074e+01 1.668400000000000034e+02 5.268200000000000216e+01 -6.906657000000000490e-01 2.142866254447846619e-01
-1.920499999999999829e+01 1.615300000000000011e+02 7.134999999999999432e+01 -1.833014000000000010e+01 9.926901327053581914e-02
-1.920499999999999829e+01 1.708100000000000023e+02 4.476299999999999812e+01 -1.147864000000000040e+01 9.580008138109845708e-03
-1.920499999999999829e+01 1.710200000000000102e+02 4.402700000000000102e+01 -5.164065000000000083e+01 1.050537458854697639e-02
-1.920499999999999829e+01 1.719699999999999989e+02 4.147999999999999687e+01 -9.354399000000000797e+00 -6.881882013742507409e-02
-1.920499999999999829e+01 1.719699999999999989e+02 4.307800000000000296e+01 -2.399179000000000173e+01 1.181762229715966825e-02
-1.920499999999999829e+01 1.721999999999999886e+02 4.227900000000000347e+01 -4.932831999999999795e+01 -6.875469892232216607e-02
-1.920400000000000063e+01 1.586999999999999886e+02 3.273499999999999943e+01 -1.422922000000000020e+00 -1.072046492783979010e-01
-1.919900000000000162e+01 1.342899999999999920e+02 5.434300000000000352e+01 -1.955183999999999855e+01 1.086778936081117947e-01
-1.919900000000000162e+01 1.453400000000000034e+02 6.260999999999999943e+01 -4.107635000000000147e+00 8.814761424287241576e-02
-1.919399999999999906e+01 1.307700000000000102e+02 4.928699999999999903e+01 -1.725638999999999967e+01 -3.763998334069477147e-01
-1.919399999999999906e+01 1.478300000000000125e+02 3.024099999999999966e+01 -1.110519999999999996e+01 8.949472258061909324e-02
-1.918799999999999883e+01 1.654799999999999898e+02 3.451200000000000045e+01 6.815054000000000389e-01 -1.735926237772527081e-01
-1.918499999999999872e+01 1.415900000000000034e+02 5.871699999999999875e+01 1.482132000000000005e+00 8.827244404090031638e-02
-1.918199999999999861e+01 1.374199999999999875e+02 5.583500000000000085e+01 -8.105895000000000294e+00 9.702195984862495293e-02
-1.917999999999999972e+01 1.530000000000000000e+02 2.945899999999999963e+01 -2.286306000000000171e+00 -1.970251361836291432e-02
-1.917500000000000071e+01 1.355099999999999909e+02 3.764500000000000313e+01 -1.028496999999999950e+01 -2.686102148156999658e-01
-1.917099999999999937e+01 1.462299999999999898e+02 7.216200000000000614e+01 -6.783316000000000123e+00 -5.111755039480523483e-02
-1.917000000000000171e+01 1.426100000000000136e+02 5.080199999999999960e+01 -1.004404000000000075e+01 8.687949454483848144e-02
-1.916900000000000048e+01 1.442199999999999989e+02 6.901500000000000057e+01 -6.578953000000000273e+00 1.103642704299809124e-01
-1.916700000000000159e+01 1.343400000000000034e+02 3.702199999999999847e+01 -1.171881999999999913e+01 -2.686598761656788792e-01
-1.916499999999999915e+01 1.678100000000000023e+02 5.139300000000000068e+01 -1.882344000000000017e+00 2.154562171053822084e-01
-1.916300000000000026e+01 1.437100000000000080e+02 2.967200000000000060e+01 -2.646577999999999875e+01 -1.684342298446391273e-01
-1.916100000000000136e+01 1.557299999999999898e+02 7.348000000000000398e+01 -4.198888000000000176e+01 1.054350054415200272e-01
-1.916000000000000014e+01 1.630099999999999909e+02 5.891899999999999693e+01 1.429609999999999914e+01 2.124445208089341119e-01
-1.915800000000000125e+01 1.672199999999999989e+02 3.504800000000000182e+01 2.810549999999999993e-01 -1.738069120900810338e-01
-1.915800000000000125e+01 1.672199999999999989e+02 3.755599999999999739e+01 2.287588999999999828e+01 -6.878892618545874582e-02
-1.915800000000000125e+01 1.468600000000000136e+02 6.295300000000000296e+01 -6.241405999999999565e+00 8.843608988823067896e-02
-1.915599999999999881e+01 1.665300000000000011e+02 5.344299999999999784e+01 7.563193000000000277e-01 2.137069132776740488e-01
-1.915500000000000114e+01 1.432899999999999920e+02 4.800099999999999767e+01 -1.308146999999999949e+01 1.018735382609397416e-01
-1.915399999999999991e+01 1.695699999999999932e+02 6.527299999999999613e+01 -8.167025999999999897e+00 2.152685562357162241e-01
-1.915299999999999869e+01 1.429699999999999989e+02 6.820699999999999363e+01 -6.752328000000000330e+00 1.103263604866963760e-01
-1.914900000000000091e+01 1.691200000000000045e+02 6.699800000000000466e+01 -1.267501000000000033e+01 2.157013105242918116e-01
-1.914699999999999847e+01 1.599799999999999898e+02 3.199099999999999966e+01 -2.080140999999999796e+00 -1.073859807514349896e-01
-1.914699999999999847e+01 1.616800000000000068e+02 3.199099999999999966e+01 -2.429161999999999821e+00 7.087782376682549845e-02
-1.914499999999999957e+01 1.397899999999999920e+02 5.323899999999999721e+01 8.085718999999999212e+00 9.089065509890588423e-02
-1.914399999999999835e+01 1.435999999999999943e+02 4.870300000000000296e+01 -1.155662000000000056e+01 8.654789082988202653e-02
-1.914199999999999946e+01 1.653199999999999932e+02 6.330100000000000193e+01 1.542412999999999990e+01 2.142776171142156405e-01
-1.913500000000000156e+01 1.429699999999999989e+02 6.719599999999999795e+01 -6.401206000000000174e+00 1.071196579931744941e-01
-1.913200000000000145e+01 1.511100000000000136e+02 6.977899999999999636e+01 -1.859409000000000134e+01 1.030953284507833967e-01
-1.913100000000000023e+01 1.665699999999999932e+02 5.434799999999999898e+01 4.465334000000000358e+00 2.131917270447190038e-01
-1.912600000000000122e+01 1.413400000000000034e+02 5.206199999999999761e+01 -6.020122999999999891e+00 8.819989751527369803e-02
-1.912500000000000000e+01 1.293000000000000114e+02 5.378499999999999659e+01 -1.214465000000000039e+01 -1.652068027494425773e-01
-1.912399999999999878e+01 1.631699999999999875e+02 6.266199999999999903e+01 1.863423999999999914e-01 2.137903021687192484e-01
-1.912399999999999878e+01 1.369099999999999966e+02 3.850300000000000011e+01 -9.025377999999999901e+00 -2.683870913564500582e-01
-1.912199999999999989e+01 1.638400000000000034e+02 3.852600000000000335e+01 -2.147431000000000090e+00 -6.818319337057311691e-02
-1.912099999999999866e+01 1.259300000000000068e+02 5.082500000000000284e+01 -9.259458000000000411e+00 -4.125215245510706064e-01
-1.911499999999999844e+01 1.403799999999999955e+02 3.602000000000000313e+01 -2.078510999999999953e+01 -1.590877972751165437e-01
-1.911499999999999844e+01 1.426500000000000057e+02 3.602000000000000313e+01 -2.668937000000000115e-01 -1.609181422753591939e-01
-1.911299999999999955e+01 1.471999999999999886e+02 7.132299999999999329e+01 -1.291613000000000078e+01 -5.296822580770673555e-02
-1.910800000000000054e+01 1.365300000000000011e+02 3.772699999999999676e+01 -9.693438000000000443e+00 -2.692956900942796716e-01
-1.910600000000000165e+01 1.428499999999999943e+02 5.798599999999999710e+01 -6.224563999999999986e+00 8.620778014711126536e-02
-1.910099999999999909e+01 1.485699999999999932e+02 2.727700000000000102e+01 -5.241150000000000198e+00 8.832893200400866729e-02
-1.910099999999999909e+01 1.544900000000000091e+02 2.852899999999999991e+01 -6.939357999999999915e-01 -1.236105345132643973e-01
-1.910099999999999909e+01 1.560500000000000114e+02 2.852899999999999991e+01 8.804594999999999505e-01 -1.229292514959422489e-01
-1.909700000000000131e+01 1.660099999999999909e+02 3.449300000000000210e+01 1.170814000000000021e+00 -1.736919201548554892e-01
-1.909700000000000131e+01 1.330000000000000000e+02 3.781000000000000227e+01 -1.144014999999999915e+01 -2.653846638141947878e-01
-1.909499999999999886e+01 1.553700000000000045e+02 7.260299999999999443e+01 -2.517201000000000022e+01 1.044310426680685744e-01
-1.909199999999999875e+01 1.715500000000000114e+02 4.813700000000000045e+01 2.543563999999999936e+00 2.183506945930381582e-01
-1.909100000000000108e+01 1.447400000000000091e+02 7.100300000000000011e+01 -6.359948000000000157e+00 -5.168676448215285546e-02
-1.909100000000000108e+01 1.346299999999999955e+02 2.958099999999999952e+01 -8.407192999999999472e+00 -1.651826911347872850e-01
-1.908899999999999864e+01 1.450500000000000114e+02 3.029100000000000037e+01 1.077862999999999971e+01 -1.678852971641189851e-01
-1.908500000000000085e+01 1.384600000000000080e+02 3.952900000000000347e+01 -7.038568999999999853e+00 -2.682022642799608003e-01
-1.908500000000000085e+01 1.489099999999999966e+02 7.026500000000000057e+01 -1.160932999999999993e+01 1.064984780516674834e-01
-1.908200000000000074e+01 1.383899999999999864e+02 3.508500000000000085e+01 -1.356969999999999921e+01 -1.580538984750777531e-01
-1.907900000000000063e+01 1.415200000000000102e+02 3.526200000000000045e+01 -1.737662999999999869e+01 -1.608026145574386612e-01
-1.907700000000000173e+01 1.294099999999999966e+02 4.756000000000000227e+01 -8.290753000000000483e+00 -3.762150176144137825e-01
-1.907400000000000162e+01 1.568700000000000045e+02 7.443099999999999739e+01 -2.098652999999999835e+01 1.058591308254343416e-01
-1.907400000000000162e+01 1.694399999999999977e+02 6.623099999999999454e+01 -6.834575000000000067e+00 2.155188454074066229e-01
-1.907400000000000162e+01 1.666599999999999966e+02 6.806300000000000239e+01 -2.625866999999999862e+01 2.158793138411816415e-01
-1.907300000000000040e+01 1.488600000000000136e+02 2.972700000000000031e+01 -8.850144999999999484e+00 8.859204872622751525e-02
-1.906299999999999883e+01 1.272800000000000011e+02 5.435199999999999676e+01 -1.046796999999999933e+01 -1.509580713567396371e-01
-1.906299999999999883e+01 1.272800000000000011e+02 5.710199999999999676e+01 -8.561144999999999783e+00 -1.486016275656802110e-01
-1.906200000000000117e+01 1.327299999999999898e+02 3.705100000000000193e+01 -1.136863999999999919e+01 -2.665618610970031943e-01
-1.905999999999999872e+01 1.361999999999999886e+02 5.443099999999999739e+01 -5.949524000000000257e+00 1.008282121063599907e-01
-1.905900000000000105e+01 1.395300000000000011e+02 5.242999999999999972e+01 4.010710000000000441e+00 9.136136114065213087e-02
-1.905900000000000105e+01 1.645200000000000102e+02 6.984399999999999409e+01 -8.686037000000000674e+00 9.658231288742141762e-02
-1.905799999999999983e+01 1.386899999999999977e+02 3.598400000000000176e+01 -1.148823999999999934e+01 -1.573802640367714389e-01
-1.905399999999999849e+01 1.438300000000000125e+02 6.462900000000000489e+01 3.736489000000000171e+00 9.677472038775795926e-02
-1.905099999999999838e+01 1.713600000000000136e+02 4.620199999999999818e+01 -3.561106999999999800e+00 2.193319602958778702e-01
-1.904599999999999937e+01 1.372599999999999909e+02 3.432699999999999818e+01 -3.120752999999999844e+01 -1.576740424989863665e-01
-1.904400000000000048e+01 1.669399999999999977e+02 6.349199999999999733e+01 -7.844955000000000123e-01 2.145229761432924653e-01
-1.904299999999999926e+01 1.328199999999999932e+02 3.157799999999999940e+01 -1.273851999999999940e+01 -1.562466314543061174e-01
-1.904299999999999926e+01 1.444399999999999977e+02 6.965900000000000603e+01 8.762969999999999926e-01 -5.371561729607927937e-02
-1.903000000000000114e+01 1.305800000000000125e+02 5.296399999999999864e+01 -1.397082999999999942e+01 -1.547834449259950507e-01
-1.902799999999999869e+01 1.395300000000000011e+02 4.866400000000000148e+01 -5.586021999999999821e+01 9.237521771348349009e-02
-1.902700000000000102e+01 1.250300000000000011e+02 4.802300000000000324e+01 -2.241780999999999935e+01 -3.959663069591708440e-01
-1.902700000000000102e+01 1.267199999999999989e+02 4.802300000000000324e+01 -3.625540000000000163e+01 -4.108435453935238568e-01
-1.902400000000000091e+01 1.695200000000000102e+02 6.470199999999999818e+01 -2.504382999999999981e+01 2.151174860046587423e-01
-1.902100000000000080e+01 1.644900000000000091e+02 3.791400000000000148e+01 2.297344999999999970e+00 -6.838459136231439528e-02
-1.901999999999999957e+01 1.410200000000000102e+02 2.864399999999999835e+01 -7.438595000000000290e+00 -1.696991177465302092e-01
-1.901999999999999957e+01 1.425399999999999920e+02 2.864399999999999835e+01 -7.819544999999999746e+00 -1.697437818001755194e-01
-1.901999999999999957e+01 1.466999999999999886e+02 5.804999999999999716e+01 1.887775999999999854e+01 8.315894381683276715e-02
-1.901500000000000057e+01 1.491699999999999875e+02 2.902700000000000102e+01 -6.630054000000000336e+00 8.821078934713026676e-02
-1.901399999999999935e+01 1.502500000000000000e+02 2.850700000000000145e+01 -6.824012999999999884e+00 -2.032668633820880824e-02
-1.900700000000000145e+01 1.426899999999999977e+02 3.843599999999999994e+01 2.652254999999999807e+00 -2.719091423557300491e-01
-1.900700000000000145e+01 1.429000000000000057e+02 3.770000000000000284e+01 7.137992999999999810e+00 -2.728293957006729942e-01
-1.900300000000000011e+01 1.553899999999999864e+02 7.110099999999999909e+01 -1.541427000000000014e+01 1.020570985816878079e-01
-1.900300000000000011e+01 1.445000000000000000e+02 5.791499999999999915e+01 -4.107077999999999918e+01 8.437421173554722487e-02
-1.900000000000000000e+01 1.642199999999999989e+02 7.054399999999999693e+01 -4.140075999999999645e+00 9.745271813001717132e-02
-1.899899999999999878e+01 1.421100000000000136e+02 6.815999999999999659e+01 -5.909304999999999808e+00 -5.471752672924477118e-02
-1.899899999999999878e+01 1.330600000000000023e+02 3.629099999999999682e+01 -1.301585999999999999e+01 -2.686647806986320330e-01
-1.899899999999999878e+01 1.340000000000000000e+02 3.629099999999999682e+01 -1.388222999999999985e+01 -2.696981130481856392e-01
-1.899699999999999989e+01 1.639600000000000080e+02 7.100799999999999557e+01 -6.332915999999999990e+00 9.805619302713029783e-02
-1.899500000000000099e+01 1.390200000000000102e+02 3.674399999999999977e+01 -1.831674999999999898e+01 -2.725098609655544624e-01
-1.899500000000000099e+01 1.399600000000000080e+02 3.674399999999999977e+01 -3.608991000000000327e+01 -2.729538080338644312e-01
-1.899299999999999855e+01 1.460500000000000114e+02 3.021999999999999886e+01 -9.596178999999999348e+00 9.062475847446503641e-02
-1.899200000000000088e+01 1.602100000000000080e+02 3.794700000000000273e+01 -3.435269999999999868e+01 -6.766570147447907579e-02
-1.899200000000000088e+01 1.604099999999999966e+02 3.721099999999999852e+01 -2.495691000000000059e+01 -1.724103704290086692e-01
-1.899200000000000088e+01 1.604099999999999966e+02 3.868299999999999983e+01 -3.527246999999999844e+01 -6.756969555296732377e-02
-1.898400000000000176e+01 1.320800000000000125e+02 5.575500000000000256e+01 -2.935558999999999941e+01 1.188361522282963961e-01
-1.898400000000000176e+01 1.469799999999999898e+02 7.208799999999999386e+01 -1.847926999999999964e+01 -5.173073962036371654e-02
-1.898000000000000043e+01 1.692100000000000080e+02 6.402400000000000091e+01 -1.426689000000000007e+01 2.149084866111976022e-01
-1.898000000000000043e+01 1.400800000000000125e+02 4.001200000000000045e+01 -7.518003000000000213e+00 -3.761547508804109485e-01
-1.898000000000000043e+01 1.323300000000000125e+02 4.105499999999999972e+01 -8.468365000000000364e+00 -3.758716310353028556e-01
-1.897700000000000031e+01 1.517100000000000080e+02 2.906400000000000006e+01 -9.857858999999999483e+00 -2.000150558537611839e-02
-1.897599999999999909e+01 1.443600000000000136e+02 7.046800000000000352e+01 -7.364264999999999617e+00 -5.224175747527837199e-02
-1.896999999999999886e+01 1.619699999999999989e+02 6.224199999999999733e+01 -1.090756999999999977e+01 2.134683112710830388e-01
-1.896900000000000119e+01 1.370800000000000125e+02 5.510300000000000153e+01 -7.536458999999999797e+00 9.759147877136999105e-02
-1.896699999999999875e+01 1.452500000000000000e+02 7.200300000000000011e+01 -6.795517000000000252e+00 -5.054224481413632786e-02
-1.896399999999999864e+01 1.435300000000000011e+02 4.991599999999999682e+01 -1.138002000000000002e+01 8.572252930609713939e-02
-1.895799999999999841e+01 1.333300000000000125e+02 3.868200000000000216e+01 -2.001823999999999870e+01 -2.640138977160003675e-01
-1.895799999999999841e+01 1.333300000000000125e+02 3.954699999999999704e+01 -1.343093000000000004e+01 -3.755214291518632064e-01
-1.895299999999999940e+01 1.685000000000000000e+02 5.494700000000000273e+01 -1.592975999999999948e+00 2.137724627379152254e-01
-1.895299999999999940e+01 1.655600000000000023e+02 5.960999999999999943e+01 1.226374000000000031e+01 2.131482127099045276e-01
-1.895299999999999940e+01 1.288300000000000125e+02 5.387800000000000011e+01 -1.200886999999999993e+01 -1.625366855095097818e-01
-1.895100000000000051e+01 1.625699999999999932e+02 3.940100000000000335e+01 -2.939604000000000106e+00 -6.784450870011400625e-02
-1.894900000000000162e+01 1.490800000000000125e+02 2.809199999999999875e+01 -3.240883999999999876e+00 8.799945223395842786e-02
-1.894699999999999918e+01 1.334699999999999989e+02 5.491700000000000159e+01 -1.996698999999999913e+01 1.121077173551845163e-01
-1.894399999999999906e+01 1.261899999999999977e+02 5.583299999999999841e+01 -9.623450000000000060e+00 -1.491350917447250013e-01
-1.894099999999999895e+01 1.678700000000000045e+02 6.361899999999999977e+01 -4.676016999999999868e+00 2.146631843964995345e-01
-1.893599999999999994e+01 1.686399999999999864e+02 4.016299999999999670e+01 -2.608921000000000046e+00 -6.862176241453676884e-02
-1.893400000000000105e+01 1.415200000000000102e+02 3.991100000000000136e+01 -5.575663999999999731e+00 -2.556536094647230972e-01
-1.893400000000000105e+01 1.251099999999999994e+02 4.549600000000000222e+01 -1.660839999999999961e+01 -3.946492339104736291e-01
-1.893100000000000094e+01 1.687700000000000102e+02 6.781199999999999761e+01 -2.344485999999999848e+01 2.159158184537106617e-01
-1.892699999999999960e+01 1.312100000000000080e+02 4.998700000000000188e+01 -1.167290000000000028e+01 -1.479536626856407244e-01
-1.892699999999999960e+01 1.312100000000000080e+02 5.085300000000000153e+01 -8.308892999999999418e+00 -1.504972021092845780e-01
-1.892599999999999838e+01 1.422800000000000011e+02 6.712600000000000477e+01 -5.461951000000000001e+00 1.082335909660410850e-01
-1.892500000000000071e+01 1.307500000000000000e+02 4.190100000000000335e+01 -9.878258000000000649e+00 -3.965775962472266047e-01
-1.892200000000000060e+01 1.485200000000000102e+02 5.807200000000000273e+01 1.000904000000000060e+01 8.244221341102547784e-02
-1.892000000000000171e+01 1.685500000000000114e+02 5.771000000000000085e+01 3.891017999999999688e+01 2.131430084595156149e-01
-1.891799999999999926e+01 1.645500000000000114e+02 5.963100000000000023e+01 1.582639999999999958e+01 2.129765165673619121e-01
-1.891700000000000159e+01 1.610000000000000000e+02 3.925600000000000023e+01 -1.026801000000000030e+01 -6.758542239949769104e-02
-1.891000000000000014e+01 1.481800000000000068e+02 6.146699999999999875e+01 -5.066804000000000308e+00 8.370137372293269540e-02
-1.890800000000000125e+01 1.291299999999999955e+02 4.173700000000000188e+01 -2.294600000000000151e+01 -4.099933026770751776e-01
-1.890800000000000125e+01 1.299900000000000091e+02 4.173700000000000188e+01 -1.306066000000000038e+01 -3.964323940184355521e-01
-1.890800000000000125e+01 1.695000000000000000e+02 4.026200000000000045e+01 -8.293480000000000629e+00 -6.871295518241250788e-02
-1.890299999999999869e+01 1.274500000000000028e+02 4.286800000000000210e+01 -1.855688999999999922e+01 -3.948248245209597940e-01
-1.889999999999999858e+01 1.525500000000000114e+02 6.938400000000000034e+01 -1.604383999999999943e+01 1.010478876753450744e-01
-1.889699999999999847e+01 1.673700000000000045e+02 5.209300000000000352e+01 3.833772999999999875e+00 2.149644115605012229e-01
-1.889499999999999957e+01 1.311200000000000045e+02 5.656099999999999994e+01 -3.245709000000000088e+01 1.234825644812812956e-01
-1.889199999999999946e+01 1.383300000000000125e+02 5.845000000000000284e+01 -3.581691000000000180e+00 9.406621769004216982e-02
-1.889000000000000057e+01 1.260199999999999960e+02 4.468500000000000227e+01 -1.670074999999999932e+01 -3.944465444944733057e-01
-1.888400000000000034e+01 1.405900000000000034e+02 4.756799999999999784e+01 -3.826646999999999821e+01 1.056396037613766409e-01
-1.888400000000000034e+01 1.382199999999999989e+02 3.674300000000000210e+01 -1.168398000000000003e+01 -2.719762729518696576e-01
-1.887500000000000000e+01 1.348400000000000034e+02 3.314399999999999835e+01 -4.333970999999999663e+01 -1.560040546082268609e-01
-1.887500000000000000e+01 1.362400000000000091e+02 3.314399999999999835e+01 -2.726592000000000127e+01 -1.581614958480533628e-01
-1.887199999999999989e+01 1.716699999999999875e+02 4.681600000000000250e+01 -5.517278000000000127e+00 2.191351655026034795e-01
-1.887099999999999866e+01 1.481999999999999886e+02 7.053300000000000125e+01 -7.665837999999999930e+00 1.080273007321059103e-01
-1.886700000000000088e+01 1.250300000000000011e+02 5.082500000000000284e+01 -9.296381000000000228e+00 -4.124669499374605808e-01
-1.886700000000000088e+01 1.268199999999999932e+02 5.082500000000000284e+01 -8.531356999999999857e+00 -3.751094678002108718e-01
-1.885999999999999943e+01 1.393700000000000045e+02 5.956700000000000017e+01 1.594823000000000102e+00 9.181980959001170839e-02
-1.885999999999999943e+01 1.410699999999999932e+02 5.956700000000000017e+01 5.645405000000000229e+00 8.861497304007635856e-02
-1.885900000000000176e+01 1.441899999999999977e+02 6.352600000000000335e+01 -2.053456999999999866e+00 9.214153556656576316e-02
-1.885300000000000153e+01 1.309300000000000068e+02 5.222099999999999653e+01 -1.230790999999999968e+01 -1.537519722921588672e-01
-1.885099999999999909e+01 1.675800000000000125e+02 4.041499999999999915e+01 2.567391000000000201e+00 -6.846029246756528408e-02
-1.884700000000000131e+01 1.476800000000000068e+02 2.727700000000000102e+01 -4.587837000000000387e+00 8.856641785125929367e-02
-1.884700000000000131e+01 1.494699999999999989e+02 2.727700000000000102e+01 -1.664353999999999889e+00 -1.989026085803656529e-02
-1.884700000000000131e+01 1.646800000000000068e+02 3.454999999999999716e+01 9.473947000000000784e+00 -1.735318809120680039e-01
-1.884600000000000009e+01 1.337899999999999920e+02 2.956899999999999906e+01 -8.876680000000000348e+00 -1.643863695815040438e-01
-1.884400000000000119e+01 1.598899999999999864e+02 7.196200000000000330e+01 -1.908348000000000155e+01 1.007283473090504478e-01
-1.884400000000000119e+01 1.610800000000000125e+02 7.129800000000000182e+01 -4.761157999999999646e+01 9.934384938143431265e-02
-1.884299999999999997e+01 1.626299999999999955e+02 7.173900000000000432e+01 4.515352000000000032e+01 9.931790056912392917e-02
-1.884299999999999997e+01 1.635900000000000034e+02 7.173900000000000432e+01 8.093918999999999642e+00 9.899631725450432074e-02
-1.884100000000000108e+01 1.397800000000000011e+02 3.015700000000000003e+01 -1.470270999999999972e+01 -1.668459460823792928e-01
-1.883999999999999986e+01 1.590900000000000034e+02 7.351800000000000068e+01 -1.788007999999999953e+01 1.031859085923888253e-01
-1.883999999999999986e+01 1.438000000000000114e+02 3.034299999999999997e+01 -7.109473000000000376e+00 -1.676453938904915175e-01
-1.883699999999999974e+01 1.497199999999999989e+02 2.787999999999999901e+01 -3.247511999999999954e+00 -2.017716670025467701e-02
-1.883500000000000085e+01 1.375200000000000102e+02 3.014300000000000068e+01 -1.348680000000000057e+01 -1.657814868819193488e-01
-1.883099999999999952e+01 1.692800000000000011e+02 5.002000000000000313e+01 8.958035000000000636e+00 2.168550978570936982e-01
-1.882999999999999829e+01 1.288300000000000125e+02 4.109599999999999653e+01 -1.521541000000000032e+01 -3.964249991068707901e-01
-1.882900000000000063e+01 1.425600000000000023e+02 6.899800000000000466e+01 -2.528090999999999866e+00 -5.337639814775547997e-02
-1.882600000000000051e+01 1.667800000000000011e+02 3.445700000000000074e+01 6.498602999999999463e-01 -1.738579450026128681e-01
-1.882499999999999929e+01 1.571899999999999977e+02 3.028999999999999915e+01 8.851452000000000098e+00 -1.238037117873160842e-01
-1.882199999999999918e+01 1.685699999999999932e+02 5.131099999999999994e+01 2.685280999999999918e-01 2.158917179974105260e-01
-1.881899999999999906e+01 1.425999999999999943e+02 6.626600000000000534e+01 -4.674807999999999630e+00 1.046124051853712239e-01
