4.012500000000000000e+01 3.391700000000000159e+01 1.342899999999999920e+02 -2.737194000000000127e+00 -1.715713387590916267e-02
4.013400000000000034e+01 6.527000000000000135e+00 1.326500000000000057e+02 6.327557999999999794e+00 -7.666107603618182997e-02
4.013799999999999812e+01 5.816699999999999982e+00 1.460800000000000125e+02 3.566732000000000236e-01 -8.001550793421426111e-02
4.014800000000000324e+01 1.199300000000000033e+01 1.451699999999999875e+02 -1.785115000000000052e+01 -7.999833490336957786e-02
4.014999999999999858e+01 1.535100000000000087e+01 1.383199999999999932e+02 -9.593890000000000029e+00 -8.005634605526568137e-02
4.015200000000000102e+01 1.776999999999999957e+01 1.183299999999999983e+02 -2.050409000000000148e+00 -6.704373960569252888e-02
4.015200000000000102e+01 1.928999999999999915e+01 1.183299999999999983e+02 -2.352819000000000216e+00 1.326592447126307209e-02
4.015400000000000347e+01 2.998400000000000176e+01 1.275000000000000000e+02 -4.642172999999999994e-01 -2.881764798278964035e-01
4.015800000000000125e+01 3.097400000000000020e+01 1.287400000000000091e+02 1.424391000000000129e-01 -7.899040834484663196e-03
4.015800000000000125e+01 1.628900000000000148e+01 1.200100000000000051e+02 -4.449285999999999852e+00 -6.391582477703043608e-02
4.016199999999999903e+01 1.294800000000000040e+01 1.399799999999999898e+02 -1.634190000000000087e-01 -7.999266819871640732e-02
4.016299999999999670e+01 2.496900000000000119e+01 1.231299999999999955e+02 8.879378000000000271e-02 -2.057426784860457991e-01
4.016299999999999670e+01 2.592699999999999960e+01 1.231299999999999955e+02 -1.886484999999999967e+00 -1.992295364959916215e-01
4.016499999999999915e+01 3.046899999999999942e+00 1.321100000000000136e+02 -8.242361000000000715e+00 -7.660549916946528259e-02
4.016599999999999682e+01 2.645599999999999952e+01 1.233400000000000034e+02 -1.322000000000000119e-01 -1.957173672199726822e-01
4.016700000000000159e+01 3.173600000000000065e+01 1.321899999999999977e+02 8.199689999999999479e-01 -1.864944334109786689e-02
4.017099999999999937e+01 3.739699999999999847e+01 1.359600000000000080e+02 -5.331091999999999942e+00 -2.549812410380842762e-02
4.017099999999999937e+01 3.739699999999999847e+01 1.369000000000000057e+02 -1.304049000000000014e+01 -2.483993352111274824e-02
4.017600000000000193e+01 -7.513099999999999667e+00 1.332199999999999989e+02 5.268665999999999627e+00 -1.708242110351117782e-01
4.018099999999999739e+01 8.970200000000000395e-01 1.400000000000000000e+02 2.963689000000000107e+01 -7.664086687712610979e-02
4.018099999999999739e+01 3.404999999999999805e+00 1.409600000000000080e+02 1.306035999999999930e+01 -7.666546014685141075e-02
4.018399999999999750e+01 9.322599999999999776e-01 1.410699999999999932e+02 2.428665000000000163e+01 -7.664605066121911447e-02
4.018599999999999994e+01 3.397099999999999653e+01 1.335399999999999920e+02 -1.323718000000000039e+01 -1.741906011659856077e-02
4.018599999999999994e+01 -2.457300000000000040e+00 1.320200000000000102e+02 4.587105000000000210e+00 -6.634088980125982249e-02
4.018599999999999994e+01 -1.592100000000000071e+00 1.320200000000000102e+02 2.243040000000000145e+00 -6.631119468654886329e-02
4.018599999999999994e+01 3.539600000000000080e+01 1.323600000000000136e+02 5.890817999999999888e-01 -2.231479538231268683e-02
4.018699999999999761e+01 9.556700000000000195e-01 1.459799999999999898e+02 -6.751835000000000475e-02 -7.666297864976023835e-02
4.018800000000000239e+01 6.089000000000000412e+00 1.298899999999999864e+02 3.668285999999999802e+01 -7.662818050170200346e-02
4.019100000000000250e+01 1.528400000000000070e+01 1.372599999999999909e+02 -8.263973000000000013e+00 -8.004965372281216962e-02
4.019500000000000028e+01 3.896999999999999886e+01 1.343600000000000136e+02 1.298025999999999947e+01 6.027019556907819119e-03
4.020100000000000051e+01 2.971199999999999974e+01 1.264399999999999977e+02 -2.246808000000000138e+00 -2.881116874295289731e-01
4.020300000000000296e+01 1.648300000000000054e+01 1.455800000000000125e+02 6.513031999999999933e+00 -8.008796616562495474e-02
4.020400000000000063e+01 1.396400000000000041e+01 1.409600000000000080e+02 -6.722519000000000133e-01 -8.002336017721906058e-02
4.021399999999999864e+01 6.656100000000000350e+00 1.316899999999999977e+02 5.114263000000000225e+00 -7.665641125403006850e-02
4.021800000000000352e+01 -7.381499999999999950e+00 1.312299999999999898e+02 1.329736999999999947e+00 -1.705280153711389857e-01
4.021800000000000352e+01 1.294399999999999995e+00 1.419600000000000080e+02 3.768810999999999911e+00 -7.665244713361865636e-02
4.022299999999999898e+01 1.237899999999999956e+01 1.399699999999999989e+02 3.289329999999999754e-01 -7.997671782071015534e-02
4.022399999999999665e+01 1.535299999999999976e+01 1.199500000000000028e+02 -2.670396999999999910e+00 -6.408944769107670358e-02
4.022899999999999920e+01 1.390499999999999936e+01 1.399000000000000057e+02 -3.356767999999999974e-01 -8.001663131584837996e-02
4.023199999999999932e+01 1.023700000000000010e+01 1.411800000000000068e+02 5.254786999999999653e-01 -7.999076732572117654e-02
4.023499999999999943e+01 -7.636400000000000077e+00 1.319799999999999898e+02 1.137237999999999971e+00 -1.705857812693913345e-01
4.023799999999999955e+01 8.341400000000000148e+00 1.367599999999999909e+02 3.188384999999999803e+00 -8.007416821482163383e-02
4.023899999999999721e+01 1.526099999999999923e+01 1.362800000000000011e+02 -5.798358999999999597e+00 -8.004344209252070574e-02
4.024399999999999977e+01 -1.988199999999999967e+00 1.350900000000000034e+02 -3.901606999999999825e+00 -7.658694398186348395e-02
4.024399999999999977e+01 6.960799999999999876e+00 1.376399999999999864e+02 1.403335000000000043e+01 -7.669124370908249333e-02
4.024600000000000222e+01 6.392400000000000304e+00 1.305900000000000034e+02 3.036400000000000077e+01 -7.664180337875040050e-02
4.024799999999999756e+01 2.030699999999999861e+01 1.190600000000000023e+02 -2.915604000000000084e+00 3.090246957626870475e-02
4.025000000000000000e+01 3.297800000000000065e+00 1.458899999999999864e+02 -1.202940000000000076e+01 -8.004181649055167047e-02
4.025200000000000244e+01 -1.286799999999999944e+00 1.328499999999999943e+02 3.975547000000000164e+00 -6.628750079383535776e-02
4.025900000000000034e+01 2.843799999999999883e+01 1.246299999999999955e+02 -1.232282999999999973e+01 -1.874831470646561027e-01
4.025999999999999801e+01 -1.006599999999999939e+00 1.298799999999999955e+02 -1.693000999999999978e+00 -6.632848728286118434e-02
4.026100000000000279e+01 2.974099999999999966e+01 1.384499999999999886e+02 8.111143000000000214e+00 -1.846214698226402579e-02
4.026299999999999812e+01 2.569600000000000151e+01 1.422299999999999898e+02 -4.507294999999999874e+01 -2.002440073753592176e-01
4.026400000000000290e+01 4.030400000000000205e+01 1.351100000000000136e+02 6.199697999999999709e+00 5.286483983617145874e-03
4.026899999999999835e+01 1.730300000000000082e+01 1.247000000000000028e+02 -7.780834999999999724e+00 -7.308471943334063359e-02
4.027199999999999847e+01 1.448600000000000110e+00 1.374199999999999875e+02 -8.417477999999999128e+00 -7.663158276544920766e-02
4.027600000000000335e+01 4.558800000000000074e-01 1.374799999999999898e+02 -1.029045999999999950e+01 -7.662343997958889763e-02
4.027799999999999869e+01 -1.566100000000000048e+00 1.373700000000000045e+02 -9.477970000000000006e-01 -7.660736661705544459e-02
4.028499999999999659e+01 1.383399999999999963e+01 1.200499999999999972e+02 -5.280571000000000126e+00 -6.361182476434841526e-02
4.028699999999999903e+01 2.441600000000000037e+01 1.269599999999999937e+02 -2.467153999999999847e+00 -2.048061890831252563e-01
4.028699999999999903e+01 2.441600000000000037e+01 1.278299999999999983e+02 -9.263460999999999501e+00 -2.042052727551041669e-01
4.028999999999999915e+01 3.367799999999999727e+01 1.327199999999999989e+02 -8.846128999999999465e+00 -1.663724127793034593e-02
4.029200000000000159e+01 1.947100000000000009e+01 1.231500000000000057e+02 2.594472000000000111e+00 1.998901268610890625e-02
4.029500000000000171e+01 1.815299999999999869e+01 1.249099999999999966e+02 -1.409633000000000003e+01 -8.020570374500714250e-02
4.029599999999999937e+01 1.671099999999999852e+01 1.194300000000000068e+02 -2.587434000000000012e+00 -6.391114716775134208e-02
4.029800000000000182e+01 3.867699999999999960e+01 1.377800000000000011e+02 2.711551000000000045e+01 8.421933506684967791e-03
4.029800000000000182e+01 1.538100000000000023e+01 1.468899999999999864e+02 -7.260691000000000228e-01 -8.006395794866065507e-02
4.029999999999999716e+01 1.615700000000000003e+01 1.229000000000000057e+02 -4.774853000000000236e+00 -6.304860032093714817e-02
4.029999999999999716e+01 4.472800000000000331e+00 1.398700000000000045e+02 6.293323000000000000e+00 -7.667168532482313004e-02
4.030799999999999983e+01 2.078399999999999892e+01 1.196700000000000017e+02 -1.236844999999999972e+00 2.247107990780020104e-02
4.030799999999999983e+01 3.333800000000000097e+01 1.350000000000000000e+02 -8.299538000000000082e+00 -1.610478644473460619e-02
4.031099999999999994e+01 1.912199999999999989e+01 1.256800000000000068e+02 -2.013038999999999845e+01 -8.034636664395276850e-02
4.031199999999999761e+01 1.543999999999999950e+01 1.418899999999999864e+02 9.911930999999999159e+00 -8.006220570393279834e-02
4.031199999999999761e+01 9.372299999999999187e+00 1.236200000000000045e+02 6.421774999999999567e-01 -6.287995540017342344e-02
4.031300000000000239e+01 -9.088400000000000645e-02 1.298700000000000045e+02 -2.703222999999999931e+00 -6.628980795053351915e-02
4.031300000000000239e+01 5.260699999999999932e+00 1.299699999999999989e+02 1.318033000000000010e+00 -7.661466280221790326e-02
4.032600000000000051e+01 2.162800000000000011e+01 1.425300000000000011e+02 2.488425000000000153e+01 -2.024872632838121689e-01
4.032699999999999818e+01 6.299000000000000377e+00 1.263299999999999983e+02 3.146418999999999744e-01 -7.657858105020150241e-02
4.032699999999999818e+01 9.904099999999999682e+00 1.361599999999999966e+02 -4.977273000000000280e+01 -8.005144422925335179e-02
4.032900000000000063e+01 1.622299999999999898e+01 1.238100000000000023e+02 9.277341000000000060e-01 -6.288043249139675661e-02
4.032900000000000063e+01 1.848799999999999955e+01 1.229500000000000028e+02 1.258929999999999971e+01 1.726913415011394407e-02
4.032999999999999829e+01 2.704500000000000171e+01 1.414300000000000068e+02 -2.926724000000000103e+01 -1.994427126869840472e-01
4.033100000000000307e+01 5.754999999999999893e+00 1.382500000000000000e+02 -1.205533999999999928e+01 -7.667945176979457100e-02
4.033100000000000307e+01 3.007900000000000063e+01 1.392599999999999909e+02 4.477551000000000059e+00 -1.983681365993051129e-02
4.033100000000000307e+01 5.435999999999999943e+00 1.435099999999999909e+02 9.130473000000000283e+00 -8.003766603522588508e-02
4.033100000000000307e+01 8.417999999999999261e+00 1.412599999999999909e+02 -1.232126000000000055e+00 -8.001773957539867754e-02
4.033599999999999852e+01 2.415500000000000114e+01 1.259599999999999937e+02 3.323783999999999850e+00 -2.066819062071952318e-01
4.033599999999999852e+01 2.084600000000000009e+01 1.211800000000000068e+02 7.227801000000000364e+00 2.417694722017965300e-02
4.033599999999999852e+01 2.084600000000000009e+01 1.222300000000000040e+02 1.346292000000000044e+01 2.424726126279324462e-02
4.033700000000000330e+01 3.214600000000000080e+01 1.267800000000000011e+02 -1.076505000000000045e+00 -1.166945344023250604e-03
4.033700000000000330e+01 2.575400000000000134e+01 1.225799999999999983e+02 -5.269806000000000212e-01 -2.012785301296705909e-01
4.034300000000000352e+01 1.787399999999999878e+01 1.221899999999999977e+02 2.124211999999999989e+00 -6.239597542353837734e-02
4.034799999999999898e+01 1.141900000000000048e+01 1.323300000000000125e+02 -3.730802999999999869e+00 -8.008703128932556647e-02
4.034799999999999898e+01 1.281900000000000084e+01 1.323300000000000125e+02 -2.552376999999999896e+01 -8.004408394821126149e-02
4.035499999999999687e+01 1.328899999999999970e+00 1.391500000000000057e+02 1.715300999999999965e+00 -7.664049553931531755e-02
4.035499999999999687e+01 1.365900000000000070e+01 1.467400000000000091e+02 -4.858785999999999938e-01 -8.003098525591795243e-02
4.035799999999999699e+01 1.418500000000000050e+01 1.387199999999999989e+02 -3.140413000000000121e+00 -8.001592991895670193e-02
4.035900000000000176e+01 2.049500000000000099e+01 1.431699999999999875e+02 2.218091000000000079e+01 -2.029337710270525119e-01
4.036299999999999955e+01 3.071999999999999886e+01 1.275000000000000000e+02 -2.358987999999999918e-01 -2.651434383215348599e-03
4.036299999999999955e+01 4.021900000000000119e+01 1.376800000000000068e+02 1.121542000000000030e+02 7.075543694785774163e-03
4.036500000000000199e+01 3.966899999999999693e+01 1.345099999999999909e+02 1.165339999999999954e+01 4.815965131771705703e-03
4.036599999999999966e+01 2.423600000000000065e+01 1.419000000000000057e+02 -1.818643000000000143e+01 -2.011468686960064534e-01
4.036899999999999977e+01 3.805299999999999905e+00 1.428700000000000045e+02 4.380047000000000246e-01 -7.667502402729851896e-02
4.037100000000000222e+01 1.766600000000000037e+01 1.449600000000000080e+02 1.405178000000000038e+00 -8.011242168801473162e-02
4.037100000000000222e+01 1.692199999999999926e+00 1.382800000000000011e+02 -5.398905000000000065e+00 -7.663901015205698553e-02
4.037700000000000244e+01 3.239999999999999858e+01 1.348899999999999864e+02 -7.952420000000000044e+00 -2.363789115818661427e-02
4.037800000000000011e+01 3.138400000000000034e+01 1.350500000000000114e+02 1.815153000000000105e+01 -2.052678598365666185e-02
4.037899999999999778e+01 2.801500000000000057e+01 1.239099999999999966e+02 -1.573574999999999946e+00 -1.879413819348783599e-01
4.038100000000000023e+01 4.754599999999999937e+00 1.390999999999999943e+02 -4.419496999999999787e+01 -7.667198488180548832e-02
4.038300000000000267e+01 3.661399999999999721e+01 1.380300000000000011e+02 -1.683795999999999893e+01 -2.309986218210968029e-02
4.038700000000000045e+01 5.001000000000000334e+00 1.308899999999999864e+02 3.535018999999999800e-01 -7.662128833645569237e-02
4.039300000000000068e+01 2.437600000000000122e+01 1.252000000000000028e+02 1.943405000000000049e+00 -2.069267900597092924e-01
4.040200000000000102e+01 2.971000000000000085e+01 1.401100000000000136e+02 1.307352000000000025e+01 -1.969196755393837553e-02
4.040299999999999869e+01 1.932400000000000162e+01 1.444499999999999886e+02 2.094112000000000151e+01 -8.015213717420484330e-02
4.040400000000000347e+01 -6.448000000000000398e+00 1.298899999999999864e+02 1.211818999999999980e+00 -1.704912281147787090e-01
4.041799999999999926e+01 8.194399999999999906e+00 1.470600000000000023e+02 5.860018000000000171e+00 -7.998192378463531149e-02
4.042399999999999949e+01 3.936500000000000199e+01 1.338100000000000023e+02 6.171797999999999895e+00 4.117468502159650663e-03
4.042399999999999949e+01 2.230600000000000094e+01 1.279500000000000028e+02 -1.178378000000000014e+01 -2.091743346147686977e-01
4.042399999999999949e+01 3.112500000000000000e+01 1.304300000000000068e+02 6.825207999999999942e+00 -1.401759592416257708e-02
4.042399999999999949e+01 3.112500000000000000e+01 1.313000000000000114e+02 7.020010000000000083e+00 -1.554851305540533822e-02
4.042399999999999949e+01 3.339300000000000068e+01 1.361100000000000136e+02 -3.168509999999999938e+00 -2.694639560511975090e-02
4.042399999999999949e+01 3.339300000000000068e+01 1.370200000000000102e+02 -3.857593000000000050e+00 -2.697101156065608366e-02
4.042699999999999960e+01 9.487999999999999545e+00 1.226899999999999977e+02 -6.451803999999999872e-01 -6.282338047194176156e-02
4.042699999999999960e+01 9.741899999999999338e+00 1.217900000000000063e+02 3.338954000000000089e-01 -6.279318038520340095e-02
4.042699999999999960e+01 1.118800000000000061e+01 1.209899999999999949e+02 -1.405585000000000084e+00 -6.294924833615496429e-02
4.042699999999999960e+01 1.270299999999999940e+01 1.208700000000000045e+02 -1.949403999999999915e+00 -6.324795985191306036e-02
4.042799999999999727e+01 1.652400000000000091e+01 1.214800000000000040e+02 -1.348504999999999932e+01 -6.317220846611266982e-02
4.042799999999999727e+01 1.738899999999999935e+01 1.214800000000000040e+02 -4.872758000000000145e+00 -6.272714395487374861e-02
4.042999999999999972e+01 1.338100000000000023e+01 1.392800000000000011e+02 -2.406531999999999893e+00 -7.999419199506993539e-02
4.042999999999999972e+01 3.503699999999999903e+01 1.386299999999999955e+02 -2.405477000000000132e+01 -1.998992550224906392e-02
4.043200000000000216e+01 2.837900000000000134e+01 1.405399999999999920e+02 1.585304999999999964e+00 -1.751199548037839573e-02
4.043200000000000216e+01 3.739900000000000091e+01 1.379199999999999875e+02 -6.555460000000000065e+00 -2.470503650045989888e-02
4.043999999999999773e+01 3.151899999999999835e+01 1.277399999999999949e+02 1.121713000000000016e-01 -1.008222595544007449e-02
4.044400000000000261e+01 3.366899999999999693e+01 1.378799999999999955e+02 -2.685446000000000222e+00 -2.766068093981044473e-02
4.044700000000000273e+01 1.687000000000000099e+01 1.399799999999999898e+02 -5.158576000000000050e+00 -8.010018401308421909e-02
4.044700000000000273e+01 1.687000000000000099e+01 1.408400000000000034e+02 -3.073850999999999889e+00 -8.009920145351899501e-02
4.045100000000000051e+01 3.538100000000000023e+01 1.318799999999999955e+02 -3.023300999999999905e-01 -2.343341383434293865e-02
4.045499999999999829e+01 5.656399999999999650e+00 1.305900000000000034e+02 4.139084000000000430e+00 -7.662948569870461912e-02
4.045900000000000318e+01 3.132999999999999829e+01 1.267500000000000000e+02 -2.783277000000000112e-01 -5.131694676469197511e-03
4.046099999999999852e+01 1.964999999999999858e+01 1.478499999999999943e+02 7.411853000000000191e-02 -8.014111800819087583e-02
4.046900000000000119e+01 -7.986900000000000333e+00 1.324600000000000080e+02 1.507439999999999891e+00 -1.705228176606437829e-01
4.047099999999999653e+01 3.044600000000000151e+01 1.267199999999999989e+02 -1.493902000000000063e+00 -2.874393976144794527e-01
4.047099999999999653e+01 3.243599999999999994e+01 1.322400000000000091e+02 -5.259382999999999697e+00 -2.264789769736004488e-02
4.047200000000000131e+01 3.827900000000000347e+01 1.310399999999999920e+02 1.043579000000000034e+00 1.719279254663920150e-03
4.047200000000000131e+01 7.802599999999999980e+00 1.375099999999999909e+02 1.807366000000000028e+01 -8.007000112853787654e-02
4.047399999999999665e+01 3.563000000000000167e+00 1.422299999999999898e+02 -8.647206999999999810e-02 -7.667156517572717989e-02
4.047500000000000142e+01 5.245700000000000252e+00 1.458899999999999864e+02 -1.345415000000000083e-01 -8.002070878460779135e-02
4.048100000000000165e+01 3.782700000000000173e+00 1.458899999999999864e+02 -9.124603999999999715e+00 -8.003571476348052272e-02
4.048199999999999932e+01 1.403700000000000081e+01 1.352199999999999989e+02 -2.071910000000000096e+01 -7.998143316774955491e-02
4.048599999999999710e+01 1.621999999999999886e+01 1.221800000000000068e+02 -6.659902999999999906e+00 -6.312559000590860225e-02
4.048799999999999955e+01 -3.736000000000000210e+00 1.327299999999999898e+02 4.780178000000000260e+00 -1.718232817565234494e-01
4.048899999999999721e+01 -4.939000000000000057e+00 1.291599999999999966e+02 5.762408999999999892e+00 -1.708077368073182001e-01
4.048899999999999721e+01 1.503500000000000014e+01 1.389600000000000080e+02 -1.888395000000000046e+00 -8.004028081364134017e-02
4.048899999999999721e+01 1.590099999999999980e+01 1.389600000000000080e+02 -1.006575999999999915e+01 -8.006799156938941564e-02
4.049099999999999966e+01 3.151200000000000045e+01 1.295900000000000034e+02 4.268288000000000082e+00 -1.481781269801135323e-02
4.049600000000000222e+01 3.932900000000000063e+00 1.325900000000000034e+02 -5.171674999999999578e+00 -7.662304522323765132e-02
4.050200000000000244e+01 2.276399999999999935e+01 1.287599999999999909e+02 -6.639399000000000051e+00 -2.074697761584421429e-01
4.050200000000000244e+01 2.362900000000000134e+01 1.287599999999999909e+02 -7.317173999999999623e+00 -2.057222214644228442e-01
4.050300000000000011e+01 3.175700000000000145e+01 1.287400000000000091e+02 1.350740999999999969e+00 -1.467129089639136220e-02
4.050399999999999778e+01 -8.257899999999999352e+00 1.332199999999999989e+02 1.047217000000000064e+00 -1.705690458180081914e-01
4.050999999999999801e+01 4.402400000000000091e+00 1.332500000000000000e+02 -1.119619999999999926e+01 -7.663531474956543355e-02
4.051100000000000279e+01 2.109600000000000009e+01 1.261400000000000006e+02 -1.911351000000000022e+00 -2.146959985217303524e-01
4.051100000000000279e+01 2.206400000000000006e+01 1.426899999999999977e+02 1.751416000000000039e+01 -2.022960552494802999e-01
4.051100000000000279e+01 2.325499999999999901e+01 1.420300000000000011e+02 -2.567444000000000059e+01 -2.017475537223197279e-01
4.051100000000000279e+01 3.044600000000000151e+01 1.388300000000000125e+02 4.477551000000000059e+00 -2.067183456623684218e-02
4.051299999999999812e+01 2.010699999999999932e+01 1.185400000000000063e+02 -3.212784000000000084e+00 2.915694839291971263e-02
4.051599999999999824e+01 3.965400000000000347e+01 1.319600000000000080e+02 1.624217999999999940e+00 1.169890039052173206e-03
4.051599999999999824e+01 3.965400000000000347e+01 1.330099999999999909e+02 7.960320000000000285e+00 2.520633354508695391e-03
4.052499999999999858e+01 -5.863000000000000433e+00 1.336299999999999955e+02 5.017508000000000123e+01 -1.712558678325664663e-01
4.052700000000000102e+01 -6.299799999999999844e-02 1.380000000000000000e+02 -3.838461000000000123e+00 -7.662313378974963674e-02
4.052700000000000102e+01 6.298099999999999810e+00 1.429799999999999898e+02 5.518866000000000049e+00 -8.003027132591183923e-02
4.052900000000000347e+01 -6.877900000000000347e+00 1.304199999999999875e+02 9.294909000000000088e-01 -1.704382707823325904e-01
4.052900000000000347e+01 3.045599999999999952e+01 1.373499999999999943e+02 3.250880000000000081e+01 -1.984592831076337910e-02
4.054200000000000159e+01 9.041399999999999437e+00 1.367100000000000080e+02 -1.473939999999999984e+01 -8.005819093247697193e-02
4.054399999999999693e+01 -2.463999999999999968e+00 1.289799999999999898e+02 3.883278999999999898e-02 -1.717441009927199169e-01
4.054399999999999693e+01 5.266700000000000159e+00 1.271599999999999966e+02 1.477179000000000020e+00 -7.657334001792068245e-02
4.054500000000000171e+01 9.456300000000000594e+00 1.412199999999999989e+02 -7.952259000000000411e-01 -8.000001885961931236e-02
4.055199999999999960e+01 2.496600000000000108e+01 1.225000000000000000e+02 -4.853641000000000205e-01 -2.086000886968032153e-01
4.055599999999999739e+01 3.096099999999999852e+01 1.392299999999999898e+02 -5.361390000000000322e-01 -2.204171436327169095e-02
4.055799999999999983e+01 3.052199999999999847e+01 1.364499999999999886e+02 1.453166000000000047e+01 -1.943975403363196880e-02
4.055799999999999983e+01 3.677100000000000080e+01 1.310500000000000114e+02 1.151405999999999930e+00 -2.968854569583443542e-02
4.056099999999999994e+01 4.532899999999999707e+00 1.317599999999999909e+02 -1.148728999999999889e+00 -7.662384389233235782e-02
4.056099999999999994e+01 5.469100000000000072e+00 1.317599999999999909e+02 1.200962000000000085e+00 -7.663849958691129616e-02
4.056199999999999761e+01 5.257399999999999629e+00 1.286399999999999864e+02 1.107137999999999955e+00 -7.659785979123943933e-02
4.056400000000000006e+01 1.527400000000000091e+00 1.296999999999999886e+02 -3.819434999999999913e+00 -7.655901412338421419e-02
4.056400000000000006e+01 3.294500000000000028e+01 1.267800000000000011e+02 -5.175587000000000382e-01 -8.879269858844993785e-03
4.056900000000000261e+01 -7.921999999999999709e+00 1.340000000000000000e+02 4.030886999999999887e+00 -1.707515169583065096e-01
4.056900000000000261e+01 -6.964000000000000412e+00 1.340000000000000000e+02 1.222635000000000005e+01 -1.709933698441008787e-01
4.057000000000000028e+01 3.014300000000000068e+01 1.381299999999999955e+02 9.140164000000000399e+00 -1.968008800878357639e-02
4.057800000000000296e+01 2.444999999999999929e+01 1.226500000000000057e+02 -4.178502000000000050e-01 -2.119965122737944851e-01
4.058200000000000074e+01 1.146700000000000053e+01 1.403100000000000023e+02 1.183548000000000044e+00 -7.997227430955382299e-02
4.058299999999999841e+01 2.938600000000000101e+00 1.315900000000000034e+02 -1.322517000000000031e+01 -7.659997807965612804e-02
4.058299999999999841e+01 3.803900000000000059e+00 1.315900000000000034e+02 -2.833096999999999976e+00 -7.661158625592326410e-02
4.058299999999999841e+01 5.433600000000000207e+00 1.332199999999999989e+02 -1.050869999999999926e+01 -7.665015803370539560e-02
4.058400000000000318e+01 7.168999999999999595e+00 1.252199999999999989e+02 -1.071417000000000064e+00 -7.657928181529261025e-02
4.058400000000000318e+01 8.394399999999999196e+00 1.243700000000000045e+02 -1.274213999999999958e+00 -7.659897023480419231e-02
4.058599999999999852e+01 1.105599999999999916e+00 1.386999999999999886e+02 -4.989260999999999835e-01 -7.663681470174515953e-02
4.060000000000000142e+01 6.513400000000000301e-01 1.394900000000000091e+02 5.307750000000000412e+00 -7.663735243507273365e-02
4.060099999999999909e+01 4.088100000000000023e+01 1.357100000000000080e+02 1.138068999999999953e+01 4.194793028061185799e-03
4.060300000000000153e+01 5.570100000000000051e+00 1.278599999999999994e+02 5.001534000000000368e+00 -7.659199576946922050e-02
4.061200000000000188e+01 1.329100000000000037e+01 1.387199999999999989e+02 -1.912446000000000090e+00 -7.998359742639093994e-02
4.061399999999999721e+01 1.982199999999999918e+01 1.257399999999999949e+02 -7.483137000000000150e+00 -8.043157903395911634e-02
4.061800000000000210e+01 1.027500000000000036e+01 1.353400000000000034e+02 -2.784974000000000061e+01 -8.005260350969525818e-02
4.061899999999999977e+01 1.234800000000000075e+01 1.456399999999999864e+02 -1.680840999999999852e+01 -8.000002813014490954e-02
4.061999999999999744e+01 1.281199999999999939e+01 1.394799999999999898e+02 4.412798000000000442e+00 -7.997593168400569941e-02
4.062199999999999989e+01 1.723699999999999832e+01 1.187600000000000051e+02 -2.559975000000000112e+00 -6.378129324296187563e-02
4.062199999999999989e+01 1.853000000000000114e+01 1.180400000000000063e+02 -6.626738999999999713e+00 2.515809573845350505e-02
4.062400000000000233e+01 3.846000000000000085e+00 1.267300000000000040e+02 9.538603000000000165e+00 -7.653977529906308419e-02
4.062400000000000233e+01 1.458399999999999963e+01 1.375300000000000011e+02 -4.956739999999999924e+00 -8.001544086314792137e-02
4.062700000000000244e+01 3.167599999999999838e+01 1.260100000000000051e+02 -9.999112999999999474e-01 -6.450802939769869834e-03
4.062700000000000244e+01 3.261599999999999966e+01 1.260100000000000051e+02 -1.934981999999999980e+00 -4.640888185468473176e-03
4.062700000000000244e+01 3.261599999999999966e+01 1.275400000000000063e+02 -1.812432000000000087e+01 -8.394642774656816894e-03
4.062899999999999778e+01 1.066999999999999993e+01 1.406899999999999977e+02 3.603485000000000160e-01 -7.998317170219214345e-02
4.062899999999999778e+01 2.529500000000000171e+01 1.217800000000000011e+02 -1.057217999999999991e+00 -2.076778520356016566e-01
4.063600000000000279e+01 6.363199999999999967e+00 1.465699999999999932e+02 1.153104000000000084e+01 -8.000336065308191746e-02
4.063600000000000279e+01 1.578299999999999947e+01 1.467100000000000080e+02 -8.411321999999999965e-01 -8.006710668999693359e-02
4.063600000000000279e+01 1.599200000000000088e+01 1.459799999999999898e+02 4.539373999999999576e+00 -8.007133829284042437e-02
4.063600000000000279e+01 1.718299999999999983e+01 1.453100000000000023e+02 -6.121301999999999577e-01 -8.009703849392053876e-02
4.063700000000000045e+01 8.620200000000000085e-01 1.435200000000000102e+02 -7.808718999999999522e-01 -7.665588185076523120e-02
4.064000000000000057e+01 7.692099999999999937e+00 1.412700000000000102e+02 -1.403675999999999924e+00 -8.002570741972647728e-02
4.064099999999999824e+01 2.635200000000000209e+00 1.308899999999999864e+02 -1.895294000000000167e+01 -7.658813998940627865e-02
4.064099999999999824e+01 4.107300000000000395e+00 1.308899999999999864e+02 4.015032999999999852e+00 -7.660843080018434059e-02
4.064099999999999824e+01 5.737000000000000099e+00 1.325200000000000102e+02 9.561391999999999669e-01 -7.664972224946171864e-02
4.064200000000000301e+01 2.419399999999999906e+01 1.234300000000000068e+02 1.702884000000000064e+00 -2.117868306853076810e-01
4.064200000000000301e+01 2.419399999999999906e+01 1.243799999999999955e+02 1.911242000000000019e+01 -2.097284900681294639e-01
4.064399999999999835e+01 2.671900000000000119e+01 1.226099999999999994e+02 2.482174000000000103e+00 -1.948407193095221812e-01
4.064699999999999847e+01 3.080199999999999960e+01 1.359199999999999875e+02 3.665726000000000084e+01 -2.001810622159091307e-02
4.065400000000000347e+01 1.088899999999999935e+01 1.455500000000000114e+02 -2.535073999999999828e+01 -7.997316679627262948e-02
4.065999999999999659e+01 6.836199999999999832e+00 1.422100000000000080e+02 3.606307999999999847e+00 -8.002895291925740673e-02
4.066100000000000136e+01 2.032100000000000151e+01 1.230799999999999983e+02 4.354320000000000412e+00 2.257869952502849359e-02
4.066599999999999682e+01 4.051700000000000301e+01 1.348300000000000125e+02 1.353787999999999947e+01 3.277784234975756467e-03
4.066799999999999926e+01 1.481000000000000094e+00 1.465800000000000125e+02 -3.659467999999999943e+00 -7.666855303317461623e-02
4.067099999999999937e+01 1.037800000000000011e+01 1.344000000000000057e+02 -1.628734999999999999e+01 -8.006603458679863172e-02
4.067300000000000182e+01 1.483600000000000030e+01 1.413100000000000023e+02 4.129328000000000110e+00 -8.003836196136442094e-02
4.067399999999999949e+01 1.836599999999999966e+01 1.449000000000000057e+02 8.870392000000000721e+00 -8.012385069253838421e-02
4.067600000000000193e+01 2.405900000000000105e+01 1.210300000000000011e+02 -6.578687000000000396e+00 -2.217272397496110048e-01
4.067699999999999960e+01 5.708900000000000086e-01 1.416100000000000136e+02 1.046631000000000000e+01 -7.664675489666500363e-02
4.068299999999999983e+01 1.366000000000000014e+01 1.378700000000000045e+02 -2.168632999999999811e+00 -7.998637877778412564e-02
4.068299999999999983e+01 1.471000000000000085e+01 1.395699999999999932e+02 9.456910999999999845e+00 -8.002845287935569929e-02
4.068399999999999750e+01 3.193400000000000105e+01 1.351599999999999966e+02 -1.779983000000000004e+01 -2.303495262618082337e-02
4.068599999999999994e+01 3.324499999999999744e+01 1.322299999999999898e+02 -7.507315000000000182e+00 -1.626805753409733130e-02
4.068599999999999994e+01 3.411099999999999710e+01 1.322299999999999898e+02 -4.252977999999999703e+00 -1.948788716443923888e-02
4.068900000000000006e+01 1.903800000000000026e+01 1.236400000000000006e+02 5.536297000000000024e-01 -8.032084278770890151e-02
4.069200000000000017e+01 1.452699999999999925e+01 1.360000000000000000e+02 -5.226477000000000039e+00 -8.000074883451113728e-02
4.069200000000000017e+01 -1.984900000000000109e+00 1.327199999999999989e+02 6.080961000000000283e+00 -1.724154708263634650e-01
4.070000000000000284e+01 3.701500000000000057e+01 1.383899999999999864e+02 -1.363663000000000025e+01 -2.423097238649550220e-02
4.070300000000000296e+01 7.155999999999999694e+00 1.469799999999999898e+02 1.085421999999999976e+01 -7.999199114220682805e-02
4.070300000000000296e+01 1.067500000000000071e+01 1.335600000000000023e+02 1.770108000000000104e+01 -8.007461511687630207e-02
4.070900000000000318e+01 8.977699999999999569e-01 1.423899999999999864e+02 7.086814999999999642e-01 -7.665225624923013847e-02
4.070900000000000318e+01 6.208000000000000185e+00 1.379199999999999875e+02 -5.155710999999999489e-01 -7.668485895527857310e-02
4.071000000000000085e+01 -5.235100000000000309e-01 1.293799999999999955e+02 -1.861371000000000109e+00 -6.631064250872750754e-02
4.071200000000000330e+01 2.105699999999999861e+01 1.193900000000000006e+02 -5.300424999999999720e+00 2.405317987342201272e-02
4.071200000000000330e+01 4.475699999999999790e+00 1.300399999999999920e+02 2.285298000000000052e+00 -7.660417836925689783e-02
4.071200000000000330e+01 1.056700000000000000e-01 1.446100000000000136e+02 4.305781999999999776e+00 -7.665468274182456188e-02
4.071200000000000330e+01 1.056700000000000000e-01 1.456599999999999966e+02 1.068085999999999913e+01 -7.665788482518728908e-02
4.071500000000000341e+01 1.875600000000000023e+01 1.478499999999999943e+02 -1.374233000000000038e+00 -8.012107802164949999e-02
4.071500000000000341e+01 2.054400000000000048e+01 1.478499999999999943e+02 5.106862999999999708e+00 -2.022427409349014660e-01
4.071800000000000352e+01 1.438400000000000034e+01 1.404000000000000057e+02 3.760520000000000085e+00 -8.002198063181645282e-02
4.071999999999999886e+01 2.371600000000000108e+01 1.280999999999999943e+02 -2.006024999999999991e+01 -2.064392930560232653e-01
4.072099999999999653e+01 -4.124100000000000321e+00 1.290999999999999943e+02 9.050068000000000001e-01 -1.710236481510010176e-01
4.072200000000000131e+01 2.119600000000000151e+01 1.430200000000000102e+02 5.466758999999999924e-01 -2.027417356028990147e-01
4.072699999999999676e+01 1.869900000000000162e+01 1.243799999999999955e+02 -9.952847999999999473e+00 -8.025194976927851886e-02
4.072800000000000153e+01 5.003400000000000070e+00 1.430200000000000102e+02 1.121213999999999977e+01 -8.004426160697049319e-02
4.072800000000000153e+01 1.694000000000000128e+01 1.224300000000000068e+02 -2.275707999999999842e+00 -6.270338315882761915e-02
4.072899999999999920e+01 3.583100000000000307e+01 1.387199999999999989e+02 -3.039266999999999896e+01 -2.197815944211463368e-02
4.072999999999999687e+01 1.486400000000000077e+01 1.367100000000000080e+02 -4.738527999999999629e+00 -8.001729769979501472e-02
4.073299999999999699e+01 -2.890200000000000102e+00 1.327400000000000091e+02 8.162639000000000422e+00 -1.720658881419939723e-01
4.073700000000000188e+01 -1.797700000000000076e+00 1.343899999999999864e+02 2.506683999999999912e+00 -7.658319119747312997e-02
4.073799999999999955e+01 4.676599999999999646e+00 1.266899999999999977e+02 5.596602999999999994e+00 -7.655384086000691091e-02
4.073899999999999721e+01 5.566399999999999793e+00 1.266500000000000057e+02 2.923732999999999915e+00 -7.657085565818852468e-02
4.074900000000000233e+01 1.185399999999999920e+01 1.395600000000000023e+02 -9.426871000000000556e-02 -7.996850819439130231e-02
4.075099999999999767e+01 9.963699999999999335e+00 1.460200000000000102e+02 -4.914422000000000068e+00 -7.661460803351055615e-02
4.075099999999999767e+01 -1.681499999999999995e+00 1.334199999999999875e+02 6.999839999999999840e+00 -7.657494508441700654e-02
4.075099999999999767e+01 -2.375199999999999978e+00 1.355200000000000102e+02 -3.186676999999999982e-01 -7.658895063012290116e-02
4.075500000000000256e+01 1.459399999999999942e+01 1.197600000000000051e+02 -2.845777000000000001e+00 -6.372464376330524982e-02
4.075500000000000256e+01 1.606200000000000117e+01 1.196400000000000006e+02 -2.768279000000000156e+00 -6.403831255473747819e-02
4.075699999999999790e+01 3.747299999999999898e+01 1.310000000000000000e+02 1.979087999999999958e+00 -3.304880469429468531e-02
4.076200000000000045e+01 1.692299999999999827e+01 1.240799999999999983e+02 -2.827182999999999780e+00 -8.011742084364334437e-02
4.076200000000000045e+01 1.778800000000000026e+01 1.226800000000000068e+02 5.588277999999999857e+00 -7.300331821992787906e-02
4.076200000000000045e+01 1.778800000000000026e+01 1.240799999999999983e+02 -1.033755999999999986e+01 -7.306238277370566414e-02
4.076400000000000290e+01 2.622200000000000131e+01 1.417700000000000102e+02 -5.425430000000000064e+01 -2.001095626325888333e-01
4.076899999999999835e+01 2.184199999999999875e+01 1.263299999999999983e+02 -8.948003999999999181e+00 -2.133882562779131076e-01
4.077000000000000313e+01 4.779099999999999682e+00 1.293400000000000034e+02 1.438444000000000056e+00 -7.660027389775750373e-02
4.077199999999999847e+01 1.356799999999999962e+01 1.344600000000000080e+02 -1.130615000000000059e+01 -7.997683958681275906e-02
4.077300000000000324e+01 2.369600000000000151e+01 1.265199999999999960e+02 -7.451905000000000001e+00 -2.084016046233617414e-01
4.077400000000000091e+01 2.889600000000000080e+01 1.250999999999999943e+02 -2.077028999999999925e+01 -1.880304578925407200e-01
4.077400000000000091e+01 2.115800000000000125e+01 1.205199999999999960e+02 1.388979999999999926e+01 2.584924430146406243e-02
4.077799999999999869e+01 2.627899999999999991e+01 1.218499999999999943e+02 2.165030999999999928e+00 -1.988460913775106642e-01
4.077799999999999869e+01 4.545700000000000074e+00 1.458300000000000125e+02 -7.386820000000000164e+00 -8.002656727215587407e-02
4.077799999999999869e+01 2.254799999999999827e+01 1.274000000000000057e+02 -2.524602000000000146e+01 -2.100293399629490909e-01
4.077799999999999869e+01 2.401999999999999957e+01 1.274000000000000057e+02 -1.476134000000000057e+01 -2.064661207156953115e-01
4.077900000000000347e+01 3.087900000000000134e+01 1.381299999999999955e+02 1.095057000000000080e+01 -2.176372480721187538e-02
4.078000000000000114e+01 2.140899999999999892e+01 1.218100000000000023e+02 9.967007000000000616e+00 2.689745405679686008e-02
4.078099999999999881e+01 1.092800000000000082e+01 1.327199999999999989e+02 4.560157000000000238e+00 -8.008490324521221060e-02
4.078099999999999881e+01 1.211899999999999977e+01 1.320600000000000023e+02 -4.648290000000000077e+01 -8.006449501477481967e-02
4.078099999999999881e+01 1.331000000000000050e+01 1.327199999999999989e+02 -2.874922000000000111e+01 -8.001174842882105565e-02
4.078099999999999881e+01 1.351900000000000013e+01 1.334600000000000080e+02 -2.537939000000000078e+01 -7.999239056977855422e-02
4.078199999999999648e+01 6.680000000000000382e-01 1.295800000000000125e+02 -2.185795000000000154e+00 -6.625155251320503924e-02
4.078300000000000125e+01 4.301899999999999835e+00 1.275499999999999972e+02 3.261619999999999919e+01 -7.656369354640234215e-02
4.078600000000000136e+01 1.912500000000000000e+01 1.486999999999999886e+02 -1.924895000000000023e+00 -8.012395458909910007e-02
4.078600000000000136e+01 2.017500000000000071e+01 1.470000000000000000e+02 7.231245999999999619e+00 -2.025128693463490170e-01
4.078600000000000136e+01 2.017500000000000071e+01 1.486999999999999886e+02 -1.847163000000000110e+00 -2.022729416782955147e-01
4.078900000000000148e+01 -1.618200000000000083e+00 1.289699999999999989e+02 -7.468791000000000180e-01 -6.636504378733372456e-02
4.079500000000000171e+01 3.696300000000000141e-01 1.386999999999999886e+02 2.877542000000000044e+00 -7.663131218446508908e-02
4.079800000000000182e+01 2.487500000000000000e+01 1.210000000000000000e+02 -3.699821000000000026e+00 -2.152877740941882279e-01
4.080100000000000193e+01 -8.067299999999999471e+00 1.315900000000000034e+02 8.756939999999999724e-01 -1.702760208899326277e-01
4.080100000000000193e+01 -1.046399999999999997e+00 1.379900000000000091e+02 -1.098491999999999941e-01 -7.661626717121558516e-02
4.080299999999999727e+01 3.592499999999999716e+01 1.310399999999999920e+02 1.608409000000000089e-01 -2.751192333664143064e-02
4.080799999999999983e+01 1.323099999999999987e+01 1.204099999999999966e+02 -2.285743000000000080e+00 -6.327553108873790189e-02
4.081600000000000250e+01 9.003500000000000725e+00 1.467599999999999909e+02 4.702428000000000274e+00 -7.997107821855557741e-02
4.081900000000000261e+01 2.453300000000000125e+01 1.217999999999999972e+02 -1.591609000000000052e+00 -2.154685759890434260e-01
4.082000000000000028e+01 1.661899999999999977e+01 1.233799999999999955e+02 -4.812198999999999671e+00 -6.269202355044337094e-02
4.082000000000000028e+01 1.809100000000000108e+01 1.233799999999999955e+02 5.613832000000000377e+00 -7.301655343562396538e-02
4.083100000000000307e+01 5.598099999999999632e+00 1.430300000000000011e+02 8.988830999999999349e+00 -8.003627266441523669e-02
4.083400000000000318e+01 4.708000000000000185e+00 1.280699999999999932e+02 9.370255000000000223e+00 -7.658010746053248163e-02
4.083599999999999852e+01 3.473199999999999932e+01 1.318100000000000023e+02 -1.720860999999999974e+00 -2.246691603565044784e-02
4.083899999999999864e+01 2.063899999999999935e+01 1.186200000000000045e+02 -2.452732000000000134e+00 1.906279668996431476e-02
4.084100000000000108e+01 3.225500000000000256e+01 1.283499999999999943e+02 -2.032604000000000077e+00 -1.909916504929043413e-02
4.084100000000000108e+01 3.912899999999999778e+01 1.311100000000000136e+02 1.131599000000000022e+00 -1.464323818445483708e-03
4.084199999999999875e+01 3.944400000000000261e+01 1.379799999999999898e+02 2.166984000000000066e+01 6.326210822591134611e-03
4.084199999999999875e+01 4.076299999999999812e+01 1.372400000000000091e+02 7.342365999999999815e+01 4.886977650055847507e-03
4.084899999999999665e+01 2.877499999999999858e+01 1.242000000000000028e+02 -5.373663999999999774e+00 -1.863307964667937355e-01
4.085000000000000142e+01 3.371199999999999974e+00 1.308899999999999864e+02 -3.162961999999999829e+00 -7.659865455183545446e-02
4.085000000000000142e+01 5.001000000000000334e+00 1.325200000000000102e+02 -2.803926000000000140e+00 -7.663921486713096143e-02
4.085499999999999687e+01 8.634499999999999176e+00 1.475500000000000114e+02 1.867509000000000086e+00 -7.997184109639013383e-02
4.085499999999999687e+01 3.031099999999999905e+00 1.267300000000000040e+02 2.163281999999999983e-01 -6.619186732925862182e-02
4.086500000000000199e+01 2.767899999999999849e+01 1.408000000000000114e+02 -1.500952999999999871e-01 -1.704473736505247861e-02
4.086699999999999733e+01 3.043199999999999861e+01 1.401800000000000068e+02 1.004710999999999999e+01 -2.182499009084001504e-02
4.086699999999999733e+01 3.200300000000000011e+01 1.317500000000000000e+02 -3.475957000000000185e+00 -2.171354617765491532e-02
4.086899999999999977e+01 1.984199999999999875e+01 1.440099999999999909e+02 1.512179000000000073e+01 -8.015977752847931737e-02
4.086999999999999744e+01 1.293999999999999950e+01 1.463400000000000034e+02 -3.227348000000000106e+00 -8.000985093484480615e-02
4.087599999999999767e+01 2.370100000000000051e+01 1.419499999999999886e+02 -1.527410000000000068e+01 -2.016301889967258010e-01
4.088000000000000256e+01 1.530499999999999972e+01 1.397100000000000080e+02 1.673772000000000038e-01 -8.004239443227532946e-02
4.088000000000000256e+01 1.617000000000000171e+01 1.397100000000000080e+02 -1.019406999999999996e+01 -8.006891532684229373e-02
4.088000000000000256e+01 1.617000000000000171e+01 1.411100000000000136e+02 -1.523687999999999931e+00 -8.007039509522438647e-02
4.088199999999999790e+01 -3.274300000000000210e+00 1.289099999999999966e+02 1.003384000000000054e+00 -1.712701471782263618e-01
4.088300000000000267e+01 2.918499999999999872e+01 1.407100000000000080e+02 1.188017999999999930e+01 -1.972386460412071593e-02
4.089900000000000091e+01 2.062800000000000011e+01 1.257000000000000028e+02 -4.234067999999999721e+00 -8.054620955285565764e-02
4.090100000000000335e+01 3.084499999999999886e+01 1.260100000000000051e+02 -9.454740999999999840e-01 5.305580552517629204e-05
4.090299999999999869e+01 2.326000000000000156e+01 1.210300000000000011e+02 -1.532516999999999907e+00 -2.288188859126409069e-01
4.090999999999999659e+01 6.642999999999999794e+00 1.258799999999999955e+02 -5.338777000000000106e-01 -7.658178061638307166e-02
4.090999999999999659e+01 2.280499999999999972e+01 1.265400000000000063e+02 -8.601176999999999850e+00 -2.110674350569324564e-01
4.091499999999999915e+01 3.152199999999999847e+01 1.308600000000000136e+02 5.002476999999999840e+00 -1.864000028799157535e-02
4.091499999999999915e+01 3.299600000000000222e+01 1.374900000000000091e+02 -2.434403000000000095e+00 -2.696500121100695035e-02
4.092000000000000171e+01 3.366999999999999993e+00 1.259599999999999937e+02 -3.261113999999999957e-01 -6.619253674032453405e-02
4.092000000000000171e+01 3.366999999999999993e+00 1.275100000000000051e+02 8.084331999999999852e+00 -7.654850424857931324e-02
4.092000000000000171e+01 4.325000000000000178e+00 1.259599999999999937e+02 9.616885999999999490e-02 -7.653281826743836558e-02
4.092199999999999704e+01 1.164799999999999969e+01 1.455800000000000125e+02 -2.432824000000000098e+01 -7.998278091280459912e-02
4.092499999999999716e+01 3.181099999999999994e+01 1.391999999999999886e+02 -1.643332999999999933e+00 -2.445165299488519933e-02
4.092799999999999727e+01 1.896199999999999974e+01 1.469000000000000057e+02 1.864875000000000060e+00 -8.012570251124298548e-02
4.092900000000000205e+01 1.937900000000000134e+01 1.180000000000000000e+02 -1.747044000000000041e+00 9.059587746841105474e-03
4.093699999999999761e+01 1.444100000000000072e+01 1.468499999999999943e+02 -3.378662999999999972e+00 -8.003770541915899983e-02
4.093800000000000239e+01 1.500200000000000067e+01 1.404099999999999966e+02 2.429279999999999884e+00 -8.003468637345091674e-02
4.093800000000000239e+01 1.647400000000000020e+01 1.404099999999999966e+02 -3.745998999999999857e+00 -8.007759983511579527e-02
4.093800000000000239e+01 8.608800000000000452e+00 1.371999999999999886e+02 2.549269999999999925e+01 -8.005486890639297581e-02
4.093900000000000006e+01 5.663199999999999790e+00 1.465099999999999909e+02 -8.890498000000000012e-01 -8.000930736827102652e-02
4.094200000000000017e+01 9.023699999999999832e+00 1.407299999999999898e+02 -1.602969000000000088e+00 -8.000729934069963911e-02
4.094200000000000017e+01 9.888899999999999579e+00 1.407299999999999898e+02 -6.919359000000000481e-01 -7.999300042227751317e-02
4.094299999999999784e+01 4.802299999999999902e-01 1.437400000000000091e+02 6.440396000000000454e-01 -7.665466920130424577e-02
4.094400000000000261e+01 2.255499999999999972e+01 1.422899999999999920e+02 3.711182999999999765e+01 -2.022447618579110706e-01
4.094700000000000273e+01 3.306799999999999784e+01 1.318100000000000023e+02 -2.039023999999999948e+00 -1.638287049797885683e-02
4.094700000000000273e+01 3.393399999999999750e+01 1.318100000000000023e+02 -1.823183999999999916e+00 -1.979285499293424386e-02
4.094800000000000040e+01 1.671099999999999852e+01 1.194300000000000068e+02 -2.716469000000000023e+00 -6.366334616305915906e-02
4.095199999999999818e+01 1.033799999999999919e+01 1.213100000000000023e+02 1.364794999999999980e+00 -6.272792996437334678e-02
4.095300000000000296e+01 4.323999999999999844e+00 1.425500000000000114e+02 3.370770999999999962e+00 -8.005503412649089823e-02
4.095400000000000063e+01 8.225799999999999557e+00 1.379699999999999989e+02 3.242551999999999879e+00 -8.005108424980329762e-02
4.095499999999999829e+01 4.004899999999999949e+01 1.340699999999999932e+02 5.656221000000000387e+00 1.518888432087814452e-03
4.096099999999999852e+01 3.226400000000000290e+01 1.292199999999999989e+02 1.535757000000000083e+01 -2.097962190863804713e-02
4.096600000000000108e+01 4.344100000000000072e+00 1.410900000000000034e+02 9.000756000000000867e+00 -7.667621236322094691e-02
4.096600000000000108e+01 2.358899999999999864e+01 1.202699999999999960e+02 -1.028842000000000034e+00 -2.327386307681327815e-01
4.096600000000000108e+01 2.358899999999999864e+01 1.217900000000000063e+02 -1.795069000000000026e+00 -2.229324597337179747e-01
4.096600000000000108e+01 2.452899999999999991e+01 1.202699999999999960e+02 -9.219313000000000091e-01 -2.242846189332536877e-01
4.096800000000000352e+01 -6.593299999999999716e-01 1.387400000000000091e+02 6.065686000000000133e-01 -7.662405616144521425e-02
4.096999999999999886e+01 9.705199999999999938e-02 1.408499999999999943e+02 3.022457000000000171e+00 -7.664061708234233550e-02
4.097200000000000131e+01 3.040000000000000036e+00 1.461999999999999886e+02 -1.390038999999999980e+01 -8.003777481045692976e-02
4.097899999999999920e+01 3.520600000000000307e+01 1.310500000000000114e+02 -4.806435000000000013e-01 -2.535089937815272407e-02
4.098299999999999699e+01 1.199799999999999933e+01 1.211700000000000017e+02 -2.512715000000000032e+00 -6.297345156809983080e-02
4.098400000000000176e+01 -8.440899999999999181e+00 1.319699999999999989e+02 9.429859000000000435e-01 -1.702117181664685175e-01
4.098700000000000188e+01 2.328399999999999892e+01 1.274000000000000057e+02 -2.404369000000000156e+01 -2.087152890241367464e-01
