7.602000000000000313e+00 1.455400000000000027e+01 4.266899999999999693e+01 -2.992901999999999951e+00 -4.156949256530969583e-01
7.602000000000000313e+00 1.478100000000000058e+01 4.186999999999999744e+01 -1.571555999999999953e+00 -4.156010068184483042e-01
7.602000000000000313e+00 1.478100000000000058e+01 4.346800000000000352e+01 -2.671161999999999814e+00 -4.160473182222025335e-01
7.602999999999999758e+00 1.461200000000000010e+01 2.808200000000000074e+01 1.677003999999999939e+00 1.364075824945866211e-01
7.603100000000000414e+00 2.839799999999999969e+01 3.858100000000000307e+01 -8.709644000000000119e+01 3.597182946426653177e-02
7.631899999999999906e+00 2.113100000000000023e+01 3.685300000000000153e+01 -3.511992999999999920e+00 -1.836580139460068928e-01
7.641700000000000159e+00 2.935200000000000031e+01 4.218399999999999750e+01 -3.357500000000000284e+01 -9.625966349683752477e-02
7.649300000000000210e+00 1.318299999999999983e+01 3.329200000000000159e+01 -1.701983999999999941e+00 1.086906692747614533e-01
7.653900000000000148e+00 1.584900000000000020e+01 5.041299999999999670e+01 -3.451877000000000084e+00 -3.808293510037241147e-01
7.656699999999999839e+00 2.236499999999999844e+01 3.571000000000000085e+01 -2.453304999999999847e+00 -1.849673249932466956e-01
7.657300000000000217e+00 2.536499999999999844e+01 3.662599999999999767e+01 -1.248865999999999943e+01 -1.867836716579681089e-01
7.666900000000000048e+00 2.367500000000000071e+01 3.500099999999999767e+01 -5.459661999999999793e+00 -1.867240758635221876e-01
7.678799999999999848e+00 1.585899999999999999e+01 5.140800000000000125e+01 -3.149100999999999928e+00 -3.809986136525471689e-01
7.684999999999999609e+00 3.035200000000000031e+01 5.143099999999999739e+01 6.686677000000000426e+00 -1.163861922715467845e-01
7.693500000000000227e+00 1.516999999999999993e+01 3.217199999999999704e+01 -2.103844000000000047e+00 -1.410540652679433959e-01
7.696900000000000297e+00 1.302299999999999969e+01 3.763799999999999812e+01 6.235081000000000095e+00 -1.453549949719507572e-01
7.698599999999999888e+00 2.892000000000000171e+01 4.021800000000000352e+01 3.079822999999999866e-01 -9.697556475664373399e-02
7.700999999999999623e+00 2.956899999999999906e+01 4.744899999999999807e+01 -4.737366000000000099e+01 -1.246399001179070154e-01
7.700999999999999623e+00 2.977799999999999869e+01 4.818500000000000227e+01 -1.265099999999999980e+01 -1.238887804512338875e-01
7.705700000000000216e+00 2.030600000000000094e+01 4.973700000000000188e+01 -5.370410999999999824e+00 -3.179374321626508015e-01
7.706000000000000405e+00 2.490500000000000114e+01 3.582399999999999807e+01 -8.468866000000000227e+00 -8.027828554954138940e-02
7.706900000000000084e+00 1.850799999999999912e+01 3.518900000000000006e+01 1.803086000000000055e+01 -7.324515185287826073e-03
7.706900000000000084e+00 1.871699999999999875e+01 3.592499999999999716e+01 7.759667999999999566e+00 -3.812854310343962577e-02
7.710600000000000342e+00 1.568699999999999939e+01 3.044600000000000151e+01 -2.684438999999999798e+00 1.252897156541702417e-01
7.710600000000000342e+00 1.568699999999999939e+01 3.184600000000000009e+01 -2.404218999999999884e+00 -1.454834887008121802e-01
7.713899999999999757e+00 1.455899999999999928e+01 4.958899999999999864e+01 -2.809206999999999788e+00 -3.806334090941095316e-01
7.713899999999999757e+00 1.455899999999999928e+01 5.217499999999999716e+01 -9.900626000000000815e+00 -3.810783666768592370e-01
7.714199999999999946e+00 2.385600000000000165e+01 5.132900000000000063e+01 -2.540767999999999915e+01 1.064295418578872637e-01
7.716499999999999915e+00 1.350999999999999979e+01 3.630599999999999739e+01 -6.003852000000000189e+00 -1.554684332384986267e-01
7.730599999999999916e+00 1.951599999999999824e+01 2.856899999999999906e+01 -1.088644000000000034e+01 -1.647164922222240091e-01
7.734799999999999898e+00 2.144200000000000017e+01 5.061999999999999744e+01 6.538757999999999626e+00 -1.390857483942552486e-01
7.753000000000000114e+00 1.332900000000000063e+01 5.041199999999999903e+01 -3.784959999999999880e+00 -3.807632545566164151e-01
7.753000000000000114e+00 1.332900000000000063e+01 5.135199999999999676e+01 -5.984308999999999656e+00 -3.809238949772414951e-01
7.756000000000000227e+00 2.532300000000000040e+01 5.076899999999999835e+01 -3.074271999999999849e+01 1.065250443774377748e-01
7.756000000000000227e+00 2.651399999999999935e+01 5.143299999999999983e+01 5.964453999999999922e+00 1.072183331440639958e-01
7.756300000000000416e+00 2.282000000000000028e+01 5.166499999999999915e+01 9.080201999999999884e+00 1.063771012225604579e-01
7.759999999999999787e+00 1.811799999999999855e+01 2.623300000000000054e+01 2.163472000000000151e+01 9.141883981992540709e-02
7.759999999999999787e+00 1.941100000000000136e+01 2.695400000000000063e+01 -8.118121000000000365e-01 -1.540197189817242296e-01
7.759999999999999787e+00 1.963800000000000168e+01 2.775300000000000011e+01 -1.966062000000000154e+01 -1.626113995125504919e-01
7.767699999999999605e+00 1.265399999999999991e+01 3.848799999999999955e+01 2.487685000000000102e+01 -1.398660567523606624e-01
7.768900000000000361e+00 1.435999999999999943e+01 2.951599999999999824e+01 -6.482430000000000136e-01 1.155801886067230333e-01
7.768900000000000361e+00 1.599000000000000021e+01 3.114600000000000080e+01 -6.549565000000000303e+00 1.231541715646365664e-01
7.774799999999999933e+00 1.320700000000000074e+01 3.700600000000000023e+01 1.334529999999999994e+01 -1.492777948105201424e-01
7.777999999999999581e+00 2.742899999999999849e+01 5.399900000000000233e+01 1.221631000000000000e+01 -1.155813429819504135e-01
7.777999999999999581e+00 2.993700000000000117e+01 5.399900000000000233e+01 3.323017999999999716e+01 -1.131947862921877934e-01
7.778500000000000192e+00 3.008899999999999864e+01 5.304099999999999682e+01 2.238301999999999836e+01 -1.141974871591692892e-01
7.785999999999999588e+00 1.899200000000000088e+01 2.964799999999999969e+01 -1.640642000000000067e+01 2.363045072340527047e-02
7.793800000000000061e+00 1.451900000000000013e+01 3.645300000000000296e+01 -9.778392999999999669e-01 -1.571439662220792122e-01
7.796999999999999709e+00 2.965700000000000003e+01 4.649199999999999733e+01 -2.303559999999999874e+01 -1.256129100065289939e-01
7.813799999999999635e+00 2.826899999999999835e+01 4.415400000000000347e+01 -1.396352000000000082e+01 -1.284721162163834085e-01
7.817899999999999849e+00 2.868299999999999983e+01 5.483899999999999864e+01 1.029060999999999950e+02 -1.134738022191964790e-01
7.822000000000000064e+00 2.675799999999999912e+01 5.228900000000000148e+01 4.239123000000000197e+00 1.077766351473817552e-01
7.822000000000000064e+00 2.701200000000000045e+01 5.318299999999999983e+01 1.055649000000000015e+01 1.082033054078219703e-01
7.822000000000000064e+00 3.015800000000000125e+01 5.228900000000000148e+01 7.498927000000000120e+00 -1.151119154527002336e-01
7.826900000000000190e+00 1.777400000000000091e+01 4.938700000000000045e+01 -5.268779999999999575e+00 -1.890822308068821900e-01
7.830599999999999561e+00 1.730600000000000094e+01 4.607900000000000063e+01 2.974866000000000099e+01 -2.785081761205601691e-01
7.830700000000000216e+00 1.389199999999999946e+01 3.291400000000000148e+01 -5.176998000000000211e+00 1.009180785576878348e-01
7.833000000000000185e+00 1.515700000000000003e+01 4.107600000000000051e+01 -1.020627000000000062e-01 -4.156573582463884975e-01
7.834999999999999964e+00 1.579599999999999937e+01 3.735799999999999699e+01 2.143096999999999852e+01 -1.534498706646609256e-01
7.835899999999999643e+00 1.061999999999999922e+01 3.896300000000000097e+01 4.867841999999999558e+00 -1.340988222023360987e-01
7.836599999999999788e+00 1.867599999999999838e+01 3.040899999999999892e+01 -5.264571000000000112e+00 1.094242355290664728e-02
7.839699999999999669e+00 1.472899999999999920e+01 3.036599999999999966e+01 -2.065582000000000029e+00 1.141814307139252804e-01
7.843200000000000394e+00 2.663200000000000145e+01 3.766199999999999903e+01 -1.785436999999999941e+01 4.508955097341704743e-02
7.855000000000000426e+00 3.012399999999999878e+01 4.885399999999999920e+01 7.439907000000000048e-01 -1.218141907612994013e-01
7.855000000000000426e+00 3.037800000000000011e+01 4.974799999999999756e+01 1.305241000000000096e+00 -1.193751935944600551e-01
7.867399999999999949e+00 1.808399999999999963e+01 5.015999999999999659e+01 -4.144786999999999999e+00 -1.914057346973073170e-01
7.877100000000000435e+00 1.659600000000000009e+01 5.013400000000000034e+01 -2.632257000000000069e+00 -1.868308109292525221e-01
7.881099999999999994e+00 1.672800000000000153e+01 2.680900000000000105e+01 1.982656999999999892e+00 2.056697187415367778e-01
7.885600000000000165e+00 2.856800000000000139e+01 4.508200000000000074e+01 -1.108004000000000033e+01 -1.276857106964331967e-01
7.886899999999999800e+00 1.906400000000000006e+01 5.021099999999999852e+01 -2.047747000000000028e+01 -1.947048176937792030e-01
7.906200000000000117e+00 2.787699999999999889e+01 3.778799999999999670e+01 -3.327268000000000114e+01 4.037358630411076732e-02
7.907799999999999940e+00 3.023999999999999844e+01 5.062800000000000011e+01 4.378541000000000238e+00 -1.176965940916664816e-01
7.911500000000000199e+00 1.178100000000000058e+01 3.325000000000000000e+01 1.912373000000000101e+00 1.243299379197308208e-01
7.918300000000000338e+00 1.243500000000000050e+01 3.913499999999999801e+01 3.235656999999999783e+00 -1.360062256407133241e-01
7.926000000000000156e+00 2.850600000000000023e+01 4.332900000000000063e+01 -1.352885999999999989e+01 -1.294438169710602216e-01
7.926000000000000156e+00 1.783399999999999963e+01 4.844800000000000040e+01 -2.677200000000000024e+00 -1.874130257322343396e-01
7.927100000000000257e+00 1.794500000000000028e+01 4.765100000000000335e+01 -5.944209999999999772e-01 -2.804748205483457157e-01
7.927699999999999747e+00 1.513700000000000045e+01 2.723199999999999932e+01 9.732813999999999410e+00 1.532364076639047001e-01
7.935100000000000264e+00 2.291600000000000037e+01 3.496600000000000108e+01 -1.645038999999999918e+00 -1.852718347730054060e-01
7.952700000000000102e+00 1.248300000000000054e+01 3.335099999999999909e+01 -9.706938999999999984e-01 1.175921499202411125e-01
7.958099999999999952e+00 9.103199999999999292e+00 3.423799999999999955e+01 -1.751505000000000090e+00 1.401926606623953575e-01
7.967900000000000205e+00 1.855699999999999861e+01 3.465500000000000114e+01 2.436054000000000030e+01 -8.384247728151501822e-03
7.967900000000000205e+00 1.876599999999999824e+01 3.285699999999999932e+01 2.054412000000000127e+00 -3.766673331355658953e-03
7.967900000000000205e+00 1.876599999999999824e+01 3.391899999999999693e+01 2.444789000000000101e+01 -6.286727973682841586e-03
7.977999999999999758e+00 1.525399999999999956e+01 3.114600000000000080e+01 -2.740898000000000057e+00 -1.483523498899049498e-01
7.994100000000000428e+00 1.048000000000000043e+01 3.248599999999999710e+01 -1.862380999999999898e-01 1.383962585689177682e-01
7.996299999999999741e+00 2.443499999999999872e+01 3.506400000000000006e+01 -9.500467000000000439e+00 -1.871117813808454988e-01
8.003999999999999559e+00 9.244699999999999918e+00 3.801200000000000045e+01 -8.444310000000000427e-01 -1.343577510664834274e-01
8.018000000000000682e+00 1.631500000000000128e+01 4.467499999999999716e+01 -1.243600999999999956e+01 -9.217217793736272313e-02
8.018000000000000682e+00 1.666000000000000014e+01 4.545799999999999841e+01 6.889620999999999995e+00 -2.764485295888073901e-01
8.027499999999999858e+00 1.660200000000000031e+01 5.117199999999999704e+01 -7.739151999999999809e+00 -1.886413050662607838e-01
8.033400000000000318e+00 2.589499999999999957e+01 3.742699999999999960e+01 -1.428682000000000052e+01 4.813687051198494576e-02
8.034000000000000696e+00 9.226000000000000867e+00 3.332600000000000051e+01 -1.292975999999999903e+00 1.438581728454122466e-01
8.043300000000000338e+00 1.379899999999999949e+01 4.965200000000000102e+01 -2.802639999999999798e+00 -3.806251641654807005e-01
8.043300000000000338e+00 1.531900000000000084e+01 4.965200000000000102e+01 -3.874286000000000119e+00 -3.806637446389913304e-01
8.051899999999999835e+00 1.539100000000000001e+01 5.221500000000000341e+01 -1.647205999999999904e+01 -3.811133359999770431e-01
8.064500000000000668e+00 2.043100000000000094e+01 3.712100000000000222e+01 -7.253364000000000367e+00 -2.780566219525300031e-01
8.064500000000000668e+00 2.162199999999999989e+01 3.645700000000000074e+01 -1.988274000000000097e+00 -1.833791367239567538e-01
8.064999999999999503e+00 1.547499999999999964e+01 3.955100000000000193e+01 7.094740999999999964e+00 -1.039991069266348739e-01
8.071699999999999875e+00 1.531400000000000006e+01 4.389900000000000091e+01 -7.794387000000000398e+00 -4.165595131620796754e-01
8.074199999999999378e+00 1.574900000000000055e+01 3.871000000000000085e+01 3.545723000000000180e+00 -1.437066367587674365e-01
8.076499999999999346e+00 1.734799999999999898e+01 5.015999999999999659e+01 -2.422203000000000106e+00 -1.889987342464252984e-01
8.093999999999999417e+00 2.800100000000000122e+01 3.901400000000000290e+01 -4.189390000000000214e+01 3.609033926219427230e-02
8.098000000000000753e+00 1.773900000000000077e+01 4.677900000000000347e+01 4.479091000000000378e+00 -2.793961293443957272e-01
8.110200000000000742e+00 1.363799999999999990e+01 5.204200000000000159e+01 -7.472172999999999732e+00 -3.810422910461525592e-01
8.118499999999999162e+00 1.247499999999999964e+01 3.996500000000000341e+01 -3.744870000000000143e-01 -1.322369709145547190e-01
8.124700000000000699e+00 2.196999999999999886e+01 5.159400000000000119e+01 8.959777000000000768e+00 1.064288816954086780e-01
8.124700000000000699e+00 2.367000000000000171e+01 5.159400000000000119e+01 -6.935645000000000060e+00 1.069020801372504159e-01
8.132099999999999440e+00 8.809300000000000352e+00 3.714500000000000313e+01 9.785144000000000064e-01 1.317666896956385392e-01
8.145599999999999952e+00 1.024200000000000088e+01 3.923299999999999699e+01 -5.422428999999999721e-01 -1.312427210028737357e-01
8.167500000000000426e+00 1.987600000000000122e+01 5.035199999999999676e+01 -2.045535000000000103e+00 -3.175355453373048253e-01
8.167500000000000426e+00 2.074200000000000088e+01 5.035199999999999676e+01 -4.747978999999999949e-01 -3.193216395066414970e-01
8.189799999999999969e+00 1.358200000000000074e+01 3.825800000000000267e+01 1.003556999999999988e+01 -1.407131653097737356e-01
8.199500000000000455e+00 1.851300000000000168e+01 3.189799999999999969e+01 -3.135759000000000185e+00 -5.004935187181766901e-03
8.199500000000000455e+00 1.872200000000000131e+01 3.116199999999999903e+01 -3.879532999999999898e+00 3.047568477778408156e-04
8.224999999999999645e+00 8.502000000000000668e+00 3.614200000000000301e+01 3.760225999999999846e+00 1.364467736375752915e-01
8.227299999999999613e+00 1.432499999999999929e+01 3.242300000000000182e+01 2.881651999999999880e+00 9.524037460655376819e-02
8.229699999999999349e+00 1.735800000000000054e+01 2.652299999999999969e+01 1.742061000000000082e+00 5.267059567683063381e-02
8.229699999999999349e+00 1.887800000000000011e+01 2.652299999999999969e+01 1.091982999999999926e+01 7.966356314030162422e-02
8.243000000000000327e+00 1.156799999999999962e+01 3.989699999999999847e+01 -8.589584000000000330e+00 -1.305555233905469625e-01
8.249900000000000233e+00 1.424600000000000044e+01 3.092899999999999849e+01 3.988116999999999912e-01 8.590931554438777096e-02
8.250500000000000611e+00 2.913200000000000145e+01 4.604099999999999682e+01 -7.591993999999999687e+00 -1.272485809618104924e-01
8.256999999999999673e+00 2.820400000000000063e+01 5.429500000000000171e+01 1.626080999999999932e+01 -1.140859486234293146e-01
8.256999999999999673e+00 2.916199999999999903e+01 5.429500000000000171e+01 5.213709000000000060e+01 -1.131503167501499013e-01
8.256999999999999673e+00 1.737099999999999866e+01 5.093699999999999761e+01 2.453037000000000134e-01 -1.903315314918884726e-01
8.267699999999999605e+00 1.423000000000000043e+01 3.709100000000000108e+01 1.067009000000000007e+01 -1.489947240100055470e-01
8.267699999999999605e+00 1.509600000000000009e+01 3.709100000000000108e+01 1.197361000000000075e+01 -1.514041693393564092e-01
8.268700000000000827e+00 8.601000000000000867e+00 3.536899999999999977e+01 6.380829000000000084e-01 1.393367992502337616e-01
8.271599999999999397e+00 1.471000000000000085e+01 3.961599999999999966e+01 6.043619999999999770e+00 -1.363916543522340485e-01
8.281700000000000728e+00 1.492699999999999960e+01 3.881000000000000227e+01 1.425428999999999924e+01 -1.403498334356169108e-01
8.283500000000000085e+00 1.863100000000000023e+01 5.070199999999999818e+01 -5.913940000000000197e+00 -1.938849083256702355e-01
8.285600000000000520e+00 1.462800000000000011e+01 3.172299999999999898e+01 -6.122546999999999712e-02 8.698298072448823470e-02
8.287900000000000489e+00 1.332900000000000063e+01 3.902000000000000313e+01 2.729466000000000037e+01 -1.361246340527415832e-01
8.300499999999999545e+00 2.614499999999999957e+01 5.110499999999999687e+01 1.289600000000000080e+00 1.075462394990432113e-01
8.301999999999999602e+00 1.472300000000000075e+01 4.156600000000000250e+01 -6.139307000000000514e-01 -4.155980664867495733e-01
8.307000000000000384e+00 2.906700000000000017e+01 4.134499999999999886e+01 -1.434638999999999953e+01 -9.959395100503594389e-02
8.317299999999999471e+00 1.700000000000000000e+01 4.959700000000000131e+01 -2.342131000000000185e+00 -1.867079537436998060e-01
8.323900000000000077e+00 1.475999999999999979e+01 4.064300000000000068e+01 6.992137999999999964e-01 -4.152984568498704343e-01
8.326000000000000512e+00 1.392699999999999960e+01 3.779099999999999682e+01 2.458514999999999873e+01 -1.433320336491128999e-01
8.326000000000000512e+00 1.539899999999999913e+01 3.779099999999999682e+01 1.174699000000000026e+01 -1.469753869799413082e-01
8.328699999999999548e+00 9.769999999999999574e+00 3.886200000000000188e+01 1.249045000000000016e-01 -1.308020651521473454e-01
8.330000000000000071e+00 9.705000000000000071e+00 3.255100000000000193e+01 -1.725643000000000038e+00 1.472329989302093578e-01
8.330000000000000071e+00 1.125500000000000078e+01 3.255100000000000193e+01 -3.644707999999999837e-01 1.341066559479065501e-01
8.349299999999999500e+00 1.291600000000000037e+01 3.285999999999999943e+01 -1.131555000000000089e+00 1.148950763402447617e-01
8.358700000000000685e+00 1.296000000000000085e+01 3.986999999999999744e+01 8.207148999999999361e+00 -1.320101777036015445e-01
8.362000000000000099e+00 1.484399999999999942e+01 4.313900000000000290e+01 -2.734954999999999803e+00 -4.161579855713867238e-01
8.365000000000000213e+00 1.387899999999999956e+01 2.899099999999999966e+01 -1.954393000000000102e-01 6.958143694768734178e-02
8.365000000000000213e+00 1.387899999999999956e+01 3.004100000000000037e+01 2.091884999999999994e+00 8.391376852330824365e-02
8.369600000000000151e+00 1.469699999999999918e+01 4.219500000000000028e+01 -2.293581000000000092e+00 -4.157959161464296338e-01
8.382999999999999119e+00 8.714700000000000557e+00 3.447899999999999920e+01 -1.242539999999999978e+00 1.434216381982321709e-01
8.391999999999999460e+00 2.969800000000000040e+01 4.742300000000000182e+01 -8.984193999999999791e-01 -1.257377569156503672e-01
8.393299999999999983e+00 2.714099999999999824e+01 3.835600000000000165e+01 -1.242704999999999949e+01 4.132356148073113022e-02
8.394800000000000040e+00 1.070400000000000063e+01 3.994500000000000028e+01 -3.599489000000000161e+00 -1.286586846109319671e-01
8.395300000000000651e+00 1.924299999999999855e+01 3.335999999999999943e+01 1.141332000000000058e+01 -6.159951555454418887e-03
8.398600000000000065e+00 2.886100000000000065e+01 4.052199999999999847e+01 -8.236833000000000737e+00 -1.004612056855745672e-01
8.399599999999999511e+00 1.888899999999999935e+01 3.618299999999999983e+01 7.664616999999999791e+00 -3.038718323750339706e-02
8.403700000000000614e+00 1.613599999999999923e+01 5.189800000000000324e+01 -1.040939999999999976e+01 -3.810973500856579266e-01
8.403999999999999915e+00 2.214699999999999847e+01 3.546800000000000352e+01 -1.111766999999999950e+00 -1.832651777158716688e-01
8.404099999999999682e+00 2.367500000000000071e+01 3.467600000000000193e+01 -4.345227000000000395e+00 -1.853327315788849128e-01
8.407000000000000028e+00 2.903099999999999881e+01 4.288400000000000034e+01 -1.413669999999999938e+01 -1.311934658374587226e-01
8.415399999999999991e+00 1.828300000000000125e+01 5.104299999999999926e+01 2.010091000000000072e+00 -1.932403874173921621e-01
8.422700000000000742e+00 1.955300000000000082e+01 2.909499999999999886e+01 -6.829716000000000342e+00 2.670203982636663517e-02
8.423500000000000654e+00 1.852899999999999991e+01 3.510799999999999699e+01 3.438522999999999996e+01 -4.322015984774162101e-02
8.442800000000000082e+00 2.946999999999999886e+01 5.364200000000000301e+01 2.350767000000000095e+01 -1.133713599039886805e-01
8.445000000000000284e+00 1.940200000000000102e+01 3.008800000000000097e+01 -8.641659000000000423e-01 1.196533801852319237e-02
8.450599999999999667e+00 1.582399999999999984e+01 4.427900000000000347e+01 -8.942047000000000523e+00 -4.170246783333327878e-01
8.452999999999999403e+00 1.454100000000000037e+01 2.771300000000000097e+01 5.035159000000000162e-01 1.127890762205594061e-01
8.452999999999999403e+00 1.598700000000000010e+01 2.690700000000000003e+01 1.596451000000000064e+00 1.646833714964766882e-01
8.459699999999999775e+00 1.377999999999999936e+01 3.982600000000000051e+01 3.508621000000000212e+00 -1.329437153589323461e-01
8.465999999999999304e+00 2.496799999999999997e+01 3.549499999999999744e+01 -2.868387999999999849e+01 -1.834214588118912304e-01
8.465999999999999304e+00 2.519500000000000028e+01 3.629399999999999693e+01 -2.342371999999999943e+01 -1.857786540419203436e-01
8.479100000000000747e+00 1.431199999999999939e+01 5.258299999999999841e+01 -1.112719000000000058e+01 -3.811465375578659276e-01
8.491400000000000503e+00 1.200300000000000011e+01 3.273400000000000176e+01 -1.038338999999999901e+00 1.268640830841981648e-01
8.492000000000000881e+00 2.532300000000000040e+01 5.097800000000000153e+01 -8.948328000000000060e+00 1.074446822211999608e-01
8.496999999999999886e+00 1.406499999999999950e+01 3.902000000000000313e+01 1.278860000000000063e+01 -1.363921349114837478e-01
8.497099999999999653e+00 1.973100000000000165e+01 3.685300000000000153e+01 -1.990931000000000006e+00 -2.969689717453106170e-01
8.497099999999999653e+00 2.113100000000000023e+01 3.685300000000000153e+01 -2.279147000000000034e+00 -1.821699197853135777e-01
8.497500000000000497e+00 1.690599999999999881e+01 5.189500000000000313e+01 -4.308235000000000259e-01 -1.904772594621671478e-01
8.501400000000000290e+00 1.348399999999999999e+01 3.243200000000000216e+01 1.496507000000000032e+00 1.075987195928552465e-01
8.512999999999999901e+00 1.303899999999999970e+01 5.088199999999999790e+01 -1.489166999999999952e+01 -3.808434553469596251e-01
8.512999999999999901e+00 1.326600000000000001e+01 5.008299999999999841e+01 -3.176956000000000113e+00 -3.806980373650187266e-01
8.512999999999999901e+00 1.455899999999999928e+01 4.936200000000000188e+01 -1.193360999999999983e+01 -3.805762470358305949e-01
8.519999999999999574e+00 1.934799999999999898e+01 2.728300000000000125e+01 -1.224868000000000023e+01 5.782342837578920147e-02
8.526300000000000878e+00 2.992999999999999972e+01 4.828099999999999881e+01 4.944358999999999837e-01 -1.228062815748625081e-01
8.533300000000000551e+00 1.109800000000000075e+01 4.065699999999999648e+01 -2.355859000000000147e+00 -1.267851787614556747e-01
8.533300000000000551e+00 1.203800000000000026e+01 4.065699999999999648e+01 -4.303151999999999866e+00 -1.277493384206131455e-01
8.533599999999999852e+00 2.531899999999999906e+01 3.720100000000000051e+01 -2.727916000000000096e+01 5.096518108047484036e-02
8.535000000000000142e+00 1.466300000000000026e+01 3.779099999999999682e+01 1.203190999999999988e+01 -1.439662868987868771e-01
8.555899999999999395e+00 1.379299999999999926e+01 3.171000000000000085e+01 2.379227999999999899e-01 1.003072266310498506e-01
8.559100000000000819e+00 1.811799999999999855e+01 2.646000000000000085e+01 3.857423000000000002e+01 5.820755131650352798e-02
8.561400000000000787e+00 1.948199999999999932e+01 2.820700000000000074e+01 -4.213797999999999888e+01 3.824714895617416233e-02
8.564500000000000668e+00 2.253600000000000136e+01 3.460799999999999699e+01 -2.814362000000000030e+00 -1.834136594194800407e-01
8.578099999999999170e+00 1.693499999999999872e+01 4.630700000000000216e+01 3.672787000000000024e+00 -2.766638182246646815e-01
8.581699999999999662e+00 1.789600000000000080e+01 5.178699999999999903e+01 2.392132000000000147e+00 -1.931141600430880678e-01
8.618399999999999395e+00 1.742000000000000171e+01 4.887599999999999767e+01 -2.754497000000000195e+00 -1.863825324667522099e-01
8.627100000000000435e+00 1.767800000000000082e+01 4.721800000000000352e+01 3.132331999999999894e+00 -2.787411366292754655e-01
8.627100000000000435e+00 1.767800000000000082e+01 4.808400000000000318e+01 -4.584539000000000364e+00 -1.855424254818621443e-01
8.650000000000000355e+00 2.282000000000000028e+01 5.191899999999999693e+01 7.021033000000000079e+00 1.072880997061201463e-01
8.650000000000000355e+00 2.429599999999999937e+01 5.123700000000000188e+01 -2.718218999999999852e+01 1.074285155629935984e-01
8.654500000000000526e+00 1.628699999999999903e+01 4.963499999999999801e+01 -2.505835999999999952e+00 -3.806988802462304977e-01
8.662300000000000111e+00 1.665800000000000125e+01 2.679100000000000037e+01 1.154884000000000022e+00 1.763501648808957767e-01
8.667899999999999494e+00 1.882400000000000162e+01 3.422200000000000131e+01 5.310490999999999673e+01 -2.411709033102566249e-02
8.672000000000000597e+00 2.708299999999999841e+01 5.281400000000000006e+01 2.589780999999999977e+01 1.089953783737867277e-01
8.672000000000000597e+00 2.983299999999999841e+01 5.089800000000000324e+01 1.169379999999999953e+01 -1.167484431913651255e-01
8.672000000000000597e+00 2.983299999999999841e+01 5.176400000000000290e+01 1.709416999999999831e+01 -1.152642284897233277e-01
8.672000000000000597e+00 2.983299999999999841e+01 5.281400000000000006e+01 3.650912999999999897e+01 -1.137293518445719187e-01
8.672100000000000364e+00 2.116300000000000026e+01 5.115999999999999659e+01 4.328484999999999694e+00 -1.386731929999603097e-01
8.683099999999999596e+00 2.962300000000000111e+01 4.643800000000000239e+01 -2.508191000000000059e+00 -1.274108031706008004e-01
8.689000000000000057e+00 2.162900000000000134e+01 3.314000000000000057e+01 -3.769320000000000004e+00 -2.790434020272880566e-01
8.699500000000000455e+00 2.855799999999999983e+01 4.364999999999999858e+01 -1.543647999999999954e+01 -1.313029386630846229e-01
8.705000000000000071e+00 3.005300000000000082e+01 4.922299999999999898e+01 3.042412999999999812e+00 -1.199425769408681841e-01
8.705000000000000071e+00 3.005300000000000082e+01 5.027300000000000324e+01 1.116545999999999950e+01 -1.176143228356161530e-01
8.709300000000000708e+00 2.637999999999999901e+01 3.830499999999999972e+01 -1.281864000000000026e+01 4.428167072999796700e-02
8.717100000000000293e+00 1.426900000000000013e+01 2.810099999999999909e+01 -9.317547999999999941e-01 9.533575308098016232e-02
8.717999999999999972e+00 1.625700000000000145e+01 4.497800000000000153e+01 -5.914871999999999908e-01 -9.011333225362884447e-02
8.717999999999999972e+00 1.660200000000000031e+01 4.576100000000000279e+01 2.527585999999999888e+00 -2.753034802106332224e-01
8.724500000000000810e+00 1.366300000000000026e+01 3.071600000000000108e+01 5.514297000000000004e+00 9.685018700371729461e-02
8.733800000000000452e+00 2.435399999999999920e+01 3.471200000000000330e+01 -4.524577999999999989e+00 -1.855865856908818778e-01
8.734600000000000364e+00 1.402299999999999969e+01 4.043399999999999750e+01 6.718531999999999726e+00 -4.146982977248703794e-01
8.758699999999999264e+00 1.298399999999999999e+01 4.057500000000000284e+01 -4.239463999999999899e+00 -1.279328432740506338e-01
8.764499999999999957e+00 2.156299999999999883e+01 3.615299999999999869e+01 -1.540994999999999893e+00 -1.819107789942208675e-01
8.772999999999999687e+00 2.834199999999999875e+01 4.440400000000000347e+01 -8.418967999999999563e+00 6.650882159351874032e-03
8.772999999999999687e+00 2.855099999999999838e+01 4.514000000000000057e+01 -7.546886999999999901e+00 -1.296303293510294163e-01
8.778299999999999770e+00 1.947599999999999909e+01 5.098799999999999955e+01 1.169783999999999935e+01 -3.172234524684919288e-01
8.792899999999999494e+00 1.432600000000000051e+01 4.113400000000000034e+01 2.211315000000000086e-01 -4.152410340992318538e-01
8.793400000000000105e+00 2.560500000000000043e+01 3.789600000000000080e+01 -1.324344999999999928e+01 4.807927493206519409e-02
8.794000000000000483e+00 2.794300000000000139e+01 3.931700000000000017e+01 -8.152991000000000099e+00 3.515392264894947466e-02
8.800499999999999545e+00 2.043100000000000094e+01 3.691199999999999903e+01 -2.265176999999999996e+00 -2.759353135073090990e-01
8.808999999999999275e+00 8.833199999999999719e+00 3.373499999999999943e+01 -1.830740000000000034e+00 1.496628517540091741e-01
8.808999999999999275e+00 9.161500000000000199e+00 3.299000000000000199e+01 -2.561711999999999989e+00 1.525543694112206361e-01
8.808999999999999275e+00 1.048000000000000043e+01 3.225500000000000256e+01 -7.888756999999999575e-01 1.477337962791100412e-01
8.811400000000000787e+00 2.081299999999999883e+01 3.314000000000000057e+01 -3.792511000000000188e+00 3.304602610907784229e-03
8.831899999999999196e+00 2.210300000000000153e+01 3.390800000000000125e+01 -8.625277999999999778e+00 -1.822320496595437322e-01
8.832200000000000273e+00 1.937999999999999901e+01 3.657999999999999829e+01 -3.864671000000000078e-01 -2.955505682649378629e-01
8.840099999999999625e+00 2.845799999999999841e+01 5.376500000000000057e+01 1.454091999999999985e+01 -1.138489843055981721e-01
8.843899999999999650e+00 1.525500000000000078e+01 4.364900000000000091e+01 -5.075929000000000357e+00 -4.166534373557774229e-01
8.845000000000000639e+00 2.696799999999999997e+01 5.143999999999999773e+01 1.181263000000000041e+01 1.086167188259802713e-01
8.853999999999999204e+00 9.173899999999999721e+00 3.838100000000000023e+01 -9.532424999999999926e-01 -1.287463292540717841e-01
8.857699999999999463e+00 2.273199999999999932e+01 3.384000000000000341e+01 -4.762382999999999811e+00 -1.829568780137384998e-01
8.877000000000000668e+00 1.341900000000000048e+01 5.227499999999999858e+01 -4.690464000000000411e+00 -3.810890091141702074e-01
8.899499999999999744e+00 1.878000000000000114e+01 3.146499999999999986e+01 -2.040181000000000022e+00 -1.066224062992959971e-02
8.899499999999999744e+00 1.878000000000000114e+01 3.233100000000000307e+01 4.917777000000000065e+00 -1.270164184560925238e-02
8.916000000000000369e+00 2.242800000000000082e+01 3.314000000000000057e+01 -8.541622999999999521e+00 -1.825810507155180840e-01
8.918300000000000338e+00 1.524600000000000044e+01 4.927900000000000347e+01 -2.566705999999999932e+00 -3.805766489714825784e-01
8.929199999999999804e+00 8.783799999999999386e+00 3.751299999999999812e+01 -1.603460000000000107e+00 -1.304799218816410922e-01
8.937200000000000699e+00 1.478100000000000058e+01 5.309799999999999898e+01 -1.223234000000000066e+01 -3.812487608626061730e-01
8.938200000000000145e+00 2.579799999999999827e+01 5.057900000000000063e+01 -5.039253999999999678e+00 1.078962211098577206e-01
8.950499999999999901e+00 2.919099999999999895e+01 4.573799999999999955e+01 1.827882999999999925e+00 -1.290580250173891386e-01
8.963900000000000645e+00 1.156799999999999962e+01 4.118999999999999773e+01 -5.627737999999999907e+00 -1.240952893154002312e-01
8.978300000000000836e+00 1.513700000000000045e+01 2.723199999999999932e+01 4.184627000000000208e-01 1.106360607469805829e-01
8.979300000000000281e+00 2.115899999999999892e+01 3.238000000000000256e+01 -4.385678999999999661e+00 8.611666642964990737e-03
8.979300000000000281e+00 2.115899999999999892e+01 3.389999999999999858e+01 -3.356479999999999908e+00 1.208961339273874683e-02
8.979300000000000281e+00 2.209900000000000020e+01 3.238000000000000256e+01 -6.881368000000000151e+00 -2.815086422634810459e-01
8.982699999999999463e+00 1.379899999999999949e+01 4.965200000000000102e+01 -3.044531000000000098e+00 -3.806174188935840808e-01
8.989699999999999136e+00 1.858800000000000097e+01 2.699299999999999855e+01 1.924008999999999858e+01 3.659053624355539103e-02
8.995400000000000063e+00 9.981799999999999784e+00 3.963499999999999801e+01 -3.485130999999999979e+00 -1.256197127483074105e-01
8.997299999999999187e+00 1.384200000000000053e+01 5.299900000000000233e+01 -4.171028999999999876e+00 -3.812128220608081430e-01
9.003000000000000114e+00 1.033799999999999919e+01 4.036699999999999733e+01 -6.281886000000000081e+00 -1.243802048574456920e-01
9.029999999999999361e+00 1.238799999999999990e+01 3.211800000000000210e+01 -9.865861999999999687e-01 1.269145453052492045e-01
9.039899999999999380e+00 8.444599999999999440e+00 3.590999999999999659e+01 2.527747000000000188e+00 1.411883874651699844e-01
9.043799999999999173e+00 2.163500000000000156e+01 3.487599999999999767e+01 -2.487657000000000007e+00 -1.810766545419390527e-01
9.049799999999999400e+00 1.764900000000000091e+01 2.689399999999999835e+01 3.510755000000000337e+01 1.565391158197399282e-02
9.051099999999999923e+00 1.671999999999999886e+01 4.914399999999999835e+01 -1.932751000000000108e+00 -3.806218455893405350e-01
9.055699999999999861e+00 2.924800000000000111e+01 4.103900000000000148e+01 -6.281405000000000349e+00 -1.031269823787694662e-01
9.063000000000000611e+00 2.028200000000000003e+01 5.102499999999999858e+01 8.981197999999999126e+00 -3.188592263321969877e-01
9.063299999999999912e+00 1.737099999999999866e+01 5.238300000000000267e+01 5.456374000000000279e+00 -1.923552001560134839e-01
9.065799999999999415e+00 1.125500000000000078e+01 3.218999999999999773e+01 -9.403411999999999882e-01 1.426245953864985205e-01
9.067399999999999238e+00 2.489499999999999957e+01 5.047699999999999676e+01 -2.259120000000000061e+01 1.076768635680486613e-01
9.069599999999999440e+00 1.442999999999999972e+01 4.176200000000000045e+01 3.943404999999999827e-02 -4.156094251876916168e-01
9.092000000000000526e+00 2.996499999999999986e+01 4.694899999999999807e+01 1.585402000000000022e+01 -1.262310357591254761e-01
9.099700000000000344e+00 1.298499999999999943e+01 3.188400000000000034e+01 -5.558546999999999620e-03 1.178789920103969768e-01
9.101499999999999702e+00 1.904100000000000037e+01 2.778099999999999881e+01 -1.714386000000000010e+01 2.447850629784390289e-02
9.105600000000000804e+00 1.329700000000000060e+01 4.100399999999999778e+01 -9.959440999999999988e-01 -4.144576272120558680e-01
9.111599999999999255e+00 1.887199999999999989e+01 3.571000000000000085e+01 4.075986000000000331e+01 -2.970060634809709027e-02
9.112299999999999400e+00 2.653500000000000014e+01 5.074000000000000199e+01 6.149141000000000190e+00 1.084600221535189785e-01
9.120499999999999829e+00 2.888400000000000034e+01 4.016100000000000136e+01 -7.004724000000000395e+00 -1.043549843495274743e-01
9.122899999999999565e+00 8.697699999999999321e+00 3.671999999999999886e+01 6.092265999999999515e-01 -9.486092657495141800e-02
9.123499999999999943e+00 1.879599999999999937e+01 3.467499999999999716e+01 3.309584000000000259e+01 -2.038053108459707274e-02
9.123900000000000787e+00 2.077199999999999847e+01 5.115500000000000114e+01 6.069558999999999926e+00 -1.375006355849538731e-01
9.135600000000000165e+00 2.007999999999999829e+01 3.663799999999999812e+01 -1.884497000000000089e+00 -3.968736151249369626e-01
9.146100000000000563e+00 2.685300000000000153e+01 3.882099999999999795e+01 3.043772000000000144e+00 4.106073957128660024e-02
9.166000000000000369e+00 2.502599999999999980e+01 3.519100000000000250e+01 -1.039943000000000062e+01 -1.828493066598169126e-01
9.172599999999999199e+00 2.356500000000000128e+01 3.444899999999999807e+01 4.253534000000000148e+00 -1.831585995899896180e-01
9.174899999999999167e+00 1.904299999999999926e+01 5.147899999999999920e+01 4.745279000000000025e+00 -3.167737966320635090e-01
9.175300000000000011e+00 2.196999999999999886e+01 5.159400000000000119e+01 1.584220000000000006e+01 -1.415583856408182684e-01
9.175300000000000011e+00 2.367000000000000171e+01 5.159400000000000119e+01 5.998334999999999972e+00 1.079290257099697614e-01
9.175599999999999312e+00 8.286599999999999966e+00 3.494800000000000040e+01 -1.497797000000000045e+00 1.470426208828545245e-01
9.192700000000000315e+00 2.151999999999999957e+01 3.558200000000000074e+01 -1.398249000000000075e+00 -1.807209747958841706e-01
9.193699999999999761e+00 1.684499999999999886e+01 4.829200000000000159e+01 -1.786461000000000077e+00 -3.804406850552429775e-01
9.194100000000000605e+00 2.015800000000000125e+01 3.393800000000000239e+01 -1.386165000000000092e+00 -2.837696378615045360e-03
9.197100000000000719e+00 2.086299999999999955e+01 3.642099999999999937e+01 -1.686395000000000088e+00 -2.755480538877632668e-01
9.197300000000000253e+00 2.793299999999999983e+01 5.313900000000000290e+01 2.728247000000000000e+01 -1.147842213161826691e-01
9.197300000000000253e+00 2.898300000000000054e+01 5.313900000000000290e+01 2.859223000000000070e+01 -1.136472717833348217e-01
9.214999999999999858e+00 1.355400000000000027e+01 2.951599999999999824e+01 2.131285000000000096e+01 9.000210999858233862e-02
9.214999999999999858e+00 1.367200000000000060e+01 3.036299999999999955e+01 1.018251000000000062e+01 9.685995909375223756e-02
9.214999999999999858e+00 1.380799999999999983e+01 2.862199999999999989e+01 -3.859049999999999980e-01 6.690137520916783487e-02
9.226000000000000867e+00 2.490500000000000114e+01 3.676400000000000290e+01 -4.271634999999999849e+01 -1.849862953224832018e-01
9.226000000000000867e+00 2.490500000000000114e+01 3.762899999999999778e+01 -2.346918000000000148e+01 -1.860497416740936050e-01
9.227199999999999847e+00 1.712600000000000122e+01 4.754500000000000171e+01 -1.595982999999999929e+00 -1.816154539654672162e-01
9.233000000000000540e+00 8.643900000000000361e+00 3.410999999999999943e+01 -2.474963999999999942e+00 1.511464676482760505e-01
9.233599999999999142e+00 2.505199999999999960e+01 3.582000000000000028e+01 -1.223572000000000060e+01 -1.842262539578919667e-01
9.242200000000000415e+00 1.958899999999999864e+01 3.044300000000000139e+01 1.295120000000000005e+01 -2.414948514961006657e-03
9.248499999999999943e+00 2.998000000000000043e+01 4.795499999999999829e+01 1.163560999999999979e+01 -1.227059145768908677e-01
9.252299999999999969e+00 2.753000000000000114e+01 3.925500000000000256e+01 -4.206726999999999883e+00 3.693362340197543087e-02
9.268100000000000449e+00 2.756400000000000006e+01 5.228900000000000148e+01 1.188358000000000025e+01 1.096673136398024911e-01
9.268100000000000449e+00 2.935200000000000031e+01 5.228900000000000148e+01 1.953315999999999875e+01 -1.142845092699625031e-01
9.272199999999999775e+00 1.187800000000000011e+01 3.210199999999999676e+01 -1.109048000000000034e+00 1.368494118903581525e-01
9.272800000000000153e+00 1.585999999999999943e+01 4.906900000000000261e+01 -1.292335000000000012e+00 -3.805560746021033891e-01
9.277200000000000557e+00 1.567200000000000060e+01 5.273499999999999943e+01 -6.357626999999999917e+00 -3.812330824611201985e-01
9.279999999999999361e+00 2.696499999999999986e+01 3.185900000000000176e+01 -1.558877999999999986e+01 -8.016410108021772285e-02
9.287000000000000810e+00 2.902599999999999980e+01 4.313000000000000256e+01 -1.433220000000000027e+01 -1.337922645330433535e-01
9.287000000000000810e+00 2.938200000000000145e+01 4.232200000000000273e+01 -7.301819000000000059e+00 -1.349950848264216408e-01
9.288000000000000256e+00 9.705000000000000071e+00 3.255100000000000193e+01 -3.905990999999999769e-01 1.571577439082193495e-01
9.293300000000000338e+00 1.080799999999999983e+01 4.112700000000000244e+01 -6.923544999999999838e+00 -4.139052307992753255e-01
9.294999999999999929e+00 1.947299999999999898e+01 2.866900000000000048e+01 -4.263397000000000325e+00 1.221697355639140767e-02
9.294999999999999929e+00 1.972700000000000031e+01 2.956299999999999883e+01 3.368431999999999960e+01 5.606512968800216393e-03
9.304700000000000415e+00 1.578400000000000070e+01 4.480100000000000193e+01 -1.235268999999999950e+00 -3.794217851910832162e-01
9.313399999999999679e+00 2.932700000000000173e+01 5.059400000000000119e+01 8.857905000000000584e+00 -1.171186850392107043e-01
9.318799999999999528e+00 1.660099999999999909e+01 4.671500000000000341e+01 -2.899962999999999846e-01 -3.800273754314691943e-01
9.332100000000000506e+00 1.948000000000000043e+01 3.119800000000000040e+01 1.923430999999999891e+00 -8.911636755098125209e-03
9.332100000000000506e+00 1.948000000000000043e+01 3.259799999999999898e+01 9.003156999999999854e+00 -2.243441963628982003e-02
9.332100000000000506e+00 2.034499999999999886e+01 3.259799999999999898e+01 -4.122177999999999898e+00 -4.619052994556573609e-03
9.332900000000000418e+00 2.971199999999999974e+01 4.973499999999999943e+01 6.219965000000000188e+00 -1.183468905271984617e-01
9.337799999999999656e+00 2.901399999999999935e+01 5.147899999999999920e+01 1.343069000000000024e+01 -1.158847464572080738e-01
9.346700000000000230e+00 1.598700000000000010e+01 2.716100000000000136e+01 -1.173477000000000103e+00 1.168607068731230270e-01
9.347300000000000608e+00 1.450000000000000000e+01 4.949600000000000222e+01 -7.471150999999999875e+00 -3.805983907406776945e-01
9.367699999999999250e+00 1.610600000000000165e+01 4.580899999999999750e+01 -1.763701000000000019e-01 -3.797371816608167139e-01
9.373900000000000787e+00 2.298000000000000043e+01 3.357300000000000040e+01 -1.406924000000000063e+01 -1.815422145408052690e-01
9.390399999999999636e+00 1.917699999999999960e+01 3.189799999999999969e+01 4.154630000000000045e+00 -1.464872435680752635e-02
9.392699999999999605e+00 1.737500000000000000e+01 2.719399999999999906e+01 1.840336999999999945e-01 -1.254560810577252938e-02
9.404999999999999361e+00 2.978600000000000136e+01 4.878999999999999915e+01 8.280844000000000094e+00 -1.204175569913113614e-01
9.409900000000000375e+00 2.162900000000000134e+01 3.184700000000000131e+01 -9.889901999999999305e+00 2.107888919653456289e-02
9.412200000000000344e+00 9.626899999999999125e+00 3.888900000000000290e+01 -1.547044000000000086e+00 -1.247919664337635154e-01
9.425599999999999312e+00 1.294800000000000040e+01 5.178499999999999659e+01 -3.122640000000000082e+00 -3.810149790572834871e-01
9.427899999999999281e+00 1.431199999999999939e+01 5.353199999999999648e+01 -8.722590999999999539e+00 -3.813168732755298773e-01
9.431699999999999307e+00 1.822100000000000009e+01 5.231199999999999761e+01 1.418884000000000079e+01 -3.159958768142642760e-01
9.436600000000000321e+00 2.744200000000000017e+01 5.156499999999999773e+01 1.160505000000000031e+01 1.095830062369404362e-01
9.448999999999999844e+00 2.285900000000000176e+01 3.267000000000000171e+01 -7.675907999999999731e+00 -1.812125096424228310e-01
9.462099999999999511e+00 2.609299999999999997e+01 3.877000000000000313e+01 -9.747616999999999976e+00 4.409803198178648131e-02
9.464000000000000412e+00 2.532799999999999940e+01 4.998599999999999710e+01 -4.436433000000000071e+00 1.080323034106446256e-01
9.467000000000000526e+00 1.308200000000000074e+01 5.270900000000000318e+01 -9.467769000000000545e+00 -3.811697269013009093e-01
9.476000000000000867e+00 2.426500000000000057e+01 3.450699999999999790e+01 -1.610764000000000085e+00 -1.834629029844947468e-01
9.486800000000000566e+00 1.987399999999999878e+01 5.148199999999999932e+01 1.263508000000000031e+01 -3.183715234595623778e-01
9.500000000000000000e+00 2.419500000000000028e+01 5.074399999999999977e+01 -1.429113000000000078e+00 1.080613766399119713e-01
9.506999999999999673e+00 2.616600000000000037e+01 3.185900000000000176e+01 -6.009253000000000178e+00 -1.876337265204058580e-01
9.506999999999999673e+00 2.776399999999999935e+01 3.185900000000000176e+01 -1.213823999999999970e+01 -8.059876575725080650e-02
9.507400000000000517e+00 1.839999999999999858e+01 2.758899999999999864e+01 4.002912000000000248e+00 2.107090008624561887e-04
9.512000000000000455e+00 1.501900000000000013e+01 4.278600000000000136e+01 -3.295354000000000116e+00 -4.164624394222229964e-01
9.522000000000000242e+00 2.845799999999999841e+01 5.228900000000000148e+01 1.759834999999999994e+01 -1.150257765524457937e-01
9.532199999999999562e+00 1.964699999999999847e+01 3.614699999999999847e+01 7.933702999999999728e-01 -3.966720312679169469e-01
9.539600000000000080e+00 1.447899999999999920e+01 2.802899999999999991e+01 -1.603021000000000029e+00 3.133232250917640516e-02
9.543699999999999406e+00 2.282000000000000028e+01 5.166499999999999915e+01 2.187985000000000113e+01 1.080163591747675261e-01
9.545099999999999696e+00 1.341099999999999959e+01 3.112300000000000111e+01 1.945516000000000023e+00 1.110297514742855790e-01
9.554000000000000270e+00 2.830699999999999861e+01 3.957999999999999829e+01 -3.591730000000000089e+00 3.227469566464379047e-02
9.556200000000000472e+00 1.949599999999999866e+01 3.440800000000000125e+01 5.964293999999999762e+00 -9.746042108172241897e-03
9.559200000000000585e+00 1.376800000000000068e+01 4.157099999999999795e+01 7.849049999999999638e-01 -4.151352055181680711e-01
9.570299999999999585e+00 2.649500000000000099e+01 3.109900000000000020e+01 -5.330137999999999820e+00 -1.884033057921969401e-01
9.570299999999999585e+00 2.649500000000000099e+01 3.261899999999999977e+01 -7.235060999999999964e+00 -1.863616058279436716e-01
9.570299999999999585e+00 2.743499999999999872e+01 3.109900000000000020e+01 -5.413876000000000133e+00 -8.012481750894491495e-02
9.570299999999999585e+00 2.743499999999999872e+01 3.261899999999999977e+01 -9.145248999999999739e+00 -1.947145345711464026e-01
9.578699999999999548e+00 2.066600000000000037e+01 3.599799999999999756e+01 -1.756207000000000074e+00 -2.750945464403483087e-01
9.580600000000000449e+00 1.637199999999999989e+01 5.267699999999999960e+01 4.503410999999999831e+00 -3.812641749435469185e-01
9.605100000000000193e+00 2.732000000000000028e+01 5.084100000000000108e+01 1.410876000000000019e+01 1.094594512737490505e-01
9.614499999999999602e+00 1.919300000000000139e+01 3.510799999999999699e+01 1.644841999999999871e+01 -1.078893175020133148e-02
9.615099999999999980e+00 1.048000000000000043e+01 3.236699999999999733e+01 3.664968999999999966e+01 1.560375028574080281e-01
9.615700000000000358e+00 2.911799999999999855e+01 4.553699999999999903e+01 -1.092132000000000103e+00 1.047534872789653848e-01
9.616099999999999426e+00 8.330899999999999750e+00 3.573299999999999699e+01 -1.776898000000000089e+00 -8.762258884817894500e-02
9.625299999999999301e+00 2.082000000000000028e+01 3.445000000000000284e+01 -1.511101999999999945e+00 -2.808021452264458651e-01
9.625400000000000844e+00 2.813500000000000156e+01 5.153199999999999648e+01 1.375000000000000000e+01 1.100656818286636363e-01
9.637700000000000600e+00 2.852899999999999991e+01 5.077400000000000091e+01 1.224596999999999980e+01 -1.173438164967025160e-01
9.640599999999999170e+00 2.140899999999999892e+01 5.132900000000000063e+01 1.026500000000000057e+01 -1.397509298125486077e-01
9.662000000000000810e+00 1.308099999999999952e+01 5.116100000000000136e+01 -1.042648999999999937e+01 -3.809111307596704799e-01
9.669200000000000017e+00 2.019999999999999929e+01 3.164799999999999969e+01 -2.169138999999999928e+00 -1.176285814587850823e-02
9.670500000000000540e+00 1.522400000000000020e+01 4.372200000000000131e+01 -1.976564999999999905e+00 -8.891649628556613782e-02
9.675000000000000711e+00 9.256500000000000838e+00 3.315100000000000335e+01 -1.824518000000000084e+00 1.587771728555245065e-01
9.682000000000000384e+00 2.960500000000000043e+01 4.057900000000000063e+01 -3.892452000000000023e+00 -1.066107521433317801e-01
9.682000000000000384e+00 2.960500000000000043e+01 4.162899999999999778e+01 -6.021919999999999717e+00 -1.377878670997769450e-01
9.683600000000000207e+00 2.112300000000000111e+01 3.514999999999999858e+01 -1.801107999999999931e+00 -2.774180960174293942e-01
9.683799999999999741e+00 2.452400000000000091e+01 3.693699999999999761e+01 -7.378385000000000105e+01 -1.832401116744127312e-01
9.688000000000000611e+00 3.030499999999999972e+01 4.646999999999999886e+01 4.843230000000000146e+00 -1.266357070079340008e-01
