4.487599999999999767e+01 2.137500000000000000e+01 7.650499999999999545e+01 -1.270510999999999946e+01 -2.179328972586233593e-01
4.487599999999999767e+01 2.277499999999999858e+01 7.650499999999999545e+01 -1.322733000000000025e+01 -2.307333092359680760e-01
4.487899999999999778e+01 2.986899999999999977e+01 3.063299999999999912e+01 -2.266646999999999967e-01 -1.851795782750709218e-01
4.488300000000000267e+01 1.411700000000000088e+01 7.243000000000000682e+01 1.552289999999999992e+01 1.050251478111468711e-01
4.488300000000000267e+01 1.432600000000000051e+01 7.169400000000000261e+01 2.413259000000000043e+01 1.029153606180784469e-01
4.488400000000000034e+01 2.621900000000000119e+01 7.597599999999999909e+01 1.876131000000000171e+01 -1.968837639378018811e-01
4.488600000000000279e+01 1.581000000000000050e+01 4.630499999999999972e+01 3.157382000000000133e+00 -2.049249241258817647e-02
4.488900000000000290e+01 2.295700000000000074e+01 4.034100000000000108e+01 6.012351999999999919e+00 -1.861318654448461951e-01
4.489300000000000068e+01 8.370300000000000296e+00 5.176599999999999824e+01 5.209776000000000407e-01 2.081426488330348490e-01
4.489300000000000068e+01 8.647299999999999542e+00 5.100699999999999790e+01 2.387192000000000203e+00 2.092402193718276293e-01
4.489399999999999835e+01 9.448999999999999844e+00 6.590399999999999636e+01 6.155452999999999619e+00 1.084507463799126575e-01
4.489399999999999835e+01 9.702899999999999636e+00 6.679800000000000182e+01 1.031170999999999971e+01 1.118000453412026224e-01
4.489399999999999835e+01 1.724299999999999855e+01 4.706099999999999994e+01 6.926436999999999955e+00 -2.221426526248241468e-02
4.489399999999999835e+01 3.919700000000000273e+01 3.831799999999999784e+01 3.777620999999999896e-01 -6.650714306145309729e-02
4.489900000000000091e+01 1.473399999999999999e+01 7.455500000000000682e+01 1.151194999999999968e+00 -1.722967945396445821e-01
4.491199999999999903e+01 2.068799999999999883e+01 6.993600000000000705e+01 -2.441110000000000113e+01 7.694706897178425764e-02
4.491499999999999915e+01 3.872999999999999687e+01 5.641299999999999670e+01 -1.924155999999999977e+01 -2.881609601022054323e-01
4.491499999999999915e+01 2.526999999999999957e+01 5.138100000000000023e+01 2.363087000000000160e+01 2.650995731093558350e-01
4.491599999999999682e+01 1.892299999999999827e+01 4.714500000000000313e+01 4.940536999999999956e+00 -2.211640931778310545e-02
4.491799999999999926e+01 2.433399999999999963e+01 7.582800000000000296e+01 -5.293650000000000411e+00 -2.393118473976312277e-01
4.491899999999999693e+01 3.795300000000000296e+01 3.388799999999999812e+01 2.375506000000000117e+00 -1.869291696384769441e-01
4.492199999999999704e+01 9.205000000000000071e+00 4.872399999999999665e+01 5.880378999999999579e+00 2.121309242386312799e-01
4.492999999999999972e+01 1.443500000000000050e+01 4.722599999999999909e+01 2.408668000000000031e+00 2.171271383002670308e-01
4.494100000000000250e+01 3.448299999999999699e+01 6.030799999999999983e+01 -2.212799000000000049e+01 1.073940779760693964e-01
4.494100000000000250e+01 3.448299999999999699e+01 6.124799999999999756e+01 -4.953200999999999965e+01 8.742737478480801239e-02
4.494200000000000017e+01 1.408900000000000041e+01 7.075799999999999557e+01 3.135581000000000174e+01 9.905799959381653141e-02
4.494500000000000028e+01 2.572800000000000153e+01 5.071900000000000119e+01 2.855661999999999878e+01 2.662704589076060890e-01
4.494599999999999795e+01 2.801599999999999824e+01 3.294500000000000028e+01 -2.806738999999999873e+00 -1.853428268283709435e-01
4.494700000000000273e+01 3.889800000000000324e+01 5.379099999999999682e+01 1.911413000000000029e+00 -2.859289775747776985e-01
4.495400000000000063e+01 2.837199999999999989e+01 3.221300000000000097e+01 -7.582216999999999985e-01 -1.852519712108187666e-01
4.496699999999999875e+01 3.485900000000000176e+01 3.272500000000000142e+01 5.602941999999999645e+00 -1.863547982788327784e-01
4.496999999999999886e+01 8.350899999999999324e+00 5.707200000000000273e+01 -1.106230999999999964e+00 1.998422168038322122e-01
4.497399999999999665e+01 2.618599999999999994e+01 5.005599999999999739e+01 3.058402999999999849e+01 2.672298863253555479e-01
4.497399999999999665e+01 2.705199999999999960e+01 5.005599999999999739e+01 2.127120999999999995e+01 2.659088678984071197e-01
4.497399999999999665e+01 2.705199999999999960e+01 5.145600000000000307e+01 8.800784999999999414e+00 2.618191847864054234e-01
4.497500000000000142e+01 2.646799999999999997e+01 3.723899999999999721e+01 4.960066999999999560e+00 -1.861565152788429711e-01
4.497500000000000142e+01 2.646799999999999997e+01 3.810499999999999687e+01 1.318872000000000000e+01 -1.864452186923944432e-01
4.497699999999999676e+01 2.369099999999999895e+01 6.598999999999999488e+01 -4.931731000000000087e+00 2.342507015910560431e-01
4.498199999999999932e+01 3.883400000000000318e+01 5.461399999999999721e+01 4.361404000000000281e+00 -2.866080999471619095e-01
4.498199999999999932e+01 3.883400000000000318e+01 5.547899999999999920e+01 6.901196999999999804e+00 -2.872273229096664049e-01
4.498299999999999699e+01 3.922599999999999909e+01 5.303399999999999892e+01 1.317375999999999969e+01 -1.752558288417189192e-01
4.498799999999999955e+01 2.578900000000000148e+01 8.028400000000000603e+01 -9.450191000000000230e+00 -1.434306947913961960e-01
4.498799999999999955e+01 2.674800000000000111e+01 7.932599999999999341e+01 1.225407000000000011e+02 -1.299838871455187006e-01
4.498799999999999955e+01 2.697899999999999920e+01 7.851099999999999568e+01 1.974164000000000030e+01 -1.299289292418525921e-01
4.499000000000000199e+01 4.045499999999999829e+01 5.227300000000000324e+01 1.796910000000000096e+01 -1.743721264134274751e-01
4.499699999999999989e+01 3.328199999999999648e+01 6.217600000000000193e+01 -3.851324999999999932e+01 7.771843589878574265e-02
4.499799999999999756e+01 4.205100000000000193e+01 5.282099999999999795e+01 1.565526000000000018e+01 -2.806948130835779098e-01
4.500000000000000000e+01 2.030300000000000082e+01 4.401299999999999812e+01 6.882679999999999687e+00 -1.414776756019866556e-02
4.500000000000000000e+01 2.030300000000000082e+01 4.506300000000000239e+01 7.043332999999999622e+00 -1.638368197572343671e-02
4.500600000000000023e+01 2.010600000000000165e+01 8.296500000000000341e+01 8.043504000000000431e+00 -1.693255223939213461e-01
4.500699999999999790e+01 2.559299999999999997e+01 3.906799999999999784e+01 1.070369999999999955e+01 -1.865475446835921924e-01
4.500999999999999801e+01 4.113600000000000279e+01 4.253300000000000125e+01 1.073776999999999937e+01 -6.675861272585016659e-02
4.501299999999999812e+01 1.986799999999999855e+01 7.462900000000000489e+01 3.212964000000000198e+01 -2.033299962668158600e-01
4.501800000000000068e+01 2.459600000000000009e+01 6.601500000000000057e+01 7.853006999999999849e+00 2.417327030816927014e-01
4.502799999999999869e+01 3.788700000000000045e+01 5.743299999999999983e+01 -3.989933000000000174e+00 -2.911472990180829501e-01
4.503000000000000114e+01 2.286199999999999832e+01 6.616599999999999682e+01 -3.869615000000000027e+00 2.328252246775652234e-01
4.503199999999999648e+01 2.735500000000000043e+01 5.075600000000000023e+01 1.526922000000000068e+01 2.633450848146888790e-01
4.503399999999999892e+01 3.130799999999999983e+01 6.213600000000000279e+01 3.235770000000000124e+01 7.840486415843106460e-02
4.504099999999999682e+01 1.923799999999999955e+01 7.050799999999999557e+01 8.811550000000000216e-01 9.168362036104579782e-02
4.504299999999999926e+01 3.421399999999999864e+01 2.973799999999999955e+01 -1.520240000000000080e+01 -1.856277964882672993e-01
4.504299999999999926e+01 1.007199999999999918e+01 6.741899999999999693e+01 8.148298000000000485e+00 1.142048416585106640e-01
4.504699999999999704e+01 3.126599999999999824e+01 2.729700000000000060e+01 -2.403553999999999968e-01 -1.848368125697581466e-01
4.505400000000000205e+01 4.844599999999999795e+01 4.546699999999999875e+01 5.843912999999999691e+00 -1.583086559148219330e-01
4.506400000000000006e+01 4.350000000000000000e+01 5.404299999999999926e+01 8.458439999999999515e+00 -2.785912474742329725e-01
4.506799999999999784e+01 4.083299999999999841e+01 4.183299999999999841e+01 -6.574091000000000129e+00 -6.672365026242482733e-02
4.508599999999999852e+01 7.921599999999999753e+00 6.198499999999999943e+01 6.345049999999999857e-01 9.930629227853123020e-02
4.508700000000000330e+01 3.932800000000000296e+01 3.483899999999999864e+01 9.833937000000000594e+00 -6.632795799792093328e-02
4.508700000000000330e+01 3.932800000000000296e+01 3.588900000000000290e+01 1.035693000000000019e+01 -6.637931390542398113e-02
4.508800000000000097e+01 2.255900000000000105e+01 6.686599999999999966e+01 2.182361999999999913e+00 -8.479340256177191060e-02
4.508800000000000097e+01 2.720599999999999952e+01 6.468899999999999295e+01 5.770368999999999637e+00 2.436840667591738119e-01
4.509000000000000341e+01 1.844999999999999929e+01 8.285699999999999932e+01 4.508253999999999984e+00 -1.715923645578033008e-01
4.509700000000000131e+01 4.704500000000000171e+01 4.342300000000000182e+01 9.472049000000000163e+00 -1.730822776364236981e-01
4.510000000000000142e+01 1.947500000000000142e+01 7.383799999999999386e+01 1.322287000000000035e+02 1.162834795450150560e-01
4.510099999999999909e+01 3.391100000000000136e+01 3.043799999999999883e+01 -1.616375999999999991e+01 -1.857388301062940505e-01
4.510199999999999676e+01 1.236500000000000021e+01 4.932200000000000273e+01 -1.681222999999999912e+00 2.132239215569103341e-01
4.510399999999999920e+01 2.162000000000000099e+01 8.257999999999999829e+01 1.299197999999999986e+01 -1.584553926558984194e-01
4.510699999999999932e+01 4.488199999999999790e+01 5.004899999999999949e+01 7.415128000000000164e+00 -2.775514837479368113e-01
4.510699999999999932e+01 4.498700000000000188e+01 4.924900000000000233e+01 7.586243999999999765e+00 -1.581622908271735906e-01
4.510699999999999932e+01 3.709300000000000352e+01 2.982100000000000151e+01 -6.795911000000000035e-01 -1.859454941724165977e-01
4.510799999999999699e+01 4.215299999999999869e+01 4.246300000000000097e+01 1.181307999999999936e+01 -6.680182379354421274e-02
4.511099999999999710e+01 3.521600000000000108e+01 5.747999999999999687e+01 1.297357000000000049e+01 1.053239092951302747e-01
4.511500000000000199e+01 8.760999999999999233e+00 6.377600000000000335e+01 1.549755000000000038e+01 1.023267692609355073e-01
4.512400000000000233e+01 2.600600000000000023e+01 5.138100000000000023e+01 1.987391999999999825e+01 2.632565277569114959e-01
4.514200000000000301e+01 2.629200000000000159e+01 6.593200000000000216e+01 1.866114999999999924e+01 2.582912826152307106e-01
4.514699999999999847e+01 3.408299999999999841e+01 5.823899999999999721e+01 -1.988900999999999897e+01 1.015026776966889283e-01
4.515400000000000347e+01 4.767699999999999960e+01 4.777199999999999847e+01 7.354576999999999920e+00 -1.571496097863285257e-01
4.515599999999999881e+01 2.307400000000000162e+01 8.188100000000000023e+01 1.259293000000000085e+01 -1.693990324453109875e-01
4.515999999999999659e+01 4.440599999999999881e+01 4.283899999999999864e+01 1.700261000000000067e+01 -6.690598847669913807e-02
4.516499999999999915e+01 4.243800000000000239e+01 5.356499999999999773e+01 1.134024999999999928e+01 -2.802144083766767158e-01
4.516499999999999915e+01 3.416700000000000159e+01 2.715399999999999991e+01 1.176601000000000036e-01 -1.851786453378830855e-01
4.516700000000000159e+01 2.904400000000000048e+01 3.107600000000000051e+01 -1.066824999999999996e-01 -1.851710842784811961e-01
4.517199999999999704e+01 4.507600000000000051e+01 5.065200000000000102e+01 1.593323999999999963e+01 -2.773220185914659353e-01
4.517399999999999949e+01 1.812999999999999901e+01 4.715400000000000347e+01 4.660040000000000404e+00 2.194908037497221298e-01
4.517600000000000193e+01 2.582100000000000151e+01 3.385499999999999687e+01 2.558176000000000005e+00 -1.851314107903578587e-01
4.518599999999999994e+01 4.509799999999999898e+01 5.455899999999999750e+01 1.673501999999999867e+01 -2.763222452391061457e-01
4.518599999999999994e+01 4.641700000000000159e+01 5.219400000000000261e+01 7.665685999999999467e+01 -2.757204897836972868e-01
4.518599999999999994e+01 4.641700000000000159e+01 5.382399999999999807e+01 3.294944999999999879e+01 -2.751237077848418533e-01
4.518599999999999994e+01 4.664800000000000324e+01 5.300900000000000034e+01 1.802598999999999876e+02 -2.752223669085990254e-01
4.518699999999999761e+01 2.473400000000000176e+01 8.173999999999999488e+01 8.080904999999999561e+00 -1.551608860348951124e-01
4.518900000000000006e+01 4.840599999999999881e+01 4.444400000000000261e+01 4.717966999999999800e+00 -1.722146180529674220e-01
4.519400000000000261e+01 7.394300000000000317e+00 5.291899999999999693e+01 2.203506000000000076e-01 2.062107588268190794e-01
4.519400000000000261e+01 7.394300000000000317e+00 5.385900000000000176e+01 3.523528000000000077e-02 2.049148203424600578e-01
4.519500000000000028e+01 1.519800000000000040e+01 7.474099999999999966e+01 -8.670182999999999751e+00 -1.764750926349697990e-01
4.520100000000000051e+01 8.807499999999999218e+00 5.544500000000000028e+01 1.925413999999999945e-02 2.024429843360800729e-01
4.520100000000000051e+01 8.807499999999999218e+00 5.631099999999999994e+01 -3.357289999999999996e-01 2.009742572054485643e-01
4.520300000000000296e+01 2.568599999999999994e+01 3.664500000000000313e+01 3.939760999999999846e+00 -1.858142144271799079e-01
4.520499999999999829e+01 2.182199999999999918e+01 4.134199999999999875e+01 6.298413000000000039e+00 -1.861478882319474448e-01
4.520499999999999829e+01 3.412299999999999756e+01 3.134400000000000119e+01 -4.521177999999999919e+00 -1.859690976157158115e-01
4.520900000000000318e+01 2.674399999999999977e+01 7.682599999999999341e+01 2.446333999999999875e+01 -1.733175559333264282e-01
4.521099999999999852e+01 2.798799999999999955e+01 6.389200000000000301e+01 2.605503999999999820e+00 2.405689507286684348e-01
4.521399999999999864e+01 3.444899999999999807e+01 3.200600000000000023e+01 -1.474313999999999902e+00 -1.861590467403863025e-01
4.521800000000000352e+01 1.355899999999999928e+01 4.877300000000000324e+01 1.328614999999999935e-01 2.145758739778436952e-01
4.521999999999999886e+01 1.360299999999999976e+01 7.321899999999999409e+01 7.813367999999999647e+00 1.047642968318661660e-01
4.522200000000000131e+01 1.278899999999999970e+01 6.900900000000000034e+01 4.994348999999999705e+01 1.219840003031628928e-01
4.522399999999999665e+01 2.101399999999999935e+01 4.772500000000000142e+01 1.291038999999999959e+01 2.205032289865904160e-01
4.522399999999999665e+01 3.016300000000000026e+01 2.864999999999999858e+01 -5.352679000000000187e-01 -1.849196127575218340e-01
4.522899999999999920e+01 2.434199999999999875e+01 3.974499999999999744e+01 6.966345999999999705e+00 -1.864484387937341003e-01
4.523100000000000165e+01 2.689499999999999957e+01 7.781900000000000261e+01 1.349348999999999954e+01 -1.496469136084975227e-01
4.523599999999999710e+01 2.158099999999999952e+01 6.962099999999999511e+01 -2.459547999999999845e+01 -4.282789587460646141e-02
4.523799999999999955e+01 1.418399999999999928e+01 7.390900000000000603e+01 -4.203856999999999733e-02 1.071189272252540681e-01
4.524099999999999966e+01 2.661899999999999977e+01 5.075600000000000023e+01 2.377574999999999861e+01 2.638500484594237250e-01
4.524099999999999966e+01 4.084499999999999886e+01 4.088600000000000279e+01 -2.027502000000000137e+01 -6.669625202719284274e-02
4.524699999999999989e+01 3.620199999999999818e+01 3.393099999999999739e+01 8.104865000000000208e+00 -1.868260523380207705e-01
4.524699999999999989e+01 3.706700000000000017e+01 3.393099999999999739e+01 5.805581000000000103e+00 -1.868987732247295586e-01
4.525200000000000244e+01 1.995499999999999829e+01 4.757399999999999807e+01 3.407604000000000077e+00 2.200826344651269362e-01
4.525200000000000244e+01 2.082100000000000151e+01 4.617399999999999949e+01 1.078134000000000015e+01 -1.935448071875695703e-02
4.525300000000000011e+01 2.536899999999999977e+01 7.590500000000000114e+01 3.553913000000000100e+00 -2.352670563533054704e-01
4.525500000000000256e+01 1.496000000000000085e+01 4.637599999999999767e+01 3.211923999999999779e+00 2.177904608532152397e-01
4.525500000000000256e+01 1.666000000000000014e+01 4.637599999999999767e+01 4.571443000000000367e+00 -2.100473464965424419e-02
4.525600000000000023e+01 1.313199999999999967e+01 6.982399999999999807e+01 1.165523999999999916e+01 1.274744997516160661e-01
4.525999999999999801e+01 7.881899999999999906e+00 5.783100000000000307e+01 -6.849509999999999765e-01 3.786704119343091701e-01
4.526400000000000290e+01 4.612700000000000244e+01 4.824600000000000222e+01 6.810107999999999606e+00 -1.578901666950283389e-01
4.526700000000000301e+01 3.506600000000000250e+01 2.937600000000000122e+01 -6.485838000000000214e+00 -1.856758193177933947e-01
4.526700000000000301e+01 1.179800000000000004e+01 6.810399999999999920e+01 2.495213999999999999e+01 1.166203385113332852e-01
4.527499999999999858e+01 4.083200000000000074e+01 3.996900000000000119e+01 -2.340772000000000119e+01 -6.667660522253010535e-02
4.527700000000000102e+01 1.998799999999999955e+01 7.009199999999999875e+01 -1.314237999999999928e+01 8.070196848905199227e-02
4.527700000000000102e+01 3.765500000000000114e+01 3.310900000000000176e+01 1.914935000000000054e+00 -1.867363152536024307e-01
4.528199999999999648e+01 8.620599999999999596e+00 6.293399999999999750e+01 2.208785999999999916e+01 1.003212006512021609e-01
4.528199999999999648e+01 2.131700000000000017e+01 4.702499999999999858e+01 1.506325999999999965e+01 -2.157193537081646476e-02
4.528300000000000125e+01 3.889600000000000080e+01 3.395300000000000296e+01 5.620927000000000007e+00 -6.624894457616628540e-02
4.529200000000000159e+01 2.068499999999999872e+01 4.313600000000000279e+01 8.839890000000000470e+00 -1.291764869494865277e-02
4.529500000000000171e+01 2.094800000000000040e+01 4.239800000000000324e+01 5.874475000000000335e+00 -1.162552083373330318e-02
4.529599999999999937e+01 2.606099999999999994e+01 3.831000000000000227e+01 8.703533000000000186e+00 -1.864569858483746123e-01
4.529800000000000182e+01 3.575900000000000034e+01 2.920799999999999841e+01 6.979786000000000046e-01 -1.857183461672527458e-01
4.530799999999999983e+01 2.362600000000000122e+01 7.633100000000000307e+01 -3.467098000000000013e+00 -2.466452911166667206e-01
4.530899999999999750e+01 2.925600000000000023e+01 6.313400000000000034e+01 -3.662807000000000102e+01 5.256153271612993422e-02
4.530899999999999750e+01 2.207499999999999929e+01 7.677200000000000557e+01 -6.748706000000000316e+00 -2.329261955907913906e-01
4.530899999999999750e+01 4.049399999999999977e+01 3.917999999999999972e+01 -3.265967999999999982e+00 -6.664600100872122845e-02
4.531700000000000017e+01 4.592799999999999727e+01 4.312599999999999767e+01 1.101394999999999946e+01 -1.736239036294119631e-01
4.531700000000000017e+01 7.318999999999999950e+00 6.039200000000000301e+01 -4.728071999999999830e-01 3.790312320093920939e-01
4.531700000000000017e+01 7.546000000000000263e+00 6.119100000000000250e+01 -1.699223999999999890e+01 9.851692971868789006e-02
4.531799999999999784e+01 3.895400000000000063e+01 3.675399999999999778e+01 2.681725999999999832e-01 -6.638772815779273029e-02
4.531799999999999784e+01 3.895400000000000063e+01 3.761899999999999977e+01 1.056710999999999956e+00 -6.643871647196469832e-02
4.532099999999999795e+01 2.947200000000000131e+01 3.027499999999999858e+01 7.256808000000000147e-01 -1.851105883262857132e-01
4.532500000000000284e+01 3.476299999999999812e+01 3.007600000000000051e+01 -9.202336999999999989e+00 -1.857862923769205699e-01
4.532500000000000284e+01 3.623499999999999943e+01 3.007600000000000051e+01 -1.779965999999999937e+00 -1.859373676601678294e-01
4.532600000000000051e+01 1.940700000000000003e+01 4.668800000000000239e+01 4.245458000000000176e+00 -2.128248671784226456e-02
4.532800000000000296e+01 2.343599999999999994e+01 3.979699999999999704e+01 6.553034000000000248e+00 -1.861911940719263858e-01
4.533800000000000097e+01 1.636799999999999855e+01 7.757299999999999329e+01 -1.185758000000000090e+00 -1.827686002091759576e-01
4.535399999999999920e+01 1.101399999999999935e+01 4.889800000000000324e+01 4.231754999999999711e+00 2.126563747155706119e-01
4.535699999999999932e+01 3.443900000000000006e+01 3.084400000000000119e+01 -8.102721000000000728e+00 -1.859125279316291013e-01
4.536099999999999710e+01 3.798700000000000188e+01 2.982100000000000151e+01 8.560630000000000184e-01 -1.860419180047247489e-01
4.536099999999999710e+01 9.683999999999999275e+00 4.817999999999999972e+01 3.090622999999999898e+00 2.126256167010150688e-01
4.536399999999999721e+01 2.980000000000000071e+01 2.945400000000000063e+01 5.285278999999999672e-02 -1.850201134846358175e-01
4.536399999999999721e+01 1.703200000000000003e+01 8.013400000000000034e+01 6.144682999999999673e+00 -1.838980708842170853e-01
4.536399999999999721e+01 1.728600000000000136e+01 8.102800000000000580e+01 4.876142999999999894e+00 -1.805832714297693764e-01
4.536800000000000210e+01 2.218199999999999861e+01 4.063700000000000045e+01 1.025140999999999991e+01 -1.860632756202955929e-01
4.537500000000000000e+01 1.359800000000000075e+01 7.036100000000000421e+01 1.967183999999999955e+01 1.314279391712963874e-01
4.537899999999999778e+01 2.752499999999999858e+01 3.334100000000000108e+01 -7.207158000000000175e-01 -1.854049040134277127e-01
4.538400000000000034e+01 3.610099999999999909e+01 5.758599999999999852e+01 9.979359999999999786e+00 1.074435997796374942e-01
4.539999999999999858e+01 3.555899999999999750e+01 3.299199999999999733e+01 3.527753999999999834e+00 -1.865347428975616950e-01
4.540100000000000335e+01 8.429999999999999716e+00 4.902000000000000313e+01 2.742541000000000118e+00 2.111131648354117873e-01
4.540100000000000335e+01 8.429999999999999716e+00 4.997800000000000153e+01 2.139081000000000010e+00 2.100877115988012966e-01
4.540299999999999869e+01 2.074899999999999878e+01 7.593500000000000227e+01 3.244740999999999875e+00 -2.235882765039216014e-01
4.540899999999999892e+01 8.539099999999999469e+00 5.077900000000000347e+01 1.849490999999999996e+00 2.091871506563525718e-01
4.541400000000000148e+01 3.451599999999999824e+01 5.753900000000000148e+01 9.496795000000000542e+00 1.017821236972902971e-01
4.541700000000000159e+01 1.717000000000000171e+01 7.925400000000000489e+01 3.293559000000000125e+00 -1.859207103344471812e-01
4.542300000000000182e+01 3.975500000000000256e+01 5.253999999999999915e+01 1.909230000000000160e+01 -2.839255431687020548e-01
4.542300000000000182e+01 4.115500000000000114e+01 5.253999999999999915e+01 1.189309000000000083e+01 -2.819757756069420362e-01
4.542300000000000182e+01 3.233299999999999841e+01 6.201200000000000045e+01 -1.203529999999999989e+00 8.882325114484032613e-02
4.542600000000000193e+01 7.552999999999999936e+00 5.920900000000000318e+01 -5.032681000000000182e+00 3.788664568909747010e-01
4.542600000000000193e+01 3.700500000000000256e+01 5.757300000000000040e+01 7.116533999999999693e+00 -1.738415679638052880e-01
4.543200000000000216e+01 3.656799999999999784e+01 2.897100000000000009e+01 9.561536000000000479e-01 -1.857637196767965015e-01
4.543200000000000216e+01 3.656799999999999784e+01 3.067099999999999937e+01 -1.905281000000000002e+00 -1.861007419433144128e-01
4.543200000000000216e+01 3.761800000000000210e+01 2.897100000000000009e+01 9.542639000000000538e-01 -1.858552880378256666e-01
4.543200000000000216e+01 3.761800000000000210e+01 3.067099999999999937e+01 -1.183731000000000089e+00 -1.861908406939645488e-01
4.543299999999999983e+01 1.960300000000000153e+01 4.619599999999999795e+01 4.560551000000000244e+00 -2.007712193399926320e-02
4.545100000000000051e+01 8.512700000000000600e+00 6.221099999999999852e+01 -6.363647000000000276e+00 9.883339034426705250e-02
4.545499999999999829e+01 2.420400000000000063e+01 6.653100000000000591e+01 1.713853999999999989e+00 2.529333828964392406e-01
4.545700000000000074e+01 3.385000000000000142e+01 5.908299999999999841e+01 -2.137156999999999840e+01 1.000513728771723204e-01
4.546200000000000330e+01 2.023100000000000165e+01 7.500499999999999545e+01 1.521165000000000056e+01 -9.997927477073108304e-02
4.546600000000000108e+01 2.607100000000000151e+01 3.767199999999999704e+01 6.449704999999999799e+00 -1.862729677496169356e-01
4.546600000000000108e+01 3.060800000000000054e+01 6.240400000000000347e+01 1.189729999999999954e+01 6.296339152036070641e-02
4.546999999999999886e+01 1.719000000000000128e+01 7.835599999999999454e+01 -1.462602000000000046e+01 -1.875356124349285003e-01
4.547399999999999665e+01 1.853800000000000026e+01 7.164100000000000534e+01 1.566530000000000022e+01 9.898551882629184895e-02
4.547399999999999665e+01 1.874699999999999989e+01 7.090500000000000114e+01 2.984028999999999954e+01 9.271333198098266615e-02
4.547399999999999665e+01 1.874699999999999989e+01 7.237699999999999534e+01 1.478106999999999971e+01 1.037817717035155879e-01
4.547500000000000142e+01 2.483599999999999852e+01 3.935699999999999932e+01 6.239550999999999625e+00 -1.865028544966648438e-01
4.548400000000000176e+01 7.863999999999999879e+00 5.215899999999999892e+01 -5.579362000000000210e-02 2.071909365050595697e-01
4.548400000000000176e+01 7.863999999999999879e+00 5.461899999999999977e+01 -1.737420000000000075e-01 2.037361924863161922e-01
4.548799999999999955e+01 2.333099999999999952e+01 6.668099999999999739e+01 -2.184338999999999942e+01 2.479196736052384220e-01
4.549099999999999966e+01 3.383700000000000330e+01 5.996900000000000119e+01 -1.546110999999999969e+01 1.005559855702476690e-01
4.549099999999999966e+01 1.990599999999999881e+01 4.549600000000000222e+01 4.055537000000000170e+00 -1.834345887509381684e-02
4.549499999999999744e+01 1.089300000000000068e+01 6.780100000000000193e+01 1.426650000000000063e+01 1.154310257451978544e-01
4.549600000000000222e+01 4.163400000000000034e+01 4.198700000000000188e+01 4.961440999999999768e+00 -6.674647249933284010e-02
4.551299999999999812e+01 3.042200000000000060e+01 2.797700000000000031e+01 3.965792000000000206e-01 -1.848859093618139271e-01
4.551400000000000290e+01 4.788100000000000023e+01 4.359400000000000119e+01 3.872749000000000219e+00 -1.726295576262586173e-01
4.551500000000000057e+01 3.213799999999999812e+01 2.712300000000000111e+01 5.096842000000000317e-01 -1.849764949304038841e-01
4.552000000000000313e+01 2.038800000000000168e+01 4.687400000000000233e+01 -3.832698000000000160e+00 -2.178543603581872129e-02
4.552100000000000080e+01 2.769699999999999918e+01 6.429200000000000159e+01 4.937065999999999732e+00 2.475402870638674369e-01
4.552199999999999847e+01 3.677700000000000102e+01 3.315400000000000347e+01 5.001219999999999999e+00 -1.866964202391565297e-01
4.552900000000000347e+01 3.605299999999999727e+01 3.307699999999999818e+01 3.207333999999999907e+00 -1.866140681667984302e-01
4.553199999999999648e+01 4.381099999999999994e+01 4.258200000000000074e+01 1.557351000000000063e+01 -6.685597750010549567e-02
4.553300000000000125e+01 9.275199999999999889e+00 6.420999999999999375e+01 1.387897000000000070e+01 1.029173971869605797e-01
4.553300000000000125e+01 9.484299999999999287e+00 6.494599999999999795e+01 7.652555000000000440e+00 1.050287905357121937e-01
4.553399999999999892e+01 3.549900000000000233e+01 3.007600000000000051e+01 -2.438171000000000177e+01 -1.858841921853735535e-01
4.554299999999999926e+01 3.407800000000000296e+01 6.175099999999999767e+01 -2.947010999999999825e+01 8.392988551551534837e-02
4.554899999999999949e+01 3.864699999999999847e+01 3.309000000000000341e+01 2.397119999999999962e+01 -1.868173119672823790e-01
4.556000000000000227e+01 9.397700000000000387e+00 6.573499999999999943e+01 6.237897000000000247e+00 1.080216521661504087e-01
4.557000000000000028e+01 3.709300000000000352e+01 3.145100000000000051e+01 -2.895325000000000149e+00 -1.863265609400236167e-01
4.557099999999999795e+01 1.856299999999999883e+01 4.666299999999999670e+01 1.469742000000000104e+00 -2.176417277426231228e-02
4.557600000000000051e+01 2.549899999999999878e+01 6.635999999999999943e+01 1.588016000000000005e+01 2.651896393066012214e-01
4.558299999999999841e+01 2.469099999999999895e+01 7.637800000000000011e+01 7.548974999999999991e-01 -2.483971494445613160e-01
4.558299999999999841e+01 1.405799999999999983e+01 7.212600000000000477e+01 1.615425000000000111e+01 1.007085928063367886e-01
4.558700000000000330e+01 3.722200000000000131e+01 3.237700000000000244e+01 1.010135999999999923e+00 -1.865495684577418156e-01
4.558800000000000097e+01 2.642699999999999960e+01 7.983899999999999864e+01 3.084777000000000058e+01 -1.493268812242464771e-01
4.559100000000000108e+01 1.221700000000000053e+01 6.854900000000000659e+01 3.235481000000000051e+01 1.189038921659602427e-01
4.559300000000000352e+01 4.510600000000000165e+01 4.310600000000000165e+01 2.605212999999999823e+01 -1.739703804010244714e-01
4.561099999999999710e+01 3.478399999999999892e+01 2.752700000000000102e+01 -1.329700000000000049e-01 -1.853509322340916587e-01
4.561200000000000188e+01 2.247500000000000142e+01 6.798300000000000409e+01 -3.318496999999999808e+00 -6.987698231564692941e-02
4.561200000000000188e+01 1.284699999999999953e+01 4.891100000000000136e+01 -2.169477999999999795e+00 2.135343398422218930e-01
4.561399999999999721e+01 4.143800000000000239e+01 4.121999999999999886e+01 -1.090342000000000056e+01 -6.671535503862978389e-02
4.561500000000000199e+01 1.785399999999999920e+01 8.237600000000000477e+01 3.595451000000000175e+00 -1.779172266105478739e-01
4.561500000000000199e+01 1.930000000000000071e+01 8.318200000000000216e+01 1.080744999999999933e+01 -1.750782821307101111e-01
4.561500000000000199e+01 3.834700000000000131e+01 5.684700000000000131e+01 -6.003144999999999953e+01 -2.891466237263785599e-01
4.562700000000000244e+01 2.539300000000000068e+01 8.132999999999999829e+01 4.972525000000000084e+00 -1.562602643021400728e-01
4.562800000000000011e+01 1.589799999999999969e+01 7.500799999999999557e+01 1.030594000000000010e+00 -1.836676435663905371e-01
4.562800000000000011e+01 1.589799999999999969e+01 7.587300000000000466e+01 -2.493667999999999996e-01 -1.839443890577183160e-01
4.562800000000000011e+01 1.589799999999999969e+01 7.681300000000000239e+01 -1.051309999999999967e+01 -1.839686929704614227e-01
4.562899999999999778e+01 2.076999999999999957e+01 8.290500000000000114e+01 8.301278999999999186e+00 -1.649930027073900907e-01
4.562899999999999778e+01 2.224599999999999866e+01 8.222299999999999898e+01 1.848867999999999867e+01 -1.660195462593888893e-01
4.563499999999999801e+01 3.549600000000000222e+01 2.837000000000000099e+01 -2.530775000000000219e+00 -1.855703634862463924e-01
4.564200000000000301e+01 1.402999999999999936e+01 7.106100000000000705e+01 3.516582999999999970e+01 9.701527052324412925e-02
4.564399999999999835e+01 3.339200000000000301e+01 2.685800000000000054e+01 -7.122373999999999761e+00 -1.850968397753606498e-01
4.564600000000000080e+01 4.296300000000000097e+01 5.416100000000000136e+01 1.373751000000000033e+01 -2.795338277185367426e-01
4.564900000000000091e+01 3.868500000000000227e+01 5.605799999999999983e+01 -2.243803000000000125e+01 -2.877968762838905570e-01
4.565500000000000114e+01 1.744900000000000162e+01 4.651700000000000301e+01 3.603333000000000119e+00 2.188234083479609904e-01
4.565599999999999881e+01 2.117699999999999960e+01 4.172999999999999687e+01 8.241448999999999359e+00 -1.120077972537314275e-02
4.565599999999999881e+01 1.399699999999999989e+01 4.776400000000000290e+01 4.105462000000000167e+00 2.154770381330723961e-01
4.565999999999999659e+01 4.597800000000000153e+01 5.169800000000000040e+01 2.602591999999999928e+01 -2.764242358396732380e-01
4.566400000000000148e+01 2.266100000000000136e+01 3.986200000000000188e+01 6.263384000000000285e+00 -1.860234243540453691e-01
4.566499999999999915e+01 4.555899999999999750e+01 4.877100000000000080e+01 6.961208000000000062e+00 -1.575686722665776140e-01
4.566499999999999915e+01 4.587299999999999756e+01 5.426299999999999812e+01 6.628331000000000017e+01 -2.757238399549952201e-01
4.566700000000000159e+01 2.688800000000000168e+01 6.545099999999999341e+01 7.538657999999999859e+00 2.617092030702065086e-01
4.567199999999999704e+01 1.749699999999999989e+01 8.157299999999999329e+01 7.275890999999999664e+00 -1.812871787744071705e-01
4.567399999999999949e+01 4.428900000000000148e+01 5.437400000000000233e+01 3.121677000000000035e+01 -2.776317754675383109e-01
4.567900000000000205e+01 4.682699999999999818e+01 4.809700000000000131e+01 9.108413999999999788e+00 -1.571165464497553677e-01
4.567900000000000205e+01 4.827300000000000324e+01 4.729099999999999682e+01 9.649737999999999261e+00 -1.567389551679496118e-01
4.567900000000000205e+01 4.852700000000000102e+01 4.639699999999999847e+01 6.730934000000000417e+00 -1.572354276411564722e-01
4.568200000000000216e+01 3.856700000000000017e+01 5.504599999999999937e+01 -6.900616000000000305e+00 -2.872981006257929737e-01
4.568699999999999761e+01 3.824499999999999744e+01 3.236899999999999977e+01 5.104440999999999562e+00 -1.866305248937089600e-01
4.568800000000000239e+01 2.584700000000000131e+01 8.058799999999999386e+01 6.643475999999999715e+00 -1.555966629584620287e-01
4.568800000000000239e+01 2.224899999999999878e+01 6.919400000000000261e+01 -6.598558999999999841e+00 -5.169175352711965349e-02
4.568999999999999773e+01 4.158800000000000097e+01 5.324000000000000199e+01 1.836983999999999995e+01 -2.815408118192324061e-01
4.569299999999999784e+01 1.985699999999999932e+01 7.414000000000000057e+01 3.126026999999999845e+01 -9.582490383546542201e-02
4.569700000000000273e+01 8.909000000000000696e+00 4.824499999999999744e+01 6.557968999999999937e+00 2.119182098033225436e-01
4.569700000000000273e+01 1.045899999999999963e+01 4.824499999999999744e+01 3.344361000000000139e+00 2.127473425415303265e-01
4.570100000000000051e+01 2.497100000000000009e+01 3.522999999999999687e+01 2.014746000000000148e+00 -1.853520824850070359e-01
4.570100000000000051e+01 2.522500000000000142e+01 3.433599999999999852e+01 2.927150999999999836e+00 -1.852011856645252585e-01
4.570100000000000051e+01 2.522500000000000142e+01 3.612400000000000233e+01 3.146670999999999996e+00 -1.856410231077817719e-01
4.570100000000000051e+01 2.667099999999999937e+01 3.353000000000000114e+01 3.209233000000000224e-01 -1.853275035587861885e-01
4.570700000000000074e+01 1.914900000000000091e+01 7.277100000000000080e+01 1.390384000000000064e+01 1.028764338855559651e-01
4.570799999999999841e+01 2.792299999999999827e+01 3.274399999999999977e+01 -8.577213999999999672e+00 -1.853976098567509667e-01
4.571000000000000085e+01 2.068799999999999883e+01 6.982500000000000284e+01 -2.478970999999999947e+01 6.867158537253040262e-02
4.571200000000000330e+01 2.388400000000000034e+01 8.206499999999999773e+01 9.497585000000000832e+00 -1.683126977440315142e-01
4.571300000000000097e+01 3.517099999999999937e+01 3.083599999999999852e+01 -3.161150999999999911e+01 -1.860245287225993915e-01
4.571300000000000097e+01 3.517099999999999937e+01 3.223599999999999710e+01 -1.327671999999999963e+00 -1.863383523550155296e-01
4.571300000000000097e+01 3.603600000000000136e+01 3.083599999999999852e+01 -1.157811000000000057e+01 -1.861104571375497563e-01
4.571399999999999864e+01 2.830900000000000105e+01 3.188400000000000034e+01 -7.155289999999999706e-01 -1.852857139291168020e-01
4.571900000000000119e+01 2.964300000000000068e+01 6.314800000000000324e+01 -7.827969000000000399e+00 5.969311726913893029e-02
4.572599999999999909e+01 4.045499999999999829e+01 5.248199999999999932e+01 1.480950999999999951e+01 -2.829514630251869223e-01
4.572699999999999676e+01 1.892699999999999960e+01 4.596200000000000330e+01 3.500538000000000149e+00 -2.010136901304091991e-02
4.572999999999999687e+01 4.552900000000000347e+01 5.115999999999999659e+01 2.068579000000000079e+01 -2.769755045425623674e-01
4.573199999999999932e+01 4.124199999999999733e+01 4.045300000000000296e+01 -9.138932000000000500e+00 -6.668645283193617990e-02
4.573400000000000176e+01 2.589399999999999835e+01 7.650100000000000477e+01 8.731355000000000643e+00 -2.266573123679564150e-01
4.573700000000000188e+01 3.430299999999999727e+01 6.072299999999999898e+01 -8.642832000000000292e+00 8.095168050257486869e-02
4.573700000000000188e+01 1.675799999999999912e+01 7.765600000000000591e+01 -1.226646000000000036e+01 -1.888589467341023898e-01
4.574499999999999744e+01 3.794200000000000017e+01 3.166900000000000048e+01 2.782017999999999880e+00 -1.864547993525832725e-01
4.575200000000000244e+01 9.118000000000000327e+00 6.335199999999999676e+01 1.978727999999999909e+01 1.007449701590766578e-01
4.575500000000000256e+01 2.678300000000000125e+01 7.905500000000000682e+01 2.330557000000000016e+02 -1.537155910410770709e-01
4.575600000000000023e+01 8.426199999999999690e+00 5.692699999999999960e+01 -3.333029000000000130e-01 2.000113540984470029e-01
4.575600000000000023e+01 8.635300000000000864e+00 5.619100000000000250e+01 1.617464000000000124e-01 2.011429376466481178e-01
4.575699999999999790e+01 2.829799999999999827e+01 6.397200000000000131e+01 5.673462999999999923e+00 2.495249733328967490e-01
4.576299999999999812e+01 4.301299999999999812e+01 4.236899999999999977e+01 1.387649000000000044e+01 -6.680548712986565663e-02
4.577199999999999847e+01 3.486699999999999733e+01 3.153600000000000136e+01 -2.022375999999999863e+01 -1.861506924049199097e-01
4.577199999999999847e+01 3.633899999999999864e+01 3.153600000000000136e+01 -3.996213000000000015e+00 -1.862959664566805895e-01
4.577799999999999869e+01 4.006000000000000227e+01 3.868900000000000006e+01 -4.478809000000000040e+00 -6.660284627248269640e-02
4.578000000000000114e+01 1.436400000000000077e+01 4.685699999999999932e+01 6.704723999999999684e+00 2.164010992047024629e-01
4.578000000000000114e+01 1.581000000000000050e+01 4.605100000000000193e+01 3.121741999999999795e+00 2.179492254486956604e-01
4.578099999999999881e+01 3.559400000000000119e+01 5.721900000000000119e+01 1.021203000000000038e+01 1.041544074051200947e-01
4.578699999999999903e+01 8.079000000000000625e+00 6.162199999999999989e+01 -3.685517000000000110e+01 9.859942146396402651e-02
4.579099999999999682e+01 3.838600000000000279e+01 3.035999999999999943e+01 1.060656000000000043e+00 -1.862132449254451649e-01
4.579299999999999926e+01 1.987500000000000000e+01 4.444700000000000273e+01 5.660089000000000148e+00 -1.651253962427494046e-02
4.579599999999999937e+01 3.648599999999999710e+01 3.237700000000000244e+01 8.075782000000000238e-01 -1.865038345970044809e-01
4.579999999999999716e+01 1.953300000000000125e+01 7.353499999999999659e+01 4.952951999999999799e+01 -9.132474824268219105e-02
4.580899999999999750e+01 2.159100000000000108e+01 4.096900000000000119e+01 5.983355000000000423e+00 -1.033301349696310288e-02
4.580899999999999750e+01 3.935000000000000142e+01 3.718599999999999994e+01 -1.661218000000000083e+00 -6.646734385113220456e-02
4.581300000000000239e+01 3.147100000000000009e+01 6.231199999999999761e+01 3.642992999999999881e+01 7.157815081841786831e-02
4.581400000000000006e+01 3.853699999999999903e+01 5.422500000000000142e+01 -9.776162999999999936e-01 -2.867319202158087332e-01
4.581400000000000006e+01 3.874600000000000222e+01 5.348799999999999955e+01 4.169120999999999633e+00 -2.859049548225929271e-01
4.582600000000000051e+01 2.333599999999999852e+01 7.692000000000000171e+01 -9.779172000000000864e+00 -2.483697845657529268e-01
4.583100000000000307e+01 3.949499999999999744e+01 3.627600000000000335e+01 4.050768999999999842e+00 -6.643174899565991443e-02
4.584199999999999875e+01 2.528300000000000125e+01 3.859799999999999898e+01 6.850386000000000308e+00 -1.864252625518852402e-01
4.585000000000000142e+01 1.009600000000000009e+01 6.761400000000000432e+01 8.086546999999999485e+00 1.149532775775351096e-01
4.585000000000000142e+01 2.023199999999999932e+01 4.364399999999999835e+01 7.572143999999999764e+00 -1.492487431616803042e-02
4.585499999999999687e+01 8.352999999999999758e+00 5.529599999999999937e+01 -1.272976000000000107e+00 2.025904337774978858e-01
4.585799999999999699e+01 3.368999999999999773e+01 5.836899999999999977e+01 -5.048976999999999826e+00 9.744941087060782214e-02
4.586500000000000199e+01 3.817900000000000205e+01 3.114000000000000057e+01 -1.385124000000000077e-01 -1.863657290568757063e-01
4.586699999999999733e+01 2.898600000000000065e+01 3.077299999999999969e+01 2.613020999999999816e+00 -1.852010549760301494e-01
4.586800000000000210e+01 3.317300000000000182e+01 6.222200000000000131e+01 -1.285501999999999967e+01 7.491534019910138509e-02
4.586899999999999977e+01 2.724699999999999989e+01 6.500199999999999534e+01 4.422090999999999994e+00 2.590606793021373866e-01
4.587899999999999778e+01 2.125600000000000023e+01 7.666299999999999670e+01 -1.033333000000000013e+01 -1.233483305768215549e-01
4.588400000000000034e+01 9.212699999999999889e+00 6.247800000000000153e+01 4.052423000000000286e+01 9.829569996079635941e-02
4.589500000000000313e+01 1.546599999999999930e+01 7.430800000000000693e+01 -2.512143000000000015e+01 1.062299877652672225e-01
4.590599999999999881e+01 1.923799999999999955e+01 7.050799999999999557e+01 5.446526999999999674e+00 8.336662235153993739e-02
4.591299999999999670e+01 3.709300000000000352e+01 2.837500000000000000e+01 8.659618999999999511e-01 -1.857432347753154578e-01
4.592199999999999704e+01 1.273000000000000043e+01 6.931199999999999761e+01 2.271282000000000068e+01 1.232383996714007113e-01
4.592999999999999972e+01 1.330799999999999983e+01 7.259799999999999898e+01 8.846458000000000155e+00 9.991881014420889162e-02
4.593200000000000216e+01 4.512700000000000244e+01 4.947099999999999653e+01 9.039759999999999351e+00 -2.775853544583405941e-01
4.593200000000000216e+01 4.512700000000000244e+01 5.033599999999999852e+01 1.312949000000000055e+01 -2.775109804212941844e-01
4.593699999999999761e+01 3.939900000000000091e+01 3.446999999999999886e+01 1.348889999999999922e+01 -6.633511812935502516e-02
4.593699999999999761e+01 3.965299999999999869e+01 3.536399999999999721e+01 1.687388999999999939e+01 -6.640290464334112908e-02
4.593800000000000239e+01 3.619599999999999795e+01 2.842899999999999849e+01 5.075840999999999825e-01 -1.856755408671018348e-01
4.594700000000000273e+01 2.911499999999999844e+01 2.981500000000000128e+01 4.229440999999999562e+00 -1.850568280540066668e-01
4.594800000000000040e+01 2.434400000000000119e+01 7.701800000000000068e+01 -2.566873000000000005e+01 -2.466080001997930926e-01
4.595199999999999818e+01 2.500900000000000034e+01 6.683899999999999864e+01 4.534099999999999575e+00 2.731529007685964405e-01
4.595400000000000063e+01 7.104000000000000092e+00 5.338900000000000290e+01 -6.747210000000000152e-01 2.052791960606326627e-01
4.595400000000000063e+01 7.331000000000000405e+00 5.259000000000000341e+01 1.453162000000000030e-03 2.063342924291063363e-01
4.595400000000000063e+01 7.331000000000000405e+00 5.418800000000000239e+01 -3.437793000000000099e-01 2.042237542438297415e-01
4.595400000000000063e+01 8.279799999999999827e+00 5.016899999999999693e+01 8.199011000000000493e-01 2.094991250580795494e-01
4.595400000000000063e+01 8.279799999999999827e+00 5.164099999999999824e+01 -2.081783000000000161e+00 2.077457362095986859e-01
4.595400000000000063e+01 8.488899999999999224e+00 5.090500000000000114e+01 7.534361000000000530e-01 2.087192456092070714e-01
4.595600000000000307e+01 1.307399999999999984e+01 7.012699999999999534e+01 1.277305999999999919e+01 1.283552137668205750e-01
4.595700000000000074e+01 3.846800000000000352e+01 2.929599999999999937e+01 7.139240999999999504e-01 -1.860239692088628272e-01
4.596000000000000085e+01 1.164600000000000080e+01 6.808799999999999386e+01 1.932581000000000060e+01 1.163920166374911441e-01
4.596099999999999852e+01 4.635199999999999676e+01 5.253000000000000114e+01 5.393449999999999989e+01 -2.759464593573786595e-01
4.596099999999999852e+01 4.635199999999999676e+01 5.348799999999999955e+01 5.920971000000000117e+01 -2.756307592004426654e-01
4.597200000000000131e+01 4.578699999999999903e+01 4.306700000000000017e+01 9.593185999999999325e+00 -1.736061523656561856e-01
4.598100000000000165e+01 3.560300000000000153e+01 3.153600000000000136e+01 -1.337012999999999963e+01 -1.862439497063009264e-01
4.598299999999999699e+01 3.126599999999999824e+01 2.729700000000000060e+01 1.821715999999999891e+00 -1.849484652454592148e-01
4.598899999999999721e+01 2.397200000000000131e+01 6.752500000000000568e+01 2.532761999999999958e+00 5.953295128858712010e-02
4.598899999999999721e+01 2.681500000000000128e+01 7.808700000000000330e+01 1.987587999999999866e+01 -1.734571393180210364e-01
4.599499999999999744e+01 1.930900000000000105e+01 4.511099999999999710e+01 4.169124000000000052e+00 -1.840026607701147551e-02
4.600099999999999767e+01 4.509799999999999898e+01 5.432800000000000296e+01 7.074486000000000274e+01 -2.767328596613932712e-01
4.601500000000000057e+01 4.211299999999999955e+01 5.409000000000000341e+01 1.216319999999999979e+01 -2.808908295736610716e-01
4.601599999999999824e+01 4.217999999999999972e+01 4.123199999999999932e+01 4.520124999999999837e-02 -6.673210362886972113e-02
4.602300000000000324e+01 3.034299999999999997e+01 6.309000000000000341e+01 3.040163000000000171e+00 6.715795454457329505e-02
4.602300000000000324e+01 2.910399999999999920e+01 6.388100000000000023e+01 2.741448999999999803e+00 6.189391582897143390e-02
4.602400000000000091e+01 2.654899999999999949e+01 7.725799999999999557e+01 1.303222000000000058e+01 -1.989366547656631345e-01
4.602600000000000335e+01 4.440599999999999881e+01 4.283899999999999864e+01 1.326622000000000057e+01 -1.742691228930441927e-01
4.603600000000000136e+01 4.377799999999999869e+01 5.426299999999999812e+01 1.949089000000000027e+01 -2.784677523655899600e-01
4.603900000000000148e+01 4.703099999999999881e+01 4.326899999999999835e+01 3.177036999999999889e+00 -1.730084183534867093e-01
4.603900000000000148e+01 4.847699999999999676e+01 4.407500000000000284e+01 4.543273000000000117e+00 -1.584578824088872517e-01
4.603900000000000148e+01 4.873100000000000165e+01 4.496900000000000119e+01 1.117661000000000016e+01 -1.578044778331480213e-01
4.604500000000000171e+01 2.317500000000000071e+01 6.771599999999999397e+01 4.287359000000000364e+00 5.487487566991733345e-02
4.604599999999999937e+01 2.926899999999999835e+01 2.928900000000000148e+01 1.883939000000000030e+00 -1.850024127234129456e-01
4.606799999999999784e+01 4.081000000000000227e+01 3.958400000000000318e+01 -1.621840999999999866e+01 -6.663947637067516028e-02
4.607500000000000284e+01 1.333000000000000007e+01 7.079399999999999693e+01 3.074212999999999951e+01 9.441349871305564079e-02
4.607500000000000284e+01 1.363100000000000023e+01 7.340699999999999648e+01 8.285505000000000564e+00 1.014452760130180459e-01
4.607699999999999818e+01 7.609300000000000175e+00 5.992199999999999704e+01 -7.845957000000000292e+00 3.789013274956685162e-01
4.607699999999999818e+01 7.609300000000000175e+00 6.086200000000000188e+01 -6.436804999999999666e+00 9.820435638690487579e-02
4.608200000000000074e+01 1.207199999999999918e+01 4.905700000000000216e+01 -2.488424000000000191e+00 2.124731971631272087e-01
4.608500000000000085e+01 3.629399999999999693e+01 5.727799999999999869e+01 -2.014125999999999905e+01 1.053647644867153066e-01
4.608500000000000085e+01 3.781400000000000006e+01 5.727799999999999869e+01 -4.461959999999999837e+01 -1.929936446043506726e-01
4.608899999999999864e+01 2.417200000000000060e+01 6.957299999999999329e+01 -4.366003000000000078e+00 9.209767239684871210e-02
4.609199999999999875e+01 4.859300000000000352e+01 4.584899999999999665e+01 8.005800000000000693e+00 -1.573027039988182108e-01
4.609499999999999886e+01 4.258100000000000307e+01 4.177300000000000324e+01 -1.832891999999999966e+00 -6.675747182682303937e-02
4.610300000000000153e+01 2.287199999999999989e+01 6.841599999999999682e+01 2.244021000000000043e+00 5.980959587323297910e-02
4.610699999999999932e+01 2.482000000000000028e+01 6.752500000000000568e+01 6.168567000000000355e+00 7.331614442531961262e-02
4.611200000000000188e+01 4.612700000000000244e+01 4.836399999999999721e+01 2.870941000000000187e+00 -2.769300818997685876e-01
4.612299999999999756e+01 3.416700000000000159e+01 2.715399999999999991e+01 -3.396825000000000205e+00 -1.852759135443413085e-01
