2.859799999999999898e+01 1.323600000000000065e+01 -2.563599999999999923e+01 4.320842999999999989e+00 -2.733821424941954570e-01
2.860500000000000043e+01 1.330999999999999961e+00 -2.120200000000000173e+01 -7.917678000000000216e-01 -1.443354609095106808e-02
2.860600000000000165e+01 1.773799999999999955e+01 -1.493699999999999939e+01 -1.982986999999999966e+01 1.719539133734909395e-02
2.860600000000000165e+01 1.806299999999999883e+01 -1.419999999999999929e+01 -1.911839000000000155e+01 3.723070410809876246e-02
2.861499999999999844e+01 -4.455700000000000216e-01 -1.717500000000000071e+01 7.842916999999999916e+00 -2.266420220191804266e-02
2.861700000000000088e+01 2.703699999999999903e+01 2.909900000000000020e+01 1.684892999999999930e+01 7.154140487918396463e-02
2.861700000000000088e+01 1.432499999999999929e+01 -2.166100000000000136e+00 3.054650999999999783e+00 5.916443702297200652e-02
2.862199999999999989e+01 5.698999999999999844e+00 -2.154999999999999805e+00 4.219801999999999609e+00 9.042467845764784462e-02
2.862199999999999989e+01 5.952899999999999636e+00 -1.261300000000000088e+00 3.204575000000000173e+00 8.976892626067138614e-02
2.862300000000000111e+01 3.388600000000000279e+01 2.579200000000000159e+01 2.108729999999999905e+01 5.692426511203653450e-02
2.862399999999999878e+01 2.035000000000000142e+01 2.211599999999999966e+01 -4.327150999999999925e+01 6.789047100357684106e-02
2.862399999999999878e+01 8.589000000000000412e+00 -2.486599999999999966e+01 6.072000000000000064e+00 -2.700511153798231812e-01
2.862699999999999889e+01 6.769000000000000128e+00 -2.647200000000000131e+01 1.488749000000000100e+00 -2.662048262376685015e-01
2.862699999999999889e+01 2.654299999999999926e+01 2.809299999999999997e+01 5.801601999999999926e+00 7.130793204096472215e-02
2.863299999999999912e+01 1.998400000000000176e+01 -1.237299999999999933e+01 -1.131391999999999953e+00 1.134190964445081808e-02
2.863800000000000168e+01 2.933299999999999841e+01 8.262000000000000455e+00 -1.832278000000000073e+00 5.319243815777997819e-02
2.864099999999999824e+01 2.174800000000000111e+01 2.122700000000000031e+01 9.294364999999999988e-01 6.817842817117848730e-02
2.864199999999999946e+01 1.777599999999999980e+01 2.110500000000000043e+01 -1.243079999999999963e+00 6.639739549456283307e-02
2.864799999999999969e+01 1.651300000000000168e+01 -1.578200000000000003e+01 -8.129253999999999536e+00 3.403979035582500173e-02
2.864799999999999969e+01 1.937399999999999878e+01 3.683500000000000107e-01 9.673712000000000089e+00 7.225079292573642620e-02
2.864900000000000091e+01 1.507699999999999996e+01 -2.321000000000000085e+01 1.569744000000000028e+01 -8.726567066791458827e-02
2.864900000000000091e+01 2.680300000000000082e+01 -5.229599999999999582e+00 9.723841999999999430e+00 -1.344039698228539914e-01
2.864900000000000091e+01 2.324600000000000222e+00 -1.029899999999999949e+01 -4.096231000000000400e+00 1.019804429516713434e-01
2.865800000000000125e+01 1.485699999999999932e+01 8.586000000000000298e+00 4.772057999999999822e+01 5.020616804646414744e-02
2.866000000000000014e+01 2.750700000000000145e+01 6.520000000000000240e-01 -2.585252000000000105e+00 2.540971170279446995e-02
2.866000000000000014e+01 2.844699999999999918e+01 6.520000000000000240e-01 -3.950765999999999778e+00 -1.522840791757905654e-01
2.866300000000000026e+01 2.923999999999999932e+00 -2.802400000000000091e+01 -3.743281000000000081e+00 -2.643406706331460909e-01
2.866499999999999915e+01 1.001099999999999923e+01 -1.596500000000000030e+00 1.962388999999999939e+01 7.963514193643982109e-02
2.866799999999999926e+01 3.087399999999999878e+01 8.310999999999999943e+00 -4.836730000000000196e+00 -1.203953893692361887e-01
2.867000000000000171e+01 2.007400000000000162e+01 1.190600000000000058e+01 -5.995453000000000365e+00 7.153922723835257069e-02
2.867399999999999949e+01 1.558900000000000041e+01 -1.729599999999999937e+01 4.701305999999999763e+00 8.867931176327893683e-02
2.867899999999999849e+01 2.173300000000000054e+01 2.235999999999999943e+01 1.836230999999999947e+00 6.850598173488688103e-02
2.868400000000000105e+01 1.480599999999999916e+01 -2.397700000000000031e+01 4.075292000000000137e+00 -3.358990254762460048e-01
2.868400000000000105e+01 1.480599999999999916e+01 -2.244300000000000139e+01 6.510402000000000555e+01 -8.878103040691345815e-02
2.868400000000000105e+01 1.824200000000000088e+01 1.126600000000000046e+00 7.473952999999999847e-01 7.237946688237240078e-02
2.868599999999999994e+01 2.449899999999999878e+01 -1.877099999999999991e+00 -9.412604999999999222e+00 4.571793439195848303e-03
2.869200000000000017e+01 2.570400000000000063e+01 -8.335599999999999454e+00 -5.394358000000000208e-01 2.124607011948923679e-02
2.869800000000000040e+01 1.360200000000000031e+01 7.874799999999999578e+00 7.820159000000000304e+00 4.797714887927107680e-02
2.869999999999999929e+01 2.057900000000000063e+01 2.052700000000000102e+01 -5.776379000000000374e+00 6.731543942919987478e-02
2.869999999999999929e+01 2.205099999999999838e+01 2.052700000000000102e+01 5.002787999999999791e+00 6.802221413690033580e-02
2.870100000000000051e+01 1.334699999999999953e+01 1.715999999999999970e+00 8.730021000000000031e-01 7.634526862078766518e-02
2.870200000000000173e+01 1.906599999999999895e+01 2.286700000000000088e+01 -9.971940000000000026e+00 6.758659503843496286e-02
2.870899999999999963e+01 2.641799999999999926e+01 2.642000000000000171e+01 4.662075999999999887e+00 7.104182813825750398e-02
2.871900000000000119e+01 2.437800000000000011e+01 -7.604400000000000048e+00 8.474850999999999912e-01 -1.834760428986917727e-02
2.872100000000000009e+01 1.900400000000000134e+01 -9.486499999999999488e+00 1.014381999999999957e-02 2.844825578794276111e-01
2.872100000000000009e+01 1.130700000000000038e+01 7.742300000000000182e+00 1.685286999999999979e+00 4.792897648343134864e-02
2.872200000000000131e+01 1.914300000000000068e+01 9.101000000000000867e+00 2.189928000000000097e+00 6.616951700718928797e-02
2.872200000000000131e+01 2.033399999999999963e+01 9.765000000000000568e+00 -2.910705000000000098e+00 6.904585116305055059e-02
2.872400000000000020e+01 2.304899999999999949e+01 2.310099999999999909e+01 2.016504000000000119e+01 6.922138835675276103e-02
2.872500000000000142e+01 1.400699999999999967e+01 1.339900000000000091e+00 7.036805999999999894e-01 7.393584780978279536e-02
2.872500000000000142e+01 2.667999999999999972e+01 -4.317999999999999616e+00 4.870747999999999678e+01 -1.403665491198369808e-01
2.873100000000000165e+01 2.390899999999999892e+01 2.170900000000000052e+00 -9.345404000000000488e-01 6.397486266280147382e-02
2.873100000000000165e+01 2.509900000000000020e+01 2.834900000000000198e+00 4.390934000000000226e-01 7.030481071529498527e-02
2.873100000000000165e+01 2.628999999999999915e+01 2.170900000000000052e+00 -1.117294000000000054e+01 7.255014232833657470e-03
2.873300000000000054e+01 3.640899999999999892e+01 1.705699999999999861e+01 1.624833999999999889e+01 -8.941483816128935336e-02
2.874099999999999966e+01 1.783599999999999852e+01 2.204400000000000048e+01 -1.005094000000000065e+01 6.675990147544455522e-02
2.874399999999999977e+01 2.614999999999999858e+01 2.717899999999999849e+01 4.293008999999999631e+00 7.102338771616281687e-02
2.874500000000000099e+01 2.940899999999999892e+01 2.983599999999999852e+01 5.799933000000000050e+01 5.218737067410518515e-02
2.874500000000000099e+01 9.736700000000000799e+00 -8.239999999999999547e-01 1.326220999999999961e+01 8.098978807829590454e-02
2.874500000000000099e+01 -1.602899999999999991e+00 -1.584500000000000064e+01 -1.046546999999999894e+00 -2.463144630455329012e-02
2.874699999999999989e+01 1.502399999999999913e+01 -7.471899999999999764e+00 1.786327999999999960e+01 7.294393226456319379e-02
2.874699999999999989e+01 1.523300000000000054e+01 -8.207900000000000418e+00 1.785943999999999932e+01 8.079427689628818077e-02
2.875000000000000000e+01 2.866000000000000014e+01 7.349599999999999689e+00 3.897088999999999803e+00 8.122339476903886468e-02
2.875100000000000122e+01 2.093400000000000105e+01 -3.370299999999999851e+00 1.457052000000000014e+00 7.493770442928596176e-02
2.875100000000000122e+01 5.966799999999999882e-01 -1.726300000000000168e+01 2.422995000000000010e-01 -2.275211450606650504e-02
2.876099999999999923e+01 5.028700000000000392e-01 -1.876599999999999824e+01 6.492700000000000138e-01 -1.986960310841755228e-02
2.876399999999999935e+01 4.307999999999999829e+00 -2.356899999999999906e+01 -1.915106999999999893e+00 -2.691736848467263798e-01
2.876399999999999935e+01 4.307999999999999829e+00 -2.270400000000000063e+01 2.002979000000000009e-01 -7.804811503968995916e-03
2.876599999999999824e+01 8.301099999999999923e+00 1.551800000000000124e-01 1.263550000000000040e+01 8.527230055371778916e-02
2.877100000000000080e+01 2.910399999999999920e+01 4.617499999999999716e+00 -5.015729999999999933e+01 8.541819881763577926e-02
2.878699999999999903e+01 1.671399999999999864e+01 9.599099999999999966e+00 7.007048000000000165e+00 5.345776119724308939e-02
2.878800000000000026e+01 -6.424199999999999910e-01 -1.799599999999999866e+01 6.610249000000000263e-01 -2.138353276474071890e-02
2.879400000000000048e+01 1.838400000000000034e+01 1.536100000000000065e+01 -3.166529000000000149e+00 6.279358544868098024e-02
2.879400000000000048e+01 1.684700000000000131e+01 -9.547599999999999199e+00 -3.208457999999999810e+00 2.472164685901425685e-01
2.879500000000000171e+01 2.000000000000000000e+01 -2.615400000000000169e+00 4.070598999999999634e+00 6.311334536865485789e-02
2.879899999999999949e+01 1.925000000000000000e+01 -1.291099999999999959e+01 4.956991999999999621e+00 2.053896063853195147e-02
2.880099999999999838e+01 2.327899999999999991e+01 -4.565000000000000391e+00 -1.744582000000000077e-01 7.616676702741906509e-03
2.880900000000000105e+01 5.339599999999999902e-01 -1.242500000000000071e+01 -1.439057999999999993e+01 2.298128885172651681e-01
2.880900000000000105e+01 3.472399999999999665e+01 1.174699999999999989e+01 -1.461777999999999977e+01 -8.939887794562288714e-02
2.880999999999999872e+01 9.000799999999999912e-01 -1.796300000000000097e+01 1.801457000000000086e+00 -2.147344291543231906e-02
2.881299999999999883e+01 3.032900000000000063e+01 2.173900000000000166e+00 -1.176204000000000072e+01 -1.874750900869570636e-01
2.881299999999999883e+01 3.032900000000000063e+01 3.772100000000000009e+00 -8.579590000000000316e+01 -1.873327892298045916e-01
2.881299999999999883e+01 3.055600000000000094e+01 2.972999999999999865e+00 -1.812672999999999845e+01 -1.879084735578843146e-01
2.881599999999999895e+01 9.368299999999999628e+00 2.599999999999999881e-02 1.096499000000000024e+01 8.268626487290539617e-02
2.881599999999999895e+01 1.448900000000000077e+01 7.877699999999999925e+00 1.775857999999999848e+01 4.793718546850968265e-02
2.881899999999999906e+01 1.300500000000000078e+01 7.841599999999999682e+00 7.569706000000000046e+00 4.766310891273854017e-02
2.882100000000000151e+01 1.797700000000000031e+01 1.714699999999999847e+01 8.799732999999999805e+00 6.397019434128337068e-02
2.882199999999999918e+01 3.533400000000000318e+01 2.485099999999999909e+01 4.044691999999999732e-02 -1.196410735990823121e-01
2.882199999999999918e+01 1.884600000000000009e+01 -1.324000000000000021e+01 -4.321154999999999857e-01 2.570518671627770174e-02
2.882300000000000040e+01 3.083299999999999841e+01 2.895499999999999829e+01 2.724821000000000026e+01 5.343573566001275088e-02
2.882400000000000162e+01 2.386100000000000065e+01 -1.460800000000000098e+00 -3.075039999999999907e+01 -1.013887963062326363e-02
2.882799999999999940e+01 2.733999999999999986e+00 -2.707700000000000173e+01 -3.399162000000000017e+00 -2.650789372723426629e-01
2.882799999999999940e+01 2.851999999999999869e+00 -2.623000000000000043e+01 -2.582361999999999824e+00 -2.658846885959194051e-01
2.883299999999999841e+01 4.480000000000000426e+00 -2.932700000000000173e+01 -4.146060000000000301e+00 -2.626584550277551444e-01
2.883500000000000085e+01 -1.830300000000000038e+00 -1.631099999999999994e+01 -8.680588000000000193e-01 -2.396759670828723168e-02
2.883599999999999852e+01 3.686999999999999833e+00 -2.428200000000000003e+01 -6.428598000000000035e+00 -2.680549092686186352e-01
2.883800000000000097e+01 -3.969500000000000250e-01 -1.343299999999999983e+01 -2.394351999999999947e+01 2.330574824215962959e-01
2.883800000000000097e+01 2.551899999999999835e+00 -9.727100000000000080e+00 -4.146117000000000274e+00 1.011911245882510108e-01
2.883800000000000097e+01 2.642999999999999794e+00 -8.144000000000000128e+00 1.427402000000000060e+00 9.941295073365029322e-02
2.883800000000000097e+01 2.761000000000000121e+00 -8.991099999999999426e+00 -6.848454000000000486e-01 1.002406105744536868e-01
2.884600000000000009e+01 5.578500000000000014e+00 -2.955499999999999794e+00 3.235237999999999836e+00 9.098300756834243330e-02
2.884700000000000131e+01 -2.074699999999999989e+00 -1.715700000000000003e+01 8.611402999999999697e-01 -2.269462945615868116e-02
2.885900000000000176e+01 2.358200000000000074e+01 -5.264999999999999680e+00 4.860823999999999701e-02 -3.386407790450036981e-02
2.886400000000000077e+01 1.876800000000000068e+01 1.266999999999999993e+01 -4.434645999999999866e+00 7.079710532304786530e-02
2.886400000000000077e+01 2.791300000000000114e+00 -7.247899999999999565e+00 -1.003433999999999937e+00 9.836594226224090742e-02
2.887199999999999989e+01 5.709699999999999775e+00 -2.850400000000000134e+01 -9.962647000000000475e+00 -2.631427402586307696e-01
2.887300000000000111e+01 3.715299999999999869e+01 1.972800000000000153e+01 2.367154999999999987e+01 -8.945279489580248988e-02
2.887699999999999889e+01 1.592200000000000060e+01 -1.644800000000000040e+01 -1.780486999999999931e+00 4.341898202691849701e-02
2.887699999999999889e+01 1.353800000000000026e+01 -2.332599999999999785e+00 4.780585999999999558e+00 6.397697184197860543e-02
2.887900000000000134e+01 1.773100000000000165e+01 1.009600000000000053e+00 -5.594225999999999921e+00 7.115488345494745681e-02
2.888100000000000023e+01 1.075699999999999967e+01 -2.143699999999999939e+00 2.162606999999999857e+01 7.694019188861579706e-02
2.888200000000000145e+01 1.515099999999999980e+01 -4.022700000000000387e+00 1.047036000000000078e+00 5.086821775912125920e-02
2.888299999999999912e+01 3.123799999999999955e+01 2.803900000000000148e+01 2.772124000000000166e+01 5.383648540587782083e-02
2.888599999999999923e+01 1.809499999999999886e+01 1.615500000000000114e+01 5.033843000000000067e+00 6.318441270275763910e-02
2.888899999999999935e+01 2.450199999999999889e+01 2.276500000000000057e+01 5.408270000000000266e+01 6.960875592315048099e-02
2.889000000000000057e+01 1.508200000000000074e+01 -6.799100000000000144e+00 2.687435999999999936e+01 6.642101168284104962e-02
2.889000000000000057e+01 1.508200000000000074e+01 -5.104899999999999771e+00 2.662078000000000166e+00 5.370911238514079061e-02
2.889000000000000057e+01 1.519999999999999929e+01 -5.951999999999999957e+00 9.265316000000000329e+00 5.809509951851143938e-02
2.889199999999999946e+01 2.662399999999999878e+01 -8.153399999999999537e+00 7.537061000000000455e-01 2.941832172053301248e-02
2.889399999999999835e+01 1.089300000000000068e+01 4.556400000000000006e+00 -8.512018999999999558e-01 8.628240943909055993e-02
2.889699999999999847e+01 1.425999999999999979e+01 7.441100000000000492e-01 3.092339000000000060e-01 7.151290458182679721e-02
2.890299999999999869e+01 2.699200000000000088e+01 2.984199999999999875e+01 9.741336000000000439e+00 7.143617616965211581e-02
2.890399999999999991e+01 -7.482100000000000417e-01 -1.427399999999999913e+01 -1.139968999999999966e+01 2.355540559667127221e-01
2.890899999999999892e+01 2.131500000000000128e+01 2.052700000000000102e+01 -1.455378000000000061e+00 6.747026525371178918e-02
2.891499999999999915e+01 1.648100000000000165e+01 3.052900000000000058e-01 -1.420598000000000027e+01 6.651050322541982029e-02
2.891799999999999926e+01 -1.706299999999999928e+00 -1.800700000000000145e+01 -3.848398000000000096e-01 -2.146472148859047621e-02
2.891799999999999926e+01 3.361399999999999721e+01 7.894999999999999574e+00 -1.764718999999999927e+00 -8.947304790749260883e-02
2.891900000000000048e+01 3.586599999999999966e+01 2.414799999999999969e+01 -5.230878999999999834e+00 -1.197665224517349414e-01
2.892800000000000082e+01 2.816199999999999815e+00 -2.158099999999999952e+01 9.279327000000000547e-01 -1.260042946552485631e-02
2.892800000000000082e+01 3.607200000000000184e+00 -2.188700000000000045e+01 5.560488000000000319e+00 -1.101289326453984072e-02
2.893400000000000105e+01 2.569600000000000151e+01 -2.606500000000000039e+00 8.883594999999999686e+00 3.453929119701677763e-02
2.893900000000000006e+01 2.337199999999999989e+01 2.886699999999999822e-01 -2.326340000000000074e+00 9.412909932396809620e-02
2.894000000000000128e+01 1.242800000000000082e+01 2.048999999999999932e+00 -1.179508999999999919e+00 7.911213327255986472e-02
2.894200000000000017e+01 3.003300000000000125e+01 8.320199999999999818e+00 -5.346892000000000422e+00 -1.201150688478637429e-01
2.895299999999999940e+01 3.521399999999999864e+01 8.258399999999999963e+00 -2.532176999999999900e+00 -8.953729277442089296e-02
2.895700000000000074e+01 3.132799999999999940e+01 2.701599999999999824e+01 3.622097000000000122e+01 5.396544976900972262e-02
2.895700000000000074e+01 3.153699999999999903e+01 2.628000000000000114e+01 3.176764999999999972e+01 5.425083484514515997e-02
2.896199999999999974e+01 2.627700000000000102e+01 -3.476599999999999913e+00 4.512066000000000088e+01 -1.098144570505466162e-02
2.896300000000000097e+01 1.937300000000000111e+01 -8.249800000000000466e-01 5.131198000000000370e+00 6.710036111499287359e-02
2.896799999999999997e+01 2.483999999999999986e+01 -8.315599999999999881e+00 4.290299000000000196e-01 -1.023500769129870487e-02
2.897899999999999920e+01 2.217299999999999827e+01 -4.078400000000000247e+00 -2.042262999999999995e-01 2.539817763166353215e-01
2.897899999999999920e+01 1.526999999999999957e+01 -3.462600000000000122e+00 1.334214999999999929e+00 5.143521625715687801e-02
2.897899999999999920e+01 9.990999999999999659e+00 -2.509499999999999886e+01 4.606576999999999894e-02 -2.701389264983589666e-01
2.897899999999999920e+01 1.803300000000000125e+01 9.095499999999999474e+00 1.173446999999999996e+01 6.429923598548330232e-02
2.898000000000000043e+01 -3.269500000000000184e-01 -1.886899999999999977e+01 -7.771472999999999853e-01 -1.995948683503859580e-02
2.898199999999999932e+01 1.528800000000000026e+01 -2.489000000000000101e-01 -3.058123000000000147e+00 6.524195077292013756e-02
2.898999999999999844e+01 6.291500000000000092e+00 -2.709299999999999997e+01 -3.173366000000000131e+00 -2.647522044721165591e-01
2.899899999999999878e+01 1.135899999999999999e+01 2.165399999999999991e+00 6.463099999999999401e-02 8.136428279177621015e-02
2.900000000000000000e+01 1.954400000000000048e+01 -1.205100000000000016e+01 -1.499489999999999945e+01 8.059593418761046985e-03
2.900199999999999889e+01 1.205199999999999960e+01 -2.314599999999999991e+00 1.882597000000000165e+01 7.166330086794779619e-02
2.901200000000000045e+01 2.596999999999999886e+01 2.362900000000000134e+01 1.350079000000000029e+01 8.080193758749620869e-02
2.901500000000000057e+01 3.648299999999999699e+01 1.032499999999999929e+01 -9.662448000000000148e-01 -8.953321138712058702e-02
2.901899999999999835e+01 1.640600000000000114e-01 -1.796300000000000097e+01 8.836114000000000468e-01 -2.163644752589058418e-02
2.901999999999999957e+01 2.101899999999999835e+01 2.232499999999999929e+01 3.118104999999999905e-01 6.791139199660349568e-02
2.902400000000000091e+01 1.823600000000000065e+01 -9.544800000000000395e+00 4.906621999999999595e+00 2.685614408165975520e-01
2.903099999999999881e+01 1.830600000000000094e+01 2.280399999999999849e+01 -4.935126000000000346e+00 6.701806827611551942e-02
2.903099999999999881e+01 1.982600000000000051e+01 2.280399999999999849e+01 -4.644153000000000020e+01 6.759280474730773591e-02
2.903600000000000136e+01 3.710900000000000176e+01 1.711499999999999844e+01 1.085585000000000022e+01 -8.947037511085531580e-02
2.903900000000000148e+01 2.867099999999999937e+01 5.317499999999999893e+00 -1.621924999999999883e+01 1.119801843650432699e-01
2.904299999999999926e+01 1.050699999999999967e+01 -1.234900000000000109e+00 6.872071000000000041e+00 7.852444534886662830e-02
2.904599999999999937e+01 1.078200000000000003e+01 5.841700000000000337e+00 -1.258110000000000062e+00 8.843090902338507364e-02
2.904599999999999937e+01 1.078200000000000003e+01 6.892299999999999649e+00 -8.453104999999999647e-01 8.994265090610581437e-02
2.904899999999999949e+01 1.242999999999999972e+01 -2.546399999999999864e+01 5.364728999999999637e+00 -2.716390578724584004e-01
2.905600000000000094e+01 3.643399999999999750e+01 9.075900000000000745e+00 -2.840743000000000087e-02 -8.958521067187576181e-02
2.905999999999999872e+01 3.839999999999999858e+00 -5.548300000000000232e+00 -1.202405000000000079e+01 9.557749867967492430e-02
2.905999999999999872e+01 2.227400000000000091e+01 2.303600000000000136e+01 6.856122000000000050e+00 6.862218241095666138e-02
2.905999999999999872e+01 2.382400000000000162e+01 2.303600000000000136e+01 2.089330999999999960e+01 6.925517007711590178e-02
2.905999999999999872e+01 2.522400000000000020e+01 2.303600000000000136e+01 1.691355000000000075e+01 8.035672179712538554e-02
2.906400000000000006e+01 3.130699999999999861e+01 7.820100000000000051e+00 -1.927394000000000052e+00 -8.943777840717223593e-02
2.906400000000000006e+01 5.023299999999999876e+00 -4.736900000000000333e+00 2.769722999999999935e+00 9.318960000296991342e-02
2.906800000000000139e+01 2.525600000000000023e+01 -1.842000000000000082e+00 4.378258999999999901e+00 1.884185672849298526e-02
2.907300000000000040e+01 3.776200000000000112e-01 -1.991799999999999926e+01 -9.724831999999999921e-01 -1.787158035045001425e-02
2.907600000000000051e+01 3.836299999999999955e+01 1.795499999999999829e+01 2.600987999999999900e+01 -8.957330255001588748e-02
2.907600000000000051e+01 3.836299999999999955e+01 1.891300000000000026e+01 2.185632999999999981e+01 -8.957047222002106901e-02
2.907799999999999940e+01 1.725799999999999912e+01 -1.547100000000000009e+01 -1.726178000000000168e+01 2.696698860727102590e-02
2.907900000000000063e+01 1.101200000000000045e+01 3.191600000000000215e+00 -8.674821000000000337e-01 8.386047528817265617e-02
2.908099999999999952e+01 1.301200000000000045e+01 1.396300000000000097e+00 8.566926000000000263e-01 7.643946247727990972e-02
2.908200000000000074e+01 1.833700000000000108e+00 -1.069599999999999973e+01 -4.824283000000000321e+00 2.472744324062166044e-01
2.908800000000000097e+01 1.408000000000000007e+01 -2.482900000000000063e+01 2.651298999999999850e+01 -2.783614090109762795e-01
2.908999999999999986e+01 1.215700000000000003e+01 7.813100000000000378e+00 5.677703000000000344e+01 9.058516753605086458e-02
2.909100000000000108e+01 2.797700000000000031e+01 1.190100000000000047e-01 -1.545735999999999999e+00 -1.521009391455774851e-01
2.909100000000000108e+01 2.342800000000000082e+01 -7.607899999999999663e-01 -6.153419000000000416e+00 9.511422782227532680e-02
2.909400000000000119e+01 2.052400000000000091e+01 -3.487800000000000011e+00 3.254411000000000165e+00 7.157974398217921419e-02
2.909600000000000009e+01 1.119699999999999918e+01 1.348999999999999977e+00 -9.870433000000000234e+00 8.022862872180522298e-02
2.909700000000000131e+01 1.754700000000000060e+01 -9.605900000000000105e+00 -2.749402999999999864e+01 2.572268752844183437e-01
2.910300000000000153e+01 2.056500000000000128e+01 1.003700000000000081e+01 -5.248783000000000420e+00 6.925473271306006873e-02
2.910300000000000153e+01 2.056500000000000128e+01 1.150999999999999979e+01 -8.593586999999999421e+00 7.114906970295425959e-02
2.910300000000000153e+01 2.077400000000000091e+01 1.077399999999999913e+01 -7.070114000000000232e+00 7.053197839510347289e-02
2.910300000000000153e+01 2.717000000000000171e+01 -6.152000000000000135e+00 2.456087000000000131e+01 -1.284089744035973590e-01
2.910300000000000153e+01 2.717000000000000171e+01 -5.286800000000000388e+00 1.328833999999999982e+01 -1.349781456019122916e-01
2.910399999999999920e+01 3.564800000000000324e+01 1.619300000000000139e+01 2.434459000000000017e+01 -8.944778495807921559e-02
2.910600000000000165e+01 2.523400000000000176e+01 -9.028000000000000469e+00 -4.146411999999999765e+00 -1.161649204074444684e-03
2.910600000000000165e+01 2.617399999999999949e+01 -9.028000000000000469e+00 -8.037694999999999368e+00 -1.058476855588529608e-01
2.910699999999999932e+01 1.980300000000000082e+01 -1.113100000000000023e+01 -1.076127999999999929e+01 -2.441877086092822391e-03
2.910800000000000054e+01 3.233599999999999852e+01 7.575899999999999856e+00 2.797374000000000249e-01 -8.949450709892606270e-02
2.911499999999999844e+01 1.948199999999999932e+01 -1.752299999999999969e+00 6.675326000000000093e+00 6.391511791900984785e-02
2.912399999999999878e+01 1.958800000000000097e+01 -1.032199999999999918e+01 -9.559160999999999575e+00 2.870099813633384400e-01
2.912699999999999889e+01 2.456099999999999994e+01 -1.519099999999999895e+00 -3.915852999999999806e+00 4.393961750228930242e-03
2.912900000000000134e+01 1.399900000000000055e+01 -1.872000000000000108e+00 2.126549999999999940e+00 6.365946253701770807e-02
2.912999999999999901e+01 7.348900000000000432e-01 -2.072100000000000009e+01 -8.379035999999999706e-01 -1.614549870780096832e-02
2.912999999999999901e+01 2.181000000000000050e+00 -2.152700000000000102e+01 -7.601645000000000207e-01 -1.342537486359050847e-02
2.912999999999999901e+01 2.674699999999999989e+01 9.422899999999999610e-01 -4.209480000000000111e+00 1.733719324590044658e-02
2.913400000000000034e+01 2.933800000000000097e+01 9.376200000000000090e-01 -2.332999999999999829e+01 -1.845148893090891862e-01
2.914199999999999946e+01 2.618700000000000117e+01 2.877400000000000091e+01 5.806502000000000052e+00 7.098187859810962952e-02
2.914399999999999835e+01 2.855900000000000105e+01 5.904799999999999827e+00 5.244620000000000282e+00 1.107091439223422541e-01
2.914399999999999835e+01 2.855900000000000105e+01 6.769999999999999574e+00 1.233295000000000030e+01 8.032565575186670359e-02
2.914499999999999957e+01 5.544200000000000017e+00 -3.931599999999999984e+00 1.011383999999999972e+01 9.167684619646587763e-02
2.914699999999999847e+01 6.549000000000000377e+00 -7.796699999999999742e-01 8.693951000000000207e+00 8.869002062986539037e-02
2.915200000000000102e+01 1.919699999999999918e+01 -2.557999999999999829e+00 3.949698000000000153e+00 5.815440340188653134e-02
2.915200000000000102e+01 3.427499999999999858e+01 7.922100000000000364e+00 3.640986999999999973e-01 -8.956931081431909747e-02
2.915200000000000102e+01 7.365099999999999980e+00 -2.599099999999999966e+01 3.093338999999999839e+00 -2.663848794458701930e-01
2.915399999999999991e+01 2.863400000000000034e+01 3.007700000000000173e+01 4.042300999999999789e+01 5.128295620126517573e-02
2.915500000000000114e+01 1.984299999999999997e+01 9.368399999999999395e+00 7.921749999999999625e-01 6.707594168883607155e-02
2.916000000000000014e+01 1.615800000000000125e+01 -8.986000000000000654e+00 9.368776999999999688e+00 2.388026773528741931e-01
2.916199999999999903e+01 3.720000000000000195e+00 -2.926399999999999935e+01 -4.042818999999999718e+00 -2.626177066667996773e-01
2.916199999999999903e+01 5.240000000000000213e+00 -2.926399999999999935e+01 -4.517170000000000130e+00 -2.621076526868663104e-01
2.916300000000000026e+01 2.439900000000000091e+01 2.567499999999999893e+00 -3.344695000000000196e+00 6.588226652010018003e-02
2.916300000000000026e+01 2.579899999999999949e+01 2.567499999999999893e+00 -1.867942999999999998e+01 7.151461776503140189e-02
2.917000000000000171e+01 1.731899999999999906e+01 1.996999999999999886e+01 1.805315000000000114e-01 6.514166617221019140e-02
2.917000000000000171e+01 1.731899999999999906e+01 2.101999999999999957e+01 -2.540230000000000210e+00 6.571431828776384820e-02
2.917299999999999827e+01 3.629099999999999682e+01 2.125600000000000023e+01 1.741358999999999924e+01 -8.947182236190207028e-02
2.917299999999999827e+01 3.629099999999999682e+01 2.212099999999999866e+01 -4.232135999999999676e+00 -8.947455343480247014e-02
2.917299999999999827e+01 3.629099999999999682e+01 2.323300000000000054e+01 -1.603499000000000052e+01 -1.199214120295839514e-01
2.917500000000000071e+01 1.440900000000000070e+01 -2.354400000000000048e+01 6.631817999999999991e+00 -2.874220312755116358e-01
2.917500000000000071e+01 1.440900000000000070e+01 -2.201099999999999923e+01 1.348410999999999937e+01 -3.705797315878912868e-02
2.917899999999999849e+01 1.572400000000000020e+01 -8.604499999999999815e+00 9.368776999999999688e+00 2.334830636527129022e-01
2.917999999999999972e+01 1.425399999999999956e+01 -2.425499999999999901e+01 6.677583000000000268e+00 -2.823036729690146518e-01
2.918400000000000105e+01 1.442500000000000071e+01 -2.138899999999999935e+01 -6.383763999999999550e-01 -3.777964377963508730e-02
2.918400000000000105e+01 1.463400000000000034e+01 -2.065299999999999869e+01 -2.381435999999999886e+00 -4.047733597816304679e-02
2.918499999999999872e+01 1.085399999999999920e+01 4.104000000000000092e+00 -7.717503999999999476e-01 8.566027978179595326e-02
2.920499999999999829e+01 1.459699999999999953e+01 -8.000000000000000167e-02 1.060867000000000004e+00 6.819885134841512098e-02
2.921499999999999986e+01 1.857300000000000040e+01 6.387599999999999945e-01 3.035000999999999838e+00 7.204585464432153308e-02
2.921799999999999997e+01 3.437500000000000000e+01 1.424099999999999966e+01 9.919791000000000025e+00 -8.944360162127404368e-02
2.921799999999999997e+01 1.201299999999999990e+01 1.319600000000000106e+00 -4.999143000000000114e+00 7.849072752458335911e-02
2.922299999999999898e+01 1.956599999999999895e+01 -3.407999999999999918e+00 3.801699999999999857e+00 6.026753731169465222e-02
2.922800000000000153e+01 2.263500000000000156e+01 -4.789600000000000080e+00 -3.039452999999999960e+00 2.651847109275521919e-01
2.923799999999999955e+01 2.635099999999999909e+01 2.442800000000000082e+01 3.099031000000000091e+01 8.094058853732269410e-02
2.923799999999999955e+01 2.635099999999999909e+01 2.529299999999999926e+01 1.679573999999999856e+01 8.103137229202446445e-02
2.923900000000000077e+01 1.502500000000000036e+01 -1.969800000000000040e+01 -1.507604000000000077e+01 2.440964754958518945e-01
2.924200000000000088e+01 3.402400000000000091e+01 1.288000000000000078e+01 -4.567392999999999859e+01 -8.945079182130612205e-02
2.924200000000000088e+01 3.423299999999999699e+01 1.214400000000000013e+01 -1.987712000000000145e+01 -8.946599104006852654e-02
2.924200000000000088e+01 3.423299999999999699e+01 1.361599999999999966e+01 -2.541011999999999826e+00 -8.944887976915799621e-02
2.924200000000000088e+01 3.542399999999999949e+01 1.148000000000000043e+01 -7.865346999999999866e+00 -8.951477428448698093e-02
2.924599999999999866e+01 1.483699999999999974e+01 -2.762599999999999945e+00 6.497368000000000032e-01 5.755008592897679909e-02
2.924899999999999878e+01 1.518900000000000006e+01 8.145099999999999341e+00 1.261781000000000041e+01 5.898079137504910058e-02
2.925100000000000122e+01 1.468900000000000006e+01 -1.537400000000000100e+00 2.050218000000000096e+00 6.230571930758212196e-02
2.925100000000000122e+01 1.499200000000000088e+01 -8.374399999999999622e-01 1.966374000000000066e+00 6.415335102904287656e-02
2.925100000000000122e+01 1.604700000000000060e+01 -2.839900000000000202e-01 -8.896907999999999817e+00 6.472124591802752569e-02
2.925199999999999889e+01 1.074300000000000033e+01 5.476499999999999702e-01 3.778900000000000148e+00 8.009908124221283565e-02
2.925499999999999901e+01 1.835500000000000043e+01 -1.363700000000000045e+01 2.714938000000000073e+00 2.851125464375512536e-02
2.925600000000000023e+01 3.591400000000000148e+01 8.316599999999999326e+00 2.178478999999999832e-02 -8.965207251260737253e-02
2.925700000000000145e+01 2.375600000000000023e+01 1.386600000000000055e+00 -1.195673000000000030e+01 9.582214042918929531e-02
2.926099999999999923e+01 1.415099999999999980e+01 -2.274899999999999878e+01 1.310318000000000005e+01 -3.392833857081954674e-02
2.926399999999999935e+01 1.035899999999999999e+01 -2.560999999999999943e-01 1.051219000000000037e+01 8.008885639726433248e-02
2.926500000000000057e+01 1.009399999999999942e+01 6.490000000000000213e-01 8.132085999999999260e+00 8.180757212645220489e-02
2.926800000000000068e+01 1.618900000000000006e+01 9.003000000000000114e+00 4.542351000000000028e+00 6.178692946325272523e-02
2.926800000000000068e+01 1.723900000000000077e+01 9.003000000000000114e+00 2.294873000000000118e+01 6.281345606654227531e-02
2.926899999999999835e+01 1.498099999999999987e+01 -7.340499999999999581e+00 1.307884999999999920e+01 7.403928193471157049e-02
2.926899999999999835e+01 1.518999999999999950e+01 -8.076499999999999346e+00 1.296785000000000032e+01 2.277935815137011877e-01
2.926999999999999957e+01 9.396100000000000285e-02 -1.303700000000000081e+01 -1.249466999999999928e+01 2.317465442122501607e-01
2.927499999999999858e+01 -1.246299999999999963e+00 -1.863299999999999912e+01 3.230643000000000264e-01 -2.068238753526620982e-02
2.927700000000000102e+01 2.571900000000000119e+01 2.670899999999999963e+01 4.265278999999999598e+00 8.092017691778505273e-02
2.927700000000000102e+01 2.571900000000000119e+01 2.764900000000000091e+01 4.310477999999999810e+00 7.062760147022670298e-02
2.928200000000000003e+01 2.989499999999999957e+01 4.262800000000000367e+00 -9.165796000000000276e+01 -1.863592086837969064e-01
2.928200000000000003e+01 2.147299999999999898e+01 -4.020100000000000229e+00 5.928345000000000420e-01 2.503325321836061823e-01
2.928999999999999915e+01 2.296300000000000097e+01 -5.559899999999999842e+00 1.514796000000000024e-02 2.761793728897996014e-01
2.928999999999999915e+01 1.885399999999999920e+01 -1.247899999999999920e+01 9.231612999999999403e+00 1.565532519603964751e-02
2.929200000000000159e+01 1.946000000000000085e+01 1.225600000000000023e+01 -6.126443000000000083e+00 7.055156365734918666e-02
2.929500000000000171e+01 3.481799999999999784e+01 2.528800000000000026e+01 9.903114999999999668e+00 -1.196137558232183984e-01
2.930000000000000071e+01 9.007099999999999440e+00 6.246099999999999985e-01 1.806910999999999845e+01 8.425313727032489319e-02
2.930499999999999972e+01 7.409600000000000186e+00 -1.344899999999999984e-01 7.757236999999999938e+00 8.716435332855275442e-02
2.930900000000000105e+01 1.332499999999999929e+01 7.143099999999999561e+00 1.096288000000000018e+01 8.921867421486064098e-02
2.930900000000000105e+01 1.418999999999999950e+01 7.143099999999999561e+00 -3.010970000000000035e-01 8.909044830932853765e-02
2.932100000000000151e+01 3.307000000000000028e+01 2.547599999999999909e+01 2.345317999999999969e+01 5.568357448061535264e-02
2.932199999999999918e+01 9.176099999999999923e+00 -2.506099999999999994e+01 -6.893801000000000512e-01 -2.688638591163615699e-01
2.932300000000000040e+01 1.039799999999999969e+01 1.348999999999999977e+00 -3.676889000000000074e+00 8.209834672106708364e-02
2.932499999999999929e+01 1.281000000000000050e+01 -2.360599999999999810e+00 7.839158000000000293e+00 6.889691391356059236e-02
2.932900000000000063e+01 1.356000000000000050e+01 1.011500000000000066e+00 9.693057000000000478e-01 7.454711500994069817e-02
2.933200000000000074e+01 2.363500000000000156e+01 4.842899999999999983e-01 -6.912087999999999788e+00 9.544083874297222547e-02
2.933200000000000074e+01 2.613299999999999912e+01 2.952100000000000080e+01 5.755844999999999878e+00 7.094715917818060491e-02
2.933399999999999963e+01 1.823499999999999943e+01 1.310100000000000087e+01 -3.768600000000000172e+00 7.031724615907544718e-02
2.933800000000000097e+01 2.373900000000000077e+01 -7.197300000000000253e+00 2.316597999999999935e+00 -4.675209553144954455e-02
2.933800000000000097e+01 2.752400000000000091e+01 -6.661400000000000432e+00 8.056703999999999866e+00 -1.251914458098829230e-01
2.933800000000000097e+01 2.960000000000000142e+01 7.829299999999999926e+00 -2.269499000000000155e+00 8.356706811489138242e-02
2.933800000000000097e+01 3.046600000000000108e+01 7.829299999999999926e+00 -2.296940000000000204e+00 8.889340598171120711e-02
2.933999999999999986e+01 3.595799999999999841e+01 1.117500000000000071e+01 -2.370546000000000042e+00 -8.956100617692781818e-02
2.934499999999999886e+01 3.515500000000000114e+01 1.525099999999999945e+01 1.879939999999999856e+01 -8.947541414546417160e-02
2.934700000000000131e+01 1.740500000000000114e+01 1.910999999999999943e+01 -6.783831000000000166e-01 6.449038333698234315e-02
2.934900000000000020e+01 1.707100000000000151e+01 6.417899999999999716e-01 -8.057638000000000744e+00 6.968924987621069600e-02
2.934900000000000020e+01 2.266300000000000203e+00 -9.995699999999999363e+00 -3.637084999999999901e+00 1.015599989136809489e-01
2.935000000000000142e+01 3.370299999999999851e+00 -6.308300000000000018e+00 -2.092658000000000129e+00 9.682360777821943931e-02
2.935000000000000142e+01 3.291400000000000148e+01 7.627600000000000158e+00 2.701815000000000189e-01 -8.958729978269994176e-02
2.935099999999999909e+01 1.764600000000000080e+01 1.832100000000000151e+01 -5.733717000000000397e-01 6.407192622891086375e-02
2.935399999999999920e+01 2.715899999999999892e+01 1.061099999999999960e-01 -1.592656000000000072e+00 2.671881276637195352e-02
2.935699999999999932e+01 -1.295900000000000052e+00 -1.534099999999999930e+01 -1.407726000000000033e+00 -2.594869794361525164e-02
2.935900000000000176e+01 3.388600000000000279e+01 2.558299999999999841e+01 2.216143999999999892e+01 5.645253559512388580e-02
2.936100000000000065e+01 2.837000000000000188e+00 -2.565700000000000003e+01 -2.514390999999999821e+00 -2.659925077691550621e-01
2.936100000000000065e+01 3.090899999999999981e+00 -2.476300000000000168e+01 -4.965705999999999953e+00 -2.669313518952054487e-01
2.936100000000000065e+01 4.098099999999999632e+00 -2.375600000000000023e+01 -1.958258999999999972e+00 -2.683151136699011285e-01
2.936100000000000065e+01 4.098099999999999632e+00 -2.228399999999999892e+01 4.273240999999999845e-01 -9.631616706419449808e-03
2.936100000000000065e+01 4.307199999999999918e+00 -2.301999999999999957e+01 -1.651683000000000012e+00 -2.692585093467610990e-01
2.936199999999999832e+01 1.988599999999999923e+01 -4.179000000000000270e+00 2.958187000000000122e+00 2.386847652116929341e-01
2.936199999999999832e+01 2.075100000000000122e+01 -4.179000000000000270e+00 2.099520000000000053e+00 2.472586259079859183e-01
2.936299999999999955e+01 2.452400000000000091e+01 2.297800000000000153e+01 2.025391000000000119e+01 7.985236870170145385e-02
2.936499999999999844e+01 1.777299999999999969e+01 -1.466900000000000048e+01 -3.062099999999999866e+01 9.604638629143135570e-03
2.936899999999999977e+01 1.528899999999999970e+01 -1.878800000000000026e+01 -7.940920999999999674e-01 2.383444842936490726e-01
2.937199999999999989e+01 3.669400000000000261e+01 2.050400000000000134e+01 2.262838999999999956e+01 -8.949731705170316243e-02
2.937199999999999989e+01 3.788400000000000034e+01 1.717999999999999972e+01 7.471572999999999354e+01 -8.954800017212560803e-02
2.937199999999999989e+01 3.788400000000000034e+01 1.968799999999999883e+01 5.780006000000000199e+01 -8.954504705132172726e-02
2.938100000000000023e+01 2.756299999999999883e+01 3.039399999999999835e+01 2.308061000000000007e+01 8.176556869675084827e-02
2.938599999999999923e+01 1.166699999999999982e+01 5.889999999999999680e-01 1.448814999999999964e+00 7.798952119365093472e-02
2.939000000000000057e+01 3.202799999999999869e+01 2.588299999999999912e+01 2.480298000000000158e+01 5.450137907549490457e-02
2.940899999999999892e+01 1.514799999999999969e+01 -1.770700000000000074e+01 9.838070000000000093e+00 7.681964931530091412e-02
2.940899999999999892e+01 1.514799999999999969e+01 -1.684100000000000108e+01 1.200323999999999991e+01 7.279292607876911014e-02
2.941100000000000136e+01 3.132799999999999940e+01 2.748699999999999832e+01 3.231573000000000206e+01 5.363105542274233806e-02
2.941300000000000026e+01 3.566100000000000048e+00 -2.168100000000000094e+01 4.536419999999999675e+00 -1.197070402015835110e-02
2.941600000000000037e+01 1.933099999999999952e+01 -9.201299999999999812e+00 2.220619000000000121e+00 2.909790555799230960e-01
2.941799999999999926e+01 2.739499999999999957e+01 -7.619299999999999962e+00 2.236450000000000049e+00 -2.412129452443935451e-01
2.942000000000000171e+01 2.873699999999999832e+01 1.822900000000000076e-01 -1.087663000000000046e+00 -1.522077941642307475e-01
2.942099999999999937e+01 1.866900000000000048e+01 -9.053900000000000503e+00 2.402174000000000031e+00 2.771228849412331052e-01
2.942200000000000060e+01 1.303400000000000070e+01 -2.523400000000000176e+01 6.765685000000000393e+00 -2.725724935748698452e-01
2.942399999999999949e+01 1.645799999999999841e+01 -4.397600000000000120e-02 -5.981920999999999822e+00 6.631761046407706750e-02
2.943100000000000094e+01 2.396699999999999875e+01 1.867499999999999938e+00 -9.810669000000000750e+00 9.665666862533765780e-02
2.943100000000000094e+01 2.623199999999999932e+01 1.867499999999999938e+00 -6.792993000000000059e+00 8.855258568548908873e-03
2.943199999999999861e+01 1.144500000000000028e+01 -1.639999999999999902e+00 1.318460999999999927e+01 7.544618199476074705e-02
2.943499999999999872e+01 1.580199999999999960e+01 8.258699999999999264e+00 1.803772000000000020e+01 5.950960371871212573e-02
2.943700000000000117e+01 1.088599999999999923e+01 -2.510900000000000176e+01 6.655096000000000345e-01 -2.700052634848531530e-01
2.944300000000000139e+01 -2.556299999999999795e+00 -1.768199999999999861e+01 -1.171276999999999902e+00 -2.229076553541507744e-02
2.944300000000000139e+01 -2.556299999999999795e+00 -1.663200000000000145e+01 -1.322648999999999964e+00 -2.379967497395953091e-02
2.944500000000000028e+01 2.548000000000000043e+01 2.323199999999999932e+01 2.008848000000000056e+01 8.029564206925401959e-02
2.945299999999999940e+01 1.803500000000000014e+01 1.481799999999999962e+01 -3.286735999999999880e+00 7.183994170523624878e-02
2.945299999999999940e+01 1.803500000000000014e+01 1.568399999999999928e+01 8.900434000000000401e-01 6.205129377568530114e-02
2.945400000000000063e+01 4.552399999999999558e+00 -5.409799999999999720e+00 7.507616999999999763e+00 9.451233137030423670e-02
2.945400000000000063e+01 3.506300000000000239e+01 2.444699999999999918e+01 5.893956000000000195e+00 -1.197102354963959225e-01
2.945799999999999841e+01 1.156900000000000084e+01 -2.522299999999999898e+01 3.108051000000000119e+00 -2.703265028121690783e-01
2.946600000000000108e+01 2.657300000000000040e+01 3.028600000000000136e+01 7.318232000000000070e+00 7.107537983439993212e-02
2.946699999999999875e+01 2.509900000000000020e+01 2.625799999999999912e+00 -5.659456999999999738e+00 6.814569143233809023e-02
2.946900000000000119e+01 1.383900000000000041e+01 1.157500000000000057e-01 1.457851999999999926e+00 7.140192160812236510e-02
2.946900000000000119e+01 3.691100000000000136e+01 1.001999999999999957e+01 -8.127324000000000215e-01 -8.966587135018891375e-02
2.947200000000000131e+01 6.023699999999999832e+00 -1.629699999999999926e+00 7.765990999999999644e+00 8.979200492348579643e-02
2.947899999999999920e+01 1.698600000000000065e+01 -9.079599999999999227e+00 -1.427577999999999925e+01 2.487705346136783180e-01
2.948999999999999844e+01 2.935900000000000176e+01 4.668999999999999595e+00 -4.798485000000000156e+01 -8.008863741235075495e-02
2.949399999999999977e+01 1.798000000000000043e+01 -9.115000000000000213e+00 2.492530000000000023e-01 2.636839581172190083e-01
2.949500000000000099e+01 2.607199999999999918e+01 2.589499999999999957e+01 5.250059000000000253e+00 8.086652515679372544e-02
2.950000000000000000e+01 2.674500000000000099e+01 -3.982099999999999973e+00 1.436097000000000037e+02 -1.434935963533411352e-01
2.950000000000000000e+01 2.707300000000000040e+01 -4.726899999999999658e+00 1.695863999999999905e+01 -1.395910326298545057e-01
2.950100000000000122e+01 1.744800000000000040e+01 2.163599999999999923e+01 -4.437961999999999740e+00 6.579896275730856559e-02
2.950100000000000122e+01 1.777299999999999969e+01 2.237300000000000111e+01 -1.654033000000000087e+00 6.626982641354106640e-02
2.950100000000000122e+01 1.906599999999999895e+01 2.309400000000000119e+01 -2.904269999999999996e+01 6.704991742150072376e-02
2.950499999999999901e+01 3.085300000000000153e+01 7.084999999999999964e+00 -1.738051999999999930e+00 -1.875003807598435157e-01
2.950499999999999901e+01 3.190299999999999869e+01 7.084999999999999964e+00 -1.187211000000000016e+00 -8.962685326831806853e-02
2.951099999999999923e+01 1.947100000000000009e+01 -4.878999999999999559e+00 3.616052999999999962e+00 2.434532188633630745e-01
2.951300000000000168e+01 1.651300000000000168e+01 -1.578200000000000003e+01 -4.610464999999999591e+00 3.228968468244233780e-02
2.952899999999999991e+01 3.729799999999999782e-01 -1.229400000000000048e+01 -1.089315999999999995e+01 2.292308593157465491e-01
2.953099999999999881e+01 2.483699999999999974e+01 -1.150400000000000089e+00 2.278211999999999904e+00 7.576124427048126948e-03
2.953300000000000125e+01 3.053600000000000136e+01 2.849699999999999989e+01 2.833011000000000124e+01 5.275732462424156249e-02
2.953500000000000014e+01 2.007400000000000162e+01 9.640900000000000247e+00 -2.695260000000000211e+00 6.737966842734745276e-02
2.953500000000000014e+01 2.007400000000000162e+01 1.190600000000000058e+01 -5.705943000000000431e+00 7.054341541501091273e-02
2.953699999999999903e+01 3.613900000000000290e+01 1.658999999999999986e+01 1.986764000000000152e+01 -8.951632456843613972e-02
2.953699999999999903e+01 2.570400000000000063e+01 -9.560999999999999943e+00 -4.407471000000000305e-02 -1.286427760735334991e-01
2.953900000000000148e+01 2.167800000000000082e+01 2.269600000000000151e+01 3.241058999999999912e+00 6.789325481068325674e-02
2.953900000000000148e+01 2.304899999999999949e+01 2.333200000000000074e+01 8.560447999999999524e+01 7.914422459496181506e-02
2.953999999999999915e+01 3.532000000000000028e+01 8.056599999999999540e+00 -5.463162999999999769e-01 -8.972067812882192350e-02
2.954400000000000048e+01 1.102500000000000036e+01 -7.439999999999999947e-01 6.357152000000000136e+00 7.792261863795894861e-02
2.954500000000000171e+01 1.597700000000000031e+01 -8.654800000000000271e-01 2.223808000000000007e+00 6.311324788690755860e-02
2.955000000000000071e+01 2.820100000000000051e+01 3.056800000000000139e+01 9.715515999999999153e+00 8.189739620196459513e-02
2.955699999999999861e+01 2.422400000000000020e+01 -7.981200000000000294e+00 2.689515000000000100e-01 -4.339252808040551523e-02
2.956299999999999883e+01 -1.010100000000000026e-01 -1.954200000000000159e+01 2.786694999999999922e+00 -1.910424674200959794e-02
2.956599999999999895e+01 1.125200000000000067e+01 -2.070099999999999996e-01 8.292953999999999937e+00 7.798310391190003965e-02
2.957000000000000028e+01 1.061599999999999966e+01 2.758900000000000130e+00 -8.404229000000000838e+00 8.398558838916898861e-02
2.957100000000000151e+01 1.163199999999999967e+01 7.216999999999999638e+00 2.851434000000000069e+01 9.000397592736082697e-02
2.957100000000000151e+01 1.268200000000000038e+01 7.216999999999999638e+00 3.041775000000000162e+01 8.957557741171233434e-02
2.957199999999999918e+01 3.036400000000000077e+01 3.503899999999999793e+00 -3.491425999999999874e+01 -1.872005270984680725e-01
2.957499999999999929e+01 1.771199999999999974e+01 1.753900000000000148e+01 -7.251191999999999638e-01 6.330508225737772887e-02
2.957600000000000051e+01 2.447400000000000020e+01 -8.737700000000000244e+00 -2.677593999999999808e-01 -4.136778065075173705e-02
2.957600000000000051e+01 2.693400000000000105e+01 -8.737700000000000244e+00 -2.690366000000000035e+00 -9.287713001911215849e-02
2.957700000000000173e+01 2.925900000000000034e+01 7.037399999999999878e+00 1.600297000000000081e+00 8.217929389482034330e-02
2.957999999999999829e+01 2.339000000000000057e+01 -6.318900000000000183e+00 -4.540960000000000107e+00 -5.107925969940697863e-02
2.957999999999999829e+01 3.634300000000000352e+01 8.192000000000000171e+00 2.922347000000000139e-01 -8.976940963170293442e-02
2.957999999999999829e+01 7.039900000000000269e+00 -3.830700000000000216e-01 1.442501000000000033e+01 8.791217826388271483e-02
