-1.589100000000000001e+01 2.261899999999999977e+01 3.408899999999999864e+01 -5.382241999999999749e+00 -3.305476231569418055e-01
-1.589100000000000001e+01 2.401899999999999835e+01 3.408899999999999864e+01 1.833911000000000158e+01 -3.305142148981885519e-01
-1.588899999999999935e+01 1.413499999999999979e+01 4.639999999999999858e+01 3.116490999999999900e+00 -2.397171574207231648e-01
-1.588899999999999935e+01 1.413499999999999979e+01 4.726500000000000057e+01 3.976750000000000007e+00 -2.398218697945971589e-01
-1.588799999999999990e+01 1.206099999999999994e+01 5.101599999999999824e+01 3.850328999999999890e+00 -2.410262012487440209e-01
-1.588499999999999979e+01 2.530499999999999972e+01 2.298900000000000077e+01 5.355253000000000263e+00 -3.748811125409213796e-01
-1.588499999999999979e+01 3.234300000000000352e+01 2.474800000000000111e+01 -1.281544999999999934e+00 -3.741739497447014173e-01
-1.588400000000000034e+01 2.210500000000000043e+01 4.113799999999999812e+01 -3.792517000000000138e+00 -3.200000000000000622e-01
-1.588400000000000034e+01 2.296999999999999886e+01 4.113799999999999812e+01 -4.640175000000000161e+00 -3.199999999999999512e-01
-1.588000000000000078e+01 1.230599999999999916e+01 4.964099999999999824e+01 3.375849000000000100e+00 -2.407903380814135075e-01
-1.588000000000000078e+01 1.230599999999999916e+01 5.157099999999999795e+01 9.925449999999999662e+00 -2.410138734277549877e-01
-1.587800000000000011e+01 1.950799999999999912e+01 4.358599999999999852e+01 1.973562000000000083e+01 -3.200000000000000067e-01
-1.587500000000000000e+01 1.604299999999999926e+01 5.084799999999999898e+01 -3.614145999999999859e+00 -2.395332650494902960e-01
-1.587500000000000000e+01 3.213700000000000045e+01 2.366700000000000159e+01 8.111515999999999726e-01 -1.177057824168689509e-01
-1.586999999999999922e+01 4.014000000000000057e+01 2.916600000000000037e+01 5.838893999999999807e+00 -9.711364013502821191e-02
-1.586999999999999922e+01 4.014000000000000057e+01 3.205799999999999983e+01 9.090436999999999657e+00 -9.594925964014607012e-02
-1.586700000000000088e+01 3.350699999999999790e+01 3.752300000000000324e+01 -2.559419999999999806e+00 -3.307020688871951664e-01
-1.585299999999999976e+01 3.279299999999999926e+01 2.558999999999999986e+01 2.243104999999999905e+00 -3.396831550993592574e-01
-1.585299999999999976e+01 3.365899999999999892e+01 2.558999999999999986e+01 2.840031000000000194e+00 -8.567774552197361670e-02
-1.585100000000000087e+01 2.760000000000000142e+01 3.207200000000000273e+01 -6.754374000000000322e+00 -3.300716168502337289e-01
-1.584500000000000064e+01 2.643599999999999994e+01 4.204999999999999716e+01 -2.022109999999999985e+01 -3.199999999999999512e-01
-1.584299999999999997e+01 1.729599999999999937e+01 4.773599999999999710e+01 8.805616000000000554e+00 -2.384650700769302689e-01
-1.584099999999999930e+01 1.009999999999999964e+01 3.432399999999999807e+01 1.362005000000000088e+01 -2.403626038175324664e-01
-1.583699999999999974e+01 2.665899999999999892e+01 2.376399999999999935e+01 7.445575999999999972e+00 -3.399462867894998408e-01
-1.583699999999999974e+01 2.785000000000000142e+01 2.442800000000000082e+01 8.546177999999999386e+00 -3.399229329667617927e-01
-1.583600000000000030e+01 1.303599999999999959e+01 4.841499999999999915e+01 3.971010999999999846e+00 -2.404012301285819997e-01
-1.583500000000000085e+01 1.701300000000000168e+01 3.299600000000000222e+01 1.706501000000000046e+00 -3.305077583700528621e-01
-1.583500000000000085e+01 2.253500000000000014e+01 2.889799999999999969e+01 1.996636000000000166e+01 -3.299047648133977551e-01
-1.581600000000000072e+01 1.415300000000000047e+01 4.382600000000000051e+01 5.065323000000000242e+00 -2.394416570923130760e-01
-1.581600000000000072e+01 1.436200000000000010e+01 4.309000000000000341e+01 6.667091000000000101e+00 -2.392764939483703890e-01
-1.581300000000000061e+01 1.921799999999999997e+01 2.799899999999999878e+01 2.686758999999999986e+01 -3.299509661903523572e-01
-1.581000000000000050e+01 2.938400000000000034e+01 2.359799999999999898e+01 7.699014000000000024e+00 -3.743939864185893418e-01
-1.579800000000000004e+01 3.675900000000000034e+01 3.671300000000000097e+01 -8.117913000000000068e+01 -3.303305116777865980e-01
-1.578500000000000014e+01 1.720400000000000063e+01 3.141400000000000148e+01 -5.336008999999999780e+00 -3.303463073745872558e-01
-1.577899999999999991e+01 4.311699999999999733e+01 3.131299999999999883e+01 1.109495000000000076e+01 -1.004077383432300935e-01
-1.577699999999999925e+01 1.731700000000000017e+01 3.229599999999999937e+01 1.079353999999999925e+00 -3.304335155335248464e-01
-1.576900000000000013e+01 2.968799999999999883e+01 3.977000000000000313e+01 1.512377000000000082e+00 -3.199999999999999512e-01
-1.576399999999999935e+01 1.614300000000000068e+01 3.324199999999999733e+01 3.526473999999999887e+00 -3.305413356944512659e-01
-1.575399999999999956e+01 1.890399999999999991e+01 4.778699999999999903e+01 8.167906000000000333e+00 -3.199999999999999512e-01
-1.573499999999999943e+01 1.289199999999999946e+01 3.437800000000000011e+01 6.403217999999999854e+00 -2.393940971141066965e-01
-1.573499999999999943e+01 1.575099999999999945e+01 4.997200000000000131e+01 -4.071026999999999951e+00 -2.395559356987609356e-01
-1.572600000000000087e+01 1.707000000000000028e+01 3.057999999999999829e+01 2.159107000000000109e+00 -3.302670961698301877e-01
-1.572600000000000087e+01 1.729700000000000060e+01 2.978099999999999881e+01 5.491310999999999831e-01 -3.301842788653289729e-01
-1.571400000000000041e+01 2.352899999999999991e+01 2.768700000000000117e+01 2.028362999999999872e+01 -3.403389755701080599e-01
-1.570599999999999952e+01 4.399499999999999744e+01 3.090800000000000125e+01 1.170528000000000013e+01 -1.004585685250280747e-01
-1.570199999999999996e+01 3.902600000000000335e+01 3.299300000000000210e+01 -3.747456000000000120e+00 -9.282795352818795642e-02
-1.570100000000000051e+01 1.573799999999999955e+01 4.908500000000000085e+01 1.808110999999999891e+01 -2.394364090858001615e-01
-1.568399999999999928e+01 1.852199999999999847e+01 2.893599999999999994e+01 2.203997000000000206e+00 -3.300661417976712420e-01
-1.567699999999999960e+01 1.319500000000000028e+01 3.367799999999999727e+01 6.323775999999999620e+00 -2.392720951237164717e-01
-1.566900000000000048e+01 2.024399999999999977e+01 4.358599999999999852e+01 1.990846000000000160e+01 -3.200000000000000067e-01
-1.566900000000000048e+01 2.125199999999999889e+01 4.358599999999999852e+01 7.681259999999999977e+00 -3.200000000000000067e-01
-1.563799999999999990e+01 2.044399999999999906e+01 4.751100000000000279e+01 2.986936000000000035e+01 -3.200000000000000067e-01
-1.563700000000000045e+01 2.071399999999999864e+01 2.272500000000000142e+01 -3.066559999999999953e+00 -2.427339635598341760e-01
-1.563700000000000045e+01 2.165399999999999991e+01 2.272500000000000142e+01 -8.473364999999999370e+00 -2.424705715641761739e-01
-1.563400000000000034e+01 3.867499999999999716e+01 3.469899999999999807e+01 -2.911674999999999969e+01 -3.400320512967534015e-01
-1.563400000000000034e+01 3.890200000000000102e+01 3.389999999999999858e+01 -3.265865999999999758e+01 -8.190486047314718410e-02
-1.563400000000000034e+01 3.713199999999999790e+01 2.551999999999999957e+01 4.968129000000000239e+00 -1.258013280194533734e-01
-1.563299999999999912e+01 3.151800000000000068e+01 3.763499999999999801e+01 -3.301212000000000302e+01 -3.200000000000000067e-01
-1.563100000000000023e+01 1.338599999999999923e+01 4.111599999999999966e+01 2.850146000000000157e+01 -2.395670699516621038e-01
-1.562500000000000000e+01 4.098599999999999710e+01 2.915399999999999991e+01 7.154685999999999879e+00 -9.916135347705036518e-02
-1.562400000000000055e+01 1.126099999999999923e+01 3.453900000000000148e+01 1.229850000000000065e+01 -2.400267229361346399e-01
-1.561100000000000065e+01 8.484600000000000364e+00 3.536399999999999721e+01 1.265794999999999959e+01 -2.409539920543996572e-01
-1.560699999999999932e+01 4.490100000000000335e+01 2.821799999999999997e+01 5.399340999999999724e+00 -9.952110560288227048e-02
-1.560699999999999932e+01 4.490100000000000335e+01 3.085600000000000165e+01 3.186093999999999937e+01 -1.005968087661639476e-01
-1.560599999999999987e+01 1.356400000000000006e+01 3.282800000000000296e+01 5.547735999999999557e+00 -3.305216405709737182e-01
-1.560599999999999987e+01 1.461400000000000077e+01 3.282800000000000296e+01 7.069027000000000172e+00 -3.305155536082517442e-01
-1.560500000000000043e+01 1.028500000000000014e+01 3.832699999999999818e+01 2.844615999999999900e+01 -2.405495534301309579e-01
-1.560500000000000043e+01 1.147600000000000087e+01 3.899099999999999966e+01 1.953409999999999869e+01 -2.401726625135354731e-01
-1.559399999999999942e+01 3.912400000000000233e+01 2.874699999999999989e+01 5.949662000000000006e+00 -9.479154068889847351e-02
-1.559299999999999997e+01 2.673100000000000165e+01 2.812399999999999878e+01 2.414249999999999829e+01 -3.402424905592225102e-01
-1.559299999999999997e+01 2.735900000000000176e+01 4.172099999999999653e+01 -2.886307000000000045e+01 -3.200000000000000622e-01
-1.559299999999999997e+01 1.277100000000000080e+01 5.232399999999999807e+01 1.805914999999999893e+01 -2.410317877336214942e-01
-1.558500000000000085e+01 1.214300000000000068e+01 4.025800000000000267e+01 1.584731000000000023e+01 -2.400130287432332143e-01
-1.558500000000000085e+01 3.014699999999999847e+01 2.290700000000000003e+01 3.935055000000000192e+00 -3.739751735093307383e-01
-1.558500000000000085e+01 3.166700000000000159e+01 2.290700000000000003e+01 2.332146999999999970e+00 -1.164128823908845700e-01
-1.558399999999999963e+01 8.619999999999999218e+00 3.815400000000000347e+01 1.173958000000000013e+01 -2.410698007707082480e-01
-1.557199999999999918e+01 2.760200000000000031e+01 4.092999999999999972e+01 -3.467790999999999713e+01 -3.200000000000000067e-01
-1.556799999999999962e+01 1.612999999999999901e+01 4.843399999999999750e+01 3.548819999999999908e+01 -2.391957819534162866e-01
-1.556700000000000017e+01 4.615500000000000114e+01 2.905799999999999983e+01 1.242379000000000033e+01 1.704109116338451135e-01
-1.556700000000000017e+01 4.615500000000000114e+01 3.001599999999999824e+01 1.898720000000000141e+01 -1.003120502564218003e-01
-1.555899999999999928e+01 2.207700000000000173e+01 4.172500000000000142e+01 -3.246588000000000029e+00 -3.200000000000000067e-01
-1.555899999999999928e+01 2.294200000000000017e+01 4.172500000000000142e+01 -8.625123999999999569e+00 -3.200000000000000622e-01
-1.555700000000000038e+01 2.489999999999999858e+01 4.245600000000000307e+01 -2.247031000000000134e+01 -3.200000000000000067e-01
-1.555499999999999972e+01 3.097700000000000031e+01 3.841700000000000159e+01 -1.316430000000000078e+01 -3.200000000000000067e-01
-1.555300000000000082e+01 2.208699999999999974e+01 4.326899999999999835e+01 2.309105000000000185e+00 -3.200000000000000622e-01
-1.554899999999999949e+01 2.453000000000000114e+01 2.305399999999999849e+01 4.071125000000000327e+00 -3.400074171055399441e-01
-1.554899999999999949e+01 2.607999999999999829e+01 2.305399999999999849e+01 5.793758000000000408e+00 -3.747934566246199362e-01
-1.554800000000000004e+01 3.312700000000000244e+01 2.526999999999999957e+01 2.552162000000000042e+00 -8.474157942409661637e-02
-1.554599999999999937e+01 2.508500000000000085e+01 2.745100000000000051e+01 1.809871000000000052e+01 -3.402663786816709779e-01
-1.554400000000000048e+01 2.705300000000000082e+01 3.284599999999999653e+01 8.101359000000000421e+00 -3.302197706531268540e-01
-1.554400000000000048e+01 1.183000000000000007e+01 3.947699999999999676e+01 2.241679999999999851e+01 -2.400877423723803972e-01
-1.553500000000000014e+01 3.882099999999999795e+01 2.804700000000000060e+01 1.519707000000000008e+01 -9.433023942477042345e-02
-1.553500000000000014e+01 1.275699999999999967e+01 4.881499999999999773e+01 9.672290000000000276e+00 -2.406307312712715751e-01
-1.552200000000000024e+01 2.486899999999999977e+01 3.401800000000000068e+01 2.085977000000000103e+01 -3.304873357555855318e-01
-1.551699999999999946e+01 2.899399999999999977e+01 2.899099999999999966e+01 -1.934656999999999905e-01 -3.401948431708254339e-01
-1.551699999999999946e+01 2.899399999999999977e+01 3.125600000000000023e+01 -1.011068999999999996e+01 -3.403911074301639306e-01
-1.551500000000000057e+01 2.172100000000000009e+01 4.426599999999999824e+01 3.555889000000000078e+00 -3.199999999999999512e-01
-1.551399999999999935e+01 1.379499999999999993e+01 5.338799999999999812e+01 1.134580000000000055e+01 -2.408505129337743522e-01
-1.551099999999999923e+01 3.782300000000000040e+01 2.547299999999999898e+01 5.568130000000000024e+00 -1.268632846825040739e-01
-1.550900000000000034e+01 3.732699999999999818e+01 3.601400000000000290e+01 -4.656542000000000314e+01 -3.301619346835412694e-01
-1.550000000000000000e+01 2.177400000000000091e+01 4.242499999999999716e+01 2.335200000000000053e-01 -3.200000000000000067e-01
-1.549900000000000055e+01 2.572299999999999898e+01 3.394299999999999784e+01 1.645908999999999978e+01 -3.304479762494287320e-01
-1.549799999999999933e+01 3.435699999999999932e+01 3.745199999999999818e+01 -5.605570000000000164e+00 -3.306407716021727006e-01
-1.548700000000000010e+01 2.345700000000000074e+01 4.260499999999999687e+01 -4.852972000000000286e+00 -3.199999999999999512e-01
-1.547499999999999964e+01 9.317800000000000082e+00 3.453000000000000114e+01 1.610262000000000171e+01 -2.406988455074003108e-01
-1.547100000000000009e+01 3.907699999999999818e+01 2.631299999999999883e+01 2.270193000000000083e+01 -1.301773389057468422e-01
-1.547100000000000009e+01 3.907699999999999818e+01 2.727100000000000080e+01 1.273580999999999932e+02 -9.518966364695816140e-02
-1.546899999999999942e+01 3.599900000000000233e+01 3.677600000000000335e+01 -2.975516000000000005e+01 -3.304089621677809285e-01
-1.546799999999999997e+01 1.157300000000000040e+01 4.996099999999999852e+01 2.104855000000000143e+00 -2.411797635394456185e-01
-1.546299999999999919e+01 4.407999999999999829e+01 2.830099999999999838e+01 8.597716000000000136e+00 -9.958603543168828565e-02
-1.546100000000000030e+01 4.306799999999999784e+01 2.849899999999999878e+01 5.396561000000000163e+00 -9.952161941135097278e-02
-1.545800000000000018e+01 2.217299999999999827e+01 2.357700000000000173e+01 -1.152046999999999954e+01 -3.401341523623228613e-01
-1.545800000000000018e+01 2.191900000000000048e+01 3.295600000000000307e+01 3.072265000000000157e+01 -3.304233709835687760e-01
-1.545800000000000018e+01 2.212800000000000011e+01 3.369200000000000017e+01 -4.741092000000000084e+00 -3.305147649412546462e-01
-1.545800000000000018e+01 2.331899999999999906e+01 3.435600000000000165e+01 1.690916999999999959e+01 -3.305791424772986931e-01
-1.545800000000000018e+01 3.410600000000000165e+01 2.560699999999999932e+01 3.266455999999999804e+00 -8.598356242523391701e-02
-1.545800000000000018e+01 3.565699999999999648e+01 2.516600000000000037e+01 7.205941999999999625e-01 -1.228643664942649094e-01
-1.545700000000000074e+01 1.551699999999999946e+01 5.323700000000000188e+01 -6.368981999999999699e-01 -2.402285027947412832e-01
-1.544999999999999929e+01 2.863299999999999912e+01 4.019100000000000250e+01 -1.208417999999999992e+01 -3.200000000000000067e-01
-1.543599999999999994e+01 2.319300000000000139e+01 2.372800000000000153e+01 9.214558999999999944e-01 -3.401035163198238287e-01
-1.543500000000000050e+01 4.021000000000000085e+01 2.889499999999999957e+01 7.910771999999999693e+00 -9.732438913469601549e-02
-1.543099999999999916e+01 1.194999999999999929e+01 3.432099999999999795e+01 6.305288000000000004e+00 -2.398142380662105499e-01
-1.542900000000000027e+01 1.134099999999999930e+01 5.068099999999999739e+01 -2.390671999999999936e-02 -2.413412463347578973e-01
-1.542500000000000071e+01 1.328800000000000026e+01 5.302900000000000347e+01 1.230273000000000039e+01 -2.409971841140414739e-01
-1.542500000000000071e+01 4.171500000000000341e+01 2.917800000000000082e+01 5.862134000000000178e+00 -9.951806106289597109e-02
-1.542399999999999949e+01 2.306099999999999994e+01 2.844399999999999906e+01 2.659702000000000055e+01 -3.404114529721281035e-01
-1.542200000000000060e+01 1.307900000000000063e+01 4.792300000000000182e+01 5.152973000000000248e+00 -2.404384247122048901e-01
-1.541600000000000037e+01 2.819200000000000017e+01 3.166600000000000037e+01 -1.566896999999999984e+01 -3.299705948829370628e-01
-1.540900000000000070e+01 4.103799999999999670e+01 3.199599999999999866e+01 2.558063999999999893e+01 -9.813784888764837122e-02
-1.540700000000000003e+01 2.001300000000000168e+01 2.512300000000000111e+01 4.596454999999999735e+00 -2.420151119059013867e-01
-1.540700000000000003e+01 2.022200000000000131e+01 2.438700000000000045e+01 -6.918574999999999697e+00 -2.422510378751409621e-01
-1.540399999999999991e+01 2.714999999999999858e+01 2.416100000000000136e+01 8.013147000000000020e+00 -3.399417376199477259e-01
-1.539700000000000024e+01 1.166499999999999915e+01 5.144899999999999807e+01 1.156602000000000047e-01 -2.413345098981227177e-01
-1.536400000000000077e+01 1.381900000000000084e+01 4.181600000000000250e+01 2.133878999999999948e+01 -2.395057339894726689e-01
-1.536299999999999955e+01 2.415200000000000102e+01 3.416700000000000159e+01 1.862349000000000032e+01 -3.305337333191963323e-01
-1.536299999999999955e+01 2.142200000000000060e+01 4.524499999999999744e+01 6.971057000000000059e+00 -3.200000000000000067e-01
-1.535800000000000054e+01 2.181299999999999883e+01 3.017500000000000071e+01 4.018084000000000344e+01 -3.300801415802690486e-01
-1.535800000000000054e+01 2.202199999999999847e+01 2.943900000000000006e+01 2.185535000000000139e+01 -3.299846601341608343e-01
-1.535200000000000031e+01 1.650400000000000134e+01 3.254699999999999704e+01 2.423907999999999952e+00 -3.304749734134179162e-01
-1.534699999999999953e+01 1.349200000000000088e+01 4.511599999999999966e+01 3.647803000000000129e+00 -2.399756942653392122e-01
-1.534699999999999953e+01 1.371899999999999942e+01 4.431700000000000017e+01 -3.472024000000000221e+00 -2.397955454515186824e-01
-1.533399999999999963e+01 2.861499999999999844e+01 2.410000000000000142e+01 8.443688999999999112e+00 -3.398523624081303818e-01
-1.533000000000000007e+01 3.221800000000000352e+01 3.757699999999999818e+01 -7.972373000000000154e+00 -3.200000000000000067e-01
-1.532799999999999940e+01 1.268599999999999994e+01 4.105799999999999983e+01 1.165933000000000064e+01 -2.399245723938243646e-01
-1.532600000000000051e+01 3.046900000000000119e+01 3.934499999999999886e+01 3.213791000000000064e+00 -3.199999999999999512e-01
-1.532300000000000040e+01 1.902299999999999969e+01 2.879599999999999937e+01 3.073015999999999970e+00 -3.300332857250048435e-01
-1.531700000000000017e+01 1.540799999999999947e+01 3.273599999999999710e+01 3.444952999999999932e+00 -3.305049200536142040e-01
-1.531400000000000006e+01 2.195100000000000051e+01 3.085399999999999920e+01 5.357457000000000136e+01 -3.301570642567369651e-01
-1.531400000000000006e+01 2.195100000000000051e+01 3.246600000000000108e+01 9.088035999999999603e+01 -3.303609301869123160e-01
-1.531400000000000006e+01 2.206299999999999883e+01 3.166000000000000014e+01 1.847507999999999981e+02 -3.302540636056262580e-01
-1.529800000000000004e+01 4.259199999999999875e+01 3.190899999999999892e+01 1.457689000000000057e+01 -1.008613640688139634e-01
-1.529700000000000060e+01 3.651500000000000057e+01 2.522299999999999898e+01 2.281003999999999809e+00 -1.241296417733825652e-01
-1.529499999999999993e+01 2.566799999999999926e+01 4.252199999999999847e+01 -1.583383000000000074e+01 -3.199999999999999512e-01
-1.529100000000000037e+01 2.251000000000000156e+01 4.242499999999999716e+01 -1.603793000000000024e+00 -3.200000000000000622e-01
-1.527800000000000047e+01 2.292899999999999849e+01 4.330899999999999750e+01 9.592555000000000387e-01 -3.200000000000000067e-01
-1.527599999999999980e+01 2.138700000000000045e+01 4.705199999999999960e+01 6.814502000000000059e+00 -3.200000000000000622e-01
-1.527100000000000080e+01 4.567600000000000193e+01 2.828300000000000125e+01 1.213380000000000081e+01 -9.980092932184356225e-02
-1.527100000000000080e+01 4.567600000000000193e+01 3.079100000000000037e+01 2.261609999999999943e+01 -1.008628159829565857e-01
-1.526900000000000013e+01 1.363700000000000045e+01 4.700900000000000034e+01 4.532948000000000199e+00 -2.401550986970626966e-01
-1.526699999999999946e+01 2.677899999999999991e+01 4.242600000000000193e+01 -6.511416999999999788e+00 -3.200000000000000067e-01
-1.526500000000000057e+01 3.695199999999999818e+01 3.626500000000000057e+01 -1.007870000000000061e+02 -3.302446810231730590e-01
-1.526200000000000045e+01 2.430699999999999861e+01 2.767299999999999827e+01 1.575000999999999962e+01 -3.403173651576308911e-01
-1.525900000000000034e+01 8.094699999999999562e+00 3.625399999999999778e+01 9.983340000000000103e+00 -2.411940146994640821e-01
-1.525900000000000034e+01 8.094699999999999562e+00 3.730400000000000205e+01 9.913050999999999391e+00 -2.412523286412916745e-01
-1.525799999999999912e+01 1.357499999999999929e+01 4.612599999999999767e+01 3.672629000000000143e+00 -2.400791937555464828e-01
-1.525600000000000023e+01 1.782999999999999829e+01 2.935000000000000142e+01 -3.421213000000000171e-01 -3.301273846790513944e-01
-1.525399999999999956e+01 2.147800000000000153e+01 4.617799999999999727e+01 7.952739000000000225e+00 -3.200000000000000067e-01
-1.525300000000000011e+01 1.685600000000000165e+01 3.177599999999999980e+01 2.026717999999999797e+00 -3.303934494747427508e-01
-1.525000000000000000e+01 2.942699999999999960e+01 2.969099999999999895e+01 -4.348614000000000090e-01 -3.402334554345916584e-01
-1.525000000000000000e+01 2.942699999999999960e+01 3.055600000000000094e+01 -1.148636999999999908e+00 -3.403110645017106139e-01
-1.522899999999999920e+01 9.417199999999999349e+00 3.834100000000000108e+01 2.606218000000000146e+01 -2.409259302769480582e-01
-1.521400000000000041e+01 2.829400000000000048e+01 2.893199999999999861e+01 1.523439999999999905e+00 -3.402326998921562651e-01
-1.520100000000000051e+01 3.821699999999999875e+01 3.525099999999999767e+01 -4.612299000000000149e+01 -3.401317821900908256e-01
-1.520100000000000051e+01 3.960199999999999676e+01 3.276700000000000301e+01 1.083362999999999943e+01 -9.407053929673303561e-02
-1.519800000000000040e+01 1.657900000000000063e+01 4.808700000000000330e+01 1.989089999999999847e+01 -2.390231061223385967e-01
-1.519800000000000040e+01 1.809400000000000119e+01 4.797099999999999653e+01 1.469433000000000078e+01 -3.199999999999999512e-01
-1.519599999999999973e+01 2.642299999999999827e+01 3.388400000000000034e+01 1.162285999999999930e+01 -3.304178149475192616e-01
-1.518999999999999950e+01 1.580300000000000082e+01 5.045000000000000284e+01 5.241746000000000016e+00 -2.397491911704841550e-01
-1.518299999999999983e+01 2.415700000000000003e+01 4.254699999999999704e+01 -1.803090999999999866e+01 -3.200000000000000622e-01
-1.517999999999999972e+01 2.140500000000000114e+01 2.337099999999999866e+01 -2.934196999999999989e+01 -2.423703891571367119e-01
-1.517500000000000071e+01 3.859799999999999898e+01 2.553800000000000026e+01 8.173882000000000758e+00 -1.281232928790966008e-01
-1.517399999999999949e+01 1.978600000000000136e+01 2.561899999999999977e+01 1.000960000000000072e+01 -2.419317275939147915e-01
-1.517300000000000004e+01 1.098499999999999943e+01 3.859499999999999886e+01 2.531899999999999906e+01 -2.404315820569834228e-01
-1.516600000000000037e+01 4.420100000000000051e+01 3.124200000000000088e+01 1.105633000000000088e+01 -1.010389621333866311e-01
-1.516499999999999915e+01 3.529899999999999949e+01 3.683400000000000318e+01 -2.556872999999999863e+01 -3.304833891323882833e-01
-1.516000000000000014e+01 1.207099999999999973e+01 5.205700000000000216e+01 9.430218000000000211e-01 -2.413449817515934959e-01
-1.515099999999999980e+01 2.955699999999999861e+01 2.324399999999999977e+01 8.125567000000000206e+00 -3.742161637212489955e-01
-1.514700000000000024e+01 3.038599999999999923e+01 3.981199999999999761e+01 5.480840999999999852e+00 -3.200000000000000067e-01
-1.514000000000000057e+01 2.530499999999999972e+01 2.266100000000000136e+01 2.290061000000000124e+00 -3.747847647741001653e-01
-1.514000000000000057e+01 2.809299999999999997e+01 4.053300000000000125e+01 -2.402461999999999875e+01 -3.200000000000000067e-01
-1.513199999999999967e+01 1.604200000000000159e+01 5.133700000000000330e+01 1.330495999999999945e+01 -2.398041785176579788e-01
-1.513199999999999967e+01 1.604200000000000159e+01 5.238700000000000045e+01 1.813203999999999994e+01 -2.399748024139869429e-01
-1.512500000000000000e+01 1.408900000000000041e+01 3.223199999999999932e+01 9.027891999999999584e+00 -3.304714704785181034e-01
-1.512400000000000055e+01 2.669699999999999918e+01 2.342699999999999960e+01 7.711426999999999587e+00 -3.748299622967885547e-01
-1.511800000000000033e+01 2.253099999999999881e+01 4.409000000000000341e+01 1.257147999999999932e+01 -3.200000000000000067e-01
-1.511599999999999966e+01 1.409500000000000064e+01 4.265800000000000125e+01 1.058296999999999954e+01 -2.395247762799816993e-01
-1.511599999999999966e+01 1.409500000000000064e+01 4.352300000000000324e+01 5.392941999999999680e+00 -2.396111571948392471e-01
-1.511500000000000021e+01 3.090700000000000003e+01 2.261700000000000088e+01 -4.354710999999999999e+00 -3.736697110398459754e-01
-1.511500000000000021e+01 3.220000000000000284e+01 2.333800000000000097e+01 -2.102644999999999875e+00 -1.165612613470099201e-01
-1.511500000000000021e+01 3.242699999999999960e+01 2.413700000000000045e+01 -2.760980999999999952e+01 -1.173353224209150170e-01
-1.511500000000000021e+01 3.263600000000000279e+01 2.487300000000000111e+01 -1.423939000000000066e+00 -3.845200992183077093e-01
-1.511299999999999955e+01 2.578500000000000014e+01 2.771799999999999997e+01 2.451332999999999984e+01 -3.402616231157963300e-01
-1.510399999999999920e+01 1.060399999999999920e+01 5.068099999999999739e+01 2.464585999999999999e-01 -2.416539141105437660e-01
-1.510200000000000031e+01 1.205700000000000038e+01 4.908200000000000074e+01 3.113296000000000063e+00 -2.410275901596385106e-01
-1.510100000000000087e+01 2.785000000000000142e+01 2.421900000000000119e+01 9.319361999999999924e+00 -3.399032282585321418e-01
-1.509399999999999942e+01 1.991499999999999915e+01 2.657700000000000173e+01 9.097972000000000392e+00 -3.403824890342944109e-01
-1.508799999999999919e+01 1.466699999999999982e+01 5.330799999999999983e+01 8.034034000000000120e+00 -2.406555263851728466e-01
-1.508099999999999952e+01 1.271400000000000041e+01 3.315299999999999869e+01 6.879284000000000177e+00 -2.395738275676895790e-01
-1.507600000000000051e+01 3.781799999999999784e+01 3.561699999999999733e+01 -3.242092000000000240e+01 -3.402082442818606389e-01
-1.505199999999999960e+01 1.969600000000000151e+01 2.753000000000000114e+01 1.683461000000000141e+01 -3.404455763638055132e-01
-1.505199999999999960e+01 1.717599999999999838e+01 3.099099999999999966e+01 2.007235999999999798e+00 -3.303093826964037527e-01
-1.504700000000000060e+01 4.025500000000000256e+01 3.242799999999999727e+01 2.273714999999999975e+01 -9.584598951305224601e-02
-1.504299999999999926e+01 2.727799999999999869e+01 2.869699999999999918e+01 6.276804000000000272e+00 -3.402689720088571956e-01
-1.504100000000000037e+01 1.093299999999999983e+01 4.992099999999999937e+01 1.692021999999999915e+00 -2.414966983928476529e-01
-1.504100000000000037e+01 1.093299999999999983e+01 5.144100000000000250e+01 -2.792670000000000208e+00 -2.416547622979229870e-01
-1.503899999999999970e+01 2.276000000000000156e+01 2.421900000000000119e+01 -2.134618000000000071e-01 -3.401511799366356281e-01
-1.503800000000000026e+01 3.977700000000000102e+01 2.840399999999999991e+01 7.854089000000000098e+00 -9.634924499716826518e-02
-1.503800000000000026e+01 3.646900000000000119e+01 3.624300000000000210e+01 -6.946421999999999741e+01 -3.302794838393265375e-01
-1.501699999999999946e+01 2.933299999999999841e+01 3.992399999999999949e+01 1.812754999999999939e+01 -3.200000000000000067e-01
-1.501600000000000001e+01 2.391300000000000026e+01 2.342699999999999960e+01 2.764552999999999816e+00 -3.400561436183865971e-01
-1.500099999999999945e+01 2.437099999999999866e+01 3.447899999999999920e+01 2.236129999999999995e+01 -3.305834925524669954e-01
-1.500099999999999945e+01 1.547100000000000009e+01 4.951800000000000068e+01 2.694511999999999929e+01 -2.398012337347827372e-01
-1.500099999999999945e+01 1.567999999999999972e+01 4.878199999999999648e+01 6.117869999999999919e+01 -2.395992371373064922e-01
-1.499099999999999966e+01 8.757899999999999352e+00 3.514000000000000057e+01 1.137920000000000087e+01 -2.410094851017065276e-01
-1.499099999999999966e+01 1.020400000000000063e+01 3.433400000000000318e+01 5.934372999999999898e+00 -2.405222161667928682e-01
-1.498000000000000043e+01 4.359300000000000352e+01 2.790299999999999869e+01 8.799087999999999354e+00 -9.966044601101727018e-02
-1.497899999999999920e+01 3.488199999999999790e+01 2.546199999999999974e+01 9.596453999999999596e+00 -1.214103906336976985e-01
-1.497300000000000075e+01 3.350699999999999790e+01 3.777700000000000102e+01 -1.387642000000000042e+00 -3.307725830624460572e-01
-1.497000000000000064e+01 4.209300000000000352e+01 2.864499999999999957e+01 6.804166999999999632e+00 -9.968489733349186754e-02
-1.496599999999999930e+01 1.735999999999999943e+01 3.010999999999999943e+01 6.199238000000000248e-01 -3.302162457842013343e-01
-1.496000000000000085e+01 4.178199999999999648e+01 3.197899999999999920e+01 1.720488999999999891e+01 -1.001250694869245950e-01
-1.495599999999999952e+01 2.381800000000000139e+01 2.815500000000000114e+01 2.932929999999999993e+01 -3.403754601080717368e-01
-1.495400000000000063e+01 3.732999999999999829e+01 2.525700000000000145e+01 3.675959999999999894e+00 -1.252399666794886124e-01
-1.493399999999999928e+01 3.873299999999999699e+01 3.500300000000000011e+01 -1.124132999999999960e+01 -3.400596140124907962e-01
-1.493299999999999983e+01 3.178500000000000014e+01 3.806799999999999784e+01 -4.578369999999999607e+00 -3.200000000000000067e-01
-1.493099999999999916e+01 1.311899999999999977e+01 4.154800000000000182e+01 1.261970999999999954e+01 -2.398912909279665162e-01
-1.493099999999999916e+01 2.226099999999999923e+01 3.377000000000000313e+01 1.484413999999999945e+01 -3.305330762397674649e-01
-1.492900000000000027e+01 4.344200000000000017e+01 3.183800000000000097e+01 1.660604000000000013e+01 -1.013335098039141180e-01
-1.492699999999999960e+01 1.858999999999999986e+01 2.928699999999999903e+01 -4.755355999999999916e+00 -3.300965827564210087e-01
-1.492500000000000071e+01 2.251300000000000168e+01 2.904299999999999926e+01 2.083557000000000059e+01 -3.299105060775958664e-01
-1.492399999999999949e+01 1.239400000000000013e+01 3.357200000000000273e+01 6.252982000000000262e+00 -2.397400323175172543e-01
-1.490099999999999980e+01 1.906299999999999883e+01 4.807600000000000051e+01 1.918813000000000102e+01 -3.199999999999999512e-01
-1.489100000000000001e+01 1.979500000000000171e+01 2.853000000000000114e+01 3.663871999999999929e+01 -3.299734920812996131e-01
-1.488100000000000023e+01 1.240300000000000047e+01 4.830400000000000205e+01 8.955156999999999812e+00 -2.408837741423363321e-01
-1.488100000000000023e+01 2.040899999999999892e+01 4.789300000000000068e+01 1.770646999999999949e+01 -3.200000000000000067e-01
-1.487599999999999945e+01 8.388400000000000745e+00 3.596300000000000097e+01 1.288097999999999921e+01 -2.411882194733703799e-01
-1.487500000000000000e+01 3.148199999999999932e+01 3.876800000000000068e+01 2.192292999999999825e+00 -3.200000000000000067e-01
-1.487199999999999989e+01 2.766000000000000014e+01 4.123299999999999699e+01 -2.123299000000000092e+01 -3.200000000000000067e-01
-1.487100000000000044e+01 3.903600000000000136e+01 3.442900000000000205e+01 -2.404596000000000089e+01 -3.399675739430803034e-01
-1.486899999999999977e+01 1.028500000000000014e+01 3.853600000000000136e+01 2.341433999999999926e+01 -2.407483189655376388e-01
-1.486800000000000033e+01 3.738400000000000034e+01 3.577400000000000091e+01 -4.197471000000000174e+01 -3.402679838791925482e-01
-1.485899999999999999e+01 2.756800000000000139e+01 3.214900000000000091e+01 3.521910999999999792e+00 -3.300796700810473827e-01
-1.484900000000000020e+01 1.246299999999999919e+01 5.279200000000000159e+01 4.015558999999999656e+00 -2.413989778245883289e-01
-1.484600000000000009e+01 4.116199999999999903e+01 2.867500000000000071e+01 5.650409999999999933e+00 -9.949264234806766416e-02
-1.484399999999999942e+01 1.177200000000000024e+01 3.978000000000000114e+01 2.464104999999999990e+01 -2.403092634877499467e-01
-1.484399999999999942e+01 2.624299999999999855e+01 2.269399999999999906e+01 7.830607999999999791e+00 -3.746499412165053555e-01
-1.484299999999999997e+01 2.218499999999999872e+01 4.499300000000000210e+01 6.530482000000000120e+00 -3.200000000000000067e-01
-1.483600000000000030e+01 2.630900000000000105e+01 4.295900000000000318e+01 -8.031257999999999342e+00 -3.200000000000000622e-01
-1.483399999999999963e+01 1.491699999999999982e+01 3.219100000000000250e+01 4.989061000000000412e+00 -3.304635521499301176e-01
-1.483300000000000018e+01 1.949200000000000088e+01 2.923000000000000043e+01 3.700957999999999970e+00 -3.300590464285196313e-01
-1.481700000000000017e+01 2.872700000000000031e+01 2.942299999999999827e+01 -1.287715999999999994e+01 -3.402568091311080067e-01
-1.481700000000000017e+01 2.872700000000000031e+01 3.082300000000000040e+01 -4.898674999999999891e+00 -3.403844194081883101e-01
-1.481400000000000006e+01 2.356200000000000117e+01 3.442699999999999960e+01 2.271549999999999869e+01 -3.306004631754021483e-01
-1.481000000000000050e+01 2.508500000000000085e+01 2.766000000000000014e+01 1.572883999999999993e+01 -3.402921388942701797e-01
-1.480400000000000027e+01 3.111299999999999955e+01 3.961800000000000210e+01 2.549996999999999847e+00 -3.200000000000000067e-01
-1.480400000000000027e+01 4.493900000000000006e+01 3.119699999999999918e+01 1.983170000000000144e+01 -1.014082610318764177e-01
-1.479700000000000060e+01 2.753900000000000148e+01 4.213600000000000279e+01 -3.497169999999999845e+01 -3.199999999999999512e-01
-1.479400000000000048e+01 3.922500000000000142e+01 3.353999999999999915e+01 1.370462999999999987e+01 -9.253083556061920956e-02
-1.479199999999999982e+01 4.490100000000000335e+01 2.798699999999999832e+01 8.198947000000000429e+00 -9.998584811747288081e-02
-1.479199999999999982e+01 4.621999999999999886e+01 2.872200000000000131e+01 1.220251999999999981e+01 1.702622391037806326e-01
-1.479199999999999982e+01 4.621999999999999886e+01 3.035200000000000031e+01 2.790082999999999913e+01 -1.010796248697082705e-01
-1.479199999999999982e+01 4.645100000000000051e+01 2.953699999999999903e+01 3.489240999999999815e+01 1.714093660100566296e-01
-1.479199999999999982e+01 1.204299999999999926e+01 4.059700000000000131e+01 8.429555000000000575e+00 -2.402815246335870680e-01
-1.478700000000000081e+01 2.372400000000000020e+01 4.303799999999999670e+01 -3.207908999999999899e+00 -3.200000000000000067e-01
-1.478500000000000014e+01 1.396700000000000053e+01 5.336599999999999966e+01 8.795109999999999317e+00 -2.409974712139918984e-01
-1.477999999999999936e+01 1.641400000000000148e+01 3.210300000000000153e+01 1.883283999999999958e+00 -3.304381363612591826e-01
-1.477800000000000047e+01 1.111100000000000065e+01 3.428000000000000114e+01 6.107490000000000308e+00 -2.402638120481785100e-01
-1.477100000000000080e+01 3.949600000000000222e+01 2.770400000000000063e+01 1.038561999999999941e+01 -9.582941216283986929e-02
-1.476299999999999990e+01 2.572299999999999898e+01 3.415200000000000102e+01 1.171147999999999989e+01 -3.304963855509121529e-01
-1.476299999999999990e+01 2.187500000000000000e+01 4.574499999999999744e+01 7.019057000000000102e+00 -3.200000000000000622e-01
-1.476299999999999990e+01 2.187500000000000000e+01 4.727900000000000347e+01 4.033151000000000153e+00 -3.200000000000000067e-01
-1.475900000000000034e+01 2.903000000000000114e+01 3.012300000000000111e+01 -8.479247000000000867e+00 -3.403040795762093951e-01
-1.475600000000000023e+01 1.323900000000000077e+01 3.230299999999999727e+01 6.247384000000000270e+00 -3.304880738768029014e-01
-1.474600000000000044e+01 1.060999999999999943e+01 5.450000000000000000e+01 -1.328732999999999942e+00 -2.421382934331287040e-01
-1.473600000000000065e+01 2.205999999999999872e+01 2.416100000000000136e+01 -5.740145000000000053e+00 -2.419113236755784935e-01
-1.473600000000000065e+01 2.346000000000000085e+01 2.416100000000000136e+01 -3.207155000000000200e+00 -3.401206609114738599e-01
-1.472799999999999976e+01 2.214600000000000080e+01 4.651200000000000045e+01 5.228811999999999571e+00 -3.200000000000000622e-01
-1.472499999999999964e+01 1.302100000000000080e+01 5.346200000000000330e+01 3.783215999999999912e+00 -2.413403755494386016e-01
-1.470700000000000074e+01 1.283500000000000085e+01 4.745300000000000296e+01 5.964610000000000412e+00 -2.406793032284051947e-01
-1.470700000000000074e+01 1.995400000000000063e+01 2.482000000000000028e+01 3.175837000000000021e+00 -2.423080845615964152e-01
-1.470400000000000063e+01 1.136700000000000088e+01 5.203099999999999881e+01 -1.109070999999999918e+00 -2.416897900574705993e-01
-1.469999999999999929e+01 2.710099999999999909e+01 3.330199999999999960e+01 6.546565000000000190e+00 -3.302978311376416620e-01
-1.469999999999999929e+01 2.730999999999999872e+01 3.256600000000000250e+01 -3.021002999999999883e-01 -3.301627608601582775e-01
-1.469800000000000040e+01 2.507100000000000151e+01 3.442000000000000171e+01 2.252004000000000161e+01 -3.305625818683000094e-01
-1.469599999999999973e+01 3.782300000000000040e+01 2.524200000000000088e+01 3.418296999999999919e+00 -1.258886928167691766e-01
-1.469599999999999973e+01 3.914200000000000301e+01 2.597700000000000031e+01 6.005459000000000103e+00 -1.294244978743666619e-01
-1.469599999999999973e+01 3.937299999999999756e+01 2.679200000000000159e+01 1.062738000000000049e+01 -1.309861959272212717e-01
-1.469599999999999973e+01 2.782400000000000162e+01 2.934799999999999898e+01 -1.831414000000000097e+00 -3.403019966265530827e-01
-1.469400000000000084e+01 1.727899999999999991e+01 4.781900000000000261e+01 2.076976000000000155e+01 -2.387587442995828257e-01
-1.468200000000000038e+01 3.570000000000000284e+01 2.504799999999999827e+01 9.795363999999999738e-01 -1.219254399956715557e-01
-1.468099999999999916e+01 2.157700000000000173e+01 4.782200000000000273e+01 6.688267999999999880e+00 -3.200000000000000622e-01
-1.467500000000000071e+01 1.135500000000000043e+01 4.931300000000000239e+01 2.694332000000000171e+00 -2.414099723490915061e-01
-1.464499999999999957e+01 3.166700000000000159e+01 2.290700000000000003e+01 6.348413000000000528e-01 -1.151165094130667255e-01
-1.464199999999999946e+01 3.690100000000000335e+01 3.575200000000000244e+01 -4.950975999999999999e+01 -3.301369905666483584e-01
-1.463700000000000045e+01 1.216000000000000014e+01 4.115999999999999659e+01 7.847139000000000308e+00 -2.403241782154536266e-01
-1.463400000000000034e+01 2.748199999999999932e+01 2.366700000000000159e+01 7.742758000000000251e+00 -3.747881861567315953e-01
-1.463299999999999912e+01 8.451900000000000190e+00 3.684400000000000119e+01 1.590953000000000017e+01 -2.412809459838060333e-01
-1.462500000000000000e+01 3.314200000000000301e+01 2.539300000000000068e+01 2.867223000000000077e+00 -8.368239126960066998e-02
-1.462400000000000055e+01 1.997500000000000142e+01 4.802000000000000313e+01 2.309590999999999994e+01 -3.200000000000000067e-01
-1.462299999999999933e+01 1.680600000000000094e+01 3.171300000000000097e+01 7.342047999999999908e-01 -3.303938192633976145e-01
-1.461200000000000010e+01 1.381300000000000061e+01 4.283899999999999864e+01 1.664600000000000080e+01 -2.398015180742471553e-01
-1.461100000000000065e+01 4.274300000000000210e+01 2.797400000000000020e+01 1.159116999999999997e+01 -9.977712278828360093e-02
-1.461100000000000065e+01 1.339300000000000068e+01 4.529800000000000182e+01 4.944365000000000343e+00 -2.402413589130855676e-01
-1.460599999999999987e+01 3.576899999999999835e+01 3.650999999999999801e+01 -1.864444999999999908e+01 -3.304002081464756935e-01
-1.460500000000000043e+01 1.157399999999999984e+01 5.433100000000000307e+01 -1.526420000000000066e+01 -2.419061813377249293e-01
-1.459299999999999997e+01 2.338100000000000023e+01 4.376500000000000057e+01 3.130095999999999989e+01 -3.200000000000000622e-01
-1.459200000000000053e+01 2.800100000000000122e+01 3.058299999999999841e+01 4.995332000000000106e-01 -3.404061258537727785e-01
-1.459200000000000053e+01 2.800100000000000122e+01 3.144900000000000162e+01 2.407653999999999961e+00 -3.404859955266702487e-01
-1.458999999999999986e+01 1.106400000000000006e+01 5.369899999999999807e+01 -2.242236000000000118e+00 -2.419848873519487853e-01
-1.458799999999999919e+01 1.368399999999999928e+01 4.458500000000000085e+01 5.246125000000000149e+00 -2.400473480173135887e-01
-1.458799999999999919e+01 1.389300000000000068e+01 4.384899999999999665e+01 3.466476000000000113e+00 -2.398775677575922527e-01
-1.458500000000000085e+01 2.863299999999999912e+01 4.019100000000000250e+01 -1.332404999999999973e+01 -3.200000000000000622e-01
-1.458399999999999963e+01 1.326399999999999935e+01 4.658800000000000097e+01 1.920130999999999943e+01 -2.404494548764676831e-01
-1.458200000000000074e+01 1.150799999999999912e+01 5.284799999999999898e+01 -8.677146000000000026e-01 -2.417732017146484724e-01
-1.458200000000000074e+01 1.202999999999999936e+01 5.349199999999999733e+01 1.357035000000000012e-02 -2.416911452655834402e-01
-1.457499999999999929e+01 2.603999999999999915e+01 2.189999999999999858e+01 1.188142999999999994e+01 -3.744116374996228624e-01
-1.457199999999999918e+01 2.651300000000000168e+01 2.824299999999999855e+01 1.331058999999999948e+01 -3.402767029153695999e-01
-1.457099999999999973e+01 1.017300000000000004e+01 5.021099999999999852e+01 9.704218000000000011e-01 -2.418882578915348969e-01
-1.457099999999999973e+01 1.017300000000000004e+01 5.115100000000000335e+01 9.897841000000000278e-02 -2.419800261979970224e-01
-1.457099999999999973e+01 1.532099999999999973e+01 5.280499999999999972e+01 1.681240999999999985e+01 -2.404879995303155216e-01
-1.456400000000000006e+01 2.841199999999999903e+01 2.360699999999999932e+01 1.396978000000000009e+01 -3.745874116180968327e-01
-1.455000000000000071e+01 2.829400000000000048e+01 3.012300000000000111e+01 -1.799465000000000003e+01 -3.403495775617597086e-01
-1.453999999999999915e+01 3.280700000000000216e+01 3.804399999999999693e+01 -2.916889999999999983e+00 -3.199999999999999512e-01
-1.453899999999999970e+01 2.191900000000000048e+01 3.118100000000000094e+01 3.301557999999999993e+01 -3.302001803577107042e-01
-1.453899999999999970e+01 2.212800000000000011e+01 3.191700000000000159e+01 4.088083999999999918e+01 -3.302899759275067515e-01
-1.453800000000000026e+01 2.325700000000000145e+01 2.887600000000000122e+01 3.652864999999999895e+01 -3.404560618746133027e-01
-1.453599999999999959e+01 1.265300000000000047e+01 4.194500000000000028e+01 1.138978999999999964e+01 -2.402252565651609717e-01
-1.451900000000000013e+01 9.810900000000000176e+00 5.450000000000000000e+01 -5.551211000000000340e+00 -2.424032846410685560e-01
-1.451699999999999946e+01 2.182199999999999918e+01 3.044900000000000162e+01 2.307584999999999908e+01 -3.301103020726069981e-01
-1.451699999999999946e+01 2.203099999999999881e+01 2.971300000000000097e+01 1.940469999999999828e+01 -3.300097445290832154e-01
-1.450699999999999967e+01 2.414900000000000091e+01 4.289600000000000080e+01 -1.657060999999999895e+00 -3.199999999999999512e-01
-1.450699999999999967e+01 2.554899999999999949e+01 4.289600000000000080e+01 -7.017943999999999960e+00 -3.200000000000000622e-01
-1.450699999999999967e+01 2.706899999999999906e+01 4.289600000000000080e+01 -2.245707000000000164e+01 -3.200000000000000067e-01
-1.450600000000000023e+01 1.568500000000000050e+01 5.186200000000000188e+01 2.641638999999999982e+01 -2.402156048762693064e-01
-1.450099999999999945e+01 3.848499999999999943e+01 3.568399999999999750e+01 -7.176158000000000037e+00 -3.401627108749248896e-01
-1.449799999999999933e+01 2.275199999999999889e+01 3.416700000000000159e+01 3.047304000000000102e+01 -3.305882715276093897e-01
-1.449799999999999933e+01 1.571499999999999986e+01 5.084199999999999875e+01 1.355481999999999942e+01 -2.400442774784940225e-01
-1.449600000000000044e+01 1.812000000000000099e+01 2.982000000000000028e+01 -4.630074000000000134e-01 -3.301661050908700767e-01
-1.449000000000000021e+01 1.553500000000000014e+01 5.001700000000000301e+01 2.345718000000000103e+01 -2.399956706799034056e-01
-1.448000000000000043e+01 2.102299999999999969e+01 2.380300000000000082e+01 2.467674000000000145e+00 -2.424647918442348615e-01
-1.447300000000000075e+01 3.032799999999999940e+01 2.263599999999999923e+01 4.237760999999999889e+00 -3.737816565479223363e-01
-1.447300000000000075e+01 1.071799999999999997e+01 3.902700000000000102e+01 1.734142999999999901e+01 -2.407391154349497742e-01
-1.446599999999999930e+01 9.353999999999999204e+00 3.465899999999999892e+01 8.717072999999999183e+00 -2.409351922538073565e-01
-1.445599999999999952e+01 1.014000000000000057e+01 5.374000000000000199e+01 -1.274610999999999938e+00 -2.422714164052706676e-01
-1.445599999999999952e+01 1.014000000000000057e+01 5.525999999999999801e+01 -2.671600999999999893e+00 -2.424116017773888798e-01
-1.445599999999999952e+01 1.108000000000000007e+01 5.525999999999999801e+01 -1.467783000000000015e+01 -2.421781243413028695e-01
-1.445400000000000063e+01 1.167900000000000027e+01 3.381600000000000250e+01 5.682508999999999588e+00 -2.401224593852869515e-01
-1.445299999999999940e+01 2.472100000000000009e+01 2.271099999999999852e+01 3.787563000000000013e+00 -3.748959893103019358e-01
-1.445100000000000051e+01 2.301800000000000068e+01 4.446800000000000352e+01 2.446653999999999840e+01 -3.199999999999999512e-01
-1.444999999999999929e+01 3.651500000000000057e+01 2.510500000000000043e+01 4.939490000000000158e+00 -1.230786319464892420e-01
-1.443800000000000061e+01 1.262100000000000044e+01 5.421500000000000341e+01 3.159009999999999874e+00 -2.416415509957098862e-01
-1.443599999999999994e+01 1.905900000000000105e+01 2.972100000000000009e+01 -1.108854000000000006e+01 -3.301259833193507243e-01
-1.443299999999999983e+01 1.779100000000000037e+01 3.057999999999999829e+01 -7.601144999999999818e+00 -3.302556088494125741e-01
-1.442699999999999960e+01 2.095700000000000074e+01 4.851100000000000279e+01 9.034449999999999648e+00 -3.200000000000000622e-01
-1.440399999999999991e+01 4.107699999999999818e+01 3.227900000000000347e+01 2.085969000000000051e+01 -9.803602525832187664e-02
-1.440399999999999991e+01 4.259199999999999875e+01 3.216299999999999670e+01 1.347669999999999924e+01 -1.017066627414685981e-01
-1.440399999999999991e+01 4.406799999999999784e+01 3.148100000000000165e+01 2.274042000000000030e+01 -1.017987251282007621e-01
-1.440000000000000036e+01 2.019200000000000017e+01 2.809700000000000131e+01 1.125722000000000023e+01 -3.299057096625869212e-01
-1.440000000000000036e+01 2.019200000000000017e+01 2.896300000000000097e+01 1.293947000000000003e+01 -3.300000490538294584e-01
-1.439400000000000013e+01 1.964799999999999969e+01 2.509400000000000119e+01 3.137427000000000188e+00 -3.402778974536373457e-01
-1.439400000000000013e+01 1.964799999999999969e+01 2.614399999999999835e+01 3.355014999999999858e+00 -2.419219814338729735e-01
-1.437500000000000000e+01 1.748699999999999832e+01 3.128000000000000114e+01 -8.912752000000000452e-01 -3.303376429775598533e-01
-1.437199999999999989e+01 1.555499999999999972e+01 3.216700000000000159e+01 5.126674000000000397e+00 -3.304597555249301211e-01
-1.436899999999999977e+01 3.401200000000000045e+01 2.569500000000000028e+01 4.298009999999999664e+00 -8.461317508191310011e-02
-1.436700000000000088e+01 4.046200000000000330e+01 2.827199999999999847e+01 8.936220000000000496e+00 -9.809165394630874057e-02
-1.436700000000000088e+01 4.186200000000000188e+01 2.827199999999999847e+01 9.097027000000000641e+00 -9.984467572843808147e-02
-1.436599999999999966e+01 4.036599999999999966e+01 3.256900000000000261e+01 2.023386999999999958e+01 -9.586703393185580513e-02
