1.174200000000000017e+02 6.496299999999999386e+01 -8.036499999999999755e-01 -1.591955999999999927e+00 1.763118976467484555e-01
1.174200000000000017e+02 7.109499999999999886e+01 2.976099999999999923e+01 4.055362999999999829e+00 -1.518486997281124073e-01
1.174200000000000017e+02 6.564199999999999591e+01 3.043199999999999861e+01 -4.294389999999999930e+00 -1.481880909661397738e-01
1.174300000000000068e+02 7.936700000000000443e+01 2.614000000000000057e+01 2.600744999999999862e+00 -2.621099434823541685e-01
1.174300000000000068e+02 7.251600000000000534e+01 3.291299999999999670e+01 -3.408161999999999914e+00 -1.511308730985912174e-01
1.174300000000000068e+02 7.345600000000000307e+01 3.291299999999999670e+01 -4.486074000000000339e+00 -1.515619964815518028e-01
1.174399999999999977e+02 7.728000000000000114e+01 3.555600000000000094e+00 -3.483486000000000082e+00 -8.360398989045646212e-02
1.174500000000000028e+02 7.702200000000000557e+01 2.763100000000000112e+00 -2.186081000000000074e+01 -8.392357312959600191e-02
1.174500000000000028e+02 7.974899999999999523e+01 1.968499999999999872e+01 8.490405000000000868e+00 -1.566811604671021763e-01
1.174599999999999937e+02 6.354299999999999926e+01 1.206099999999999950e+00 9.136613000000000095e-01 1.773800887195343956e-01
1.174599999999999937e+02 5.792099999999999937e+01 2.844000000000000128e+01 -6.121940000000000381e+00 -2.561816874559086910e-01
1.174599999999999937e+02 4.501599999999999824e+01 5.336999999999999744e+00 3.816030000000000033e+00 2.712897827519876737e-01
1.174599999999999937e+02 5.638400000000000034e+01 6.291100000000000136e+00 3.754893000000000036e+00 1.810672508987799523e-01
1.174599999999999937e+02 7.933100000000000307e+01 1.105799999999999983e+01 1.638659000000000177e+01 -8.091438102011007383e-02
1.174599999999999937e+02 7.954000000000000625e+01 1.032199999999999918e+01 -2.155968000000000018e+01 -8.111705343893729769e-02
1.174599999999999937e+02 5.578799999999999670e+01 7.732999999999999652e+00 2.704630999999999830e+01 1.826995878671511808e-01
1.174599999999999937e+02 4.738100000000000023e+01 7.720100000000000406e+00 6.647276999999999880e+00 1.051044312841836748e-01
1.174699999999999989e+02 6.813800000000000523e+01 1.736899999999999977e+01 -1.519843999999999973e+01 -6.714180395145157021e-02
1.174699999999999989e+02 6.813800000000000523e+01 1.876899999999999835e+01 5.157977000000000256e-01 -1.610737086492775028e-01
1.174699999999999989e+02 6.900400000000000489e+01 1.736899999999999977e+01 -2.226172000000000040e+01 -6.709749973094394915e-02
1.174699999999999989e+02 6.900400000000000489e+01 1.876899999999999835e+01 -8.276154000000000011e+00 -1.607392185068421131e-01
1.174800000000000040e+02 7.847700000000000387e+01 3.032600000000000051e+01 -9.003190999999999278e+00 -1.541712635633296080e-01
1.174800000000000040e+02 6.369400000000000261e+01 2.126699999999999979e-01 9.449140000000000317e-01 1.767388502035392717e-01
1.174899999999999949e+02 4.177300000000000324e+01 1.493999999999999950e+01 -6.018318999999999974e+00 3.055619930252087002e-01
1.174899999999999949e+02 7.790500000000000114e+01 1.734700000000000131e+01 -8.624990999999999630e+00 -1.579508927863307599e-01
1.174899999999999949e+02 4.141700000000000159e+01 1.420800000000000018e+01 -3.287761000000000156e+00 3.115709685971220777e-01
1.174899999999999949e+02 6.750000000000000000e+01 3.155000000000000071e+01 4.935802999999999940e+00 -1.488778942206685496e-01
1.174899999999999949e+02 6.854999999999999716e+01 3.155000000000000071e+01 -1.858842000000000105e+00 -1.495731268132878267e-01
1.175000000000000000e+02 4.599099999999999966e+01 5.630700000000000038e+00 8.941651999999999489e+00 9.985694821257222464e-02
1.175300000000000011e+02 7.837500000000000000e+01 1.819099999999999895e+01 -1.315919000000000061e+01 -1.574901907884687646e-01
1.175300000000000011e+02 7.962699999999999534e+01 2.303399999999999892e+01 3.628875000000000028e+01 -2.625048488326289231e-01
1.175300000000000011e+02 5.992900000000000205e+01 5.918300000000000338e+00 -9.898875999999999564e+00 1.809908223882848721e-01
1.175300000000000011e+02 3.998599999999999710e+01 8.466100000000000847e+00 4.975594999999999879e-01 1.159814745850740875e-01
1.175300000000000011e+02 3.998599999999999710e+01 9.983900000000000219e+00 -7.451830000000000176e+00 1.133867304048487706e-01
1.175300000000000011e+02 8.220799999999999841e+01 2.185999999999999943e+01 -6.770120000000000360e+00 -2.624238750019376454e-01
1.175499999999999972e+02 6.418500000000000227e+01 2.986799999999999855e+01 5.092828999999999828e-01 -1.474487312575621656e-01
1.175600000000000023e+02 5.730899999999999750e+01 4.701299999999999812e+00 -8.663596000000000075e-01 1.794459716768385116e-01
1.175600000000000023e+02 5.882900000000000063e+01 4.701299999999999812e+00 -4.320947999999999567e+00 1.797396674334959532e-01
1.175699999999999932e+02 3.971800000000000352e+01 9.224999999999999645e+00 -2.421088999999999825e+00 1.150253198255849763e-01
1.175699999999999932e+02 6.998199999999999932e+01 2.247800000000000076e-01 -1.030511000000000088e+01 -8.737406260659681678e-02
1.175699999999999932e+02 4.037500000000000000e+01 5.749699999999999811e+00 -6.184851999999999572e-01 1.179843972167516908e-01
1.175699999999999932e+02 7.594599999999999795e+01 -5.006000000000000227e+00 4.276838999999999835e+00 -8.651071503971440035e-02
1.175699999999999932e+02 7.749599999999999511e+01 -5.006000000000000227e+00 2.558836000000000155e+01 -8.601743665825241358e-02
1.175900000000000034e+02 7.802599999999999625e+01 -1.496799999999999908e+00 1.217121999999999993e+01 -8.495081278463556540e-02
1.175999999999999943e+02 8.246999999999999886e+01 2.109199999999999875e+01 -7.723179000000000016e+00 -2.624818871142400312e-01
1.176099999999999994e+02 5.738900000000000290e+01 3.000900000000000034e+01 -7.346791999999999767e+00 -2.676043697351046524e-01
1.176099999999999994e+02 5.761599999999999966e+01 2.921000000000000085e+01 -6.178211000000000119e+00 -2.549089272691532626e-01
1.176099999999999994e+02 5.761599999999999966e+01 3.080799999999999983e+01 -6.628506999999999927e+00 -3.641078649010405233e-01
1.176099999999999994e+02 5.890899999999999892e+01 3.152899999999999991e+01 -3.579234000000000293e+01 -2.662620436584731687e-01
1.176099999999999994e+02 6.020199999999999818e+01 3.080799999999999983e+01 -6.032988999999999891e+01 -2.690520288978958119e-01
1.176200000000000045e+02 6.193699999999999761e+01 2.933200000000000074e+01 2.199040000000000106e+00 -1.459088511142235256e-01
1.176200000000000045e+02 6.977299999999999613e+01 2.992699999999999960e+01 -7.771906999999999677e+00 -1.511745397510716460e-01
1.176200000000000045e+02 7.063899999999999579e+01 2.992699999999999960e+01 7.092118000000000144e+00 -1.516119890908008971e-01
1.176200000000000045e+02 4.930899999999999750e+01 2.395799999999999841e+01 -9.305641000000000052e-01 -1.505767620293644860e-01
1.176200000000000045e+02 6.620699999999999363e+01 -1.828699999999999992e+00 -3.458171999999999802e+00 1.759436536947485141e-01
1.176200000000000045e+02 6.772700000000000387e+01 -1.828699999999999992e+00 -7.061569999999999681e+00 1.761441293355477389e-01
1.176299999999999955e+02 5.542799999999999727e+01 8.438200000000000145e+00 1.269041999999999959e+01 2.814113335922699410e-01
1.176400000000000006e+02 7.894100000000000250e+01 4.832600000000000229e+00 -1.128778999999999977e+00 -8.282195020498710203e-02
1.176400000000000006e+02 7.774599999999999511e+01 -9.282899999999999485e-01 2.826086999999999794e+00 -8.485018798242002780e-02
1.176500000000000057e+02 4.112599999999999767e+01 1.366200000000000081e+01 -9.556174000000000390e+00 3.152939553501210579e-01
1.176500000000000057e+02 5.223199999999999932e+01 2.498699999999999832e+01 1.871928000000000125e+01 -1.305843724684255525e-01
1.176500000000000057e+02 7.146899999999999409e+01 3.062500000000000000e+01 2.837988999999999873e+00 -1.516785917867757294e-01
1.176599999999999966e+02 4.431400000000000006e+01 1.660200000000000031e+01 -2.781880999999999826e+00 1.770104626577634066e-01
1.176599999999999966e+02 4.280799999999999983e+01 1.599799999999999933e+01 -3.664730000000000043e+00 1.820227706930314659e-01
1.176599999999999966e+02 6.616800000000000637e+01 3.082799999999999940e+01 1.981954999999999911e+00 -1.483782338482691476e-01
1.176700000000000017e+02 5.836999999999999744e+01 2.393299999999999983e+01 -1.932122999999999990e+01 -2.621461192440527332e-01
1.176899999999999977e+02 7.459999999999999432e+01 3.193900000000000006e+01 -1.168443000000000076e+01 -1.524671909694210181e-01
1.176899999999999977e+02 5.400699999999999790e+01 8.928000000000000824e+00 1.752606000000000108e+01 2.817527378762246792e-01
1.176899999999999977e+02 5.686899999999999977e+01 2.351000000000000156e+01 -1.590985000000000049e+01 -1.499987944803256867e-01
1.176899999999999977e+02 8.035999999999999943e+01 5.617899999999999672e+00 -4.398767000000000316e+00 -8.236771527678855842e-02
1.177000000000000028e+02 5.085699999999999932e+01 2.590800000000000125e+01 9.872745000000000104e+00 -3.847579665953274053e-01
1.177000000000000028e+02 8.011400000000000432e+01 9.490099999999999980e+00 -3.142197000000000173e+01 -8.124517557765921494e-02
1.177000000000000028e+02 7.950300000000000011e+01 1.188000000000000078e+01 2.991187000000000040e+00 -1.702734052664118536e-01
1.177000000000000028e+02 7.744299999999999784e+01 -2.282899999999999929e-01 1.034511999999999965e+01 -8.470742894522818867e-02
1.177000000000000028e+02 4.369700000000000273e+01 4.642299999999999649e+00 -8.564090999999999454e+00 1.137385064537748958e-01
1.177000000000000028e+02 4.505100000000000193e+01 1.751899999999999835e+01 3.412357999999999780e+00 1.729417690827797782e-01
1.177099999999999937e+02 5.261599999999999966e+01 8.051000000000000156e+00 2.015418999999999983e+01 2.810730531551567934e-01
1.177099999999999937e+02 4.856000000000000227e+01 2.157000000000000028e+01 1.224990000000000023e+01 -4.922544055094119075e-02
1.177099999999999937e+02 4.937599999999999767e+01 2.501099999999999923e+01 7.995122000000000284e+00 -1.430964222969171584e-01
1.177099999999999937e+02 4.238700000000000045e+01 3.932999999999999829e+00 -5.796356000000000286e-01 1.154765753981361331e-01
1.177199999999999989e+02 8.174500000000000455e+01 2.221399999999999864e+01 5.356560000000000210e-01 -2.624412453866870054e-01
1.177199999999999989e+02 7.321699999999999875e+01 1.991700000000000137e-01 -5.960890000000000022e+00 -8.590099398721486035e-02
1.177199999999999989e+02 6.325600000000000023e+01 2.166500000000000092e+00 1.230107000000000075e-02 1.780551549772910469e-01
1.177399999999999949e+02 7.482200000000000273e+01 -3.419700000000000184e+00 2.966505999999999865e-01 -8.645442119355520316e-02
1.177399999999999949e+02 8.174399999999999977e+01 6.403299999999999770e+00 -1.612067000000000050e+01 -8.197870406876540950e-02
1.177399999999999949e+02 8.174399999999999977e+01 8.862700000000000244e+00 -6.295900000000000318e+01 -8.130406850574149746e-02
1.177600000000000051e+02 7.173399999999999466e+01 3.150499999999999901e+01 -2.194417000000000062e+00 -1.514336714198090683e-01
1.177699999999999960e+02 7.873499999999999943e+01 2.416000000000000014e+01 4.730985000000000440e+00 -2.624598578653399295e-01
1.177800000000000011e+02 7.895600000000000307e+01 2.955099999999999838e+01 1.929113000000000078e+00 -1.546134720629587511e-01
1.177800000000000011e+02 7.715900000000000603e+01 2.102900000000000047e-01 7.847358999999999973e+00 -8.462706021426860681e-02
1.177800000000000011e+02 4.517399999999999949e+01 1.843100000000000094e+01 2.655267999999999962e+00 1.694604986669295266e-01
1.177800000000000011e+02 5.548100000000000165e+01 2.313899999999999935e+01 3.852644999999999875e+00 -1.508639957492224348e-01
1.177900000000000063e+02 8.300100000000000477e+01 2.185099999999999909e+01 -4.065374000000000265e+00 -2.623840397716800110e-01
1.177999999999999972e+02 6.177799999999999869e+01 5.814700000000000202e+00 6.507417000000000229e+00 1.809124174497958315e-01
1.177999999999999972e+02 6.421899999999999409e+01 -6.373299999999999521e-01 2.585571999999999870e-01 1.763003431056338055e-01
1.178100000000000023e+02 5.415500000000000114e+01 2.376300000000000168e+01 1.278673999999999999e+01 -2.944319458301994930e-01
1.178100000000000023e+02 8.345099999999999341e+01 2.308500000000000085e+01 -3.505284000000000066e+00 -2.622320502100478623e-01
1.178199999999999932e+02 5.492600000000000193e+01 8.986299999999999955e+00 2.150580000000000069e+01 2.819529832653094870e-01
1.178299999999999983e+02 8.326900000000000546e+01 2.109199999999999875e+01 -3.135324000000000222e+00 -2.624361534609815916e-01
1.178299999999999983e+02 6.974299999999999500e+01 3.049800000000000111e+01 -1.374176000000000064e+00 -1.509199107671705675e-01
1.178299999999999983e+02 7.060800000000000409e+01 3.049800000000000111e+01 9.773743000000000292e-01 -1.513744155733635632e-01
1.178299999999999983e+02 8.200100000000000477e+01 2.023300000000000054e+01 -6.515940000000000065e-01 -2.626189087904006736e-01
1.178299999999999983e+02 4.958700000000000330e+01 7.793899999999999828e+00 9.395671000000000106e+00 1.005475498948381619e-01
1.178299999999999983e+02 5.106300000000000239e+01 7.112000000000000099e+00 4.784078000000000053e+00 2.796968710341839470e-01
1.178299999999999983e+02 7.977899999999999636e+01 2.677700000000000102e+01 4.443131000000000341e+01 -2.620321910521392073e-01
1.178299999999999983e+02 7.977899999999999636e+01 2.832700000000000173e+01 4.228750000000000142e+01 -1.551779330787160238e-01
1.178299999999999983e+02 6.062899999999999778e+01 5.976600000000000357e+00 -2.379725000000000035e-01 1.811402098649488868e-01
1.178400000000000034e+02 7.784399999999999409e+01 1.601399999999999935e+01 1.583353999999999928e+01 -1.583467382884332642e-01
1.178400000000000034e+02 6.359700000000000131e+01 2.944999999999999929e+01 3.434032999999999891e+00 -1.473259366037516505e-01
1.178499999999999943e+02 4.078600000000000136e+01 4.861900000000000333e+00 -6.990572999999999926e-01 1.169658947731721382e-01
1.178499999999999943e+02 6.293699999999999761e+01 3.881600000000000161e+00 -8.032878000000000185e+00 1.793452557303567563e-01
1.178499999999999943e+02 7.911599999999999966e+01 1.916199999999999903e+01 3.845574000000000048e+00 -1.568290188923402995e-01
1.178599999999999994e+02 7.445199999999999818e+01 -1.589800000000000102e+00 -3.293323000000000000e+00 -8.601431410525005317e-02
1.178599999999999994e+02 7.866700000000000159e+01 2.500700000000000145e+01 3.625893000000000033e+00 -2.623585538734860556e-01
1.178599999999999994e+02 7.887600000000000477e+01 2.574299999999999855e+01 4.835818999999999868e+00 -2.622392603554492552e-01
1.178599999999999994e+02 7.298600000000000421e+01 3.344599999999999795e+01 -9.152620999999999896e+00 -1.512548097039414785e-01
1.178599999999999994e+02 6.857099999999999795e+01 1.687800000000000011e+01 -2.302417000000000158e+01 -1.749292801502836670e-01
1.178599999999999994e+02 6.857099999999999795e+01 1.926000000000000156e+01 -6.740757000000000332e+00 -1.602997853643186310e-01
1.178700000000000045e+02 7.820699999999999363e+01 -2.717600000000000016e+00 9.159307999999999339e+00 -8.517561528058095743e-02
1.178700000000000045e+02 7.847299999999999898e+01 -6.775600000000000511e-01 1.614390999999999909e+00 -8.454067838445954164e-02
1.178700000000000045e+02 6.928199999999999648e+01 1.664899999999999991e-01 -2.084452999999999889e+01 -8.769379243618082020e-02
1.178799999999999955e+02 6.332300000000000040e+01 2.910099999999999909e+00 -4.161552000000000362e+00 1.786288259160752068e-01
1.178799999999999955e+02 7.744499999999999318e+01 3.861099999999999977e+00 -1.075916999999999923e+01 -8.333785955888556307e-02
1.178900000000000006e+02 8.293999999999999773e+01 2.033200000000000074e+01 -1.868730999999999920e+00 -2.625346102637254875e-01
1.178900000000000006e+02 7.440500000000000114e+01 -8.148900000000000032e-01 -5.772941000000000322e+00 -8.577194769367857408e-02
1.178900000000000006e+02 4.431600000000000250e+01 5.069600000000000328e+00 -1.512351000000000001e+00 2.700575167999378356e-01
1.179000000000000057e+02 8.011499999999999488e+01 2.755199999999999960e+01 1.033007999999999953e+02 -1.554940501850422818e-01
1.179000000000000057e+02 6.050800000000000267e+01 1.864900000000000091e+01 1.104751000000000083e+01 -6.738669297197272257e-02
1.179000000000000057e+02 6.743800000000000239e+01 1.763599999999999923e+01 -1.202621000000000073e+01 -6.711627152871038615e-02
1.179000000000000057e+02 6.743800000000000239e+01 1.850100000000000122e+01 5.327233999999999803e+00 -6.697996742499709444e-02
1.179000000000000057e+02 6.970399999999999352e+01 1.763599999999999923e+01 -1.998795000000000144e+01 -1.608384681402559302e-01
1.179000000000000057e+02 6.970399999999999352e+01 1.850100000000000122e+01 -1.029940999999999995e+01 -1.603115001348490165e-01
1.179000000000000057e+02 7.175600000000000023e+01 3.262299999999999756e+01 -3.546368999999999883e+00 -1.509954465004436086e-01
1.179000000000000057e+02 7.421599999999999397e+01 3.262299999999999756e+01 -2.026978000000000080e+01 -1.521160850219908378e-01
1.179099999999999966e+02 7.817900000000000205e+01 -2.282899999999999929e-01 3.267542999999999864e+00 -8.447085833559921098e-02
1.179099999999999966e+02 7.856199999999999761e+01 4.614899999999999558e+00 -1.620946999999999916e+00 -8.287436622563876254e-02
1.179099999999999966e+02 7.798600000000000421e+01 3.072299999999999898e+01 -9.170286000000000826e+00 -1.540367863580029140e-01
1.179200000000000017e+02 5.623899999999999721e+01 7.494200000000000195e+00 4.578291999999999717e+01 1.828014740884830458e-01
1.179300000000000068e+02 7.277200000000000557e+01 6.495300000000000518e-01 -9.476402999999999466e+00 -8.584818673290410540e-02
1.179300000000000068e+02 6.944299999999999784e+01 3.132400000000000162e+01 -3.741891999999999996e-01 -1.503480997448478351e-01
1.179399999999999977e+02 5.880299999999999727e+01 2.463299999999999912e+01 -4.241604999999999848e+00 -2.618839995328120507e-01
1.179399999999999977e+02 5.880299999999999727e+01 2.549899999999999878e+01 -8.975429000000000102e+00 -2.608841177564819591e-01
1.179399999999999977e+02 6.072800000000000153e+01 3.014300000000000068e+01 -8.586045000000000371e+00 -2.709242995024763734e-01
1.179500000000000028e+02 6.660099999999999909e+01 3.133399999999999963e+01 1.911427999999999905e+00 -1.484523598136903155e-01
1.179699999999999989e+02 4.694400000000000261e+01 6.914900000000000269e+00 1.990292000000000172e+01 1.009996435187347219e-01
1.179800000000000040e+02 6.802500000000000568e+01 3.214600000000000080e+01 2.259926000000000101e+00 -1.490254687562594105e-01
1.179800000000000040e+02 5.943699999999999761e+01 5.067199999999999704e+00 -1.117998000000000047e+01 1.803211138470849351e-01
1.179800000000000040e+02 7.750900000000000034e+01 1.691400000000000148e+01 1.316723999999999961e+01 -1.580295115318834376e-01
1.179800000000000040e+02 7.750900000000000034e+01 1.777899999999999991e+01 1.487223999999999968e+01 -1.576812128112637101e-01
1.179899999999999949e+02 5.320400000000000063e+01 8.854400000000000048e+00 1.689697999999999922e+01 2.821240158332872783e-01
1.180000000000000000e+02 8.373699999999999477e+01 2.185099999999999909e+01 -1.835220999999999947e+01 -2.623437788882025390e-01
1.180000000000000000e+02 8.398199999999999932e+01 2.232600000000000051e+01 -1.011642999999999937e+01 -2.622813833441849374e-01
1.180100000000000051e+02 4.808100000000000307e+01 7.862899999999999778e+00 8.537698999999999927e+00 1.024324808238304685e-01
1.180300000000000011e+02 4.514099999999999824e+01 5.306000000000000050e+00 1.994944000000000051e+00 2.685874439713985540e-01
1.180300000000000011e+02 4.658700000000000330e+01 6.112300000000000288e+00 1.296039999999999992e+01 9.838967992300176602e-02
1.180300000000000011e+02 5.654899999999999949e+01 5.931000000000000050e+00 1.547428999999999943e+00 1.809587117190024075e-01
1.180300000000000011e+02 5.677600000000000335e+01 5.131899999999999906e+00 -2.487691999999999959e-01 1.800027779392057714e-01
1.180300000000000011e+02 5.806900000000000261e+01 4.410999999999999588e+00 -5.034887000000000112e-01 1.794469568979814300e-01
1.180300000000000011e+02 7.548000000000000398e+01 3.190200000000000102e+01 -9.735414999999999708e+00 -1.528983456244534522e-01
1.180300000000000011e+02 8.221399999999999864e+01 7.163299999999999557e+00 -7.109873000000000332e+00 -8.165145232484116722e-02
1.180300000000000011e+02 8.221399999999999864e+01 8.102700000000000458e+00 -2.118394999999999939e+01 -8.139774245436645628e-02
1.180300000000000011e+02 6.253699999999999903e+01 4.653999999999999915e+00 1.078257000000000021e+00 1.799970558378034269e-01
1.180400000000000063e+02 8.425000000000000000e+01 2.308500000000000085e+01 -1.911657999999999902e+01 -2.621929997099284315e-01
1.180400000000000063e+02 4.162700000000000244e+01 3.996300000000000185e+00 -4.007278000000000340e+00 1.157233784592040238e-01
1.180400000000000063e+02 4.314699999999999847e+01 3.996300000000000185e+00 -1.528049999999999997e+01 -1.910706940774480334e-01
1.180499999999999972e+02 6.263700000000000045e+01 2.906500000000000128e+01 1.877670000000000033e-02 -1.468402120492659502e-01
1.180499999999999972e+02 4.227700000000000102e+01 1.547600000000000087e+01 9.784007999999999594e-01 2.972737312401048104e-01
1.180499999999999972e+02 7.507399999999999807e+01 -3.822099999999999831e+00 -2.721884000000000109e-02 -8.640938869844827508e-02
1.180499999999999972e+02 7.540200000000000102e+01 -4.566900000000000404e+00 7.578821000000000030e-01 -8.649257288025682944e-02
1.180499999999999972e+02 7.672100000000000364e+01 -5.301999999999999602e+00 2.897682999999999787e+00 -8.623561217546991953e-02
1.180499999999999972e+02 7.804000000000000625e+01 -4.566900000000000404e+00 3.744151000000000007e+00 -8.565921328973150062e-02
1.180499999999999972e+02 7.827100000000000080e+01 -3.751999999999999780e+00 -3.332205999999999779e+00 -8.539064287210093585e-02
1.180600000000000023e+02 5.612800000000000011e+01 8.170799999999999841e+00 9.893004999999999427e+01 1.837232637138079827e-01
1.180699999999999932e+02 8.098399999999999466e+01 8.926000000000000156e+00 -3.109034000000000120e+01 -8.123623887846788405e-02
1.180799999999999983e+02 7.830700000000000216e+01 1.521299999999999919e+01 1.686037999999999926e+01 -1.718098952215496300e-01
1.180799999999999983e+02 6.131099999999999994e+01 2.968900000000000006e+01 -6.304477000000000331e+00 -2.723192242684906450e-01
1.180799999999999983e+02 6.488299999999999557e+01 3.013100000000000023e+01 -3.674612999999999907e+00 -1.479294075973913991e-01
1.180799999999999983e+02 4.554800000000000182e+01 1.926300000000000168e+01 2.412679999999999936e+01 1.667030354469209441e-01
1.180799999999999983e+02 5.814900000000000091e+01 3.123900000000000077e+01 -1.656979000000000113e+01 -2.659901679963518339e-01
1.180799999999999983e+02 5.966899999999999693e+01 3.123900000000000077e+01 -7.779461000000000581e+01 -2.678297210631062075e-01
1.180900000000000034e+02 4.340400000000000347e+01 1.633800000000000097e+01 4.748339999999999783e+00 1.777931914822116211e-01
1.180900000000000034e+02 5.984100000000000108e+01 1.934499999999999886e+01 8.325777999999999679e+00 -6.725003589576342145e-02
1.180900000000000034e+02 6.696699999999999875e+01 -2.119000000000000217e+00 -2.123892999999999809e+00 1.759110168262127405e-01
1.180900000000000034e+02 6.826000000000000512e+01 -1.398099999999999898e+00 -1.147010000000000041e+01 1.764167409488708593e-01
1.180900000000000034e+02 6.858499999999999375e+01 -6.609199999999999520e-01 -3.018186999999999998e+01 -8.837701299579416025e-02
1.180999999999999943e+02 6.784000000000000341e+01 1.917599999999999838e+01 1.376929999999999987e+00 -1.606716963900286510e-01
1.180999999999999943e+02 3.928699999999999903e+01 8.755300000000000082e+00 -2.020890000000000075e+00 1.133760458657466497e-01
1.180999999999999943e+02 3.928699999999999903e+01 9.694699999999999207e+00 -2.393469000000000069e+00 1.106170351966439397e-01
1.180999999999999943e+02 8.298099999999999454e+01 2.384499999999999886e+01 -9.759468999999999284e+00 -2.622085328503708235e-01
1.180999999999999943e+02 8.392100000000000648e+01 2.384499999999999886e+01 -1.677252000000000010e+01 -2.621442610405121387e-01
1.180999999999999943e+02 4.637700000000000244e+01 2.032999999999999829e+01 3.329925999999999942e+00 1.653252858267547920e-01
1.180999999999999943e+02 7.404399999999999693e+01 2.000000000000000042e-03 -1.388547999999999938e+01 -8.556445062905189414e-02
1.181099999999999994e+02 6.107800000000000296e+01 5.873000000000000220e+00 1.399859000000000009e+01 1.811251027656981538e-01
1.181099999999999994e+02 5.977199999999999847e+01 1.864900000000000091e+01 9.601687999999999334e+00 -6.743553060490267703e-02
1.181099999999999994e+02 6.124399999999999977e+01 1.864900000000000091e+01 7.816996999999999751e+00 -6.731384996255825037e-02
1.181099999999999994e+02 4.936500000000000199e+01 2.358999999999999986e+01 -1.314786999999999928e+00 -1.495428944409409877e-01
1.181099999999999994e+02 4.936500000000000199e+01 2.452799999999999869e+01 1.044457000000000024e-02 -1.435733179561409500e-01
1.181299999999999955e+02 7.963599999999999568e+01 2.720599999999999952e+01 3.606510999999999711e+01 -2.620053402691814304e-01
1.181299999999999955e+02 7.941400000000000148e+01 1.062299999999999933e+01 4.764459000000000444e+00 -8.081380637782727139e-02
1.181299999999999955e+02 7.962300000000000466e+01 9.886699999999999378e+00 -1.550389000000000017e+01 -8.102183815665850442e-02
1.181400000000000006e+02 8.103199999999999648e+01 6.264800000000000146e+00 -2.094328000000000145e+01 -8.197616023055592782e-02
1.181400000000000006e+02 7.204699999999999704e+01 8.554800000000000182e-01 -6.479479999999999684e+00 -8.600029434345529689e-02
1.181400000000000006e+02 7.779699999999999704e+01 3.113100000000000023e+01 -1.062856999999999985e+01 -1.539164544318911143e-01
1.181400000000000006e+02 4.785999999999999943e+01 2.130300000000000082e+01 3.570962999999999887e+00 -5.016931895809232517e-02
1.181400000000000006e+02 4.905100000000000193e+01 2.196699999999999875e+01 6.428531000000000439e+00 -4.470561068230381740e-02
1.181400000000000006e+02 4.925999999999999801e+01 2.270299999999999940e+01 -1.221082999999999918e+00 3.530355029734731642e-02
1.181599999999999966e+02 5.797899999999999920e+01 2.874299999999999855e+01 -7.070903999999999634e+00 -2.560804989351134209e-01
1.181599999999999966e+02 5.807000000000000028e+01 2.716000000000000014e+01 -5.561768999999999963e+00 -2.583037653331822225e-01
1.181599999999999966e+02 5.818800000000000239e+01 2.800700000000000145e+01 -5.780172000000000310e+00 -2.572906858803371000e-01
1.181599999999999966e+02 5.832399999999999807e+01 2.626599999999999824e+01 -6.948259000000000185e+00 -2.597075001714298503e-01
1.181700000000000017e+02 6.007500000000000284e+01 1.794900000000000162e+01 8.252031000000000560e+00 -6.758682921363337592e-02
1.181700000000000017e+02 6.093999999999999773e+01 1.794900000000000162e+01 9.478984999999999772e+00 -6.750533443800824096e-02
1.181700000000000017e+02 6.093999999999999773e+01 1.934900000000000020e+01 6.210043999999999897e+00 -6.716339418959316188e-02
1.181700000000000017e+02 6.787099999999999511e+01 1.693599999999999994e+01 -1.495968000000000053e+01 -1.751581947383304416e-01
1.181700000000000017e+02 6.927100000000000080e+01 1.693599999999999994e+01 -2.079709000000000074e+01 -1.746856740023524091e-01
1.181700000000000017e+02 6.927100000000000080e+01 1.920100000000000051e+01 -7.531971000000000416e+00 -1.599515387034664837e-01
1.181700000000000017e+02 6.557399999999999807e+01 -1.451999999999999957e+00 -4.277173999999999587e+00 1.760559694497976502e-01
1.181800000000000068e+02 5.330499999999999972e+01 2.383399999999999963e+01 1.803291000000000111e+01 -2.929431129151550683e-01
1.181800000000000068e+02 7.709199999999999875e+01 2.477899999999999991e+00 -4.383621000000000123e+01 -8.379529074693251034e-02
1.181800000000000068e+02 7.884499999999999886e+01 -1.453699999999999992e+00 3.829429999999999890e+00 -8.459908884384598204e-02
1.181899999999999977e+02 7.222599999999999909e+01 3.338300000000000267e+01 -1.292685999999999957e+01 -1.509953780735426299e-01
1.181899999999999977e+02 7.374599999999999511e+01 3.338300000000000267e+01 -3.088603000000000165e+01 -1.517102375350703469e-01
1.181899999999999977e+02 7.904300000000000637e+01 2.832700000000000173e+01 3.898442000000000007e+01 -1.551441587204775985e-01
1.182099999999999937e+02 8.198300000000000409e+01 2.278000000000000114e+01 -5.491755000000000386e+00 -2.624050029510426874e-01
1.182099999999999937e+02 4.173400000000000176e+01 1.447700000000000031e+01 -3.651638000000000162e+00 3.048186024413544470e-01
1.182099999999999937e+02 5.478099999999999881e+01 2.340599999999999881e+01 -4.299593999999999916e-01 -2.604075592960907182e-01
1.182099999999999937e+02 5.449300000000000210e+01 9.477199999999999847e+00 1.284093000000000018e+01 2.827716422997724743e-01
1.182099999999999937e+02 5.151100000000000279e+01 2.540500000000000114e+01 1.178060999999999936e+01 -3.849418106014563246e-01
1.182199999999999989e+02 7.973399999999999466e+01 5.260699999999999932e+00 -2.825590000000000046e+00 -8.240434744072730466e-02
1.182199999999999989e+02 8.101000000000000512e+01 2.012999999999999901e+01 3.695982999999999663e+01 -2.627541253959944645e-01
1.182199999999999989e+02 7.791700000000000159e+01 2.225999999999999923e-01 7.160332999999999615e+00 -8.432057967427922240e-02
1.182300000000000040e+02 7.675100000000000477e+01 1.008699999999999930e+00 -8.283141999999999783e+00 -8.435800724231240499e-02
1.182300000000000040e+02 7.675100000000000477e+01 1.874000000000000110e+00 -3.141790999999999912e+01 -8.406718489958124596e-02
1.182300000000000040e+02 3.977400000000000091e+01 7.820400000000000240e+00 -1.312189999999999968e+00 1.138414412272502896e-01
1.182300000000000040e+02 7.927599999999999625e+01 -7.349999999999999867e-01 3.794059999999999988e+00 -8.428594592596710955e-02
1.182399999999999949e+02 7.894400000000000261e+01 1.427999999999999936e+01 1.514306999999999981e+01 -1.712741271239555940e-01
1.182500000000000000e+02 7.842499999999999716e+01 3.011499999999999844e+01 9.955154999999999532e+00 -1.544440437245888920e-01
1.182500000000000000e+02 7.794100000000000250e+01 1.847899999999999920e+01 1.466839999999999922e+00 -1.571760226428341456e-01
1.182600000000000051e+02 7.093500000000000227e+01 3.145299999999999940e+01 9.897806999999999578e-01 -1.512042660513419068e-01
1.182600000000000051e+02 4.000000000000000000e+01 1.266300000000000026e+01 -3.853350999999999971e+00 3.249299683502526181e-01
1.182600000000000051e+02 5.199300000000000210e+01 7.307599999999999874e+00 1.716299000000000063e+01 2.812101273626227416e-01
1.182699999999999960e+02 7.907899999999999352e+01 2.651000000000000156e+01 8.424442000000000874e+00 -2.621540687584519302e-01
1.182699999999999960e+02 6.212800000000000011e+01 5.082699999999999996e+00 5.506535999999999653e+00 1.804300028652278676e-01
1.182800000000000011e+02 7.985500000000000398e+01 2.280300000000000082e+01 2.919891000000000147e+01 -2.625876093548430434e-01
1.182900000000000063e+02 5.615299999999999869e+01 2.327299999999999969e+01 7.609600999999999615e+00 -1.504276785491856505e-01
1.182900000000000063e+02 7.090200000000000102e+01 4.203899999999999859e-01 -1.006208999999999953e+01 -8.664114960813637523e-02
1.182999999999999972e+02 5.910499999999999687e+01 1.934499999999999886e+01 8.578592999999999691e+00 -6.729046178545639023e-02
1.182999999999999972e+02 7.890699999999999648e+01 1.150000000000000050e-01 2.818398999999999877e+00 -8.410495875448133207e-02
1.182999999999999972e+02 6.601600000000000534e+01 3.076099999999999923e+01 4.918980999999999604e+00 -1.484477891748948175e-01
1.183100000000000023e+02 6.998199999999999932e+01 4.338699999999999779e-01 -1.156488000000000049e+01 -8.708517372791918509e-02
1.183100000000000023e+02 4.068500000000000227e+01 1.329400000000000048e+01 -6.294552000000000369e+00 3.177480284110444364e-01
1.183199999999999932e+02 4.020799999999999841e+01 5.362599999999999589e+00 -3.977144000000000235e-01 1.162794224500487000e-01
1.183199999999999932e+02 3.964000000000000057e+01 1.050900000000000034e+01 -3.236385999999999985e+00 1.058711371548088226e-01
1.183199999999999932e+02 7.793600000000000705e+01 4.257699999999999818e+00 -3.950385999999999953e+00 -8.297780761583868625e-02
1.183199999999999932e+02 8.246999999999999886e+01 1.979899999999999949e+01 -1.426479999999999970e+00 -2.626564715180015330e-01
1.183299999999999983e+02 5.569500000000000028e+01 8.870799999999999130e+00 2.249993999999999872e+01 2.825279603094147385e-01
1.183299999999999983e+02 5.011899999999999977e+01 7.328599999999999781e+00 5.268066000000000138e+00 2.797715516917818057e-01
1.183299999999999983e+02 6.336899999999999977e+01 7.379999999999999893e-01 1.845782000000000034e+00 1.770989573910664583e-01
1.183299999999999983e+02 6.362299999999999756e+01 -1.557399999999999896e-01 3.558031999999999861e-01 1.765222396520578496e-01
1.183299999999999983e+02 6.495399999999999352e+01 -1.077700000000000102e+00 -7.944432999999999634e-01 1.761724404933182886e-01
1.183299999999999983e+02 6.336800000000000210e+01 3.777899999999999814e+00 -1.071579999999999977e+01 1.793632152591594642e-01
1.183400000000000034e+02 7.480500000000000682e+01 3.228699999999999903e+01 -1.983292000000000144e+01 -1.525979856311118765e-01
1.183400000000000034e+02 6.717499999999999716e+01 3.207500000000000284e+01 6.093952999999999953e+00 -1.485354092268802717e-01
1.183400000000000034e+02 6.887500000000000000e+01 3.207500000000000284e+01 1.283902000000000099e+00 -1.497200238117495641e-01
1.183599999999999994e+02 5.940800000000000125e+01 2.004500000000000171e+01 4.969949999999999868e+00 -6.707385176420357920e-02
1.183599999999999994e+02 6.027400000000000091e+01 2.004500000000000171e+01 3.817779999999999951e+00 -1.607458302839789299e-01
1.183599999999999994e+02 5.207600000000000051e+01 2.462000000000000099e+01 1.268707000000000029e+01 -3.845746754111325494e-01
1.183599999999999994e+02 8.414499999999999602e+01 2.187500000000000000e+01 -6.424393000000000242e+00 -2.623369739231694031e-01
1.183599999999999994e+02 8.370000000000000284e+01 2.062199999999999989e+01 -8.256543000000000632e+00 -2.624831270168531128e-01
1.183599999999999994e+02 7.885800000000000409e+01 2.727299999999999969e+01 4.489057999999999993e+01 -2.620613370073951454e-01
1.183700000000000045e+02 7.974899999999999523e+01 1.968499999999999872e+01 1.488530000000000086e+01 -1.563000105814252860e-01
1.183700000000000045e+02 8.235099999999999909e+01 2.348000000000000043e+01 -7.152993000000000379e+00 -2.623146688872974863e-01
1.183700000000000045e+02 7.879900000000000659e+01 2.367500000000000071e+01 1.510933999999999955e+01 -2.625821316790482585e-01
1.183700000000000045e+02 5.767900000000000205e+01 3.047899999999999920e+01 -3.388998999999999739e+01 -2.671378851282913969e-01
1.183700000000000045e+02 6.013900000000000290e+01 3.047899999999999920e+01 -5.957977000000000345e+01 -2.699473832069689272e-01
1.183799999999999955e+02 6.350699999999999790e+01 1.617799999999999905e+00 1.337053999999999965e+00 1.777565110028552497e-01
1.183900000000000006e+02 8.180899999999999750e+01 -2.480999999999999872e+00 7.443170000000000064e-01 -8.418665735666915062e-02
1.184099999999999966e+02 5.756900000000000261e+01 2.952700000000000102e+01 -6.648901999999999646e+00 -2.546000215969933533e-01
1.184099999999999966e+02 5.890899999999999892e+01 3.130199999999999960e+01 -1.059793999999999983e+02 -2.668921853691545443e-01
1.184200000000000017e+02 7.730700000000000216e+01 3.185600000000000165e+01 -1.040466999999999942e+01 -1.536147070799874226e-01
1.184300000000000068e+02 5.250399999999999778e+01 7.721700000000000230e+00 2.005219999999999914e+01 2.820672549289064968e-01
1.184300000000000068e+02 5.271300000000000097e+01 8.457800000000000651e+00 1.408144000000000062e+01 2.826108537591659475e-01
1.184300000000000068e+02 7.631199999999999761e+01 3.188100000000000023e+01 -1.047508999999999979e+01 -1.533015223475731326e-01
1.184300000000000068e+02 5.085699999999999932e+01 2.569900000000000162e+01 2.065005999999999986e+01 -3.848976289467385126e-01
1.184399999999999977e+02 6.379599999999999937e+01 2.278900000000000148e+00 3.511782999999999877e+00 1.782710512241983403e-01
1.184399999999999977e+02 6.379599999999999937e+01 3.144099999999999895e+00 -7.268632000000000204e+00 1.789078441194521807e-01
1.184399999999999977e+02 4.878099999999999881e+01 8.130300000000000082e+00 1.602391000000000076e+01 1.007085131618518370e-01
1.184500000000000028e+02 4.993999999999999773e+01 2.533200000000000074e+01 -6.380597999999999992e+00 -1.331797186236711172e-01
1.184500000000000028e+02 7.349800000000000466e+01 6.526699999999999724e-01 -7.052239000000000146e+00 -8.542320913802407822e-02
1.184599999999999937e+02 5.783599999999999852e+01 2.392200000000000060e+01 -1.342034999999999911e+01 -2.624802878911024484e-01
1.184599999999999937e+02 5.890400000000000347e+01 4.579699999999999882e+00 -9.095413000000000636e+00 1.799168375849651835e-01
1.184599999999999937e+02 5.958599999999999852e+01 1.792399999999999949e+01 4.748806000000000083e+00 -6.762662387557540067e-02
1.184599999999999937e+02 4.753499999999999659e+01 7.400199999999999889e+00 1.019589000000000034e+01 9.983342609793206812e-02
1.184699999999999989e+02 4.730899999999999750e+01 2.121199999999999974e+01 -2.773104000000000013e+00 -5.068242872063807164e-02
1.184699999999999989e+02 7.846800000000000352e+01 2.459299999999999997e+01 -3.038981999999999850e+00 -2.624965862265199457e-01
1.184699999999999989e+02 7.867700000000000671e+01 2.532900000000000063e+01 -1.234965000000000046e+01 -2.623748509651492311e-01
1.184699999999999989e+02 7.016800000000000637e+01 3.144099999999999895e+01 6.854064000000000156e+00 -1.508612076273052049e-01
1.184800000000000040e+02 6.333700000000000330e+01 2.933200000000000074e+01 -2.539525999999999950e+00 -1.473200190172747059e-01
1.184899999999999949e+02 6.038000000000000256e+01 5.358500000000000263e+00 3.826925999999999939e-01 1.808161510349007572e-01
1.184899999999999949e+02 5.557200000000000273e+01 2.327499999999999858e+01 1.879418000000000077e+01 -1.502104249767050315e-01
1.184899999999999949e+02 6.827299999999999613e+01 1.966700000000000159e+01 -3.623984000000000094e+00 -1.598602213904230518e-01
1.185000000000000000e+02 5.730899999999999750e+01 4.701299999999999812e+00 -9.890877000000000141e-01 1.797780246105050161e-01
1.185000000000000000e+02 8.145399999999999352e+01 6.873000000000000220e+00 -1.844238999999999962e+01 -8.166035963254084096e-02
1.185000000000000000e+02 8.145399999999999352e+01 8.393000000000000682e+00 -3.399927000000000277e+01 -8.122928655363981232e-02
1.185000000000000000e+02 6.151100000000000279e+01 5.382100000000000328e+00 4.033346000000000231e+01 1.807942849120206252e-01
1.185100000000000051e+02 4.109400000000000119e+01 4.426899999999999835e+00 -1.139782000000000073e+00 1.150827678884842886e-01
1.185100000000000051e+02 4.238700000000000045e+01 3.705999999999999961e+00 -1.822859999999999925e+00 -1.876624100883624024e-01
1.185100000000000051e+02 4.367999999999999972e+01 4.426899999999999835e+00 -9.525439999999999685e+00 -3.457089900170097485e-02
1.185100000000000051e+02 5.990200000000000102e+01 1.716400000000000148e+01 8.535591000000000150e+00 1.161741797140490584e-01
1.185100000000000051e+02 6.076700000000000301e+01 1.716400000000000148e+01 5.139018000000000086e+00 1.163826308250396763e-01
1.185100000000000051e+02 7.953700000000000614e+01 1.153700000000000081e+01 -4.700505999999999851e+00 -1.699367514838086568e-01
1.185100000000000051e+02 7.953700000000000614e+01 1.323099999999999987e+01 7.781099000000000210e+00 -1.706937556675169054e-01
1.185100000000000051e+02 7.965500000000000114e+01 1.238400000000000034e+01 1.842548000000000030e+01 -1.703086326882339852e-01
1.185300000000000011e+02 7.863100000000000023e+01 2.893700000000000117e+01 5.776008999999999816e+01 -1.549641950161322335e-01
1.185300000000000011e+02 6.714000000000000057e+01 1.804299999999999926e+01 -3.799325000000000063e+00 -6.702920196418651888e-02
1.185300000000000011e+02 6.714000000000000057e+01 1.890899999999999892e+01 8.899606999999999601e+00 -1.611656645903222773e-01
1.185300000000000011e+02 8.345099999999999341e+01 2.437800000000000011e+01 -3.556528000000000134e+01 -2.621510151327426374e-01
1.185300000000000011e+02 8.029000000000000625e+01 8.592999999999999972e+00 9.484645000000000437e-01 -8.123658648520523662e-02
1.185300000000000011e+02 7.594599999999999795e+01 -5.006000000000000227e+00 7.889272999999999980e-01 -8.632005955418939336e-02
1.185300000000000011e+02 7.749599999999999511e+01 -5.006000000000000227e+00 6.411045999999999800e+00 -8.582887012769838120e-02
1.185300000000000011e+02 4.588600000000000279e+01 1.993299999999999983e+01 -5.874125999999999515e-01 -6.258836284087751500e-02
1.185400000000000063e+02 7.778600000000000136e+01 1.571100000000000030e+01 1.120739999999999981e+01 -1.581997763619035768e-01
1.185400000000000063e+02 7.474399999999999977e+01 -2.653800000000000048e-01 -5.144713000000000314e+00 -8.529756253533368748e-02
1.185499999999999972e+02 4.599099999999999966e+01 5.630700000000000038e+00 6.066862000000000421e+00 9.526579214311346744e-02
1.185499999999999972e+02 7.856799999999999784e+01 -2.435799999999999965e+00 1.210479999999999912e+01 -8.485497789531984414e-02
1.185600000000000023e+02 4.510900000000000176e+01 1.876699999999999946e+01 3.185085000000000122e+01 1.665964129908185654e-01
1.185600000000000023e+02 6.428300000000000125e+01 2.989000000000000057e+01 -6.004450000000000287e+00 -1.477135315822400430e-01
1.185600000000000023e+02 6.185799999999999699e+01 2.929400000000000048e+01 -6.574139999999999873e+00 -1.459561203578974287e-01
1.185600000000000023e+02 6.620699999999999363e+01 -1.828699999999999992e+00 -3.916476999999999986e+00 1.759526114616377368e-01
1.185600000000000023e+02 6.772700000000000387e+01 -1.828699999999999992e+00 -9.273220999999999492e+00 1.761589591700323809e-01
1.185600000000000023e+02 5.526899999999999835e+01 9.442500000000000782e+00 2.556972000000000023e+00 2.831861069675022380e-01
1.185699999999999932e+02 8.178300000000000125e+01 7.633000000000000007e+00 -3.004087000000000174e+01 -8.140116486116411032e-02
1.185699999999999932e+02 4.285999999999999943e+01 1.589899999999999913e+01 6.058339999999999748e+01 2.898958591393875350e-01
1.185699999999999932e+02 8.468099999999999739e+01 2.261499999999999844e+01 -1.247106999999999921e+01 -2.622438143719511006e-01
1.185699999999999932e+02 8.468099999999999739e+01 2.355499999999999972e+01 -3.702015999999999707e+01 -2.621542697450601755e-01
1.185699999999999932e+02 6.052600000000000335e+01 2.978999999999999915e+01 -1.306553000000000075e+01 -2.717812591316963733e-01
1.185699999999999932e+02 7.134699999999999420e+01 5.881100000000000216e-01 -7.996864999999999668e+00 -8.628381798463458097e-02
1.185699999999999932e+02 4.856000000000000227e+01 2.157000000000000028e+01 3.380955000000000155e+00 -4.474465245558747334e-02
1.185900000000000034e+02 7.838899999999999579e+01 1.493299999999999983e+01 2.692073999999999856e+01 -1.715658103397314782e-01
1.185900000000000034e+02 7.489300000000000068e+01 -3.051299999999999901e+00 -4.713129999999999820e-01 -8.613264533864881112e-02
1.185999999999999943e+02 6.293599999999999994e+01 4.477899999999999991e+00 3.450099999999999945e+00 1.799807182106339942e-01
1.185999999999999943e+02 6.164000000000000057e+01 1.821600000000000108e+01 5.860308999999999990e+00 -6.735265275855792377e-02
1.185999999999999943e+02 6.164000000000000057e+01 1.908099999999999952e+01 1.610946999999999907e+00 -6.714490411351693722e-02
1.185999999999999943e+02 6.737999999999999545e+01 1.733299999999999841e+01 -7.414913999999999561e+00 -6.712889654529946570e-02
1.185999999999999943e+02 6.857099999999999795e+01 1.666900000000000048e+01 -1.614552000000000120e+01 -1.746204089014362082e-01
1.185999999999999943e+02 6.976200000000000045e+01 1.733299999999999841e+01 -2.609834999999999994e+01 -1.606321644820157823e-01
1.185999999999999943e+02 6.976200000000000045e+01 1.880499999999999972e+01 -1.235716000000000037e+01 -1.597092743192324860e-01
1.185999999999999943e+02 6.997100000000000364e+01 1.806899999999999906e+01 -2.733982999999999919e+01 -1.600632315302086828e-01
1.186099999999999994e+02 7.751399999999999579e+01 1.652899999999999991e+01 -8.725673000000000457e-01 -1.579175120674122801e-01
1.186099999999999994e+02 7.804399999999999693e+01 3.102599999999999980e+01 -2.696203999999999823e+01 -1.541526042199628521e-01
1.186200000000000045e+02 8.101000000000000512e+01 -2.480999999999999872e+00 1.738201000000000107e+00 -8.429614292785575502e-02
1.186200000000000045e+02 8.260800000000000409e+01 -2.480999999999999872e+00 -7.046899999999999942e+00 -8.399253780867543817e-02
1.186200000000000045e+02 7.477200000000000557e+01 -1.483000000000000096e+00 -2.439420999999999840e+00 -8.567756527508631204e-02
1.186200000000000045e+02 5.650600000000000023e+01 7.061600000000000321e+00 2.499248000000000136e+00 1.827767695800898984e-01
1.186299999999999955e+02 5.411099999999999710e+01 2.366199999999999903e+01 -1.041346000000000105e+00 -2.597369324699909110e-01
1.186299999999999955e+02 7.897400000000000375e+01 1.903600000000000136e+01 1.319626000000000055e+01 -1.565709683087463666e-01
1.186400000000000006e+02 8.031000000000000227e+01 6.076900000000000190e+00 -1.096848999999999918e+01 -8.196141721202024333e-02
1.186400000000000006e+02 7.550499999999999545e+01 3.222899999999999920e+01 -1.728586999999999918e+01 -1.529643235393322587e-01
1.186400000000000006e+02 4.432300000000000040e+01 5.124100000000000321e+00 -5.781775000000000109e-01 -4.138708303290242890e-02
1.186400000000000006e+02 5.138799999999999812e+01 6.822600000000000442e+00 6.980857999999999564e+00 1.801683377838039224e-01
1.186400000000000006e+02 7.974899999999999523e+01 -1.455200000000000049e+00 7.795607000000000397e+00 -8.428691896272279271e-02
1.186500000000000057e+02 4.191499999999999915e+01 1.489499999999999957e+01 1.853053000000000061e+00 2.991881187378213625e-01
1.186500000000000057e+02 8.031000000000000227e+01 1.986199999999999832e+01 1.253289000000000009e+01 -2.628897527057411643e-01
1.186500000000000057e+02 8.170999999999999375e+01 1.986199999999999832e+01 -8.711969000000000518e-01 -2.627503287621079653e-01
1.186500000000000057e+02 8.323000000000000398e+01 1.986199999999999832e+01 -2.965438999999999936e+00 -2.624898773528592799e-01
1.186599999999999966e+02 4.056700000000000017e+01 4.997099999999999653e+00 -5.897966000000000042e-01 1.149611848374634676e-01
1.186599999999999966e+02 7.745099999999999341e+01 7.413399999999999990e-01 8.553649999999999309e+00 -8.415313711827202003e-02
1.186599999999999966e+02 7.136799999999999500e+01 3.221500000000000341e+01 1.521261999999999892e+00 -1.511921046429231252e-01
1.186599999999999966e+02 7.169299999999999784e+01 3.295199999999999818e+01 -1.101074999999999982e+01 -1.510320714118720820e-01
1.186599999999999966e+02 7.298600000000000421e+01 3.367300000000000182e+01 -1.471208000000000027e+01 -1.513800115081376796e-01
1.186599999999999966e+02 7.427899999999999636e+01 3.295199999999999818e+01 -6.221435999999999922e+01 -1.522310117111987382e-01
1.186700000000000017e+02 4.471999999999999886e+01 1.782999999999999829e+01 4.151318999999999981e+00 1.692730637039279451e-01
1.186700000000000017e+02 4.114500000000000313e+01 1.392099999999999937e+01 3.437711999999999879e+00 3.093313513879685228e-01
1.186800000000000068e+02 8.133899999999999864e+01 -3.241000000000000103e+00 1.796956999999999915e+00 -8.440508473898308828e-02
1.186800000000000068e+02 8.133899999999999864e+01 -1.721000000000000085e+00 -3.031423999999999896e+00 -8.402461476660363915e-02
1.186800000000000068e+02 8.227899999999999636e+01 -3.241000000000000103e+00 -8.720655999999999963e-01 -8.422092233801463379e-02
1.186800000000000068e+02 8.227899999999999636e+01 -1.721000000000000085e+00 -5.301482000000000028e+00 -8.385297545948983133e-02
1.186800000000000068e+02 7.724099999999999966e+01 1.734700000000000131e+01 1.502962999999999916e+01 -1.576236189152490919e-01
1.186800000000000068e+02 7.745000000000000284e+01 1.808299999999999841e+01 1.893493000000000137e+01 -1.572634514264342198e-01
