-1.198899999999999966e-01 7.785999999999999588e+00 7.471199999999999619e+00 2.407959000000000072e-01 -1.431696855055762940e-01
-1.178899999999999948e-01 -4.948699999999999655e+00 3.032000000000000028e+00 -5.284459999999999713e-01 -2.605738592563345835e-01
-1.178899999999999948e-01 -3.161300000000000221e+00 3.032000000000000028e+00 1.181878000000000029e+01 -1.836954022843828582e-01
-8.877699999999999481e-02 -9.470100000000000184e-01 3.698300000000000143e+00 5.380180000000000184e+00 -1.510409600790044715e-01
-7.670599999999999641e-02 6.099999999999999867e-01 3.808300000000000018e+00 7.670628999999999920e+00 -1.500092952752398179e-01
-7.601600000000000024e-02 1.899999999999999911e+00 4.412200000000000344e+00 3.545676999999999968e+00 -1.491867802976803714e-01
-6.301099999999999757e-02 2.211899999999999977e+00 -1.578000000000000069e+00 -4.011823999999999835e+00 -2.408762435106494570e-01
-6.301099999999999757e-02 3.810099999999999820e+00 -1.578000000000000069e+00 -3.692909999999999826e+01 -2.398607798587140127e-01
-6.160600000000000104e-02 8.089399999999999480e+00 6.771200000000000330e+00 -1.429073999999999955e+01 -1.419788787835019883e-01
-6.160600000000000104e-02 8.089399999999999480e+00 8.171200000000000685e+00 5.378591000000000122e+00 -1.435115806642189573e-01
-4.105400000000000021e-02 1.057300000000000040e+01 3.049500000000000099e+01 -4.192274000000000278e+00 -3.499999999999999778e-01
-2.100000000000000130e-02 9.874000000000000554e+00 9.582000000000000739e+00 -2.168924000000000163e+01 -1.419388659123101415e-01
-1.811499999999999916e-02 -7.026399999999999757e+00 1.008900000000000041e+01 1.565987000000000018e+00 -7.436054599152487621e-02
-1.664799999999999960e-02 -2.810799999999999965e+00 2.817399999999999949e+01 2.755368999999999957e+01 -7.329551844944928729e-02
-1.025700000000000049e-02 -5.592999999999999972e+00 9.332900000000000418e+00 1.889013000000000053e+00 -1.473975379465087832e-01
-8.569000000000000228e-03 1.050200000000000067e+01 1.662400000000000100e+00 1.736023000000000138e+01 -2.793609009336142091e-01
-4.171000000000000228e-03 9.401799999999999713e+00 9.048199999999999577e+00 4.043270999999999837e+00 -1.420389614430011826e-01
-3.989999999999999623e-03 -2.448700000000000099e+00 2.770299999999999940e+01 2.542182999999999993e+01 -7.377211441460344854e-02
-3.280000000000000038e-04 -6.231499999999999595e+00 2.349299999999999855e+01 8.476947999999999706e-01 -1.163485749267357539e-01
1.000000000000000021e-03 -4.998299999999999965e-02 1.844600000000000151e+01 8.593427000000000149e+00 -5.211357696776505039e-02
3.312999999999999973e-03 -1.188199999999999967e+01 1.406199999999999939e+01 6.580523999999999818e-01 -1.821088597215373694e-01
4.000000000000000083e-03 1.152500000000000036e+01 5.006999999999999673e+00 8.330355000000000132e+01 -2.323082525131892062e-01
4.000000000000000083e-03 1.284399999999999942e+01 2.642100000000000115e+00 6.735005999999999915e+01 -2.782834297085156061e-01
4.000000000000000083e-03 1.284399999999999942e+01 4.271899999999999586e+00 3.747626999999999953e+01 -2.757926191716553177e-01
4.000000000000000083e-03 1.307499999999999929e+01 3.456999999999999851e+00 1.795954999999999870e+02 -2.770737274258643912e-01
1.585299999999999904e-02 2.973199999999999843e+00 4.068100000000000271e+00 1.203611999999999904e+00 -1.481400324017946857e-01
1.700000000000000122e-02 -9.023299999999999654e-01 7.521300000000000097e+00 2.617761000000000138e+01 -1.855128231189447363e-01
1.863899999999999932e-02 9.361800000000000566e+00 3.096600000000000108e+01 1.985404000000000124e+01 -3.499999999999999778e-01
3.589400000000000229e-02 1.228999999999999915e+01 1.195700000000000074e+01 2.538648999999999933e+00 -1.455995557795294326e-01
4.212599999999999678e-02 -1.145599999999999952e+01 2.157000000000000028e+01 1.177444999999999986e+01 -1.162818339918133825e-01
4.732900000000000301e-02 5.565699999999999648e+00 5.700000000000000205e-02 1.204336999999999946e+01 -2.390341766727646089e-01
5.032899999999999874e-02 1.341000000000000014e+01 1.094200000000000017e+01 -8.178691000000000086e-03 -1.348890857568251223e-01
5.032899999999999874e-02 1.510999999999999943e+01 1.094200000000000017e+01 -5.832853000000000343e-02 -1.253477371197553591e-01
5.999999999999999778e-02 -4.490000000000000213e+00 9.378999999999999559e+00 8.695973000000000175e-01 -2.755172375899482828e-01
5.999999999999999778e-02 -3.043899999999999828e+00 1.018500000000000050e+01 6.699576000000000420e+00 -2.759500602431386174e-01
5.999999999999999778e-02 -1.852999999999999980e+00 1.084900000000000020e+01 -3.282871000000000095e+00 -2.764166442362188114e-01
5.999999999999999778e-02 -6.620700000000000474e-01 1.018500000000000050e+01 6.627852999999999994e+00 -1.880914046534725714e-01
7.045300000000000173e-02 1.329299999999999926e+01 1.652499999999999858e+01 -6.022376000000000396e+00 -8.542352328315680476e-02
8.125899999999999790e-02 1.509800000000000075e+01 1.374300000000000033e+01 6.044546999999999670e+00 -1.621016113487969978e-01
8.497599999999999598e-02 1.000799999999999912e+01 4.959200000000000053e+00 1.693666999999999945e+01 -1.370506860568489194e-01
8.500000000000000611e-02 1.145299999999999940e+01 2.803600000000000136e+01 8.728101999999999805e+01 -5.366625540218030593e-02
8.500000000000000611e-02 1.145299999999999940e+01 2.966600000000000037e+01 5.017736000000000196e+00 -3.499999999999999778e-01
8.500000000000000611e-02 1.168399999999999928e+01 2.885099999999999909e+01 1.287151000000000067e+02 -3.499999999999999778e-01
1.010000000000000064e-01 1.314799999999999969e+01 1.743499999999999872e+01 1.092434000000000083e+01 -8.733559316838643283e-02
1.092000000000000054e-01 -1.203300000000000036e+00 2.678699999999999903e+01 1.072896000000000072e+01 -7.582699883253500583e-02
1.095099999999999962e-01 1.302400000000000002e+00 2.858500000000000085e+01 -5.732232999999999912e+00 -4.076727412726426081e-02
1.095099999999999962e-01 2.167600000000000193e+00 2.858500000000000085e+01 -1.659472000000000058e+00 -4.050016531966849076e-02
1.120499999999999968e-01 -1.302299999999999969e+01 2.060399999999999920e+01 5.333122000000000362e+00 -1.802291163082758163e-01
1.179999999999999938e-01 9.519099999999999895e+00 -6.887400000000000189e-01 5.444204000000000043e+00 -2.811656725788737043e-01
1.181100000000000066e-01 5.197300000000000253e+00 9.070000000000000284e-01 1.253623999999999938e+01 -2.397268672167955084e-01
1.209999999999999964e-01 8.875299999999999301e+00 5.717500000000000249e+00 -2.646022999999999925e+01 -1.399559039028471230e-01
1.213299999999999934e-01 7.839000000000000412e+00 1.060899999999999999e+01 7.114537000000000333e+00 -1.828519058720524670e-01
1.213299999999999934e-01 7.839000000000000412e+00 1.147499999999999964e+01 5.371358999999999995e+00 -1.855991897082142628e-01
1.326499999999999901e-01 8.518100000000000449e+00 3.085399999999999920e+01 4.003856999999999999e+01 -7.450469426660320804e-02
1.360000000000000098e-01 -4.054999999999999716e+00 3.032000000000000028e+00 5.386147000000000240e+00 -1.842597072997305963e-01
1.483399999999999996e-01 5.072899999999999743e+00 1.837599999999999900e+00 -1.750193000000000110e+00 -1.455981813139017034e-01
1.519999999999999962e-01 1.296799999999999997e+01 1.977100000000000080e+01 3.380330000000000013e+01 5.326783604565482610e-02
1.519999999999999962e-01 1.310399999999999920e+01 1.803000000000000114e+01 1.563404000000000060e+01 -8.873209709192603212e-02
1.519999999999999962e-01 1.322199999999999953e+01 1.887699999999999889e+01 1.737258999999999887e+01 -9.117387940351676101e-02
1.529500000000000026e-01 -9.906000000000000583e+00 2.109600000000000009e+01 2.172061000000000064e+01 -1.170068055232545146e-01
1.558700000000000085e-01 -9.310299999999999798e+00 1.247600000000000087e+01 -1.801870000000000138e-01 -1.834837744659139347e-01
1.559699999999999975e-01 3.751999999999999780e+00 3.170599999999999952e+01 1.495527000000000051e+00 -2.876943800306305254e-01
1.566700000000000037e-01 -8.017899999999999139e+00 1.065700000000000003e+01 -1.677621000000000029e+00 -7.449911966886445247e-02
1.570199999999999929e-01 1.092500000000000071e+01 1.239499999999999957e+01 1.679939999999999989e+00 -1.861077288919556205e-01
1.620199999999999974e-01 -1.067399999999999904e+00 6.631199999999999761e+00 -3.826065999999999967e+00 -1.849280191427006004e-01
1.640000000000000069e-01 3.011000000000000121e+00 -1.578000000000000069e+00 -4.488246000000000180e+01 -2.405474021006013818e-01
1.651100000000000068e-01 -5.268699999999999939e+00 2.723699999999999832e+01 5.155975999999999893e+00 -6.889863681323937783e-02
1.773800000000000099e-01 -5.024300000000000210e+00 2.639099999999999824e+01 2.854354999999999976e+00 -6.887103075518694051e-02
1.894500000000000073e-01 -8.013299999999999201e+00 2.176999999999999957e+01 -1.545924000000000076e+00 -1.171150099084476148e-01
1.913600000000000023e-01 8.289600000000000080e+00 9.915900000000000603e+00 2.026163999999999987e+01 -1.468310298646192669e-01
1.920000000000000040e-01 -4.767299999999999649e+00 2.576699999999999946e+01 1.008178999999999981e+01 -1.141772243519757202e-01
1.963300000000000045e-01 6.432999999999999829e+00 3.188299999999999912e+01 -1.209761999999999915e+01 -2.828514026831070449e-01
2.068800000000000083e-01 9.874000000000000554e+00 1.230799999999999983e+01 3.120769000000000126e+00 -1.870119317771979650e-01
2.100899999999999990e-01 -7.860099999999999865e-01 1.844600000000000151e+01 9.710998000000000019e+00 -1.911134639467385044e-01
2.100899999999999990e-01 6.860399999999999832e-01 1.844600000000000151e+01 6.871758999999999951e+00 -5.283514155256890943e-02
2.160700000000000121e-01 -4.572199999999999598e+00 2.496000000000000085e+01 1.115840999999999994e+01 -1.152039059156594603e-01
2.196200000000000097e-01 3.081900000000000084e+00 2.945599999999999952e+01 2.881330999999999865e+00 -2.882508020081352984e-01
2.200000000000000011e-01 -1.403899999999999970e+01 1.830699999999999861e+01 2.674059000000000186e+00 -1.803857944398015722e-01
2.200000000000000011e-01 -1.403899999999999970e+01 1.935699999999999932e+01 4.314494999999999969e+00 -1.801667034531972134e-01
2.220000000000000029e-01 4.774000000000000021e+00 2.600999999999999979e+00 -3.284451999999999927e+00 -1.460642991850636674e-01
2.236700000000000077e-01 6.531399999999999650e+00 -7.074300000000000033e-01 5.928065000000000140e+00 -2.381181163008419532e-01
2.243600000000000039e-01 4.073999999999999844e+00 3.181799999999999962e+00 -3.605039999999999800e+00 -1.469444311805857828e-01
2.248300000000000021e-01 9.120100000000000762e+00 1.233900000000000041e+01 7.330517999999999645e+00 -1.878990640782489119e-01
2.256299999999999972e-01 7.236799999999999677e+00 -1.712900000000000089e+00 4.769618999999999609e+00 -2.816177571891223530e-01
2.290999999999999981e-01 8.073000000000000398e+00 -1.586100000000000065e+00 4.132981000000000016e+00 -2.815809427295929979e-01
2.310000000000000109e-01 -9.188700000000000756e+00 1.157300000000000040e+01 -1.324081000000000008e-01 -1.836613816802294130e-01
2.336300000000000043e-01 4.694099999999999717e+00 1.767399999999999949e+01 9.914082000000000505e+00 2.716543138829848394e-02
2.373800000000000077e-01 8.613099999999999312e+00 9.101000000000000867e+00 1.951175999999999888e+01 -1.446481818082570314e-01
2.377499999999999891e-01 -5.505899999999999572e+00 2.359400000000000119e+01 3.865817999999999977e+00 -1.163494414330638882e-01
2.407199999999999895e-01 -1.251500000000000057e+01 2.127799999999999869e+01 4.560160999999999909e+00 -3.187063303505932033e-01
2.434499999999999997e-01 -6.867300000000000182e+00 2.279599999999999937e+01 2.182558999999999916e+00 -1.165634581283838678e-01
2.452199999999999935e-01 -4.828400000000000247e+00 2.424200000000000088e+01 1.396977000000000046e+01 -1.159225738443052378e-01
2.616200000000000192e-01 -1.293299999999999983e+01 1.715299999999999869e+01 5.082783000000000051e+00 -1.809029604299900729e-01
2.622999999999999776e-01 1.381199999999999939e+01 1.578999999999999915e+01 1.820761999999999858e+01 -8.356353074223300814e-02
2.683800000000000074e-01 -4.826099999999999834e-01 1.774599999999999866e+01 8.699083999999999151e+00 -1.917572656918566376e-01
2.683800000000000074e-01 -4.826099999999999834e-01 1.914600000000000080e+01 9.259228999999999488e+00 -1.914611775178878539e-01
2.683800000000000074e-01 3.826399999999999801e-01 1.774599999999999866e+01 8.381202999999999292e+00 -5.158625193828952904e-02
2.683800000000000074e-01 3.826399999999999801e-01 1.914600000000000080e+01 8.450514999999999333e+00 -5.315249825590769028e-02
2.710299999999999931e-01 9.787300000000000111e+00 3.673600000000000199e-01 1.639275999999999911e+01 -2.803411563637495663e-01
2.717399999999999816e-01 1.150000000000000000e+01 2.498499999999999943e+01 3.594740999999999964e+00 6.199973893101332761e-02
2.839099999999999957e-01 -6.879599999999999604e-02 8.809400000000000119e+00 3.646515000000000128e+01 -1.865142116294660479e-01
2.839099999999999957e-01 -6.879599999999999604e-02 9.674599999999999866e+00 3.763692000000000348e+01 -1.874654689545082742e-01
2.878100000000000103e-01 3.147699999999999942e+00 3.043400000000000105e+01 8.522650000000000503e+00 -2.885059813371567139e-01
2.907100000000000239e-01 9.256699999999999928e-01 2.811100000000000065e+01 -1.874592000000000169e+01 -4.136886780293817095e-02
2.957099999999999729e-01 -4.873700000000000365e+00 2.916499999999999915e+01 -6.480640000000000178e+00 -6.966684744803348928e-02
2.957099999999999729e-01 -3.934299999999999908e+00 2.916499999999999915e+01 2.094030000000000058e+01 -7.088707189966485245e-02
3.140000000000000013e-01 1.263400000000000034e+01 2.220899999999999963e+01 2.751284000000000063e+00 -2.629580776398087599e-02
3.140000000000000013e-01 1.263400000000000034e+01 2.399699999999999989e+01 1.433624000000000009e+00 1.568569047637769290e-02
3.140000000000000013e-01 1.288799999999999990e+01 2.310300000000000153e+01 -1.113332999999999906e+00 -4.957001028850740315e-03
3.147699999999999942e-01 4.458000000000000185e+00 3.203199999999999648e+01 -3.014743999999999868e+00 -2.871282718295253833e-01
3.349900000000000100e-01 8.522000000000000242e+00 6.280300000000000438e+00 -1.717752000000000123e+01 -1.414971605667861843e-01
3.589899999999999758e-01 -5.203100000000000058e+00 2.840500000000000114e+01 -2.241102000000000150e+00 -6.883314744105765992e-02
3.589899999999999758e-01 -3.604900000000000215e+00 2.840500000000000114e+01 2.235511999999999944e+01 -7.087309222995868963e-02
3.710200000000000164e-01 7.389400000000000190e+00 7.038599999999999746e+00 -7.152872000000000341e+00 -1.444673462694957000e-01
3.710200000000000164e-01 7.389400000000000190e+00 7.903900000000000148e+00 2.451909999999999812e+00 -1.454339436228666294e-01
3.750000000000000000e-01 1.563499999999999979e+01 1.179199999999999982e+01 -3.182380999999999904e+00 -1.383429167897261558e-01
3.750000000000000000e-01 1.563499999999999979e+01 1.284200000000000053e+01 9.830227000000000270e-01 -1.544086537714821628e-01
3.768699999999999828e-01 4.974000000000000199e+00 3.211599999999999966e+01 -4.746005000000000251e+00 -2.864680698117526014e-01
3.839799999999999880e-01 -9.173999999999999488e+00 2.119099999999999895e+01 7.052524000000000015e+00 -1.170229730126499945e-01
3.883800000000000030e-01 9.307900000000000063e+00 5.017500000000000071e+00 -2.597719999999999985e+01 -1.393810893648420035e-01
3.915699999999999736e-01 9.872700000000000031e+00 3.076300000000000168e+01 8.970957999999999544e+00 -6.200198271369435077e-02
3.921700000000000186e-01 -1.115900000000000070e+01 1.363799999999999990e+01 3.384030000000000094e-01 -1.822171074985179107e-01
3.930000000000000160e-01 -1.499999999999999944e-01 3.517999999999999794e+00 1.737708000000000030e+00 -1.507970050029849574e-01
3.930000000000000160e-01 1.199999999999999956e+00 4.144800000000000040e+00 -7.010530000000000150e+00 -1.500590169706735866e-01
4.108899999999999775e-01 1.282699999999999996e+01 1.162700000000000067e+01 2.743526000000000131e+00 -1.444954054443885194e-01
4.126000000000000223e-01 -1.903299999999999992e+00 2.684499999999999886e+01 9.779063000000000727e+00 -7.313921732808560672e-02
4.159900000000000264e-01 -1.360699999999999932e+01 1.742099999999999937e+01 1.036359000000000030e+01 -1.805483963998286145e-01
4.172799999999999843e-01 -3.301499999999999879e+00 2.770499999999999829e+01 1.667627999999999844e+01 -7.088240891844843627e-02
4.187400000000000011e-01 1.425999999999999979e+01 1.087100000000000044e+01 3.730154999999999998e-01 -1.333202140899638899e-01
4.240599999999999925e-01 1.120199999999999996e+01 1.929699999999999971e+00 7.542365000000000208e+00 -2.788445976111912361e-01
4.259999999999999898e-01 3.747799999999999798e+00 3.709700000000000220e+00 -2.442188999999999943e+00 -1.476465587312026373e-01
4.267799999999999927e-01 -1.781199999999999894e+00 5.048099999999999810e+00 -4.168658999999999892e+00 -1.843097601180870848e-01
4.315399999999999792e-01 -1.532899999999999929e+00 5.878000000000000114e+00 -1.276286000000000032e+00 -1.847527626227900288e-01
4.349299999999999833e-01 2.466000000000000192e+00 4.650000000000000355e+00 1.419062000000000046e+00 -1.492590931124705700e-01
4.427099999999999924e-01 3.958099999999999952e+00 1.767399999999999949e+01 6.079519000000000339e+00 2.528010536216980172e-02
4.427099999999999924e-01 5.430100000000000371e+00 1.767399999999999949e+01 1.091862000000000066e+01 2.833323671525384696e-02
4.518800000000000039e-01 -1.536399999999999988e+00 4.203700000000000436e+00 -8.718272999999999717e-01 -1.836398541312103672e-01
4.604199999999999959e-01 1.162500000000000000e+01 1.233699999999999974e+01 -9.145045000000000257e-02 -1.512609854627349759e-01
4.631000000000000116e-01 5.979899999999999771e+00 9.070000000000000284e-01 3.693094999999999711e-02 -2.393853869972987769e-01
4.770900000000000141e-01 9.844900000000000873e+00 1.163000000000000034e+00 4.598192000000000057e+00 -2.796053649087885118e-01
4.829800000000000204e-01 1.230000000000000071e+01 2.202999999999999847e+00 1.355880999999999936e+01 -2.785027585898509628e-01
4.829800000000000204e-01 1.230000000000000071e+01 4.711000000000000298e+00 6.754471999999999809e+01 -2.312882435636109124e-01
4.926200000000000023e-01 -2.552999999999999936e+00 1.058200000000000074e+01 2.702687999999999757e-01 -2.761816314662333127e-01
4.980999999999999872e-01 -6.151200000000000223e+00 9.785899999999999821e+00 2.755532000000000092e+00 -7.393626229730318467e-02
5.010000000000000009e-01 4.261499999999999844e+00 1.697400000000000020e+01 7.036039999999999850e+00 2.670384013571735354e-02
5.010000000000000009e-01 4.261499999999999844e+00 1.837399999999999878e+01 7.193322000000000216e+00 2.461083740892326677e-02
5.010000000000000009e-01 5.126699999999999591e+00 1.697400000000000020e+01 9.557059999999999889e+00 2.853621453989674955e-02
5.010000000000000009e-01 5.126699999999999591e+00 1.837399999999999878e+01 1.100464999999999982e+01 2.632089244408027801e-02
5.061099999999999488e-01 1.735000000000000098e+00 2.809400000000000119e+01 -1.828227000000000046e+01 -4.156615019600206490e-02
5.100999999999999979e-01 -4.486100000000000421e+00 2.723699999999999832e+01 1.234723999999999933e+01 -6.878491633424148322e-02
5.176199999999999690e-01 1.098499999999999943e+01 3.022800000000000153e+01 1.699945999999999957e+00 -3.499999999999999778e-01
5.212900000000000311e-01 -8.718999999999999417e+00 1.081300000000000061e+01 -4.005919000000000008e-01 -1.838437795927650442e-01
5.290000000000000258e-01 -1.250099999999999945e+01 1.464799999999999969e+01 6.195176000000000016e-01 -1.814081854047901454e-01
5.290000000000000258e-01 -1.250099999999999945e+01 1.558799999999999919e+01 -1.695167000000000090e+00 -1.811987806161750869e-01
5.290000000000000258e-01 -1.250099999999999945e+01 1.645299999999999940e+01 1.508461999999999925e+01 -1.810022738684027854e-01
5.353799999999999670e-01 1.014799999999999969e+01 1.862999999999999989e+00 1.064437000000000033e+01 -2.347118437435896376e-01
5.401299999999999990e-01 9.391500000000000625e+00 2.338400000000000034e+00 1.124707000000000079e+01 -2.360923184034692535e-01
5.421399999999999553e-01 2.867599999999999927e+00 2.885200000000000031e+01 -1.081331999999999915e+01 -2.890567702310936071e-01
5.446699999999999875e-01 -1.351399999999999935e+01 2.020700000000000074e+01 1.113944000000000045e+01 -1.798732884491165140e-01
5.479500000000000481e-01 1.075799999999999912e+01 4.810999999999999943e+00 1.777129000000000048e+01 -2.353638858069073136e-01
5.490000000000000435e-01 1.422499999999999964e+01 1.489700000000000024e+01 7.653056000000000303e+00 -8.447172517266351988e-02
5.512799999999999923e-01 -5.014199999999999768e-01 1.037500000000000000e+01 2.949688000000000088e+00 -2.765351346772969565e-01
5.568499999999999561e-01 6.171999999999999709e+00 2.049999999999999878e-01 1.938608000000000109e+00 -2.390413057999548896e-01
5.588300000000000489e-01 1.101399999999999935e+01 2.753999999999999915e+01 2.850255999999999901e+01 -6.910237466695426378e-02
5.853300000000000169e-01 -3.640000000000000124e+00 9.703699999999999548e+00 4.582533999999999885e+00 -2.757097874779365076e-01
5.854700000000000459e-01 8.361700000000000799e+00 1.226299999999999990e+01 -1.774235999999999924e+00 -1.889710722236176699e-01
5.859999999999999654e-01 -4.403999999999999915e+00 2.840500000000000114e+01 -1.435110000000000063e+01 -6.909094499245418963e-02
5.973100000000000076e-01 -4.480000000000000093e-01 2.670799999999999841e+01 -1.626141000000000147e+01 -7.599213895009529485e-02
6.015500000000000291e-01 7.059300000000000352e+00 3.152599999999999980e+01 9.367501000000000744e+00 -2.820104167330658163e-01
6.064199999999999591e-01 1.082000000000000028e+01 2.663299999999999912e+01 8.425919000000000381e+00 4.150970191961930733e-02
6.383900000000000130e-01 7.822000000000000064e+00 6.338599999999999568e+00 -2.282879000000000147e+01 -1.435950138252693742e-01
6.387599999999999945e-01 3.227499999999999813e-01 2.739099999999999824e+01 -1.171040999999999954e+01 -4.232609476672489351e-02
6.433299999999999574e-01 8.923000000000000043e+00 -1.170299999999999896e+00 -1.187108999999999970e+00 -2.812419488124157652e-01
6.450399999999999467e-01 5.732899999999999885e+00 3.215100000000000335e+01 -4.650581999999999994e+00 -2.857474443540496956e-01
6.471299999999999830e-01 1.444599999999999973e+01 1.401800000000000068e+01 -2.196947999999999956e-02 -1.688368395245887776e-01
6.521700000000000275e-01 -4.142400000000000304e+00 2.763700000000000045e+01 5.115203000000000166e+00 -6.891667480873010787e-02
6.540000000000000258e-01 1.105499999999999972e+01 2.570499999999999829e+01 5.466676999999999786e+00 4.863078115408124569e-02
6.547199999999999687e-01 -7.494600000000000151e+00 2.221199999999999974e+01 1.888393999999999906e+00 -1.165189899169795096e-01
6.563499999999999890e-01 5.766600000000000392e+00 1.786599999999999966e+00 -2.783348000000000155e+00 -2.402004571027689384e-01
6.569800000000000084e-01 4.564899999999999736e+00 2.785200000000000120e+00 -3.952910000000000146e+00 -1.467950431628081975e-01
6.603299999999999725e-01 7.857499999999999929e+00 8.661300000000000665e+00 6.345355999999999774e+00 -1.463523774373012842e-01
6.649800000000000155e-01 -4.998299999999999965e-02 1.725499999999999901e+01 9.379958000000000240e+00 -8.123062395875103869e-02
6.649800000000000155e-01 -4.998299999999999965e-02 1.963700000000000045e+01 1.193937999999999988e+01 -1.917708471560281847e-01
6.731200000000000516e-01 8.624000000000000554e+00 3.119399999999999906e+01 3.755868000000000251e+01 -7.502696533273664481e-02
6.822700000000000431e-01 7.892999999999999794e+00 9.483299999999999841e+00 9.428217000000000070e+00 -1.478232374394817528e-01
6.873799999999999910e-01 -8.474000000000000199e+00 2.124899999999999878e+01 -1.213368999999999920e+00 -1.812517984504670721e-01
6.897499999999999742e-01 -4.529400000000000093e-01 7.946100000000000385e+00 2.583830999999999989e+01 -1.860865729264276347e-01
7.009999999999999565e-01 -1.182600000000000096e+00 1.801300000000000168e+01 1.013977000000000039e+01 -1.899644161558542432e-01
7.009999999999999565e-01 -1.182600000000000096e+00 1.887800000000000011e+01 1.163324000000000069e+01 -1.897364682959902238e-01
7.009999999999999565e-01 1.082600000000000007e+00 1.801300000000000168e+01 6.109308999999999656e+00 -5.227889853043145296e-02
7.009999999999999565e-01 1.082600000000000007e+00 1.887800000000000011e+01 5.156369999999999898e+00 -5.336273256653389918e-02
7.059999999999999609e-01 -1.155700000000000038e+01 2.151800000000000068e+01 1.030648000000000053e+01 -3.186535083992124151e-01
7.073000000000000398e-01 -6.306000000000000050e+00 2.327100000000000080e+01 6.343320000000000292e+00 -1.158553633403677924e-01
7.102199999999999624e-01 1.251500000000000057e+01 2.027899999999999991e+01 6.207086999999999577e+00 2.976022560583262838e-02
7.173300000000000232e-01 -2.866699999999999804e+00 2.714199999999999946e+01 2.681153000000000119e+01 -7.036628089399363239e-02
7.382600000000000273e-01 -1.177200000000000024e+00 1.061200000000000010e+01 -1.127064000000000021e+01 -2.764885043477113280e-01
7.383300000000000418e-01 1.766000000000000014e+00 4.591700000000000337e+00 4.654598999999999820e-01 -1.501102019867246451e-01
7.383300000000000418e-01 3.165999999999999925e+00 4.591700000000000337e+00 -1.036362000000000005e+00 -1.489004375445621142e-01
7.435100000000000042e-01 1.223799999999999955e+01 2.105399999999999849e+01 2.619531999999999972e+00 -5.016918464148787532e-02
7.492199999999999971e-01 8.655499999999999972e+00 2.338400000000000034e+00 9.615161000000000513e+00 -2.374778933681713222e-01
7.696399999999999908e-01 7.178399999999999892e+00 -1.229899999999999993e+00 3.639447000000000099e+00 -2.379448585130019556e-01
7.700000000000000178e-01 1.287400000000000055e+01 1.695700000000000074e+01 2.266017999999999866e+00 -8.500283655191895327e-02
7.712999999999999856e-01 -1.303299999999999947e+01 2.083599999999999852e+01 6.964662999999999826e+00 -3.183903451745961344e-01
7.753900000000000237e-01 -4.081500000000000128e+00 2.454100000000000037e+01 2.021985000000000099e+01 -1.152962905638667684e-01
7.786699999999999733e-01 1.061700000000000088e+01 3.059600000000000009e+01 2.070993999999999780e+00 -3.499999999999999778e-01
7.790000000000000258e-01 1.277899999999999991e+01 2.978000000000000203e+00 3.047867000000000104e+01 -2.772776187949571036e-01
7.790000000000000258e-01 1.277899999999999991e+01 3.935999999999999943e+00 3.900079999999999814e+01 -2.304074059437607180e-01
7.881099999999999772e-01 -4.285700000000000287e+00 2.629200000000000159e+01 1.399573000000000000e+01 -6.785186670758971972e-02
7.910899999999999599e-01 1.165099999999999980e+01 2.895700000000000074e+01 1.104566999999999979e+02 -4.624670116507826473e-02
7.960199999999999498e-01 -1.852999999999999980e+00 1.064000000000000057e+01 -6.080763000000000140e+00 -2.763491015620089808e-01
7.989399999999999835e-01 -9.891700000000000159e+00 2.099800000000000111e+01 1.786486000000000018e+01 -1.805671870711274274e-01
8.075099999999999500e-01 8.958899999999999864e+00 1.638400000000000079e+00 1.792254000000000147e+01 -2.368267696123419197e-01
8.075099999999999500e-01 8.958899999999999864e+00 3.038400000000000212e+00 3.514521999999999924e+00 -2.375791911345945251e-01
8.095099999999999518e-01 2.435000000000000053e+00 2.815200000000000102e+01 -2.415249000000000024e+01 -4.197698248433386070e-02
8.141000000000000458e-01 -5.390900000000000247e+00 9.735300000000000509e+00 4.311120999999999981e+00 -7.370408943340225894e-02
8.188800000000000523e-01 1.152500000000000036e+01 2.138500000000000068e+00 2.031948999999999828e+01 -2.783992361340801303e-01
8.188800000000000523e-01 1.152500000000000036e+01 4.775500000000000078e+00 1.101231999999999971e+02 -2.343382220602065191e-01
8.192899999999999627e-01 -1.203100000000000058e+01 1.388799999999999990e+01 4.292437000000000058e-01 -1.815363259413883268e-01
8.209999999999999520e-01 8.817000000000000171e+00 5.414100000000000357e+00 -4.941624999999999801e+01 -1.414854177221790965e-01
8.211300000000000265e-01 1.303599999999999959e+01 1.607300000000000040e+01 -1.011542999999999992e+01 -8.323393835486971037e-02
8.213300000000000045e-01 7.571699999999999875e+00 1.104199999999999982e+01 -2.997916000000000025e+00 -1.858287778347762764e-01
8.213300000000000045e-01 7.780800000000000161e+00 1.030599999999999916e+01 7.206684000000000090e+00 -1.833366873304099198e-01
8.213300000000000045e-01 7.780800000000000161e+00 1.177800000000000047e+01 -6.546410999999999980e+00 -1.880714727250764329e-01
8.290999999999999481e-01 -3.994800000000000129e+00 2.546399999999999864e+01 2.973276999999999859e+01 -1.140314042469477984e-01
8.393300000000000205e-01 1.203800000000000026e+01 2.447800000000000153e+01 2.241514000000000095e+01 6.808831411910021281e-02
8.516799999999999926e-01 1.148799999999999955e+01 2.830699999999999861e+01 7.670458000000000709e+01 -5.594247077671080787e-02
8.545199999999999463e-01 1.002399999999999913e+01 2.970299999999999940e+00 2.358629000000000175e+01 -2.359831794531966342e-01
8.549999999999999822e-01 -1.025399999999999956e+01 1.310299999999999976e+01 3.301525000000000154e-01 -1.823889966883968095e-01
8.620200000000000085e-01 -1.009100000000000108e+00 6.327799999999999869e+00 -5.314496000000000109e+00 -1.850460391005836758e-01
8.627099999999999769e-01 -9.100000000000000311e-01 3.808300000000000018e+00 -8.565374000000000598e-02 -1.832124331102650550e-01
8.627099999999999769e-01 6.099999999999999867e-01 3.808300000000000018e+00 -1.813196000000000030e+00 -1.507477474112718929e-01
8.630799999999999583e-01 -3.904199999999999893e+00 2.713299999999999912e+01 1.594295999999999935e+01 -6.836055452247305486e-02
8.918899999999999606e-01 -8.990999999999999659e+00 2.094000000000000128e+01 1.595866000000000007e+01 -1.808811967955000211e-01
8.930500000000000105e-01 1.092500000000000071e+01 1.260399999999999920e+01 -4.091980999999999646e+00 -1.900223840668026631e-01
8.940000000000000169e-01 -7.813799999999999635e-01 7.027499999999999858e+00 -1.206174000000000079e+00 -1.855314485000403579e-01
8.975999999999999535e-01 4.694099999999999717e+00 1.648300000000000054e+01 7.904150999999999705e+00 2.738501670180025840e-02
8.975999999999999535e-01 4.694099999999999717e+00 1.886499999999999844e+01 1.135243000000000002e+01 2.349511005373803446e-02
9.003299999999999637e-01 1.478500000000000014e+01 1.316699999999999982e+01 -2.691344999999999987e-01 -1.634749540646145971e-01
9.011400000000000521e-01 1.228999999999999915e+01 1.195700000000000074e+01 2.074638999999999900e+00 -1.509125345535859974e-01
9.322399999999999576e-01 1.274099999999999966e+01 1.769000000000000128e+01 1.772736000000000089e+01 -8.633985619739344142e-02
9.325099999999999500e-01 1.218900000000000006e+01 2.171300000000000097e+01 1.012654999999999994e+01 -4.254499115314934465e-02
9.336299999999999599e-01 3.561500000000000110e+00 1.724099999999999966e+01 1.501465999999999923e+01 2.414391689464219504e-02
9.336299999999999599e-01 3.561500000000000110e+00 1.810600000000000165e+01 3.551130999999999815e+00 2.283990429606339370e-02
9.336299999999999599e-01 5.826699999999999768e+00 1.724099999999999966e+01 1.074624000000000024e+01 2.880225962961559596e-02
9.336299999999999599e-01 5.826699999999999768e+00 1.810600000000000165e+01 1.458430000000000071e+01 2.726317782503022771e-02
9.458800000000000541e-01 -3.056599999999999984e+00 1.038899999999999935e+01 6.494913999999999632e+00 -7.390078795264526379e-02
9.537400000000000322e-01 -4.490000000000000213e+00 9.632899999999999352e+00 7.336948999999999721e+00 -1.480175763762686114e-01
9.544799999999999951e-01 1.488299999999999912e+01 1.140199999999999925e+01 1.244050000000000100e+00 -1.425192939593450669e-01
9.616200000000000303e-01 -1.320100000000000051e+01 1.671999999999999886e+01 9.263142000000000209e+00 -1.804283783120290974e-01
9.679999999999999716e-01 6.697700000000000209e+00 -3.203300000000000036e-01 3.226199999999999957e+00 -2.388200161042991210e-01
9.679999999999999716e-01 9.448299999999999699e+00 -3.203300000000000036e-01 3.474886999999999837e+00 -2.805758050802827919e-01
9.679999999999999716e-01 9.448299999999999699e+00 7.303300000000000347e-01 -6.888695000000000235e+00 -2.361102171725483478e-01
9.683800000000000185e-01 -7.499799999999999800e-01 1.731299999999999883e+01 8.639521999999999480e+00 -1.905846216917835290e-01
9.683800000000000185e-01 -7.499799999999999800e-01 1.957799999999999940e+01 1.683461000000000141e+01 -1.899911888458169495e-01
9.683800000000000185e-01 6.500200000000000422e-01 1.731299999999999883e+01 9.077901999999999916e+00 -8.166032580884940995e-02
9.683800000000000185e-01 6.500200000000000422e-01 1.957799999999999940e+01 7.021067000000000391e+00 -1.930362676636921404e-01
9.711100000000000287e-01 1.515399999999999991e+01 1.231700000000000017e+01 -9.776860000000000550e-01 -1.541812574593753038e-01
9.839099999999999513e-01 -1.050899999999999924e-02 9.977999999999999758e+00 8.312955999999999790e+00 -2.764862796482593366e-01
9.839099999999999513e-01 1.985800000000000065e-01 9.242000000000000881e+00 1.614656000000000091e+01 -1.873592240141779552e-01
9.909999999999999920e-01 -9.576900000000000190e+00 1.198099999999999987e+01 -3.034071999999999880e-01 -1.828468429254685446e-01
9.909999999999999920e-01 -9.252000000000000668e+00 1.124399999999999977e+01 -6.517256999999999634e-01 -1.831562921481061090e-01
9.909999999999999920e-01 -7.958999999999999631e+00 1.052299999999999969e+01 -1.163687999999999967e+01 -1.839845860787694409e-01
9.968200000000000394e-01 1.266000000000000014e+00 2.766000000000000014e+01 -9.145372999999999308e+00 -4.269772876919256110e-02
1.001900000000000013e+00 1.026999999999999957e+01 4.296299999999999564e+00 6.630976000000000425e+00 -2.369013903399166954e-01
1.002000000000000002e+00 1.289700000000000024e+01 1.835200000000000031e+01 1.709245999999999910e+01 -8.794966954332360254e-02
1.002000000000000002e+00 1.289700000000000024e+01 1.940200000000000102e+01 1.906126000000000076e+01 -9.113771685939725531e-02
1.008699999999999930e+00 7.848499999999999588e+00 3.128099999999999881e+01 2.300809999999999889e+01 -8.279317594509336131e-02
1.008999999999999897e+00 9.398999999999999133e+00 3.112900000000000134e+01 -9.892340000000000799e+00 -6.933125069960734133e-02
1.010399999999999965e+00 6.323999999999999844e+00 3.192500000000000071e+01 -6.203427999999999720e+00 -2.854219713904251332e-01
1.011700000000000044e+00 8.073000000000000398e+00 -1.241100000000000092e+00 2.125148999999999955e+00 -2.811343746700483148e-01
1.017200000000000104e+00 -1.422600000000000087e+01 1.795200000000000173e+01 3.821936000000000000e+00 -1.798718335243029709e-01
1.019900000000000029e+00 -1.289700000000000024e+01 1.601999999999999957e+01 9.587590999999999752e+00 -1.806321453922715425e-01
1.021200000000000108e+00 -3.250900000000000317e-02 2.666199999999999903e+01 -1.093632999999999988e+01 -7.543539473702715048e-02
1.042000000000000037e+00 -3.391999999999999904e+00 2.629200000000000159e+01 7.244284000000000390e+00 -6.813310128283930900e-02
1.042799999999999949e+00 -4.514100000000000001e+00 2.384100000000000108e+01 1.925168999999999997e+01 -1.156609999933870120e-01
1.070000000000000062e+00 -1.436400000000000077e+01 1.883200000000000074e+01 6.144566000000000194e+00 -1.796160321983088226e-01
1.070000000000000062e+00 -1.410999999999999943e+01 1.972599999999999909e+01 8.742789999999999395e+00 -1.794702843803878678e-01
1.070999999999999952e+00 7.121999999999999886e+00 7.471199999999999619e+00 1.421537999999999968e+00 -1.467919736573091993e-01
1.070999999999999952e+00 7.331100000000000172e+00 6.735199999999999854e+00 -2.325093000000000032e+01 -1.456797660445728892e-01
1.070999999999999952e+00 7.331100000000000172e+00 8.207300000000000040e+00 3.181359000000000048e+00 -1.474386951791534783e-01
1.074300000000000033e+00 1.337500000000000000e+01 1.522199999999999953e+01 6.101342999999999961e+00 -8.266445992012545763e-02
1.075599999999999890e+00 6.613500000000000156e+00 6.702799999999999869e-01 -5.722154999999999880e-01 -2.393787601354887273e-01
1.093699999999999894e+00 1.147799999999999976e+01 2.494999999999999929e+01 7.603545999999999694e+00 5.228956178997908044e-02
1.095900000000000096e+00 3.917400000000000049e-02 8.625199999999999534e+00 1.627328999999999937e+01 -1.868201110744801274e-01
1.099399999999999933e+00 -3.159600000000000186e+00 2.547700000000000031e+01 6.046097999999999750e+00 -1.140146575249410821e-01
1.100400000000000045e+00 9.268399999999999750e+00 1.265399999999999991e+01 -5.105612999999999957e+00 -1.915589031458329594e-01
1.112900000000000000e+00 4.974000000000000199e+00 3.232500000000000284e+01 -1.213039000000000023e+01 -2.266593506743859107e-02
1.113399999999999945e+00 9.974099999999999966e+00 3.456999999999999851e+00 1.493912000000000084e+01 -2.369186757516888453e-01
1.120000000000000107e+00 -7.983100000000000307e+00 2.164600000000000080e+01 1.712458999999999953e+00 -1.164825817141104392e-01
1.125699999999999923e+00 -1.347699999999999898e+00 2.636700000000000088e+01 -4.046844000000000108e+01 -7.142552344588841418e-02
1.125999999999999890e+00 3.806099999999999817e+00 4.013099999999999667e+00 -8.600326999999999833e-01 -1.484667525021176882e-01
1.125999999999999890e+00 4.131000000000000227e+00 3.275900000000000034e+00 -4.350213000000000108e+00 -1.478880932331055331e-01
1.137399999999999967e+00 3.341099999999999959e+00 2.987600000000000122e+01 -8.581893000000000882e+00 -3.608904439939280423e-02
1.139899999999999913e+00 1.290000000000000036e+01 1.571100000000000030e+01 3.455582000000000154e+00 -8.216531944284337363e-02
1.153000000000000025e+00 -1.379699999999999926e+00 4.568299999999999805e+00 -4.465199000000000140e+00 -1.841335802119868359e-01
1.153000000000000025e+00 -1.379699999999999926e+00 5.507699999999999818e+00 -2.296497000000000099e+01 -1.847841907539984896e-01
1.153100000000000014e+00 3.645900000000000141e+00 3.156299999999999883e+01 -6.641767999999999894e+00 -2.859709512128328843e-02
1.156600000000000072e+00 1.383699999999999974e+01 1.134500000000000064e+01 2.552036000000000193e+00 -1.462045304390134914e-01
1.157699999999999951e+00 -3.463000000000000078e+00 2.477700000000000102e+01 2.336345999999999989e+01 -1.147906659988103123e-01
1.157699999999999951e+00 -2.455799999999999983e+00 2.640700000000000003e+01 1.180495999999999990e+00 -6.917569615841223651e-02
1.163000000000000034e+00 1.131199999999999939e+01 3.009700000000000131e+01 1.075980000000000025e+01 -3.500000000000000333e-01
1.163999999999999924e+00 1.256300000000000061e+01 2.257799999999999940e+01 1.885070999999999941e+01 -2.878657771341894267e-02
1.163999999999999924e+00 1.256300000000000061e+01 2.362800000000000011e+01 -4.493069000000000202e+00 -6.461540711740901884e-04
1.165200000000000014e+00 9.271900000000000475e+00 4.615000000000000213e+00 -2.638364999999999938e+01 -1.411477441576760028e-01
1.171000000000000041e+00 2.466000000000000192e+00 4.858999999999999986e+00 2.937565000000000204e+00 -1.500999376556238496e-01
1.175300000000000011e+00 1.386800000000000033e+01 1.443699999999999939e+01 7.875094999999999956e+00 -8.476885419792486165e-02
1.176800000000000068e+00 -6.894499999999999851e+00 2.276000000000000156e+01 3.278038000000000007e+00 -1.157076898779033913e-01
1.187899999999999956e+00 5.424000000000000377e+00 2.457100000000000062e+00 -5.830516000000000254e+00 -1.464321035117301384e-01
1.192099999999999937e+00 -1.499999999999999944e-01 3.745000000000000107e+00 -5.564423999999999815e+00 -1.514769405171065564e-01
1.194399999999999906e+00 -1.393200000000000038e+01 1.685500000000000043e+01 3.458941999999999961e+00 -1.800568727346248399e-01
1.201000000000000068e+00 3.994099999999999984e+00 1.654100000000000037e+01 3.477557000000000009e+00 2.527174575414024155e-02
1.201000000000000068e+00 3.994099999999999984e+00 1.880600000000000094e+01 2.320781999999999901e+00 2.161037606303445324e-02
1.201000000000000068e+00 5.394099999999999895e+00 1.654100000000000037e+01 9.366785999999999390e+00 2.815513747284241822e-02
1.201000000000000068e+00 5.394099999999999895e+00 1.880600000000000094e+01 1.968239000000000161e+01 2.406331825950999356e-02
1.213799999999999990e+00 9.483399999999999608e+00 3.722199999999999953e+00 3.820879000000000136e+00 -2.381051134661626989e-01
1.213999999999999968e+00 7.017000000000000348e+00 1.655499999999999972e+00 -2.004427999999999876e+00 -2.396398070301321570e-01
1.219500000000000028e+00 -5.477199999999999847e+00 2.358800000000000097e+01 1.825959999999999894e+01 -1.152980069172333255e-01
1.231300000000000061e+00 -1.240700000000000003e+01 2.119300000000000139e+01 5.595971999999999724e+00 -3.183767236393455491e-01
1.231300000000000061e+00 -1.070700000000000074e+01 2.119300000000000139e+01 8.787088999999999928e+00 -1.798191310332877269e-01
1.233000000000000096e+00 9.881899999999999906e+00 3.103699999999999903e+01 3.509561000000000153e+00 -6.527451768978674573e-02
1.246699999999999919e+00 -6.090900000000000425e+00 1.000300000000000011e+01 1.171850999999999976e+00 -7.357713408858321258e-02
1.258000000000000007e+00 1.104599999999999937e+01 2.681999999999999940e+00 5.274376999999999782e+01 -2.348876756804688382e-01
1.258000000000000007e+00 1.104599999999999937e+01 4.232000000000000206e+00 2.923637000000000086e+01 -2.360231218346933169e-01
1.258000000000000007e+00 1.200399999999999956e+01 2.681999999999999940e+00 6.745953000000000088e+01 -2.330546669552514827e-01
1.258000000000000007e+00 1.200399999999999956e+01 4.232000000000000206e+00 5.571293000000000006e+01 -2.339878724973722957e-01
1.260299999999999976e+00 6.615499999999999936e+00 2.255999999999999783e+00 -5.253175999999999846e+00 -2.404357331736721726e-01
1.262000000000000011e+00 -1.443999999999999950e+00 1.062800000000000011e+01 -1.088846000000000025e+01 -7.381365976825310371e-02
1.264599999999999946e+00 3.021500000000000075e+00 2.877700000000000102e+01 -7.331386000000000180e+00 -4.109126059760052907e-02
1.286999999999999922e+00 7.736399999999999721e+00 8.973499999999999588e+00 6.401377000000000095e+00 -1.485975892553544064e-01
1.288499999999999979e+00 -9.423600000000000421e+00 2.044900000000000162e+01 3.011138000000000048e+01 -1.804365611095340438e-01
1.288999999999999924e+00 -1.288899999999999935e+01 1.505599999999999916e+01 1.361585000000000045e+00 -1.806700786701690986e-01
1.288999999999999924e+00 -1.256400000000000006e+01 1.431900000000000084e+01 -7.077523999999999482e-01 -1.809380044529404763e-01
1.290699999999999958e+00 8.284000000000000696e+00 5.844699999999999562e+00 -5.387700999999999851e+01 -1.437958541147142943e-01
1.293299999999999894e+00 8.144399999999999196e+00 2.688200000000000145e+00 -7.205203000000000024e+00 -2.391907068306528550e-01
1.297600000000000087e+00 8.165900000000000603e+00 1.870300000000000074e+00 1.720230000000000103e+01 -2.386596060513999085e-01
1.299099999999999921e+00 -1.130499999999999972e+01 1.348700000000000010e+01 1.406453000000000009e-01 -1.815482203679336659e-01
1.300200000000000022e+00 1.965999999999999970e+00 2.771799999999999997e+01 -2.661739999999999995e+01 -4.322484447963388654e-02
1.313499999999999890e+00 1.243500000000000050e+01 1.647800000000000153e+01 6.501561999999999841e+01 -8.322251873933658728e-02
1.322500000000000009e+00 1.071000000000000085e+01 3.456999999999999851e+00 3.468688999999999822e+01 -2.361288661099714137e-01
1.322500000000000009e+00 1.233999999999999986e+01 3.456999999999999851e+00 5.586889000000000038e+01 -2.328499122140269273e-01
1.324500000000000011e+00 -8.291000000000000369e+00 2.120799999999999841e+01 3.124115000000000197e+00 -1.806828530944138422e-01
1.325700000000000101e+00 1.162500000000000000e+01 1.233699999999999974e+01 -1.198812999999999906e+00 -1.894142496308953150e-01
1.328000000000000069e+00 1.178100000000000058e+01 2.064699999999999847e+01 5.370640999999999998e+00 -6.009579732507247529e-02
1.328000000000000069e+00 1.178100000000000058e+01 2.151300000000000168e+01 1.001530999999999949e+01 -4.956108949993729557e-02
1.329299999999999926e+00 7.635200000000000209e+00 1.118399999999999928e+01 6.561468999999999774e+00 -1.872115325101441075e-01
1.329299999999999926e+00 7.844299999999999606e+00 1.191999999999999993e+01 -5.073952999999999935e-01 -1.895829270906746744e-01
1.329299999999999926e+00 9.982799999999999230e+00 1.258399999999999963e+01 -4.628084000000000309e+00 -1.917295671221753151e-01
1.332000000000000073e+00 -1.352999999999999936e+01 1.613400000000000034e+01 3.435405999999999960e+00 -1.802198688011853456e-01
1.332999999999999963e+00 1.408500000000000085e+01 1.343399999999999928e+01 2.949162999999999979e+00 -1.683071594050458697e-01
1.348999999999999977e+00 1.216399999999999970e+01 1.571100000000000030e+01 1.922245999999999899e+00 -8.234933285712930928e-02
1.348999999999999977e+00 1.216399999999999970e+01 1.724500000000000099e+01 1.291637000000000057e+02 -8.467062422428930923e-02
1.358600000000000030e+00 -9.762999999999999901e+00 1.270700000000000074e+01 -9.071034000000000042e-02 -1.823246162526379333e-01
1.361599999999999921e+00 1.882900000000000018e+00 4.855599999999999916e+00 2.858083000000000151e+00 -1.507438873316555294e-01
1.382300000000000084e+00 7.625600000000000378e+00 9.915900000000000603e+00 1.205206000000000088e+01 -1.834845213980436651e-01
1.401000000000000023e+00 -1.449999999999999956e+00 1.844600000000000151e+01 9.670348999999999862e+00 -1.885213192574524688e-01
1.401000000000000023e+00 -1.240899999999999892e+00 1.771000000000000085e+01 8.141868999999999801e+00 -1.890945515937985932e-01
1.401000000000000023e+00 -1.240899999999999892e+00 1.918199999999999861e+01 1.429809999999999981e+01 -1.886413001957570612e-01
1.401000000000000023e+00 -4.998299999999999965e-02 1.704599999999999937e+01 9.219630000000000436e+00 -1.914835219799534416e-01
1.401000000000000023e+00 -4.998299999999999965e-02 1.984600000000000009e+01 1.575639999999999930e+01 -1.907734641644365792e-01
1.401000000000000023e+00 1.140900000000000025e+00 1.771000000000000085e+01 5.618482000000000198e+00 -8.236842394564244940e-02
1.401000000000000023e+00 1.140900000000000025e+00 1.918199999999999861e+01 2.335281000000000162e+00 -1.938794869028629964e-01
1.401000000000000023e+00 1.350000000000000089e+00 1.844600000000000151e+01 1.882360999999999951e+00 -1.945776263337003764e-01
1.404700000000000060e+00 8.333299999999999486e+00 3.305499999999999883e+00 -2.621949000000000041e+01 -2.396225567651349697e-01
1.405100000000000016e+00 -5.295700000000000074e+00 9.804700000000000415e+00 3.658633000000000024e+00 -7.335328289126058499e-02
1.407200000000000006e+00 1.246700000000000053e+01 1.501099999999999923e+01 3.016246000000000205e+00 -8.245292918652283309e-02
1.423599999999999977e+00 -7.259000000000000341e+00 1.025600000000000023e+01 -1.935349999999999904e+00 -1.840915868245573406e-01
1.427000000000000046e+00 2.461699999999999999e+00 2.795200000000000173e+01 -2.445802000000000120e+01 -4.335968067102076440e-02
1.442299999999999915e+00 4.214000000000000412e+00 3.226200000000000045e+01 -4.591287000000000340e+00 -2.455951786976716747e-02
1.442299999999999915e+00 5.733999999999999986e+00 3.226200000000000045e+01 -1.025638000000000005e+01 -2.041444793294163937e-02
1.445899999999999963e+00 -4.225900000000000212e-01 1.034200000000000053e+01 2.511874999999999858e+00 -2.765782209126475544e-01
1.453899999999999970e+00 4.583999999999999742e-01 2.705799999999999983e+01 -1.066582000000000008e+01 -7.523745764841568984e-02
1.460700000000000109e+00 -8.718999999999999417e+00 1.081300000000000061e+01 -6.192995000000000028e-01 -1.831710995309549506e-01
1.460900000000000087e+00 3.346900000000000208e+00 4.733200000000000074e+00 -8.648266000000000009e-01 -1.496073721429384273e-01
1.479400000000000048e+00 6.757900000000000240e+00 3.143499999999999872e+01 -3.263978999999999964e+00 -2.857076583821257509e-01
1.487999999999999989e+00 8.624000000000000554e+00 3.142500000000000071e+01 -1.080599999999999916e+01 -7.896382384292008338e-02
1.489400000000000057e+00 -7.899500000000000410e-01 2.637199999999999989e+01 -1.707498000000000005e+01 -7.116740428976506272e-02
1.493300000000000072e+00 7.547699999999999854e+00 -6.450000000000000178e-01 3.337473999999999830e+00 -2.385173765901084653e-01
1.493300000000000072e+00 7.547699999999999854e+00 1.054999999999999938e+00 -2.225434000000000023e-01 -2.391683275958795818e-01
