7.140500000000000114e+01 2.867500000000000071e+01 3.337700000000000244e+01 -7.432121000000000421e-01 -1.712495926186263229e-01
7.141400000000000148e+01 3.725300000000000011e+01 3.173600000000000065e+01 -3.567145000000000038e-02 -2.417213998967160937e-01
7.144100000000000250e+01 4.189000000000000057e+01 3.081599999999999895e+01 -5.580390999999999657e+00 -2.465721625374433512e-01
7.145900000000000318e+01 3.135999999999999943e+01 2.987399999999999878e+01 4.454579999999999984e+00 -1.713976320956011323e-01
7.146299999999999386e+01 3.470199999999999818e+01 3.714900000000000091e+01 9.481472999999999374e+00 -2.352917535566200480e-01
7.146500000000000341e+01 3.182100000000000151e+01 4.077000000000000313e+01 -5.185078999999999994e+00 -2.302458884995530752e-01
7.147100000000000364e+01 3.069399999999999906e+01 2.533399999999999963e+01 2.663302999999999976e+00 -1.812476485357985556e-01
7.148199999999999932e+01 3.298100000000000165e+01 4.300500000000000256e+01 -1.310751999999999917e+00 -2.303959933847746222e-01
7.148199999999999932e+01 4.507800000000000296e+01 2.950799999999999912e+01 -1.811933999999999934e+00 -2.490333738898516391e-01
7.149399999999999977e+01 4.033299999999999841e+01 2.131899999999999906e+01 -2.556201999999999863e+00 -2.459249285134341156e-01
7.151099999999999568e+01 2.861700000000000088e+01 3.436299999999999955e+01 1.397248000000000046e+00 -1.687703506842017365e-01
7.151500000000000057e+01 4.341400000000000148e+01 3.027199999999999847e+01 -2.655628999999999795e+00 -2.479043143950457606e-01
7.151500000000000057e+01 3.516400000000000148e+01 4.534400000000000119e+01 -1.078580999999999968e+01 -2.327975092323246176e-01
7.151500000000000057e+01 3.668399999999999750e+01 4.534400000000000119e+01 -2.232103000000000037e+01 -2.349581700318809363e-01
7.151600000000000534e+01 3.187699999999999889e+01 2.707100000000000151e+01 1.057277999999999984e+01 -1.756206339189830823e-01
7.151600000000000534e+01 3.187699999999999889e+01 2.933599999999999852e+01 2.652967999999999993e+00 -1.711536078617396095e-01
7.152800000000000580e+01 3.578199999999999648e+01 2.365899999999999892e+01 1.092929000000000039e+00 -1.725226160603246517e-01
7.155500000000000682e+01 3.531400000000000006e+01 3.173400000000000176e+01 -3.459593000000000274e+01 -2.397978453033894619e-01
7.157800000000000296e+01 4.185300000000000153e+01 2.366700000000000159e+01 -2.718415999999999944e+00 -2.470059021139118516e-01
7.161299999999999955e+01 4.360099999999999909e+01 2.525700000000000145e+01 -1.153584999999999994e+01 -2.479711535558878077e-01
7.161499999999999488e+01 4.103600000000000136e+01 3.090200000000000102e+01 5.093725000000000058e-01 -2.458472161872153894e-01
7.164499999999999602e+01 3.453699999999999903e+01 3.201400000000000290e+01 -7.045584999999999987e+00 -2.388844441426509757e-01
7.164600000000000080e+01 2.857799999999999940e+01 3.510900000000000176e+01 8.356500999999999735e+00 -1.667721302407426387e-01
7.165000000000000568e+01 3.467999999999999972e+01 2.350300000000000011e+01 4.047361000000000431e+00 -1.748124506320150595e-01
7.165699999999999648e+01 4.624699999999999989e+01 2.668199999999999861e+01 -6.678734000000000393e+00 -2.494839018917625884e-01
7.165699999999999648e+01 4.624699999999999989e+01 2.914199999999999946e+01 -4.502031000000000205e+01 -2.497856490220448367e-01
7.166100000000000136e+01 3.723799999999999955e+01 4.183500000000000085e+01 1.796058000000000021e+01 -2.361669706470073682e-01
7.166100000000000136e+01 3.749199999999999733e+01 4.272899999999999920e+01 9.129322000000000159e+00 -2.363531390872804505e-01
7.167199999999999704e+01 3.938300000000000267e+01 3.116799999999999926e+01 -1.340397999999999978e+00 -2.441771693980053226e-01
7.167300000000000182e+01 3.050499999999999901e+01 3.860399999999999920e+01 2.607600999999999947e-01 -3.499999999999999778e-01
7.167300000000000182e+01 3.073199999999999932e+01 3.940299999999999869e+01 -1.261669999999999980e+01 -2.301704716738517398e-01
7.167900000000000205e+01 3.618500000000000227e+01 3.889300000000000068e+01 1.931330999999999909e+00 -2.359022326246066614e-01
7.169700000000000273e+01 3.051000000000000156e+01 2.987699999999999889e+01 1.032042000000000037e+01 -1.739474322852664623e-01
7.171099999999999852e+01 4.304699999999999704e+01 2.454700000000000060e+01 -1.336119000000000057e+01 -2.476843804563599039e-01
7.171200000000000330e+01 3.783700000000000330e+01 2.258800000000000097e+01 -1.017559000000000102e+00 -1.706340046986252190e-01
7.171999999999999886e+01 3.360199999999999676e+01 3.368599999999999994e+01 -1.100697000000000081e+01 -2.367737420319689645e-01
7.171999999999999886e+01 3.381099999999999994e+01 3.295000000000000284e+01 -1.216015999999999986e+00 -3.500000000000000333e-01
7.171999999999999886e+01 3.381099999999999994e+01 3.442199999999999704e+01 -8.369891000000000858e+00 -2.363711009264709284e-01
7.171999999999999886e+01 3.403799999999999670e+01 3.522099999999999653e+01 -2.747253999999999863e+01 -2.359387594741944594e-01
7.173300000000000409e+01 3.138800000000000168e+01 4.007000000000000028e+01 -2.130716999999999928e+01 -2.299961585767905936e-01
7.174099999999999966e+01 3.038100000000000023e+01 3.769700000000000273e+01 4.656628000000000434e+00 -3.500000000000000333e-01
7.174099999999999966e+01 2.887600000000000122e+01 3.615599999999999881e+01 4.041579000000000121e+01 -1.626473864176663231e-01
7.175100000000000477e+01 3.213499999999999801e+01 2.347899999999999920e+01 1.317431000000000019e+01 -1.802271902696337691e-01
7.175100000000000477e+01 3.308299999999999841e+01 2.347899999999999920e+01 1.516938000000000031e+01 -1.781465860044119387e-01
7.175400000000000489e+01 3.606199999999999761e+01 3.980499999999999972e+01 2.443575000000000053e+00 -2.350937556180300592e-01
7.175400000000000489e+01 3.627100000000000080e+01 4.054099999999999682e+01 7.077448000000000405e+00 -2.350183261383354538e-01
7.176600000000000534e+01 2.931700000000000017e+01 3.134400000000000119e+01 -6.658023000000000413e-02 -1.743601190821444658e-01
7.176600000000000534e+01 2.952599999999999980e+01 3.060800000000000054e+01 1.684555000000000025e+00 -1.754283354617499346e-01
7.178199999999999648e+01 4.298100000000000165e+01 3.097200000000000131e+01 -6.511174999999999602e-02 -2.476774177160697976e-01
7.178300000000000125e+01 4.491299999999999670e+01 2.592999999999999972e+01 -2.028951999999999978e-01 -2.487804146407964212e-01
7.178400000000000603e+01 3.231000000000000227e+01 2.777100000000000080e+01 7.939409000000000383e+00 -1.732801653175012058e-01
7.178400000000000603e+01 3.231000000000000227e+01 2.863599999999999923e+01 4.880329999999999835e+00 -1.715114903022316728e-01
7.178700000000000614e+01 3.655400000000000205e+01 2.342500000000000071e+01 -6.223707000000000544e-01 -1.715264184674730463e-01
7.179000000000000625e+01 3.835699999999999932e+01 2.161299999999999955e+01 -1.632868999999999904e+00 -1.711298332705266101e-01
7.180299999999999727e+01 3.558100000000000307e+01 3.121799999999999997e+01 -3.928401999999999816e+01 -2.403401925999816002e-01
7.181999999999999318e+01 3.117699999999999960e+01 2.939499999999999957e+01 5.876722000000000001e+00 -1.730501400207073437e-01
7.183499999999999375e+01 3.557399999999999807e+01 3.755299999999999727e+01 1.457465000000000011e+01 -2.358468622332954290e-01
7.183700000000000330e+01 3.368599999999999994e+01 4.353799999999999670e+01 9.585262999999999423e+00 -2.304899546174276337e-01
7.184999999999999432e+01 3.791199999999999903e+01 3.145299999999999940e+01 2.612705000000000055e+00 -2.425805930227149521e-01
7.185200000000000387e+01 3.415699999999999648e+01 2.341799999999999926e+01 4.913818000000000019e+00 -1.760186011466207678e-01
7.186899999999999977e+01 3.660099999999999909e+01 3.124699999999999989e+01 -2.647203000000000017e+01 -2.413213115780249718e-01
7.186899999999999977e+01 2.975400000000000134e+01 2.994099999999999895e+01 3.985803000000000207e+00 -1.762570953851434474e-01
7.187000000000000455e+01 4.243900000000000006e+01 3.141300000000000026e+01 -7.860131999999999675e-01 -2.472229983471652959e-01
7.187199999999999989e+01 3.235300000000000153e+01 4.218299999999999983e+01 -2.604324999999999779e+00 -2.294849151502299234e-01
7.187800000000000011e+01 4.430100000000000193e+01 3.009799999999999898e+01 2.640212000000000003e+00 -2.487512931020697537e-01
7.189100000000000534e+01 3.885000000000000142e+01 2.082799999999999940e+01 -1.703124000000000082e+00 -1.713913503575176245e-01
7.189100000000000534e+01 3.989999999999999858e+01 2.082799999999999940e+01 -1.671162000000000036e+00 -2.451986934841855204e-01
7.189499999999999602e+01 3.400200000000000244e+01 3.601599999999999824e+01 -2.243976999999999933e+01 -2.351275659065009960e-01
7.189499999999999602e+01 3.421099999999999852e+01 3.675200000000000244e+01 -9.382365999999999318e+00 -2.347313083026585923e-01
7.190099999999999625e+01 2.992800000000000082e+01 3.702300000000000324e+01 1.264053999999999967e+01 -3.499999999999999778e-01
7.190300000000000580e+01 4.147500000000000142e+01 2.238500000000000156e+01 1.559984999999999955e+00 -2.469333095439848746e-01
7.190399999999999636e+01 4.019800000000000040e+01 3.122500000000000142e+01 -1.640600000000000058e+00 -2.450681188351966910e-01
7.193200000000000216e+01 3.025000000000000000e+01 2.578500000000000014e+01 1.179627999999999899e+00 -1.822006467894465298e-01
7.193800000000000239e+01 4.185699999999999932e+01 2.314199999999999946e+01 6.567516000000000354e+00 -2.471196718608448806e-01
7.197299999999999898e+01 4.109100000000000108e+01 2.140700000000000003e+01 -3.254944000000000059e+00 -2.467953551245820609e-01
7.198000000000000398e+01 3.227900000000000347e+01 4.123899999999999721e+01 -8.036787999999999599e+00 -2.295995731429124886e-01
7.198499999999999943e+01 3.430599999999999739e+01 4.417600000000000193e+01 4.443215999999999610e+00 -2.309672255150559683e-01
7.198499999999999943e+01 3.463100000000000023e+01 4.491299999999999670e+01 9.705877000000000532e-01 -2.314516442016920639e-01
7.198499999999999943e+01 3.592399999999999949e+01 4.563400000000000034e+01 -8.642811000000000021e+00 -2.333833124044754626e-01
7.198499999999999943e+01 3.721699999999999875e+01 4.491299999999999670e+01 -4.172776999999999958e+01 -2.353963474793198674e-01
7.198499999999999943e+01 3.744400000000000261e+01 4.411399999999999721e+01 -1.120032999999999923e+01 -2.358091061862988558e-01
7.200100000000000477e+01 4.257699999999999818e+01 2.378699999999999903e+01 -8.200165000000000148e+00 -2.475138598624517794e-01
7.201800000000000068e+01 3.712700000000000244e+01 2.331400000000000006e+01 -1.504070999999999936e+00 -1.707374278207683116e-01
7.205299999999999727e+01 3.164699999999999847e+01 2.401500000000000057e+01 4.838122000000000256e+00 -1.809419968940501888e-01
7.206499999999999773e+01 2.858999999999999986e+01 3.289600000000000080e+01 1.010013999999999967e+00 -1.729614864559459453e-01
7.206999999999999318e+01 2.785500000000000043e+01 2.743700000000000117e+01 3.349657000000000107e+00 -1.838717285316029681e-01
7.207999999999999829e+01 2.699800000000000111e+01 2.857300000000000040e+01 -4.815578000000000358e+00 -1.836402592188071947e-01
7.208400000000000318e+01 3.497200000000000131e+01 2.347500000000000142e+01 1.827277000000000040e+00 -1.743808284184710788e-01
7.208499999999999375e+01 4.555499999999999972e+01 2.626800000000000068e+01 -2.176438000000000095e+00 -2.492705050671765732e-01
7.208899999999999864e+01 2.812399999999999878e+01 3.367799999999999727e+01 6.497512000000000398e+00 -1.725098274712881241e-01
7.210099999999999909e+01 2.787900000000000134e+01 3.452400000000000091e+01 5.237193000000000431e+00 -1.709911251322616399e-01
7.210200000000000387e+01 3.600500000000000256e+01 3.774000000000000199e+01 6.064753999999999756e+00 -2.361618911830491441e-01
7.212699999999999534e+01 4.678000000000000114e+01 2.711299999999999955e+01 -2.395238000000000156e+01 -2.500096968825888388e-01
7.212699999999999534e+01 4.700699999999999790e+01 2.791199999999999903e+01 -1.678763000000000005e+01 -2.502437778849847527e-01
7.213700000000000045e+01 3.627400000000000091e+01 3.849900000000000233e+01 -1.125312000000000090e+00 -2.360012429623636887e-01
7.215200000000000102e+01 4.036699999999999733e+01 2.058099999999999952e+01 7.013960000000000194e-01 -2.456435660378350205e-01
7.216400000000000148e+01 2.990099999999999980e+01 2.874200000000000088e+01 2.262848999999999933e+01 -1.785128100452710864e-01
7.216500000000000625e+01 3.187900000000000134e+01 4.046699999999999875e+01 -1.250811999999999991e+01 -2.294431716386404752e-01
7.217700000000000671e+01 4.070600000000000307e+01 3.151099999999999923e+01 2.283576999999999968e-01 -2.456410668214853710e-01
7.217700000000000671e+01 4.157200000000000273e+01 3.151099999999999923e+01 1.097507000000000010e+00 -2.465305931385975702e-01
7.219599999999999795e+01 3.933800000000000097e+01 2.033699999999999974e+01 -1.631858999999999948e+00 -1.713192487576920275e-01
7.219899999999999807e+01 4.545300000000000296e+01 2.965299999999999869e+01 -9.280822000000000571e+00 -2.496686619704901466e-01
7.220000000000000284e+01 3.601400000000000290e+01 3.072700000000000031e+01 -3.504509999999999792e+01 -2.410288374533398614e-01
7.220199999999999818e+01 2.781400000000000006e+01 2.860200000000000031e+01 -5.458302999999999905e+00 -1.830837169443083612e-01
7.221500000000000341e+01 4.368099999999999739e+01 3.070499999999999829e+01 1.264351999999999920e+00 -2.484907268789761370e-01
7.221599999999999397e+01 4.421300000000000097e+01 2.566300000000000026e+01 5.156013000000000401e-01 -2.485502866977029046e-01
7.221599999999999397e+01 3.074500000000000099e+01 2.890399999999999991e+01 2.436790999999999840e+01 -1.755586304869779513e-01
7.221599999999999397e+01 3.160999999999999943e+01 2.750400000000000134e+01 9.431846000000000174e+00 -1.758345387825386574e-01
7.221599999999999397e+01 3.160999999999999943e+01 2.890399999999999991e+01 1.209944999999999915e+01 -1.729494734197251637e-01
7.221899999999999409e+01 3.678499999999999659e+01 4.132699999999999818e+01 2.089155999999999835e+01 -2.351205207126341734e-01
7.222199999999999420e+01 2.835900000000000176e+01 2.825199999999999889e+01 -1.020996999999999932e+00 -1.829671716331356668e-01
7.222799999999999443e+01 2.941700000000000159e+01 3.665200000000000102e+01 1.599892999999999965e+01 -3.499999999999999778e-01
7.223399999999999466e+01 2.833699999999999974e+01 3.594100000000000250e+01 2.414661000000000168e+00 -1.649035613229503094e-01
7.223600000000000421e+01 3.488100000000000023e+01 3.148600000000000065e+01 -1.108299000000000056e+01 -2.394729282631843925e-01
7.223999999999999488e+01 4.152400000000000091e+01 2.070700000000000074e+01 -4.898011000000000337e+00 -2.470244836210888639e-01
7.225000000000000000e+01 2.883399999999999963e+01 2.734900000000000020e+01 7.393154000000000003e+00 -1.833035230638275226e-01
7.226200000000000045e+01 3.339500000000000313e+01 3.307200000000000273e+01 -2.552254000000000023e+00 -3.499999999999999778e-01
7.226200000000000045e+01 3.339500000000000313e+01 3.393699999999999761e+01 -1.029543999999999926e+01 -3.500000000000000333e-01
7.226300000000000523e+01 3.867000000000000171e+01 3.119800000000000040e+01 1.274253999999999998e+00 -2.435719223988655757e-01
7.226399999999999579e+01 3.064300000000000068e+01 2.492999999999999972e+01 7.817239000000000271e-01 -1.825362810876311193e-01
7.227299999999999613e+01 4.337800000000000011e+01 3.140500000000000114e+01 -1.797219999999999929e-01 -2.482883291982259100e-01
7.227500000000000568e+01 3.191400000000000148e+01 2.820400000000000063e+01 8.745815999999999590e+00 -1.735958168961684867e-01
7.228900000000000148e+01 2.907400000000000162e+01 2.877499999999999858e+01 2.187793999999999794e+00 -1.812360612650349423e-01
7.230599999999999739e+01 3.342199999999999704e+01 2.385800000000000054e+01 1.175606999999999935e+01 -1.771672700276472612e-01
7.230700000000000216e+01 2.619900000000000162e+01 2.857300000000000040e+01 -1.178009000000000084e+00 -1.844576608088808745e-01
7.232299999999999329e+01 2.944500000000000028e+01 2.792899999999999849e+01 5.981049999999999756e+00 -1.816279808354036851e-01
7.232800000000000296e+01 3.470199999999999818e+01 3.714900000000000091e+01 4.974846999999999575e+00 -2.346575788160249476e-01
7.233599999999999852e+01 3.393699999999999761e+01 3.239099999999999824e+01 -5.951417000000000179e+00 -3.499999999999999778e-01
7.233700000000000330e+01 3.033399999999999963e+01 2.649099999999999966e+01 -9.686439000000000021e-01 -1.813098853966748636e-01
7.234399999999999409e+01 4.195900000000000318e+01 3.225500000000000256e+01 -5.373860000000000303e-01 -2.469364739324576841e-01
7.234399999999999409e+01 4.300900000000000034e+01 3.225500000000000256e+01 -1.671962999999999921e-01 -2.479935014784108716e-01
7.235999999999999943e+01 2.935699999999999932e+01 2.950900000000000034e+01 5.419309000000000154e+00 -1.788516047629444827e-01
7.237000000000000455e+01 2.652799999999999869e+01 2.781299999999999883e+01 -6.719962999999999909e-01 -1.848948023009784891e-01
7.237000000000000455e+01 2.652799999999999869e+01 2.933299999999999841e+01 -9.284272000000000080e-01 -1.835408901245340896e-01
7.237000000000000455e+01 2.746799999999999997e+01 2.933299999999999841e+01 -5.841014000000000372e+00 -1.827981651513622130e-01
7.237099999999999511e+01 4.234799999999999898e+01 2.353900000000000148e+01 -7.152874999999999872e+00 -2.475016244303066826e-01
7.239400000000000546e+01 3.784899999999999665e+01 2.214600000000000080e+01 -7.585239999999999760e-01 -1.712118256207985634e-01
7.239499999999999602e+01 2.732999999999999829e+01 2.658699999999999974e+01 1.586936999999999931e-01 -1.851131741931953401e-01
7.239499999999999602e+01 2.837999999999999901e+01 2.658699999999999974e+01 3.970807999999999893e+00 -1.842785355739466613e-01
7.239499999999999602e+01 3.063700000000000045e+01 2.719099999999999895e+01 2.889873000000000136e+00 -1.793236968234015738e-01
7.241599999999999682e+01 3.800000000000000000e+01 2.115299999999999869e+01 -1.199325999999999892e+00 -1.722335193472681325e-01
7.242199999999999704e+01 3.249699999999999989e+01 2.394399999999999906e+01 1.739542000000000144e+01 -1.792335457957588418e-01
7.242300000000000182e+01 4.318500000000000227e+01 2.415299999999999869e+01 -7.385390000000000121e+00 -2.479809133129070309e-01
7.242400000000000659e+01 3.077599999999999980e+01 3.929500000000000171e+01 -1.115338000000000029e+01 -2.292747059980712321e-01
7.242900000000000205e+01 2.683200000000000074e+01 2.711299999999999955e+01 -3.933813999999999922e-01 -1.852113238947188656e-01
7.243200000000000216e+01 4.205499999999999972e+01 2.146600000000000108e+01 -7.490712000000000259e+00 -2.473635380513658222e-01
7.243899999999999295e+01 2.967299999999999827e+01 2.605000000000000071e+01 7.920555000000000234e-01 -1.835802777508111772e-01
7.244100000000000250e+01 3.043900000000000006e+01 3.739399999999999835e+01 2.292936000000000085e+00 -3.499999999999999778e-01
7.244100000000000250e+01 3.064799999999999969e+01 3.813000000000000256e+01 -1.013636999999999944e+01 -3.499999999999999778e-01
7.244499999999999318e+01 4.092699999999999960e+01 1.986499999999999844e+01 -2.874769999999999825e+00 -2.459873034328540764e-01
7.245099999999999341e+01 3.642699999999999960e+01 2.358200000000000074e+01 -3.445250999999999730e-01 -1.715532935755217647e-01
7.245099999999999341e+01 3.761800000000000210e+01 2.291799999999999926e+01 -6.115424000000000415e-01 -1.705146405392836961e-01
7.245399999999999352e+01 3.632900000000000063e+01 4.023799999999999955e+01 1.483882000000000012e+01 -2.346759550216753198e-01
7.245499999999999829e+01 3.516400000000000148e+01 4.534400000000000119e+01 -2.897676999999999836e+00 -2.316236182357429008e-01
7.245499999999999829e+01 3.668399999999999750e+01 4.534400000000000119e+01 -4.849530000000000030e+01 -2.340685675689850864e-01
7.245799999999999841e+01 2.896000000000000085e+01 3.207399999999999807e+01 -1.400603999999999960e+00 -1.739872403667560019e-01
7.246200000000000330e+01 2.921399999999999864e+01 3.119000000000000128e+01 5.310770999999999686e-01 -1.754203517763937570e-01
7.246599999999999397e+01 2.925900000000000034e+01 3.017599999999999838e+01 9.698771000000000475e-01 -1.777676776974411177e-01
7.246699999999999875e+01 4.232300000000000040e+01 2.070700000000000074e+01 -4.713309999999999889e+00 -2.474896849326966297e-01
7.248000000000000398e+01 3.374799999999999756e+01 3.475099999999999767e+01 -5.247957999999999856e+01 -2.356405422161224616e-01
7.248300000000000409e+01 4.378099999999999881e+01 2.496300000000000097e+01 -7.227528000000000397e+00 -2.483658781252343073e-01
7.248399999999999466e+01 3.117699999999999960e+01 2.820400000000000063e+01 2.258680000000000021e+01 -1.758302957276369760e-01
7.249299999999999500e+01 4.110999999999999943e+01 3.201800000000000068e+01 1.895679000000000114e-02 -2.461306076251635333e-01
7.249599999999999511e+01 2.919999999999999929e+01 2.663100000000000023e+01 7.495511999999999730e+00 -1.836626534476722417e-01
7.249699999999999989e+01 2.809900000000000020e+01 3.329200000000000159e+01 4.456735000000000113e+00 -1.738499902662986318e-01
7.250199999999999534e+01 2.812600000000000122e+01 2.941700000000000159e+01 -1.135375999999999941e+01 -1.822779317456634240e-01
7.250199999999999534e+01 4.615299999999999869e+01 2.959499999999999886e+01 -2.007384000000000057e+01 -2.502603277962721084e-01
7.250300000000000011e+01 3.531400000000000006e+01 3.078600000000000136e+01 -1.605163999999999902e+01 -2.403200095182761176e-01
7.251099999999999568e+01 3.716700000000000159e+01 4.220400000000000063e+01 1.483783000000000030e+01 -2.352427261920099766e-01
7.251900000000000546e+01 4.491299999999999670e+01 2.572100000000000009e+01 5.725143999999999789e-01 -2.490550516914319668e-01
7.253000000000000114e+01 4.199399999999999977e+01 1.994699999999999918e+01 -1.289431000000000083e+01 -2.471884197758359158e-01
7.255200000000000671e+01 3.937599999999999767e+01 3.142099999999999937e+01 -5.345950000000000424e-01 -2.443583847977739976e-01
7.255500000000000682e+01 3.386899999999999977e+01 3.565400000000000347e+01 -1.268421000000000021e+01 -2.348765225029826598e-01
7.256900000000000261e+01 2.862099999999999866e+01 2.950900000000000034e+01 -4.038326999999999778e+00 -1.816009586331221448e-01
7.259300000000000352e+01 3.977100000000000080e+01 1.984600000000000009e+01 -2.628303999999999974e+00 -1.713265857266468295e-01
7.259600000000000364e+01 4.634599999999999653e+01 2.662199999999999989e+01 -1.113401999999999958e+01 -2.499398531578428118e-01
7.259799999999999898e+01 3.138800000000000168e+01 4.007000000000000028e+01 -1.226632000000000033e+01 -2.287588550171041069e-01
7.260500000000000398e+01 2.990099999999999980e+01 2.719099999999999895e+01 4.946021000000000001e+00 -1.817331267655030447e-01
7.260899999999999466e+01 3.412199999999999989e+01 2.380000000000000071e+01 6.259776999999999703e+00 -1.758197313800829720e-01
7.261100000000000421e+01 3.645499999999999829e+01 3.887500000000000000e+01 -1.106564000000000014e+01 -2.357159646461442493e-01
7.262800000000000011e+01 3.667000000000000171e+01 3.806600000000000250e+01 -5.312721999999999944e+00 -2.366969528639907006e-01
7.263100000000000023e+01 3.540200000000000102e+01 3.720700000000000074e+01 7.826030000000000264e+00 -2.353583228481113121e-01
7.263800000000000523e+01 4.475500000000000256e+01 3.041400000000000148e+01 2.286726999999999954e+00 -2.495408160362621308e-01
7.263800000000000523e+01 4.191599999999999682e+01 2.197400000000000020e+01 -2.224468999999999852e+01 -2.473508808365036116e-01
7.263800000000000523e+01 4.191599999999999682e+01 2.283899999999999864e+01 -4.827478000000000158e+00 -2.473496178849340643e-01
7.264000000000000057e+01 3.578199999999999648e+01 2.365899999999999892e+01 -8.347715999999999470e-02 -1.726459115642298980e-01
7.265300000000000580e+01 3.785499999999999687e+01 3.109600000000000009e+01 -8.174001000000000516e+00 -2.428082675527211687e-01
7.265600000000000591e+01 3.246099999999999852e+01 4.229299999999999926e+01 2.708413999999999877e+00 -2.282587371758640349e-01
7.267300000000000182e+01 2.759299999999999997e+01 3.585600000000000165e+01 6.812869999999999759e-01 -1.679726282601406995e-01
7.267400000000000659e+01 3.662500000000000000e+01 3.068900000000000006e+01 -1.332437000000000005e+01 -2.416886730450143461e-01
7.268000000000000682e+01 3.233700000000000330e+01 4.093599999999999994e+01 -2.443391999999999786e+00 -2.286958581302790117e-01
7.268000000000000682e+01 3.254599999999999937e+01 4.167199999999999704e+01 2.706529000000000185e+00 -2.284994831456902686e-01
7.269100000000000250e+01 3.634100000000000108e+01 3.730599999999999739e+01 7.947409000000000390e+00 -2.367083851664989191e-01
7.269700000000000273e+01 2.739799999999999969e+01 3.399900000000000233e+01 1.630579000000000001e+00 -1.746642056350890537e-01
7.269700000000000273e+01 2.739799999999999969e+01 3.504899999999999949e+01 3.481085000000000207e+00 -1.713734136429547195e-01
7.270900000000000318e+01 3.428600000000000136e+01 3.640100000000000335e+01 -7.370293999999999457e-01 -2.345382389977136994e-01
7.271899999999999409e+01 3.012600000000000122e+01 2.531599999999999895e+01 3.279339000000000004e-01 -1.837779802066319690e-01
7.274099999999999966e+01 3.852499999999999858e+01 2.030300000000000082e+01 -1.799096999999999946e+00 -1.724858919251507083e-01
7.274299999999999500e+01 2.897299999999999898e+01 2.610800000000000054e+01 1.901620000000000088e+00 -1.843413988528462277e-01
7.274399999999999977e+01 3.459599999999999653e+01 4.464500000000000313e+01 1.513091000000000008e+01 -2.302575218103545540e-01
7.274500000000000455e+01 3.715400000000000347e+01 4.364399999999999835e+01 -1.480316999999999972e+01 -2.346430553394479868e-01
7.274500000000000455e+01 3.715400000000000347e+01 4.458400000000000318e+01 -3.164464999999999861e+01 -2.345902497350277616e-01
7.275600000000000023e+01 3.416400000000000148e+01 3.207699999999999818e+01 -5.267564000000000135e+00 -3.499999999999999778e-01
7.276500000000000057e+01 2.853200000000000003e+01 3.259199999999999875e+01 3.622762999999999955e+00 -1.742920841668907650e-01
7.276900000000000546e+01 2.646499999999999986e+01 2.681800000000000139e+01 -4.301753999999999856e-01 -1.860340681116137429e-01
7.277599999999999625e+01 3.288499999999999801e+01 4.308899999999999864e+01 2.610250000000000181e+00 -2.282350395383876407e-01
7.278300000000000125e+01 4.430899999999999750e+01 3.123400000000000176e+01 4.843822999999999879e-01 -2.493771126606833533e-01
7.278400000000000603e+01 3.592399999999999949e+01 4.540699999999999648e+01 6.888231000000000215e+00 -2.323940495617752844e-01
7.278600000000000136e+01 4.004200000000000159e+01 3.193799999999999883e+01 -5.248199000000000058e-01 -2.450667159848865795e-01
7.280100000000000193e+01 2.699800000000000111e+01 2.986599999999999966e+01 -4.400261000000000422e+00 -1.829638198691170836e-01
7.280500000000000682e+01 2.790800000000000125e+01 2.592800000000000082e+01 6.125432000000000099e-02 -1.853768794380798446e-01
7.282500000000000284e+01 4.248400000000000176e+01 3.285099999999999909e+01 2.571319000000000243e-01 -2.477430588546813139e-01
7.282800000000000296e+01 2.676899999999999835e+01 2.611799999999999855e+01 -4.026604999999999768e-01 -1.862337849868418993e-01
7.284000000000000341e+01 2.576800000000000068e+01 2.810300000000000153e+01 -7.859399000000000246e-01 -1.857643162145660998e-01
7.284000000000000341e+01 2.576800000000000068e+01 2.904299999999999926e+01 -2.380402999999999825e+00 -1.849092283345626919e-01
7.284900000000000375e+01 4.164600000000000080e+01 3.286099999999999710e+01 -5.443242999999999832e-01 -2.468142420783790425e-01
7.286899999999999977e+01 4.385900000000000176e+01 3.192999999999999972e+01 7.396382000000000234e-01 -2.491114753955982475e-01
7.287300000000000466e+01 2.994800000000000040e+01 3.699699999999999989e+01 2.951238000000000028e+00 -3.499999999999999778e-01
7.288400000000000034e+01 3.712700000000000244e+01 2.331400000000000006e+01 -2.350068999999999964e+00 -1.707464092712581150e-01
7.288599999999999568e+01 4.681499999999999773e+01 2.738100000000000023e+01 -2.153228000000000009e+01 -2.504364989157232824e-01
7.289499999999999602e+01 4.707300000000000040e+01 2.817399999999999949e+01 -2.000356999999999985e+01 -2.507182205390415253e-01
7.289900000000000091e+01 2.855900000000000105e+01 2.990800000000000125e+01 -1.194614000000000065e+00 -1.813194475345434875e-01
7.291599999999999682e+01 4.448100000000000165e+01 2.523000000000000043e+01 -2.038304000000000116e+00 -2.489329313760136608e-01
7.292900000000000205e+01 4.408899999999999864e+01 2.445299999999999940e+01 -1.982514000000000109e+00 -2.486569998439448204e-01
7.293000000000000682e+01 3.193900000000000006e+01 2.439699999999999847e+01 4.961540000000000283e+00 -1.803360924408739241e-01
7.293399999999999750e+01 4.065599999999999881e+01 3.275300000000000011e+01 2.117818000000000200e+00 -2.456891367523580116e-01
7.293600000000000705e+01 3.601400000000000290e+01 3.051800000000000068e+01 -1.015188999999999986e+01 -2.411771461701135988e-01
7.294299999999999784e+01 3.299499999999999744e+01 2.440500000000000114e+01 1.186666999999999916e+01 -1.776837434249835257e-01
7.294299999999999784e+01 3.299600000000000222e+01 3.321800000000000352e+01 -1.116209000000000007e+00 -3.500000000000000333e-01
7.295099999999999341e+01 4.283400000000000318e+01 2.355600000000000094e+01 -6.248526000000000025e+00 -2.479431384630673973e-01
7.295399999999999352e+01 3.346200000000000330e+01 4.367300000000000182e+01 1.081869999999999976e+01 -2.284406631072868343e-01
7.295699999999999363e+01 2.820700000000000074e+01 3.656000000000000227e+01 -9.293582999999999927e+00 -1.629054517155348880e-01
7.296099999999999852e+01 4.152400000000000091e+01 1.941400000000000148e+01 -1.374882000000000026e+01 -2.464543593014122125e-01
7.297299999999999898e+01 4.652499999999999858e+01 2.690099999999999980e+01 -3.324263000000000190e+00 -2.502505696821886727e-01
7.297799999999999443e+01 3.497200000000000131e+01 2.372899999999999920e+01 6.097875999999999852e-01 -1.742138963776471150e-01
7.298000000000000398e+01 3.652499999999999858e+01 4.090699999999999648e+01 1.668534000000000006e+01 -2.341446041707094250e-01
7.298600000000000421e+01 3.304899999999999949e+01 3.424699999999999989e+01 -1.198423999999999978e+01 -3.499999999999999778e-01
7.299599999999999511e+01 3.647800000000000153e+01 2.363299999999999912e+01 -6.584375999999999562e-01 -1.714133600355198517e-01
7.300000000000000000e+01 4.275399999999999778e+01 2.023699999999999832e+01 -2.305972999999999828e+01 -2.478000508577555827e-01
7.300000000000000000e+01 4.275399999999999778e+01 2.117699999999999960e+01 -4.752837000000000245e+01 -2.478319007693887688e-01
7.300900000000000034e+01 3.874399999999999977e+01 3.121399999999999864e+01 -3.993269999999999875e+00 -2.438521428415047210e-01
7.300900000000000034e+01 3.667099999999999937e+01 4.155199999999999960e+01 2.276983999999999853e+01 -2.340549819307059798e-01
7.301200000000000045e+01 4.561999999999999744e+01 3.018299999999999983e+01 7.811990999999999907e+00 -2.503362301809853863e-01
7.301200000000000045e+01 4.648499999999999943e+01 3.018299999999999983e+01 1.625509000000000093e+00 -2.508700352038321091e-01
7.302299999999999613e+01 4.716400000000000148e+01 2.967099999999999937e+01 -6.958955000000000002e-01 -2.511445356481491475e-01
7.303400000000000603e+01 4.618200000000000216e+01 2.634600000000000009e+01 -1.470002999999999949e+00 -2.500148004383281330e-01
7.306900000000000261e+01 2.775700000000000145e+01 2.990099999999999980e+01 -1.875807999999999964e+01 -1.824828479521840574e-01
7.306999999999999318e+01 3.341100000000000136e+01 3.518500000000000227e+01 -1.024118999999999957e+01 -2.345178754711504665e-01
7.309600000000000364e+01 2.889600000000000080e+01 3.078200000000000003e+01 5.416319999999999801e+00 -1.780977596651013295e-01
7.310599999999999454e+01 2.599599999999999866e+01 2.739799999999999969e+01 -6.032800000000000384e-01 -1.864205605157252810e-01
7.311299999999999955e+01 3.184600000000000009e+01 4.053900000000000148e+01 -1.618068000000000062e+00 -2.278803198517329598e-01
7.311599999999999966e+01 3.891199999999999903e+01 1.972299999999999898e+01 -2.404474000000000000e+00 -1.726189774451165615e-01
7.312199999999999989e+01 3.587100000000000222e+01 3.677300000000000324e+01 3.134794999999999998e+00 -2.361827443092248957e-01
7.312199999999999989e+01 4.253000000000000114e+01 3.642300000000000182e+01 -9.154223000000000221e-01 -2.477672016252552289e-01
7.312399999999999523e+01 3.071799999999999997e+01 3.959799999999999898e+01 2.377129000000000048e+00 -2.280134479994698482e-01
7.312999999999999545e+01 2.623799999999999955e+01 2.980300000000000082e+01 -6.398225000000000051e+00 -1.839949483667711327e-01
7.313400000000000034e+01 3.732999999999999829e+01 3.050000000000000000e+01 -9.887413000000000451e+00 -2.425910366669878915e-01
7.313599999999999568e+01 2.612000000000000099e+01 2.646699999999999875e+01 -4.895499999999999852e-01 -1.869167315598418699e-01
7.313700000000000045e+01 3.681000000000000227e+01 4.266400000000000148e+01 1.899412999999999840e+01 -2.337484539294316654e-01
7.313899999999999579e+01 3.481000000000000227e+01 3.124699999999999989e+01 -6.817923000000000400e+00 -3.500000000000000333e-01
7.314100000000000534e+01 3.038100000000000023e+01 3.769700000000000273e+01 3.499442999999999859e+00 -3.499999999999999778e-01
7.315699999999999648e+01 2.755600000000000094e+01 2.548799999999999955e+01 6.797881000000000062e-01 -1.862008309468561607e-01
7.315800000000000125e+01 2.890200000000000102e+01 3.177100000000000080e+01 3.744908000000000126e+00 -1.753938066549337316e-01
7.316100000000000136e+01 2.866100000000000136e+01 2.595400000000000063e+01 7.591508000000000145e+00 -1.850273723134242543e-01
7.316100000000000136e+01 3.710099999999999909e+01 3.853600000000000136e+01 -7.317657999999999774e+00 -2.368691176238055807e-01
7.317700000000000671e+01 3.410499999999999687e+01 4.424799999999999756e+01 1.121846999999999994e+01 -2.288313020822216326e-01
7.317700000000000671e+01 2.924800000000000111e+01 3.693900000000000006e+01 -4.599056000000000033e+00 -3.499999999999999778e-01
7.319400000000000261e+01 4.333400000000000318e+01 3.278000000000000114e+01 4.975151999999999575e+00 -2.488924600193333503e-01
7.319400000000000261e+01 4.348400000000000176e+01 2.365299999999999869e+01 -3.447944999999999816e+00 -2.483722715472093667e-01
7.319700000000000273e+01 2.783200000000000074e+01 3.285999999999999943e+01 1.028988000000000014e+00 -1.766373597063857492e-01
7.320000000000000284e+01 3.066000000000000014e+01 2.476099999999999923e+01 5.863475999999999688e-01 -1.835375929991264476e-01
7.320699999999999363e+01 2.648900000000000077e+01 2.561700000000000088e+01 -8.340735000000000232e-01 -1.870854178051862826e-01
7.320799999999999841e+01 3.036599999999999966e+01 3.868999999999999773e+01 1.922026999999999930e+00 -3.499999999999999223e-01
7.321099999999999852e+01 3.342900000000000205e+01 3.251800000000000068e+01 -1.206131999999999982e+00 -3.499999999999999778e-01
7.321500000000000341e+01 3.545400000000000063e+01 4.487400000000000233e+01 2.210284000000000049e+02 -2.308836710804937908e-01
7.321500000000000341e+01 3.639399999999999835e+01 4.487400000000000233e+01 -7.329038999999999859e+00 -2.325974754631424113e-01
7.321800000000000352e+01 4.240100000000000335e+01 2.199099999999999966e+01 -3.033840999999999966e+01 -2.477505976903403018e-01
7.321800000000000352e+01 4.240100000000000335e+01 2.285600000000000165e+01 -1.147011999999999965e+01 -2.477748658345581556e-01
7.323699999999999477e+01 3.503600000000000136e+01 3.670199999999999818e+01 2.650926000000000116e+00 -2.348831062620548860e-01
7.325499999999999545e+01 3.381099999999999994e+01 3.595700000000000074e+01 -3.782925999999999789e+00 -2.340177356065192282e-01
7.326099999999999568e+01 4.526299999999999812e+01 2.523000000000000043e+01 -4.226905000000000245e-01 -2.494816561687169809e-01
7.326600000000000534e+01 3.767499999999999716e+01 2.167800000000000082e+01 -8.927859000000000211e-01 -1.721457346528749155e-01
7.326600000000000534e+01 3.792900000000000205e+01 2.078399999999999892e+01 -1.449125999999999914e+00 -1.728572525908908530e-01
7.326999999999999602e+01 4.030199999999999960e+01 1.912099999999999866e+01 -3.461930000000000174e+00 -1.714772160462114392e-01
7.328400000000000603e+01 3.799199999999999733e+01 3.056800000000000139e+01 -1.722675999999999874e+01 -2.433197375831451237e-01
7.329000000000000625e+01 4.228399999999999892e+01 1.947700000000000031e+01 -1.009446999999999939e+01 -2.473023008371557085e-01
7.329099999999999682e+01 4.211200000000000188e+01 3.337899999999999778e+01 -1.818733999999999906e-01 -2.476049240290469078e-01
7.330100000000000193e+01 4.575000000000000000e+01 2.564600000000000080e+01 -1.048677000000000081e+00 -2.498055889887709768e-01
7.331900000000000261e+01 4.496000000000000085e+01 2.453000000000000114e+01 -7.356776000000000426e-01 -2.492593268501647752e-01
7.333499999999999375e+01 3.681700000000000017e+01 4.321200000000000330e+01 9.981134000000000839e+00 -2.333919123880610069e-01
7.333700000000000330e+01 3.667999999999999972e+01 3.675600000000000023e+01 3.552446999999999910e+00 -2.374840013865596455e-01
7.334999999999999432e+01 3.117800000000000082e+01 2.465700000000000003e+01 1.255123999999999906e+00 -1.823490499786200036e-01
7.335599999999999454e+01 3.219400000000000261e+01 4.276200000000000045e+01 7.321265000000000134e-01 -2.266759850048612468e-01
7.336599999999999966e+01 4.660799999999999699e+01 3.057199999999999918e+01 7.150699000000000360e+00 -2.512570221616472477e-01
7.337600000000000477e+01 4.163600000000000279e+01 3.642300000000000182e+01 3.751955000000000151e-01 -2.466284244620460253e-01
7.337600000000000477e+01 4.342399999999999949e+01 3.642300000000000182e+01 -8.511358999999999453e-01 -2.492193559642401635e-01
7.337999999999999545e+01 4.796699999999999875e+01 2.961400000000000077e+01 5.670151999999999859e+00 -2.517428888934084563e-01
7.337999999999999545e+01 3.227900000000000347e+01 4.123899999999999721e+01 1.773276000000000074e+00 -2.272654758573253164e-01
7.337999999999999545e+01 3.227900000000000347e+01 4.210499999999999687e+01 3.593426000000000120e-01 -2.268642235415094799e-01
7.338500000000000512e+01 3.743399999999999750e+01 2.295499999999999829e+01 -3.429164000000000101e+00 -1.707710027543020148e-01
7.338500000000000512e+01 3.764300000000000068e+01 2.221799999999999997e+01 -1.755306999999999951e+00 -1.714817332592590560e-01
7.338599999999999568e+01 4.765699999999999648e+01 2.865099999999999980e+01 -2.232521000000000200e+00 -2.513715689588233437e-01
7.338800000000000523e+01 2.867699999999999960e+01 3.709300000000000352e+01 -1.868634000000000128e+01 -1.585870201755003872e-01
7.339000000000000057e+01 4.459100000000000108e+01 2.367999999999999972e+01 7.409942000000000473e-01 -2.490027350757333391e-01
7.339700000000000557e+01 3.638300000000000267e+01 4.023799999999999955e+01 2.700082000000000093e+01 -2.338958922231956783e-01
7.339700000000000557e+01 3.659199999999999875e+01 3.950200000000000244e+01 -2.241819999999999879e+01 -2.349084218489267406e-01
7.341500000000000625e+01 4.118099999999999739e+01 3.334899999999999665e+01 1.968623000000000012e+00 -2.465204354468370218e-01
7.341599999999999682e+01 3.114600000000000080e+01 4.048100000000000165e+01 1.389255999999999958e+01 -2.270433907493973891e-01
7.342700000000000671e+01 2.744699999999999918e+01 3.627000000000000313e+01 -1.750693000000000055e+00 -1.669562990223023291e-01
7.342900000000000205e+01 3.577799999999999869e+01 2.390099999999999980e+01 -9.865009999999999613e-01 -1.723740686763608754e-01
7.344100000000000250e+01 2.723100000000000165e+01 3.361200000000000188e+01 4.355355999999999561e+00 -1.771016586706849194e-01
7.344700000000000273e+01 4.200500000000000256e+01 3.557300000000000040e+01 2.404785000000000117e-01 -2.473841873190321672e-01
7.344700000000000273e+01 4.200500000000000256e+01 3.727300000000000324e+01 -2.201950000000000074e+00 -2.471241516269415128e-01
7.344700000000000273e+01 4.305499999999999972e+01 3.557300000000000040e+01 -8.702096000000000275e-01 -2.488283857346486605e-01
7.344700000000000273e+01 4.305499999999999972e+01 3.727300000000000324e+01 -4.094960000000000377e+00 -2.487429366420064736e-01
7.345099999999999341e+01 4.759799999999999898e+01 3.046399999999999864e+01 4.980000000000000426e+00 -2.518241946499880091e-01
7.345900000000000318e+01 3.980599999999999739e+01 3.242799999999999727e+01 2.699660999999999866e-01 -2.449399323655614968e-01
7.347599999999999909e+01 3.261699999999999733e+01 4.352199999999999847e+01 -4.843276000000000359e+00 -2.266766172120340261e-01
7.348399999999999466e+01 2.378000000000000114e+01 2.532000000000000028e+01 -2.826935999999999893e+00 -9.022514545689533372e-02
7.348600000000000421e+01 3.441400000000000148e+01 2.418199999999999861e+01 2.741765000000000008e+00 -1.748656004250259688e-01
7.348799999999999955e+01 4.507999999999999829e+01 3.093900000000000006e+01 1.598434999999999917e+01 -2.504092188054881096e-01
7.349399999999999977e+01 3.942399999999999949e+01 3.167099999999999937e+01 -2.835630000000000095e-01 -2.446862752380860595e-01
7.349399999999999977e+01 2.721099999999999852e+01 3.540400000000000347e+01 -3.289995000000000003e-01 -1.710958083828147402e-01
7.350700000000000500e+01 4.285699999999999932e+01 3.337899999999999778e+01 3.055626999999999871e+00 -2.486373007603402685e-01
7.352500000000000568e+01 3.936899999999999977e+01 1.909100000000000108e+01 -3.814392999999999923e+00 -1.727093095860834371e-01
7.352800000000000580e+01 2.819600000000000151e+01 3.051500000000000057e+01 -4.604695999999999678e+00 -1.816506779478030131e-01
7.353100000000000591e+01 3.689699999999999847e+01 3.000900000000000034e+01 -5.614573000000000036e+00 -2.424318942965065504e-01
7.353799999999999670e+01 2.699800000000000111e+01 3.019099999999999895e+01 -2.656424000000000163e+01 -1.832159790366528762e-01
7.353799999999999670e+01 2.529599999999999937e+01 2.626500000000000057e+01 -1.318813000000000013e+00 -1.881701549236039495e-01
7.353900000000000148e+01 3.727300000000000324e+01 3.671900000000000119e+01 9.301441000000000514e+00 -2.385544643451052715e-01
7.354099999999999682e+01 2.561199999999999832e+01 2.773900000000000077e+01 -1.719021000000000021e-01 -1.870365560453683129e-01
7.354099999999999682e+01 2.561199999999999832e+01 2.940700000000000003e+01 9.472002999999999673e-03 -1.854661668103175787e-01
7.354600000000000648e+01 2.992899999999999849e+01 2.492899999999999849e+01 -1.659243000000000023e+00 -1.846784305853043651e-01
7.354699999999999704e+01 2.707300000000000040e+01 3.452400000000000091e+01 6.014944999999999986e+00 -1.748368016017112225e-01
7.355100000000000193e+01 4.455299999999999727e+01 3.162800000000000011e+01 5.324926999999999744e+00 -2.501578436574690700e-01
7.355299999999999727e+01 3.663600000000000279e+01 4.397800000000000153e+01 -6.327046000000000170e+00 -2.326239236254226683e-01
7.356999999999999318e+01 3.622399999999999665e+01 3.641700000000000159e+01 2.231052000000000035e+01 -2.369024227422647788e-01
7.357299999999999329e+01 2.968100000000000094e+01 3.742999999999999972e+01 1.290332999999999952e+00 -3.499999999999999778e-01
7.357399999999999807e+01 3.388499999999999801e+01 2.447800000000000153e+01 6.509204999999999686e+00 -1.756664227175211979e-01
7.358100000000000307e+01 2.475900000000000034e+01 2.584799999999999898e+01 -3.068166000000000171e+00 -8.886977107331099635e-02
7.358100000000000307e+01 2.562399999999999878e+01 2.584799999999999898e+01 -2.347611999999999810e+00 -1.881352157047825047e-01
7.359099999999999397e+01 2.820200000000000173e+01 3.203799999999999670e+01 1.919054000000000038e+00 -1.778517182590356183e-01
7.359499999999999886e+01 4.713100000000000023e+01 2.787000000000000099e+01 -5.210382000000000069e+00 -2.510597011503171716e-01
7.359999999999999432e+01 2.547800000000000153e+01 2.857300000000000040e+01 -2.179443000000000075e-01 -1.865260743318480630e-01
7.360200000000000387e+01 3.550699999999999790e+01 3.073499999999999943e+01 -4.800675000000000026e+00 -2.405556177770685478e-01
7.360299999999999443e+01 3.378699999999999903e+01 4.411299999999999955e+01 -1.185926999999999953e-01 -2.276293411536684519e-01
7.360599999999999454e+01 3.496600000000000108e+01 2.415200000000000102e+01 2.429114999999999913e+00 -1.737070422230078681e-01
7.360699999999999932e+01 3.040099999999999980e+01 4.019100000000000250e+01 1.169380999999999915e+01 -3.499999999999999778e-01
7.361100000000000421e+01 3.502199999999999847e+01 4.438300000000000267e+01 2.898854000000000042e+01 -2.294287130019723731e-01
7.361199999999999477e+01 3.407800000000000296e+01 3.631600000000000250e+01 3.119365999999999861e+00 -2.336806690163350519e-01
7.362199999999999989e+01 3.416400000000000148e+01 3.207699999999999818e+01 9.268108999999999931e-01 -3.500000000000000333e-01
7.363100000000000023e+01 2.998400000000000176e+01 3.813000000000000256e+01 2.451032000000000100e+00 -3.499999999999999778e-01
7.363200000000000500e+01 4.263499999999999801e+01 3.396800000000000352e+01 2.195614999999999928e-01 -2.484795653235913060e-01
7.363200000000000500e+01 4.130799999999999983e+01 1.910600000000000165e+01 -5.090402000000000093e+00 -2.460905031333635029e-01
7.363400000000000034e+01 4.399300000000000210e+01 3.236999999999999744e+01 6.204784000000000077e+00 -2.498337490824462659e-01
7.363899999999999579e+01 3.218200000000000216e+01 2.459700000000000131e+01 4.344991000000000270e+00 -1.798816690951101915e-01
7.364000000000000057e+01 2.445599999999999952e+01 2.514799999999999969e+01 -2.723262000000000072e+00 -8.946167462567977680e-02
7.364199999999999591e+01 4.262299999999999756e+01 3.475800000000000267e+01 -4.643743000000000176e-01 -2.484612586088281727e-01
7.364300000000000068e+01 3.272899999999999920e+01 3.364999999999999858e+01 3.306792000000000176e+00 -3.500000000000000333e-01
7.364300000000000068e+01 3.293800000000000239e+01 3.291400000000000148e+01 -8.592054999999999554e-01 -3.499999999999999778e-01
7.364799999999999613e+01 4.566700000000000159e+01 2.443799999999999883e+01 -4.379029999999999867e-01 -2.497186242681864454e-01
7.364900000000000091e+01 2.850499999999999901e+01 3.133800000000000097e+01 1.976936999999999944e+00 -1.786535552145234185e-01
7.365099999999999625e+01 4.310099999999999909e+01 2.312300000000000111e+01 -9.976679000000000741e+00 -2.482905536489341536e-01
7.367100000000000648e+01 2.425199999999999889e+01 2.613299999999999912e+01 -2.431543000000000010e+00 -8.957142088367975319e-02
7.367300000000000182e+01 4.625800000000000267e+01 2.646799999999999997e+01 2.115870000000000140e+00 -2.503742766983457213e-01
7.367300000000000182e+01 4.646699999999999875e+01 2.720400000000000063e+01 -6.729442999999999842e+00 -2.506281772142250341e-01
7.368099999999999739e+01 3.755899999999999750e+01 3.007700000000000173e+01 -7.348282000000000203e+00 -2.431433712936577618e-01
7.368800000000000239e+01 2.701399999999999935e+01 2.502100000000000080e+01 -1.038726999999999956e+00 -1.873728639111175154e-01
7.370900000000000318e+01 4.279699999999999704e+01 2.242299999999999827e+01 -2.986952000000000140e+01 -2.481116160072169285e-01
7.371099999999999852e+01 2.298100000000000165e+01 2.532000000000000028e+01 -2.107174000000000103e+00 -9.144958662306491848e-02
7.371699999999999875e+01 3.869200000000000017e+01 3.083599999999999852e+01 -5.135874000000000272e+00 -2.441508752147176220e-01
7.371699999999999875e+01 2.791700000000000159e+01 3.703000000000000114e+01 -1.565504000000000007e+00 -1.618498112353100593e-01
7.373000000000000398e+01 3.304299999999999926e+01 3.471500000000000341e+01 -6.809585000000000221e+00 -3.499999999999999778e-01
7.373099999999999454e+01 4.292199999999999704e+01 2.152299999999999969e+01 -3.047382999999999953e+01 -2.481298336326036580e-01
7.373300000000000409e+01 3.592399999999999949e+01 4.445799999999999841e+01 2.673584999999999923e+01 -2.308916583745753426e-01
7.373699999999999477e+01 4.404299999999999926e+01 2.316499999999999915e+01 -2.999608999999999970e+00 -2.488013252974215772e-01
7.373900000000000432e+01 3.634100000000000108e+01 4.102900000000000347e+01 4.343598999999999677e+01 -2.328602289614832288e-01
7.373999999999999488e+01 4.839200000000000301e+01 2.867200000000000060e+01 -3.444450000000000012e-01 -2.519019790428098093e-01
7.374299999999999500e+01 3.748199999999999932e+01 3.817000000000000171e+01 -3.578653999999999780e+00 -2.377323672704113044e-01
