2.070800000000000196e+00 6.964900000000000091e+01 9.305100000000000193e+01 1.378331000000000017e+01 -9.024465381631838201e-02
2.074500000000000011e+00 6.821299999999999386e+01 9.283899999999999864e+01 7.435696000000000083e+00 -9.201571892220106186e-02
2.080999999999999961e+00 7.341500000000000625e+01 9.587600000000000477e+01 1.533120000000000083e+01 -2.434199393814314438e-01
2.096200000000000063e+00 6.810200000000000387e+01 8.244499999999999318e+01 1.858558000000000021e+01 -3.500000000000000333e-01
2.100900000000000212e+00 8.407200000000000273e+01 8.707200000000000273e+01 9.810651999999999262e+00 -3.499999999999999778e-01
2.103699999999999903e+00 7.039700000000000557e+01 8.843099999999999739e+01 4.693870999999999682e+00 -8.493141902332314308e-02
2.104999999999999982e+00 6.686100000000000421e+01 7.845000000000000284e+01 4.102276999999999951e+00 -3.499999999999999778e-01
2.111600000000000144e+00 7.068000000000000682e+01 8.014799999999999613e+01 2.536614000000000146e+01 -3.500000000000000333e-01
2.118399999999999839e+00 6.711299999999999955e+01 9.419499999999999318e+01 4.495574000000000403e+00 -9.165882705600499059e-02
2.120200000000000085e+00 6.459499999999999886e+01 8.758100000000000307e+01 1.002988999999999997e+01 -3.499999999999999778e-01
2.124600000000000044e+00 7.094100000000000250e+01 9.801000000000000512e+01 2.786541000000000068e+01 1.578760411145738521e-02
2.128699999999999815e+00 8.201999999999999602e+01 9.754900000000000659e+01 1.008966000000000030e+01 -1.394428090269761722e-01
2.133599999999999941e+00 8.506300000000000239e+01 9.115999999999999659e+01 4.475342000000000375e+00 -1.352757505086356615e-01
2.142999999999999794e+00 6.361800000000000210e+01 8.919899999999999807e+01 7.528851000000000404e+00 -3.499999999999999778e-01
2.143699999999999939e+00 6.622899999999999920e+01 9.306999999999999318e+01 1.036707999999999963e+01 -3.499999999999999778e-01
2.156000000000000139e+00 6.277300000000000324e+01 8.648499999999999943e+01 8.687167999999999779e+00 -3.500000000000000333e-01
2.173000000000000043e+00 6.896200000000000330e+01 8.256799999999999784e+01 1.307729999999999926e+01 -8.412534496914514381e-02
2.175699999999999967e+00 7.139300000000000068e+01 9.759600000000000364e+01 1.875816999999999979e+01 1.665822908060835689e-02
2.178500000000000103e+00 6.334700000000000131e+01 8.843200000000000216e+01 5.438158999999999743e+00 -3.499999999999999778e-01
2.185700000000000198e+00 6.489000000000000057e+01 9.219499999999999318e+01 9.118033999999999750e+00 -3.499999999999999778e-01
2.196000000000000174e+00 8.633199999999999363e+01 9.217700000000000671e+01 9.026702000000000226e+00 -1.365168965078965291e-01
2.196000000000000174e+00 8.633199999999999363e+01 9.322700000000000387e+01 9.052754000000000190e+00 -1.373138404804341850e-01
2.198399999999999910e+00 7.023000000000000398e+01 9.119299999999999784e+01 7.348412999999999862e+00 -8.737855066740153609e-02
2.200899999999999856e+00 8.441800000000000637e+01 9.070999999999999375e+01 4.837269000000000041e+00 -1.346599760409368796e-01
2.211300000000000043e+00 7.103499999999999659e+01 8.778499999999999659e+01 3.868370000000000086e+00 -8.338192282603766603e-02
2.222300000000000164e+00 6.595999999999999375e+01 1.013499999999999943e+02 1.759978000000000042e+00 -1.671792006757695515e-01
2.237299999999999844e+00 6.784499999999999886e+01 9.213899999999999579e+01 8.242979000000000056e+00 -9.158989285908364364e-02
2.240099999999999980e+00 6.358400000000000318e+01 9.035500000000000398e+01 8.377734000000000236e+00 -3.499999999999999778e-01
2.241200000000000081e+00 8.018099999999999739e+01 8.325799999999999557e+01 1.081445999999999907e+00 -3.499999999999999778e-01
2.241999999999999993e+00 6.929200000000000159e+01 8.928100000000000591e+01 4.759961999999999804e+00 -8.749403927271690029e-02
2.244299999999999962e+00 6.711599999999999966e+01 1.040000000000000000e+02 4.846604000000000134e+00 -6.175231681052226890e-02
2.245000000000000107e+00 6.702500000000000568e+01 9.560899999999999466e+01 2.919934000000000029e+00 -3.499999999999999778e-01
2.245000000000000107e+00 6.702500000000000568e+01 9.656699999999999307e+01 3.610552999999999901e+00 -3.500000000000000888e-01
2.246700000000000141e+00 6.587399999999999523e+01 8.735200000000000387e+01 1.081630000000000091e+00 -3.499999999999999778e-01
2.249000000000000110e+00 8.281999999999999318e+01 8.145799999999999841e+01 2.674395000000000078e+00 -3.499999999999999778e-01
2.249000000000000110e+00 8.426600000000000534e+01 8.226399999999999579e+01 6.284518000000000271e+00 -3.499999999999999778e-01
2.249000000000000110e+00 8.451999999999999602e+01 8.315800000000000125e+01 9.169015999999999167e+00 -3.499999999999999778e-01
2.253299999999999859e+00 6.713400000000000034e+01 9.736799999999999500e+01 3.532213000000000047e+00 -3.499999999999999778e-01
2.261600000000000055e+00 7.809000000000000341e+01 9.720799999999999841e+01 4.259469000000000172e+00 -2.405480494098985456e-01
2.264400000000000190e+00 6.589900000000000091e+01 8.132099999999999795e+01 2.634862000000000037e+00 -3.499999999999999778e-01
2.266000000000000014e+00 6.458499999999999375e+01 1.022699999999999960e+02 1.519012000000000029e+00 -1.648162653734122352e-01
2.266000000000000014e+00 6.458499999999999375e+01 1.033199999999999932e+02 2.087366999999999972e+00 -1.657764033650890034e-01
2.266000000000000014e+00 6.458499999999999375e+01 1.041800000000000068e+02 1.137113000000000040e+00 -5.647484505244067948e-02
2.266000000000000014e+00 6.733499999999999375e+01 1.022699999999999960e+02 2.607075000000000031e+00 -6.232402334555644380e-02
2.266000000000000014e+00 6.733499999999999375e+01 1.033199999999999932e+02 1.552796000000000021e+01 -6.225706536563634097e-02
2.270199999999999996e+00 6.841599999999999682e+01 8.896099999999999852e+01 3.725563000000000180e+00 -8.872816448596790306e-02
2.271300000000000097e+00 6.581100000000000705e+01 1.067300000000000040e+02 3.033699000000000257e-01 -1.663365065753715788e-01
2.274000000000000021e+00 6.192600000000000193e+01 8.648499999999999943e+01 5.024534000000000056e+00 -3.499999999999999778e-01
2.277299999999999880e+00 8.168500000000000227e+01 8.137900000000000489e+01 2.092544000000000182e+00 -3.499999999999999778e-01
2.278900000000000148e+00 8.426600000000000534e+01 8.631199999999999761e+01 2.676371999999999929e+01 -3.500000000000000333e-01
2.284199999999999786e+00 6.976000000000000512e+01 8.256799999999999784e+01 7.823019000000000389e+00 -8.298333966240670212e-02
2.289000000000000146e+00 7.914100000000000534e+01 9.825100000000000477e+01 3.821187000000000111e+00 -1.389164898122182967e-01
2.289299999999999891e+00 7.132299999999999329e+01 8.697100000000000364e+01 2.748226999999999975e+00 -8.240768800363332258e-02
2.295599999999999863e+00 8.461499999999999488e+01 8.395300000000000296e+01 1.039475999999999978e+01 -3.499999999999999778e-01
2.303700000000000081e+00 7.225300000000000011e+01 8.522599999999999909e+01 1.850311000000000039e+00 -8.002835716693226797e-02
2.307700000000000085e+00 6.327700000000000102e+01 8.729999999999999716e+01 1.022573000000000043e+01 -3.499999999999999778e-01
2.312500000000000000e+00 6.537199999999999989e+01 8.697299999999999898e+01 1.682382999999999962e+00 -3.499999999999999778e-01
2.314999999999999947e+00 6.443600000000000705e+01 1.047500000000000000e+02 1.086376999999999926e+00 -1.655887540076182440e-01
2.314999999999999947e+00 6.443600000000000705e+01 1.057999999999999972e+02 9.747403000000000040e-01 -1.650271880267875635e-01
2.314999999999999947e+00 6.718600000000000705e+01 1.047500000000000000e+02 4.095303999999999611e+00 -1.690433917516463436e-01
2.314999999999999947e+00 6.718600000000000705e+01 1.057999999999999972e+02 1.813023999999999969e+00 -1.686551915978082017e-01
2.320399999999999796e+00 7.321699999999999875e+01 8.473099999999999454e+01 2.789070000000000160e+00 -7.823143385567651875e-02
2.321000000000000174e+00 8.031000000000000227e+01 8.229999999999999716e+01 2.020474000000000103e+00 -3.499999999999999778e-01
2.322000000000000064e+00 6.582299999999999329e+01 8.035399999999999920e+01 2.272022000000000208e+00 -3.499999999999999778e-01
2.332699999999999996e+00 6.713200000000000500e+01 8.225600000000000023e+01 7.196524000000000143e+00 -3.499999999999999778e-01
2.334299999999999820e+00 6.621099999999999852e+01 7.937600000000000477e+01 2.115152000000000143e+00 -3.500000000000000333e-01
2.336699999999999999e+00 6.720600000000000307e+01 9.909199999999999875e+01 3.131669000000000036e+00 -1.677284815189454270e-01
2.338000000000000078e+00 7.670399999999999352e+01 9.627599999999999625e+01 8.374767999999999546e+00 -2.409649923487508227e-01
2.347900000000000098e+00 7.564499999999999602e+01 8.468999999999999773e+01 4.106861000000000317e+00 -3.500000000000000333e-01
2.347900000000000098e+00 7.828300000000000125e+01 8.468999999999999773e+01 3.449361999999999817e+00 -3.499999999999999778e-01
2.351100000000000190e+00 7.022700000000000387e+01 9.221800000000000352e+01 7.122354999999999769e+00 -8.835460415982657190e-02
2.351599999999999913e+00 6.396999999999999886e+01 8.718500000000000227e+01 1.051675999999999966e+01 -3.499999999999999778e-01
2.351599999999999913e+00 6.483499999999999375e+01 8.718500000000000227e+01 2.493186000000000124e+00 -3.499999999999999778e-01
2.352100000000000080e+00 6.288199999999999790e+01 8.766500000000000625e+01 5.945820999999999579e+00 -3.500000000000000333e-01
2.358999999999999986e+00 7.082299999999999329e+01 8.125600000000000023e+01 8.641560000000000130e+00 -8.105551423496715202e-02
2.361000000000000210e+00 8.368600000000000705e+01 8.819599999999999795e+01 8.945805999999999258e+00 -3.500000000000000333e-01
2.370000000000000107e+00 6.708100000000000307e+01 9.826500000000000057e+01 4.920097000000000165e+00 -8.921560885642682015e-02
2.370000000000000107e+00 6.863100000000000023e+01 9.981499999999999773e+01 3.265660000000000007e+00 -1.688940238492402657e-01
2.380999999999999783e+00 6.716599999999999682e+01 8.817100000000000648e+01 -2.482850000000000001e+00 -3.499999999999999778e-01
2.387100000000000222e+00 6.909499999999999886e+01 9.297700000000000387e+01 1.482427000000000028e+01 -9.130075188421631072e-02
2.401299999999999990e+00 6.618399999999999750e+01 8.184600000000000364e+01 5.939742999999999995e+00 -3.499999999999999778e-01
2.406000000000000139e+00 6.128300000000000125e+01 8.669599999999999795e+01 7.881580999999999726e+00 -3.500000000000000333e-01
2.409899999999999931e+00 6.366700000000000159e+01 8.648499999999999943e+01 2.264004999999999868e+01 -3.499999999999999778e-01
2.422000000000000153e+00 7.422899999999999920e+01 9.615999999999999659e+01 2.179696999999999996e+00 -2.429104854155236526e-01
2.426499999999999879e+00 6.684600000000000364e+01 1.013599999999999994e+02 1.150884000000000018e+00 -6.143567558190497074e-02
2.430400000000000116e+00 7.417400000000000659e+01 8.459799999999999898e+01 2.842770000000000152e+01 -3.500000000000000333e-01
2.436999999999999833e+00 6.537199999999999989e+01 8.550499999999999545e+01 -5.396427000000000085e+00 -3.499999999999999778e-01
2.446000000000000174e+00 7.202299999999999613e+01 8.333299999999999841e+01 -6.522094000000000058e+00 -7.978027579578936268e-02
2.453399999999999803e+00 7.126999999999999602e+01 8.328499999999999659e+01 -4.040966999999999754e-01 -8.094391583532470347e-02
2.456999999999999851e+00 8.445900000000000318e+01 8.555299999999999727e+01 3.144780000000000086e+01 -3.499999999999999778e-01
2.456999999999999851e+00 8.471299999999999386e+01 8.465900000000000603e+01 1.532236999999999938e+01 -3.500000000000000333e-01
2.469100000000000072e+00 6.779000000000000625e+01 7.833899999999999864e+01 3.900844000000000200e+00 -3.499999999999999778e-01
2.475999999999999979e+00 7.970499999999999829e+01 8.385999999999999943e+01 -8.918584999999999985e-01 -3.500000000000000333e-01
2.478200000000000180e+00 6.866700000000000159e+01 8.990000000000000568e+01 1.211674000000000007e+01 -8.911975989328412007e-02
2.478200000000000180e+00 6.953199999999999648e+01 8.866200000000000614e+01 3.845946999999999782e+00 -8.662233289755093268e-02
2.478200000000000180e+00 6.953199999999999648e+01 8.990000000000000568e+01 6.331280999999999715e+00 -8.759352263396942562e-02
2.480700000000000127e+00 6.138199999999999790e+01 8.733499999999999375e+01 6.072333000000000425e+00 -3.500000000000000333e-01
2.480700000000000127e+00 6.224799999999999756e+01 8.563500000000000512e+01 3.219806999999999864e+00 -3.500000000000000333e-01
2.480700000000000127e+00 6.224799999999999756e+01 8.733499999999999375e+01 8.427882999999999569e+00 -3.499999999999999223e-01
2.480700000000000127e+00 6.329800000000000182e+01 8.563500000000000512e+01 6.389078999999999731e+00 -3.499999999999999778e-01
2.487000000000000099e+00 7.189700000000000557e+01 9.678100000000000591e+01 8.330361999999999156e+00 1.762241868327615868e-02
2.495200000000000085e+00 8.359399999999999409e+01 8.886700000000000443e+01 6.183279999999999887e+00 -3.499999999999999778e-01
2.509100000000000108e+00 7.546299999999999386e+01 1.013599999999999994e+02 8.136400000000000077e+00 -2.446860574531683208e-01
2.509100000000000108e+00 7.546299999999999386e+01 1.040000000000000000e+02 1.896535000000000082e+01 -2.439695486015746595e-01
2.513599999999999834e+00 7.271500000000000341e+01 9.614300000000000068e+01 1.298512999999999984e+01 1.916895816291629834e-02
2.517999999999999794e+00 7.014100000000000534e+01 8.781499999999999773e+01 2.214230000000000143e+00 -8.496629518859591390e-02
2.520700000000000163e+00 8.580700000000000216e+01 9.132699999999999818e+01 3.823643999999999821e+00 -1.353104765687260791e-01
2.520700000000000163e+00 8.580700000000000216e+01 9.407699999999999818e+01 7.662447000000000230e+00 -1.373690697270101846e-01
2.524000000000000021e+00 6.037500000000000000e+01 9.123000000000000398e+01 4.319005999999999901e+00 -3.499999999999999778e-01
2.526100000000000012e+00 6.837300000000000466e+01 9.076200000000000045e+01 2.633463000000000065e+01 -9.041498133722444819e-02
2.529300000000000104e+00 6.974500000000000455e+01 7.883299999999999841e+01 1.209220000000000006e+01 -3.499999999999999778e-01
2.536500000000000199e+00 6.983599999999999852e+01 9.059999999999999432e+01 4.282567000000000235e+00 -8.763765208881241220e-02
2.539099999999999913e+00 8.298600000000000421e+01 9.624500000000000455e+01 1.454110000000000014e+01 -1.379431170108857130e-01
2.540299999999999780e+00 7.696399999999999864e+01 8.418600000000000705e+01 3.056665000000000187e+00 -3.499999999999999778e-01
2.548299999999999788e+00 8.271200000000000330e+01 9.708599999999999852e+01 1.204395000000000060e+01 -1.387627303895025699e-01
2.548799999999999955e+00 6.254999999999999716e+01 8.812000000000000455e+01 1.003387000000000029e+01 -3.499999999999999778e-01
2.548999999999999932e+00 7.420900000000000318e+01 1.022000000000000028e+02 1.826661000000000001e+01 -2.451935524271030009e-01
2.548999999999999932e+00 7.671699999999999875e+01 1.022000000000000028e+02 2.331379000000000090e+01 -2.437756704453803436e-01
2.548999999999999932e+00 7.671699999999999875e+01 1.031599999999999966e+02 6.414703000000000088e+01 -2.434862502506752180e-01
2.564900000000000180e+00 6.434600000000000364e+01 8.559199999999999875e+01 2.045603999999999978e+00 -3.500000000000000333e-01
2.570600000000000218e+00 6.620600000000000307e+01 8.696399999999999864e+01 -1.115870000000000056e-01 -3.499999999999999778e-01
2.572799999999999976e+00 8.388400000000000034e+01 8.984099999999999397e+01 1.005974999999999930e+01 -3.499999999999999778e-01
2.578599999999999781e+00 8.361599999999999966e+01 9.545499999999999829e+01 1.140217999999999954e+01 -1.373834578740452395e-01
2.579899999999999860e+00 6.489799999999999613e+01 8.627299999999999613e+01 -1.081561999999999912e+00 -3.499999999999999778e-01
2.583699999999999886e+00 6.546399999999999864e+01 9.293600000000000705e+01 9.294136999999999205e+00 -3.500000000000000333e-01
2.584999999999999964e+00 6.447700000000000387e+01 8.476800000000000068e+01 2.387490999999999808e+00 -3.499999999999999778e-01
2.588900000000000201e+00 7.249699999999999989e+01 8.410099999999999909e+01 1.383904999999999941e+00 -7.918968806184584208e-02
2.590700000000000003e+00 6.510999999999999943e+01 1.014200000000000017e+02 1.412150000000000016e+00 -1.649614894397863629e-01
2.591099999999999959e+00 6.667600000000000193e+01 8.739700000000000557e+01 -7.841439999999999522e-01 -3.499999999999999778e-01
2.600099999999999856e+00 7.011400000000000432e+01 7.968300000000000693e+01 4.273870999999999754e+01 -3.499999999999999778e-01
2.600299999999999834e+00 8.484199999999999875e+01 9.461799999999999500e+01 1.373975000000000080e+01 -1.372089345657715453e-01
2.600299999999999834e+00 7.050000000000000000e+01 9.868300000000000693e+01 1.557309999999999972e+00 1.459230720160313924e-02
2.601599999999999913e+00 6.171600000000000108e+01 8.576600000000000534e+01 2.752753999999999923e+00 -3.499999999999999778e-01
2.605399999999999938e+00 6.668999999999999773e+01 9.377299999999999613e+01 7.022092999999999918e+00 -9.128597366927213019e-02
2.614599999999999813e+00 6.782099999999999795e+01 1.000199999999999960e+02 6.224407000000000245e+00 -6.330890256476036371e-02
2.614700000000000024e+00 7.312600000000000477e+01 8.403300000000000125e+01 2.103819999999999801e+00 -7.811842348219708021e-02
2.616299999999999848e+00 6.275999999999999801e+01 9.048199999999999932e+01 6.895312999999999803e+00 -3.499999999999999778e-01
2.616899999999999782e+00 6.285099999999999909e+01 8.890600000000000591e+01 5.596027000000000307e+00 -3.500000000000000333e-01
2.617399999999999949e+00 7.402100000000000080e+01 1.031500000000000057e+02 5.041274999999999729e+00 -2.451084557166202660e-01
2.619000000000000217e+00 6.440300000000000580e+01 8.648499999999999943e+01 9.437872000000000483e+00 -3.499999999999999778e-01
2.628899999999999793e+00 6.590300000000000580e+01 8.626399999999999579e+01 -2.965844999999999843e+00 -3.499999999999999778e-01
2.636400000000000077e+00 6.850900000000000034e+01 7.843699999999999761e+01 3.205480000000000107e+00 -2.537823519953147366e-01
2.639699999999999935e+00 6.496099999999999852e+01 1.066500000000000057e+02 1.263562000000000074e+00 -1.652484611348208898e-01
2.639699999999999935e+00 6.666100000000000136e+01 1.066500000000000057e+02 -3.451289000000000162e-01 -1.676479042725777246e-01
2.645700000000000163e+00 8.083499999999999375e+01 8.145000000000000284e+01 2.343930999999999987e+00 -3.499999999999999778e-01
2.651699999999999946e+00 7.058100000000000307e+01 8.704999999999999716e+01 1.917705999999999911e+00 -8.371700700335785172e-02
2.653099999999999792e+00 8.006999999999999318e+01 9.836199999999999477e+01 4.067104999999999748e+00 -1.389929371350966114e-01
2.657000000000000028e+00 6.676500000000000057e+01 7.851399999999999579e+01 2.063117000000000090e+00 -3.499999999999999778e-01
2.657700000000000173e+00 6.316400000000000148e+01 8.968699999999999761e+01 9.350042000000000186e+00 -3.499999999999999778e-01
2.659899999999999931e+00 6.038900000000000290e+01 8.669599999999999795e+01 4.686721000000000359e+00 -3.499999999999999778e-01
2.662199999999999900e+00 6.125500000000000256e+01 9.128300000000000125e+01 4.565788999999999653e+00 -3.499999999999999778e-01
2.664000000000000146e+00 6.617100000000000648e+01 8.550499999999999545e+01 -3.534292000000000211e+00 -3.499999999999999778e-01
2.665999999999999925e+00 6.390400000000000347e+01 9.151500000000000057e+01 8.282209999999999184e+00 -3.499999999999999778e-01
2.673000000000000043e+00 7.282200000000000273e+01 8.333299999999999841e+01 -1.790437999999999974e+00 -3.499999999999999778e-01
2.680800000000000072e+00 6.859699999999999420e+01 8.305899999999999750e+01 1.124325999999999937e+01 -8.483099879576563862e-02
2.680800000000000072e+00 6.932699999999999818e+01 8.305899999999999750e+01 4.898681999999999981e+00 -8.377187045314668512e-02
2.680800000000000072e+00 7.019299999999999784e+01 8.305899999999999750e+01 1.889990000000000059e+00 -8.248221501297388347e-02
2.682300000000000129e+00 7.148099999999999454e+01 8.647499999999999432e+01 2.707161000000000151e+00 -8.181815179241419544e-02
2.689900000000000180e+00 6.759199999999999875e+01 8.288200000000000500e+01 1.484556000000000076e+01 -3.499999999999999778e-01
2.693900000000000183e+00 6.727899999999999636e+01 1.006599999999999966e+02 1.588297000000000070e+00 -6.226521576402398173e-02
2.697900000000000187e+00 7.130700000000000216e+01 8.173099999999999454e+01 3.660426999999999875e+00 -3.500000000000000333e-01
2.701499999999999790e+00 6.665999999999999659e+01 1.009399999999999977e+02 1.786397999999999930e+00 -6.107869840003152945e-02
2.706900000000000084e+00 6.576099999999999568e+01 8.260099999999999909e+01 4.616222999999999743e+00 -3.500000000000000888e-01
2.711199999999999832e+00 7.514499999999999602e+01 9.672499999999999432e+01 1.193059000000000092e+00 -2.425220333562583264e-01
2.711199999999999832e+00 7.608299999999999841e+01 9.672499999999999432e+01 7.080929999999999724e-01 -2.417055576149390039e-01
2.712600000000000122e+00 6.668800000000000239e+01 8.266100000000000136e+01 1.040077999999999925e+01 -3.500000000000000888e-01
2.717299999999999827e+00 7.755599999999999739e+01 9.674299999999999500e+01 7.379875000000000185e+00 -2.403991194720324354e-01
2.722700000000000120e+00 7.464100000000000534e+01 1.040100000000000051e+02 8.446528000000000702e+00 -2.445762336543850224e-01
2.727300000000000058e+00 6.584199999999999875e+01 8.474500000000000455e+01 1.396627000000000063e+00 -3.499999999999999778e-01
2.730700000000000127e+00 6.075800000000000267e+01 8.584600000000000364e+01 2.606386000000000092e+00 -3.500000000000000333e-01
2.730700000000000127e+00 6.075800000000000267e+01 8.754600000000000648e+01 5.767120000000000246e+00 -3.499999999999999778e-01
2.736000000000000210e+00 6.434000000000000341e+01 9.177299999999999613e+01 1.626445999999999970e+01 -3.500000000000000333e-01
2.736299999999999955e+00 7.155299999999999727e+01 8.409300000000000352e+01 1.004534999999999956e+00 -8.070543039795655127e-02
2.736299999999999955e+00 7.249299999999999500e+01 8.257299999999999329e+01 2.344008000000000091e+00 -3.499999999999999778e-01
2.743100000000000094e+00 7.495499999999999829e+01 8.463899999999999579e+01 1.553332999999999942e+01 -3.499999999999999778e-01
2.745600000000000041e+00 6.909999999999999432e+01 9.059999999999999432e+01 4.261533000000000015e+00 -8.902545234442708899e-02
2.748000000000000220e+00 6.181499999999999773e+01 8.803499999999999659e+01 5.668345999999999663e+00 -3.499999999999999778e-01
2.748000000000000220e+00 6.373100000000000165e+01 8.493500000000000227e+01 2.373737000000000208e+00 -3.499999999999999778e-01
2.754999999999999893e+00 5.832600000000000051e+01 9.395799999999999841e+01 4.868155000000000121e-01 -3.499999999999999778e-01
2.763100000000000112e+00 6.535500000000000398e+01 8.083700000000000330e+01 1.822246999999999950e+00 -3.500000000000000333e-01
2.764299999999999979e+00 7.847899999999999920e+01 9.762500000000000000e+01 5.484156999999999726e+00 -2.402771483304673994e-01
2.766999999999999904e+00 6.571999999999999886e+01 7.977299999999999613e+01 2.344406000000000212e+00 -3.500000000000000333e-01
2.770900000000000141e+00 6.536100000000000421e+01 8.173099999999999454e+01 2.083870000000000111e+00 -3.500000000000000333e-01
2.774300000000000210e+00 8.367000000000000171e+01 8.178300000000000125e+01 6.918961999999999612e+00 -3.499999999999999778e-01
2.777899999999999814e+00 5.948100000000000165e+01 9.123000000000000398e+01 2.008471000000000117e+00 -3.499999999999999778e-01
2.783700000000000063e+00 6.866200000000000614e+01 9.108599999999999852e+01 8.404479999999999507e+00 -9.028064117716724790e-02
2.783700000000000063e+00 6.866200000000000614e+01 9.248600000000000421e+01 9.755667000000000755e+00 -9.170796625143706748e-02
2.783700000000000063e+00 6.952700000000000102e+01 9.108599999999999852e+01 4.227365999999999957e+00 -8.869290417062657139e-02
2.783700000000000063e+00 6.952700000000000102e+01 9.248600000000000421e+01 9.120440999999999576e+00 -9.007959819954634850e-02
2.791599999999999859e+00 7.012300000000000466e+01 8.098900000000000432e+01 9.004348999999999492e+00 -8.190943283509144468e-02
2.813600000000000101e+00 6.765699999999999648e+01 8.856799999999999784e+01 -2.004766000000000048e+00 -8.974329424638530228e-02
2.813600000000000101e+00 6.905700000000000216e+01 8.856799999999999784e+01 1.944512999999999936e+00 -8.740461434308895161e-02
2.817000000000000171e+00 7.341500000000000625e+01 9.608499999999999375e+01 8.252943000000000140e+00 -8.545804008950542985e-02
2.824600000000000222e+00 7.120799999999999841e+01 9.844199999999999307e+01 6.127341999999999622e+00 1.583176306502952907e-02
2.825899999999999856e+00 6.944400000000000261e+01 9.965600000000000591e+01 6.017314999999999969e+01 -2.461751123259864060e-01
2.826000000000000068e+00 6.211500000000000199e+01 8.890600000000000591e+01 5.083242000000000260e+00 -3.499999999999999778e-01
2.826999999999999957e+00 7.374099999999999966e+01 8.410699999999999932e+01 5.754253000000000284e+00 -3.499999999999999778e-01
2.837000000000000188e+00 6.896200000000000330e+01 8.375900000000000034e+01 -6.876985999999999599e+00 -8.461447646092015717e-02
2.837899999999999867e+00 6.270799999999999841e+01 8.500900000000000034e+01 2.398954999999999949e+00 -3.499999999999999778e-01
2.840700000000000003e+00 6.688599999999999568e+01 9.458499999999999375e+01 1.429579000000000022e+01 -9.171186683227548764e-02
2.842000000000000082e+00 6.835899999999999466e+01 9.178600000000000136e+01 2.085095000000000098e+01 -9.153901381135085003e-02
2.842000000000000082e+00 6.983100000000000307e+01 9.178600000000000136e+01 2.064843999999999902e+00 -8.879339972578738360e-02
2.845000000000000195e+00 7.623799999999999955e+01 1.014200000000000017e+02 1.670763000000000176e+01 -2.443980374044413539e-01
2.845000000000000195e+00 7.623799999999999955e+01 1.039300000000000068e+02 7.548708000000000595e+01 -2.436764904007229782e-01
2.845499999999999918e+00 6.184499999999999886e+01 9.047799999999999443e+01 1.745897000000000077e+01 -3.500000000000000333e-01
2.848700000000000010e+00 5.985000000000000142e+01 9.037999999999999545e+01 3.564405999999999963e+00 -3.499999999999999778e-01
2.848700000000000010e+00 5.985000000000000142e+01 9.207999999999999829e+01 7.233489999999999753e+00 -3.499999999999999778e-01
2.848700000000000010e+00 6.089999999999999858e+01 9.037999999999999545e+01 7.013060000000000294e+00 -3.499999999999999778e-01
2.848700000000000010e+00 6.089999999999999858e+01 9.207999999999999829e+01 1.210835999999999935e+01 -3.499999999999999778e-01
2.861000000000000210e+00 6.694100000000000250e+01 8.307500000000000284e+01 2.021696999999999989e+01 -3.500000000000000333e-01
2.870400000000000063e+00 6.535500000000000398e+01 8.327899999999999636e+01 2.442435000000000134e+00 -3.499999999999999778e-01
2.872100000000000097e+00 6.901800000000000068e+01 7.863899999999999579e+01 8.049770999999999788e+00 -2.533719553924874690e-01
2.874400000000000066e+00 6.225099999999999767e+01 9.135200000000000387e+01 9.384432000000000329e+00 -3.500000000000000333e-01
2.875700000000000145e+00 7.145199999999999818e+01 9.789900000000000091e+01 3.526327999999999907e+00 1.641855907309807544e-02
2.875999999999999890e+00 8.421800000000000352e+01 8.754200000000000159e+01 -1.268343999999999916e+01 -3.499999999999999223e-01
2.876599999999999824e+00 8.313200000000000500e+01 9.679300000000000637e+01 1.114157999999999937e+01 -1.382492977600184303e-01
2.878800000000000026e+00 7.459799999999999898e+01 1.012900000000000063e+02 8.468220999999999776e+00 -2.453549490370606490e-01
2.880599999999999827e+00 6.225000000000000000e+01 8.974200000000000443e+01 7.755507999999999846e+00 -3.499999999999999778e-01
2.889699999999999935e+00 6.492400000000000659e+01 8.395499999999999829e+01 3.159733999999999821e+00 -3.499999999999999778e-01
2.896199999999999886e+00 6.557200000000000273e+01 8.387300000000000466e+01 2.070434999999999803e+00 -3.499999999999999778e-01
2.908700000000000063e+00 7.611400000000000432e+01 8.425700000000000500e+01 3.984941000000000066e+00 -3.499999999999999778e-01
2.908700000000000063e+00 7.781399999999999295e+01 8.425700000000000500e+01 6.840742999999999796e+00 -3.499999999999999778e-01
2.908700000000000063e+00 7.921399999999999864e+01 8.425700000000000500e+01 -3.052523999999999793e-01 -3.499999999999999778e-01
2.911999999999999922e+00 7.381799999999999784e+01 1.035400000000000063e+02 6.920897000000000077e+00 -2.452932370536279882e-01
2.919599999999999973e+00 7.238800000000000523e+01 9.638500000000000512e+01 1.872659000000000162e+01 1.845370364477218889e-02
2.935299999999999798e+00 5.880799999999999983e+01 9.316100000000000136e+01 6.045648999999999607e-01 -3.499999999999999778e-01
2.939799999999999969e+00 8.536299999999999955e+01 9.076399999999999579e+01 2.797508000000000106e+00 -1.342729518755485518e-01
2.949699999999999989e+00 7.191400000000000148e+01 8.490999999999999659e+01 -3.214916999999999803e+00 -8.034650045995898882e-02
2.949699999999999989e+00 7.191400000000000148e+01 8.577500000000000568e+01 1.995009000000000032e+00 -8.068442153086620439e-02
2.959400000000000031e+00 6.814600000000000080e+01 8.378799999999999670e+01 7.152157000000000098e-01 -8.583263057611921487e-02
2.959400000000000031e+00 6.977800000000000580e+01 8.378799999999999670e+01 -7.011688000000000365e+00 -8.338057811184236556e-02
2.968900000000000095e+00 6.709300000000000352e+01 9.937900000000000489e+01 3.819214000000000109e+00 -1.672577466682207414e-01
2.968900000000000095e+00 6.709300000000000352e+01 1.002399999999999949e+02 2.954848999999999948e-01 -6.191387295679996738e-02
2.969399999999999817e+00 6.320400000000000063e+01 9.145699999999999363e+01 7.867937000000000403e+00 -3.500000000000000333e-01
2.970600000000000129e+00 7.066200000000000614e+01 8.381799999999999784e+01 -3.248603000000000129e+00 -8.200426314003904371e-02
2.971999999999999975e+00 6.412399999999999523e+01 1.043700000000000045e+02 3.684210000000000207e+00 -5.507789572348033291e-02
2.981799999999999784e+00 8.445900000000000318e+01 9.039700000000000557e+01 5.585715000000000430e+00 -1.336058683619585630e-01
2.982000000000000206e+00 5.752700000000000102e+01 9.395799999999999841e+01 -1.332683000000000062e+00 -3.499999999999999778e-01
2.982000000000000206e+00 5.912500000000000000e+01 9.395799999999999841e+01 -3.661535999999999902e+00 -3.499999999999999778e-01
3.001100000000000101e+00 6.414400000000000546e+01 1.027900000000000063e+02 2.515404999999999891e+00 -1.633977915956294213e-01
3.010299999999999976e+00 6.750199999999999534e+01 1.045699999999999932e+02 2.145065999999999917e+00 -6.240767426335108725e-02
3.011200000000000099e+00 8.410699999999999932e+01 9.505899999999999750e+01 1.721782999999999930e+01 -1.367181845873111368e-01
3.018899999999999917e+00 7.534099999999999397e+01 1.044500000000000028e+02 1.270626000000000033e+01 -2.441717356871066502e-01
3.020000000000000018e+00 6.672899999999999920e+01 9.608799999999999386e+01 3.699806999999999846e+00 -9.051953272520549265e-02
3.020000000000000018e+00 6.684099999999999397e+01 9.528199999999999648e+01 5.647098999999999869e+00 -3.500000000000000333e-01
3.020000000000000018e+00 6.695999999999999375e+01 9.690300000000000580e+01 1.882653000000000176e+01 -9.049483723780167577e-02
3.020000000000000018e+00 6.717000000000000171e+01 9.763899999999999579e+01 7.248471999999999582e+00 -9.047741546897095088e-02
3.020700000000000163e+00 7.437199999999999989e+01 9.668500000000000227e+01 -2.118337999999999888e-01 -2.430464125182714152e-01
3.020700000000000163e+00 7.685599999999999454e+01 9.668500000000000227e+01 4.855807999999999680e+00 -2.408336405683542680e-01
3.024900000000000144e+00 6.590300000000000580e+01 1.009899999999999949e+02 1.365580000000000016e+00 -1.659944927840077133e-01
3.032999999999999918e+00 8.554200000000000159e+01 9.435099999999999909e+01 1.156972999999999985e+01 -1.368562262794456030e-01
3.040700000000000180e+00 6.393099999999999739e+01 8.397700000000000387e+01 2.599371999999999794e+00 -3.500000000000000333e-01
3.040700000000000180e+00 7.004600000000000648e+01 9.941800000000000637e+01 8.320862999999999232e+00 1.326100521998846773e-02
3.044999999999999929e+00 6.694299999999999784e+01 9.850700000000000500e+01 1.713629999999999853e+01 -8.856400803544094147e-02
3.045300000000000118e+00 5.785600000000000165e+01 9.319799999999999329e+01 5.354303999999999730e-01 -3.499999999999999778e-01
3.045300000000000118e+00 5.785600000000000165e+01 9.471800000000000352e+01 6.938327000000000210e-03 -3.499999999999999778e-01
3.045300000000000118e+00 5.879599999999999937e+01 9.471800000000000352e+01 -4.808397000000000254e+00 -3.500000000000000333e-01
3.045700000000000074e+00 7.425799999999999557e+01 1.043100000000000023e+02 6.311663000000000245e+00 -2.449056759010339035e-01
3.045999999999999819e+00 8.640300000000000580e+01 9.180800000000000693e+01 4.974599999999999689e+00 -1.353368784052784990e-01
3.045999999999999819e+00 8.640300000000000580e+01 9.359600000000000364e+01 6.216927000000000092e+00 -1.367015706244871232e-01
3.045999999999999819e+00 8.665699999999999648e+01 9.270199999999999818e+01 9.906815999999999178e+00 -1.361305749808092158e-01
3.048599999999999977e+00 7.361599999999999966e+01 8.356399999999999295e+01 2.357041000000000164e+00 -3.499999999999999778e-01
3.051099999999999923e+00 6.909499999999999886e+01 9.178600000000000136e+01 3.283713000000000104e+00 -9.025208147230914801e-02
3.052900000000000169e+00 6.488599999999999568e+01 8.159600000000000364e+01 1.408460999999999963e+00 -3.499999999999999778e-01
3.059000000000000163e+00 7.055500000000000682e+01 8.168899999999999295e+01 6.111944000000000266e+00 -8.145040443911101546e-02
3.063200000000000145e+00 6.752200000000000557e+01 1.019099999999999966e+02 3.504016999999999826e-01 -6.257177181770086360e-02
3.063200000000000145e+00 6.752200000000000557e+01 1.036700000000000017e+02 3.366581000000000046e+00 -6.247665677760907282e-02
3.078800000000000203e+00 6.400100000000000477e+01 1.053199999999999932e+02 1.195999999999999952e+00 -5.434806958988251668e-02
3.080099999999999838e+00 6.752100000000000080e+01 8.356300000000000239e+01 1.176449000000000034e+01 -3.500000000000000333e-01
3.080999999999999961e+00 6.948999999999999488e+01 8.786799999999999500e+01 1.997189000000000103e+00 -8.615243757095682187e-02
3.087200000000000166e+00 6.618500000000000227e+01 7.901999999999999602e+01 1.856185999999999892e+00 -3.499999999999999778e-01
3.088000000000000078e+00 6.461799999999999500e+01 8.083700000000000330e+01 -7.387340000000000573e-02 -3.499999999999999778e-01
3.097900000000000098e+00 6.666200000000000614e+01 8.503600000000000136e+01 -6.456546000000000340e+00 -3.499999999999999778e-01
3.099000000000000199e+00 8.419499999999999318e+01 8.263299999999999557e+01 7.914861000000000146e+00 -3.499999999999999778e-01
3.100299999999999834e+00 8.132399999999999807e+01 9.841400000000000148e+01 1.234608000000000061e+01 -1.391107407071571767e-01
3.108999999999999986e+00 6.486799999999999500e+01 9.245499999999999829e+01 8.862166000000000210e+00 -3.500000000000000888e-01
3.116000000000000103e+00 6.765999999999999659e+01 1.027900000000000063e+02 5.313358999999999721e-01 -6.280790804272252947e-02
3.116999999999999993e+00 6.835699999999999932e+01 8.862600000000000477e+01 1.573377000000000026e+00 -8.869007490451626119e-02
3.125999999999999890e+00 7.206199999999999761e+01 8.195000000000000284e+01 1.906833000000000000e+00 -3.499999999999999778e-01
3.127299999999999969e+00 6.849200000000000443e+01 8.451900000000000546e+01 6.915008999999999739e-01 -8.570620862818514873e-02
3.127299999999999969e+00 6.943200000000000216e+01 8.451900000000000546e+01 -1.976590000000000069e+00 -8.424942493292061907e-02
3.128299999999999859e+00 6.943200000000000216e+01 7.931000000000000227e+01 1.551355000000000040e+01 -2.529148368364936283e-01
3.128400000000000070e+00 6.650799999999999557e+01 8.377500000000000568e+01 3.115823999999999927e+00 -3.499999999999999223e-01
3.136000000000000121e+00 5.950500000000000256e+01 9.298999999999999488e+01 1.900492000000000070e+00 -3.499999999999999778e-01
3.138399999999999856e+00 6.635200000000000387e+01 8.426300000000000523e+01 1.162263999999999964e+00 -3.500000000000000888e-01
3.140000000000000124e+00 6.769400000000000261e+01 7.828499999999999659e+01 2.616871999999999865e+00 -2.547250128577697170e-01
3.144000000000000128e+00 8.269899999999999807e+01 9.749299999999999500e+01 1.035431999999999952e+01 -1.385585821900930659e-01
3.145900000000000141e+00 5.903699999999999903e+01 9.180200000000000671e+01 3.528999000000000219e+00 -3.499999999999999778e-01
3.151299999999999990e+00 6.494700000000000273e+01 8.007699999999999818e+01 1.126025999999999971e+00 -3.499999999999999778e-01
3.153999999999999915e+00 6.270900000000000318e+01 8.443500000000000227e+01 2.340627000000000013e+00 -3.500000000000000333e-01
3.165000000000000036e+00 6.436499999999999488e+01 1.061700000000000017e+02 3.366391000000000133e+00 -1.647351301289365078e-01
3.165000000000000036e+00 6.581100000000000705e+01 1.069800000000000040e+02 -4.884513000000000105e+00 -1.663374034110968180e-01
3.165000000000000036e+00 6.725700000000000500e+01 1.061700000000000017e+02 3.857397999999999882e+00 -1.688971580606260792e-01
3.165000000000000036e+00 6.751099999999999568e+01 1.052800000000000011e+02 -5.783924000000000287e-01 -1.696044961253244110e-01
3.166500000000000092e+00 6.188700000000000045e+01 8.505200000000000671e+01 2.437877999999999989e+00 -3.499999999999999778e-01
3.170999999999999819e+00 8.023900000000000432e+01 8.193099999999999739e+01 3.057945999999999831e+00 -3.499999999999999778e-01
3.170999999999999819e+00 8.168500000000000227e+01 8.112500000000000000e+01 3.102187999999999946e+00 -3.500000000000000333e-01
3.173000000000000043e+00 6.961299999999999955e+01 8.001500000000000057e+01 1.730347000000000079e+01 -8.230628623236664609e-02
3.175300000000000011e+00 6.465200000000000102e+01 8.334000000000000341e+01 2.555070999999999870e+00 -3.499999999999999778e-01
3.177000000000000046e+00 6.973099999999999454e+01 8.737500000000000000e+01 2.473170999999999786e+00 -8.539431359889387840e-02
3.178799999999999848e+00 8.432399999999999807e+01 8.359099999999999397e+01 8.779602999999999824e+00 -3.499999999999999778e-01
3.181400000000000006e+00 6.717600000000000193e+01 8.765699999999999648e+01 2.365244999999999986e-01 -3.500000000000000333e-01
3.186999999999999833e+00 7.195499999999999829e+01 9.708499999999999375e+01 4.764302999999999955e+00 1.743867033228211488e-02
3.193599999999999994e+00 6.117699999999999960e+01 8.515399999999999636e+01 2.129906000000000077e+00 -3.499999999999999778e-01
3.197000000000000064e+00 6.660200000000000387e+01 8.597499999999999432e+01 -9.080505999999999744e+00 -3.499999999999999778e-01
3.197000000000000064e+00 6.660200000000000387e+01 8.684000000000000341e+01 -3.579582999999999959e+00 -3.499999999999999778e-01
3.199100000000000055e+00 6.267000000000000171e+01 9.172100000000000364e+01 6.418921000000000099e+00 -3.499999999999999778e-01
3.201900000000000190e+00 7.561400000000000432e+01 9.715900000000000603e+01 -2.510727000000000153e+00 -2.423087015119956278e-01
3.205900000000000194e+00 6.043999999999999773e+01 9.270600000000000307e+01 8.503819000000000017e+00 -3.500000000000000333e-01
3.205900000000000194e+00 6.130599999999999739e+01 8.835399999999999920e+01 6.576474000000000153e+00 -3.499999999999999778e-01
3.205900000000000194e+00 6.130599999999999739e+01 8.975400000000000489e+01 5.376648999999999567e+00 -3.499999999999999778e-01
3.205999999999999961e+00 7.325300000000000011e+01 8.286299999999999955e+01 -1.086327999999999960e+00 -3.499999999999999778e-01
3.207699999999999996e+00 6.739400000000000546e+01 1.012800000000000011e+02 -7.542877000000000609e-02 -6.233430074439662294e-02
3.207699999999999996e+00 6.760299999999999443e+01 1.005499999999999972e+02 -7.502265999999999657e-01 -6.279666518482565629e-02
3.213600000000000012e+00 7.384799999999999898e+01 9.657599999999999341e+01 2.846076000000000050e+00 -2.433389505183269075e-01
3.222999999999999865e+00 7.308799999999999386e+01 9.632599999999999341e+01 7.589116999999999891e+00 -8.662306293432717186e-02
3.223199999999999843e+00 6.176500000000000057e+01 9.184900000000000375e+01 9.001217000000000468e+00 -3.499999999999999778e-01
3.224600000000000133e+00 7.787300000000000466e+01 9.705500000000000682e+01 9.628863000000000838e+00 -2.400874032091031562e-01
3.232600000000000140e+00 6.489799999999999613e+01 8.243500000000000227e+01 2.308971999999999802e+00 -3.500000000000000333e-01
3.237999999999999989e+00 6.769499999999999318e+01 8.451800000000000068e+01 1.036794999999999911e+00 -3.499999999999999778e-01
3.248800000000000132e+00 7.943000000000000682e+01 9.863599999999999568e+01 2.349448999999999899e+00 -1.383992408036557875e-01
3.253899999999999793e+00 7.546299999999999386e+01 1.010300000000000011e+02 5.912139999999999951e+00 -2.451317760579788951e-01
3.255999999999999783e+00 5.990800000000000125e+01 8.617100000000000648e+01 2.238710000000000200e+00 -3.499999999999999778e-01
3.255999999999999783e+00 5.990800000000000125e+01 8.722100000000000364e+01 3.175507000000000080e+00 -3.499999999999999778e-01
3.262000000000000011e+00 7.447499999999999432e+01 8.422400000000000375e+01 2.236758000000000024e+01 -3.499999999999999778e-01
3.262700000000000156e+00 8.428700000000000614e+01 8.600400000000000489e+01 7.321505000000000152e+00 -3.499999999999999778e-01
3.264200000000000212e+00 6.160900000000000176e+01 8.905400000000000205e+01 4.835325000000000095e+00 -3.499999999999999778e-01
3.267300000000000093e+00 8.452899999999999636e+01 8.521500000000000341e+01 2.919510000000000005e+01 -3.499999999999999778e-01
3.273299999999999876e+00 6.618600000000000705e+01 9.345199999999999818e+01 9.433033000000000001e+00 -3.499999999999999778e-01
3.278599999999999959e+00 8.367400000000000659e+01 9.575900000000000034e+01 1.224468000000000067e+01 -1.368635245795845057e-01
3.281899999999999817e+00 7.349299999999999500e+01 1.027099999999999937e+02 5.223080999999999641e+00 -2.458906477292670534e-01
3.284499999999999975e+00 5.895700000000000074e+01 9.060599999999999454e+01 1.902314000000000060e+00 -3.499999999999999778e-01
3.296300000000000008e+00 8.385899999999999466e+01 8.937800000000000011e+01 5.855106000000000144e+00 -3.499999999999999778e-01
3.300300000000000011e+00 7.076800000000000068e+01 9.911599999999999966e+01 3.649418999999999969e+00 1.454072305685557773e-02
3.300300000000000011e+00 7.170399999999999352e+01 9.911599999999999966e+01 4.024523000000000295e+00 1.634125446895961717e-02
3.302500000000000213e+00 7.998900000000000432e+01 8.290999999999999659e+01 3.018769999999999953e+00 -3.499999999999999778e-01
3.306999999999999940e+00 8.438800000000000523e+01 8.413400000000000034e+01 5.022488000000000063e+00 -3.499999999999999778e-01
3.306999999999999940e+00 6.739799999999999613e+01 8.503600000000000136e+01 -1.075709999999999944e+00 -3.499999999999999778e-01
3.310099999999999820e+00 7.028900000000000148e+01 8.457999999999999829e+01 -6.028793000000000291e+00 -8.288696762176527011e-02
3.323999999999999844e+00 7.678199999999999648e+01 1.018599999999999994e+02 7.007556999999999903e+01 -2.441933607415514851e-01
3.323999999999999844e+00 7.678199999999999648e+01 1.034899999999999949e+02 8.182025000000000148e+01 -2.437105371079050509e-01
3.323999999999999844e+00 7.701300000000000523e+01 1.026800000000000068e+02 3.145476999999999990e+01 -2.438147306430755168e-01
3.347500000000000142e+00 6.708799999999999386e+01 8.426300000000000523e+01 8.136720999999999648e+00 -3.499999999999999778e-01
3.348399999999999821e+00 6.514499999999999602e+01 1.010400000000000063e+02 8.818620000000000347e-01 -1.639229610303671314e-01
3.366600000000000037e+00 7.184799999999999898e+01 9.833199999999999363e+01 -1.058918999999999971e-01 1.684211469909292075e-02
3.382299999999999862e+00 7.121399999999999864e+01 8.464300000000000068e+01 -3.791339999999999932e+00 -8.135985126420822167e-02
3.382299999999999862e+00 7.121399999999999864e+01 8.604300000000000637e+01 2.761407000000000167e+00 -8.197918818977892319e-02
3.389100000000000001e+00 8.006999999999999318e+01 9.857099999999999795e+01 -1.587010999999999949e+00 -1.383959123843281347e-01
3.396500000000000075e+00 6.400300000000000011e+01 1.015400000000000063e+02 5.034927999999999626e-01 -1.615557526622928008e-01
3.400599999999999845e+00 7.004200000000000159e+01 8.648799999999999955e+01 1.497444999999999915e+00 -8.429128026823674846e-02
3.401499999999999968e+00 6.639300000000000068e+01 1.005100000000000051e+02 -3.285603999999999747e-01 -1.663460610162842968e-01
3.403999999999999915e+00 8.338200000000000500e+01 9.655299999999999727e+01 1.111227000000000054e+01 -1.374443939046419705e-01
3.416500000000000092e+00 6.039699999999999847e+01 8.952899999999999636e+01 6.173058000000000156e+00 -3.499999999999999778e-01
3.417300000000000004e+00 7.480500000000000682e+01 9.717600000000000193e+01 -9.682221000000000188e+00 -2.429810689637827426e-01
3.423999999999999932e+00 7.308799999999999386e+01 9.914700000000000557e+01 2.610994999999999955e+00 1.912579001725036795e-02
3.427400000000000002e+00 6.004099999999999682e+01 9.343000000000000682e+01 6.013842000000000354e+00 -3.499999999999999778e-01
3.427700000000000191e+00 8.492600000000000193e+01 9.046800000000000352e+01 3.091648999999999869e+00 -3.499999999999999778e-01
3.434000000000000163e+00 7.696399999999999864e+01 8.393200000000000216e+01 2.394789999999999974e+00 -3.499999999999999778e-01
3.434000000000000163e+00 7.859399999999999409e+01 8.439499999999999602e+01 2.629226000000000063e+00 -3.499999999999999778e-01
3.434000000000000163e+00 7.978499999999999659e+01 8.373099999999999454e+01 2.154776000000000025e+00 -3.499999999999999778e-01
3.440599999999999881e+00 7.151699999999999591e+01 8.534300000000000352e+01 1.084920000000000107e+00 -8.111318808528947266e-02
3.449399999999999800e+00 6.381099999999999994e+01 8.334900000000000375e+01 4.076240000000000308e+00 -3.499999999999999778e-01
3.451999999999999957e+00 6.034000000000000341e+01 8.810699999999999932e+01 5.482701999999999742e+00 -3.499999999999999778e-01
3.451999999999999957e+00 5.966100000000000136e+01 9.439100000000000534e+01 -2.958304000000000045e+00 -3.500000000000000333e-01
3.452799999999999869e+00 7.337600000000000477e+01 1.040600000000000023e+02 4.889852000000000309e+00 -2.457542370010121768e-01
3.459799999999999986e+00 6.669599999999999795e+01 9.981199999999999761e+01 1.087652000000000063e+00 -1.663504248411497854e-01
3.462899999999999867e+00 6.372699999999999676e+01 1.039399999999999977e+02 7.220323999999999742e+00 -5.416210619064938669e-02
3.463799999999999990e+00 6.806000000000000227e+01 8.510899999999999466e+01 -1.472081999999999891e+00 -8.672011318866630625e-02
3.463799999999999990e+00 6.896200000000000330e+01 8.510899999999999466e+01 -4.421573999999999671e+00 -8.530291924586048957e-02
3.463799999999999990e+00 6.986400000000000432e+01 8.510899999999999466e+01 -4.817971000000000004e+00 -8.383232629200507158e-02
3.465599999999999792e+00 8.484199999999999875e+01 9.461799999999999500e+01 1.750088999999999828e+01 -1.361334621392463751e-01
3.466200000000000170e+00 8.396500000000000341e+01 8.856000000000000227e+01 -2.552774000000000143e+01 -3.500000000000000333e-01
3.468700000000000117e+00 8.217400000000000659e+01 9.834300000000000352e+01 1.959160999999999930e+01 -1.390223437803286555e-01
3.470099999999999962e+00 7.637300000000000466e+01 9.719400000000000261e+01 1.567065999999999981e+01 -2.415200508708852944e-01
3.474000000000000199e+00 6.078699999999999903e+01 8.894199999999999307e+01 8.598473000000000255e+00 -3.499999999999999778e-01
3.475900000000000212e+00 5.832600000000000051e+01 9.525100000000000477e+01 -5.378547000000000189e+00 -3.499999999999999778e-01
3.490899999999999892e+00 5.825399999999999778e+01 9.180200000000000671e+01 3.257584000000000035e+00 -3.499999999999999778e-01
3.491600000000000037e+00 7.006499999999999773e+01 8.129200000000000159e+01 1.514391000000000043e+00 -8.199698118847283113e-02
3.491600000000000037e+00 7.125499999999999545e+01 8.195600000000000307e+01 -4.441526000000000085e-01 -3.500000000000000333e-01
3.491999999999999993e+00 7.830599999999999739e+01 9.775499999999999545e+01 6.062752999999999837e+00 -2.401385420258245751e-01
