8.360099999999999909e+01 1.201399999999999935e+01 -8.398699999999999832e+00 -5.801763000000000225e+00 -1.597218241171484698e-01
8.360500000000000398e+01 -3.461100000000000065e+00 -6.504100000000000215e+00 4.611302000000000234e+00 -2.387676308060258934e-01
8.360899999999999466e+01 9.264099999999999113e+00 -1.803600000000000136e+01 -1.130577000000000076e+01 -2.814317880793933829e-02
8.361100000000000421e+01 -6.011000000000000121e+00 -1.505199999999999960e+01 -3.566038999999999959e+00 1.128745852555691209e-01
8.361700000000000443e+01 -3.664699999999999847e+00 -3.814999999999999947e+00 -6.746516999999999875e+00 -2.285601723433368926e-01
8.361700000000000443e+01 -2.725299999999999834e+00 -5.334999999999999964e+00 -4.537453000000000181e+00 -2.343975474493090461e-01
8.361700000000000443e+01 -2.725299999999999834e+00 -3.814999999999999947e+00 -1.095168999999999926e+01 -2.279418227858224510e-01
8.361700000000000443e+01 -2.725299999999999834e+00 -2.415000000000000036e+00 1.606899999999999995e+00 -2.224044307277370236e-01
8.361700000000000443e+01 -1.860000000000000098e+00 -2.415000000000000036e+00 1.411429000000000045e+01 -2.212437568636659024e-01
8.362399999999999523e+01 -2.126500000000000057e+00 -1.243099999999999916e+01 1.730668999999999969e+01 1.128801904613908197e-01
8.363400000000000034e+01 -4.977699999999999569e+00 -5.655999999999999694e+00 2.063588000000000089e-01 -2.351217223068205464e-01
8.363500000000000512e+01 -8.706099999999999284e+00 -1.027599999999999980e+01 -3.727415999999999840e+00 -1.034456102529624777e-01
8.364100000000000534e+01 2.572400000000000020e+00 5.548499999999999766e+00 -9.924265000000000114e+00 -1.600000000000000033e-01
8.364300000000000068e+01 3.062899999999999956e+00 -9.092900000000000205e+00 -8.176337999999999440e+00 1.023630884450620060e-01
8.365500000000000114e+01 2.400599999999999845e+00 -9.265700000000000713e+00 -4.422248999999999874e+00 1.051495274201798835e-01
8.365699999999999648e+01 -8.831400000000000361e+00 -9.750299999999999301e+00 -3.890544999999999920e+00 -1.019797561929543378e-01
8.365900000000000603e+01 -7.228399999999999714e+00 -1.187700000000000067e+01 8.276588999999999530e+00 -1.119088820146619118e-01
8.365999999999999659e+01 -7.410400000000000098e+00 -8.331599999999999895e+00 1.449365999999999932e+00 -1.022865562141778983e-01
8.366100000000000136e+01 6.910999999999999588e+00 -1.989199999999999946e+01 -1.228960000000000052e+00 -2.743446019311593376e-02
8.366400000000000148e+01 3.857000000000000206e+00 -2.033500000000000085e+01 -2.531229000000000173e+00 9.147976936591009633e-02
8.366899999999999693e+01 5.029099999999999682e+00 2.856100000000000083e+00 2.621496000000000048e+00 -1.600000000000000311e-01
8.367600000000000193e+01 -1.556599999999999984e+00 -3.115000000000000213e+00 -1.102911999999999892e+00 -2.237802180000921515e-01
8.368000000000000682e+01 6.789699999999999902e-02 -1.130000000000000071e+01 -9.285282000000000258e-01 1.100054230697976171e-01
8.368000000000000682e+01 6.789699999999999902e-02 -1.018399999999999928e+01 1.254092999999999902e+00 1.121243892196009118e-01
8.368600000000000705e+01 1.871399999999999952e+00 -1.681599999999999895e+01 -7.916913000000000089e+00 1.800000000000000211e-01
8.368600000000000705e+01 1.871399999999999952e+00 -1.594999999999999929e+01 -5.691355999999999860e+00 9.936908360843660359e-02
8.370499999999999829e+01 -4.609300000000000175e+00 -4.806000000000000050e+00 -2.854728000000000154e+00 -2.323560335265110466e-01
8.370799999999999841e+01 1.384500000000000064e+00 -1.225099999999999945e+01 -2.572687999999999864e+00 1.037441047737005934e-01
8.371599999999999397e+01 1.437299999999999933e+01 -1.565499999999999936e+01 -3.163241999999999976e+01 -1.169595303160334554e-01
8.371999999999999886e+01 8.816199999999999593e-01 2.558499999999999996e+00 -4.428408000000000122e+00 -1.599999999999999756e-01
8.372299999999999898e+01 -5.353900000000000325e+00 -6.506499999999999950e+00 3.705344999999999889e+00 -2.373540545455639084e-01
8.372799999999999443e+01 -1.927999999999999936e+00 -3.816100000000000048e+00 -2.569481000000000126e+00 -2.272842300867586318e-01
8.372899999999999920e+01 3.321499999999999897e+00 -8.360300000000000509e+00 -4.040441000000000393e+00 -7.312382935649706928e-02
8.372899999999999920e+01 3.321499999999999897e+00 -7.429700000000000415e+00 -3.077716000000000118e+00 -6.359493042858280210e-02
8.373099999999999454e+01 -2.024700000000000166e+00 -1.344100000000000072e+01 8.576441000000000869e+00 1.110113081681995684e-01
8.373900000000000432e+01 1.899699999999999944e+00 -5.968300000000000161e+00 -1.944528000000000034e+00 -4.598818009838266663e-02
8.373900000000000432e+01 2.765000000000000124e+00 -5.968300000000000161e+00 -9.823425000000000074e-01 -4.794537411010560413e-02
8.374699999999999989e+01 7.637100000000000222e+00 -1.915599999999999881e+01 4.200289999999999857e+00 -2.962821259765123158e-02
8.374800000000000466e+01 1.434800000000000075e+01 -1.487800000000000011e+01 -2.508708999999999989e+01 -7.578506156337036503e-02
8.374800000000000466e+01 1.574799999999999933e+01 -1.347799999999999976e+01 -1.068732999999999933e+01 -2.432975799410069528e-01
8.374800000000000466e+01 1.719399999999999906e+01 -1.267200000000000060e+01 -7.849699000000000204e+00 -2.313282033051557163e-01
8.374800000000000466e+01 1.719399999999999906e+01 -1.088400000000000034e+01 2.567633999999999972e+01 -2.234492226687253003e-01
8.374800000000000466e+01 1.744800000000000040e+01 -1.177800000000000047e+01 -9.418734000000000606e+00 -2.286128121848651773e-01
8.375700000000000500e+01 8.532000000000000028e+00 1.908099999999999907e+00 -2.174728999999999957e+01 -1.274973517238224829e-01
8.375700000000000500e+01 9.824999999999999289e+00 2.629000000000000004e+00 -3.215650999999999726e+01 -1.334717409502568786e-01
8.375700000000000500e+01 1.111800000000000033e+01 1.908099999999999907e+00 -3.560996999999999701e+01 -1.425755286082477369e-01
8.375700000000000500e+01 1.123399999999999999e+01 3.110600000000000032e-01 -2.413997000000000170e+01 -1.406448764334406187e-01
8.375700000000000500e+01 1.134500000000000064e+01 1.108999999999999986e+00 -4.785602999999999696e+01 -1.423523231341480566e-01
8.375700000000000500e+01 1.144299999999999962e+01 -4.249600000000000044e-01 -1.156439999999999912e+01 -1.091853158931020695e-01
8.375799999999999557e+01 -4.523300000000000098e-01 -3.980999999999999872e+00 3.380340000000000011e-01 -2.264821329627427493e-01
8.376699999999999591e+01 1.868999999999999995e+00 -1.417800000000000082e+01 -3.390356000000000147e+00 9.994693957831186915e-02
8.377899999999999636e+01 1.469999999999999973e+00 -9.295899999999999608e+00 1.073655000000000026e+00 1.089006431880178843e-01
8.379600000000000648e+01 5.096099999999999852e+00 -2.065500000000000114e+01 -1.643240999999999952e+00 -3.237531694851167319e-02
8.379699999999999704e+01 3.068400000000000016e+00 -6.668300000000000338e+00 -2.316050999999999860e+00 -5.532375456850263662e-02
8.379699999999999704e+01 -3.249699999999999811e+00 -3.019000000000000128e+00 -5.179302999999999990e+00 -2.253155170604556612e-01
8.379699999999999704e+01 -1.336699999999999999e+00 -3.941199999999999815e+00 -2.322438000000000002e+00 -2.272854781877607644e-01
8.380800000000000693e+01 1.490799999999999947e+01 -7.858200000000000074e+00 -3.958219999999999850e+00 -3.402571546696170346e-01
8.380800000000000693e+01 -2.361699999999999910e+00 -1.151500000000000057e+01 1.392956000000000039e+01 1.143399990726829130e-01
8.380899999999999750e+01 6.152199999999999669e+00 -2.066300000000000026e+01 -3.751958999999999822e+00 -2.655161234482862967e-02
8.381600000000000250e+01 2.732699999999999907e+00 -1.917200000000000060e+01 -4.788395000000000401e+00 1.800000000000000211e-01
8.383100000000000307e+01 -3.304300000000000015e+00 -2.132899999999999796e+00 -2.461751000000000023e+00 -2.223234166333560302e-01
8.383700000000000330e+01 1.101900000000000013e+01 -1.748799999999999955e+01 -1.497691999999999979e+01 -1.172749907456010626e-01
8.384799999999999898e+01 1.449600000000000044e+01 -1.631400000000000006e+01 -1.884605000000000175e+01 -1.109264790240795662e-01
8.384900000000000375e+01 1.866700000000000026e+00 -1.523799999999999955e+01 -3.652826999999999824e+00 9.955231753888846291e-02
8.384999999999999432e+01 -2.996599999999999930e+00 -8.625700000000000145e+00 -1.554753000000000007e+01 -6.430659218285136869e-02
8.385099999999999909e+01 5.257000000000000388e-03 -5.839999999999999858e+00 -1.305282000000000053e+00 -4.508456031247429219e-02
8.385699999999999932e+01 1.269999999999999929e+01 -1.740399999999999991e+01 -1.972842999999999947e+01 -1.096904473276778536e-01
8.387000000000000455e+01 -6.826699999999999768e+00 -8.057100000000000151e+00 3.305527000000000015e+01 -1.039974145592643257e-01
8.387000000000000455e+01 -5.635799999999999699e+00 -7.393099999999999561e+00 2.209286000000000172e+01 -2.849562944714661983e-01
8.387099999999999511e+01 4.802500000000000102e-01 -9.424099999999999255e+00 2.148226999999999887e+00 1.118733338287683649e-01
8.387999999999999545e+01 1.409999999999999964e+01 -4.574499999999999567e+00 -1.345061000000000062e+00 -2.274510631987460840e-01
8.388500000000000512e+01 -2.292699999999999960e+00 -3.115000000000000213e+00 -2.541757000000000044e+00 -2.247697363869367582e-01
8.389300000000000068e+01 1.415199999999999925e+01 -6.256599999999999717e+00 4.117885000000000240e+00 -3.272659667672301320e-01
8.389600000000000080e+01 -2.205999999999999961e+00 1.930099999999999927e+00 6.379749999999999588e+00 -2.092085105321552785e-01
8.390099999999999625e+01 -6.480699999999999683e+00 -1.429199999999999982e+01 -5.383810000000000429e+00 1.135782130052150479e-01
8.390200000000000102e+01 -2.910300000000000109e-01 -4.862499999999999822e+00 -1.882412999999999892e+00 -2.306676818829841158e-01
8.390399999999999636e+01 -4.176999999999999602e+00 -1.634299999999999997e+01 -2.205357999999999929e+00 1.100762690169640318e-01
8.390399999999999636e+01 -2.626999999999999780e+00 -1.634299999999999997e+01 -2.983540000000000081e+00 1.083111375915583319e-01
8.390999999999999659e+01 -4.578500000000000014e+00 -6.261100000000000554e-01 4.813678999999999597e+00 -2.197867021471885118e-01
8.391200000000000614e+01 8.564099999999999824e+00 -1.809400000000000119e+01 -9.109624000000000166e+00 -3.499298383039351618e-02
8.391899999999999693e+01 -8.528700000000000614e+00 -9.055600000000000094e+00 -3.229246999999999979e+00 -1.018293953130224860e-01
8.392199999999999704e+01 3.736700000000000021e-01 -6.690000000000000391e+00 -1.904662000000000077e+00 -4.984451101407721268e-02
8.392199999999999704e+01 1.424299999999999899e+00 -6.690000000000000391e+00 -2.537065999999999821e+00 -5.137618102085080019e-02
8.392499999999999716e+01 -8.279300000000000548e-01 -1.022000000000000064e+01 4.449970999999999788e-02 1.136799617370662235e-01
8.392499999999999716e+01 6.413199999999999790e+00 1.134400000000000075e+00 -3.334503000000000217e+00 -1.251097955697065001e-01
8.392600000000000193e+01 -2.148800000000000043e+00 -9.756999999999999673e+00 -3.254138999999999782e-01 1.163875852456160154e-01
8.393000000000000682e+01 -1.601799999999999891e+00 -4.344000000000000306e+00 -3.354999999999999982e+00 -2.293446631776248912e-01
8.393800000000000239e+01 1.370899999999999963e+01 -5.435900000000000176e+00 9.276842000000000255e+00 -3.396739499173351828e-01
8.393999999999999773e+01 -3.521299999999999986e-01 -9.423500000000000654e+00 5.873434999999999739e+00 1.138935943877088935e-01
8.395199999999999818e+01 3.654300000000000104e+00 5.205400000000000027e+00 -1.294821999999999917e+01 -1.600000000000000033e-01
8.395199999999999818e+01 1.621999999999999886e+01 -9.305899999999999395e+00 -6.033832999999999558e-01 -2.163622783990766796e-01
8.395199999999999818e+01 1.642899999999999849e+01 -1.004199999999999982e+01 -2.316948000000000008e+00 -2.196191602910731455e-01
8.395999999999999375e+01 -6.560000000000000275e-01 1.592000000000000082e+00 -8.044119999999999493e+00 -2.108786976971656346e-01
8.396099999999999852e+01 5.411299999999999777e+00 1.979300000000000059e+00 -2.341496000000000133e-01 -1.229680891024895473e-01
8.397100000000000364e+01 1.454800000000000004e+01 -7.152999999999999581e+00 2.709737000000000151e+01 -3.274037866079327341e-01
8.397400000000000375e+01 -1.859099999999999975e+00 -1.170199999999999996e+01 2.494099999999999895e+01 1.130504961884540166e-01
8.397799999999999443e+01 3.120999999999999996e+00 5.516399999999999970e+00 -1.811955000000000027e+01 -1.599999999999999756e-01
8.398199999999999932e+01 7.139300000000000423e+00 1.092100000000000071e+00 -7.703676999999999886e+00 -1.261007027440183559e-01
8.398799999999999955e+01 -8.528000000000000469e+00 -1.100000000000000000e+01 -7.490615000000000023e+00 -1.063875089262637658e-01
8.398799999999999955e+01 -1.905200000000000005e+00 -5.043999999999999595e+00 -1.347551999999999950e+01 -2.325868301741194633e-01
8.399299999999999500e+01 -4.194200000000000372e+00 1.453100000000000058e+00 -2.495451999999999781e+00 -2.069092584067871443e-01
8.399899999999999523e+01 1.187400000000000055e+01 -8.557500000000000107e-01 -1.079284999999999961e+01 -1.708896993215454352e-01
8.400300000000000011e+01 1.619299999999999962e+00 -1.808800000000000097e+01 -4.517929999999999779e+00 1.799999999999999933e-01
8.400300000000000011e+01 1.619299999999999962e+00 -1.714799999999999969e+01 -4.897674999999999557e+00 1.799999999999999933e-01
8.400400000000000489e+01 -4.491600000000000037e+00 -4.012199999999999989e+00 -6.291729000000000127e+00 -2.295740004513776300e-01
8.400400000000000489e+01 1.729999999999999982e+00 -1.635099999999999909e+01 -1.231166999999999945e+01 9.978651240147570767e-02
8.400600000000000023e+01 2.332300000000000040e+00 -6.668300000000000338e+00 -1.994323999999999986e+00 -5.384376114162500032e-02
8.401099999999999568e+01 -6.717400000000000038e-01 -1.089600000000000080e+01 8.583024999999999238e+00 1.120455894557106785e-01
8.401399999999999579e+01 -2.561900000000000066e+00 -1.067500000000000071e+01 1.667593000000000103e+01 1.154035089985316898e-01
8.401999999999999602e+01 1.309999999999999964e+01 -1.692700000000000093e+00 -9.768617000000000772e+00 -1.569002579434207734e-01
8.402800000000000580e+01 1.796999999999999931e+00 -1.298399999999999999e+01 -3.338611000000000217e+00 1.012079936819618997e-01
8.406100000000000705e+01 5.561300000000000132e-01 2.279999999999999805e+00 -1.426861000000000068e+01 -1.600000000000000311e-01
8.407800000000000296e+01 9.778999999999999915e+00 -1.757799999999999940e+01 -1.312818000000000040e+01 -3.162747634401927299e-02
8.407800000000000296e+01 1.879999999999999893e+00 5.133700000000000152e+00 -1.829767999999999972e+01 -1.600000000000000033e-01
8.408199999999999363e+01 -3.033299999999999885e-01 -1.174600000000000044e+01 1.544458000000000109e+00 1.096197836122566188e-01
8.408199999999999363e+01 1.618499999999999872e+01 -8.569699999999999207e+00 -4.784342999999999790e+00 -2.029379881080586312e-01
8.409199999999999875e+01 -6.737499999999999822e+00 -1.227399999999999913e+01 1.108986999999999945e+01 -1.154619146622087866e-01
8.409199999999999875e+01 -6.528400000000000425e+00 -1.300999999999999979e+01 -1.593070999999999904e+00 -1.176980860343319613e-01
8.409300000000000352e+01 -8.110400000000000276e+00 -8.599000000000000199e+00 -5.328987999999999836e+00 -1.022972200351125877e-01
8.409300000000000352e+01 7.086999999999999966e-01 -1.225699999999999967e+01 -1.914001000000000063e+00 1.058715091029733130e-01
8.409399999999999409e+01 1.409800000000000075e+01 -1.695799999999999841e+01 -1.508282999999999952e+01 -1.083028486280254582e-01
8.410500000000000398e+01 -1.303099999999999925e+00 -9.538999999999999702e+00 3.821778999999999815e+00 1.151441533083558955e-01
8.412699999999999534e+01 8.210300000000000376e-01 3.082699999999999996e+00 -4.918052999999999564e+00 -1.600000000000000311e-01
8.413800000000000523e+01 -2.997900000000000009e+00 -6.974499999999999922e+00 5.970509999999999984e+00 -5.639809435751763633e-02
8.414100000000000534e+01 -4.953000000000000291e+00 2.380700000000000038e-01 -3.258065000000000211e+00 -2.632853257965567240e-01
8.415500000000000114e+01 5.754100000000000215e+00 1.251900000000000013e+00 -2.673322999999999894e+00 -1.245848092492744391e-01
8.416100000000000136e+01 1.212500000000000036e-02 -8.666700000000000514e+00 4.156914000000000442e+00 1.136228135082995444e-01
8.418099999999999739e+01 1.504800000000000004e+01 -1.374499999999999922e+01 -1.180400999999999989e+01 -5.831491204200163481e-02
8.418300000000000693e+01 -1.123099999999999987e+00 -1.170199999999999996e+01 1.295388999999999946e+01 1.113974237271437573e-01
8.418899999999999295e+01 3.260899999999999910e+00 -1.985399999999999920e+01 3.003646999999999956e+00 1.800000000000000211e-01
8.418999999999999773e+01 8.041100000000000136e+00 1.511500000000000066e+00 -1.123263000000000034e+01 -1.270958493937957567e-01
8.418999999999999773e+01 2.576600000000000001e+00 -8.595000000000000639e+00 -8.354298000000000002e+00 1.053019396204422503e-01
8.418999999999999773e+01 2.576600000000000001e+00 -7.195000000000000284e+00 -2.704845000000000166e+00 -5.969433760001503775e-02
8.419199999999999307e+01 -4.996999999999999886e+00 -1.538000000000000078e+01 -4.332543000000000255e+00 1.114894531324969879e-01
8.419700000000000273e+01 -1.169200000000000017e+00 -5.043999999999999595e+00 -7.700569999999999915e+00 -2.320233253988355226e-01
8.420000000000000284e+01 -2.148000000000000131e+00 -1.556799999999999962e+01 6.582358999999999583e+01 1.081817642873494495e-01
8.420799999999999841e+01 1.454400000000000048e+01 -5.448999999999999844e+00 2.193369000000000124e+00 -3.279009403088569141e-01
8.421599999999999397e+01 1.189100000000000001e+01 -1.743199999999999861e+01 -1.149721000000000082e+01 -1.147043346805713127e-01
8.422199999999999420e+01 -1.616800000000000015e+00 -1.078599999999999959e+01 3.082826999999999984e+01 1.136108622217532893e-01
8.422700000000000387e+01 9.064999999999999503e+00 2.338699999999999779e+00 -2.966291999999999973e+01 -1.293436789483186911e-01
8.422700000000000387e+01 1.058500000000000085e+01 2.338699999999999779e+00 -5.764804999999999779e+01 -1.406997182315029571e-01
8.423000000000000398e+01 -5.459299999999999820e+00 -5.130700000000000038e+00 -1.528821999999999959e-01 -2.329858540744383644e-01
8.423699999999999477e+01 1.458999999999999986e+01 -3.775199999999999889e+00 -1.229710000000000081e+00 -2.322660224738684054e-01
8.423799999999999955e+01 -2.010800000000000143e+00 -1.463299999999999912e+01 1.508446000000000140e+02 1.089317710237280162e-01
8.423999999999999488e+01 -3.402000000000000135e+00 -1.640800000000000125e+01 -4.042224000000000039e+00 1.090040250096807189e-01
8.424200000000000443e+01 4.602000000000000313e+00 -2.081400000000000006e+01 -2.873305999999999916e+00 -3.465862116414696742e-02
8.424800000000000466e+01 2.879999999999999893e+00 -7.894999999999999574e+00 -3.737391000000000130e+00 -6.703160974264267546e-02
8.424899999999999523e+01 1.483500000000000085e+01 -4.621000000000000441e+00 1.457376000000000005e+00 -2.263804383732422598e-01
8.424899999999999523e+01 -4.053399999999999892e+00 -1.615299999999999958e+00 -2.585280000000000022e+00 -2.219771887363231611e-01
8.425300000000000011e+01 -1.684299999999999908e+00 -5.637900000000000134e+00 -8.108885000000000787e+00 -2.347398655008960944e-01
8.425300000000000011e+01 -8.191000000000000503e-01 -5.637900000000000134e+00 -3.548878999999999895e+00 -2.343826156269829541e-01
8.426000000000000512e+01 1.672299999999999898e+01 -1.320899999999999963e+01 -3.225140999999999813e+00 -2.351517454876609070e-01
8.426200000000000045e+01 1.463100000000000023e+01 -6.372099999999999653e+00 1.886676000000000020e+00 -3.278120586915045931e-01
8.426900000000000546e+01 -7.581299999999999706e+00 -7.810599999999999987e+00 -4.754637999999999920e+00 -2.815173168794589675e-01
8.427800000000000580e+01 -2.928900000000000059e+00 -7.692999999999999616e+00 9.659675000000000011e+00 -5.960394875150637484e-02
8.427899999999999636e+01 9.643000000000000460e-01 -8.716300000000000381e+00 -4.220723000000000114e-01 1.107180628811155892e-01
8.427899999999999636e+01 9.643000000000000460e-01 -7.316300000000000026e+00 -1.596673999999999927e+00 -5.620746369674639586e-02
8.427899999999999636e+01 1.829599999999999893e+00 -8.716300000000000381e+00 -4.323725999999999736e+00 1.078325692838950356e-01
8.428300000000000125e+01 -2.296600000000000197e+00 -8.893000000000000682e+00 1.837496000000000018e+00 -6.515729060520349114e-02
8.428400000000000603e+01 -4.038100000000000023e+00 -3.278399999999999981e+00 -3.926657000000000064e+00 -2.269585166084641392e-01
8.428799999999999670e+01 -9.558099999999999596e+00 -1.008300000000000018e+01 -4.664475999999999623e+00 -1.025752347802515035e-01
8.428900000000000148e+01 4.704599999999999893e-01 -7.962799999999999656e+00 -5.965224000000000082e-01 -5.943147369002192704e-02
8.429300000000000637e+01 2.088999999999999968e+00 -1.884799999999999898e+01 -7.514147000000000354e+00 1.799999999999999933e-01
8.429699999999999704e+01 -1.206399999999999917e+00 -8.791000000000000369e+00 3.436653999999999876e+00 -6.464519566607743184e-02
8.430100000000000193e+01 1.373300000000000054e+01 -2.459000000000000075e+00 -6.727770999999999724e+00 -1.474969175948989686e-01
8.430299999999999727e+01 -6.126699999999999591e+00 -7.789699999999999847e+00 1.642279999999999873e+01 -2.843525980048471902e-01
8.430400000000000205e+01 -5.030999999999999917e-01 -6.398200000000000109e+00 -9.893743000000000398e-01 -5.012304555059408917e-02
8.430899999999999750e+01 -3.433899999999999952e+00 1.503700000000000037e+00 -4.076405000000000278e+00 -2.078244925734797355e-01
8.431699999999999307e+01 5.594000000000000306e+00 -2.111599999999999966e+01 -3.242233999999999838e+00 -2.807798940292961093e-02
8.431799999999999784e+01 1.594599999999999973e+01 -7.996400000000000396e+00 -8.738618000000000663e+00 -2.073942329912610294e-01
8.432200000000000273e+01 -3.700899999999999856e+00 -2.565500000000000114e+00 -3.815558999999999923e+00 -2.244514564533217071e-01
8.434099999999999397e+01 -2.600000000000000089e+00 -8.192999999999999616e+00 6.017024000000000150e+00 -6.176456650520584235e-02
8.434699999999999420e+01 -1.400300000000000100e+00 1.758299999999999974e+00 -2.452243999999999868e+00 -2.109932316243038064e-01
8.435099999999999909e+01 -9.228699999999999903e+00 -1.084299999999999997e+01 -4.216380000000000017e+00 -1.049959635321225659e-01
8.435099999999999909e+01 -9.228699999999999903e+00 -9.323000000000000398e+00 -4.854472999999999594e+00 -1.018979411959419351e-01
8.435500000000000398e+01 -1.871099999999999985e-01 -7.158500000000000085e+00 -2.212203000000000086e-01 -5.417766224352314058e-02
8.435999999999999943e+01 -8.542999999999999261e+00 -7.899000000000000021e+00 -4.685908000000000406e+00 -2.798690369025448321e-01
8.436100000000000421e+01 6.969299999999999606e+00 -2.019500000000000028e+01 -3.070113999999999788e+00 -2.720634126371988468e-02
8.437800000000000011e+01 -5.011899999999999800e+00 1.171499999999999986e+00 -3.295901000000000192e+00 -2.071249884259974416e-01
8.438100000000000023e+01 9.079000000000000625e+00 -1.763599999999999923e+01 -1.540957000000000043e+01 -3.812401155443268658e-02
8.438100000000000023e+01 1.047899999999999920e+01 -1.763599999999999923e+01 -1.060764999999999958e+01 -2.632016015406508577e-02
8.439600000000000080e+01 -2.679499999999999993e+00 1.749000000000000110e+00 3.399283000000000055e+00 -2.092986225301842751e-01
8.439600000000000080e+01 7.351399999999999935e+00 -1.943799999999999883e+01 -9.235516000000000281e-01 -3.135643930898256854e-02
8.439900000000000091e+01 5.967399999999999594e+00 7.118400000000000283e-01 -2.010755000000000070e+00 -1.259422203963960485e-01
8.440999999999999659e+01 -8.925300000000000011e+00 -8.622999999999999332e+00 -4.772387000000000157e+00 -1.012415228905208658e-01
8.441700000000000159e+01 1.461800000000000033e+01 -1.557199999999999918e+01 -1.446433999999999997e+01 -7.081994625047330350e-02
8.443099999999999739e+01 1.236500000000000021e+01 -1.252299999999999969e+00 -8.845895999999999759e+00 -1.657790225897808889e-01
8.444599999999999795e+01 1.319500000000000028e+01 -1.686599999999999966e+01 -3.243636999999999659e+01 -1.142237494376840273e-01
8.444700000000000273e+01 -5.787399999999999878e+00 -1.464000000000000057e+01 -1.156340999999999930e+01 1.124925805550298641e-01
8.444799999999999329e+01 1.461500000000000021e+01 -1.444500000000000028e+01 -1.400849999999999973e+01 -6.649042407682534406e-02
8.445000000000000284e+01 -4.560000000000000164e-01 -7.909200000000000230e+00 7.316388999999999809e-01 -5.905463179285797004e-02
8.445699999999999363e+01 2.144000000000000128e+00 -7.894999999999999574e+00 -3.117402999999999924e+00 -6.447209661564465288e-02
8.447799999999999443e+01 -8.058999999999999275e+00 -1.143399999999999928e+01 -4.008106999999999864e+00 -1.097054092086180432e-01
8.448399999999999466e+01 1.574799999999999933e+01 -1.368699999999999939e+01 -1.014236000000000004e+01 -2.419242333252625277e-01
8.450000000000000000e+01 -2.172299999999999898e+00 -7.659699999999999953e+00 3.085396000000000072e+01 -5.890785389376516218e-02
8.450700000000000500e+01 1.535999999999999943e+01 -7.324600000000000222e+00 -1.545007000000000019e+01 -3.283599139078017259e-01
8.451200000000000045e+01 4.298099999999999810e+00 3.967000000000000082e+00 -3.275634000000000157e+01 -1.600000000000000588e-01
8.451300000000000523e+01 -2.151699999999999946e+00 -6.226300000000000168e+00 -2.502644999999999786e+00 -5.211442159531497198e-02
8.451800000000000068e+01 1.100399999999999956e+01 1.735200000000000076e+00 -6.767159999999999798e+01 -1.435804084098489808e-01
8.452200000000000557e+01 -5.077099999999999724e+00 -4.253899999999999793e+00 -2.424014999999999809e+00 -2.303406806285420438e-01
8.452400000000000091e+01 -6.027200000000000335e-01 -1.228599999999999959e+01 5.632314000000000043e+00 1.089530804843981127e-01
8.452599999999999625e+01 -6.335700000000000109e+00 -1.344999999999999929e+01 -4.481974000000000125e+00 1.137715021776685986e-01
8.454600000000000648e+01 -1.747600000000000042e+00 -1.306400000000000006e+01 7.472482000000000291e+00 1.101173546473504378e-01
8.454600000000000648e+01 1.396900000000000031e+00 -8.016299999999999315e+00 -1.574406999999999890e+00 -6.298684571959502210e-02
8.454800000000000182e+01 1.120000000000000107e+00 3.903999999999999915e+00 -5.437939000000000078e+00 -1.600000000000000033e-01
8.454800000000000182e+01 1.346999999999999975e+00 4.703100000000000058e+00 -1.602375999999999934e+01 -1.600000000000000311e-01
8.454800000000000182e+01 2.640000000000000124e+00 5.424000000000000377e+00 -3.318287000000000120e+01 -1.600000000000000033e-01
8.454800000000000182e+01 3.932999999999999829e+00 4.703100000000000058e+00 -3.157363000000000142e+01 -1.600000000000000033e-01
8.455599999999999739e+01 9.824999999999999289e+00 2.402000000000000135e+00 -5.987834999999999752e+01 -1.351497412809674059e-01
8.455700000000000216e+01 1.484399999999999942e+01 -1.674299999999999855e+01 -1.072460000000000058e+01 -2.807252423948484177e-01
8.456199999999999761e+01 8.033599999999999852e+00 -1.851399999999999935e+01 -8.468071000000000126e+00 -3.647553814449300963e-02
8.456300000000000239e+01 2.220000000000000029e-01 -1.234200000000000053e+01 -1.282394000000000069e-03 1.067941033036121645e-01
8.456499999999999773e+01 -1.639000000000000012e+00 -8.090999999999999304e+00 1.432215000000000060e+01 -6.074133609983334292e-02
8.456600000000000250e+01 8.515499999999999403e+00 1.692700000000000093e+00 -1.225127999999999950e+01 -1.285858194121317077e-01
8.456699999999999307e+01 -9.530699999999999728e-01 -7.042399999999999771e+00 2.503567999999999905e-01 -5.457093311095826543e-02
8.456900000000000261e+01 4.685299999999999798e+00 2.299799999999999844e+00 -8.886349999999999527e-01 -1.600000000000000033e-01
8.456999999999999318e+01 -5.693999999999999950e+00 -7.089699999999999669e+00 4.072162999999999755e+00 -2.376397588785423010e-01
8.456999999999999318e+01 -5.693999999999999950e+00 -6.224400000000000155e+00 1.807504999999999917e+00 -2.355715564122991823e-01
8.457099999999999795e+01 -2.455099999999999838e+00 -6.926300000000000345e+00 9.658032999999999646e+00 -5.568657759137026625e-02
8.458700000000000330e+01 -9.342100000000000293e+00 -7.899000000000000021e+00 -8.595715999999999468e+00 -2.786779564172521262e-01
8.459799999999999898e+01 1.712300000000000111e+01 -1.230300000000000082e+01 -6.617049999999999876e+00 -2.367963180682103597e-01
8.459799999999999898e+01 1.712300000000000111e+01 -1.125300000000000011e+01 -1.416305999999999976e+01 -2.338089940712038128e-01
8.460200000000000387e+01 4.788299999999999557e+00 -2.115299999999999869e+01 -1.544572999999999974e+00 -3.237809435735648778e-02
8.460699999999999932e+01 -6.826699999999999768e+00 -7.847999999999999865e+00 -1.382740000000000080e-01 -1.055327484009846994e-01
8.460999999999999943e+01 -4.636800000000000033e+00 -9.295099999999999474e-01 -3.692128999999999994e+00 -2.211934174084887739e-01
8.461599999999999966e+01 9.955399999999999805e-01 2.996999999999999886e+00 -5.385474999999999568e+00 -1.600000000000000033e-01
8.461599999999999966e+01 4.284500000000000419e+00 2.996999999999999886e+00 -9.354326999999999614e+00 -1.600000000000000311e-01
8.461599999999999966e+01 3.737899999999999778e+00 -2.058299999999999841e+01 -4.846498999999999772e-03 1.799999999999999933e-01
8.462000000000000455e+01 5.001299999999999635e+00 1.539500000000000091e+00 -2.967210000000000125e+00 -1.242394925488858187e-01
8.463200000000000500e+01 -2.205999999999999961e+00 1.721000000000000085e+00 6.479292000000000051e+00 -2.103223144008858903e-01
8.463599999999999568e+01 8.643299999999999594e-02 1.907499999999999973e+00 -3.426019999999999754e+01 -1.600000000000000033e-01
8.464700000000000557e+01 -6.316499999999999559e+00 -1.275999999999999979e+01 -2.454836999999999991e-01 1.142767949073252715e-01
8.465000000000000568e+01 -9.012700000000000600e+00 -7.139000000000000234e+00 -1.776051000000000002e+01 -2.783393967700368843e-01
8.465000000000000568e+01 -8.073299999999999699e+00 -7.139000000000000234e+00 -2.355697999999999936e+01 -2.798753106559531134e-01
8.465200000000000102e+01 1.648799999999999955e+01 -8.873300000000000409e+00 -1.319079999999999941e+01 -2.249853794064101409e-01
8.465600000000000591e+01 -1.989200000000000079e+00 -1.385299999999999976e+01 1.547774000000000072e+01 1.094312196021384187e-01
8.465699999999999648e+01 8.030699999999999505e+00 1.258099999999999996e+00 -6.628211000000000297e+00 -1.280667906337109030e-01
8.466400000000000148e+01 1.623899999999999899e+00 -1.315099999999999980e+01 -2.892583000000000126e+00 1.016958385900395417e-01
8.466400000000000148e+01 1.715000000000000080e+00 -1.473399999999999999e+01 -4.513983999999999774e+00 1.004030690214994664e-01
8.466400000000000148e+01 1.832999999999999963e+00 -1.558099999999999952e+01 -7.540148000000000295e+00 9.984373135435772872e-02
8.466400000000000148e+01 1.832999999999999963e+00 -1.388700000000000045e+01 -4.444348999999999883e+00 1.005048503530845128e-01
8.466899999999999693e+01 1.670299999999999940e+01 -8.064000000000000057e+00 -1.755666000000000082e+01 -2.146254349950211249e-01
8.467400000000000659e+01 -7.291400000000000325e+00 -1.172700000000000031e+01 -9.681163000000000407e-01 -1.132048100274256203e-01
8.467900000000000205e+01 -3.880999999999999783e+00 -1.586400000000000077e+01 -4.972841999999999985e+00 1.097218471219728597e-01
8.467900000000000205e+01 -2.923000000000000043e+00 -1.586400000000000077e+01 -8.042707000000000050e+00 1.086566486211029553e-01
8.468099999999999739e+01 1.575099999999999945e+01 -1.667500000000000071e+01 -1.040814999999999912e+01 -2.801820751302141477e-01
8.468399999999999750e+01 1.101900000000000013e+01 -1.760600000000000165e+01 -9.240712000000000259e+00 -1.184348087741873279e-01
8.468600000000000705e+01 6.443999999999999950e+00 -2.104500000000000171e+01 -4.078739999999999810e+00 -2.527157241640453147e-02
8.468600000000000705e+01 1.650100000000000122e+01 -9.759499999999999176e+00 -5.349910000000000387e+00 -2.275914872446527237e-01
8.468800000000000239e+01 1.158699999999999974e+01 -1.205999999999999989e-01 -1.520677000000000056e+01 -1.105073556644066840e-01
8.469199999999999307e+01 2.637399999999999967e+00 -1.941199999999999903e+01 -3.910728000000000204e+00 1.800000000000000211e-01
8.469899999999999807e+01 1.193200000000000038e+01 -5.523500000000000076e-01 -1.014573999999999998e+01 -1.113477411251315302e-01
8.470699999999999363e+01 -4.278200000000000003e+00 -2.780600000000000183e+00 -3.322071999999999914e+00 -2.257129561648902882e-01
8.470699999999999363e+01 -4.278200000000000003e+00 -1.915399999999999991e+00 -3.823167000000000204e+00 -2.233312756144254507e-01
8.471999999999999886e+01 1.672299999999999898e+01 -1.051600000000000001e+01 -3.888549999999999951e+00 -2.310756288319513185e-01
8.472100000000000364e+01 -5.605900000000000105e+00 7.882700000000000262e-01 -3.987708000000000030e+00 -2.652935317838909235e-01
8.473199999999999932e+01 1.637399999999999878e+01 -7.304000000000000270e+00 -1.737281000000000120e+01 -3.292074465651763648e-01
8.473300000000000409e+01 1.422400000000000020e+01 -2.855599999999999916e+00 -6.226047999999999583e+00 -1.727286822818693557e-01
8.474200000000000443e+01 -4.133899999999999686e+00 1.236299999999999955e+00 -1.839979999999999949e+00 -2.667824135798308460e-01
8.475300000000000011e+01 1.502699999999999925e+01 -5.939499999999999780e+00 -1.288057000000000007e+00 -3.286570212694543969e-01
8.476300000000000523e+01 1.328999999999999959e+00 -1.761799999999999855e+01 -5.242698999999999998e+00 1.799999999999999933e-01
8.476300000000000523e+01 1.556000000000000050e+00 -1.841700000000000159e+01 -4.503758000000000372e+00 1.799999999999999933e-01
8.476300000000000523e+01 1.556000000000000050e+00 -1.681899999999999906e+01 -5.275428999999999924e+00 1.003325451761680753e-01
8.476300000000000523e+01 1.765099999999999891e+00 -1.608299999999999841e+01 -1.142707000000000050e+01 9.995642782982323837e-02
8.478000000000000114e+01 -1.719000000000000083e+00 -6.926300000000000345e+00 1.375194000000000027e+00 -5.495200113148078491e-02
8.478199999999999648e+01 -8.759000000000000341e+00 -1.137599999999999945e+01 -4.494787999999999784e+00 -1.081043119391173202e-01
8.479600000000000648e+01 6.400000000000000355e+00 2.209299999999999875e-01 -8.939795000000000158e+00 -1.274850671413252090e-01
8.481399999999999295e+01 9.778999999999999915e+00 -1.736899999999999977e+01 -1.100206000000000017e+01 -3.709963667081127986e-02
8.481499999999999773e+01 8.489000000000000767e+00 -1.797299999999999898e+01 -2.508975999999999829e+01 -3.991323502260867018e-02
8.481600000000000250e+01 7.527999999999999581e+00 6.413299999999999557e-01 -8.424073999999999174e+00 -1.283826584993008613e-01
8.481699999999999307e+01 -2.521300000000000097e+00 -1.514300000000000068e+01 2.919294999999999973e+01 1.087146545392749380e-01
8.482099999999999795e+01 -9.988699999999999690e+00 -1.055300000000000082e+01 -4.736278000000000432e+00 -1.036901566813427794e-01
8.482099999999999795e+01 -9.988699999999999690e+00 -9.613300000000000622e+00 -5.061327999999999605e+00 -1.019701990179338880e-01
8.483199999999999363e+01 5.267400000000000304e+00 9.792100000000000248e-01 -6.734263000000000332e+00 -1.253623028566266673e-01
8.484499999999999886e+01 1.531600000000000072e+01 -5.146300000000000097e+00 -3.228952000000000044e+00 -2.139538744943292881e-01
8.484499999999999886e+01 1.531600000000000072e+01 -4.095699999999999896e+00 1.847447999999999979e+00 -2.323411233148864330e-01
8.484999999999999432e+01 1.531799999999999962e+01 -1.583999999999999986e+01 -1.517342999999999975e+01 -2.817533767092038621e-01
8.487900000000000489e+01 1.251399999999999935e+01 -1.686700000000000088e+01 -1.852559000000000111e+01 -1.183370145043878552e-01
8.488100000000000023e+01 1.531499999999999950e+01 -1.417800000000000082e+01 -1.275923000000000052e+01 -5.429027629748896244e-02
8.488100000000000023e+01 1.618100000000000094e+01 -1.417800000000000082e+01 -8.968533000000000754e+00 -1.382934521761714775e-01
8.488299999999999557e+01 5.629199999999999759e-01 2.297000000000000153e+00 -1.432870999999999917e+01 -1.600000000000000311e-01
8.488899999999999579e+01 3.202599999999999891e+00 -2.015700000000000003e+01 -1.288210000000000077e+00 1.799999999999999933e-01
8.490800000000000125e+01 1.655000000000000071e+01 -1.667500000000000071e+01 -8.880425999999999931e+00 -2.795478385840330371e-01
8.491400000000000148e+01 -6.749200000000000088e+00 -1.206000000000000050e+01 1.127050000000000018e+01 -1.161955871660313722e-01
8.492100000000000648e+01 -5.081900000000000084e+00 -5.420000000000000338e-03 -3.637484999999999857e+00 -2.634953287195113125e-01
8.492799999999999727e+01 1.141499999999999915e+01 6.729300000000000281e-01 -3.276359000000000066e+01 -1.094789426791070303e-01
8.493899999999999295e+01 1.501200000000000045e+01 -1.487800000000000011e+01 -1.801182000000000016e+01 -6.117236942249298925e-02
8.494199999999999307e+01 4.334699999999999775e+00 -2.124699999999999989e+01 -3.834639999999999826e+00 -3.437625176592450094e-02
8.497100000000000364e+01 1.528100000000000058e+01 -1.743499999999999872e+01 -9.223439000000000831e+00 -2.791222892547179368e-01
8.497100000000000364e+01 1.622100000000000009e+01 -1.743499999999999872e+01 -8.864340999999999582e+00 -2.786482581676132941e-01
8.497100000000000364e+01 1.622100000000000009e+01 -1.591499999999999915e+01 -1.031748999999999938e+01 -2.808349784797408710e-01
8.500300000000000011e+01 -7.259299999999999642e+00 -7.357099999999999973e+00 -2.739990999999999843e+01 -2.817735160018762230e-01
8.500300000000000011e+01 -6.394000000000000128e+00 -7.357099999999999973e+00 -2.502587999999999813e+00 -2.833009474298217589e-01
8.500900000000000034e+01 1.393200000000000038e+01 -1.680900000000000105e+01 -1.030700000000000038e+01 -1.134375170777989494e-01
8.501800000000000068e+01 1.879999999999999893e+00 5.133700000000000152e+00 -2.770486000000000004e+01 -1.600000000000000033e-01
8.501800000000000068e+01 3.399999999999999911e+00 5.133700000000000152e+00 -6.950148000000000081e+01 -1.600000000000000033e-01
8.502299999999999613e+01 -5.887400000000000411e+00 -5.564899999999999736e+00 5.372469999999999857e+00 -2.335401446808452186e-01
8.503100000000000591e+01 1.350000000000000000e+01 -2.275300000000000100e+00 -6.141831999999999958e+00 -1.492893318825620208e-01
8.503600000000000136e+01 -1.268999999999999906e+00 -1.268800000000000061e+01 6.672075000000000422e+00 1.092237755856485110e-01
8.504200000000000159e+01 -4.672299999999999898e+00 -1.485500000000000043e+01 -2.708525999999999989e+00 1.110878701284567366e-01
8.504699999999999704e+01 1.029400000000000048e+01 1.968099999999999961e+00 -5.387339999999999662e+01 -1.396930103686127578e-01
8.505100000000000193e+01 -1.828500000000000014e+00 1.690700000000000092e+00 7.749146999999999785e+00 -2.116781892438805157e-01
8.506100000000000705e+01 -6.090600000000000236e+00 -6.657000000000000028e+00 -2.779666000000000192e+00 -2.359453912535138809e-01
8.506699999999999307e+01 1.648100000000000165e+01 -1.359999999999999964e+01 -9.212350000000000705e+00 -2.403923550243220186e-01
8.506699999999999307e+01 -9.876500000000000057e+00 -8.370699999999999363e+00 -9.263528000000000873e+00 -2.786102054113537840e-01
8.507999999999999829e+01 -5.530100000000000016e+00 -4.762299999999999756e+00 -2.759805000000000175e-01 -2.315557879692416721e-01
8.508100000000000307e+01 -8.542999999999999261e+00 -6.605999999999999872e+00 -1.572629000000000055e+01 -2.786305077545211395e-01
8.508499999999999375e+01 4.248400000000000176e+00 1.826999999999999957e+00 -6.114126999999999867e+00 -1.600000000000000033e-01
8.509699999999999420e+01 1.133000000000000007e+00 -1.275399999999999956e+01 -2.507249999999999979e+00 1.035066995187949035e-01
8.509900000000000375e+01 5.700000000000000178e+00 2.792100000000000137e-01 -1.517975000000000030e+01 -1.269501399917428164e-01
8.509900000000000375e+01 7.099999999999999645e+00 2.792100000000000137e-01 -1.190831999999999979e+01 -1.284858956133503038e-01
8.510699999999999932e+01 -7.991399999999999615e+00 -1.146000000000000085e+01 -5.744485000000000063e+00 -1.110659929302706683e-01
8.511100000000000421e+01 -9.519000000000000128e+00 -1.131300000000000061e+01 -4.871194000000000024e+00 -1.066414393655983617e-01
8.511599999999999966e+01 -3.468399999999999928e+00 -1.510699999999999932e+01 -8.074585000000000790e+00 1.096842035052246062e-01
8.511700000000000443e+01 8.657000000000000028e+00 1.615299999999999958e+00 -8.496575999999999240e+00 -1.298481700526303018e-01
8.512000000000000455e+01 -9.772700000000000387e+00 -7.429299999999999571e+00 -8.497833999999999222e+00 -2.778329113045153176e-01
8.513500000000000512e+01 1.678200000000000003e+01 -1.265700000000000003e+01 -6.894885999999999626e+00 -2.403679894645747162e-01
8.513700000000000045e+01 1.246000000000000085e+01 -1.231400000000000050e+00 -8.726172000000000040e+00 -1.662892820944684436e-01
8.514799999999999613e+01 1.574799999999999933e+01 -1.487800000000000011e+01 -1.694294999999999973e+01 -5.191106148197745934e-02
8.515399999999999636e+01 -5.168599999999999639e+00 1.414299999999999891e+00 -8.143461999999999534e+00 -2.672760746687049549e-01
8.516700000000000159e+01 -6.048799999999999732e-01 1.591099999999999959e+00 -8.133425000000000793e+00 -1.600000000000000033e-01
8.516700000000000159e+01 -6.346899999999999764e+00 1.157000000000000028e+00 -5.276594000000000229e+00 -2.080417051191638111e-01
8.517000000000000171e+01 1.479100000000000037e+01 -3.245699999999999807e+00 -6.392724000000000295e+00 -1.683507377132127669e-01
8.517300000000000182e+01 1.597799999999999976e+01 -6.496500000000000163e+00 -1.444435000000000002e+01 -3.295577023106525116e-01
8.517600000000000193e+01 -5.112300000000000288e+00 -1.408999999999999986e+01 -2.594342000000000148e+00 1.119978044078968338e-01
8.520199999999999818e+01 1.713400000000000034e+01 -8.533699999999999619e+00 -1.636747000000000085e+01 -2.354795625886139665e-01
8.520199999999999818e+01 1.713400000000000034e+01 -7.594299999999999606e+00 -2.749358000000000146e+01 -2.275226897806020554e-01
8.520900000000000318e+01 1.186899999999999977e+01 -1.728099999999999881e+01 -1.088901000000000074e+01 -1.185513598613503750e-01
8.521099999999999852e+01 7.293999999999999595e+00 -1.967000000000000171e+01 -3.517879000000000200e+00 -3.228647904565106613e-02
8.521800000000000352e+01 1.094599999999999973e+01 1.431799999999999962e+00 -6.430382000000000176e+01 -1.060449138859050899e-01
8.522199999999999420e+01 -4.736299999999999955e+00 -1.446399999999999908e+00 -4.005689000000000277e+00 -2.229063215639334739e-01
8.523300000000000409e+01 2.088999999999999968e+00 -1.884799999999999898e+01 -1.182883999999999958e+01 1.799999999999999933e-01
8.523600000000000421e+01 9.337699999999999889e+00 1.848100000000000076e+00 -2.526088999999999984e+01 -1.331809886432584744e-01
8.523999999999999488e+01 1.020899999999999963e+01 -1.742200000000000060e+01 -1.037030000000000030e+01 -3.458013397778421372e-02
8.525700000000000500e+01 -2.607699999999999907e+00 -1.438400000000000034e+01 1.268894000000000055e+01 1.092443553573424903e-01
8.528300000000000125e+01 -6.847500000000000142e+00 -6.623300000000000409e+00 -6.689055999999999891e+00 -2.353233779826565952e-01
8.529699999999999704e+01 -4.614700000000000024e+00 -2.348700000000000010e+00 -3.944412999999999947e+00 -2.249992065046972078e-01
8.529800000000000182e+01 6.956000000000000405e+00 -2.075799999999999912e+01 -3.522221000000000046e+00 -2.644587594987844043e-02
8.529800000000000182e+01 -4.713099999999999845e+00 -3.882000000000000117e+00 -1.373755000000000115e-01 -2.290434522085638691e-01
8.529800000000000182e+01 -4.503999999999999559e+00 -3.145999999999999908e+00 3.728772999999999893e+00 -2.269856441273549463e-01
8.530700000000000216e+01 1.311900000000000066e+00 4.434899999999999842e+00 -1.556038000000000032e+01 -1.600000000000000033e-01
8.530800000000000693e+01 -4.154899999999999594e+00 1.185400000000000009e+00 1.090257999999999949e+00 -2.086441042420432157e-01
8.530800000000000693e+01 -2.604000000000000092e+00 1.625999999999999890e+00 1.783189000000000135e+01 -2.110569190251673499e-01
8.530800000000000693e+01 3.869699999999999918e+00 2.568999999999999950e+00 -1.547747000000000028e+01 -1.600000000000000033e-01
8.530800000000000693e+01 3.869699999999999918e+00 3.434299999999999908e+00 -5.330366999999999678e+01 -1.599999999999999756e-01
8.530800000000000693e+01 3.869699999999999918e+00 4.373700000000000365e+00 -6.902975000000000705e+01 -1.600000000000000311e-01
8.531600000000000250e+01 1.053800000000000070e+00 2.693599999999999994e+00 -6.122676000000000229e+00 -1.599999999999999756e-01
8.531600000000000250e+01 1.262899999999999912e+00 3.429600000000000204e+00 -1.474541999999999931e+01 -1.600000000000000033e-01
8.532599999999999341e+01 7.409699999999999953e+00 -1.873400000000000176e+01 -6.996105000000000018e+00 -4.010941572798125410e-02
8.533899999999999864e+01 -5.689899999999999958e-01 -1.262899999999999956e+01 -6.131355000000000555e-01 1.076539575581201558e-01
8.534699999999999420e+01 -6.258300000000000196e+00 -1.245700000000000074e+01 2.716525999999999996e+00 1.138256233280090235e-01
8.534900000000000375e+01 -7.784099999999999575e+00 -6.570899999999999963e+00 -1.463034999999999997e+01 -2.799052232079948799e-01
8.535299999999999443e+01 4.681099999999999817e+00 1.127000000000000002e+00 -9.959403999999999257e+00 -1.254223589259408911e-01
8.536400000000000432e+01 1.565600000000000103e+00 -1.431900000000000084e+01 -3.997631999999999852e+00 1.011726294573856710e-01
8.536400000000000432e+01 1.565600000000000103e+00 -1.345400000000000063e+01 -4.098043999999999798e+00 1.017110004218493013e-01
8.539400000000000546e+01 5.562599999999999767e+00 -2.173499999999999943e+01 -5.082582000000000377e+00 -2.746636357613643775e-02
8.540000000000000568e+01 1.655600000000000094e+01 -1.069800000000000040e+01 -4.080922000000000160e+00 -2.378709718801717554e-01
8.540000000000000568e+01 4.329899999999999860e-01 -1.269599999999999973e+01 -1.707856999999999958e+00 1.052912271969110858e-01
8.540200000000000102e+01 1.575099999999999945e+01 -1.796799999999999997e+01 -9.141851000000000838e+00 -2.780960011165737877e-01
8.540999999999999659e+01 -9.303000000000000824e+00 -6.669299999999999784e+00 -1.235294000000000025e+01 -2.777855030924352708e-01
8.541200000000000614e+01 1.613800000000000168e+01 -1.244899999999999984e+01 -8.415846999999999412e+00 -2.393787949920342384e-01
8.541299999999999670e+01 8.192099999999999937e+00 9.667700000000000182e-01 -2.171923000000000048e+00 -1.298375054993600730e-01
8.542300000000000182e+01 4.860000000000000320e+00 -2.184299999999999997e+01 -4.897497000000000433e+00 -2.985783261935673338e-02
8.543399999999999750e+01 -5.852400000000000269e+00 3.218699999999999894e-01 -4.420452000000000048e+00 -2.647693276664440654e-01
8.543500000000000227e+01 1.649899999999999878e+01 -1.165600000000000058e+01 -1.474909000000000070e+01 -2.396774051116347393e-01
8.544100000000000250e+01 1.698100000000000165e+01 -1.714499999999999957e+01 -8.761293999999999471e+00 -2.785020287039708942e-01
8.544100000000000250e+01 1.698100000000000165e+01 -1.620499999999999829e+01 -1.327675999999999945e+01 -2.786636879351419571e-01
8.544199999999999307e+01 1.323199999999999932e+01 -1.654200000000000159e+01 -1.955901000000000067e+01 -1.189785170631166566e-01
8.544199999999999307e+01 1.442300000000000004e+01 -1.720599999999999952e+01 -9.745093999999999923e+00 -1.918742875171658147e-01
8.545499999999999829e+01 2.572400000000000020e+00 5.548499999999999766e+00 -3.162546999999999997e+01 -1.600000000000000311e-01
8.546099999999999852e+01 9.137999999999999901e+00 -1.743799999999999883e+01 -2.303783999999999921e+01 -4.272231933296267992e-02
8.546500000000000341e+01 1.687500000000000000e+01 -1.561400000000000077e+01 -9.642231999999999914e+00 -2.426587510225231004e-01
8.546699999999999875e+01 3.484700000000000131e+00 -2.092200000000000060e+01 -3.393832000000000182e+00 1.800000000000000211e-01
8.546999999999999886e+01 9.511600000000000610e-02 1.649399999999999977e+00 -2.667854000000000170e+01 -1.599999999999999756e-01
8.547100000000000364e+01 1.644099999999999895e+01 -1.314899999999999913e+01 -8.254315000000000069e+00 -2.420767451723714880e-01
