8.021500000000000341e+01 2.674599999999999795e+02 1.983499999999999943e+02 1.015576000000000079e+01 -2.427437117838228409e-01
8.021699999999999875e+01 2.358499999999999943e+02 1.840500000000000114e+02 -1.118937000000000026e+01 1.424771123502064918e-01
8.021699999999999875e+01 2.358499999999999943e+02 1.867400000000000091e+02 -2.512414000000000147e+00 6.098393392181715444e-02
8.021999999999999886e+01 2.346599999999999966e+02 1.928300000000000125e+02 1.901982000000000061e+00 2.801425948103166211e-02
8.022299999999999898e+01 2.568000000000000114e+02 1.846100000000000136e+02 -2.972931000000000168e+01 -2.394285167977573958e-01
8.022599999999999909e+01 2.566399999999999864e+02 1.829900000000000091e+02 -4.923707999999999885e+01 -2.440335011037193524e-01
8.023199999999999932e+01 2.355999999999999943e+02 2.032199999999999989e+02 2.692737000000000158e+00 2.247467913641821302e-01
8.024500000000000455e+01 2.679399999999999977e+02 1.969799999999999898e+02 2.856812999999999825e+00 -2.425394255519433828e-01
8.025300000000000011e+01 2.529300000000000068e+02 1.740099999999999909e+02 1.321109000000000089e+00 -6.820609069870099683e-02
8.025300000000000011e+01 2.554099999999999966e+02 1.715300000000000011e+02 -1.694125999999999976e+01 -6.800242312048801474e-02
8.025900000000000034e+01 2.647200000000000273e+02 1.789199999999999875e+02 3.443491000000000213e+01 -1.615894943241131254e-01
8.025900000000000034e+01 2.649300000000000068e+02 1.781800000000000068e+02 3.034104999999999919e+01 -6.737894941386146641e-02
8.026999999999999602e+01 2.358300000000000125e+02 1.849499999999999886e+02 -6.240306000000000353e+00 1.163125856179765549e-01
8.026999999999999602e+01 2.338400000000000034e+02 1.990099999999999909e+02 -2.800626000000000104e+01 2.214108358730217385e-01
8.027500000000000568e+01 2.553899999999999864e+02 1.743300000000000125e+02 -1.446090000000000053e+01 -6.793584281341379094e-02
8.027899999999999636e+01 2.586999999999999886e+02 1.704799999999999898e+02 -1.677591999999999928e+01 -6.772617449356432839e-02
8.027899999999999636e+01 2.596399999999999864e+02 1.704799999999999898e+02 -2.889149000000000100e+01 -6.766627939176741990e-02
8.028300000000000125e+01 2.558600000000000136e+02 1.932100000000000080e+02 -8.489685000000000148e-01 -2.413879971341233444e-01
8.028799999999999670e+01 2.369600000000000080e+02 2.048600000000000136e+02 6.993153999999999648e+00 -2.102376685393858580e-02
8.028799999999999670e+01 2.369600000000000080e+02 2.064900000000000091e+02 2.597512000000000043e+00 -1.583153805509604495e-02
8.029000000000000625e+01 2.493600000000000136e+02 2.064499999999999886e+02 -1.135359999999999925e+00 2.352816063691656051e-02
8.031000000000000227e+01 2.653100000000000023e+02 1.888300000000000125e+02 2.458597000000000143e+00 -2.411258680234809604e-01
8.031300000000000239e+01 2.566999999999999886e+02 1.723499999999999943e+02 -2.193012999999999835e+01 -6.787298512566544706e-02
8.031600000000000250e+01 2.319499999999999886e+02 1.954000000000000057e+02 4.267250999999999905e+00 2.411525652733657599e-01
8.032299999999999329e+01 2.356899999999999977e+02 1.858199999999999932e+02 -8.061774000000000440e-01 8.780862761919025483e-02
8.033599999999999852e+01 2.604499999999999886e+02 1.719699999999999989e+02 -2.892095000000000127e+01 -6.762155780784194492e-02
8.033899999999999864e+01 2.369000000000000057e+02 2.076500000000000057e+02 1.571401999999999965e+00 -2.678661263702237366e-02
8.034099999999999397e+01 2.366399999999999864e+02 2.056999999999999886e+02 7.392360000000000042e-01 -1.678342364781370069e-02
8.034199999999999875e+01 2.651700000000000159e+02 1.834499999999999886e+02 -1.502421000000000006e+01 -2.456950149598931543e-01
8.034199999999999875e+01 2.583700000000000045e+02 1.712400000000000091e+02 -7.678377000000000230e+00 -6.775121802077725686e-02
8.034199999999999875e+01 2.599700000000000273e+02 1.712400000000000091e+02 -6.118829999999999814e+01 -6.764933821235766254e-02
8.034300000000000352e+01 2.569700000000000273e+02 1.838000000000000114e+02 -2.973056000000000054e+01 -2.414210557671715718e-01
8.034699999999999420e+01 2.366500000000000057e+02 2.041599999999999966e+02 5.319200999999999624e+00 -2.240189328701534810e-02
8.034699999999999420e+01 2.545099999999999909e+02 1.741699999999999875e+02 -2.296011000000000024e+00 -6.802448817586230490e-02
8.035299999999999443e+01 2.689599999999999795e+02 1.946800000000000068e+02 5.631706000000000323e+00 -2.422468687501775353e-01
8.035299999999999443e+01 2.689599999999999795e+02 1.957299999999999898e+02 1.732938000000000045e+01 -2.423934877561433887e-01
8.035800000000000409e+01 2.345999999999999943e+02 1.808100000000000023e+02 -2.461126000000000147e+00 -1.261824777596070868e-01
8.035800000000000409e+01 2.481100000000000136e+02 2.059199999999999875e+02 -1.444092000000000020e+01 2.167425960924543316e-02
8.036599999999999966e+01 2.653000000000000114e+02 2.008400000000000034e+02 2.867652000000000090e+00 -2.431322856174562563e-01
8.036700000000000443e+01 2.374099999999999966e+02 1.799199999999999875e+02 4.194501999999999953e-01 -4.413464483588223908e-02
8.036799999999999500e+01 2.583799999999999955e+02 1.727199999999999989e+02 4.834400999999999726e+00 -6.774235665363113890e-02
8.037699999999999534e+01 2.586399999999999864e+02 1.720000000000000000e+02 -7.773098000000000063e+00 -6.773074650092855697e-02
8.038100000000000023e+01 2.533300000000000125e+02 2.051699999999999875e+02 -1.190198000000000000e+01 -2.456227671706228688e-01
8.038100000000000023e+01 2.550399999999999920e+02 1.832500000000000000e+02 -6.080241999999999791e+01 -2.418014972753696201e-01
8.038100000000000023e+01 2.550399999999999920e+02 1.846500000000000057e+02 -5.134465999999999752e+01 -2.390977851142065680e-01
8.038200000000000500e+01 2.651200000000000045e+02 1.799399999999999977e+02 2.309505000000000052e+01 -1.593425025465950440e-01
8.038299999999999557e+01 2.561899999999999977e+02 1.846999999999999886e+02 -4.606045000000000300e+01 -2.392643567081608746e-01
8.040099999999999625e+01 2.541500000000000057e+02 1.732199999999999989e+02 -1.272273999999999905e+00 -6.810327346894491651e-02
8.040900000000000603e+01 2.551500000000000057e+02 1.764300000000000068e+02 -1.254958000000000062e+01 -6.785793064618632353e-02
8.041400000000000148e+01 2.661700000000000159e+02 1.895200000000000102e+02 9.474785999999999486e-01 -2.412930655291441462e-01
8.041500000000000625e+01 2.346999999999999886e+02 1.799099999999999966e+02 -3.164792999999999967e+00 -9.804358793054410159e-02
8.041800000000000637e+01 2.362400000000000091e+02 2.093199999999999932e+02 5.626894999999999536e-01 -2.425362989022022270e-02
8.041800000000000637e+01 2.364799999999999898e+02 2.085099999999999909e+02 1.866425000000000001e+00 -2.528082210761647963e-02
8.041800000000000637e+01 2.364799999999999898e+02 2.101399999999999864e+02 1.034517999999999915e+01 -2.402597310732432212e-02
8.041899999999999693e+01 2.505500000000000114e+02 1.742100000000000080e+02 1.255711999999999939e+01 -6.852708849025231086e-02
8.042300000000000182e+01 2.646899999999999977e+02 1.738600000000000136e+02 -1.145610999999999935e+00 -6.743002301938708087e-02
8.042600000000000193e+01 2.572099999999999795e+02 1.734199999999999875e+02 -5.409993000000000052e+00 -6.781545827102125612e-02
8.042600000000000193e+01 2.580799999999999841e+02 1.734199999999999875e+02 2.211450000000000138e+00 -6.775353579206407073e-02
8.042900000000000205e+01 2.628199999999999932e+02 2.017899999999999920e+02 -2.006176999999999921e+01 -2.433748578217595215e-01
8.043000000000000682e+01 2.377599999999999909e+02 2.109799999999999898e+02 -5.766377999999999560e+00 -2.512370982429889404e-02
8.043899999999999295e+01 2.562799999999999727e+02 1.742899999999999920e+02 -7.556935000000000180e+00 -6.786494760650532698e-02
8.043899999999999295e+01 2.547400000000000091e+02 1.839499999999999886e+02 -5.819774000000000314e+01 -2.389692176658028688e-01
8.044400000000000261e+01 2.659599999999999795e+02 1.763899999999999864e+02 -2.716454000000000146e+00 -6.737139026375174589e-02
8.044700000000000273e+01 2.356200000000000045e+02 1.906899999999999977e+02 4.194436999999999749e+00 1.786604939509277012e-01
8.044899999999999807e+01 2.657200000000000273e+02 1.771800000000000068e+02 1.470234999999999914e+01 -6.737014038655317338e-02
8.045499999999999829e+01 2.437800000000000011e+02 1.733300000000000125e+02 -9.145920999999999523e+00 -7.030029258640899115e-02
8.047799999999999443e+01 2.350300000000000011e+02 1.791500000000000057e+02 -3.084570999999999952e+00 -2.248108209649675449e-02
8.047799999999999443e+01 2.359699999999999989e+02 1.791500000000000057e+02 -5.462335000000000385e+00 -2.069759185641657090e-02
8.048699999999999477e+01 2.342299999999999898e+02 1.935300000000000011e+02 9.769813000000000525e-01 3.507225253806334903e-02
8.049099999999999966e+01 2.449099999999999966e+02 1.725800000000000125e+02 -1.976437999999999917e+01 -7.072471487159091852e-02
8.049099999999999966e+01 2.473700000000000045e+02 1.725800000000000125e+02 -6.244261999999999802e+01 -6.964232779781515115e-02
8.049200000000000443e+01 2.389799999999999898e+02 1.789600000000000080e+02 -8.919340000000000046e+00 -3.595060930360701734e-01
8.049200000000000443e+01 2.391899999999999977e+02 1.782299999999999898e+02 -7.760780999999999707e+00 -3.592304865443912698e-01
8.049599999999999511e+01 2.323899999999999864e+02 1.982800000000000011e+02 -3.117881999999999820e+00 2.166997739315024984e-01
8.049599999999999511e+01 2.565199999999999818e+02 1.749699999999999989e+02 -4.550159999999999982e+00 -6.782488682814452607e-02
8.049899999999999523e+01 2.489199999999999875e+02 1.749199999999999875e+02 -5.848754999999999704e+00 -6.867435688809883643e-02
8.050400000000000489e+01 2.671000000000000227e+02 2.008499999999999943e+02 -3.051482999999999990e+01 -2.431139250398717810e-01
8.050600000000000023e+01 2.671800000000000068e+02 1.934600000000000080e+02 -4.559904999999999653e+00 -2.419121193774560474e-01
8.051000000000000512e+01 2.318499999999999943e+02 1.967100000000000080e+02 2.200112999999999985e+00 2.451008879563897069e-01
8.053000000000000114e+01 2.461399999999999864e+02 1.717500000000000000e+02 -5.100227000000000288e+00 -7.055026118382014266e-02
8.053700000000000614e+01 2.578299999999999841e+02 2.012400000000000091e+02 1.596198999999999923e+00 -2.436614421677632814e-01
8.053900000000000148e+01 2.610500000000000114e+02 1.726899999999999977e+02 1.121442000000000050e+01 -6.758822384252649584e-02
8.054000000000000625e+01 2.401599999999999966e+02 1.753400000000000034e+02 -2.574746000000000201e+00 -2.356906627798157350e-01
8.054399999999999693e+01 2.474699999999999989e+02 1.735200000000000102e+02 -2.541065000000000040e+01 -6.932093892332756579e-02
8.054999999999999716e+01 2.471200000000000045e+02 1.742899999999999920e+02 -4.340274999999999750e+01 -6.915476256271259337e-02
8.054999999999999716e+01 2.502199999999999989e+02 2.065399999999999920e+02 3.870718999999999799e+00 2.574240048531872133e-02
8.055500000000000682e+01 2.562200000000000273e+02 1.756699999999999875e+02 -1.618277000000000143e+01 -6.782023555404396997e-02
8.055500000000000682e+01 2.451100000000000136e+02 2.098199999999999932e+02 -2.527554999999999907e+01 -1.831120077611129993e-02
8.055500000000000682e+01 2.463400000000000034e+02 2.089699999999999989e+02 -9.045565000000000566e+01 1.539153316017493299e-02
8.055500000000000682e+01 2.464499999999999886e+02 2.073700000000000045e+02 -3.484353999999999729e+01 1.681712090991394765e-02
8.055500000000000682e+01 2.465699999999999932e+02 2.081699999999999875e+02 -4.220557000000000158e+01 1.648656612353983572e-02
8.055500000000000682e+01 2.466599999999999966e+02 2.066399999999999864e+02 -2.202102999999999966e+01 1.797682861962959094e-02
8.055700000000000216e+01 2.556699999999999875e+02 2.024300000000000068e+02 -1.333320999999999934e+01 -2.443571677382967433e-01
8.056199999999999761e+01 2.351800000000000068e+02 2.027599999999999909e+02 3.123636999999999997e+00 2.232745567272746146e-01
8.056699999999999307e+01 2.514600000000000080e+02 2.058799999999999955e+02 1.678650000000000020e+01 2.868329880659016215e-02
8.056900000000000261e+01 2.591700000000000159e+02 1.712400000000000091e+02 -1.856088000000000093e+01 -6.769916406096007644e-02
8.056999999999999318e+01 2.539300000000000068e+02 1.738799999999999955e+02 -1.863040000000000029e+00 -6.809984584284550779e-02
8.057299999999999329e+01 2.566800000000000068e+02 1.735800000000000125e+02 -1.156307999999999936e+01 -6.785366104935894316e-02
8.058599999999999852e+01 2.398600000000000136e+02 2.110099999999999909e+02 1.008352000000000004e+01 -1.567332320077027483e-02
8.059399999999999409e+01 2.357100000000000080e+02 1.871200000000000045e+02 -1.758083000000000062e+00 4.271063633030534878e-02
8.060800000000000409e+01 2.474199999999999875e+02 1.749900000000000091e+02 -1.993997999999999848e+01 -6.888412153454684383e-02
8.060800000000000409e+01 2.482899999999999920e+02 1.749900000000000091e+02 -1.245036999999999949e+01 -6.875478761467256061e-02
8.060899999999999466e+01 2.632200000000000273e+02 1.736599999999999966e+02 -2.640458000000000194e+00 -6.748604578244098151e-02
8.061199999999999477e+01 2.439199999999999875e+02 2.104600000000000080e+02 -4.406521000000000043e+01 -2.055468253603092571e-02
8.061299999999999955e+01 2.426899999999999977e+02 1.737400000000000091e+02 -5.088975999999999722e+00 -1.737619007573950047e-01
8.061799999999999500e+01 2.662500000000000000e+02 1.756599999999999966e+02 -6.605472999999999928e+00 -6.736985085087912606e-02
8.061799999999999500e+01 2.558899999999999864e+02 1.764300000000000068e+02 -3.249421000000000248e+01 -6.780962860592502917e-02
8.062399999999999523e+01 2.423600000000000136e+02 2.105699999999999932e+02 -1.853168000000000148e+01 -2.178915522370345956e-02
8.062600000000000477e+01 2.543899999999999864e+02 2.034900000000000091e+02 -8.308408000000000460e-01 -2.449187912019781255e-01
8.062900000000000489e+01 2.393400000000000034e+02 1.768600000000000136e+02 -8.361575999999999453e+00 -3.585906484224914981e-01
8.063500000000000512e+01 2.538400000000000034e+02 1.756200000000000045e+02 1.078680000000000055e-01 -6.800851588265861836e-02
8.063500000000000512e+01 2.594300000000000068e+02 1.720099999999999909e+02 -1.797983999999999938e+01 -6.768166587699205039e-02
8.064799999999999613e+01 2.570199999999999818e+02 1.742899999999999920e+02 2.389458999999999889e-01 -6.781032208761542113e-02
8.064799999999999613e+01 2.445399999999999920e+02 1.732800000000000011e+02 -2.280426999999999893e+01 -7.023774034893687235e-02
8.065600000000000591e+01 2.555999999999999943e+02 1.839600000000000080e+02 -4.862187000000000126e+01 -2.391414821423349102e-01
8.065600000000000591e+01 2.343100000000000023e+02 1.820399999999999920e+02 -1.259244999999999948e+00 2.002690434819761334e-01
8.065999999999999659e+01 2.655799999999999841e+02 1.824300000000000068e+02 -4.176979999999999649e+01 -2.472418823971639923e-01
8.066200000000000614e+01 2.474099999999999966e+02 2.059799999999999898e+02 -1.549602999999999930e+01 2.087831113970347111e-02
8.066700000000000159e+01 2.334099999999999966e+02 1.985200000000000102e+02 -2.124212999999999951e+01 2.494484618658499575e-01
8.067100000000000648e+01 2.661000000000000227e+02 1.746800000000000068e+02 -4.701963000000000115e+00 -6.738101232030356547e-02
8.067100000000000648e+01 2.322599999999999909e+02 1.951800000000000068e+02 -6.681815000000000671e-02 2.445170604427745198e-01
8.067400000000000659e+01 2.488700000000000045e+02 2.059699999999999989e+02 -4.514817999999999998e+00 2.426216738176125917e-02
8.067499999999999716e+01 2.571700000000000159e+02 2.011599999999999966e+02 -2.939846999999999877e+00 -2.437096010382621691e-01
8.067600000000000193e+01 2.547199999999999989e+02 1.771299999999999955e+02 -2.188783000000000101e+01 -6.784829147798865367e-02
8.067600000000000193e+01 2.555900000000000034e+02 1.771299999999999955e+02 -2.877054000000000045e+01 -6.779438568763573869e-02
8.067799999999999727e+01 2.684300000000000068e+02 1.938300000000000125e+02 9.930548999999999626e-01 -2.420420476870028259e-01
8.067799999999999727e+01 2.684300000000000068e+02 1.965800000000000125e+02 3.904479999999999951e+00 -2.424429809051321938e-01
8.068200000000000216e+01 2.362599999999999909e+02 2.036399999999999864e+02 2.941854000000000191e+00 -2.277103812186443560e-02
8.068399999999999750e+01 2.549499999999999886e+02 1.720600000000000023e+02 -1.681333000000000055e+01 -6.804769405176266939e-02
8.068399999999999750e+01 2.558799999999999955e+02 1.720600000000000023e+02 -2.188690000000000069e+01 -6.795270501844827282e-02
8.068600000000000705e+01 2.350399999999999920e+02 1.918000000000000114e+02 -7.607669999999999710e-01 1.880814872110317393e-01
8.068600000000000705e+01 2.392500000000000000e+02 1.777599999999999909e+02 -8.215759999999999508e+00 -3.588975828154954417e-01
8.069299999999999784e+01 2.591299999999999955e+02 1.727100000000000080e+02 -1.186050999999999966e+00 -6.769572750802327343e-02
8.069400000000000261e+01 2.353000000000000114e+02 1.910000000000000000e+02 4.194436999999999749e+00 1.807309026201867341e-01
8.070099999999999341e+01 2.589499999999999886e+02 2.013400000000000034e+02 7.743878999999999735e+00 -2.435153409740984931e-01
8.070300000000000296e+01 2.345399999999999920e+02 1.992800000000000011e+02 -1.030278999999999989e+01 2.506618330306878972e-01
8.070600000000000307e+01 2.558499999999999943e+02 1.735900000000000034e+02 -2.359242000000000061e+01 -6.792309914865572729e-02
8.071099999999999852e+01 2.560400000000000205e+02 2.019199999999999875e+02 -6.026780999999999722e+00 -2.441129158817291478e-01
8.071500000000000341e+01 2.360500000000000114e+02 1.899900000000000091e+02 7.756726999999999705e+00 1.781582834924443914e-01
8.071800000000000352e+01 2.641999999999999886e+02 2.013400000000000034e+02 -2.165765000000000029e+01 -2.431948970568755808e-01
8.072299999999999898e+01 2.659100000000000250e+02 1.816599999999999966e+02 -2.581950000000000145e+01 -2.485274089834829669e-01
8.072299999999999898e+01 2.411399999999999864e+02 1.742100000000000080e+02 2.644756999999999802e+00 -2.645991545718554550e-01
8.072599999999999909e+01 2.539600000000000080e+02 2.043300000000000125e+02 -2.674304000000000059e+01 -2.452124322019781089e-01
8.073000000000000398e+01 2.621000000000000227e+02 1.733400000000000034e+02 3.870751999999999970e+00 -6.753541572905168155e-02
8.073199999999999932e+01 2.606100000000000136e+02 2.014799999999999898e+02 2.052865999999999858e+01 -2.433905350297217718e-01
8.073600000000000421e+01 2.656499999999999773e+02 1.808499999999999943e+02 -5.021192000000000100e+00 -1.571724809705112580e-01
8.073600000000000421e+01 2.652300000000000182e+02 1.885699999999999932e+02 1.198658000000000001e+01 -2.409946455133274434e-01
8.074200000000000443e+01 2.346800000000000068e+02 1.828899999999999864e+02 -2.033387999999999973e+00 1.830941851006752663e-01
8.074200000000000443e+01 2.356800000000000068e+02 1.838899999999999864e+02 -6.195475000000000065e+00 1.505648859990982857e-01
8.074200000000000443e+01 2.358899999999999864e+02 1.846299999999999955e+02 -6.317736000000000018e+00 1.198834610933012523e-01
8.074699999999999989e+01 2.546200000000000045e+02 1.728199999999999932e+02 -8.774245999999999768e+00 -6.806620483426893686e-02
8.074699999999999989e+01 2.562099999999999795e+02 1.728199999999999932e+02 -4.805646999999999736e+01 -6.791012479032990101e-02
8.076099999999999568e+01 2.628700000000000045e+02 1.822400000000000091e+02 7.700470999999999844e-01 -2.471572062378370183e-01
8.076300000000000523e+01 2.549199999999999875e+02 1.736299999999999955e+02 -2.031034999999999968e+01 -6.800832889573725504e-02
8.076900000000000546e+01 2.575199999999999818e+02 1.740699999999999932e+02 3.044925000000000104e+00 -6.778084883430599006e-02
8.077299999999999613e+01 2.667500000000000000e+02 1.927599999999999909e+02 -4.612529000000000323e+00 -2.417250523731044320e-01
8.077700000000000102e+01 2.326800000000000068e+02 1.948400000000000034e+02 -1.609731000000000023e+00 2.457277426319752212e-01
8.077899999999999636e+01 2.317400000000000091e+02 1.973300000000000125e+02 1.019433999999999951e+00 2.473863731712005742e-01
8.077899999999999636e+01 2.373499999999999943e+02 2.044199999999999875e+02 1.139977999999999980e+01 8.139359397993084499e-02
8.077899999999999636e+01 2.373499999999999943e+02 2.052899999999999920e+02 4.985547000000000395e+00 -2.103866257642784260e-02
8.077899999999999636e+01 2.373499999999999943e+02 2.060500000000000114e+02 3.713077999999999879e+00 -1.857282471445265842e-02
8.079399999999999693e+01 2.587799999999999727e+02 1.732599999999999909e+02 4.003618999999999595e+00 -6.771189323389266435e-02
8.080700000000000216e+01 2.646399999999999864e+02 1.824300000000000068e+02 -1.529443000000000019e+01 -2.469901981790761369e-01
8.081100000000000705e+01 2.373300000000000125e+02 2.070399999999999920e+02 2.021628999999999898e+00 -1.576718088496250475e-02
8.081799999999999784e+01 2.526299999999999955e+02 2.055800000000000125e+02 4.814786999999999928e+00 -2.458454826547671890e-01
8.082599999999999341e+01 2.667699999999999818e+02 1.918600000000000136e+02 5.908769000000000382e+00 -2.415881084474038043e-01
8.084199999999999875e+01 2.537100000000000080e+02 1.743799999999999955e+02 2.392332000000000125e+00 -6.809756353919038663e-02
8.085399999999999920e+01 2.614700000000000273e+02 2.010600000000000023e+02 9.429154999999999731e+00 -2.432156272117430018e-01
8.085599999999999454e+01 2.518700000000000045e+02 1.742400000000000091e+02 1.634876999999999825e+01 -6.832802868355170034e-02
8.085999999999999943e+01 2.416100000000000136e+02 2.103600000000000136e+02 3.155480999999999980e+00 -2.065896858716581921e-02
8.086499999999999488e+01 2.367899999999999920e+02 1.793400000000000034e+02 -3.014867999999999881e+01 -3.861643254098061362e-02
8.086599999999999966e+01 2.652500000000000000e+02 1.859699999999999989e+02 2.014323999999999870e+01 -2.410077541436315141e-01
8.087900000000000489e+01 2.666499999999999773e+02 1.900800000000000125e+02 -5.900769999999999627e-01 -2.413309111317508138e-01
8.087900000000000489e+01 2.669100000000000250e+02 1.909799999999999898e+02 2.094720000000000137e+00 -2.414752664399924809e-01
8.088100000000000023e+01 2.364399999999999977e+02 1.883799999999999955e+02 8.979529000000000538e-01 1.757551773484568036e-01
8.088100000000000023e+01 2.364399999999999977e+02 1.892500000000000000e+02 9.588343999999999312e+00 1.783502999526270227e-01
8.088700000000000045e+01 2.346599999999999966e+02 2.008600000000000136e+02 -9.933486000000000260e-01 2.515524155842066012e-01
8.088700000000000045e+01 2.346599999999999966e+02 2.019099999999999966e+02 -6.546180999999999806e-01 1.474015191297786687e-01
8.088800000000000523e+01 2.651000000000000227e+02 1.849699999999999989e+02 2.666587000000000174e+01 -2.425587200570718527e-01
8.089700000000000557e+01 2.370200000000000102e+02 2.105800000000000125e+02 -2.302392999999999912e+00 1.640505846878104745e-01
8.090900000000000603e+01 2.355000000000000000e+02 1.786100000000000136e+02 -3.252472000000000030e+00 -1.695826788363362717e-02
8.090900000000000603e+01 2.598700000000000045e+02 1.726100000000000136e+02 1.024451999999999918e+00 -6.765323775559686781e-02
8.092000000000000171e+01 2.347199999999999989e+02 1.931399999999999864e+02 2.728337000000000123e-02 2.863415374057887153e-02
8.092000000000000171e+01 2.632900000000000205e+02 2.013600000000000136e+02 -1.401824000000000048e+01 -2.431936261025438584e-01
8.092400000000000659e+01 2.390500000000000114e+02 2.109399999999999977e+02 6.866849000000000203e+00 -1.411369135894881277e-02
8.092400000000000659e+01 2.384900000000000091e+02 1.793600000000000136e+02 -1.466409999999999947e+01 -6.197398873857307144e-02
8.093099999999999739e+01 2.496200000000000045e+02 1.746500000000000057e+02 5.088651999999999731e+00 -6.860969163831473483e-02
8.093200000000000216e+01 2.650000000000000000e+02 1.841500000000000057e+02 1.624929999999999986e+00 -2.438790320518970378e-01
8.094100000000000250e+01 2.431500000000000057e+02 2.105200000000000102e+02 -2.764677999999999969e+01 -2.153558440182414685e-02
8.094799999999999329e+01 2.342700000000000102e+02 1.794399999999999977e+02 -6.950422999999999796e+00 -1.936430457244344219e-02
8.094899999999999807e+01 2.358300000000000125e+02 2.029399999999999977e+02 4.417511000000000188e+00 8.106949301042269684e-02
8.095000000000000284e+01 2.651100000000000136e+02 1.816599999999999966e+02 -3.722717999999999972e+00 -2.483020176511629151e-01
8.095799999999999841e+01 2.446100000000000136e+02 2.099499999999999886e+02 -3.450686999999999927e+01 -1.862363752790878804e-02
8.095900000000000318e+01 2.649900000000000091e+02 1.784900000000000091e+02 1.829033000000000087e+01 -1.615386680098420125e-01
8.095900000000000318e+01 2.649900000000000091e+02 1.793499999999999943e+02 6.111792000000000336e+00 -1.598606336874328349e-01
8.096099999999999852e+01 2.456699999999999875e+02 1.722800000000000011e+02 -5.939402000000000292e+00 -7.047418391183780939e-02
8.096099999999999852e+01 2.466100000000000136e+02 1.722800000000000011e+02 -1.239727000000000068e+01 -7.002256770934837948e-02
8.096500000000000341e+01 2.639100000000000250e+02 1.736899999999999977e+02 -2.135410999999999948e+00 -6.746051876692539528e-02
8.096599999999999397e+01 2.649100000000000250e+02 1.876100000000000136e+02 3.342891000000000190e+01 -2.407948740882101535e-01
8.096599999999999397e+01 2.651200000000000045e+02 1.868700000000000045e+02 1.778684000000000154e+01 -2.407568941361955539e-01
8.096999999999999886e+01 2.621299999999999955e+02 1.822400000000000091e+02 -2.418240000000000123e+01 -2.468030070986677593e-01
8.097400000000000375e+01 2.554099999999999966e+02 1.728199999999999932e+02 -1.662573000000000079e+01 -6.798468653940922812e-02
8.097400000000000375e+01 2.663399999999999750e+02 2.011399999999999864e+02 -8.642398000000000025e+00 -2.431020316772966317e-01
8.097400000000000375e+01 2.674300000000000068e+02 1.980900000000000034e+02 -2.596331999999999862e+00 -2.425959231173084318e-01
8.097400000000000375e+01 2.676299999999999955e+02 1.973499999999999943e+02 -4.313276000000000110e+00 -2.424822226715325491e-01
8.097400000000000375e+01 2.676299999999999955e+02 1.988199999999999932e+02 -7.660764999999999603e+00 -2.427247427162111948e-01
8.097400000000000375e+01 2.676299999999999955e+02 2.004199999999999875e+02 -4.023451000000000022e+01 -2.429904297882659048e-01
8.097400000000000375e+01 2.678600000000000136e+02 1.996200000000000045e+02 -4.722820000000000107e+01 -2.428633954020180119e-01
8.097799999999999443e+01 2.564700000000000273e+02 2.012199999999999989e+02 -1.646358000000000033e+01 -2.437793840077510377e-01
8.098099999999999454e+01 2.349199999999999875e+02 1.998400000000000034e+02 -1.406231000000000009e+00 2.518222233299431401e-01
8.098600000000000421e+01 2.507899999999999920e+02 2.062199999999999989e+02 2.914133000000000084e+00 2.834736934412842094e-02
8.098799999999999955e+01 2.497800000000000011e+02 2.061200000000000045e+02 3.173036000000000190e+00 2.678010435027228242e-02
8.099299999999999500e+01 2.637500000000000000e+02 1.823400000000000034e+02 1.314405999999999908e-01 -2.468466084675169925e-01
8.099599999999999511e+01 2.655699999999999932e+02 1.738300000000000125e+02 8.381858000000000364e-02 -6.740267259788700061e-02
8.099899999999999523e+01 2.521599999999999966e+02 2.056100000000000136e+02 8.984814999999999330e+00 -2.459731845505799819e-01
8.100300000000000011e+01 2.538400000000000034e+02 1.762500000000000000e+02 -1.288782999999999923e+01 -6.796714426069089265e-02
8.100400000000000489e+01 2.656600000000000250e+02 1.892700000000000102e+02 8.030696999999999974e+00 -2.410803341350267748e-01
8.100400000000000489e+01 2.341299999999999955e+02 1.805399999999999920e+02 -2.507801999999999865e+00 -1.250253070930263388e-01
8.100499999999999545e+01 2.478499999999999943e+02 1.754799999999999898e+02 -2.088741999999999877e+01 -6.868703010422608224e-02
8.101600000000000534e+01 2.316800000000000068e+02 1.958400000000000034e+02 -6.081904999999999673e-01 2.475825804171973010e-01
8.101699999999999591e+01 2.397700000000000102e+02 1.773199999999999932e+02 -9.168271999999999977e+00 -2.453491703804607238e-01
8.102400000000000091e+01 2.550300000000000011e+02 2.029600000000000080e+02 -2.732183000000000028e+00 -2.445502012117289625e-01
8.102400000000000091e+01 2.453400000000000034e+02 1.730399999999999920e+02 -2.125469999999999970e+01 -7.013534842831002647e-02
8.102400000000000091e+01 2.469399999999999977e+02 1.730399999999999920e+02 -2.146408999999999878e+01 -6.960815463412757531e-02
8.102500000000000568e+01 2.458100000000000023e+02 2.094000000000000057e+02 -6.194503000000000270e+01 1.508097734846873539e-02
8.102899999999999636e+01 2.624399999999999977e+02 1.815399999999999920e+02 -4.672276000000000096e+00 -2.483168555141808675e-01
8.102899999999999636e+01 2.633000000000000114e+02 1.815399999999999920e+02 8.257502000000000564e+00 -2.483687555990383711e-01
8.103300000000000125e+01 2.338199999999999932e+02 1.942599999999999909e+02 -1.398317999999999950e+00 2.490474831401592315e-01
8.104099999999999682e+01 2.467199999999999989e+02 1.747199999999999989e+02 -2.394462000000000046e+01 -6.905447275054844847e-02
8.104500000000000171e+01 2.441100000000000136e+02 1.737700000000000102e+02 -1.749322000000000044e+00 -6.981942527094868456e-02
8.104699999999999704e+01 2.369199999999999875e+02 2.037199999999999989e+02 1.671952999999999889e+01 8.080485982905807885e-02
8.104800000000000182e+01 2.406200000000000045e+02 1.750600000000000023e+02 -1.430444000000000049e+00 -2.471221588786887136e-01
8.105800000000000693e+01 2.341299999999999955e+02 1.816500000000000057e+02 -1.894789999999999974e+00 1.928389073860749536e-01
8.106499999999999773e+01 2.622699999999999818e+02 2.012199999999999989e+02 3.868733999999999895e+00 -2.431783955966383970e-01
8.106699999999999307e+01 2.431100000000000136e+02 1.737199999999999989e+02 -2.652747999999999884e+00 -1.782378317761176834e-01
8.106999999999999318e+01 2.598000000000000114e+02 2.014099999999999966e+02 9.677196000000000353e+00 -2.433801634983002171e-01
8.107399999999999807e+01 2.641999999999999886e+02 1.817299999999999898e+02 1.015319000000000038e+01 -2.480034099207122922e-01
8.107399999999999807e+01 2.641999999999999886e+02 1.831299999999999955e+02 -4.363940000000000374e+00 -2.453401654373858209e-01
8.107500000000000284e+01 2.394699999999999989e+02 1.780200000000000102e+02 -4.078092999999999968e+00 -3.590466458806393368e-01
8.107699999999999818e+01 2.398799999999999955e+02 1.761800000000000068e+02 -4.596059999999999590e+00 -2.482816805747067312e-01
8.107800000000000296e+01 2.466100000000000136e+02 1.738799999999999955e+02 -5.653741999999999734e+01 -6.937976729527882414e-02
8.108199999999999363e+01 2.450399999999999920e+02 1.737400000000000091e+02 -2.224323000000000050e+01 -6.975784858742078987e-02
8.109199999999999875e+01 2.648799999999999955e+02 1.835600000000000023e+02 -4.616685000000000372e+00 -2.447243906110513900e-01
8.109399999999999409e+01 2.469199999999999875e+02 2.063799999999999955e+02 -9.150226999999999222e+00 2.056821155645458671e-02
8.109399999999999409e+01 2.481100000000000136e+02 2.057100000000000080e+02 -1.074216000000000015e+01 2.426250890613598429e-02
8.110200000000000387e+01 2.594100000000000250e+02 1.731100000000000136e+02 2.174491999999999869e+00 -6.767593939989119400e-02
8.110899999999999466e+01 2.540200000000000102e+02 1.768600000000000136e+02 -2.166222000000000136e+01 -6.791251646437793110e-02
8.110899999999999466e+01 2.562900000000000205e+02 1.768600000000000136e+02 -2.243543999999999983e+01 -6.776637705499941045e-02
8.110899999999999466e+01 2.624800000000000182e+02 1.832500000000000000e+02 -1.663486999999999938e+01 -2.445467927542249176e-01
8.110899999999999466e+01 2.633399999999999750e+02 1.832500000000000000e+02 -4.697650000000000325e+00 -2.448276595101156194e-01
8.112600000000000477e+01 2.583399999999999750e+02 1.738499999999999943e+02 2.015064999999999884e+00 -6.773133415656173995e-02
8.113899999999999579e+01 2.570699999999999932e+02 1.755000000000000000e+02 -5.623515000000000263e+00 -6.777121182514581066e-02
8.113899999999999579e+01 2.574100000000000250e+02 1.747199999999999989e+02 3.011772000000000116e+00 -6.777261612952316383e-02
8.114300000000000068e+01 2.342700000000000102e+02 1.986200000000000045e+02 -6.583128999999999564e+00 2.519717909917577048e-01
8.114400000000000546e+01 2.660199999999999818e+02 1.766999999999999886e+02 7.994778000000000162e+00 -6.736851505404188589e-02
8.114900000000000091e+01 2.348899999999999864e+02 1.923600000000000136e+02 9.126583999999999808e-01 1.977131426547808768e-01
8.115300000000000580e+01 2.533799999999999955e+02 2.049199999999999875e+02 -1.568177999999999983e+01 -2.454352179348809615e-01
8.115500000000000114e+01 2.505500000000000114e+02 1.744199999999999875e+02 4.027021999999999657e+00 -6.849472863822696211e-02
8.116299999999999670e+01 2.628000000000000114e+02 1.736100000000000136e+02 -7.117100999999999900e+00 -6.750475922651613669e-02
8.117700000000000671e+01 2.575400000000000205e+02 2.005800000000000125e+02 -7.868873999999999924e+00 -2.433840695709136859e-01
8.117700000000000671e+01 2.584100000000000250e+02 2.005800000000000125e+02 -3.144808000000000048e-01 -2.432777951574368880e-01
8.118000000000000682e+01 2.353000000000000114e+02 1.902800000000000011e+02 6.010855000000000281e+00 1.775465642678755729e-01
8.118000000000000682e+01 2.651899999999999977e+02 1.804900000000000091e+02 1.138228999999999935e+01 -1.573825080610494198e-01
8.119199999999999307e+01 2.356299999999999955e+02 1.996100000000000136e+02 5.387948000000000182e-01 7.515958531972544154e-02
8.119299999999999784e+01 2.365399999999999920e+02 2.088400000000000034e+02 4.018533999999999828e+00 1.633414778553356483e-01
8.119299999999999784e+01 2.365399999999999920e+02 2.098000000000000114e+02 2.341890999999999945e+00 1.645088441142849855e-01
8.119799999999999329e+01 2.416100000000000136e+02 1.742100000000000080e+02 -1.768755000000000077e+00 -1.791991422735030315e-01
8.120300000000000296e+01 2.690299999999999727e+02 1.943100000000000023e+02 1.049938000000000038e+01 -2.420829285886891835e-01
8.120300000000000296e+01 2.690299999999999727e+02 1.960999999999999943e+02 1.028927999999999976e+01 -2.423378268299302696e-01
8.120300000000000296e+01 2.692799999999999727e+02 1.952100000000000080e+02 3.291472000000000264e+01 -2.422277815858331351e-01
8.122400000000000375e+01 2.310200000000000102e+02 1.970000000000000000e+02 -5.264727999999999630e-01 2.489627002631562003e-01
8.122499999999999432e+01 2.612599999999999909e+02 1.730699999999999932e+02 2.894371000000000027e+00 -6.757738045519491588e-02
8.122799999999999443e+01 2.377899999999999920e+02 1.794199999999999875e+02 -7.611301000000000094e+00 -6.016455270142510858e-02
8.123300000000000409e+01 2.377899999999999920e+02 2.106399999999999864e+02 -2.090917999999999921e+01 -1.286095549733171604e-02
8.123399999999999466e+01 2.551399999999999864e+02 1.777100000000000080e+02 -3.441835999999999984e+01 -6.778990000626013146e-02
8.123499999999999943e+01 2.527400000000000091e+02 1.743000000000000114e+02 5.809999999999999609e+00 -6.820962708086265869e-02
8.123799999999999955e+01 2.347400000000000091e+02 1.786800000000000068e+02 -2.478143000000000207e+00 -1.620499169678359802e-02
8.123799999999999955e+01 2.362599999999999909e+02 1.786800000000000068e+02 -3.435826000000000047e+00 -2.880232247797008885e-02
8.124599999999999511e+01 2.389499999999999886e+02 1.786299999999999955e+02 -3.906315999999999899e+00 -4.505486902557472029e-02
8.124800000000000466e+01 2.313799999999999955e+02 1.979300000000000068e+02 -4.850944999999999840e-01 2.500190425382313175e-01
8.125100000000000477e+01 2.353300000000000125e+02 1.989099999999999966e+02 -6.692671999999999510e-01 2.528320863621592585e-01
8.125100000000000477e+01 2.461399999999999864e+02 1.730399999999999920e+02 -4.337771000000000043e+01 -6.983610854357255593e-02
8.125900000000000034e+01 2.656499999999999773e+02 1.775200000000000102e+02 3.130912999999999968e+01 -6.737014355051551551e-02
8.126200000000000045e+01 2.611100000000000136e+02 2.009099999999999966e+02 1.832355000000000089e+01 -2.431299246675845682e-01
8.126699999999999591e+01 2.352700000000000102e+02 1.833700000000000045e+02 -2.556687000000000154e+00 1.462386972957224196e-01
8.127200000000000557e+01 2.638999999999999773e+02 1.812700000000000102e+02 2.060152000000000072e+01 -2.486893955936410328e-01
8.127200000000000557e+01 2.645699999999999932e+02 1.808300000000000125e+02 2.314367999999999981e+01 -2.495322821106553124e-01
8.128400000000000603e+01 2.354600000000000080e+02 2.024199999999999875e+02 2.632000999999999813e+00 2.527548715366756404e-01
8.128799999999999670e+01 2.676100000000000136e+02 1.933700000000000045e+02 -7.155196000000000112e+00 -2.418113085616452052e-01
8.130500000000000682e+01 2.458100000000000023e+02 1.739499999999999886e+02 -1.215906999999999982e+01 -6.948232586439337388e-02
8.130599999999999739e+01 2.603000000000000114e+02 1.730999999999999943e+02 5.515604999999999869e+00 -6.762616700351804788e-02
8.130800000000000693e+01 2.471500000000000057e+02 1.754199999999999875e+02 -1.140902999999999956e+01 -6.876602211721929980e-02
8.130800000000000693e+01 2.485500000000000114e+02 1.754199999999999875e+02 -5.991559999999999775e+00 -6.860593273778259338e-02
8.131399999999999295e+01 2.357400000000000091e+02 1.881100000000000136e+02 1.505570000000000075e+00 1.714933517882065162e-01
8.131399999999999295e+01 2.357400000000000091e+02 1.895099999999999909e+02 5.889930999999999806e+00 1.767096248362947652e-01
8.131499999999999773e+01 2.462700000000000102e+02 2.086399999999999864e+02 -8.241704000000000008e+01 1.744085622094129068e-02
8.132599999999999341e+01 2.544499999999999886e+02 2.037899999999999920e+02 3.500119999999999898e-01 -2.448492771270926460e-01
8.133199999999999363e+01 2.354199999999999875e+02 2.004199999999999875e+02 3.343252999999999808e+00 2.529837020812126247e-01
8.133299999999999841e+01 2.376899999999999977e+02 2.050399999999999920e+02 1.981670000000000087e+01 8.113132799946672080e-02
8.133299999999999841e+01 2.376899999999999977e+02 2.059099999999999966e+02 4.532521000000000022e+00 1.012043136202837694e-02
8.133299999999999841e+01 2.376899999999999977e+02 2.067400000000000091e+02 3.240134999999999987e+00 1.679058522425636579e-01
8.133299999999999841e+01 2.376899999999999977e+02 2.075999999999999943e+02 4.399325000000000152e+00 1.703656735960096258e-01
8.133700000000000330e+01 2.649200000000000159e+02 2.010200000000000102e+02 1.042922000000000082e+01 -2.430350924059593853e-01
8.133899999999999864e+01 2.408300000000000125e+02 2.105000000000000000e+02 -7.225083999999999840e+00 -1.869996158364722535e-02
8.134300000000000352e+01 2.350300000000000011e+02 1.912899999999999920e+02 1.118648000000000087e+00 1.881361502817160969e-01
8.134399999999999409e+01 2.663299999999999841e+02 1.759900000000000091e+02 -3.477171000000000012e-01 -6.736649881550772767e-02
8.134499999999999886e+01 2.669100000000000250e+02 1.926100000000000136e+02 -1.933008000000000060e+00 -2.416211414876774932e-01
8.135399999999999920e+01 2.450399999999999920e+02 2.094600000000000080e+02 -3.753349999999999653e+01 1.406853391588913302e-02
8.135599999999999454e+01 2.464099999999999966e+02 2.077199999999999989e+02 -2.019050999999999974e+01 1.870408685594008441e-02
8.136299999999999955e+01 2.461200000000000045e+02 1.746500000000000057e+02 -1.277720000000000056e+01 -6.913107267331700112e-02
8.137199999999999989e+01 2.436200000000000045e+02 2.099900000000000091e+02 -4.197572000000000259e+01 -1.988211787195654986e-02
8.137199999999999989e+01 2.360399999999999920e+02 1.888100000000000023e+02 6.902853999999999601e+00 1.764166580818100072e-01
8.137600000000000477e+01 2.558499999999999943e+02 1.775600000000000023e+02 -2.157759000000000071e+01 -6.775812372769478287e-02
8.138200000000000500e+01 2.503600000000000136e+02 2.057299999999999898e+02 2.930893999999999888e+00 2.954248985249935400e-02
8.139100000000000534e+01 2.355300000000000011e+02 1.874799999999999898e+02 9.525966999999999629e+00 1.696770096503723013e-01
8.139499999999999602e+01 2.662599999999999909e+02 1.743400000000000034e+02 -1.001271999999999940e+00 -6.737954206290999726e-02
8.139600000000000080e+01 2.652699999999999818e+02 1.864300000000000068e+02 1.723593999999999937e+01 -2.406523118563412833e-01
8.140300000000000580e+01 2.334099999999999966e+02 1.983100000000000023e+02 9.421315999999999136e+00 2.525933640111997502e-01
8.140399999999999636e+01 2.660600000000000023e+02 1.895999999999999943e+02 3.805997000000000074e+00 -2.410966786489240621e-01
8.140600000000000591e+01 2.665400000000000205e+02 1.751299999999999955e+02 -6.292298999999999864e+00 -6.736686568600910863e-02
8.140699999999999648e+01 2.681299999999999955e+02 1.969499999999999886e+02 -2.979315999999999853e+00 -2.423850678434613104e-01
8.140900000000000603e+01 2.323799999999999955e+02 1.982500000000000000e+02 1.117584000000000088e+01 2.518969953440430842e-01
8.141100000000000136e+01 2.559799999999999898e+02 2.016200000000000045e+02 -3.377724000000000171e+00 -2.438934583627500596e-01
8.141599999999999682e+01 2.557199999999999989e+02 2.023899999999999864e+02 5.054738000000000397e+00 -2.441645905241962566e-01
8.142300000000000182e+01 2.489300000000000068e+02 2.057500000000000000e+02 -1.207380999999999993e+01 2.701678500313409170e-02
8.142499999999999716e+01 2.628700000000000045e+02 1.810500000000000114e+02 8.689324000000000492e-01 -2.489622895497651256e-01
8.143600000000000705e+01 2.649599999999999795e+02 1.881399999999999864e+02 3.370416999999999774e+01 -2.407571097109045544e-01
8.143600000000000705e+01 2.651700000000000159e+02 1.888700000000000045e+02 2.228947000000000145e+01 -2.408737467120103948e-01
8.143999999999999773e+01 2.647500000000000000e+02 1.734000000000000057e+02 4.019484999999999864e-01 -6.743255852605364864e-02
8.144199999999999307e+01 2.465600000000000023e+02 2.070300000000000011e+02 -1.445077999999999996e+01 2.002574168490812989e-02
8.144400000000000261e+01 2.671000000000000227e+02 2.008499999999999943e+02 -4.487342000000000297e+01 -2.429983186230485204e-01
8.144400000000000261e+01 2.353899999999999864e+02 1.865999999999999943e+02 5.932472999999999885e+00 4.347480384761272937e-02
8.144400000000000261e+01 2.356399999999999864e+02 1.856999999999999886e+02 -1.774929999999999897e+00 7.691677120393290712e-02
8.144499999999999318e+01 2.385500000000000114e+02 2.104799999999999898e+02 1.833761999999999892e+00 -1.472196699826203159e-02
8.144799999999999329e+01 2.441399999999999864e+02 2.095200000000000102e+02 -4.771162000000000347e+01 1.207160895338865725e-02
8.144799999999999329e+01 2.655699999999999932e+02 2.010000000000000000e+02 2.246411000000000158e+00 -2.430143831279726885e-01
8.145300000000000296e+01 2.366500000000000057e+02 2.032500000000000000e+02 9.822850999999999999e+00 2.667580747977023048e-01
8.145699999999999363e+01 2.568299999999999841e+02 2.008300000000000125e+02 -5.839920000000000044e+01 -2.434996810502055575e-01
8.146099999999999852e+01 2.617400000000000091e+02 1.818100000000000023e+02 -1.273729999999999940e+01 -2.471344599466429037e-01
8.146599999999999397e+01 2.331200000000000045e+02 1.945200000000000102e+02 -1.092916999999999916e+00 2.535481387270062670e-01
8.146599999999999397e+01 2.343100000000000023e+02 1.938600000000000136e+02 -1.214177999999999980e+00 2.534677356536054749e-01
8.146899999999999409e+01 2.577900000000000205e+02 1.745000000000000000e+02 7.157096999999999765e-02 -6.775287512613793750e-02
8.147499999999999432e+01 2.426800000000000068e+02 2.100399999999999920e+02 -3.313718999999999681e+01 -2.163879772026934545e-02
8.147899999999999920e+01 2.445999999999999943e+02 1.742400000000000091e+02 7.317126000000000019e+00 -6.942152351432101520e-02
8.148300000000000409e+01 2.351399999999999864e+02 2.013799999999999955e+02 1.572662999999999922e+00 2.531721018322972139e-01
8.149399999999999977e+01 2.399099999999999966e+02 2.106899999999999977e+02 -3.436913999999999803e+00 1.690879175412258184e-01
8.149399999999999977e+01 2.415399999999999920e+02 2.102199999999999989e+02 1.636974999999999980e+01 1.636254692120556742e-01
8.149399999999999977e+01 2.590500000000000114e+02 1.736899999999999977e+02 2.659670000000000201e+00 -6.768991312726882481e-02
8.150100000000000477e+01 2.423100000000000023e+02 1.741500000000000057e+02 -3.936420000000000030e+00 -1.723135696919550763e-01
8.150100000000000477e+01 2.617599999999999909e+02 1.828300000000000125e+02 -1.866206000000000031e+01 -2.447571632291175858e-01
8.150600000000000023e+01 2.629100000000000250e+02 1.837400000000000091e+02 -6.710041999999999618e+00 -2.432475191106330814e-01
8.150799999999999557e+01 2.401699999999999875e+02 1.768899999999999864e+02 -5.705913999999999930e+00 -2.518321864983448233e-01
8.150799999999999557e+01 2.401699999999999875e+02 1.777500000000000000e+02 -9.505983000000000516e+00 -2.506474016145575634e-01
8.152700000000000102e+01 2.474099999999999966e+02 2.059799999999999898e+02 -4.446258000000000266e+00 2.365636607135214453e-02
8.152800000000000580e+01 2.654200000000000159e+02 1.858000000000000114e+02 1.105861999999999945e+01 -2.407445055817423740e-01
8.153700000000000614e+01 2.322599999999999909e+02 1.951800000000000068e+02 -1.498110000000000053e+00 2.536121949807804143e-01
8.154800000000000182e+01 2.346399999999999864e+02 1.825999999999999943e+02 -1.472966999999999915e+00 1.571174429059671862e-01
8.154999999999999716e+01 2.307800000000000011e+02 1.960999999999999943e+02 -7.277211999999999570e-01 2.509443418747170362e-01
8.155100000000000193e+01 2.592699999999999818e+02 2.008199999999999932e+02 4.409784000000000148e+00 -2.431834434183001714e-01
8.155100000000000193e+01 2.603199999999999932e+02 2.008199999999999932e+02 7.180551999999999602e+00 -2.431034402977204079e-01
8.155899999999999750e+01 2.512599999999999909e+02 2.058400000000000034e+02 2.274350999999999789e+00 -2.462369291764474610e-01
8.156100000000000705e+01 2.374300000000000068e+02 2.040600000000000023e+02 3.442307999999999879e+01 2.665134199453327302e-01
8.156900000000000261e+01 2.539799999999999898e+02 2.044499999999999886e+02 2.120541999999999927e+00 -2.450909515897748414e-01
8.157299999999999329e+01 2.414699999999999989e+02 1.747400000000000091e+02 -3.011654000000000053e+00 -1.697580299696268558e-01
8.157299999999999329e+01 2.579700000000000273e+02 2.000900000000000034e+02 -7.054975999999999914e+00 -2.431003426820286806e-01
8.158100000000000307e+01 2.302199999999999989e+02 1.969399999999999977e+02 -1.266391000000000044e-01 -3.224892415051199696e-02
8.163299999999999557e+01 2.620199999999999818e+02 1.734600000000000080e+02 -3.558571000000000151e+00 -6.753942049788477786e-02
8.163700000000000045e+01 2.648399999999999750e+02 1.795300000000000011e+02 -4.665611000000000175e+00 -1.587582241350607992e-01
8.164100000000000534e+01 2.640000000000000000e+02 1.735399999999999920e+02 3.039297000000000248e-01 -6.745883624534784739e-02
8.164199999999999591e+01 2.326800000000000068e+02 1.948400000000000034e+02 -2.586030000000000051e+00 2.553568939708768526e-01
8.164400000000000546e+01 2.410999999999999943e+02 1.755900000000000034e+02 -7.984340999999999688e+00 -1.553610347350792009e-01
8.165200000000000102e+01 2.305800000000000125e+02 1.977899999999999920e+02 1.854800999999999922e+00 -1.949210720948360565e-02
8.165399999999999636e+01 2.656800000000000068e+02 1.736399999999999864e+02 5.416905999999999805e-02 -6.740082060903809791e-02
8.165600000000000591e+01 2.632900000000000205e+02 2.011500000000000057e+02 -2.258738000000000065e-02 -2.430388483210340900e-01
8.166200000000000614e+01 2.431500000000000057e+02 2.092299999999999898e+02 -4.332285000000000252e+01 1.017206146310511983e-02
8.166599999999999682e+01 2.651800000000000068e+02 1.871699999999999875e+02 3.061158999999999963e+01 -2.406448798415125323e-01
8.166899999999999693e+01 2.634700000000000273e+02 1.807800000000000011e+02 -3.765001999999999960e+00 -2.492709603427336607e-01
8.167000000000000171e+01 2.595600000000000023e+02 1.736599999999999966e+02 1.083522999999999925e+01 -6.766046257561984800e-02
8.167199999999999704e+01 2.373199999999999932e+02 2.085500000000000114e+02 1.316151999999999944e+01 1.601172880461991244e-01
