-2.718199999999999861e+01 2.267500000000000071e+01 1.570899999999999963e+01 -5.773939000000000377e+00 -2.395681083809361456e-01
-2.716499999999999915e+01 1.953999999999999915e+01 1.654899999999999949e+01 -2.026585000000000036e+01 -1.014116248281742988e-01
-2.712600000000000122e+01 1.830999999999999872e+01 1.478599999999999959e+01 -2.401693999999999996e+00 -2.350208967382772518e-01
-2.712600000000000122e+01 1.830999999999999872e+01 1.572600000000000087e+01 -1.694118999999999930e+00 -2.325417153988008079e-01
-2.711100000000000065e+01 2.125600000000000023e+01 1.655900000000000105e+01 -3.199914999999999843e+00 -1.010698104078557868e-01
-2.711100000000000065e+01 2.230600000000000094e+01 1.485899999999999999e+01 -6.080390000000000406e+00 -2.412744524520998579e-01
-2.711100000000000065e+01 2.230600000000000094e+01 1.655900000000000105e+01 -3.740981000000000112e+00 -2.382477395983061963e-01
-2.709499999999999886e+01 2.185699999999999932e+01 1.345100000000000051e+01 -6.502705999999999875e+00 -2.402726140231459251e-01
-2.709100000000000108e+01 3.066300000000000026e+01 3.290599999999999881e+01 -3.433588000000000195e-01 2.668866478238426376e-01
-2.705300000000000082e+01 2.200300000000000011e+01 1.415900000000000070e+01 -6.510564999999999714e+00 -2.415851057887295483e-01
-2.702400000000000091e+01 2.043799999999999883e+01 1.260100000000000087e+01 -2.055715999999999877e+00 -2.364542938675123496e-01
-2.702400000000000091e+01 2.148799999999999955e+01 1.260100000000000087e+01 -3.074381999999999948e+00 -2.376742980131802130e-01
-2.697299999999999898e+01 2.341100000000000136e+01 1.570899999999999963e+01 -3.342727000000000004e+00 -2.389018372195575446e-01
-2.689699999999999847e+01 2.029899999999999949e+01 1.658399999999999963e+01 -1.468961999999999968e+01 -1.009086609994821748e-01
-2.688599999999999923e+01 2.259299999999999997e+01 1.345100000000000051e+01 -4.450287999999999577e+00 -2.409179200755478811e-01
-2.684400000000000119e+01 2.273900000000000077e+01 1.415900000000000070e+01 -3.170243999999999840e+00 -2.421221270247259361e-01
-2.683699999999999974e+01 2.976899999999999835e+01 3.290599999999999881e+01 -2.497826999999999964e-01 -3.677927108397978373e-02
-2.683699999999999974e+01 3.155699999999999861e+01 3.290599999999999881e+01 5.200565000000000326e-01 2.683178048676859717e-01
-2.683599999999999852e+01 1.878000000000000114e+01 1.402599999999999980e+01 -2.720912000000000219e+00 -2.360828573282171550e-01
-2.683599999999999852e+01 1.878000000000000114e+01 1.648600000000000065e+01 -2.550253000000000103e+00 -1.019837370655038711e-01
-2.681299999999999883e+01 2.357799999999999940e+01 1.447300000000000075e+01 -2.752902999999999878e+00 -2.403580352494651406e-01
-2.676800000000000068e+01 2.308500000000000085e+01 1.302800000000000047e+01 -2.931169999999999831e+00 -2.392281356329758191e-01
-2.676599999999999824e+01 3.013800000000000168e+01 3.205599999999999739e+01 -2.752646999999999733e-01 -3.536188290936909812e-02
-2.676599999999999824e+01 3.013800000000000168e+01 3.375600000000000023e+01 8.243144999999999500e-01 -5.393309386586174481e-02
-2.676599999999999824e+01 3.118799999999999883e+01 3.205599999999999739e+01 -3.040148999999999768e-01 2.635771923441480591e-01
-2.676599999999999824e+01 3.118799999999999883e+01 3.375600000000000023e+01 -3.153441000000000161e-01 2.720959755691915172e-01
-2.674299999999999855e+01 2.391600000000000037e+01 1.528299999999999947e+01 -2.125983999999999874e+00 -2.380811009352520047e-01
-2.673100000000000165e+01 2.326800000000000068e+01 1.394500000000000028e+01 -2.706011999999999862e+00 -2.413284308726813820e-01
-2.670499999999999829e+01 2.335900000000000176e+01 1.623000000000000043e+01 -1.697721999999999953e+00 -2.384843331600248750e-01
-2.666499999999999915e+01 2.175600000000000023e+01 1.207399999999999984e+01 -3.151717000000000102e+00 -2.362845212561827668e-01
-2.663400000000000034e+01 1.562100000000000044e+01 2.756599999999999895e+01 2.255484999999999829e+01 -2.496589157572058348e-01
-2.662999999999999901e+01 2.178099999999999881e+01 1.715500000000000114e+01 1.755108999999999853e+01 -1.033441602514092728e-01
-2.659199999999999875e+01 2.394600000000000151e+01 1.310500000000000043e+01 -3.178948000000000107e+00 -3.201136997529666073e-01
-2.657999999999999829e+01 2.274599999999999866e+01 1.218200000000000038e+01 -2.787719000000000058e+00 -2.364259068113171713e-01
-2.654299999999999926e+01 2.096300000000000097e+01 1.200500000000000078e+01 -2.258029000000000064e+00 -2.356103857563692228e-01
-2.649899999999999878e+01 1.958800000000000097e+01 1.292600000000000016e+01 -1.082880999999999982e+00 -2.365807175358651815e-01
-2.645899999999999963e+01 9.233999999999999986e+00 1.915399999999999991e+01 -6.167531000000000319e+00 -3.499999999999999778e-01
-2.640299999999999869e+01 1.480599999999999916e+01 2.756599999999999895e+01 2.062406999999999879e+00 -2.512071287923964835e-01
-2.640299999999999869e+01 1.643599999999999994e+01 2.756599999999999895e+01 6.407230000000000203e+00 -2.483373204718040961e-01
-2.637600000000000122e+01 2.466100000000000136e+01 1.348300000000000054e+01 -2.293614999999999959e+00 -3.178351049761967695e-01
-2.636599999999999966e+01 1.801999999999999957e+01 1.525600000000000023e+01 -3.311367999999999867e+00 -2.332839045967309288e-01
-2.636599999999999966e+01 1.824699999999999989e+01 1.445700000000000074e+01 -2.466914000000000051e+00 -2.355733493155408864e-01
-2.636599999999999966e+01 1.824699999999999989e+01 1.605499999999999972e+01 -1.637949000000000099e+00 -2.311354517235085226e-01
-2.636599999999999966e+01 1.919600000000000151e+01 1.350799999999999912e+01 -2.869978000000000140e+00 -2.370971721163889490e-01
-2.636599999999999966e+01 1.953999999999999915e+01 1.677599999999999980e+01 -6.871196000000000303e+00 -1.016062200261032694e-01
-2.636299999999999955e+01 1.472300000000000075e+01 2.985399999999999920e+01 1.882565999999999962e+00 -2.410430202238765252e-01
-2.633800000000000097e+01 1.514199999999999946e+01 2.679100000000000037e+01 9.117977000000000443e-01 -2.406476615178390621e-01
-2.633800000000000097e+01 1.610000000000000142e+01 2.679100000000000037e+01 1.525362000000000107e+00 -2.394063153878593919e-01
-2.633800000000000097e+01 1.610000000000000142e+01 2.834100000000000108e+01 1.661344000000000065e+01 -2.455848459231074199e-01
-2.629799999999999827e+01 7.748000000000000220e+00 1.755399999999999849e+01 -5.143243000000000009e+00 -3.499999999999999778e-01
-2.628500000000000014e+01 3.066300000000000026e+01 3.146000000000000085e+01 -4.189143000000000033e-02 2.598992331737350336e-01
-2.628500000000000014e+01 3.066300000000000026e+01 3.435199999999999676e+01 5.320791999999999744e-01 2.755158856566516379e-01
-2.628200000000000003e+01 2.443700000000000117e+01 1.478500000000000014e+01 -3.650949000000000222e+00 -3.197557553785693729e-01
-2.626099999999999923e+01 2.093100000000000094e+01 1.708399999999999963e+01 1.105647999999999964e+00 -1.025906985015229839e-01
-2.626099999999999923e+01 2.263100000000000023e+01 1.708399999999999963e+01 5.784786000000000428e+00 -1.033311133796727815e-01
-2.625799999999999912e+01 2.524800000000000111e+01 3.569700000000000273e+01 -1.012656000000000001e+00 -8.558277828326155134e-02
-2.624099999999999966e+01 2.928800000000000026e+01 3.238100000000000023e+01 -3.860893000000000241e-01 -2.145662020201159759e-02
-2.624099999999999966e+01 2.928800000000000026e+01 3.343099999999999739e+01 2.639631000000000061e-01 -3.521309755254687507e-02
-2.624099999999999966e+01 3.203799999999999670e+01 3.238100000000000023e+01 3.629821000000000186e+00 2.670076553691516641e-01
-2.624099999999999966e+01 3.203799999999999670e+01 3.343099999999999739e+01 2.423932000000000198e+00 2.735371731646371596e-01
-2.623199999999999932e+01 8.434900000000000730e+00 1.915399999999999991e+01 -5.261544999999999916e+00 -3.499999999999999778e-01
-2.623199999999999932e+01 1.003299999999999947e+01 1.915399999999999991e+01 -5.391988999999999699e+00 -3.500000000000000333e-01
-2.621099999999999852e+01 1.522700000000000031e+01 2.903900000000000148e+01 5.818024999999999558e+00 -2.449411489962765587e-01
-2.620899999999999963e+01 2.312800000000000011e+01 1.682499999999999929e+01 1.125728999999999980e+00 -1.024925824147158160e-01
-2.620599999999999952e+01 2.361100000000000065e+01 1.241300000000000026e+01 -4.856974000000000125e+00 -2.362576231959211959e-01
-2.617999999999999972e+01 1.577100000000000080e+01 2.913500000000000156e+01 2.945327999999999946e+01 -2.430459927665027386e-01
-2.617999999999999972e+01 2.422800000000000153e+01 1.255300000000000082e+01 -2.676522999999999985e+00 -3.176745567371703771e-01
-2.617599999999999838e+01 8.564099999999999824e+00 1.752499999999999858e+01 -1.681326999999999927e+01 -3.499999999999999778e-01
-2.617399999999999949e+01 2.011299999999999955e+01 1.207600000000000051e+01 1.539819000000000049e+00 -2.349989289708365736e-01
-2.616900000000000048e+01 8.764300000000000423e+00 1.991400000000000148e+01 -2.137265999999999977e+01 -3.499999999999999778e-01
-2.616900000000000048e+01 9.703699999999999548e+00 1.839399999999999835e+01 -8.764136000000000593e+00 -3.499999999999999778e-01
-2.616900000000000048e+01 9.703699999999999548e+00 1.991400000000000148e+01 -2.492148999999999859e+01 -3.499999999999999778e-01
-2.615500000000000114e+01 8.222400000000000375e+00 1.832199999999999918e+01 -1.973932999999999893e+01 -3.499999999999999778e-01
-2.614999999999999858e+01 1.411999999999999922e+01 2.902599999999999980e+01 3.090278000000000080e+00 -2.486627047760875953e-01
-2.614699999999999847e+01 2.439699999999999847e+01 1.580799999999999983e+01 1.810418000000000083e+00 -2.345154235501871742e-01
-2.612199999999999989e+01 2.555499999999999972e+01 1.348300000000000054e+01 -7.703406999999999893e-01 -3.106114552471541113e-01
-2.610900000000000176e+01 1.382900000000000063e+01 2.985399999999999920e+01 8.542127999999999943e-01 -3.575284242971091264e-01
-2.610900000000000176e+01 1.561700000000000088e+01 2.985399999999999920e+01 1.936751999999999896e+01 -2.381614126202768189e-01
-2.609900000000000020e+01 2.222100000000000009e+01 1.158600000000000030e+01 -2.077780000000000182e+00 -2.339556363536707262e-01
-2.607100000000000151e+01 6.948900000000000077e+00 1.755399999999999849e+01 -5.944007000000000041e+00 -3.500000000000000333e-01
-2.605099999999999838e+01 2.518599999999999994e+01 1.263299999999999912e+01 -1.896308000000000105e+00 -3.109064097968808338e-01
-2.605099999999999838e+01 2.518599999999999994e+01 1.433300000000000018e+01 2.896241999999999983e-01 -3.151394812562422487e-01
-2.604299999999999926e+01 3.155799999999999983e+01 3.434100000000000108e+01 7.694912999999999892e-01 2.779370540438169113e-01
-2.603800000000000026e+01 1.419800000000000040e+01 3.070400000000000063e+01 2.159285000000000121e+00 -2.419793198219827579e-01
-2.603800000000000026e+01 1.524799999999999933e+01 3.070400000000000063e+01 1.426603000000000065e+01 -2.420592416171435113e-01
-2.600799999999999912e+01 7.278299999999999770e+00 1.679400000000000048e+01 -7.406532000000000338e+00 -2.592473683094505543e-01
-2.600799999999999912e+01 7.278299999999999770e+00 1.831400000000000006e+01 -1.171992999999999974e+01 -3.500000000000000888e-01
-2.600799999999999912e+01 8.217700000000000671e+00 1.679400000000000048e+01 -7.394699000000000133e+00 -3.499999999999999778e-01
-2.600400000000000134e+01 2.435399999999999920e+01 3.569700000000000273e+01 -6.747982000000000147e-01 -1.791450798261733646e-01
-2.600400000000000134e+01 2.614199999999999946e+01 3.569700000000000273e+01 -1.171022000000000007e+00 -9.696305350664245759e-02
-2.600100000000000122e+01 2.023999999999999844e+01 1.693199999999999861e+01 -5.210928000000000004e+00 -1.016703967095101968e-01
-2.596399999999999864e+01 1.431000000000000050e+01 2.803999999999999915e+01 1.840489000000000042e+00 -2.509039427652302034e-01
-2.593299999999999983e+01 2.472299999999999898e+01 3.484700000000000131e+01 4.586674000000000029e-01 -7.127646751519522983e-02
-2.593299999999999983e+01 2.472299999999999898e+01 3.654699999999999704e+01 -6.806436000000000153e-01 2.959370806215448971e-02
-2.593299999999999983e+01 2.577299999999999969e+01 3.484700000000000131e+01 -9.525679000000000229e-01 -8.486505764398419305e-02
-2.593299999999999983e+01 2.577299999999999969e+01 3.654699999999999704e+01 6.520721000000000434e-01 -9.648291328507915821e-02
-2.591600000000000037e+01 2.981299999999999883e+01 3.153099999999999881e+01 -3.742271999999999960e-02 -2.407699733118641786e-02
-2.591600000000000037e+01 2.981299999999999883e+01 3.428099999999999881e+01 6.682120000000000282e+00 6.724053235449307941e-02
-2.591600000000000037e+01 3.151300000000000168e+01 3.153099999999999881e+01 7.237054000000000542e-01 2.608208494981393288e-01
-2.589900000000000091e+01 1.562100000000000044e+01 2.624699999999999989e+01 1.563458999999999932e+00 -2.474979342683575889e-01
-2.589699999999999847e+01 1.868100000000000094e+01 1.396599999999999930e+01 -2.770773999999999848e+00 -2.368072546664642675e-01
-2.589600000000000080e+01 1.878000000000000114e+01 1.648600000000000065e+01 3.003445000000000142e+00 -1.012567210350296676e-01
-2.587300000000000111e+01 2.396099999999999852e+01 1.197899999999999920e+01 -2.686290000000000067e+00 -3.157870750051863795e-01
-2.586400000000000077e+01 9.275999999999999801e+00 1.746199999999999974e+01 -4.868579000000000434e+00 -3.499999999999999778e-01
-2.585900000000000176e+01 1.436700000000000088e+01 2.708699999999999974e+01 4.981754999999999933e-01 -1.332761873794605645e-01
-2.585900000000000176e+01 1.687500000000000000e+01 2.708699999999999974e+01 7.159474000000000338e+00 -2.341283894395879694e-01
-2.585900000000000176e+01 1.687500000000000000e+01 2.804500000000000171e+01 1.128758999999999979e+01 -2.453422661286006612e-01
-2.585600000000000165e+01 7.640799999999999592e+00 1.892299999999999827e+01 -6.097059999999999924e+00 -3.499999999999999778e-01
-2.582199999999999918e+01 2.387199999999999989e+01 1.665800000000000125e+01 2.690271000000000079e+00 -2.367642724637876450e-01
-2.579799999999999827e+01 2.484700000000000131e+01 1.518399999999999928e+01 -2.529834999999999834e+00 -3.168448419324197962e-01
-2.573799999999999955e+01 9.233999999999999986e+00 2.044699999999999918e+01 -1.298936999999999919e+01 -3.499999999999999778e-01
-2.573600000000000065e+01 2.178099999999999881e+01 1.740899999999999892e+01 3.894286999999999921e+01 -1.043626344905959902e-01
-2.573000000000000043e+01 2.307100000000000151e+01 1.165700000000000003e+01 -2.057691999999999855e+00 -2.330744583717917762e-01
-2.569900000000000162e+01 8.004300000000000637e+00 1.962399999999999878e+01 -8.950635000000000119e+00 -3.499999999999999778e-01
-2.569900000000000162e+01 1.046400000000000041e+01 1.868400000000000105e+01 -3.289959999999999951e+01 -3.499999999999999778e-01
-2.569900000000000162e+01 1.046400000000000041e+01 1.962399999999999878e+01 -3.729995999999999867e+01 -3.499999999999999778e-01
-2.569900000000000162e+01 2.112699999999999889e+01 1.159399999999999942e+01 -2.862677999999999834e+00 -2.338310233325944232e-01
-2.568100000000000094e+01 1.472300000000000075e+01 3.132999999999999829e+01 8.220079000000000136e+00 -2.425470034611191539e-01
-2.564900000000000091e+01 1.951699999999999946e+01 1.255700000000000038e+01 5.244508999999999865e+00 -2.358596502272824191e-01
-2.564300000000000068e+01 1.573099999999999987e+01 3.125100000000000122e+01 1.355150000000000077e+01 -2.433814065818920014e-01
-2.563899999999999935e+01 1.651899999999999835e+01 2.886700000000000088e+01 3.150865999999999900e+01 -2.413932831331558337e-01
-2.562399999999999878e+01 1.617599999999999838e+01 3.034900000000000020e+01 2.107053000000000154e+01 -2.366700872591355476e-01
-2.561899999999999977e+01 3.166700000000000159e+01 3.470900000000000318e+01 4.424225999999999992e+00 2.810469354612111226e-01
-2.560600000000000165e+01 1.830999999999999872e+01 1.478599999999999959e+01 -1.541590000000000016e+00 -2.364436895019750295e-01
-2.560600000000000165e+01 1.830999999999999872e+01 1.572600000000000087e+01 6.926742000000000177e-01 -2.340888319935764128e-01
-2.560300000000000153e+01 3.103600000000000136e+01 3.488000000000000256e+01 5.862781000000000020e+00 -1.361919231991632895e-01
-2.559299999999999997e+01 1.622700000000000031e+01 2.942099999999999937e+01 2.112078999999999951e+01 -2.393480032289758697e-01
-2.559199999999999875e+01 1.916000000000000014e+01 1.335999999999999943e+01 -1.802370000000000028e+00 -2.374160031493742218e-01
-2.558800000000000097e+01 3.041900000000000048e+01 3.481600000000000250e+01 4.451533000000000406e+00 5.962800713909456596e-02
-2.557700000000000173e+01 7.748000000000000220e+00 1.626099999999999923e+01 -9.041525999999999286e+00 -2.625178665654351318e-01
-2.557000000000000028e+01 2.466100000000000136e+01 1.203700000000000081e+01 -1.531746000000000052e+00 -3.118319080427555123e-01
-2.556700000000000017e+01 1.953999999999999915e+01 1.654899999999999949e+01 9.553780000000000427e+01 -9.988601554146232797e-02
-2.556299999999999883e+01 1.484600000000000009e+01 2.631200000000000117e+01 8.816680000000000073e-01 -2.478250449089107188e-01
-2.556299999999999883e+01 1.639600000000000080e+01 2.631200000000000117e+01 4.131014000000000408e+00 -2.467539121596224461e-01
-2.553800000000000026e+01 6.518299999999999983e+00 1.708399999999999963e+01 -5.038123999999999825e+00 -2.567098684088355287e-01
-2.553800000000000026e+01 6.518299999999999983e+00 1.802400000000000091e+01 -7.629218999999999973e+00 -3.499999999999999778e-01
-2.552599999999999980e+01 2.603600000000000136e+01 1.295800000000000018e+01 -1.272151000000000032e+00 -3.039847042859361581e-01
-2.552599999999999980e+01 2.603600000000000136e+01 1.400799999999999912e+01 2.155857999999999830e+00 -3.067047855956118174e-01
-2.552299999999999969e+01 2.530099999999999838e+01 3.418800000000000239e+01 -7.623090000000000144e-01 -6.872740624814875632e-02
-2.551300000000000168e+01 1.334800000000000075e+01 2.932900000000000063e+01 -2.107644999999999935e-01 -2.459916304926656194e-01
-2.551300000000000168e+01 1.334800000000000075e+01 3.037900000000000134e+01 -9.927103000000000455e-01 -3.577178089453315613e-01
-2.547599999999999909e+01 2.915399999999999991e+01 3.194099999999999895e+01 -5.462065999999999866e-01 -1.153871533683799647e-02
-2.547599999999999909e+01 2.915399999999999991e+01 3.387100000000000222e+01 1.128104999999999913e+00 -4.240163594811734160e-02
-2.546199999999999974e+01 3.250900000000000034e+01 3.292600000000000193e+01 6.538720999999999783e+00 2.736469412858452133e-01
-2.545200000000000173e+01 2.524800000000000111e+01 3.714300000000000068e+01 8.348765999999999465e+00 2.737286520367395240e-02
-2.543100000000000094e+01 3.226599999999999824e+01 3.375000000000000000e+01 5.233207000000000164e+00 2.797557888983482344e-01
-2.540899999999999892e+01 8.474000000000000199e+00 2.038400000000000034e+01 -1.078189000000000064e+01 -3.499999999999999778e-01
-2.540899999999999892e+01 9.993999999999999773e+00 2.038400000000000034e+01 -3.632115000000000293e+01 -3.499999999999999778e-01
-2.540800000000000125e+01 2.387300000000000111e+01 3.517199999999999704e+01 -5.911952999999999792e-01 -1.803490539848412177e-01
-2.540800000000000125e+01 2.387300000000000111e+01 3.622200000000000131e+01 -1.254858000000000029e+00 -1.895737653325136329e-01
-2.540800000000000125e+01 2.662300000000000111e+01 3.517199999999999704e+01 -8.150351999999999597e-01 -1.009604921276535255e-01
-2.540800000000000125e+01 2.662300000000000111e+01 3.622200000000000131e+01 -1.101453000000000015e+00 -1.070328411361315402e-01
-2.539099999999999824e+01 3.066300000000000026e+01 3.120599999999999952e+01 9.568647999999999598e-01 2.574201427100478723e-01
-2.539099999999999824e+01 3.210900000000000176e+01 3.201200000000000045e+01 3.961791999999999980e+00 2.656320544840132247e-01
-2.535000000000000142e+01 1.651399999999999935e+01 3.134400000000000119e+01 5.691386999999999752e+00 -2.436580955572895668e-01
-2.531700000000000017e+01 1.377999999999999936e+01 3.126500000000000057e+01 -7.033458000000000210e-01 -2.374044875681052269e-01
-2.530499999999999972e+01 2.879599999999999937e+01 3.286200000000000188e+01 -1.142959000000000058e+00 -1.558560260478119783e-02
-2.529700000000000060e+01 2.446799999999999997e+01 1.617699999999999960e+01 1.814310000000000045e+01 -2.336154054351910203e-01
-2.525900000000000034e+01 2.386599999999999966e+01 1.167399999999999949e+01 -2.532608000000000192e+00 -3.138331145513940656e-01
-2.525499999999999901e+01 2.437399999999999878e+01 3.176099999999999923e+01 -6.348023000000000415e-01 -2.394025155414877815e-01
-2.524800000000000111e+01 6.988000000000000433e+00 1.632400000000000162e+01 -5.026981000000000144e+00 -2.615509313166127781e-01
-2.524800000000000111e+01 6.988000000000000433e+00 1.878399999999999892e+01 -8.806473000000000440e+00 -3.499999999999999778e-01
-2.524800000000000111e+01 8.507999999999999119e+00 1.632400000000000162e+01 -7.481384000000000256e+00 -2.610750088005710512e-01
-2.524500000000000099e+01 1.540300000000000047e+01 3.201800000000000068e+01 4.172061000000000242e-01 -2.465199543245839564e-01
-2.522100000000000009e+01 1.373000000000000043e+01 2.845200000000000173e+01 4.530063000000000173e+00 -2.478681217197449826e-01
-2.521600000000000108e+01 1.008799999999999919e+01 1.761499999999999844e+01 -6.814964999999999939e+00 -3.499999999999999778e-01
-2.521199999999999974e+01 2.430499999999999972e+01 3.428600000000000136e+01 -8.010398999999999645e-03 -1.667401896347115997e-01
-2.521099999999999852e+01 2.093100000000000094e+01 1.708399999999999963e+01 6.525909000000000404e+00 -1.021724912064195384e-01
-2.520499999999999829e+01 2.222100000000000009e+01 1.133200000000000074e+01 1.657098999999999833e+01 -2.310911038935282436e-01
-2.520100000000000051e+01 2.551099999999999923e+01 1.210800000000000054e+01 -4.640911999999999815e-01 -3.039974922188102280e-01
-2.520100000000000051e+01 2.551099999999999923e+01 1.485800000000000054e+01 5.003281999999999563e+00 -3.116937427278797523e-01
-2.519600000000000151e+01 2.479299999999999926e+01 3.350900000000000034e+01 -3.625191000000000052e+00 -2.700836666953870258e-01
-2.518599999999999994e+01 2.302199999999999847e+01 1.707400000000000162e+01 -2.997558999999999862e+00 -1.034429829028345182e-01
-2.516000000000000014e+01 1.441300000000000026e+01 3.191000000000000014e+01 3.893679999999999919e-01 -2.399571301453215233e-01
-2.515099999999999980e+01 1.703300000000000125e+01 2.841300000000000026e+01 8.987596999999999525e+01 -2.428405271580091063e-01
-2.512900000000000134e+01 3.238799999999999812e+01 3.447699999999999676e+01 1.261052999999999980e+00 2.835017184552007241e-01
-2.512399999999999878e+01 1.872100000000000009e+01 1.427599999999999980e+01 -1.662622000000000044e+00 -2.376861992357463538e-01
-2.512399999999999878e+01 2.011299999999999955e+01 1.207600000000000051e+01 7.544186999999999976e-01 -2.347476822448125999e-01
-2.512199999999999989e+01 1.396000000000000085e+01 2.760000000000000142e+01 -3.758540000000000214e-01 -2.511951937362869036e-01
-2.510399999999999920e+01 2.874500000000000099e+01 3.339999999999999858e+01 -4.540089000000000041e+00 -1.329196876284943207e-01
-2.510200000000000031e+01 1.662399999999999878e+01 2.985399999999999920e+01 1.911456000000000088e+01 -2.352473265719581819e-01
-2.508399999999999963e+01 1.430199999999999960e+01 2.675100000000000122e+01 8.046552999999999622e-01 -1.361939698405856547e-01
-2.508399999999999963e+01 1.562100000000000044e+01 2.601599999999999824e+01 2.123621999999999943e+01 -2.528067079630894054e-01
-2.508399999999999963e+01 1.694000000000000128e+01 2.675100000000000122e+01 1.551092000000000048e+01 -2.399628748949901025e-01
-2.508399999999999963e+01 1.717099999999999937e+01 2.756599999999999895e+01 1.998408000000000015e+02 -2.480334944079642390e-01
-2.508299999999999841e+01 2.439799999999999969e+01 3.707200000000000273e+01 2.408383000000000163e+00 1.395808102560735786e-01
-2.508299999999999841e+01 2.609799999999999898e+01 3.432200000000000273e+01 -6.416448000000000151e-01 -8.076638241274311514e-02
-2.508299999999999841e+01 2.609799999999999898e+01 3.707200000000000273e+01 8.267493999999999232e+00 -1.411164769272936215e-01
-2.507999999999999829e+01 3.097700000000000031e+01 3.526899999999999835e+01 1.162116999999999933e+01 -1.309857123257190115e-01
-2.506599999999999895e+01 1.901399999999999935e+01 1.608999999999999986e+01 8.620117999999999370e+01 -2.377702709512357626e-01
-2.506299999999999883e+01 2.490500000000000114e+01 3.252000000000000313e+01 -9.276002000000000081e+00 -2.528261613114018980e-01
-2.503000000000000114e+01 1.703200000000000003e+01 3.048100000000000165e+01 8.735860000000000625e+00 -2.343191468691384061e-01
-2.502799999999999869e+01 2.357499999999999929e+01 3.176099999999999923e+01 -1.064930000000000043e-01 -2.356104158775823298e-01
-2.502799999999999869e+01 2.517299999999999827e+01 3.176099999999999923e+01 -3.643650000000000055e+00 -2.406915615757756477e-01
-2.501599999999999824e+01 1.864699999999999847e+01 1.529199999999999982e+01 7.662880000000000358e+00 -2.375947937051409720e-01
-2.500700000000000145e+01 1.595800000000000018e+01 3.224499999999999744e+01 5.771454999999999558e+00 -2.516513530095378370e-01
-2.500600000000000023e+01 2.660300000000000153e+01 1.339300000000000068e+01 5.894928000000000390e-01 -2.978791872362375193e-01
-2.499800000000000111e+01 2.349099999999999966e+01 1.141099999999999959e+01 3.957955999999999808e+00 -2.283378488782958349e-01
-2.499699999999999989e+01 2.515200000000000102e+01 1.524900000000000055e+01 4.008849999999999802e+00 -3.140018610734298665e-01
-2.499299999999999855e+01 1.731700000000000017e+01 3.128699999999999903e+01 8.879656999999999911e+00 -2.443853065246635037e-01
-2.496499999999999986e+01 2.390399999999999991e+01 3.100100000000000122e+01 -2.055871999999999977e-01 -2.250125273561329742e-01
-2.496499999999999986e+01 2.390399999999999991e+01 3.252100000000000080e+01 -1.606362000000000068e+00 -2.494076561445295326e-01
-2.496499999999999986e+01 2.484400000000000119e+01 3.100100000000000122e+01 -2.149915000000000020e+00 -2.280715611230008100e-01
-2.493900000000000006e+01 7.940999999999999837e+00 1.995299999999999940e+01 -1.641208999999999918e+01 -3.499999999999999778e-01
-2.493900000000000006e+01 9.233999999999999986e+00 2.067399999999999949e+01 -2.396594999999999942e+01 -3.500000000000000333e-01
-2.493900000000000006e+01 1.052699999999999925e+01 1.835500000000000043e+01 -2.286413999999999902e+01 -3.499999999999999778e-01
-2.493900000000000006e+01 1.052699999999999925e+01 1.995299999999999940e+01 -7.562260999999999456e+01 -3.499999999999999778e-01
-2.493900000000000006e+01 1.075399999999999956e+01 1.915399999999999991e+01 -2.790745000000000076e+01 -3.499999999999999778e-01
-2.492599999999999838e+01 3.162099999999999866e+01 3.144600000000000151e+01 2.683186000000000071e+00 2.591808790367746140e-01
-2.492200000000000060e+01 1.694800000000000040e+01 3.213700000000000045e+01 8.616987999999999204e+00 -2.545622960609722485e-01
-2.490599999999999881e+01 2.420799999999999841e+01 3.322099999999999653e+01 -4.524377000000000315e+00 -2.635938519731168550e-01
-2.489799999999999969e+01 2.664300000000000068e+01 1.397199999999999953e+01 1.135899999999999910e+00 -2.973343409510796342e-01
-2.487399999999999878e+01 3.272500000000000142e+01 3.411500000000000199e+01 -1.172112000000000043e+00 2.836756845755986634e-01
-2.487000000000000099e+01 3.272500000000000142e+01 3.247800000000000153e+01 5.773143000000000136e+00 2.707305461008217007e-01
-2.486599999999999966e+01 2.981299999999999883e+01 3.153099999999999881e+01 4.285744000000000220e-01 5.055972721482335924e-02
-2.485000000000000142e+01 2.034799999999999898e+01 1.639900000000000091e+01 6.789894000000000318e+00 -2.401864518398003079e-01
-2.484199999999999875e+01 2.178099999999999881e+01 1.715500000000000114e+01 1.418249999999999922e+01 -1.029573463353339741e-01
-2.483899999999999864e+01 3.299600000000000222e+01 3.334799999999999898e+01 5.092735000000000456e-01 2.787385535217609123e-01
-2.483500000000000085e+01 3.013100000000000023e+01 3.528099999999999881e+01 1.317344000000000070e+00 -1.125955647594888698e-01
-2.483399999999999963e+01 1.920599999999999952e+01 1.368299999999999983e+01 -1.547074000000000060e+00 -2.384855662345569116e-01
-2.482100000000000151e+01 3.526500000000000057e+01 3.361299999999999955e+01 1.616387000000000018e+00 2.682422274219822822e-01
-2.481800000000000139e+01 9.513999999999999346e+00 1.687399999999999878e+01 -7.915028000000000397e+00 -2.570129612791212104e-01
-2.480799999999999983e+01 1.978500000000000014e+01 2.992200000000000060e+01 1.433813000000000004e+00 -2.441351156847320902e-01
-2.480099999999999838e+01 1.948799999999999955e+01 1.282799999999999940e+01 5.053448999999999636e+00 -2.365840954662981055e-01
-2.479700000000000060e+01 2.344999999999999929e+01 3.619800000000000040e+01 -1.486693000000000042e+00 1.511066027900890840e-01
-2.478699999999999903e+01 2.466100000000000136e+01 1.169200000000000017e+01 -3.304031999999999858e+00 -3.071348650663882074e-01
-2.477799999999999869e+01 6.227999999999999758e+00 1.755399999999999849e+01 -5.253725000000000200e+00 -2.527149961362108455e-01
-2.477799999999999869e+01 6.455000000000000071e+00 1.675499999999999901e+01 -6.201562000000000019e+00 -2.583115363608886605e-01
-2.477799999999999869e+01 6.455000000000000071e+00 1.835300000000000153e+01 -1.037822000000000067e+01 -2.470401442772138800e-01
-2.477799999999999869e+01 7.748000000000000220e+00 1.603399999999999892e+01 -5.107711000000000112e+00 -2.636583356275523649e-01
-2.477299999999999969e+01 1.977100000000000080e+01 1.617299999999999827e+01 2.982316000000000145e+01 -2.395273654983896550e-01
-2.477199999999999847e+01 2.387199999999999989e+01 1.665800000000000125e+01 8.983767000000000280e+01 -2.363171836022371353e-01
-2.476999999999999957e+01 2.562099999999999866e+01 3.372299999999999898e+01 -1.247856999999999994e+00 -6.039334360819009762e-02
-2.476099999999999923e+01 2.617000000000000171e+01 1.251800000000000068e+01 -1.480860999999999983e+00 -2.976853965316665351e-01
-2.475600000000000023e+01 2.891900000000000048e+01 3.435699999999999932e+01 1.135715000000000030e+00 7.830788642460549676e-02
-2.474399999999999977e+01 2.694900000000000162e+01 3.457500000000000284e+01 -5.157106999999999664e-01 -1.012756760727011873e-01
-2.473699999999999832e+01 2.085699999999999932e+01 1.190900000000000070e+01 -8.475409999999999888e-01 -2.341334451741471923e-01
-2.471199999999999974e+01 2.531800000000000139e+01 3.302300000000000324e+01 -1.151192999999999955e+01 -4.374965386320407018e-02
-2.471099999999999852e+01 3.182700000000000173e+01 3.519800000000000040e+01 2.124102999999999852e+01 -1.492857302784874884e-01
-2.468499999999999872e+01 2.673900000000000077e+01 2.871900000000000119e+01 2.838592999999999922e+00 -1.439547924641398358e-01
-2.468299999999999983e+01 3.438499999999999801e+01 3.366599999999999682e+01 8.015171000000000490e+00 2.740997560005541400e-01
-2.467999999999999972e+01 2.137099999999999866e+01 1.165700000000000003e+01 -1.977300000000000058e+00 -2.323420032929775780e-01
-2.467899999999999849e+01 1.493800000000000061e+01 3.250600000000000023e+01 2.906614999999999949e+00 -2.428920545343970505e-01
-2.467399999999999949e+01 2.776099999999999923e+01 3.483200000000000074e+01 1.435046000000000044e+00 -1.234591783964616996e-01
-2.467399999999999949e+01 1.316099999999999959e+01 3.074899999999999878e+01 4.423225999999999658e+00 -3.577888924983028685e-01
-2.467299999999999827e+01 2.343199999999999861e+01 3.562599999999999767e+01 -3.794932000000000194e+00 -1.929568824985981590e-01
-2.466700000000000159e+01 2.626999999999999957e+01 1.457600000000000051e+01 1.124244000000000021e+00 -3.013745012138738799e-01
-2.466400000000000148e+01 2.678999999999999915e+01 3.660900000000000176e+01 1.410191999999999890e+00 -1.463337789795506605e-01
-2.466300000000000026e+01 1.302299999999999969e+01 2.985399999999999920e+01 1.088470000000000049e+01 -3.579109989644441714e-01
-2.466300000000000026e+01 1.327699999999999925e+01 2.896000000000000085e+01 4.650479999999999947e+00 -2.446119768054786925e-01
-2.466000000000000014e+01 1.742999999999999972e+01 2.884600000000000009e+01 1.750611999999999924e+01 -2.400034656467189831e-01
-2.464900000000000091e+01 2.530499999999999972e+01 3.750000000000000000e+01 8.238213999999999260e+00 2.412971175941282242e-01
-2.464600000000000080e+01 3.360999999999999943e+01 3.353300000000000125e+01 4.892115999999999687e+00 2.781111403212003230e-01
-2.463500000000000156e+01 1.356300000000000061e+01 3.158500000000000085e+01 9.744283000000000250e-01 -3.575859245274397580e-01
-2.462600000000000122e+01 2.926000000000000156e+01 3.477400000000000091e+01 2.354255999999999904e+00 7.431512175758234195e-02
-2.461599999999999966e+01 2.378800000000000026e+01 3.383200000000000074e+01 -3.937921999999999922e+00 -1.653550672705898505e-01
-2.461299999999999955e+01 2.834799999999999898e+01 3.231499999999999773e+01 -2.966965000000000074e+00 -1.041991609651813644e-01
-2.461299999999999955e+01 2.834799999999999898e+01 3.383299999999999841e+01 -5.416024000000000171e+00 -1.307742844493535450e-01
-2.461199999999999832e+01 1.776899999999999835e+01 3.068900000000000006e+01 1.448896000000000051e+01 -2.373827694736675986e-01
-2.460500000000000043e+01 1.484600000000000009e+01 2.631200000000000117e+01 2.816501000000000143e+00 -4.018345115015144187e-02
-2.460500000000000043e+01 1.639600000000000080e+01 2.631200000000000117e+01 6.265996999999999595e+00 -2.494005503657890643e-01
-2.460399999999999920e+01 3.318399999999999750e+01 3.441899999999999693e+01 1.451640000000000041e+00 2.840795267836527804e-01
-2.459400000000000119e+01 2.308399999999999963e+01 3.129200000000000159e+01 8.100986999999999494e-01 -2.278687489945201428e-01
-2.459400000000000119e+01 2.566400000000000148e+01 3.129200000000000159e+01 -2.737305000000000099e+00 -1.339264884258407617e-01
-2.459400000000000119e+01 2.566400000000000148e+01 3.222999999999999687e+01 -9.579750000000000654e+00 -3.442526688407843150e-02
-2.457799999999999940e+01 2.807999999999999829e+01 3.307399999999999807e+01 -4.943355000000000388e+00 -1.110192918170625764e-01
-2.457700000000000173e+01 1.749800000000000111e+01 2.992200000000000060e+01 1.328242000000000012e+01 -2.336497091020954819e-01
-2.457700000000000173e+01 1.896999999999999886e+01 2.992200000000000060e+01 1.166718000000000011e+01 -2.378995957964089580e-01
-2.457700000000000173e+01 2.060000000000000142e+01 2.992200000000000060e+01 -1.691343000000000041e+00 -2.480529692365118777e-01
-2.456700000000000017e+01 3.615899999999999892e+01 3.361299999999999955e+01 -1.502844000000000124e-01 2.638186044497242699e-01
-2.456700000000000017e+01 6.410000000000000142e+00 2.447599999999999909e+01 -6.365206999999999837e+00 -3.499999999999999778e-01
-2.455399999999999849e+01 2.535399999999999920e+01 3.051899999999999835e+01 -1.370459000000000094e+00 -1.122952517597631539e-01
-2.454599999999999937e+01 2.372500000000000142e+01 3.465400000000000347e+01 -5.119996999999999687e+00 -1.790519518046403968e-01
-2.453999999999999915e+01 1.782499999999999929e+01 3.184499999999999886e+01 1.410129000000000055e+01 -2.556481597255586546e-01
-2.452299999999999969e+01 2.719900000000000162e+01 3.569599999999999795e+01 5.274903000000000119e+00 -1.156509237459317496e-01
-2.451200000000000045e+01 1.930600000000000094e+01 2.914699999999999847e+01 2.576076000000000032e+00 -2.411613682752113130e-01
-2.451200000000000045e+01 1.930600000000000094e+01 3.069699999999999918e+01 5.745048999999999850e+00 -2.484783156848107966e-01
-2.451200000000000045e+01 2.026399999999999935e+01 2.914699999999999847e+01 7.835739999999999927e-01 -2.405579435137206179e-01
-2.451200000000000045e+01 2.026399999999999935e+01 3.069699999999999918e+01 8.340823999999999572e+00 -2.545977969551435072e-01
-2.450199999999999889e+01 2.453300000000000125e+01 3.042599999999999838e+01 -1.794961999999999946e+00 -2.155810883449335580e-01
-2.450000000000000000e+01 2.625100000000000122e+01 2.952799999999999869e+01 1.801592000000000082e+00 -1.314638593229268126e-01
-2.449599999999999866e+01 3.474000000000000199e+01 3.446300000000000097e+01 2.061808000000000085e+00 2.752547903670951035e-01
-2.449599999999999866e+01 3.578999999999999915e+01 3.276299999999999812e+01 2.926102999999999899e-01 2.610154168345121817e-01
-2.449599999999999866e+01 3.578999999999999915e+01 3.446300000000000097e+01 4.715422000000000363e-03 2.686573662678701235e-01
-2.449500000000000099e+01 2.314399999999999835e+01 3.223100000000000165e+01 -6.371503999999999834e+00 -2.392832505457611059e-01
-2.448900000000000077e+01 2.453200000000000003e+01 1.584999999999999964e+01 3.106726000000000099e+01 -3.150963469063535194e-01
-2.447400000000000020e+01 2.570499999999999829e+01 1.176500000000000057e+01 -4.271633999999999709e+00 -2.961150494566426317e-01
-2.446900000000000119e+01 9.993999999999999773e+00 2.038400000000000034e+01 -7.741009999999999991e+01 -3.499999999999999778e-01
-2.445700000000000074e+01 3.454399999999999693e+01 3.277799999999999869e+01 3.065631999999999913e+00 2.671024125614860356e-01
-2.445499999999999829e+01 3.054799999999999827e+01 3.108999999999999986e+01 2.942865999999999982e+00 2.533546508181087065e-01
-2.445400000000000063e+01 2.592399999999999949e+01 2.871900000000000119e+01 9.059220000000000050e-01 -1.187796318153031133e-01
-2.445400000000000063e+01 2.755399999999999849e+01 2.871900000000000119e+01 6.496237999999999957e+00 1.381705469193594826e-01
-2.444099999999999895e+01 1.642299999999999827e+01 3.273299999999999699e+01 8.326076000000000477e+00 -2.599408445480653751e-01
-2.443299999999999983e+01 2.911299999999999955e+01 3.179799999999999827e+01 -3.528487999999999847e+00 7.865494535225614481e-02
-2.442699999999999960e+01 1.833500000000000085e+01 2.900100000000000122e+01 4.039954999999999963e+00 -2.402751508174910400e-01
-2.441799999999999926e+01 3.348199999999999932e+01 3.279299999999999926e+01 8.740458999999999534e+00 2.727688537555141290e-01
-2.441300000000000026e+01 8.516000000000000014e+00 2.049699999999999989e+01 -2.578153000000000006e+01 -3.499999999999999778e-01
-2.440299999999999869e+01 2.302199999999999847e+01 1.672899999999999920e+01 -1.669248999999999983e+00 -2.379674479657574726e-01
-2.440299999999999869e+01 1.850499999999999901e+01 3.068900000000000006e+01 9.921222999999999459e+00 -2.419733113433809868e-01
-2.440099999999999980e+01 1.871499999999999986e+01 1.408000000000000007e+01 -1.729867000000000044e+00 -2.372159257002591226e-01
-2.439499999999999957e+01 3.392000000000000171e+01 3.441899999999999693e+01 1.713737999999999984e+00 2.810858171111551007e-01
-2.439399999999999835e+01 2.742099999999999937e+01 3.386099999999999710e+01 -1.070619999999999905e+00 -1.034176151216509021e-01
-2.439099999999999824e+01 2.422800000000000153e+01 1.120100000000000051e+01 -4.584224999999999994e+00 -3.034101661026952224e-01
-2.438899999999999935e+01 2.626000000000000156e+01 2.794399999999999906e+01 1.407955000000000068e+00 -3.663054168708633762e-01
-2.438899999999999935e+01 2.721799999999999997e+01 2.794399999999999906e+01 2.924535999999999802e+00 -1.598728000227704060e-01
-2.438899999999999935e+01 2.721799999999999997e+01 2.949399999999999977e+01 2.089906999999999826e+01 1.588369787891354412e-01
-2.438299999999999912e+01 2.636499999999999844e+01 3.388900000000000290e+01 -6.548817000000000110e-01 -7.480846759637883869e-02
-2.437800000000000011e+01 1.017300000000000004e+01 1.728399999999999892e+01 -3.120664999999999800e+00 -2.541305506724272356e-01
-2.437300000000000111e+01 2.959900000000000020e+01 3.562500000000000000e+01 1.660617999999999927e+00 7.631879943877664663e-02
-2.437199999999999989e+01 3.267799999999999727e+01 3.494500000000000028e+01 4.876828999999999859e+00 2.869843851217627750e-01
-2.437199999999999989e+01 2.731099999999999994e+01 1.363799999999999990e+01 1.071274999999999977e+01 -2.842529878337701765e-01
-2.436700000000000088e+01 1.823400000000000176e+01 2.992200000000000060e+01 9.386822999999999695e+00 -2.318086772759553882e-01
-2.436700000000000088e+01 3.224799999999999756e+01 3.193599999999999994e+01 7.866723000000000354e+00 2.643006251786074734e-01
-2.436100000000000065e+01 2.125600000000000023e+01 1.655900000000000105e+01 -6.312053999999999832e+00 -2.403253299169171575e-01
-2.433999999999999986e+01 5.610899999999999999e+00 2.447599999999999909e+01 -4.991025999999999740e+00 -2.283378782839287635e-01
-2.433999999999999986e+01 7.209100000000000286e+00 2.447599999999999909e+01 -6.012268999999999863e+00 -3.499999999999999778e-01
-2.433699999999999974e+01 2.846600000000000108e+01 3.486599999999999966e+01 9.795589000000000379e-02 -1.417917870381806555e-01
-2.432600000000000051e+01 2.606299999999999883e+01 3.745400000000000063e+01 4.150394999999999612e+00 -1.288537512325902690e-01
-2.432499999999999929e+01 2.216799999999999926e+01 1.147000000000000064e+01 4.202981000000000300e+00 -2.284359802644067017e-01
-2.432499999999999929e+01 2.606200000000000117e+01 3.318900000000000006e+01 -1.380136999999999947e+00 -5.408292370661812315e-02
-2.432400000000000162e+01 8.549400000000000333e+00 1.619000000000000128e+01 -4.959724999999999717e+00 -2.618821596124544238e-01
-2.432100000000000151e+01 2.227899999999999991e+01 1.669399999999999906e+01 -2.350297999999999998e+00 -2.393518395020383382e-01
-2.431700000000000017e+01 1.426699999999999946e+01 2.702199999999999847e+01 5.657143999999999728e+00 -2.538378031816971303e-01
-2.431700000000000017e+01 2.008899999999999864e+01 1.227100000000000080e+01 -2.204642000000000213e+00 -2.341789855200279713e-01
-2.431599999999999895e+01 1.870499999999999829e+01 1.498900000000000077e+01 1.178736999999999924e+00 -2.376634612726380991e-01
-2.430999999999999872e+01 1.408799999999999919e+01 3.243500000000000227e+01 2.665945000000000120e-01 -2.357578501226818002e-01
-2.430900000000000105e+01 1.723600000000000065e+01 2.782300000000000040e+01 9.750651999999999475e+01 -2.482497637633068466e-01
-2.430799999999999983e+01 6.988000000000000433e+00 1.632400000000000162e+01 -9.092864000000000502e+00 -2.620091110382822830e-01
-2.430699999999999861e+01 2.697500000000000142e+01 1.286299999999999955e+01 2.322471999999999870e+00 -2.879168475423266593e-01
-2.430699999999999861e+01 2.697500000000000142e+01 1.441300000000000026e+01 3.379146000000000094e-01 -2.887059274485584970e-01
-2.429899999999999949e+01 2.429899999999999949e+01 3.754200000000000159e+01 5.105604999999999727e+00 1.363375399737437044e-01
-2.429299999999999926e+01 7.217900000000000205e+00 1.914300000000000068e+01 -6.324786999999999715e+00 -3.499999999999999778e-01
-2.428999999999999915e+01 2.612600000000000122e+01 3.075700000000000145e+01 3.809232000000000173e-01 -1.358112197789962949e-01
-2.427700000000000102e+01 2.349699999999999989e+01 3.304500000000000171e+01 -7.080102999999999813e-01 -2.568254292217679313e-01
-2.427700000000000102e+01 5.940299999999999692e+00 2.371600000000000108e+01 -5.173930000000000362e+00 -2.235500899420045096e-01
-2.427700000000000102e+01 5.940299999999999692e+00 2.523600000000000065e+01 -5.592667999999999751e+00 -2.299814959638481204e-01
-2.427700000000000102e+01 6.879699999999999704e+00 2.371600000000000108e+01 -5.230388999999999733e+00 -3.499999999999999778e-01
-2.427700000000000102e+01 6.879699999999999704e+00 2.523600000000000065e+01 -5.910389999999999588e+00 -3.500000000000000333e-01
-2.426899999999999835e+01 1.562100000000000044e+01 2.624699999999999989e+01 2.982117999999999824e+01 -4.322946502698492288e-02
-2.426599999999999824e+01 2.361499999999999844e+01 3.043299999999999983e+01 5.446706999999999521e-01 -8.982893025025270872e-02
-2.426200000000000045e+01 2.349099999999999966e+01 1.120199999999999996e+01 -2.981678000000000051e+00 -2.226440555451233982e-01
-2.426000000000000156e+01 2.305000000000000071e+01 3.675699999999999790e+01 -1.881796000000000024e+00 1.498641373017881862e-01
-2.425199999999999889e+01 1.694900000000000162e+01 2.701699999999999946e+01 4.616089000000000198e+01 -2.538975776015968133e-01
-2.424800000000000111e+01 2.644300000000000139e+01 3.179899999999999949e+01 -1.430355999999999961e+00 -3.562362157544873148e-02
-2.424200000000000088e+01 8.086000000000000298e+00 2.010099999999999909e+01 -1.922156999999999982e+01 -3.500000000000000333e-01
-2.423999999999999844e+01 2.273199999999999932e+01 3.589300000000000068e+01 -1.842481999999999953e+00 1.569723585195613447e-01
-2.423900000000000077e+01 1.058500000000000085e+01 1.805099999999999838e+01 -4.393769999999999953e+00 -3.499999999999999778e-01
-2.423900000000000077e+01 1.091000000000000014e+01 1.878900000000000148e+01 -2.103343999999999880e+01 -3.500000000000000333e-01
-2.422500000000000142e+01 3.116100000000000136e+01 3.082199999999999918e+01 3.218828999999999940e+00 2.481219319772096643e-01
-2.422400000000000020e+01 3.228300000000000125e+01 2.837099999999999866e+01 -4.420493999999999812e-01 2.306749845330060000e-01
-2.421300000000000097e+01 2.540899999999999892e+01 1.136200000000000010e+01 -1.310546000000000078e+01 -2.940657315020641649e-01
-2.420200000000000173e+01 2.728600000000000136e+01 3.330499999999999972e+01 -2.751688999999999830e+00 -8.832562907155024068e-02
-2.418900000000000006e+01 2.729899999999999949e+01 3.179899999999999949e+01 7.559527000000000108e+00 -5.803741096249276366e-02
-2.417999999999999972e+01 1.056199999999999939e+01 1.968499999999999872e+01 -4.641053999999999746e+01 -3.500000000000000888e-01
-2.417399999999999949e+01 3.101200000000000045e+01 3.560499999999999687e+01 2.957740000000000080e+01 -1.210230091337148595e-01
-2.417200000000000060e+01 1.887900000000000134e+01 3.129299999999999926e+01 2.447209000000000145e+01 -2.544655667476026784e-01
-2.417200000000000060e+01 1.978500000000000014e+01 3.129299999999999926e+01 3.707840999999999809e+01 -2.611882185998151695e-01
-2.417200000000000060e+01 2.069099999999999895e+01 2.855099999999999838e+01 1.191054000000000057e+00 -3.650275624642434491e-01
-2.417099999999999937e+01 2.579599999999999937e+01 1.501500000000000057e+01 1.571214000000000111e+00 -3.044258350174795513e-01
-2.415800000000000125e+01 1.937399999999999878e+01 1.579700000000000060e+01 8.451534000000000546e+00 -2.388035375740703292e-01
-2.415599999999999881e+01 1.561700000000000088e+01 3.277000000000000313e+01 6.217463000000000406e+00 -2.483120639913096173e-01
-2.414799999999999969e+01 2.119500000000000028e+01 3.574000000000000199e+01 -6.219794000000000267e+00 -1.958935347568008800e-01
-2.414799999999999969e+01 2.303000000000000114e+01 3.505700000000000216e+01 -4.757550000000000168e+00 -1.931521172366555683e-01
-2.414399999999999835e+01 2.611700000000000088e+01 3.260499999999999687e+01 -4.048456999999999972e+00 -4.093732553696014659e-02
-2.414399999999999835e+01 2.758899999999999864e+01 3.260499999999999687e+01 -6.978051999999999921e+00 -8.323771765777548959e-02
-2.413800000000000168e+01 2.109600000000000009e+01 2.944800000000000040e+01 -1.680589000000000041e-02 -3.665423092916254011e-01
-2.413800000000000168e+01 2.109600000000000009e+01 3.039600000000000080e+01 3.092479000000000156e+01 -2.367563478664767851e-01
-2.413800000000000168e+01 2.232300000000000040e+01 3.106099999999999994e+01 1.207212999999999958e+01 -2.297868492536208063e-01
-2.413400000000000034e+01 1.914699999999999847e+01 1.338000000000000078e+01 2.139954999999999982e-02 -2.367554859664248446e-01
-2.413100000000000023e+01 2.515200000000000102e+01 1.524900000000000055e+01 5.435794999999999710e+00 -3.107971791296108011e-01
-2.412999999999999901e+01 1.723300000000000054e+01 3.278799999999999670e+01 1.518953999999999915e+01 -2.690051773241450284e-01
-2.411400000000000077e+01 1.982700000000000173e+01 2.845799999999999841e+01 1.852747999999999895e-01 -2.470037198129773626e-01
-2.410699999999999932e+01 1.987000000000000099e+01 3.524300000000000210e+01 4.522999000000000436e+00 -1.862190285989338001e-01
-2.409900000000000020e+01 2.134499999999999886e+01 1.178800000000000026e+01 -3.136458000000000190e+00 -2.305457375399492803e-01
-2.408800000000000097e+01 2.829500000000000171e+01 3.161199999999999832e+01 -2.374484999999999957e+00 1.229284605011233128e-01
-2.407900000000000063e+01 2.262600000000000122e+01 3.176099999999999923e+01 1.306616000000000000e+01 -2.362085501638921947e-01
