-1.156800000000000050e+00 2.424900000000000111e-01 5.934000000000000341e+01 6.979226999999999848e+00 -1.724642335283029237e-01
-1.152700000000000058e+00 1.162500000000000000e+01 6.893899999999999295e+01 4.646506000000000114e+01 5.111711739606205826e-03
-1.146700000000000053e+00 3.617999999999999883e+00 5.498299999999999699e+01 2.609104999999999919e+01 -1.465809582904573083e-01
-1.145899999999999919e+00 -5.551700000000000301e+00 5.021300000000000097e+01 1.894941000000000031e+01 -1.985623212723251207e-01
-1.143000000000000016e+00 1.414400000000000013e+01 6.696200000000000330e+01 1.557410999999999923e+01 -1.735292774511701108e-01
-1.143000000000000016e+00 1.435399999999999920e+01 6.459600000000000364e+01 6.866125000000000256e+00 3.583835851605070809e-03
-1.143000000000000016e+00 1.435399999999999920e+01 6.622599999999999909e+01 3.645436999999999728e+01 -1.735529920375880886e-01
-1.143000000000000016e+00 1.458500000000000085e+01 6.541100000000000136e+01 5.198682000000000158e+01 -1.735807033218496609e-01
-1.133899999999999908e+00 2.501599999999999824e+00 3.721200000000000330e+01 7.846332000000000306e+00 -8.251142808036913967e-02
-1.123099999999999987e+00 4.200300000000000367e+00 4.620600000000000307e+01 1.715653000000000095e+00 -3.070557364741712258e-01
-1.118300000000000072e+00 1.101900000000000013e+01 5.907900000000000063e+01 8.716859000000000135e-01 -1.784065233488832669e-01
-1.108999999999999986e+00 1.088799999999999990e+01 5.014500000000000313e+01 4.661489000000000260e+01 -1.981823221265855417e-01
-1.087599999999999900e+00 -5.855100000000000193e+00 4.951299999999999812e+01 3.898881000000000085e+01 -1.992415694337694165e-01
-1.086899999999999977e+00 6.333000000000000185e+00 4.596600000000000108e+01 -5.311314000000000313e+00 -1.682450438586907959e-01
-1.079900000000000082e+00 1.761300000000000088e+00 5.600800000000000267e+01 2.560090999999999894e+01 -1.439088638518807028e-01
-1.075700000000000101e+00 9.993999999999999773e+00 6.870499999999999829e+01 2.009841000000000122e+01 -7.932199990393554168e-02
-1.074600000000000000e+00 2.570300000000000029e+00 4.345000000000000284e+01 -5.454073000000000171e+00 -2.060108895011344698e-01
-1.073099999999999943e+00 -7.344000000000000306e+00 4.277300000000000324e+01 -8.512089999999999934e-01 -2.696848039460767454e-01
-1.066300000000000026e+00 5.985599999999999810e+00 6.537900000000000489e+01 -9.566463999999999857e+00 -1.413763486531734170e-01
-1.064300000000000024e+00 3.566100000000000048e+00 3.906799999999999784e+01 1.115459999999999896e+00 -2.149767482480229308e-01
-1.063800000000000079e+00 8.074099999999999611e+00 4.694800000000000040e+01 3.510349000000000164e+00 -2.073720922401901257e-01
-1.055800000000000072e+00 7.601600000000000024e-02 3.668099999999999739e+01 3.497156000000000153e-01 -3.368908105427261684e-02
-1.050499999999999989e+00 6.384000000000000341e+00 6.597100000000000364e+01 -5.267650999999999861e+00 -1.413564301016309310e-01
-1.049700000000000077e+00 1.631999999999999895e+00 6.016700000000000159e+01 5.065029000000000003e+00 -1.750581560044544294e-01
-1.047099999999999920e+00 7.240099999999999980e+00 6.932800000000000296e+01 -1.032632000000000083e+01 -4.660323717952939010e-02
-1.046000000000000041e+00 5.109700000000000131e+00 6.350699999999999790e+01 7.295447000000000459e-01 -1.417231312133041543e-01
-1.041400000000000103e+00 1.101200000000000045e+01 5.263000000000000256e+01 6.729127000000000081e+00 -1.879127651555333733e-01
-1.040300000000000002e+00 -7.783299999999999663e+00 5.827600000000000335e+01 4.840390000000000192e+00 -2.851604541669355286e-01
-1.038499999999999979e+00 -7.897000000000000242e+00 5.203199999999999648e+01 1.356509999999999927e+01 -2.737458960766467886e-01
-1.037099999999999911e+00 1.100399999999999956e+01 5.621099999999999852e+01 4.267909000000000397e+00 -1.810745697729839176e-01
-1.034999999999999920e+00 -7.259699999999999598e+00 4.027700000000000102e+01 -5.113075000000000259e+00 -1.620438523599742608e-01
-1.032999999999999918e+00 -1.151899999999999924e+00 3.642099999999999937e+01 2.172889000000000070e-01 -6.254054265394690115e-02
-1.032000000000000028e+00 2.887799999999999923e+00 4.082099999999999795e+01 2.176644999999999897e+01 -1.946967704035282576e-01
-1.032000000000000028e+00 2.887799999999999923e+00 4.168699999999999761e+01 -1.802445000000000019e-01 -2.039741271450223881e-01
-1.032000000000000028e+00 3.216099999999999959e+00 4.007699999999999818e+01 -1.841069999999999984e+00 -2.015791657008349225e-01
-1.029199999999999893e+00 1.101699999999999946e+01 4.918699999999999761e+01 2.991054000000000102e+00 -2.050429090382777653e-01
-1.023700000000000054e+00 -5.806799999999999962e+00 5.098299999999999699e+01 2.033866000000000085e+01 -1.982078863838638849e-01
-1.021400000000000086e+00 3.237499999999999822e+00 3.818200000000000216e+01 3.370147999999999922e+00 1.099483966039008498e-01
-1.016000000000000014e+00 2.819700000000000095e+00 4.267799999999999727e+01 -2.568944000000000116e+01 -2.035609085061849677e-01
-1.015099999999999891e+00 1.166900000000000048e+01 5.946900000000000119e+01 1.161904000000000048e+00 -1.782736353350885539e-01
-1.013400000000000079e+00 -7.314099999999999824e+00 4.646600000000000108e+01 1.115995000000000026e+01 -2.622925485832995340e-01
-1.008000000000000007e+00 4.753899999999999793e+00 6.454399999999999693e+01 -4.202887000000000151e-01 -1.413249900454765506e-01
-9.936500000000000332e-01 -7.394199999999999662e+00 4.120100000000000051e+01 -1.527900999999999954e+00 -1.753343990563551724e-01
-9.767799999999999816e-01 1.122100000000000009e+01 5.546200000000000330e+01 9.001630000000000464e+00 -1.821631597499802357e-01
-9.729299999999999615e-01 3.403999999999999915e+00 5.972299999999999898e+01 6.409322000000000408e+00 -1.428851616730741347e-01
-9.726099999999999746e-01 1.247300000000000075e+01 6.295199999999999818e+01 3.617227000000000192e+00 -1.758105895694915266e-01
-9.710400000000000142e-01 -2.443000000000000060e+00 3.670499999999999829e+01 1.586913000000000018e+00 -2.517497920889291141e-01
-9.652100000000000124e-01 1.301099999999999923e+01 6.033899999999999864e+01 3.445699999999999874e-01 4.880956669038453641e-03
-9.447100000000000497e-01 5.083300000000000374e+00 6.530400000000000205e+01 -1.793884000000000034e+00 -4.550740885533150620e-02
-9.432199999999999473e-01 4.703999999999999737e+00 6.720799999999999841e+01 -2.723316000000000070e+00 -1.743479350391839156e-01
-9.432199999999999473e-01 5.605599999999999916e+00 6.720799999999999841e+01 -4.868872999999999784e+00 -4.548951389050658739e-02
-9.330199999999999605e-01 -9.371999999999999886e+00 5.248299999999999699e+01 1.178781999999999996e+01 -2.748190496478477018e-01
-9.316699999999999982e-01 -7.041000000000000369e+00 5.161500000000000199e+01 1.098326999999999920e+01 -2.730202549261344092e-01
-9.259899999999999798e-01 -8.460100000000000620e+00 4.402499999999999858e+01 -1.732026999999999872e-01 -2.660298172617186485e-01
-9.222599999999999687e-01 1.267800000000000082e+01 6.217300000000000182e+01 -2.754945999999999784e-01 3.886680008316140741e-03
-9.144200000000000106e-01 -1.125000000000000000e+00 5.875300000000000011e+01 6.444682000000000244e+00 -1.686501794473568849e-01
-9.067800000000000304e-01 -4.907499999999999751e+00 3.768599999999999994e+01 6.967508999999999730e+00 -2.802480942647513351e-01
-9.032900000000000373e-01 -9.305999999999999162e+00 5.780599999999999739e+01 -1.332752999999999943e+01 -2.860217389800952525e-01
-8.866600000000000037e-01 -5.387100000000000222e+00 3.857300000000000040e+01 5.222116999999999898e+00 -1.998745223639022961e-01
-8.849299999999999944e-01 5.908999999999999808e+00 6.650799999999999557e+01 -3.677471000000000156e+00 -4.614663185887491609e-02
-8.778599999999999737e-01 1.305000000000000071e+01 6.150800000000000267e+01 2.543760999999999939e-01 4.456653179620836958e-03
-8.696800000000000086e-01 5.530300000000000438e+00 4.622399999999999665e+01 -1.256078999999999946e+00 -3.016479273946274242e-01
-8.691100000000000492e-01 5.931000000000000050e+00 7.121699999999999875e+01 -4.605264000000000024e+00 -1.735994557593403820e-01
-8.691100000000000492e-01 8.414899999999999380e+00 6.873300000000000409e+01 4.898592999999999975e+00 -4.736084594740820608e-02
-8.659999999999999920e-01 1.368800000000000061e+01 6.805299999999999727e+01 -1.495097999999999949e+01 4.209099470003633235e-03
-8.627099999999999769e-01 -8.130699999999999150e+00 4.326500000000000057e+01 -6.100617000000000401e-01 -2.678280996288576743e-01
-8.627099999999999769e-01 -8.130699999999999150e+00 4.478499999999999659e+01 -9.894361999999999602e-02 -2.648160026136329170e-01
-8.570499999999999785e-01 1.040700000000000003e+01 4.784000000000000341e+01 2.546002999999999972e+01 -2.517968424756854562e-01
-8.539099999999999469e-01 -2.302299999999999791e+00 5.854099999999999682e+01 6.741348000000000340e+00 -6.034825961967603403e-02
-8.455099999999999838e-01 7.461100000000000509e-01 6.015400000000000347e+01 2.637039000000000133e+00 -1.725131533664883976e-01
-8.446500000000000119e-01 -2.664300000000000002e-01 5.933400000000000318e+01 5.504603999999999608e+00 -1.705218521768045170e-01
-8.355500000000000149e-01 1.068800000000000061e+01 4.867399999999999949e+01 -2.238354000000000177e+00 -2.084818514040144566e-01
-8.299999999999999600e-01 4.701299999999999812e+00 7.039400000000000546e+01 -1.094919999999999938e+01 -1.726943403676905187e-01
-8.299999999999999600e-01 7.160700000000000287e+00 7.039400000000000546e+01 -6.303032999999999930e+01 -4.615640596994549649e-02
-8.261199999999999655e-01 1.243399999999999928e+01 6.889300000000000068e+01 1.105502000000000073e+01 4.608010021470994311e-03
-8.219999999999999529e-01 4.839100000000000179e+00 6.022200000000000131e+01 1.378356999999999921e+01 -1.438443814723263658e-01
-8.200100000000000167e-01 -3.339999999999999858e+00 3.711999999999999744e+01 2.526741000000000126e-01 -2.627792468697219830e-01
-8.196900000000000297e-01 3.500300000000000189e+00 4.614800000000000324e+01 7.645724999999999660e+00 -1.518834741736065364e-01
-8.123700000000000365e-01 8.932299999999999685e+00 4.702700000000000102e+01 1.719854000000000127e+01 -2.254046166338947166e-01
-8.100000000000000533e-01 3.474299999999999944e+00 6.808799999999999386e+01 -7.713194999999999801e+00 -1.722295832953922023e-01
-8.100000000000000533e-01 3.474299999999999944e+00 6.902800000000000580e+01 -1.592681999999999931e+01 -1.718535984247120951e-01
-7.836699999999999777e-01 -6.927299999999999791e+00 5.820799999999999841e+01 5.288539000000000101e+00 -2.846876237272870092e-01
-7.744499999999999718e-01 7.605999999999999872e+00 4.619100000000000250e+01 2.639787000000000106e+00 -1.910990544336597929e-01
-7.691000000000000059e-01 1.512999999999999901e+00 3.691700000000000159e+01 2.900011000000000116e+00 -5.800391318184809630e-02
-7.573900000000000077e-01 5.360500000000000043e+00 6.260300000000000153e+01 5.658650999999999875e+00 -4.748254240928783537e-02
-7.463100000000000289e-01 8.489499999999999824e-01 3.672099999999999653e+01 2.768722000000000127e-01 -4.393985953787751114e-02
-7.383300000000000418e-01 9.183699999999999974e+00 6.877500000000000568e+01 1.417121000000000031e+01 -4.657362795464822791e-02
-6.891899999999999693e-01 1.387199999999999989e+01 6.692700000000000671e+01 5.244950000000000223e+00 -1.733435872582201331e-01
-6.884900000000000464e-01 -5.918999999999999595e+00 5.828699999999999903e+01 5.189677999999999791e+00 -2.841144077124803102e-01
-6.856299999999999617e-01 1.080899999999999928e+01 6.880700000000000216e+01 2.389614999999999867e+01 -7.968659554395533806e-02
-6.850000000000000533e-01 1.160299999999999976e+01 5.353499999999999659e+01 8.205235000000000056e+00 -1.860406775948091618e-01
-6.850000000000000533e-01 1.160299999999999976e+01 5.458500000000000085e+01 3.109283999999999892e+01 -1.838729966917374836e-01
-6.813299999999999912e-01 2.482000000000000206e+00 6.009599999999999653e+01 5.822568999999999662e+00 -1.768230870985833536e-01
-6.783299999999999885e-01 1.206699999999999995e-01 6.007800000000000296e+01 9.343311999999999173e+00 -1.706794669205752291e-01
-6.758399999999999963e-01 5.173000000000000043e+00 6.650799999999999557e+01 -3.011877999999999833e+00 -4.513842083535686556e-02
-6.730699999999999461e-01 -4.624900000000000233e+00 5.846300000000000097e+01 -4.723639000000000365e+00 -2.834184223404645486e-01
-6.730699999999999461e-01 -3.107099999999999973e+00 5.846300000000000097e+01 -6.241374000000000422e+00 -2.826516161420598028e-01
-6.691700000000000426e-01 1.391499999999999915e+01 6.409999999999999432e+01 1.559178999999999959e+01 4.161508202228533793e-03
-6.676400000000000112e-01 -1.743000000000000105e+00 3.664699999999999847e+01 2.721451999999999760e-01 -4.687250050380301070e-02
-6.550000000000000266e-01 -5.155100000000000016e+00 4.978000000000000114e+01 2.021277999999999864e+01 -1.975685963665437250e-01
-6.493299999999999628e-01 -7.770299999999999763e+00 4.244800000000000040e+01 -1.837701999999999947e+00 -1.712402857271616563e-01
-6.370000000000000107e-01 -9.851000000000000867e+00 5.325800000000000267e+01 1.314278000000000013e+01 -2.755826787315993065e-01
-6.370000000000000107e-01 -9.851000000000000867e+00 5.421600000000000108e+01 1.869578999999999880e+01 -2.869598176097568065e-01
-6.333100000000000396e-01 3.472399999999999931e+00 3.762800000000000011e+01 2.169115999999999822e+00 1.028103533175031004e-01
-6.288899999999999491e-01 1.192699999999999960e+01 5.923899999999999721e+01 4.528181000000000012e-01 -8.228428951790196788e-02
-6.129999999999999893e-01 -9.775700000000000500e+00 5.610600000000000165e+01 1.843774000000000024e+00 -2.865534987657255561e-01
-6.129999999999999893e-01 -9.775700000000000500e+00 5.704599999999999937e+01 -4.564127000000000045e-01 -2.864081565137972518e-01
-6.119299999999999740e-01 -6.634000000000000341e+00 4.887199999999999989e+01 1.030457000000000001e+01 -1.999106343627509719e-01
-5.971199999999999841e-01 -8.596999999999999531e+00 5.241799999999999926e+01 2.723798000000000030e+01 -2.745633638345383876e-01
-5.946700000000000319e-01 -7.749399999999999622e+00 4.563600000000000279e+01 4.721259999999999901e-01 -2.632496306994664415e-01
-5.874399999999999622e-01 -5.879699999999999704e+00 5.643699999999999761e+01 1.794055000000000177e+01 -2.839453247764335830e-01
-5.830499999999999572e-01 1.022400000000000020e+01 5.140699999999999648e+01 1.876180000000000092e+01 -1.916804830502355506e-01
-5.823700000000000543e-01 3.048599999999999977e+00 3.667199999999999704e+01 1.792075000000000085e+00 6.887833770383108845e-02
-5.765400000000000524e-01 -6.941900000000000404e+00 4.045700000000000074e+01 -5.068197999999999759e+00 -1.769644198050602524e-01
-5.738900000000000112e-01 -8.545999999999999375e+00 5.786899999999999977e+01 -1.423485999999999940e+01 -2.856308684522771979e-01
-5.655099999999999572e-01 -5.809999999999999609e+00 3.930199999999999960e+01 -6.087773000000000323e+00 -2.047601164249854833e-01
-5.652899999999999592e-01 -6.499699999999999811e+00 3.998700000000000188e+01 -1.006606999999999985e+01 -9.657746058687063928e-02
-5.651100000000000012e-01 -3.930000000000000160e-01 3.624699999999999989e+01 1.975725000000000120e-01 -7.593134054434988456e-02
-5.635700000000000154e-01 -9.560600000000000875e+00 5.516299999999999670e+01 1.074638999999999989e+01 -2.865942389839454263e-01
-5.632599999999999829e-01 -6.190999999999999837e+00 5.154399999999999693e+01 2.557503000000000171e+01 -1.976566313882331671e-01
-5.546299999999999564e-01 5.271700000000000053e+00 6.092199999999999704e+01 3.344824000000000019e+00 -4.873625468687714513e-02
-5.546299999999999564e-01 5.271700000000000053e+00 6.178699999999999903e+01 1.453694999999999959e+00 -4.794460217640721111e-02
-5.505100000000000549e-01 -1.602300000000000058e+00 5.859899999999999665e+01 8.041216999999999615e+00 -1.665760216333670996e-01
-5.397100000000000231e-01 5.171000000000000263e+00 7.115399999999999636e+01 -4.602566999999999631e+00 -1.727048224007849964e-01
-5.397100000000000231e-01 6.690999999999999837e+00 7.115399999999999636e+01 -1.858697000000000088e+01 -4.547980245653893139e-02
-5.336100000000000287e-01 4.572700000000000209e+00 6.578600000000000136e+01 -2.193475999999999981e+00 -1.748195504017850122e-01
-5.266800000000000370e-01 1.043500000000000050e+01 5.226899999999999835e+01 1.190856999999999921e+01 -1.890091234864055003e-01
-5.256100000000000216e-01 1.020299999999999940e+01 5.050600000000000023e+01 2.706062000000000012e+01 -1.954983325223558777e-01
-5.223299999999999610e-01 1.245400000000000063e+01 5.957000000000000028e+01 5.812922999999999840e-01 -8.150340211550750891e-02
-5.197100000000000053e-01 3.943999999999999950e+00 6.732800000000000296e+01 -2.894160999999999984e+00 -1.729692560857033490e-01
-5.197100000000000053e-01 3.943999999999999950e+00 6.978799999999999670e+01 -9.950905999999999807e+00 -1.719080233187292861e-01
-5.185999999999999499e-01 4.139100000000000001e+00 6.016299999999999670e+01 7.221426000000000123e+00 -4.683966065385182509e-02
-5.063999999999999613e-01 2.622799999999999798e+00 4.396800000000000352e+01 -3.783984999999999932e+00 -2.083323854852615065e-01
-5.020200000000000218e-01 -2.876900000000000013e+00 3.719599999999999795e+01 8.105063000000000129e-01 -2.578126985667456017e-01
-4.971900000000000208e-01 -4.956999999999999851e+00 5.081400000000000006e+01 1.637877999999999901e+01 -3.939678725779213048e-02
-4.896300000000000097e-01 1.337800000000000011e+01 6.330499999999999972e+01 1.916295999999999999e+00 4.448337834686367023e-03
-4.775699999999999945e-01 1.083099999999999952e+01 5.788700000000000045e+01 -1.267844000000000015e+01 -8.428573793568401584e-02
-4.749999999999999778e-01 4.323299999999999699e+00 6.407399999999999807e+01 -9.619712000000000098e-04 -1.758098593495539819e-01
-4.749999999999999778e-01 4.323299999999999699e+00 6.501399999999999579e+01 -9.903823999999999961e-01 -1.749921220437292146e-01
-4.665699999999999847e-01 -7.049500000000000099e+00 4.651200000000000045e+01 9.346633000000000635e+00 -2.618400312238762795e-01
-4.590000000000000191e-01 -6.402000000000000135e+00 5.735799999999999699e+01 1.411242999999999981e+01 -2.843372902459525564e-01
-4.389000000000000123e-01 -5.260399999999999743e+00 5.151400000000000290e+01 2.256680000000000064e+01 -3.787614259087550284e-02
-4.387300000000000089e-01 7.995199999999999640e+00 6.924500000000000455e+01 -3.732784999999999798e+00 -4.737859605403476476e-02
-4.380000000000000004e-01 3.923299999999999788e+00 3.854299999999999926e+01 3.031773999999999969e+00 -2.258954202450696724e-01
-4.380000000000000004e-01 3.923299999999999788e+00 3.959300000000000352e+01 3.343552999999999997e+00 -2.064273335116320884e-01
-4.370600000000000041e-01 4.830300000000000260e+00 4.649199999999999733e+01 1.811136999999999997e+00 -1.435845150310801621e-01
-4.320200000000000151e-01 9.789999999999999147e+00 4.746699999999999875e+01 5.919528999999999996e+01 -2.403807486694078954e-01
-4.313400000000000012e-01 1.307399999999999984e+01 6.260499999999999687e+01 -7.937513000000000485e-01 4.670430250973791816e-03
-4.252000000000000224e-01 2.629599999999999937e+00 4.480400000000000205e+01 1.352873999999999910e+00 -8.389520486327164961e-02
-4.099999999999999756e-01 1.070700000000000074e+01 5.697999999999999687e+01 -1.522475999999999985e+01 -8.497791503540784441e-02
-4.061100000000000265e-01 1.360699999999999932e+01 6.090200000000000102e+01 2.619021000000000043e+00 5.949380345151732488e-03
-4.048900000000000277e-01 -3.866000000000000103e+00 5.842799999999999727e+01 -2.245799999999999841e+01 -2.829759488074707896e-01
-3.930000000000000160e-01 -8.890700000000000713e+00 4.355499999999999972e+01 -6.416802999999999813e-01 -2.663917003391838567e-01
-3.930000000000000160e-01 -8.890700000000000713e+00 4.449499999999999744e+01 -3.956219999999999737e-01 -2.645455509323710319e-01
-3.876200000000000201e-01 -5.587799999999999656e+00 4.907999999999999829e+01 2.617807000000000173e+01 -1.980617375588767382e-01
-3.870700000000000252e-01 4.200300000000000367e+00 4.641499999999999915e+01 2.728994999999999838e+00 -1.549306178458043914e-01
-3.870199999999999751e-01 1.291300000000000026e+01 6.834900000000000375e+01 -4.102893999999999863e+01 8.387638205382799694e-02
-3.869500000000000162e-01 1.344699999999999918e+01 6.194100000000000250e+01 -2.320297000000000054e-01 5.268719252516796368e-03
-3.783599999999999741e-01 -5.143600000000000172e+00 5.643699999999999761e+01 8.932486000000000814e+00 -2.834164187584053973e-01
-3.708899999999999975e-01 -7.509500000000000064e+00 5.204800000000000182e+01 6.841529999999999667e+00 -2.855204504962979839e-01
-3.679999999999999938e-01 1.428899999999999970e+01 6.493200000000000216e+01 6.394248000000000154e+00 4.408324410299567682e-03
-3.679999999999999938e-01 1.428899999999999970e+01 6.589000000000000057e+01 -1.219538000000000011e+00 4.096860101578668999e-03
-3.655399999999999761e-01 2.927400000000000002e+00 4.563100000000000023e+01 6.343017999999999823e+00 -9.224022395997946711e-02
-3.644399999999999862e-01 3.185000000000000053e+00 6.004699999999999704e+01 1.641436000000000006e-01 -1.782819508705198452e-01
-3.644000000000000017e-01 -6.711400000000000254e+00 5.641499999999999915e+01 1.081612999999999936e+01 -2.845153433256438213e-01
-3.534900000000000264e-01 -6.300099999999999589e+00 5.550800000000000267e+01 2.746600000000000108e+01 -2.841921828931537886e-01
-3.433499999999999885e-01 -7.338199999999999612e+00 5.747299999999999898e+01 -6.320166000000000395e+00 -2.849354316026739831e-01
-3.424300000000000122e-01 1.083099999999999952e+01 5.607300000000000040e+01 1.643872000000000000e+00 -8.534999460963001161e-02
-3.315500000000000114e-01 -5.399399999999999977e+00 5.545100000000000051e+01 1.153214999999999968e+01 -2.834884398734628941e-01
-3.303699999999999970e-01 1.196000000000000085e+01 6.845399999999999352e+01 1.829861999999999966e+01 8.311451058540422765e-02
-3.210500000000000020e-01 -5.306099999999999817e+00 5.754800000000000182e+01 -2.434302000000000188e+00 -2.836505610054594340e-01
-3.040999999999999814e-01 1.856300000000000061e+00 3.636800000000000210e+01 4.512743000000000393e+00 -6.270501734799473204e-02
-2.937199999999999811e-01 -7.897000000000000242e+00 5.235999999999999943e+01 1.100225999999999971e+01 -2.858524292705391656e-01
-2.863200000000000189e-01 1.143099999999999916e+01 5.847099999999999653e+01 -1.481149999999999967e+00 -8.309970219632087374e-02
-2.810099999999999820e-01 -4.058600000000000207e+00 3.779200000000000159e+01 -2.014060000000000183e+00 -2.713295297891445412e-01
-2.725799999999999890e-01 -7.713000000000000078e+00 4.203000000000000114e+01 -1.452193999999999985e+00 -1.713016268819789745e-01
-2.664799999999999947e-01 4.963899999999999757e+00 6.217000000000000171e+01 1.898060999999999998e+00 -4.700393488052096586e-02
-2.575500000000000012e-01 8.386900000000000688e+00 4.648199999999999932e+01 9.424327999999999150e+00 -2.087806327232396841e-01
-2.567400000000000237e-01 6.951999999999999957e+00 4.568800000000000239e+01 2.231956999999999969e+00 -1.729073486691908301e-01
-2.560000000000000053e-01 3.109999999999999876e+00 4.220799999999999841e+01 -2.516367999999999938e+01 -2.041040135083996288e-01
-2.560000000000000053e-01 3.234500000000000153e+00 4.130100000000000193e+01 -8.729571999999999221e+00 -2.044368019404783632e-01
-2.553400000000000114e-01 4.011099999999999888e+00 3.765999999999999659e+01 3.456039999999999779e+00 1.162766201974191616e-01
-2.523299999999999987e-01 4.376599999999999824e+00 6.662800000000000011e+01 -6.602909999999999613e+00 -1.737403748440837503e-01
-2.493599999999999983e-01 1.331499999999999950e+01 6.762800000000000011e+01 -9.272639000000000298e-01 -1.738006972635396108e-01
-2.416699999999999959e-01 -4.768299999999999983e+00 5.567499999999999716e+01 3.804143999999999970e+00 -2.830238911915242128e-01
-2.357100000000000029e-01 -1.153000000000000025e+00 3.631000000000000227e+01 -5.416567999999999827e+00 -4.864190720455870143e-02
-2.357100000000000029e-01 3.669999999999999929e-01 3.631000000000000227e+01 -8.588577000000000794e+00 2.258630331099290844e-01
-2.251100000000000045e-01 3.886699999999999822e+00 3.672899999999999920e+01 3.982187999999999839e-01 8.526921268123086040e-02
-2.236899999999999999e-01 -2.624000000000000110e+00 5.795400000000000063e+01 -3.700070999999999888e+00 -5.744418512743697247e-02
-2.054400000000000115e-01 2.988199999999999967e+00 4.311399999999999721e+01 -1.907696999999999932e+01 -2.055443740643313200e-01
-1.986199999999999910e-01 -2.176899999999999835e+00 3.713700000000000045e+01 -1.342076000000000047e+00 -5.157689752616049367e-02
-1.967399999999999982e-01 6.460000000000000187e-01 6.067399999999999949e+01 1.621008000000000004e+00 -1.707860911925090375e-01
-1.960000000000000075e-01 1.353800000000000026e+01 6.693800000000000239e+01 1.190090999999999966e+01 8.383895119203571555e-02
-1.828799999999999870e-01 1.330499999999999972e+01 5.982300000000000040e+01 -1.287194000000000116e-01 -8.031378487683325795e-02
-1.819999999999999951e-01 9.993999999999999773e+00 6.895900000000000318e+01 1.002120000000000033e+01 1.767400742465188301e-01
-1.580199999999999938e-01 -9.076000000000000512e+00 5.296200000000000330e+01 2.469578999999999880e+01 -2.868075052848897410e-01
-1.543299999999999950e-01 2.467699999999999783e+00 3.587899999999999778e+01 4.168751000000000317e+00 -3.609319870141091541e-02
-1.543299999999999950e-01 3.518299999999999983e+00 3.587899999999999778e+01 9.482703999999999578e-01 5.236300751750529170e-02
-1.529999999999999971e-01 -7.293300000000000338e-01 5.975300000000000011e+01 1.432881000000000071e+01 -1.676494465193857641e-01
-1.462199999999999889e-01 3.541100000000000136e+00 4.046999999999999886e+01 -1.153672000000000031e-01 -1.954828058968563209e-01
-1.432900000000000007e-01 -9.015700000000000713e+00 5.733599999999999852e+01 -2.534507999999999939e+01 -2.859997623321379190e-01
-1.432900000000000007e-01 -8.076299999999999812e+00 5.733599999999999852e+01 -4.037351999999999919e+01 -2.854194586105794906e-01
-1.360000000000000098e-01 1.026900000000000013e+01 4.824199999999999733e+01 1.078874000000000066e+01 -2.410167208625414725e-01
-1.360000000000000098e-01 1.026900000000000013e+01 4.920000000000000284e+01 -1.516059999999999963e+00 -2.370123015030942693e-01
-1.328799999999999981e-01 -5.319099999999999717e+00 3.890500000000000114e+01 -6.039024000000000392e+00 -2.173830270112319663e-01
-1.326700000000000101e-01 -5.799699999999999633e+00 3.971999999999999886e+01 -6.007025999999999755e+00 -1.790785844644111058e-01
-1.326400000000000079e-01 4.724800000000000111e+00 6.279299999999999926e+01 1.295597000000000110e+00 -4.609645260711506265e-02
-1.250100000000000100e-01 4.431499999999999773e+00 6.343800000000000239e+01 -7.738850999999999716e-03 -1.762996443667310675e-01
-1.235499999999999932e-01 1.088199999999999967e+01 5.311699999999999733e+01 8.942358999999999725e+00 -8.803715533829398199e-02
-1.219999999999999973e-01 4.571699999999999875e+00 6.065400000000000347e+01 -1.058950000000000058e+00 -4.739280772837234368e-02
-1.200999999999999984e-01 -2.330900000000000194e+00 5.713499999999999801e+01 -9.170700000000000074e+00 -5.781552226431020680e-02
-1.178799999999999987e-01 -1.111399999999999944e+00 5.899600000000000222e+01 6.868699999999999584e+00 -1.668768631061341989e-01
-1.027099999999999957e-01 -8.420999999999999375e+00 4.279500000000000171e+01 -1.466938000000000075e+00 -1.688927437221923733e-01
-1.027099999999999957e-01 -8.420999999999999375e+00 4.525500000000000256e+01 -4.800798999999999594e+00 -2.631877749084088336e-01
-9.349100000000000465e-02 -9.411899999999999267e+00 5.373700000000000188e+01 6.848172999999999888e+01 -2.869055869344313003e-01
-8.889400000000000079e-02 1.112199999999999989e+01 5.406000000000000227e+01 1.491921999999999926e+01 -8.627669682991698230e-02
-8.763799999999999368e-02 8.403399999999999537e+00 6.907099999999999795e+01 4.913698999999999845e-02 2.104150340741400560e-01
-8.167099999999999360e-02 -6.716300000000000381e+00 5.214000000000000057e+01 2.076727999999999952e+01 -2.847031169232927539e-01
-8.001099999999999879e-02 -9.345100000000000406e+00 5.657600000000000051e+01 -5.511930000000000440e+00 -2.863109314108115977e-01
-8.001099999999999879e-02 -7.746900000000000119e+00 5.657600000000000051e+01 -1.910925999999999902e+01 -2.852499180919717547e-01
-7.662299999999999667e-02 1.087700000000000067e+01 5.490599999999999881e+01 1.706576000000000093e+01 -8.606860074384055370e-02
-7.291100000000000358e-02 -6.126999999999999780e+00 4.030499999999999972e+01 -6.242202999999999946e+00 -1.767580477797460747e-01
-7.000000000000000666e-02 4.637999999999999901e+00 7.072299999999999898e+01 -6.824562000000000239e+00 -1.720319688495222654e-01
-7.000000000000000666e-02 5.931000000000000050e+00 7.144400000000000261e+01 -4.027814000000000050e+01 -1.730570617022140489e-01
-7.000000000000000666e-02 7.224000000000000199e+00 7.072299999999999898e+01 -1.664620999999999995e+01 -4.607068485828064164e-02
-7.000000000000000666e-02 7.548899999999999721e+00 6.998600000000000421e+01 -5.017875999999999692e+01 -4.662681063901743389e-02
-6.371499999999999386e-02 4.875099999999999767e+00 6.135399999999999920e+01 -2.261594999999999800e+00 -4.745307466179726763e-02
-6.198900000000000243e-02 1.418399999999999928e+01 6.194100000000000250e+01 -5.151010999999999562e+00 6.196342325963683645e-03
-5.803900000000000031e-02 -9.140900000000000247e+00 5.450399999999999778e+01 1.633283000000000129e+02 -2.865398299054482956e-01
-5.000000000000000278e-02 3.184000000000000163e+00 6.855800000000000693e+01 -3.304479999999999862e+00 -1.710999695363987771e-01
-5.000000000000000278e-02 3.411000000000000032e+00 6.775900000000000034e+01 -2.333941999999999961e+00 -1.716885985059611597e-01
-5.000000000000000278e-02 3.411000000000000032e+00 6.935699999999999932e+01 -2.503317000000000014e+00 -1.711142026752293654e-01
-5.000000000000000278e-02 4.359799999999999898e+00 7.030599999999999739e+01 -3.889238999999999891e+00 -1.718663872801177717e-01
-4.491900000000000059e-02 -9.076900000000000190e+00 5.581700000000000017e+01 -2.333232999999999890e+00 -2.862594863226803343e-01
-4.223199999999999871e-02 -5.796499999999999986e+00 5.469400000000000261e+01 2.476312000000000069e+01 -2.837215081063292343e-01
-4.223199999999999871e-02 -4.931199999999999584e+00 5.469400000000000261e+01 1.400136999999999965e+01 -2.829770996376594350e-01
-3.520399999999999918e-02 -8.164400000000000546e+00 5.288600000000000279e+01 2.270242000000000004e+01 -2.860519875403085277e-01
-3.312299999999999967e-02 1.394500000000000028e+01 6.281600000000000250e+01 -7.512572999999999723e+00 8.707021102597842233e-02
-3.258199999999999985e-02 -4.032300000000000217e+00 5.567499999999999716e+01 -4.111669000000000018e+00 -2.824408303295269929e-01
-2.697099999999999845e-02 1.125999999999999979e+01 6.851200000000000045e+01 2.033624999999999972e+01 1.763283035910472307e-01
-2.490399999999999905e-02 -7.251299999999999635e+00 5.259899999999999665e+01 1.922359000000000151e+01 -2.852075546648439874e-01
-2.331400000000000139e-02 -7.282099999999999795e+00 5.571399999999999864e+01 1.684730000000000061e+01 -2.849550016988379175e-01
-1.462399999999999985e-02 -6.430399999999999672e+00 4.100500000000000256e+01 -7.973843999999999710e+00 -1.741046359200191795e-01
-6.281000000000000125e-03 -4.560399999999999565e+00 5.038100000000000023e+01 1.300796000000000063e+01 -3.815459086674886230e-02
-6.281000000000000125e-03 -4.560399999999999565e+00 5.124600000000000222e+01 1.353509000000000029e+01 -3.857348384356505677e-02
-4.431000000000000043e-03 5.530300000000000438e+00 4.622399999999999665e+01 1.551724000000000103e+00 -1.396383506731518898e-01
2.544999999999999953e-03 -5.725699999999999790e+00 5.203199999999999648e+01 2.749614000000000047e+01 -2.836135338650765947e-01
4.085000000000000089e-03 -8.071600000000000108e+00 5.580799999999999983e+01 -5.455282000000000409e+00 -2.855505521168265060e-01
1.754500000000000157e-02 1.552599999999999980e+00 6.067499999999999716e+01 -3.146875000000000089e-01 -1.727774999718905136e-01
2.570599999999999968e-02 -4.335700000000000109e+00 5.497500000000000142e+01 1.209745000000000026e+01 -2.825166011020443513e-01
2.570599999999999968e-02 -4.335700000000000109e+00 5.637500000000000000e+01 -9.337396999999999281e+00 -2.827826594448233366e-01
2.570599999999999968e-02 -4.335700000000000109e+00 5.789500000000000313e+01 -2.154420999999999964e+01 -2.830717777408660041e-01
2.570599999999999968e-02 -3.396300000000000097e+00 5.789500000000000313e+01 -3.303081999999999852e+01 -2.825364728410738602e-01
3.083500000000000130e-02 1.397300000000000075e+01 6.379699999999999704e+01 1.560191000000000017e+01 8.597909259135066984e-02
4.555200000000000221e-02 3.500300000000000189e+00 4.614800000000000324e+01 4.505582000000000420e+00 -6.441804576588602838e-02
6.769400000000000417e-02 1.066999999999999948e+00 3.636899999999999977e+01 -3.363837999999999884e+00 2.054754216702942282e-01
8.167099999999999360e-02 2.487999999999999989e+00 6.032200000000000273e+01 -4.110109999999999708e+00 -1.755179764015216415e-01
8.167099999999999360e-02 3.887999999999999901e+00 6.032200000000000273e+01 1.478612999999999955e+00 -4.598959398537882243e-02
8.898899999999999866e-02 -4.665099999999999802e+00 5.713499999999999801e+01 -1.585717999999999961e+00 -2.831322653630554131e-01
8.898899999999999866e-02 -3.066899999999999959e+00 5.713499999999999801e+01 -8.756100999999999246e+00 -2.821458749664499388e-01
8.898899999999999866e-02 -1.594799999999999995e+00 5.713499999999999801e+01 1.020961999999999925e+01 -1.658373833141286724e-01
1.018899999999999945e-01 -1.893499999999999961e+00 5.795300000000000296e+01 2.857183000000000028e+00 -1.279419933625151051e-01
1.088800000000000046e-01 -5.048499999999999766e+00 4.954699999999999704e+01 1.153119000000000050e+01 -1.959272396617876000e-01
1.116700000000000054e-01 6.102000000000000313e+00 4.575900000000000034e+01 1.448213999999999890e+00 -2.638007177213881338e-01
1.116700000000000054e-01 7.801999999999999602e+00 4.575900000000000034e+01 3.221417999999999893e+00 -1.887399732025313581e-01
1.323999999999999899e-01 1.243399999999999928e+01 6.793399999999999750e+01 1.944415000000000004e+00 1.759332501074399868e-01
1.469999999999999918e-01 -8.545999999999999375e+00 5.657600000000000051e+01 -1.078173999999999921e+01 -2.858242067455813995e-01
1.472799999999999943e-01 -2.763500000000000068e+00 5.643500000000000227e+01 -4.106520999999999866e+00 -5.445110735789224915e-02
1.472799999999999943e-01 -1.898200000000000109e+00 5.643500000000000227e+01 -1.146425999999999945e+00 -1.649652241064888114e-01
1.542999999999999927e-01 -4.804299999999999571e+00 3.810300000000000153e+01 -1.329571999999999976e+00 -1.937187858851357192e-01
1.663999999999999924e-01 -6.768500000000000405e+00 4.810300000000000153e+01 -1.138881000000000032e+00 -1.998482714722800146e-01
1.716699999999999893e-01 -2.039999999999999869e-01 6.060300000000000153e+01 1.530982000000000021e+01 -1.680118434318293164e-01
1.743899999999999895e-01 1.014400000000000013e+01 5.167499999999999716e+01 4.435210999999999792e+00 -9.254506355368617709e-02
1.755099999999999993e-01 1.384999999999999964e+01 6.541100000000000136e+01 -7.118438999999999739e-01 8.419367418460253771e-02
1.776699999999999946e-01 1.272100000000000009e+01 5.913700000000000045e+01 -4.072306000000000203e+00 -8.101507261218283962e-02
1.817499999999999949e-01 -6.977899999999999991e+00 4.158899999999999864e+01 -1.861162999999999901e+00 -1.714903140793470893e-01
1.900000000000000022e-01 1.408799999999999919e+01 6.037700000000000244e+01 -1.584688000000000097e+00 8.965714802812645157e-02
1.923900000000000055e-01 -6.795399999999999885e+00 4.717699999999999960e+01 -3.951029999999999820e+00 -2.598833102260368344e-01
2.027100000000000013e-01 -8.340199999999999392e+00 5.451200000000000045e+01 2.837272000000000105e+01 -2.859592354722561014e-01
2.174300000000000122e-01 3.908500000000000085e+00 6.454399999999999693e+01 -5.552316000000000251e+00 -1.740518795178528921e-01
2.261199999999999877e-01 4.166599999999999859e+00 6.537800000000000011e+01 -2.612896999999999803e+00 -1.738456786594989312e-01
2.290800000000000058e-01 1.218099999999999916e+01 5.875999999999999801e+01 -4.590601000000000376e+00 -8.180215024240425348e-02
2.334299999999999986e-01 -6.991200000000000081e+00 4.620900000000000318e+01 -5.863080000000000069e+00 -2.617867046824780553e-01
2.340000000000000135e-01 -1.685999999999999943e+00 3.674099999999999966e+01 -8.977540999999999993e-01 -5.529961944819317132e-02
2.340000000000000135e-01 -3.930000000000000160e-01 3.602000000000000313e+01 -9.680980000000000141e-01 2.540654316973215421e-01
2.348099999999999909e-01 -8.667099999999999582e+00 5.373700000000000188e+01 3.002783000000000158e+01 -2.863896319851911842e-01
2.356699999999999906e-01 9.858599999999999142e+00 5.007600000000000051e+01 6.537176999999999794e+00 -1.304261802950957005e-01
2.356699999999999906e-01 9.858599999999999142e+00 5.094200000000000017e+01 -1.494447999999999999e+00 -1.303264272553117942e-01
2.639599999999999724e-01 8.926299999999999457e+00 4.692199999999999704e+01 1.726394000000000162e+01 -1.079980630677475351e-01
3.053799999999999848e-01 1.261700000000000088e+01 6.471800000000000352e+01 4.864227999999999952e+01 1.762124697641683779e-01
3.080100000000000060e-01 -5.152999999999999581e+00 5.203499999999999659e+01 1.545415000000000028e+01 -2.828929027706239552e-01
3.160000000000000031e-01 -3.866000000000000103e+00 5.713499999999999801e+01 -2.024386000000000152e+01 -2.825772355018224546e-01
3.225700000000000234e-01 4.110299999999999621e+00 6.638800000000000523e+01 -2.528948000000000196e+00 -1.730233095559334244e-01
3.272599999999999953e-01 2.992999999999999883e+00 3.528300000000000125e+01 1.051163000000000070e+00 -4.663275215016919606e-02
3.293300000000000116e-01 1.268800000000000061e+01 6.726300000000000523e+01 2.312074000000000140e+01 1.758182391598872019e-01
3.323300000000000143e-01 -7.711299999999999599e+00 5.322500000000000142e+01 1.087440999999999924e+01 -2.856218452018505771e-01
3.323300000000000143e-01 -7.711299999999999599e+00 5.492499999999999716e+01 2.877910999999999930e+01 -2.853918315924449112e-01
3.323300000000000143e-01 -6.660700000000000287e+00 5.492499999999999716e+01 5.177087999999999823e+01 -2.844717123314178253e-01
3.351100000000000190e-01 1.559600000000000097e+00 3.603900000000000148e+01 6.987659000000000509e-01 5.832337585859713111e-03
3.433300000000000241e-01 1.084399999999999942e+01 6.863400000000000034e+01 2.828768000000000171e+01 8.911878215979456008e-02
3.479599999999999915e-01 1.063700000000000045e+01 5.356499999999999773e+01 1.333039999999999914e+01 -8.779774510166374335e-02
3.484300000000000175e-01 3.051099999999999923e+00 4.339900000000000091e+01 -1.322437000000000040e+01 -2.087510966969192694e-01
3.489499999999999824e-01 4.200300000000000367e+00 4.620600000000000307e+01 1.766032000000000046e+00 -6.043166494961463991e-02
3.490500000000000269e-01 4.320700000000000429e+00 6.102199999999999847e+01 -5.201276000000000010e+00 -4.643289185273206249e-02
3.499999999999999778e-01 1.041699999999999982e+01 5.650999999999999801e+01 -3.310732999999999748e+01 -8.548971534244451109e-02
3.516699999999999826e-01 4.825700000000000323e+00 4.625000000000000000e+01 2.142720999999999876e+00 -5.158189007951559379e-02
3.543700000000000183e-01 -5.363900000000000112e+00 5.420300000000000296e+01 1.540113999999999983e+01 -2.832370613612621435e-01
3.559999999999999831e-01 2.903700000000000170e+00 4.434300000000000352e+01 -3.059303999999999846e+01 -5.490137886030964365e-02
3.559999999999999831e-01 2.903700000000000170e+00 4.520799999999999841e+01 -1.648966000000000065e+01 -6.675468366150875965e-02
3.632199999999999873e-01 1.090000000000000036e+01 5.799099999999999966e+01 -1.729224999999999923e+01 -8.386209161538236978e-02
3.643600000000000172e-01 -3.223399999999999821e+00 3.785000000000000142e+01 -1.648964000000000096e+00 -1.172840000635988087e-03
3.659000000000000030e-01 4.034900000000000375e+00 6.300500000000000256e+01 3.013272999999999868e+00 -1.755161012120153852e-01
3.669999999999999929e-01 -9.180999999999999162e+00 4.402499999999999858e+01 -7.624685999999999630e+00 -2.648535014347110361e-01
3.669999999999999929e-01 -8.954000000000000625e+00 4.322599999999999909e+01 -2.013336999999999932e+00 -2.668209475789595220e-01
3.669999999999999929e-01 -8.954000000000000625e+00 4.482399999999999807e+01 -6.609791000000000416e+00 -2.633490742977953047e-01
3.709999999999999964e-01 4.368299999999999628e+00 3.620400000000000063e+01 1.219076000000000048e+00 8.161646347412128411e-02
3.709999999999999964e-01 4.368299999999999628e+00 3.725399999999999778e+01 6.009965000000000224e+00 1.157888853616923369e-01
3.739999999999999991e-01 1.012899999999999956e+01 5.224199999999999733e+01 6.841728999999999949e+00 -9.123494954107597144e-02
3.743299999999999961e-01 9.183699999999999974e+00 6.877500000000000568e+01 1.439334000000000024e+01 2.102226473679248142e-01
3.850700000000000234e-01 3.188000000000000167e+00 6.026400000000000290e+01 -4.384261000000000408e+00 -1.770076952533181924e-01
3.888400000000000190e-01 1.032399999999999984e+01 5.278399999999999892e+01 1.057963999999999949e+01 -8.971809820170803529e-02
3.946399999999999908e-01 1.042900000000000027e+01 5.547200000000000131e+01 2.634247999999999834e+01 -8.626587765045908018e-02
3.996399999999999952e-01 4.378400000000000070e+00 6.218999999999999773e+01 2.414126000000000050e-01 -1.770927463625027731e-01
3.997100000000000097e-01 5.171000000000000263e+00 7.115399999999999636e+01 -8.474266999999999328e+00 -1.721375746465438339e-01
3.997100000000000097e-01 6.690999999999999837e+00 7.115399999999999636e+01 -3.894821999999999917e+01 -4.874361376024821668e-02
3.997100000000000097e-01 -3.143600000000000172e+00 5.598799999999999955e+01 -1.509289000000000103e+00 -5.125410704320514099e-02
3.997100000000000097e-01 -2.278300000000000214e+00 5.598799999999999955e+01 -5.818586999999999954e+00 -5.583361307967036474e-02
4.001100000000000212e-01 1.305700000000000038e+01 6.641299999999999670e+01 1.294370999999999938e+01 8.203594678213571578e-02
4.031100000000000239e-01 -8.079700000000000770e+00 5.407500000000000284e+01 2.279170999999999836e+01 -2.858420664917743492e-01
4.069999999999999729e-01 1.303500000000000014e+01 6.541100000000000136e+01 1.683352999999999966e+01 8.241209909691971092e-02
4.119999999999999774e-01 3.994099999999999984e+00 3.996200000000000330e+01 3.224031999999999787e+00 -2.028561140039107369e-01
4.119999999999999774e-01 4.248000000000000220e+00 3.906799999999999784e+01 1.770911999999999864e+01 -2.200121132651654265e-01
4.153399999999999870e-01 4.267299999999999649e+00 3.807399999999999807e+01 4.789183999999999664e+00 -2.400359991192881071e-01
4.179999999999999827e-01 -5.730400000000000382e+00 4.073799999999999955e+01 -8.810287999999999897e+00 -1.742877716771601970e-01
4.183499999999999996e-01 9.832800000000000651e+00 4.771999999999999886e+01 1.672393999999999892e+01 -1.260604080734443744e-01
4.190200000000000036e-01 3.844899999999999984e+00 6.726800000000000068e+01 -2.876418999999999837e+00 -1.721011113733745823e-01
4.213799999999999768e-01 -5.768299999999999983e+00 5.287199999999999989e+01 2.052996999999999872e+01 -2.835787954489971674e-01
4.242900000000000005e-01 1.339600000000000080e+01 5.907300000000000040e+01 -4.130002999999999869e-01 -8.002577396306212454e-02
4.251300000000000079e-01 1.053800000000000026e+01 5.741299999999999670e+01 -2.261318999999999946e+01 -8.468425461011216959e-02
4.392699999999999938e-01 1.043999999999999950e+01 5.443299999999999983e+01 3.018718000000000146e+01 -8.722159752192798488e-02
4.570400000000000018e-01 -3.713299999999999823e+00 5.628399999999999892e+01 -5.160009999999999764e+00 -2.822370603512180942e-01
4.583300000000000152e-01 -3.635699999999999932e+00 5.524199999999999733e+01 3.697321000000000080e+00 -2.819066049179789202e-01
4.709999999999999742e-01 1.461500000000000021e+01 6.147099999999999653e+01 -5.127030000000000420e+00 8.812251347689829817e-02
4.709999999999999742e-01 1.461500000000000021e+01 6.241100000000000136e+01 -2.124271999999999849e+01 8.701759134185174660e-02
4.776199999999999890e-01 -5.587799999999999656e+00 4.907999999999999829e+01 6.062068000000000012e+00 -1.960974017309355111e-01
4.833299999999999819e-01 -6.717900000000000205e+00 5.320300000000000296e+01 1.872814999999999941e+01 -2.846078462203890935e-01
4.929999999999999938e-01 9.929399999999999338e+00 4.856400000000000006e+01 2.724414000000000158e+01 -1.289729696574826168e-01
4.986499999999999821e-01 -6.273600000000000065e+00 5.418099999999999739e+01 3.798563999999999652e+01 -2.841099354414698963e-01
5.144699999999999829e-01 1.188100000000000023e+01 6.471800000000000352e+01 4.293576999999999799e+01 1.764081287850450264e-01
5.144699999999999829e-01 1.338499999999999979e+01 6.471800000000000352e+01 3.498716999999999899e+01 8.298075783551842055e-02
5.451599999999999779e-01 -6.059999999999999609e+00 4.882999999999999829e+01 -8.811531000000000224e-01 -1.969168851419684507e-01
5.453500000000000014e-01 2.954200000000000159e+00 4.266199999999999903e+01 -6.396240000000000236e+01 -2.116322742375743304e-01
5.518800000000000372e-01 1.375399999999999956e+01 6.400499999999999545e+01 -1.873709000000000069e+00 8.388351465008991870e-02
5.573200000000000376e-01 2.923399999999999999e+00 4.173599999999999710e+01 -3.519261000000000195e+01 -2.134322800350408333e-01
5.673300000000000010e-01 -5.532300000000000217e+00 3.928699999999999903e+01 -2.119159999999999933e+00 -1.796884867824299070e-01
5.727600000000000469e-01 1.218500000000000050e+01 6.401800000000000068e+01 7.822389000000000259e+00 1.763692871848648869e-01
5.727600000000000469e-01 1.218500000000000050e+01 6.541800000000000637e+01 2.596734000000000009e+01 1.761159675870546670e-01
5.727600000000000469e-01 1.305000000000000071e+01 6.401800000000000068e+01 6.470088999999999757e+00 8.266638008579647867e-02
5.798999999999999710e-01 -1.198199999999999932e+00 5.670199999999999818e+01 6.221131999999999884e+00 -1.662718370422871517e-01
5.798999999999999710e-01 -1.198199999999999932e+00 5.756799999999999784e+01 6.173148000000000302e+00 -1.656806095543165158e-01
5.926700000000000301e-01 -7.713000000000000078e+00 4.203000000000000114e+01 -2.002927000000000124e+00 -1.686209568065326625e-01
6.054899999999999727e-01 9.754799999999999471e+00 5.137700000000000244e+01 3.366396999999999862e-01 -1.287231629801188493e-01
6.083399999999999919e-01 3.951099999999999834e+00 6.986899999999999977e+01 -1.520980999999999916e+01 -1.711029235005273874e-01
6.260000000000000009e-01 2.160899999999999821e+00 6.104399999999999693e+01 -1.601909000000000027e+00 -1.730538032073470067e-01
6.260000000000000009e-01 -5.283999999999999808e+00 3.863700000000000045e+01 -5.697668000000000177e+00 -2.201269320071317370e-01
6.260000000000000009e-01 -3.991000000000000103e+00 3.791599999999999682e+01 -1.772016999999999953e+00 -4.015334653434815548e-02
6.370000000000000107e-01 6.951999999999999957e+00 4.543399999999999750e+01 2.153052999999999884e+00 -5.309329105518033332e-02
6.370000000000000107e-01 8.398099999999999454e+00 4.624000000000000199e+01 6.176878999999999564e+00 -8.817098634596806650e-02
6.570000000000000284e-01 -7.185999999999999943e+00 5.407500000000000284e+01 2.092094000000000165e+01 -2.850281370118414870e-01
6.577699999999999658e-01 -4.663899999999999935e+00 5.426100000000000279e+01 8.718026000000000053e+00 -2.825093420084144880e-01
6.677600000000000202e-01 -2.523400000000000087e+00 3.779200000000000159e+01 -5.966687999999999992e-01 -7.229526216964980712e-03
6.699500000000000455e-01 2.965399999999999814e+00 4.114300000000000068e+01 -1.678569999999999851e+01 -2.153965158709144900e-01
6.736400000000000166e-01 3.536999999999999922e+00 6.381099999999999994e+01 5.039905000000000079e+00 -1.734971227115129078e-01
6.853799999999999892e-01 -6.163000000000000256e+00 4.143800000000000239e+01 -1.835744000000000042e+00 -1.708609877889689377e-01
6.888800000000000479e-01 4.602899999999999991e+00 7.045499999999999829e+01 -1.777487999999999957e+01 -1.715879887432149031e-01
6.899999999999999467e-01 7.160700000000000287e+00 7.039400000000000546e+01 -7.060586999999999591e+01 -4.937664367846215235e-02
