1.103499999999999943e+02 -1.860800000000000054e+01 -1.289099999999999966e+02 1.147580999999999918e+01 -3.500000000000000333e-01
1.103499999999999943e+02 -1.512100000000000044e+01 -1.172099999999999937e+02 4.997016999999999598e+00 -1.397542858373469754e-01
1.103599999999999994e+02 -1.720700000000000074e+01 -1.171200000000000045e+02 3.281417999999999946e+00 -1.375103145772434976e-01
1.103599999999999994e+02 -2.714000000000000057e+01 -1.229300000000000068e+02 4.964926000000000061e-01 -2.839097558485957351e-01
1.103700000000000045e+02 -2.222800000000000153e+01 -1.356299999999999955e+02 -1.421582000000000079e+01 -3.499999999999999778e-01
1.103799999999999955e+02 -2.332700000000000173e+01 -1.109800000000000040e+02 1.682128999999999985e+00 -1.339808258429090460e-01
1.103799999999999955e+02 -1.071899999999999942e+01 -1.097399999999999949e+02 -1.206264999999999965e+01 -1.467047599339355302e-01
1.103900000000000006e+02 -2.767000000000000171e+01 -1.327899999999999920e+02 -1.350562000000000040e+00 -2.859282191746589374e-01
1.103900000000000006e+02 -2.750400000000000134e+01 -1.237500000000000000e+02 1.014067000000000007e+01 -2.842270759972567173e-01
1.103900000000000006e+02 -2.089099999999999824e+01 -1.365500000000000114e+02 -1.161120000000000019e+01 -3.500000000000000333e-01
1.104099999999999966e+02 -2.222400000000000020e+01 -1.124300000000000068e+02 2.445814999999999984e+01 -1.344935214453258643e-01
1.104099999999999966e+02 -2.175300000000000011e+01 -1.306999999999999886e+02 -3.154126000000000207e+00 -3.500000000000000333e-01
1.104099999999999966e+02 -2.140800000000000125e+01 -1.299099999999999966e+02 3.558707000000000065e+00 -3.500000000000000333e-01
1.104099999999999966e+02 -1.375600000000000023e+01 -1.248700000000000045e+02 -2.163207999999999842e+01 -1.363577137713688214e-01
1.104099999999999966e+02 -1.375600000000000023e+01 -1.239300000000000068e+02 -3.213559000000000054e+01 -1.367854457964330916e-01
1.104200000000000017e+02 -2.002299999999999969e+01 -1.375399999999999920e+02 -3.613139999999999930e+01 -3.499999999999999778e-01
1.104200000000000017e+02 -1.908299999999999841e+01 -1.375399999999999920e+02 -5.702758999999999645e+01 -3.499999999999999778e-01
1.104200000000000017e+02 -2.779400000000000048e+01 -1.318600000000000136e+02 -9.835336000000000078e-01 -2.858357090688287139e-01
1.104300000000000068e+02 -2.089199999999999946e+01 -1.328499999999999943e+02 -5.497724999999999973e+00 -3.500000000000000333e-01
1.104300000000000068e+02 -2.536100000000000065e+01 -1.364199999999999875e+02 -5.529754999999999754e+00 -3.499999999999999778e-01
1.104300000000000068e+02 -2.442099999999999937e+01 -1.364199999999999875e+02 -1.769825000000000159e+01 -3.500000000000000333e-01
1.104399999999999977e+02 -3.081299999999999883e+01 -1.265400000000000063e+02 4.736920999999999715e+00 -2.858459329141649352e-01
1.104399999999999977e+02 -3.055900000000000105e+01 -1.256400000000000006e+02 5.698330000000000339e+00 -2.855950786459213742e-01
1.104399999999999977e+02 -2.911299999999999955e+01 -1.248400000000000034e+02 1.790408000000000044e+01 -2.849647746856473485e-01
1.104599999999999937e+02 -3.085399999999999920e+01 -1.125699999999999932e+02 9.595331999999999750e-01 -1.606572930201368432e-01
1.104800000000000040e+02 -1.875400000000000134e+01 -1.367800000000000011e+02 -2.459719000000000122e+01 -3.499999999999999778e-01
1.104899999999999949e+02 -2.257900000000000063e+01 -1.346399999999999864e+02 -5.696374999999999744e+00 -3.499999999999999778e-01
1.104899999999999949e+02 -2.731299999999999883e+01 -1.169099999999999966e+02 -1.712460000000000093e+00 -1.615372943189285759e-01
1.104899999999999949e+02 -2.710399999999999920e+01 -1.161800000000000068e+02 1.760925000000000074e+00 -1.609422231442962647e-01
1.104899999999999949e+02 -2.591300000000000026e+01 -1.155100000000000051e+02 1.010852000000000039e+01 -1.350222228774480837e-01
1.105000000000000000e+02 -2.231099999999999994e+01 -1.336999999999999886e+02 -4.319462999999999830e+00 -3.499999999999999223e-01
1.105000000000000000e+02 -2.569000000000000128e+01 -1.356599999999999966e+02 -9.983570999999999529e+00 -3.499999999999999778e-01
1.105000000000000000e+02 -2.409199999999999875e+01 -1.356599999999999966e+02 -2.455201999999999884e+01 -3.500000000000000333e-01
1.105000000000000000e+02 -2.619099999999999895e+01 -1.211299999999999955e+02 -7.043544999999999945e+00 -2.831666809744720625e-01
1.105100000000000051e+02 -2.190800000000000125e+01 -1.133700000000000045e+02 2.915467999999999904e+01 -1.342002309227256218e-01
1.105199999999999960e+02 -1.902199999999999847e+01 -1.360200000000000102e+02 -4.710298999999999836e+01 -3.499999999999999778e-01
1.105199999999999960e+02 -2.692200000000000060e+01 -1.339900000000000091e+02 -2.100877999999999801e+00 -2.859186942978917401e-01
1.105400000000000063e+02 -2.410000000000000142e+01 -1.338799999999999955e+02 -5.055367000000000388e+00 -3.499999999999999778e-01
1.105400000000000063e+02 -2.410000000000000142e+01 -1.328899999999999864e+02 -4.381280000000000285e+00 -3.499999999999999778e-01
1.105400000000000063e+02 -2.069300000000000139e+01 -1.147000000000000028e+02 2.215078000000000102e+01 -1.349364244316248462e-01
1.105400000000000063e+02 -1.936299999999999955e+01 -1.152199999999999989e+02 9.770723000000000269e+00 -1.363652734752425766e-01
1.105400000000000063e+02 -2.224099999999999966e+01 -1.321299999999999955e+02 -4.158905999999999992e+00 -3.499999999999999778e-01
1.105600000000000023e+02 -2.599399999999999977e+01 -1.349600000000000080e+02 -4.237773999999999930e+00 -2.858467435215892860e-01
1.105600000000000023e+02 -2.943900000000000006e+01 -1.158900000000000006e+02 8.429670000000000218e-01 -1.621402262620949830e-01
1.105699999999999932e+02 -2.338500000000000156e+01 -1.078199999999999932e+02 -5.292838999999999849e+00 -1.378174980205750244e-01
1.105699999999999932e+02 -2.317599999999999838e+01 -1.070799999999999983e+02 2.694172999999999973e+01 -1.393527975682100628e-01
1.105699999999999932e+02 -2.192899999999999849e+01 -1.328600000000000136e+02 -3.711492999999999931e+00 -3.500000000000000333e-01
1.105699999999999932e+02 -3.024200000000000088e+01 -1.058900000000000006e+02 -1.126210000000000022e+01 -3.641390060938168860e-01
1.105699999999999932e+02 -3.214399999999999835e+01 -1.115900000000000034e+02 -2.700538000000000105e-01 -1.611791508932978734e-01
1.105699999999999932e+02 -3.214399999999999835e+01 -1.105300000000000011e+02 -7.099661999999999917e-01 -1.603113343186952089e-01
1.105799999999999983e+02 -2.343100000000000094e+01 -1.102099999999999937e+02 -9.233285999999999660e+00 -1.347034432470392562e-01
1.105900000000000034e+02 -2.050499999999999901e+01 -1.335900000000000034e+02 -4.294274999999999842e+00 -3.499999999999999778e-01
1.105900000000000034e+02 -1.390799999999999947e+01 -1.140799999999999983e+02 7.422938000000000258e+00 -1.440215013563135582e-01
1.105900000000000034e+02 -1.356300000000000061e+01 -1.163299999999999983e+02 4.500960000000000072e+00 -1.421262132538441414e-01
1.105900000000000034e+02 -1.356300000000000061e+01 -1.148599999999999994e+02 7.017166999999999710e+00 -1.435491618323409546e-01
1.105900000000000034e+02 -1.335399999999999920e+01 -1.155999999999999943e+02 6.439617000000000147e+00 -1.430171947756402329e-01
1.105900000000000034e+02 -1.621000000000000085e+01 -1.126700000000000017e+02 9.608999999999999986e+00 -1.430289911697302518e-01
1.105999999999999943e+02 -2.035099999999999909e+01 -1.367800000000000011e+02 -1.039522999999999975e+01 -3.500000000000000888e-01
1.105999999999999943e+02 -2.723300000000000054e+01 -1.331800000000000068e+02 -1.413222999999999896e+00 -2.858890736627600626e-01
1.105999999999999943e+02 -2.668199999999999861e+01 -1.042000000000000028e+02 1.247403000000000084e+01 -1.442783979676597050e-01
1.105999999999999943e+02 -2.513200000000000145e+01 -1.042000000000000028e+02 -7.350107999999999642e+00 -1.524789234095869361e-01
1.105999999999999943e+02 -2.445899999999999963e+01 -1.349199999999999875e+02 -4.393910999999999945e+01 -3.499999999999999778e-01
1.106099999999999994e+02 -2.497299999999999898e+01 -1.187000000000000028e+02 -8.584362999999999744e+00 -3.499999999999999778e-01
1.106099999999999994e+02 -2.378200000000000003e+01 -1.180400000000000063e+02 -3.001215000000000188e+00 -3.499999999999999778e-01
1.106099999999999994e+02 -2.357300000000000040e+01 -1.172999999999999972e+02 1.988214999999999932e+01 -3.499999999999999778e-01
1.106200000000000045e+02 -3.001999999999999957e+01 -1.133199999999999932e+02 -9.506386000000000003e-01 -1.607219680580704302e-01
1.106200000000000045e+02 -1.939300000000000068e+01 -1.289699999999999989e+02 5.953820000000000334e+00 -3.499999999999999778e-01
1.106299999999999955e+02 -9.946699999999999875e+00 -1.097999999999999972e+02 -2.708426000000000045e+01 -1.464983948617009091e-01
1.106299999999999955e+02 -9.007300000000000750e+00 -1.097999999999999972e+02 -6.533455999999999619e+01 -1.461490566810377811e-01
1.106400000000000006e+02 -2.793700000000000117e+01 -1.049099999999999966e+02 -3.303421999999999770e+01 -3.638801956954037520e-01
1.106500000000000057e+02 -2.217099999999999937e+01 -1.342700000000000102e+02 -5.571086000000000205e+00 -3.499999999999999778e-01
1.106500000000000057e+02 -2.903999999999999915e+01 -1.169599999999999937e+02 -1.123159999999999936e+00 -1.626534845355167569e-01
1.106599999999999966e+02 -1.170899999999999963e+01 -1.160999999999999943e+02 3.419982000000000077e+00 -1.432592350898019284e-01
1.106599999999999966e+02 -2.524599999999999866e+01 -1.152600000000000051e+02 1.237658000000000058e+01 -3.500000000000000333e-01
1.106599999999999966e+02 -1.590199999999999925e+01 -1.104099999999999966e+02 7.073858000000000423e+00 4.034450609016389938e-02
1.106599999999999966e+02 -3.081500000000000128e+01 -1.085100000000000051e+02 -4.208677999999999919e+00 -3.644116276427452061e-01
1.106700000000000017e+02 -1.782000000000000028e+01 -1.117300000000000040e+02 7.738402999999999921e+00 -1.420710953089705242e-01
1.106700000000000017e+02 -2.097500000000000142e+01 -1.292100000000000080e+02 7.922919000000000267e+00 -3.499999999999999778e-01
1.106800000000000068e+02 -1.831299999999999883e+01 -1.283600000000000136e+02 1.398363999999999940e+01 -3.499999999999999778e-01
1.106800000000000068e+02 -1.712199999999999989e+01 -1.277000000000000028e+02 6.957506999999999664e+00 -3.500000000000000333e-01
1.106899999999999977e+02 -1.773300000000000054e+01 -1.164599999999999937e+02 -1.675075999999999965e+01 -1.374734325760819664e-01
1.106899999999999977e+02 -2.684900000000000020e+01 -1.222199999999999989e+02 1.504437000000000024e+00 -2.836790804844911973e-01
1.106899999999999977e+02 -1.276500000000000057e+01 -1.181099999999999994e+02 -9.028356999999999744e+00 -1.413552664311666929e-01
1.106899999999999977e+02 -1.276500000000000057e+01 -1.172399999999999949e+02 1.180779000000000023e+00 -1.420784929362672311e-01
1.107000000000000028e+02 -8.677899999999999281e+00 -1.105600000000000023e+02 -6.637989000000000317e+01 -1.455739622444729431e-01
1.107000000000000028e+02 -1.868100000000000094e+01 -1.153599999999999994e+02 -1.778524999999999912e+00 -1.371915730538932621e-01
1.107000000000000028e+02 -1.545700000000000074e+01 -1.275300000000000011e+02 6.197122000000000464e-01 -1.341005640724500236e-01
1.107000000000000028e+02 -1.412700000000000067e+01 -1.256899999999999977e+02 -1.479630000000000045e+01 -1.357731684502899716e-01
1.107099999999999937e+02 -1.383799999999999919e+01 -1.094500000000000028e+02 -2.011775000000000091e+01 4.003203857421047673e-02
1.107099999999999937e+02 -1.421899999999999942e+01 -1.223499999999999943e+02 3.626984999999999904e+00 -1.372394422479195630e-01
1.107099999999999937e+02 -1.400999999999999979e+01 -1.230799999999999983e+02 -2.640473000000000070e+01 -1.370398578310280113e-01
1.107099999999999937e+02 -1.400999999999999979e+01 -1.216099999999999994e+02 1.060121000000000002e+01 -1.378345862982261472e-01
1.107099999999999937e+02 -1.955300000000000082e+01 -1.367800000000000011e+02 -2.752046999999999954e+01 -3.499999999999999778e-01
1.107099999999999937e+02 -1.129800000000000004e+01 -1.099099999999999966e+02 -2.181626999999999872e-01 -1.469657994169042969e-01
1.107099999999999937e+02 -2.374299999999999855e+01 -1.319799999999999898e+02 -2.126818000000000097e+00 -3.499999999999999778e-01
1.107199999999999989e+02 -2.951300000000000168e+01 -1.149599999999999937e+02 -1.460652999999999979e+00 -1.616482226460923821e-01
1.107199999999999989e+02 -2.489099999999999824e+01 -1.356599999999999966e+02 -3.090718000000000032e+01 -3.500000000000000333e-01
1.107300000000000040e+02 -1.018200000000000038e+01 -1.144500000000000028e+02 -1.390120999999999940e+00 -1.437822735252762274e-01
1.107300000000000040e+02 -8.946099999999999497e+00 -1.113199999999999932e+02 -2.448238999999999876e+01 -1.452073108728416662e-01
1.107300000000000040e+02 -1.043999999999999950e+01 -1.152399999999999949e+02 4.560837000000000074e+01 -1.434402943415023224e-01
1.107399999999999949e+02 -2.688700000000000045e+01 -1.327899999999999920e+02 -3.299047999999999981e-01 -2.857696350069063307e-01
1.107500000000000000e+02 -2.794200000000000017e+01 -1.244599999999999937e+02 1.761864999999999881e+01 -2.845602310869422835e-01
1.107500000000000000e+02 -2.135099999999999909e+01 -1.359199999999999875e+02 -1.105587000000000053e+01 -3.499999999999999778e-01
1.107500000000000000e+02 -2.030099999999999838e+01 -1.342199999999999989e+02 -8.549110999999999905e+00 -3.499999999999999778e-01
1.107500000000000000e+02 -1.508399999999999963e+01 -1.101599999999999966e+02 3.066157000000000021e+00 4.025180394388949701e-02
1.107500000000000000e+02 -2.141700000000000159e+01 -1.336999999999999886e+02 -4.202141000000000126e+00 -3.500000000000000333e-01
1.107500000000000000e+02 -1.435299999999999976e+01 -1.170400000000000063e+02 2.513517999999999919e+00 -1.407329853356778515e-01
1.107699999999999960e+02 -1.289899999999999913e+01 -1.093499999999999943e+02 -2.449928999999999846e+01 4.005402792582609534e-02
1.107699999999999960e+02 -2.318599999999999994e+01 -1.086899999999999977e+02 -1.755019000000000062e+01 -1.370879956975942504e-01
1.107699999999999960e+02 -2.953600000000000136e+01 -1.289199999999999875e+02 8.148476000000000052e-01 -2.858731945474841663e-01
1.107699999999999960e+02 -2.322500000000000142e+01 -1.060799999999999983e+02 7.980091000000000179e+01 -1.408943033907871789e-01
1.107800000000000011e+02 -9.869899999999999451e+00 -1.136899999999999977e+02 6.411426999999999765e+00 -1.441343991932187985e-01
1.107800000000000011e+02 -1.582099999999999973e+01 -1.174800000000000040e+02 8.332580999999999349e+00 -1.388581951926286806e-01
1.107800000000000011e+02 -1.807300000000000040e+01 -1.107600000000000051e+02 9.452887000000000484e+00 -1.429507015252027835e-01
1.107900000000000063e+02 -2.551500000000000057e+01 -1.317500000000000000e+02 6.328763999999999612e+00 -2.853354938583478884e-01
1.107900000000000063e+02 -2.719099999999999895e+01 -1.320900000000000034e+02 -1.669043000000000054e+00 -2.857456886584596178e-01
1.107999999999999972e+02 -2.798600000000000065e+01 -1.175600000000000023e+02 -3.348794999999999966e+00 -1.624959657283313597e-01
1.107999999999999972e+02 -2.844200000000000017e+01 -1.051400000000000006e+02 -3.567542000000000257e+01 -3.639271632758944164e-01
1.108100000000000023e+02 -1.257300000000000040e+01 -1.190900000000000034e+02 -1.552299000000000095e+00 -1.407776173305781697e-01
1.108199999999999932e+02 -1.285500000000000043e+01 -1.199500000000000028e+02 9.096269999999999634e-01 -1.399161969590382582e-01
1.108199999999999932e+02 -2.365599999999999881e+01 -1.162399999999999949e+02 7.621315000000000062e+00 -3.499999999999999778e-01
1.108199999999999932e+02 -2.171999999999999886e+01 -1.350699999999999932e+02 -1.033944999999999936e+01 -3.499999999999999778e-01
1.108199999999999932e+02 -1.993199999999999861e+01 -1.350699999999999932e+02 -2.521309000000000111e+01 -3.499999999999999778e-01
1.108299999999999983e+02 -3.080499999999999972e+01 -1.279000000000000057e+02 1.211778999999999940e+00 -2.860912276430868650e-01
1.108400000000000034e+02 -2.149800000000000111e+01 -1.140999999999999943e+02 2.111649999999999849e+01 -1.343504028085468760e-01
1.108599999999999994e+02 -2.143499999999999872e+01 -1.342700000000000102e+02 -6.870506999999999920e+00 -3.499999999999999778e-01
1.108599999999999994e+02 -2.021699999999999875e+01 -1.358799999999999955e+02 -1.783024999999999949e+01 -3.500000000000000333e-01
1.108599999999999994e+02 -2.841300000000000026e+01 -1.246899999999999977e+02 2.851766999999999896e+01 -2.847593947383446622e-01
1.108599999999999994e+02 -3.071199999999999974e+01 -1.066500000000000057e+02 -7.392149999999999999e+00 -3.642289487271280768e-01
1.108599999999999994e+02 -1.420199999999999996e+01 -1.101500000000000057e+02 -1.154490000000000016e+01 4.028832479848371700e-02
1.108900000000000006e+02 -2.958699999999999974e+01 -1.140199999999999960e+02 -1.724240999999999913e+00 -1.611501356629689574e-01
1.108900000000000006e+02 -2.595100000000000051e+01 -1.191099999999999994e+02 -9.141512999999999778e+00 -1.624845463332099116e-01
1.109000000000000057e+02 -3.161899999999999977e+01 -1.124399999999999977e+02 -2.019445999999999828e-03 -1.616344466960075998e-01
1.109000000000000057e+02 -3.161899999999999977e+01 -1.096800000000000068e+02 2.925768999999999939e-03 -1.594553234922574947e-01
1.109000000000000057e+02 -2.268700000000000117e+01 -1.317100000000000080e+02 -1.260347000000000106e+00 -3.499999999999999778e-01
1.109000000000000057e+02 -2.221300000000000097e+01 -1.312199999999999989e+02 7.801510999999999862e-01 -3.500000000000000333e-01
1.109099999999999966e+02 -2.880699999999999861e+01 -1.055600000000000023e+02 -2.328224000000000160e+01 -3.639885985914940725e-01
1.109200000000000017e+02 -2.661299999999999955e+01 -1.157800000000000011e+02 8.563510000000000844e+00 -1.607189248114931912e-01
1.109200000000000017e+02 -2.287399999999999878e+01 -1.120600000000000023e+02 2.512133000000000038e+01 -1.339693507232332381e-01
1.109300000000000068e+02 -2.603999999999999915e+01 -1.342299999999999898e+02 -4.514950999999999937e+00 -2.857833497671865564e-01
1.109300000000000068e+02 -2.498999999999999844e+01 -1.342299999999999898e+02 -8.611667999999999878e+00 -3.500000000000000888e-01
1.109300000000000068e+02 -2.590700000000000003e+01 -1.041299999999999955e+02 -9.414559000000000566e+00 -1.483790177989409431e-01
1.109300000000000068e+02 -2.668100000000000094e+01 -1.215999999999999943e+02 -4.618947000000000358e+00 -2.834928017610472972e-01
1.109399999999999977e+02 -1.494899999999999984e+01 -1.132600000000000051e+02 1.302697000000000038e+01 -1.438183254882116069e-01
1.109399999999999977e+02 -2.723699999999999832e+01 -1.048499999999999943e+02 7.286668999999999841e+00 -3.638219628988642040e-01
1.109599999999999937e+02 -1.233200000000000074e+01 -1.165400000000000063e+02 2.996449999999999836e+00 -1.430978261169951471e-01
1.109599999999999937e+02 -1.670100000000000051e+01 -1.171599999999999966e+02 4.055115999999999943e+00 -1.381763947338922605e-01
1.109599999999999937e+02 -1.710500000000000043e+01 -1.123100000000000023e+02 1.007469000000000037e+01 -1.423440771798344662e-01
1.109599999999999937e+02 -2.594600000000000151e+01 -1.153199999999999932e+02 1.367129000000000083e+01 -1.601569012720935326e-01
1.109599999999999937e+02 -2.454599999999999937e+01 -1.153199999999999932e+02 1.372474000000000061e+01 -3.499999999999999778e-01
1.109699999999999989e+02 -2.953000000000000114e+01 -1.057500000000000000e+02 -2.156422999999999845e+01 -3.640504698395090610e-01
1.109699999999999989e+02 -2.996300000000000097e+01 -1.251599999999999966e+02 1.181241999999999948e+01 -2.853453356250962303e-01
1.109699999999999989e+02 -2.637199999999999989e+01 -1.198900000000000006e+02 -1.530434999999999945e+01 -1.631514686926353874e-01
1.109800000000000040e+02 -1.824399999999999977e+01 -1.153100000000000023e+02 9.896627999999999536e-01 -1.378571864312914674e-01
1.109800000000000040e+02 -1.803500000000000014e+01 -1.160499999999999972e+02 -2.328918000000000177e+01 -1.374996551673094980e-01
1.109800000000000040e+02 -3.056099999999999994e+01 -1.130100000000000051e+02 -4.600481000000000154e-01 -1.612103450586952202e-01
1.109899999999999949e+02 -2.658699999999999974e+01 -1.207000000000000028e+02 -4.276239999999999597e+00 -1.637011130693857841e-01
1.110000000000000000e+02 -1.713899999999999935e+01 -1.102099999999999937e+02 1.220673999999999992e+01 -1.449657348432460136e-01
1.110000000000000000e+02 -2.640899999999999892e+01 -1.333799999999999955e+02 -5.325039000000000300e+00 -2.857556807541384858e-01
1.110000000000000000e+02 -2.625100000000000122e+01 -1.317500000000000000e+02 6.482658999999999505e-01 -2.855017266581506008e-01
1.110000000000000000e+02 -2.462099999999999866e+01 -1.333799999999999955e+02 -4.385113999999999734e+00 -3.499999999999999778e-01
1.110199999999999960e+02 -1.100799999999999912e+01 -1.159399999999999977e+02 3.271380999999999872e+00 -1.433722293922632673e-01
1.110199999999999960e+02 -2.453600000000000136e+01 -1.045400000000000063e+02 7.788920000000000066e+00 -1.545471662563653037e-01
1.110300000000000011e+02 -1.439899999999999913e+01 -1.136800000000000068e+02 7.665354999999999919e+00 -1.439438821529500090e-01
1.110300000000000011e+02 -1.205599999999999916e+01 -1.098599999999999994e+02 -1.816073999999999966e+00 4.026376997824109710e-02
1.110300000000000011e+02 -9.466900000000000759e+00 -1.105199999999999960e+02 -3.467609999999999815e+01 -1.460375530279293121e-01
1.110400000000000063e+02 -2.427299999999999969e+01 -1.184399999999999977e+02 -2.318339999999999890e+01 -3.499999999999999778e-01
1.110400000000000063e+02 -2.977799999999999869e+01 -1.155199999999999960e+02 3.040200000000000014e+00 -1.624428742225996480e-01
1.110499999999999972e+02 -3.058099999999999952e+01 -1.076400000000000006e+02 -2.802712000000000092e+00 -3.642954818429613995e-01
1.110499999999999972e+02 -2.469099999999999895e+01 -1.318199999999999932e+02 -7.741344000000000003e-01 -3.499999999999999778e-01
1.110499999999999972e+02 -1.038400000000000034e+01 -1.104899999999999949e+02 4.079661999999999900e+00 -1.463879993223460851e-01
1.110600000000000023e+02 -2.594800000000000040e+01 -1.310500000000000114e+02 -1.776126000000000094e+00 -2.853362042832556789e-01
1.110600000000000023e+02 -2.508200000000000074e+01 -1.310500000000000114e+02 1.962528000000000050e+00 -2.851548717698875746e-01
1.110600000000000023e+02 -2.844200000000000017e+01 -1.305000000000000000e+02 -1.208336999999999994e+00 -2.858336790361989954e-01
1.110699999999999932e+02 -2.021300000000000097e+01 -1.149000000000000057e+02 2.360220999999999947e+01 -1.356261613862525250e-01
1.110699999999999932e+02 -1.630699999999999861e+01 -1.275999999999999943e+02 1.842117999999999922e+00 -3.499999999999999778e-01
1.110699999999999932e+02 -2.370400000000000063e+01 -1.052999999999999972e+02 2.446655000000000157e+01 -1.412145644951695589e-01
1.110699999999999932e+02 -2.879799999999999827e+01 -1.297599999999999909e+02 -4.674258000000000024e+00 -2.858172212215370211e-01
1.110699999999999932e+02 -2.082600000000000051e+01 -1.350699999999999932e+02 -7.291888000000000147e+00 -3.499999999999999778e-01
1.110699999999999932e+02 -2.602700000000000102e+01 -1.325399999999999920e+02 1.985583000000000140e-02 -2.855685977005035792e-01
1.110699999999999932e+02 -2.500300000000000011e+01 -1.325399999999999920e+02 -2.198913000000000117e+00 -2.853613521489734017e-01
1.110799999999999983e+02 -9.487700000000000244e+00 -1.128100000000000023e+02 -3.242595999999999812e+00 -1.446732336263185925e-01
1.110900000000000034e+02 -2.408899999999999864e+01 -1.155400000000000063e+02 1.516818999999999917e+01 -3.499999999999999778e-01
1.110900000000000034e+02 -1.855499999999999972e+01 -1.286599999999999966e+02 5.442923999999999651e+00 -3.500000000000000333e-01
1.110999999999999943e+02 -1.660200000000000031e+01 -1.101400000000000006e+02 1.216225999999999985e+01 -1.457513199299442785e-01
1.111099999999999994e+02 -2.181099999999999994e+01 -1.303899999999999864e+02 2.836132999999999793e+00 -3.499999999999999778e-01
1.111099999999999994e+02 -2.146600000000000108e+01 -1.296100000000000136e+02 1.358783000000000030e+01 -3.500000000000000333e-01
1.111099999999999994e+02 -2.027499999999999858e+01 -1.289499999999999886e+02 4.759608000000000061e+00 -3.499999999999999778e-01
1.111099999999999994e+02 -2.774200000000000088e+01 -1.050799999999999983e+02 -2.134255000000000013e+00 -3.638661080919974866e-01
1.111099999999999994e+02 -1.782199999999999918e+01 -1.279699999999999989e+02 3.572198999999999813e+01 -3.499999999999999778e-01
1.111200000000000045e+02 -1.385399999999999920e+01 -1.166800000000000068e+02 5.644905999999999757e+00 -1.415658331035524742e-01
1.111200000000000045e+02 -1.341000000000000014e+01 -1.101500000000000057e+02 -1.345188999999999968e+00 4.020482915087104925e-02
1.111200000000000045e+02 -2.337300000000000111e+01 -1.097600000000000051e+02 -8.519793999999999201e+00 -1.355498223787889867e-01
1.111400000000000006e+02 -1.336899999999999977e+01 -1.207900000000000063e+02 3.991375999999999813e+00 -1.389539802213364816e-01
1.111400000000000006e+02 -3.096199999999999974e+01 -1.261200000000000045e+02 9.048565999999999221e+00 -2.858646511398234002e-01
1.111500000000000057e+02 -1.815700000000000003e+01 -1.115199999999999960e+02 1.187147000000000041e+01 -1.418948382181789980e-01
1.111500000000000057e+02 -9.358599999999999142e+00 -1.118499999999999943e+02 -6.836007999999999640e+00 -1.452294763600104344e-01
1.111599999999999966e+02 -1.511800000000000033e+01 -1.269099999999999966e+02 1.878203000000000067e+00 -1.346477164462667742e-01
1.111599999999999966e+02 -3.028000000000000114e+01 -1.287500000000000000e+02 1.096106999999999942e+00 -2.860794794395503104e-01
1.111700000000000017e+02 -2.696799999999999997e+01 -1.224800000000000040e+02 1.569112999999999936e+01 -2.838434935001374337e-01
1.111700000000000017e+02 -1.369299999999999962e+01 -1.252000000000000028e+02 -1.476787999999999990e+01 -1.363955712423552402e-01
1.111700000000000017e+02 -1.369299999999999962e+01 -1.235999999999999943e+02 -2.600673000000000101e+01 -1.371219227986645861e-01
1.111700000000000017e+02 -1.346599999999999930e+01 -1.244000000000000057e+02 -3.062264000000000053e+01 -1.369261860754796833e-01
1.111800000000000068e+02 -2.745100000000000051e+01 -1.240600000000000023e+02 1.818230000000000146e+01 -2.843731180235364864e-01
1.111899999999999977e+02 -2.979599999999999937e+01 -1.164800000000000040e+02 1.035620999999999903e+00 -1.631778190203393986e-01
1.111899999999999977e+02 -2.704599999999999937e+01 -1.173499999999999943e+02 -3.153702000000000005e+00 -1.620926372937603055e-01
1.111899999999999977e+02 -2.704599999999999937e+01 -1.164800000000000040e+02 3.122046000000000099e+00 -1.615475066290699424e-01
1.112000000000000028e+02 -2.721199999999999974e+01 -1.313799999999999955e+02 -1.095955999999999975e+01 -2.856719492225800461e-01
1.112000000000000028e+02 -1.667800000000000082e+01 -1.129599999999999937e+02 7.882710000000000328e+00 -1.421527008046516438e-01
1.112099999999999937e+02 -2.706899999999999906e+01 -1.232999999999999972e+02 2.726576000000000022e+01 -2.840873114624990481e-01
1.112199999999999989e+02 -2.325700000000000145e+01 -1.312899999999999920e+02 3.085383999999999904e+00 -3.500000000000000888e-01
1.112399999999999949e+02 -2.556200000000000117e+01 -1.187199999999999989e+02 -1.265676999999999985e+01 -1.622694612522609936e-01
1.112399999999999949e+02 -1.564899999999999913e+01 -1.132000000000000028e+02 1.392511000000000010e+01 -1.431037466873809616e-01
1.112500000000000000e+02 -2.234900000000000020e+01 -1.129099999999999966e+02 2.004006000000000043e+01 -1.342049412648957940e-01
1.112500000000000000e+02 -3.012800000000000011e+01 -1.137099999999999937e+02 -9.511956999999999773e-01 -1.616011516795865521e-01
1.112500000000000000e+02 -1.766400000000000148e+01 -1.122999999999999972e+02 8.072006000000000014e+00 -1.416493435057929740e-01
1.112500000000000000e+02 -2.551500000000000057e+01 -1.333799999999999955e+02 -1.467603000000000080e+01 -2.855854773791640655e-01
1.112600000000000051e+02 -1.721699999999999875e+01 -1.168100000000000023e+02 -1.815565000000000140e+01 -1.379223106850530622e-01
1.112600000000000051e+02 -1.401500000000000057e+01 -1.105900000000000034e+02 1.066582999999999970e+01 4.027511510651076571e-02
1.112600000000000051e+02 -1.856200000000000117e+01 -1.150300000000000011e+02 7.040746000000000393e+00 -1.377566959398218438e-01
1.112699999999999960e+02 -2.311799999999999855e+01 -1.082500000000000000e+02 1.255958000000000074e-01 -1.379609658503911929e-01
1.112699999999999960e+02 -2.311799999999999855e+01 -1.073900000000000006e+02 7.777689999999999770e+00 -1.391625214720092762e-01
1.112800000000000011e+02 -2.369900000000000162e+01 -1.106400000000000006e+02 1.781341000000000108e+01 -1.340782857805318806e-01
1.112900000000000063e+02 -2.108699999999999974e+01 -1.146299999999999955e+02 2.525489999999999924e+01 -1.346935438083450565e-01
1.112999999999999972e+02 -1.466399999999999970e+01 -1.261800000000000068e+02 -7.938278000000000389e+00 -1.352778409578649921e-01
1.112999999999999972e+02 -1.939799999999999969e+01 -1.148400000000000034e+02 1.173114999999999952e+01 -1.368421517660499409e-01
1.113100000000000023e+02 -2.923900000000000077e+01 -1.060499999999999972e+02 -9.714458999999999378e+01 -3.640427673389421970e-01
1.113100000000000023e+02 -1.515900000000000070e+01 -1.173799999999999955e+02 4.478988000000000191e+00 -1.397041336999691741e-01
1.113199999999999932e+02 -2.845599999999999952e+01 -1.179800000000000040e+02 -2.490876999999999786e+00 -1.633072534831712108e-01
1.113199999999999932e+02 -2.751599999999999824e+01 -1.179800000000000040e+02 -3.578103000000000034e+00 -1.627841967640249188e-01
1.113299999999999983e+02 -2.221999999999999886e+01 -1.138700000000000045e+02 3.046805000000000163e+01 -1.336477775542245228e-01
1.113299999999999983e+02 -2.564799999999999969e+01 -1.043299999999999983e+02 -3.022268000000000043e+01 -1.492252737871226642e-01
1.113299999999999983e+02 -2.995200000000000173e+01 -1.063599999999999994e+02 -6.820493999999999346e+01 -3.641168957322691857e-01
1.113400000000000034e+02 -2.911299999999999955e+01 -1.250900000000000034e+02 1.887659000000000020e+01 -2.850971948090725294e-01
1.113599999999999994e+02 -3.038400000000000034e+01 -1.085600000000000023e+02 -6.497353000000000378e+00 -3.643312790919780997e-01
1.113799999999999955e+02 -2.998400000000000176e+01 -1.144599999999999937e+02 -5.831543000000000143e-01 -1.621125237642397632e-01
1.113799999999999955e+02 -1.803800000000000026e+01 -1.103199999999999932e+02 6.533765999999999963e+00 -1.435817225120748497e-01
1.113900000000000006e+02 -3.121999999999999886e+01 -1.129800000000000040e+02 -3.985028999999999932e-01 -1.620863440907393260e-01
1.113900000000000006e+02 -3.028099999999999881e+01 -1.071200000000000045e+02 -9.886817999999999884e+00 -3.642054024631826703e-01
1.113900000000000006e+02 -1.303200000000000003e+01 -1.176800000000000068e+02 -2.672073999999999977e-02 -1.415129151855818723e-01
1.113900000000000006e+02 -1.282300000000000040e+01 -1.184099999999999966e+02 -4.921504999999999797e+00 -1.411220686498002030e-01
1.113900000000000006e+02 -1.163199999999999967e+01 -1.162800000000000011e+02 2.362588999999999828e+00 -1.435264298809588168e-01
1.114000000000000057e+02 -2.643700000000000117e+01 -1.157099999999999937e+02 1.147615000000000052e+01 -1.609034435307784838e-01
1.114000000000000057e+02 -2.524599999999999866e+01 -1.150499999999999972e+02 1.700960999999999856e+01 -3.499999999999999778e-01
1.114099999999999966e+02 -1.395199999999999996e+01 -1.227800000000000011e+02 -2.329886000000000124e+00 -1.373579611223664787e-01
1.114099999999999966e+02 -1.395199999999999996e+01 -1.219099999999999966e+02 -2.567016999999999882e+00 -1.378249688473247025e-01
1.114099999999999966e+02 -2.353800000000000026e+01 -1.114599999999999937e+02 1.780005999999999844e+01 -1.335008547194053707e-01
1.114099999999999966e+02 -1.754400000000000048e+01 -1.164399999999999977e+02 -7.760964999999999669e+00 -1.378646122899668258e-01
1.114099999999999966e+02 -2.371900000000000119e+01 -1.175699999999999932e+02 -2.142266999999999921e+00 -3.499999999999999778e-01
1.114200000000000017e+02 -2.646199999999999974e+01 -1.045499999999999972e+02 3.936497999999999831e+00 -1.448376525923422142e-01
1.114300000000000068e+02 -3.246900000000000119e+01 -1.110600000000000023e+02 1.552421999999999969e+00 -1.619463337331152053e-01
1.114300000000000068e+02 -3.221500000000000341e+01 -1.119500000000000028e+02 1.183577000000000101e+00 -1.623268547424536190e-01
1.114300000000000068e+02 -3.221500000000000341e+01 -1.101700000000000017e+02 2.317428000000000043e+00 -1.610182677580547783e-01
1.114300000000000068e+02 -3.001300000000000168e+01 -1.078799999999999955e+02 -6.524191000000000074e+00 -3.642495378147582175e-01
1.114399999999999977e+02 -9.951399999999999579e+00 -1.109800000000000040e+02 -3.043568000000000051e+00 -1.461016312922372162e-01
1.114500000000000028e+02 -2.928600000000000136e+01 -1.082900000000000063e+02 -2.141507999999999967e+01 -3.642330156996526069e-01
1.114500000000000028e+02 -2.551500000000000057e+01 -1.305600000000000023e+02 -2.376163000000000025e+00 -2.851906525606393017e-01
1.114699999999999989e+02 -1.126299999999999990e+01 -1.102900000000000063e+02 3.690679000000000087e+01 -1.470386173462586432e-01
1.114699999999999989e+02 -2.676800000000000068e+01 -1.194599999999999937e+02 -7.610889000000000237e+00 -1.633297831660883714e-01
1.114699999999999989e+02 -2.323499999999999943e+01 -1.121599999999999966e+02 2.604314000000000107e+01 -3.499999999999999778e-01
1.114699999999999989e+02 -1.751899999999999835e+01 -1.129500000000000028e+02 8.252496999999999971e+00 -1.411359656267700546e-01
1.114800000000000040e+02 -1.327299999999999969e+01 -1.154300000000000068e+02 5.906875000000000320e+00 -1.432786561508895828e-01
1.114800000000000040e+02 -1.350600000000000023e+01 -1.146599999999999966e+02 6.797331999999999930e+00 -1.438121227509601141e-01
1.114800000000000040e+02 -2.941400000000000148e+01 -1.173599999999999994e+02 -8.621891999999999889e-01 -1.636259003857269967e-01
1.114899999999999949e+02 -1.047499999999999964e+01 -1.155100000000000051e+02 2.747819999999999929e+00 -1.436987564334049061e-01
1.114899999999999949e+02 -1.024799999999999933e+01 -1.147099999999999937e+02 1.845452000000000092e+00 -1.440483060370392199e-01
1.115000000000000000e+02 -2.619300000000000139e+01 -1.185600000000000023e+02 -1.530686999999999998e+01 -1.625762086589067623e-01
1.115000000000000000e+02 -3.088400000000000034e+01 -1.092399999999999949e+02 -3.460980000000000167e-01 -3.644011247225077410e-01
1.115100000000000051e+02 -2.411700000000000088e+01 -1.313499999999999943e+02 2.721553000000000111e+00 -3.500000000000000333e-01
1.115199999999999960e+02 -2.359799999999999898e+01 -1.159399999999999977e+02 1.359177000000000035e+01 -3.499999999999999778e-01
1.115199999999999960e+02 -2.338899999999999935e+01 -1.166700000000000017e+02 1.718783000000000172e+01 -3.500000000000000333e-01
1.115199999999999960e+02 -2.701800000000000068e+01 -1.211700000000000017e+02 -1.318767000000000067e+01 -2.835445941345273724e-01
1.115199999999999960e+02 -2.701800000000000068e+01 -1.202300000000000040e+02 -1.575783999999999985e+01 -1.638873355259198861e-01
1.115300000000000011e+02 -2.690700000000000003e+01 -1.219699999999999989e+02 -3.070570000000000022e+00 -2.837373867127084281e-01
1.115300000000000011e+02 -3.017500000000000071e+01 -1.150900000000000034e+02 9.370106000000000268e-01 -1.627787837092864176e-01
1.115300000000000011e+02 -2.768199999999999861e+01 -1.307899999999999920e+02 -3.877015000000000100e+00 -2.857139940724887084e-01
1.115300000000000011e+02 -2.674200000000000088e+01 -1.307899999999999920e+02 -1.930751000000000062e+01 -2.854973790731073491e-01
1.115499999999999972e+02 -2.316000000000000014e+01 -1.057399999999999949e+02 6.335602999999999696e+01 -1.416685460217134429e-01
1.115499999999999972e+02 -3.091900000000000048e+01 -1.257000000000000028e+02 8.165950999999999738e+00 -2.858022763602173777e-01
1.115499999999999972e+02 -1.315399999999999991e+01 -1.164099999999999966e+02 3.630735000000000046e+00 -1.424888450996685541e-01
1.115600000000000023e+02 -1.705300000000000082e+01 -1.137999999999999972e+02 9.225578000000000500e+00 -1.408373973378841959e-01
1.115699999999999932e+02 -1.938299999999999912e+01 -1.288499999999999943e+02 3.899833000000000105e+00 -3.499999999999999778e-01
1.115699999999999932e+02 -1.598399999999999999e+01 -1.174099999999999966e+02 1.362740999999999936e+01 -1.388645791408307795e-01
1.115699999999999932e+02 -3.124599999999999866e+01 -1.264399999999999977e+02 2.285054000000000141e+00 -2.860385252172702453e-01
1.115699999999999932e+02 -1.292699999999999960e+01 -1.170499999999999972e+02 2.661891999999999925e+00 -1.421410108436818587e-01
1.115900000000000034e+02 -2.708399999999999963e+01 -1.186800000000000068e+02 -3.950559000000000154e+00 -1.631081533616026702e-01
1.115900000000000034e+02 -1.580899999999999928e+01 -1.271400000000000006e+02 1.360033000000000047e+00 -1.341302225246034374e-01
1.115900000000000034e+02 -1.800199999999999889e+01 -1.281899999999999977e+02 3.029791000000000167e+01 -3.499999999999999778e-01
1.115900000000000034e+02 -2.178699999999999903e+01 -1.145699999999999932e+02 3.083598999999999890e+01 -1.338559354607297136e-01
1.116099999999999994e+02 -2.853900000000000148e+01 -1.059899999999999949e+02 -5.906597999999999571e-01 -3.639788079708993207e-01
1.116099999999999994e+02 -2.463899999999999935e+01 -1.184500000000000028e+02 -3.874045000000000272e+01 -3.499999999999999778e-01
1.116200000000000045e+02 -2.948199999999999932e+01 -1.071200000000000045e+02 -3.470700000000000074e+01 -3.641392184613013172e-01
1.116200000000000045e+02 -1.458799999999999919e+01 -1.138400000000000034e+02 8.464238999999999180e+00 -1.435725685924157391e-01
1.116299999999999955e+02 -3.027299999999999969e+01 -1.160600000000000023e+02 1.047025000000000095e+00 -1.635308677417517953e-01
1.116299999999999955e+02 -1.549900000000000055e+01 -1.105100000000000051e+02 1.397361000000000075e+01 -1.465169085417614703e-01
1.116299999999999955e+02 -2.240700000000000003e+01 -1.308700000000000045e+02 1.733076000000000061e+00 -3.499999999999999778e-01
1.116400000000000006e+02 -1.608200000000000074e+01 -1.136899999999999977e+02 1.238335999999999970e+01 -1.420989221651152157e-01
1.116400000000000006e+02 -2.841300000000000026e+01 -1.250300000000000011e+02 3.016841000000000150e+01 -2.849052308655810606e-01
1.116400000000000006e+02 -1.422600000000000087e+01 -1.256299999999999955e+02 -1.530413000000000068e+01 -1.358877184908776070e-01
1.116400000000000006e+02 -1.005199999999999960e+01 -1.135900000000000034e+02 1.112859999999999960e-01 -1.446676710316390224e-01
1.116500000000000057e+02 -1.289400000000000013e+01 -1.202500000000000000e+02 -1.439024999999999999e+00 -1.397710392086113085e-01
1.116500000000000057e+02 -1.262500000000000000e+01 -1.192999999999999972e+02 -8.697554000000000229e+00 -1.406536626211281338e-01
1.116500000000000057e+02 -2.087800000000000011e+01 -1.291500000000000057e+02 7.686175999999999675e+00 -3.499999999999999778e-01
1.116599999999999966e+02 -2.855000000000000071e+01 -1.082900000000000063e+02 -2.493508999999999887e+01 -3.641739434695183686e-01
1.116599999999999966e+02 -1.444800000000000040e+01 -1.110799999999999983e+02 9.825834000000000401e+00 4.020915707485787915e-02
1.116599999999999966e+02 -2.298999999999999844e+01 -1.091899999999999977e+02 4.075777000000000427e+00 -1.371189841153787614e-01
1.116700000000000017e+02 -1.805300000000000082e+01 -1.147099999999999937e+02 8.333458000000000254e+00 -1.387604311579873073e-01
1.116700000000000017e+02 -1.817699999999999960e+01 -1.129500000000000028e+02 8.060200000000000031e+00 -1.403113844147307054e-01
1.116800000000000068e+02 -1.797700000000000031e+01 -1.157399999999999949e+02 -1.319555000000000078e+01 -1.379708363884361855e-01
1.116800000000000068e+02 -2.462900000000000134e+01 -1.048199999999999932e+02 8.749715000000000131e+00 -1.531874500535161943e-01
1.116800000000000068e+02 -3.082799999999999940e+01 -1.134500000000000028e+02 -5.193322000000000216e-01 -1.623103472820258131e-01
1.116800000000000068e+02 -3.087600000000000122e+01 -1.282700000000000102e+02 2.183498999999999857e+00 -2.862108583405035822e-01
1.116800000000000068e+02 -2.910300000000000153e+01 -1.066299999999999955e+02 -5.565590999999999866e+01 -3.640685020992024956e-01
1.116800000000000068e+02 -2.805199999999999960e+01 -1.300600000000000023e+02 -1.164728000000000030e+01 -2.857051469056264281e-01
1.116899999999999977e+02 -2.803399999999999892e+01 -1.185799999999999983e+02 -3.184101000000000070e+00 -1.636023320685245364e-01
1.116899999999999977e+02 -9.688299999999999912e+00 -1.125600000000000023e+02 -7.329724999999999824e+00 -1.451718447971914183e-01
1.116899999999999977e+02 -9.688299999999999912e+00 -1.116200000000000045e+02 -3.937374999999999847e+00 -1.457312535079242632e-01
1.116899999999999977e+02 -1.904899999999999949e+01 -1.145199999999999960e+02 1.544562999999999953e+01 -1.376704932965093497e-01
1.117099999999999937e+02 -2.272500000000000142e+01 -1.066599999999999966e+02 1.023915000000000042e+01 -1.410912731294337308e-01
1.117099999999999937e+02 -3.183299999999999841e+01 -1.128100000000000023e+02 -4.002699000000000118e-01 -1.627895968691326911e-01
1.117199999999999989e+02 -2.971900000000000119e+01 -1.089899999999999949e+02 -1.054321999999999981e+01 -3.642929616896867784e-01
1.117199999999999989e+02 -2.885399999999999920e+01 -1.089899999999999949e+02 -1.865030000000000143e+01 -3.642388283494724655e-01
1.117300000000000040e+02 -1.671600000000000108e+01 -1.272600000000000051e+02 6.062166000000000388e+00 -3.499999999999999778e-01
1.117300000000000040e+02 -1.713899999999999935e+01 -1.100100000000000051e+02 1.634938000000000002e+01 -1.451791958889219747e-01
1.117399999999999949e+02 -2.944900000000000162e+01 -1.291899999999999977e+02 5.827550000000000230e-01 -2.859407423613354871e-01
1.117500000000000000e+02 -1.065099999999999980e+01 -1.109200000000000017e+02 7.104414000000000229e+00 -1.465191065689931127e-01
1.117500000000000000e+02 -2.662199999999999989e+01 -1.167600000000000051e+02 -8.167476000000000624e+00 -1.618525119665028544e-01
1.117600000000000051e+02 -2.481500000000000128e+01 -1.306200000000000045e+02 1.322288000000000074e-01 -2.850748493443855947e-01
1.117600000000000051e+02 -1.449600000000000044e+01 -1.174000000000000057e+02 -5.523913000000000295e-01 -1.403994626523785982e-01
1.117699999999999960e+02 -2.319900000000000162e+01 -1.125900000000000034e+02 2.950363000000000113e+01 -3.499999999999999778e-01
1.117699999999999960e+02 -2.880000000000000071e+01 -1.073499999999999943e+02 -3.394962999999999909e+01 -3.641082998770022727e-01
1.117800000000000011e+02 -1.851399999999999935e+01 -1.119800000000000040e+02 8.528029999999999333e+00 -1.409265264220374847e-01
1.117800000000000011e+02 -1.851399999999999935e+01 -1.109300000000000068e+02 7.064644999999999619e+00 -1.421549075660828720e-01
1.117900000000000063e+02 -2.760300000000000153e+01 -1.244000000000000057e+02 4.389117999999999853e+01 -2.845556760487773507e-01
1.117999999999999972e+02 -2.655300000000000082e+01 -1.177000000000000028e+02 -1.991413999999999973e+01 -1.624025955759485496e-01
1.118199999999999932e+02 -1.314199999999999946e+01 -1.105799999999999983e+02 -1.161748999999999921e+00 3.999826263200977755e-02
1.118199999999999932e+02 -2.721199999999999974e+01 -1.300300000000000011e+02 -7.906391000000000169e+00 -2.855070141459014055e-01
1.118299999999999983e+02 -1.384500000000000064e+01 -1.140499999999999972e+02 7.903747000000000078e+00 -1.441015218331549719e-01
1.118299999999999983e+02 -2.719900000000000162e+01 -1.048299999999999983e+02 9.874345999999999179e+00 -3.637825623320815605e-01
1.118299999999999983e+02 -1.670100000000000051e+01 -1.171599999999999966e+02 9.100602000000000302e+00 -1.383336968480653739e-01
1.118299999999999983e+02 -2.594600000000000151e+01 -1.153199999999999932e+02 2.218263999999999925e+01 -1.607257699938169915e-01
1.118299999999999983e+02 -1.211299999999999955e+01 -1.102199999999999989e+02 7.851323999999999970e+00 3.991907355625538834e-02
1.118499999999999943e+02 -1.391699999999999982e+01 -1.223700000000000045e+02 -8.824704000000000548e+00 -1.376721803247667464e-01
1.118499999999999943e+02 -1.370800000000000018e+01 -1.216400000000000006e+02 -2.179996000000000045e+00 -1.382510892890314591e-01
1.118799999999999955e+02 -1.531199999999999939e+01 -1.265699999999999932e+02 2.344701999999999842e+00 -1.347532907405077918e-01
1.118900000000000006e+02 -3.139499999999999957e+01 -1.272300000000000040e+02 2.681789999999999896e+00 -2.862284297434402602e-01
1.118900000000000006e+02 -2.276099999999999923e+01 -1.078499999999999943e+02 8.109432999999999225e+00 -1.393281816107518889e-01
1.119000000000000057e+02 -2.819200000000000017e+01 -1.293499999999999943e+02 -2.583708999999999811e+00 -2.856454133938351458e-01
1.119000000000000057e+02 -1.753800000000000026e+01 -1.274399999999999977e+02 9.046378000000000696e+00 -3.499999999999999778e-01
1.119000000000000057e+02 -2.393499999999999872e+01 -1.118900000000000006e+02 3.518733999999999895e+01 -1.313201940518115285e-01
1.119000000000000057e+02 -2.393499999999999872e+01 -1.110199999999999960e+02 1.108478999999999992e+01 -1.325107629257424591e-01
1.119200000000000017e+02 -2.533899999999999864e+01 -1.185100000000000051e+02 -3.903276999999999930e+01 -1.624003194256341820e-01
1.119200000000000017e+02 -2.000799999999999912e+01 -1.146200000000000045e+02 2.325621999999999900e+01 -1.363834053123842982e-01
1.119200000000000017e+02 -1.361800000000000033e+01 -1.240799999999999983e+02 -7.065712000000000437e+00 -1.370739406027781659e-01
1.119200000000000017e+02 -3.007300000000000040e+01 -1.252699999999999960e+02 2.480883000000000038e+01 -2.854760303183543901e-01
1.119300000000000068e+02 -1.528800000000000026e+01 -1.137900000000000063e+02 1.739679999999999893e+01 -1.428870788963180760e-01
1.119300000000000068e+02 -1.386700000000000088e+01 -1.231400000000000006e+02 5.245369999999999777e+01 -1.373288636461234280e-01
1.119300000000000068e+02 -1.375600000000000023e+01 -1.248700000000000045e+02 -2.752201000000000164e+01 -1.366141218337571517e-01
1.119500000000000028e+02 -2.630499999999999972e+01 -1.300900000000000034e+02 -8.524343999999999255e+00 -2.853173131899083281e-01
1.119500000000000028e+02 -3.161899999999999977e+01 -1.096800000000000068e+02 5.725816999999999712e-01 -1.606143172773605854e-01
1.119500000000000028e+02 -2.408899999999999864e+01 -1.178100000000000023e+02 -1.494847000000000037e+01 -3.499999999999999778e-01
1.119500000000000028e+02 -2.179899999999999949e+01 -1.301500000000000057e+02 5.607559000000000182e+00 -3.499999999999999778e-01
1.119599999999999937e+02 -1.861599999999999966e+01 -1.138199999999999932e+02 1.046777999999999942e+01 -1.389222423726750033e-01
1.119599999999999937e+02 -1.100799999999999912e+01 -1.159399999999999977e+02 2.180153999999999925e+00 -1.438312185076189020e-01
1.119599999999999937e+02 -1.514799999999999969e+01 -1.110199999999999960e+02 1.899179000000000173e+01 -1.462093505119444470e-01
1.119599999999999937e+02 -1.374799999999999933e+01 -1.110199999999999960e+02 4.353081000000000422e+00 4.006557185695672207e-02
1.119699999999999989e+02 -1.252299999999999969e+01 -1.162000000000000028e+02 2.687314000000000203e+00 -1.432538996564403644e-01
1.119800000000000040e+02 -2.757700000000000173e+01 -1.293300000000000125e+02 -9.804999999999999716e+00 -2.854950919124477071e-01
1.119899999999999949e+02 -2.320400000000000063e+01 -1.310600000000000023e+02 3.340198000000000000e+00 -3.499999999999999778e-01
1.119899999999999949e+02 -2.664999999999999858e+01 -1.232399999999999949e+02 1.167502999999999957e+01 -2.840533850242431546e-01
1.119899999999999949e+02 -2.664999999999999858e+01 -1.223799999999999955e+02 -6.351806999999999981e+00 -2.838379351006868889e-01
1.119899999999999949e+02 -1.867000000000000171e+01 -1.129300000000000068e+02 9.063466000000000022e+00 -1.397297997107030121e-01
1.120199999999999960e+02 -3.074099999999999966e+01 -1.146200000000000045e+02 3.993938000000000210e-01 -1.632517463081862297e-01
