1.630199999999999960e+01 5.992799999999999727e+01 3.935499999999999687e+01 -1.301224999999999987e+01 7.318415372112566097e-02
1.630199999999999960e+01 6.238799999999999812e+01 3.935499999999999687e+01 -4.237776999999999816e+01 7.428501637109058420e-02
1.631099999999999994e+01 4.378000000000000114e+01 2.767699999999999960e+01 -1.916032999999999831e+01 7.349595264876514211e-02
1.631299999999999883e+01 5.920400000000000063e+01 3.475300000000000011e+01 -2.901835000000000164e+01 2.126429640960424972e-01
1.632600000000000051e+01 5.842699999999999960e+01 2.731200000000000117e+01 -7.260682000000000080e+00 2.448057359795473287e-01
1.633299999999999841e+01 5.180599999999999739e+01 3.405599999999999739e+01 -4.076519000000000226e+00 2.721694718659560808e-01
1.633699999999999974e+01 4.942600000000000193e+01 3.060699999999999932e+01 -2.798951000000000189e+00 5.311180081873104891e-02
1.633699999999999974e+01 5.046300000000000097e+01 3.148999999999999844e+01 -2.898486000000000118e+00 8.300330876762952725e-02
1.634100000000000108e+01 6.115800000000000125e+01 4.017799999999999727e+01 -2.270745000000000147e+01 7.586674743295436507e-02
1.634299999999999997e+01 6.051200000000000045e+01 2.794200000000000017e+01 -2.841310000000000002e+00 2.183029120057004280e-01
1.634299999999999997e+01 6.195799999999999841e+01 2.874800000000000111e+01 3.727135000000000087e+00 1.905856198896309639e-01
1.634299999999999997e+01 6.230299999999999727e+01 2.953099999999999881e+01 8.167595999999999634e+00 1.876796848991380273e-01
1.634400000000000119e+01 4.839200000000000301e+01 3.017599999999999838e+01 1.978050000000000086e+00 5.687975997967424646e-02
1.634499999999999886e+01 4.964500000000000313e+01 2.277700000000000102e+01 -1.575394999999999968e+01 9.270717701982959802e-02
1.634700000000000131e+01 4.564699999999999847e+01 2.157199999999999918e+01 -3.300171999999999883e+00 -2.346887089574335172e-01
1.634900000000000020e+01 6.033700000000000330e+01 3.399499999999999744e+01 -2.585733000000000104e+01 2.085127317294611093e-01
1.635200000000000031e+01 4.806400000000000006e+01 2.021900000000000119e+01 -9.683797999999999462e+00 -2.456747952752786901e-01
1.635999999999999943e+01 4.620400000000000063e+01 2.016600000000000037e+01 -4.430606000000000044e+00 -2.313981144280835289e-01
1.636400000000000077e+01 4.693399999999999750e+01 3.016300000000000026e+01 1.805752000000000024e+00 6.107266132423124633e-02
1.636799999999999855e+01 6.105700000000000216e+01 3.421500000000000341e+01 -1.872931000000000168e+01 2.064710179154786440e-01
1.638599999999999923e+01 6.075800000000000267e+01 3.703099999999999881e+01 -1.106353000000000009e+01 6.593519351962992547e-02
1.638899999999999935e+01 5.512599999999999767e+01 3.550000000000000000e+01 -1.402863999999999933e+01 2.223823431371951265e-01
1.640099999999999980e+01 6.244800000000000040e+01 3.841599999999999682e+01 -2.808308999999999855e+01 7.209118164936627327e-02
1.641400000000000148e+01 5.899699999999999989e+01 2.782600000000000051e+01 -4.969434999999999825e+00 2.352424987133658885e-01
1.642200000000000060e+01 5.853300000000000125e+01 3.640299999999999869e+01 -2.661288000000000054e+01 2.149389273741950657e-01
1.642299999999999827e+01 6.576600000000000534e+01 3.175700000000000145e+01 -3.485034000000000187e+00 -3.705682653077997657e-02
1.642899999999999849e+01 6.145799999999999841e+01 3.454599999999999937e+01 -2.436320999999999870e+01 2.058499924013958149e-01
1.643499999999999872e+01 6.119400000000000261e+01 3.753499999999999659e+01 -1.757595999999999847e+01 6.842281524261045744e-02
1.644000000000000128e+01 4.089200000000000301e+01 2.782999999999999829e+01 -3.269735000000000014e+01 7.570985431601444382e-02
1.644000000000000128e+01 4.241199999999999903e+01 2.782999999999999829e+01 -7.477647000000000332e+01 7.447075049771748056e-02
1.644200000000000017e+01 4.521500000000000341e+01 2.245499999999999829e+01 -1.432423000000000002e+00 -2.354003871135247894e-01
1.644200000000000017e+01 5.539399999999999835e+01 2.382199999999999918e+01 6.682364999999999888e+00 2.455468935893769800e-01
1.644200000000000017e+01 5.644400000000000261e+01 2.382199999999999918e+01 6.364580000000000126e+00 2.583271287463985155e-01
1.644500000000000028e+01 5.730499999999999972e+01 3.666299999999999670e+01 -8.460020000000000095e+00 2.175591755571718022e-01
1.647200000000000131e+01 6.433599999999999852e+01 3.088400000000000034e+01 -2.047639999999999905e+00 -6.536137587552057204e-02
1.651800000000000068e+01 6.771299999999999386e+01 3.566700000000000159e+01 3.393806999999999796e+00 -1.027641860550494446e-01
1.651999999999999957e+01 5.624499999999999744e+01 3.567799999999999727e+01 -2.142437999999999931e+01 2.199886185446978948e-01
1.652199999999999847e+01 6.239999999999999858e+01 3.568500000000000227e+01 -2.245730000000000004e+01 6.114239066635625969e-02
1.652499999999999858e+01 6.479200000000000159e+01 3.758299999999999841e+01 9.614696999999999605e+00 -1.490687919628380931e-01
1.654299999999999926e+01 6.634900000000000375e+01 3.301200000000000045e+01 -2.362105000000000121e+00 -1.307685898830022453e-01
1.654299999999999926e+01 6.657999999999999829e+01 3.382699999999999818e+01 3.643149999999999977e+01 -1.224416513327230421e-01
1.654299999999999926e+01 6.678900000000000148e+01 3.456300000000000239e+01 3.367992999999999881e+01 -1.162965515390204096e-01
1.654599999999999937e+01 5.372200000000000131e+01 2.373699999999999832e+01 -4.118441999999999936e+00 4.161867491453108414e-02
1.655699999999999861e+01 6.532599999999999341e+01 3.099200000000000088e+01 -2.535105999999999860e+00 -4.973511116725939235e-02
1.656400000000000006e+01 4.448199999999999932e+01 2.914199999999999946e+01 -8.169506999999999408e+00 6.823718602095994734e-02
1.657499999999999929e+01 6.806999999999999318e+01 3.646999999999999886e+01 -4.825046000000000390e+00 -9.816527054700509292e-02
1.657999999999999829e+01 6.622199999999999420e+01 3.894200000000000017e+01 -6.589381999999999628e+00 -1.396686343610468450e-01
1.657999999999999829e+01 6.774200000000000443e+01 3.894200000000000017e+01 -2.143225999999999942e+01 -9.729220013059461381e-02
1.658299999999999841e+01 6.351599999999999824e+01 3.062399999999999878e+01 -1.164830999999999950e+00 1.854542836014693441e-01
1.658399999999999963e+01 4.353600000000000136e+01 2.345499999999999829e+01 -1.980812999999999846e+01 -2.315472700762537528e-01
1.658599999999999852e+01 5.914800000000000324e+01 3.591400000000000148e+01 -3.938259999999999650e+01 2.132840112185553916e-01
1.659299999999999997e+01 5.703499999999999659e+01 2.451000000000000156e+01 3.664998000000000200e+00 2.741950067168038574e-01
1.659499999999999886e+01 6.014500000000000313e+01 3.781000000000000227e+01 -9.807157000000000124e+00 7.011732909930887270e-02
1.660699999999999932e+01 4.482999999999999829e+01 2.998100000000000165e+01 -7.729212999999999667e+00 6.577693372337203859e-02
1.660900000000000176e+01 5.414099999999999824e+01 2.456599999999999895e+01 -2.908421000000000145e+00 2.199495594447058999e-01
1.660900000000000176e+01 5.500699999999999790e+01 2.456599999999999895e+01 2.874274999999999913e+00 2.477530413672157650e-01
1.661100000000000065e+01 5.319100000000000250e+01 3.465699999999999648e+01 -5.608249999999999957e+00 2.717607929710089687e-01
1.663200000000000145e+01 5.267099999999999937e+01 2.236199999999999832e+01 -2.859323999999999977e+00 7.653794853355624928e-02
1.663500000000000156e+01 4.862800000000000011e+01 2.219900000000000162e+01 -9.338374999999999204e+00 9.972577625041098570e-02
1.667500000000000071e+01 4.107099999999999795e+01 2.328999999999999915e+01 -1.288152000000000008e+01 -2.251450126972442400e-01
1.667500000000000071e+01 4.259100000000000108e+01 2.328999999999999915e+01 -3.358017999999999859e+01 -2.285473084955292333e-01
1.668799999999999883e+01 4.617699999999999960e+01 3.020899999999999963e+01 -2.169064999999999799e+00 6.224278609654060324e-02
1.669600000000000151e+01 6.189099999999999824e+01 3.524600000000000222e+01 -1.695964999999999989e+01 5.971036195705340527e-02
1.670799999999999841e+01 4.424499999999999744e+01 2.853000000000000114e+01 -8.433068000000000453e+00 6.983658457042737910e-02
1.674399999999999977e+01 4.311200000000000188e+01 2.777100000000000080e+01 -2.235178000000000154e+01 7.337710136856896714e-02
1.674599999999999866e+01 5.990400000000000347e+01 3.448599999999999710e+01 -1.584613000000000049e+01 2.102533409820715460e-01
1.674599999999999866e+01 6.077000000000000313e+01 3.448599999999999710e+01 -1.565558000000000050e+01 2.076311990034141464e-01
1.675300000000000011e+01 5.752400000000000091e+01 2.541799999999999926e+01 6.076723000000000319e+00 2.874380144592230124e-01
1.675799999999999912e+01 5.772699999999999676e+01 2.617899999999999849e+01 -1.481921000000000044e+00 2.379055520242263633e-01
1.675799999999999912e+01 5.793599999999999994e+01 2.691499999999999915e+01 -1.000455000000000005e+01 2.390669444268886390e-01
1.677199999999999847e+01 6.068800000000000239e+01 3.964500000000000313e+01 -9.122270999999999574e+00 7.650054094662830928e-02
1.677199999999999847e+01 6.162800000000000011e+01 3.812500000000000000e+01 -1.182976000000000028e+01 7.284370311580082302e-02
1.677199999999999847e+01 6.162800000000000011e+01 3.964500000000000313e+01 -2.038159999999999883e+01 7.698242118920375909e-02
1.677599999999999980e+01 6.279399999999999693e+01 2.992699999999999960e+01 1.936362000000000083e-01 1.855137147030226363e-01
1.677700000000000102e+01 4.769200000000000017e+01 2.990800000000000125e+01 2.273254000000000019e+01 5.835535629987639167e-02
1.677899999999999991e+01 5.085999999999999943e+01 3.272299999999999898e+01 -5.772993999999999737e+00 2.116738479805553852e-01
1.678900000000000148e+01 5.441599999999999682e+01 3.531099999999999994e+01 -8.233935000000000670e+00 3.815913961173535429e-01
1.680399999999999849e+01 5.960099999999999909e+01 3.518599999999999994e+01 -2.998999999999999844e+01 2.116426200410966296e-01
1.680999999999999872e+01 5.031900000000000261e+01 2.239600000000000080e+01 -1.028702999999999967e+01 9.331809896445043828e-02
1.681400000000000006e+01 5.233100000000000307e+01 3.465200000000000102e+01 -1.488480000000000025e+00 3.818526299669358637e-01
1.682600000000000051e+01 6.310000000000000142e+01 3.574300000000000210e+01 -2.523385000000000034e+01 6.491309251560617444e-02
1.682799999999999940e+01 4.705799999999999983e+01 2.003600000000000136e+01 -6.636961999999999584e+00 -2.369340165603407711e-01
1.683500000000000085e+01 6.035900000000000176e+01 3.888499999999999801e+01 -1.301324999999999932e+01 7.480748411056149794e-02
1.683500000000000085e+01 6.195700000000000074e+01 3.888499999999999801e+01 -2.193628999999999962e+01 7.564480216767231757e-02
1.683800000000000097e+01 4.604399999999999693e+01 2.113899999999999935e+01 -5.628749000000000002e+00 -2.357020941662601454e-01
1.683800000000000097e+01 4.604399999999999693e+01 2.200499999999999901e+01 -7.259907000000000110e+00 -2.386487456763908277e-01
1.684700000000000131e+01 5.969700000000000273e+01 2.809400000000000119e+01 -1.698501999999999956e+00 2.258514910600499248e-01
1.685800000000000054e+01 5.095600000000000307e+01 3.373100000000000165e+01 -3.686904999999999877e+00 2.127977334470078641e-01
1.686199999999999832e+01 5.005199999999999960e+01 3.096399999999999864e+01 -5.275907000000000124e+00 6.897898918059380824e-02
1.686799999999999855e+01 6.136200000000000188e+01 2.826699999999999946e+01 -1.278737000000000013e+00 2.022312225422139842e-01
1.687000000000000099e+01 6.821200000000000330e+01 3.724199999999999733e+01 -9.840344999999999231e+00 -9.628499983701349629e-02
1.687000000000000099e+01 6.821200000000000330e+01 3.818200000000000216e+01 -2.503967000000000098e+01 -9.532528608595722264e-02
1.687000000000000099e+01 6.062700000000000244e+01 3.812599999999999767e+01 -1.099719999999999942e+01 7.294934630591606850e-02
1.688800000000000168e+01 4.860699999999999932e+01 3.023999999999999844e+01 -2.617329999999999934e+00 7.299442932769341363e-02
1.689099999999999824e+01 6.429300000000000637e+01 3.677300000000000324e+01 3.925532000000000021e+00 -1.521693727550434971e-01
1.690200000000000102e+01 4.819599999999999795e+01 2.063299999999999912e+01 -1.137060999999999922e+01 -2.501699463381073518e-01
1.690200000000000102e+01 4.819599999999999795e+01 2.149899999999999878e+01 -2.249855000000000160e+01 1.062712159532766265e-01
1.690899999999999892e+01 6.698199999999999932e+01 3.900500000000000256e+01 -1.458365000000000045e+01 -1.358425101057043616e-01
1.691000000000000014e+01 4.013199999999999790e+01 2.660000000000000142e+01 -5.876610000000000333e+00 7.823253033717282590e-02
1.691000000000000014e+01 4.035900000000000176e+01 2.739900000000000091e+01 -2.591736999999999824e+01 7.638840915840994228e-02
1.691300000000000026e+01 5.806400000000000006e+01 3.683700000000000330e+01 -1.341397000000000084e+01 2.159595249600128053e-01
1.691400000000000148e+01 6.386999999999999744e+01 3.036599999999999966e+01 -3.525663999999999909e+00 -6.288640237465914495e-02
1.692099999999999937e+01 5.614900000000000091e+01 2.446699999999999875e+01 1.795689000000000091e+00 2.568841848432825148e-01
1.694600000000000151e+01 4.444500000000000028e+01 2.315800000000000125e+01 -5.647928000000000281e+00 -2.342420486100097177e-01
1.695299999999999940e+01 5.554500000000000171e+01 3.541100000000000136e+01 -1.411373000000000033e+01 2.215127494777132389e-01
1.695299999999999940e+01 5.673599999999999710e+01 3.607500000000000284e+01 -1.942022000000000048e+01 2.187155819507431986e-01
1.695299999999999940e+01 4.028900000000000148e+01 2.569500000000000028e+01 -7.373534000000000255e+00 -2.277351821372453067e-01
1.695700000000000074e+01 5.319599999999999795e+01 2.321199999999999974e+01 -4.951484999999999914e+00 4.826612403743378577e-02
1.696499999999999986e+01 4.060099999999999909e+01 2.405000000000000071e+01 -5.681029999999999802e+00 -2.258131125816145168e-01
1.696699999999999875e+01 6.485399999999999920e+01 3.033299999999999841e+01 -2.985714999999999897e+00 -6.225390120678736539e-02
1.697299999999999898e+01 4.045400000000000063e+01 2.499399999999999977e+01 -9.966958999999999236e+00 -2.270734915073465976e-01
1.700100000000000122e+01 5.182099999999999795e+01 2.229100000000000037e+01 -6.926428999999999725e+00 8.319816089167762774e-02
1.700400000000000134e+01 4.183100000000000307e+01 2.322700000000000031e+01 -5.056269999999999598e+00 -2.266958500136727339e-01
1.700499999999999901e+01 5.457399999999999807e+01 2.505699999999999861e+01 -6.617866000000000026e-01 2.469647629696394842e-01
1.701099999999999923e+01 4.648299999999999699e+01 2.048199999999999932e+01 -6.624892000000000003e+00 -2.356068925303143047e-01
1.702799999999999869e+01 5.889900000000000091e+01 3.690800000000000125e+01 -1.901709999999999923e+01 6.976029496030003441e-02
1.703699999999999903e+01 5.332500000000000284e+01 2.417000000000000171e+01 -9.366403000000000034e+00 3.558927834557347458e-02
1.704299999999999926e+01 6.541700000000000159e+01 3.793599999999999994e+01 -1.786035000000000039e+00 -1.428889261249374765e-01
1.705499999999999972e+01 4.408599999999999852e+01 2.957499999999999929e+01 -8.788524000000000669e+00 6.721333500856842280e-02
1.706200000000000117e+01 6.115800000000000125e+01 3.888499999999999801e+01 -2.418359999999999843e+01 7.645743955772268952e-02
1.708200000000000074e+01 6.617600000000000193e+01 3.131700000000000017e+01 -5.052843000000000195e+00 -1.867777266716741102e-01
1.708299999999999841e+01 4.197599999999999909e+01 2.825799999999999912e+01 -3.893795000000000073e+01 7.300308662921944913e-02
1.708599999999999852e+01 5.962500000000000000e+01 3.659799999999999898e+01 -3.186713999999999913e+01 6.896389203566374859e-02
1.708999999999999986e+01 4.947399999999999665e+01 2.219300000000000139e+01 -8.813349999999999795e+00 9.691913903576714062e-02
1.709199999999999875e+01 4.560399999999999920e+01 3.024500000000000099e+01 -1.470096000000000025e+01 6.277238124121950480e-02
1.709199999999999875e+01 5.371600000000000108e+01 3.525300000000000011e+01 -5.690076000000000356e+00 3.818847343958458596e-01
1.710699999999999932e+01 4.329099999999999682e+01 2.355799999999999983e+01 -1.285411999999999999e+01 -2.312502073011735992e-01
1.712900000000000134e+01 6.032500000000000284e+01 3.497899999999999920e+01 -1.576332999999999984e+01 6.188272341587904013e-02
1.712900000000000134e+01 6.119100000000000250e+01 3.497899999999999920e+01 -1.707179000000000002e+01 6.193870244809281805e-02
1.714000000000000057e+01 4.267900000000000205e+01 2.826200000000000045e+01 -2.407036000000000087e+01 7.209511640418803102e-02
1.714000000000000057e+01 4.354500000000000171e+01 2.826200000000000045e+01 -1.553448000000000029e+01 7.088581679826312654e-02
1.714199999999999946e+01 6.720600000000000307e+01 3.514300000000000068e+01 1.069913999999999987e+01 -1.095842421068315975e-01
1.717200000000000060e+01 6.347299999999999898e+01 2.993100000000000094e+01 -2.705798000000000147e+00 1.824898291675362272e-01
1.717800000000000082e+01 4.535300000000000153e+01 2.307000000000000028e+01 -7.370891000000000304e+00 8.953933394456756178e-02
1.718299999999999983e+01 5.148100000000000165e+01 3.458100000000000307e+01 2.377927000000000124e+00 3.821482993254227134e-01
1.718900000000000006e+01 4.287800000000000011e+01 3.090899999999999892e+01 -7.477776999999999674e+00 6.671640310767321114e-02
1.719099999999999895e+01 5.842699999999999960e+01 2.731200000000000117e+01 -7.032189999999999941e+00 2.437612251950203868e-01
1.719900000000000162e+01 4.384799999999999898e+01 2.896199999999999974e+01 -8.948544999999999305e+00 6.867156994122093627e-02
1.723699999999999832e+01 6.051200000000000045e+01 2.819600000000000151e+01 -1.244240999999999930e+00 2.152879355343411683e-01
1.724200000000000088e+01 5.730400000000000205e+01 3.677400000000000091e+01 -2.112575999999999965e+01 2.174329680318525249e-01
1.725100000000000122e+01 6.444799999999999329e+01 2.988200000000000145e+01 -3.014892000000000127e+00 -7.170468744144707640e-02
1.725799999999999912e+01 6.239999999999999858e+01 3.547500000000000142e+01 -2.041857999999999862e+01 6.675856417847300661e-02
1.726800000000000068e+01 4.942600000000000193e+01 3.060699999999999932e+01 -6.108082999999999707e+00 7.077727954450330206e-02
1.726999999999999957e+01 6.003999999999999915e+01 3.578900000000000148e+01 -2.803141000000000105e+01 6.711507524292852078e-02
1.727799999999999869e+01 5.562400000000000233e+01 2.509299999999999997e+01 -2.014674999999999994e+00 2.539563897580893737e-01
1.727799999999999869e+01 5.667399999999999949e+01 2.509299999999999997e+01 -1.076397000000000048e+00 2.675918025542328715e-01
1.727899999999999991e+01 5.899699999999999989e+01 2.782600000000000051e+01 -7.211661000000000321e+00 2.342833514915927950e-01
1.729500000000000171e+01 5.054299999999999926e+01 3.136100000000000065e+01 -6.825465000000000337e+00 8.226186474293580020e-02
1.729500000000000171e+01 5.075200000000000244e+01 3.209700000000000131e+01 -5.840953999999999979e+00 1.963726005428871324e-01
1.730000000000000071e+01 6.567499999999999716e+01 3.039499999999999957e+01 -4.960430999999999813e+00 -4.373915828049408649e-02
1.730399999999999849e+01 5.112100000000000222e+01 2.223300000000000054e+01 -9.940091000000000676e+00 8.738097359447059842e-02
1.730900000000000105e+01 5.387400000000000233e+01 2.499899999999999878e+01 -2.523696999999999857e+00 2.184849119662040512e-02
1.732199999999999918e+01 5.267000000000000171e+01 3.516499999999999915e+01 -7.237128000000000227e+00 3.821276918586555826e-01
1.732600000000000051e+01 4.371800000000000352e+01 3.094800000000000040e+01 -2.491126999999999825e+01 8.295880074190688236e-02
1.733500000000000085e+01 4.889600000000000080e+01 2.176599999999999824e+01 -2.909715999999999880e+01 1.018388207906865822e-01
1.733999999999999986e+01 6.651200000000000045e+01 3.847200000000000131e+01 -1.763413999999999859e+01 -1.363673524778155344e-01
1.733999999999999986e+01 6.745199999999999818e+01 3.847200000000000131e+01 -2.645580999999999960e+01 -1.336030077162765062e-01
1.734499999999999886e+01 4.333200000000000074e+01 3.010800000000000054e+01 -1.734263999999999939e+01 6.707901718365898158e-02
1.734600000000000009e+01 4.709599999999999653e+01 2.988800000000000168e+01 -3.403385999999999800e+00 7.743119489430304314e-02
1.735600000000000165e+01 6.642100000000000648e+01 3.337100000000000222e+01 1.399335999999999913e+01 -1.602456252407576387e-01
1.736799999999999855e+01 6.489199999999999591e+01 3.708599999999999852e+01 1.245991000000000071e+01 -1.457612861804987170e-01
1.736799999999999855e+01 6.764199999999999591e+01 3.603600000000000136e+01 7.451495000000000424e+00 -1.030914891880216899e-01
1.737399999999999878e+01 4.778900000000000148e+01 2.987300000000000111e+01 4.455847999999999587e+00 7.564457609906576063e-02
1.737999999999999901e+01 4.089200000000000301e+01 2.782999999999999829e+01 -4.504505000000000337e+01 7.453290809278448337e-02
1.738599999999999923e+01 5.624499999999999744e+01 3.567799999999999727e+01 -2.195439999999999969e+01 2.198361343320579253e-01
1.738700000000000045e+01 4.825900000000000034e+01 2.016799999999999926e+01 -1.893181999999999832e+01 -2.496798410352326081e-01
1.739300000000000068e+01 4.859199999999999875e+01 2.106599999999999895e+01 -3.930705999999999989e+01 1.103198595909266749e-01
1.739499999999999957e+01 4.490400000000000347e+01 3.018700000000000117e+01 -2.916702000000000083e+01 8.180903668548863972e-02
1.740299999999999869e+01 6.778100000000000591e+01 3.771200000000000330e+01 -2.359995999999999938e+01 -1.339813162031363303e-01
1.741600000000000037e+01 4.207900000000000063e+01 3.090899999999999892e+01 -9.575837999999999184e+00 8.504474296965189306e-02
1.741600000000000037e+01 4.361399999999999721e+01 2.937399999999999878e+01 -1.323823999999999934e+01 6.786168870940290088e-02
1.742299999999999827e+01 6.634099999999999397e+01 3.430100000000000193e+01 3.117218000000000089e+01 -1.538615279856028473e-01
1.745799999999999841e+01 5.799499999999999744e+01 2.661199999999999832e+01 -8.295806000000000680e+00 2.322004170796287126e-01
1.747599999999999909e+01 6.772700000000000387e+01 3.702600000000000335e+01 -8.718419000000000807e+00 -1.354390122401920582e-01
1.747899999999999920e+01 4.240800000000000125e+01 2.874899999999999878e+01 -1.290435000000000088e+01 7.086997093927482894e-02
1.747899999999999920e+01 4.240800000000000125e+01 3.014900000000000091e+01 -7.714036000000000115e+00 6.823639610087060825e-02
1.747899999999999920e+01 4.240800000000000125e+01 3.166900000000000048e+01 -6.685840999999999923e+00 8.410816377896514207e-02
1.747899999999999920e+01 4.334799999999999898e+01 3.166900000000000048e+01 -1.450797000000000025e+01 8.298459315678366477e-02
1.748199999999999932e+01 5.234599999999999653e+01 2.288700000000000045e+01 -1.070913999999999966e+01 5.820961706467989855e-02
1.751699999999999946e+01 4.134799999999999898e+01 2.390399999999999991e+01 -9.816568000000000183e+00 -2.271540846829240290e-01
1.753600000000000136e+01 6.620199999999999818e+01 3.803699999999999903e+01 -8.387321000000000026e+00 -1.373912066278129285e-01
1.753999999999999915e+01 5.981199999999999761e+01 2.813800000000000168e+01 -3.125221999999999944e+00 2.236634455944145894e-01
1.754599999999999937e+01 5.031900000000000261e+01 2.218700000000000117e+01 -8.150847999999999871e+00 9.102822194499458897e-02
1.755499999999999972e+01 4.093800000000000239e+01 2.448400000000000176e+01 -1.940717000000000070e+01 -2.273354886859429713e-01
1.756800000000000139e+01 6.162700000000000244e+01 3.543500000000000227e+01 -1.601334999999999908e+01 6.890638838295980173e-02
1.757700000000000173e+01 4.261399999999999721e+01 2.349399999999999977e+01 -8.953433999999999671e+00 -2.293747154554957590e-01
1.757700000000000173e+01 4.424399999999999977e+01 2.349399999999999977e+01 -8.869125999999999621e+00 8.617229711378901480e-02
1.758599999999999852e+01 6.432299999999999329e+01 3.631600000000000250e+01 -7.835672000000000192e-01 -1.493574042328996154e-01
1.759100000000000108e+01 6.075800000000000267e+01 3.565500000000000114e+01 -1.396959000000000017e+01 6.955045559192177262e-02
1.760399999999999920e+01 5.727100000000000080e+01 2.575700000000000145e+01 -3.122720999999999969e-01 2.184930278501265311e-01
1.760999999999999943e+01 5.419599999999999795e+01 3.586099999999999710e+01 -5.886127000000000109e+00 3.821680670758020315e-01
1.761100000000000065e+01 4.584400000000000119e+01 2.267299999999999827e+01 -1.343886999999999965e+01 9.084168911813952918e-02
1.761599999999999966e+01 5.278600000000000136e+01 2.365200000000000102e+01 -1.141074000000000055e+01 3.901123862760493693e-02
1.762500000000000000e+01 4.287800000000000011e+01 2.937399999999999878e+01 -8.795336999999999961e+00 6.873461372540863590e-02
1.766600000000000037e+01 4.628600000000000136e+01 3.018299999999999983e+01 -2.569321000000000055e+01 7.930814505959501992e-02
1.767000000000000171e+01 4.042199999999999704e+01 2.612999999999999901e+01 -1.220735999999999954e+01 7.824393165856592669e-02
1.767000000000000171e+01 4.042199999999999704e+01 2.707000000000000028e+01 -2.244551999999999836e+01 7.612058987953854161e-02
1.767299999999999827e+01 5.310799999999999699e+01 3.575399999999999778e+01 -4.974321999999999910e+00 3.822878035191548118e-01
1.768900000000000006e+01 5.554500000000000171e+01 3.561999999999999744e+01 -1.320608000000000004e+01 2.212618290908228147e-01
1.769300000000000139e+01 4.705799999999999983e+01 2.003600000000000136e+01 -6.218582999999999750e+00 -2.380913362878174233e-01
1.770799999999999841e+01 5.088499999999999801e+01 3.410000000000000142e+01 -2.990655999999999981e+00 1.976549324753865133e-01
1.771199999999999974e+01 5.677100000000000080e+01 3.634300000000000352e+01 -1.073484000000000016e+01 2.184967606628339942e-01
1.771199999999999974e+01 5.806400000000000006e+01 3.706400000000000006e+01 -2.523480999999999952e+01 7.486374011281252128e-02
1.771799999999999997e+01 6.103699999999999903e+01 2.879200000000000159e+01 7.946185999999999527e-01 2.048568119843507396e-01
1.771900000000000119e+01 5.521300000000000097e+01 2.582799999999999940e+01 -1.221570000000000045e+00 1.969100352375693364e-01
1.771900000000000119e+01 5.607800000000000296e+01 2.582799999999999940e+01 -2.312514999999999987e-01 2.029290001713578151e-01
1.771999999999999886e+01 6.517400000000000659e+01 2.986799999999999855e+01 -3.349444000000000088e+00 -2.065267885948291193e-01
1.772800000000000153e+01 5.005199999999999960e+01 3.096399999999999864e+01 -7.081978999999999580e+00 6.925485165887146355e-02
1.773699999999999832e+01 5.326700000000000301e+01 2.447299999999999898e+01 -1.716801000000000021e+00 2.464031869351370613e-02
1.776000000000000156e+01 4.084599999999999653e+01 2.495599999999999952e+01 -8.261397000000000546e+00 -2.279301330059210762e-01
1.776699999999999946e+01 5.949099999999999966e+01 3.636599999999999966e+01 -4.281313999999999709e+01 7.330768388652905698e-02
1.778200000000000003e+01 6.390599999999999881e+01 2.941499999999999915e+01 -4.521406999999999954e+00 1.571877317677068328e-02
1.779200000000000159e+01 4.447099999999999653e+01 3.067800000000000082e+01 -4.411833000000000027e+01 8.234908227658055413e-02
1.779200000000000159e+01 4.533599999999999852e+01 3.067800000000000082e+01 -3.646067000000000036e+01 8.088629783469185319e-02
1.780699999999999861e+01 4.848899999999999721e+01 3.014000000000000057e+01 -7.177567999999999948e+00 7.382222684201528162e-02
1.780900000000000105e+01 4.342900000000000205e+01 2.355099999999999838e+01 -5.449595000000000411e+00 -2.319227199782311621e-01
1.782600000000000051e+01 6.634300000000000352e+01 3.092999999999999972e+01 -1.326754999999999995e+01 -1.730039233882315342e-01
1.783200000000000074e+01 4.159400000000000119e+01 2.896699999999999875e+01 -7.774619000000000391e+00 7.095662849292354302e-02
1.784499999999999886e+01 5.160399999999999920e+01 2.280799999999999983e+01 -1.034657999999999944e+01 6.535603693437587458e-02
1.784499999999999886e+01 5.054500000000000171e+01 3.335000000000000142e+01 -6.294845999999999719e+00 1.981098046421178038e-01
1.785000000000000142e+01 4.416799999999999926e+01 3.137800000000000011e+01 -3.706087999999999738e+01 8.228456147577903335e-02
1.785200000000000031e+01 6.233800000000000097e+01 2.936700000000000088e+01 -2.184823000000000182e+00 1.904106016241545185e-01
1.786100000000000065e+01 4.777799999999999869e+01 1.967399999999999949e+01 -1.063338000000000072e+01 -2.423928929261342236e-01
1.789000000000000057e+01 4.189800000000000324e+01 2.966700000000000159e+01 -7.051974999999999660e+00 8.670196933302312670e-02
1.789099999999999824e+01 6.337500000000000000e+01 3.591299999999999670e+01 -1.754655999999999949e+01 7.621917306357459121e-02
1.789300000000000068e+01 6.574200000000000443e+01 3.741100000000000136e+01 3.894693000000000183e+00 -1.384053441242350524e-01
1.789300000000000068e+01 6.679200000000000159e+01 3.571099999999999852e+01 8.522766999999999982e+00 -1.402433264217871622e-01
1.789300000000000068e+01 6.679200000000000159e+01 3.741100000000000136e+01 -3.450978000000000101e+00 -1.350425443521104385e-01
1.789799999999999969e+01 4.374099999999999966e+01 3.196300000000000097e+01 -3.566420000000000101e+01 8.249041274095073040e-02
1.789799999999999969e+01 4.460600000000000165e+01 3.196300000000000097e+01 -2.177958999999999889e+01 8.126141463882438631e-02
1.791000000000000014e+01 4.287800000000000011e+01 3.220199999999999818e+01 -1.218073000000000050e+01 8.341142548148695879e-02
1.791400000000000148e+01 6.594400000000000261e+01 3.386800000000000210e+01 8.571357000000000781e+00 -1.531402122275500877e-01
1.791400000000000148e+01 6.594400000000000261e+01 3.473299999999999699e+01 3.671872000000000025e+00 -1.483550379660269480e-01
1.791799999999999926e+01 4.620700000000000074e+01 2.227599999999999980e+01 -1.253198000000000079e+01 9.264918121645288052e-02
1.791799999999999926e+01 4.641599999999999682e+01 2.153999999999999915e+01 -2.386505999999999972e+01 -2.403419298892569278e-01
1.792299999999999827e+01 5.189200000000000301e+01 2.362199999999999989e+01 -1.266558000000000028e+01 4.917528988014140817e-02
1.792599999999999838e+01 4.902300000000000324e+01 2.059600000000000009e+01 -1.599602999999999930e+01 1.152024237250227345e-01
1.792699999999999960e+01 4.646500000000000341e+01 2.053500000000000014e+01 -7.192693000000000225e+00 -2.366594406351725799e-01
1.794200000000000017e+01 4.988700000000000045e+01 2.169600000000000151e+01 -9.008203999999999212e+00 9.789992777168994575e-02
1.794900000000000162e+01 4.164800000000000324e+01 3.043900000000000006e+01 -7.101346000000000380e+00 8.620782389652088817e-02
1.794900000000000162e+01 4.164800000000000324e+01 3.137900000000000134e+01 -7.329329999999999679e+00 8.537765806394073675e-02
1.795100000000000051e+01 4.539300000000000068e+01 2.337900000000000134e+01 -2.217383999999999844e+01 8.554267249270804119e-02
1.796000000000000085e+01 4.159700000000000131e+01 2.815599999999999881e+01 -1.563507000000000069e+01 7.240954820150025117e-02
1.796399999999999864e+01 6.716100000000000136e+01 3.656099999999999994e+01 9.317814000000000263e+00 -1.354514521691795870e-01
1.796999999999999886e+01 5.760099999999999909e+01 2.612300000000000111e+01 -6.504567999999999905e+00 2.184798563877608790e-01
1.797299999999999898e+01 5.932099999999999795e+01 2.774099999999999966e+01 -5.035180999999999685e+00 2.318125134814416344e-01
1.797800000000000153e+01 5.449099999999999966e+01 2.552599999999999980e+01 -3.184997000000000078e+00 4.721889944447248133e-02
1.798499999999999943e+01 6.636299999999999955e+01 3.272200000000000131e+01 -1.331045000000000034e+00 -1.561589894982062243e-01
1.799699999999999989e+01 6.592900000000000205e+01 2.992000000000000171e+01 -6.038237999999999772e+00 -1.844269096397468943e-01
1.802199999999999847e+01 5.392799999999999727e+01 2.508599999999999852e+01 -4.162436999999999721e+00 3.243146085799240852e-02
1.802700000000000102e+01 6.475199999999999534e+01 2.940299999999999869e+01 -3.502634000000000025e+00 -2.085642642387711132e-01
1.805300000000000082e+01 5.491599999999999682e+01 3.589600000000000080e+01 -7.460496000000000016e+00 3.824332435478604575e-01
1.805900000000000105e+01 4.490400000000000347e+01 3.137800000000000011e+01 -2.983877000000000024e+01 8.127658234311843644e-02
1.805999999999999872e+01 6.535500000000000398e+01 3.666700000000000159e+01 1.102786000000000044e+01 -1.409483219503745999e-01
1.808200000000000074e+01 4.709599999999999653e+01 3.009700000000000131e+01 -1.575258000000000003e+01 7.779540079958835452e-02
1.809199999999999875e+01 6.035300000000000153e+01 2.864600000000000080e+01 -2.915643999999999902e+00 2.136520077899590753e-01
1.810300000000000153e+01 5.044299999999999784e+01 3.169699999999999918e+01 -7.560001999999999889e+00 1.982630216660809519e-01
1.810999999999999943e+01 4.778900000000000148e+01 3.008200000000000074e+01 -9.096514000000000877e+00 7.603198806913587238e-02
1.811499999999999844e+01 5.564500000000000313e+01 2.631899999999999906e+01 -2.204136999999999791e+00 1.976580059005384471e-01
1.811799999999999855e+01 5.886099999999999710e+01 2.723600000000000065e+01 -6.993790999999999869e+00 2.406192088157486642e-01
1.812500000000000000e+01 5.220900000000000318e+01 3.553799999999999670e+01 -4.666345999999999883e+00 3.826214999100432945e-01
1.812699999999999889e+01 6.600499999999999545e+01 3.583599999999999852e+01 1.264761000000000024e+01 -1.411339815190467972e-01
1.813599999999999923e+01 6.120700000000000074e+01 2.946699999999999875e+01 -3.822544999999999971e-01 2.017237570045124495e-01
1.814000000000000057e+01 4.118200000000000216e+01 2.735999999999999943e+01 -4.378710000000000235e+01 7.429848317341554431e-02
1.814499999999999957e+01 5.628000000000000114e+01 3.594700000000000273e+01 -1.566413999999999973e+01 7.527086244703953821e-02
1.815399999999999991e+01 5.363300000000000267e+01 3.635000000000000142e+01 -5.257583000000000339e+00 3.825195920828815543e-01
1.816100000000000136e+01 4.909499999999999886e+01 3.090599999999999881e+01 -6.543134000000000228e+00 7.226148890306453854e-02
1.816600000000000037e+01 6.649899999999999523e+01 3.177299999999999969e+01 -4.812075000000000102e+00 -1.575690904535777814e-01
1.818199999999999861e+01 6.303600000000000136e+01 2.935099999999999909e+01 -3.952577999999999925e+00 2.478180188611272747e-02
1.818199999999999861e+01 5.730400000000000205e+01 3.677400000000000091e+01 -4.640516999999999825e+01 7.728854357934449026e-02
1.818199999999999861e+01 5.882399999999999807e+01 3.677400000000000091e+01 -1.028568999999999960e+02 7.750226242158375634e-02
1.818199999999999861e+01 6.069899999999999807e+01 2.939399999999999835e+01 -2.053564999999999863e+00 2.067263131595256098e-01
1.819099999999999895e+01 4.575099999999999767e+01 3.119500000000000028e+01 -2.258755999999999986e+01 8.001465591390918841e-02
1.820299999999999940e+01 4.085300000000000153e+01 2.660000000000000142e+01 -4.560631999999999664e+01 7.619660331036695600e-02
1.820299999999999940e+01 4.238799999999999812e+01 2.813500000000000156e+01 -2.615003000000000100e+01 7.114513524525803434e-02
1.821099999999999852e+01 5.040100000000000335e+01 3.259599999999999653e+01 -6.423871000000000109e+00 1.987429692728867048e-01
1.821600000000000108e+01 4.703300000000000125e+01 1.983599999999999852e+01 -6.464788999999999675e+00 -2.371773533957039493e-01
1.821600000000000108e+01 4.855299999999999727e+01 1.983599999999999852e+01 -1.067970000000000041e+01 -2.525159042202025361e-01
1.821799999999999997e+01 6.626699999999999591e+01 3.656099999999999994e+01 1.671171999999999969e+01 -1.369075098581284122e-01
1.821799999999999997e+01 6.005799999999999983e+01 3.589800000000000324e+01 -2.542501000000000033e+01 7.588308199582706470e-02
1.823900000000000077e+01 4.211800000000000210e+01 3.213900000000000290e+01 -1.119319999999999915e+01 8.446557303499283020e-02
1.824899999999999878e+01 4.544700000000000273e+01 3.189499999999999957e+01 -3.982836000000000354e+01 8.016402333827250815e-02
1.826099999999999923e+01 4.208500000000000085e+01 2.743499999999999872e+01 -2.343138000000000076e+01 7.303951904517293203e-02
1.829700000000000060e+01 4.122399999999999665e+01 2.566100000000000136e+01 -5.646545999999999843e+00 7.815764981126971378e-02
1.829799999999999827e+01 6.272599999999999909e+01 3.579899999999999949e+01 -1.706224999999999881e+01 7.906104898307769746e-02
1.831200000000000117e+01 4.417799999999999727e+01 3.265500000000000114e+01 -1.744106000000000023e+01 8.169332074551131917e-02
1.831200000000000117e+01 4.511800000000000210e+01 3.265500000000000114e+01 -2.253781000000000034e+01 8.033293715902850574e-02
1.831899999999999906e+01 5.232500000000000284e+01 2.411299999999999955e+01 -1.042946000000000062e+01 3.356001444131271466e-02
1.833399999999999963e+01 4.257900000000000063e+01 2.387600000000000122e+01 -5.631170000000000009e+00 -2.302253682082975317e-01
1.833599999999999852e+01 6.526900000000000546e+01 3.583599999999999852e+01 -1.182245999999999952e+01 -1.420390550488366266e-01
1.834400000000000119e+01 4.357800000000000296e+01 3.258500000000000085e+01 -4.079715000000000202e+01 8.253935053402342015e-02
1.834499999999999886e+01 6.552700000000000102e+01 3.409499999999999886e+01 -1.255371000000000059e+01 -1.487103530566185050e-01
1.834499999999999886e+01 6.552700000000000102e+01 3.504299999999999926e+01 -1.305963999999999992e+01 -1.442066907843984058e-01
1.834700000000000131e+01 6.528400000000000603e+01 2.912999999999999901e+01 -3.507938999999999918e+00 -1.904945044894124639e-01
1.834799999999999898e+01 6.668600000000000705e+01 2.998799999999999955e+01 -1.209216999999999942e+01 -1.601909385184541734e-01
1.835500000000000043e+01 5.119200000000000017e+01 2.248900000000000077e+01 -2.234844999999999970e+01 6.999726341921734540e-02
1.835500000000000043e+01 5.119200000000000017e+01 2.335500000000000043e+01 -2.954162000000000177e+01 5.715813024424530597e-02
1.835999999999999943e+01 4.961200000000000188e+01 2.093199999999999861e+01 -2.773975000000000080e+01 1.080251329595337262e-01
1.836499999999999844e+01 4.423899999999999721e+01 2.373499999999999943e+01 -5.867665999999999826e+00 8.311895874162418540e-02
1.836799999999999855e+01 4.157200000000000273e+01 2.463500000000000156e+01 -5.547361999999999682e+00 8.074506897005115369e-02
1.838400000000000034e+01 4.588400000000000034e+01 2.298300000000000054e+01 -2.145692000000000021e+01 8.625812611699336385e-02
1.839399999999999835e+01 5.136200000000000188e+01 3.464200000000000301e+01 -6.351746000000000336e+00 3.828822705362724399e-01
1.839900000000000091e+01 6.670600000000000307e+01 3.096799999999999997e+01 -2.049668000000000134e+01 -1.543831030115326297e-01
1.840299999999999869e+01 6.582999999999999829e+01 3.339500000000000313e+01 -8.425769000000000730e+00 -1.498023177129428063e-01
1.840700000000000003e+01 5.829299999999999926e+01 2.653699999999999903e+01 -1.319431999999999938e+01 2.222892592842999893e-01
1.841100000000000136e+01 6.635699999999999932e+01 2.922800000000000153e+01 -7.598260999999999932e+00 -1.670386092824454882e-01
1.841300000000000026e+01 5.074499999999999744e+01 2.192500000000000071e+01 -2.912706000000000017e+01 8.460310863610340237e-02
1.841900000000000048e+01 5.494500000000000028e+01 2.626099999999999923e+01 -2.007184000000000079e+00 1.906967113546439996e-01
1.844399999999999906e+01 5.964200000000000301e+01 2.810200000000000031e+01 -1.273048999999999964e+01 2.247115672273350406e-01
1.845599999999999952e+01 6.492199999999999704e+01 3.617600000000000193e+01 -1.182245999999999952e+01 -1.408098339406047006e-01
1.846199999999999974e+01 4.148499999999999943e+01 2.655300000000000082e+01 -2.995977999999999852e+01 7.546417023482634989e-02
1.847400000000000020e+01 6.397299999999999898e+01 2.908800000000000097e+01 -4.680480000000000196e+00 3.912089782951004568e-02
1.847800000000000153e+01 4.196099999999999852e+01 2.931599999999999895e+01 -1.034638999999999953e+01 8.741350986475171503e-02
1.847800000000000153e+01 4.666299999999999670e+01 3.058800000000000097e+01 -2.480754999999999910e+01 7.877407912593568928e-02
1.848799999999999955e+01 5.340999999999999659e+01 2.464399999999999835e+01 -6.245109000000000243e+00 3.560179740256444458e-02
1.850600000000000023e+01 6.425400000000000489e+01 3.615500000000000114e+01 -2.451874000000000109e+01 8.450496014974410997e-02
1.850700000000000145e+01 4.822200000000000131e+01 3.057300000000000040e+01 -7.659685999999999773e+00 7.496333071120410418e-02
1.850900000000000034e+01 5.102300000000000324e+01 3.418399999999999750e+01 -1.045548999999999928e+01 1.986598373886941382e-01
1.851099999999999923e+01 5.806400000000000006e+01 3.683700000000000330e+01 -2.322056999999999860e+01 7.982048717674208871e-02
1.851699999999999946e+01 5.655499999999999972e+01 2.622100000000000009e+01 -5.378182999999999936e+00 1.984402638111209538e-01
1.852100000000000080e+01 5.675399999999999778e+01 3.612800000000000011e+01 -3.595396000000000214e+01 7.818766301055291024e-02
1.852100000000000080e+01 5.937400000000000233e+01 3.612800000000000011e+01 -3.906866999999999734e+01 7.884127206290178491e-02
1.852299999999999969e+01 5.278300000000000125e+01 3.627900000000000347e+01 3.430340000000000167e+00 3.827765470108851487e-01
1.852299999999999969e+01 5.448299999999999699e+01 3.627900000000000347e+01 -1.338681000000000054e+01 3.827412321683374974e-01
1.853300000000000125e+01 6.164000000000000057e+01 2.995799999999999841e+01 -5.795878000000000085e+00 4.370083615229686941e-02
1.857799999999999940e+01 6.113100000000000023e+01 2.988500000000000156e+01 -6.348024999999999807e+00 4.443682030084024348e-02
1.858099999999999952e+01 4.630100000000000193e+01 3.147599999999999909e+01 -2.589831999999999823e+01 7.906313825294725151e-02
1.860399999999999920e+01 4.867999999999999972e+01 3.136799999999999855e+01 -7.026781999999999861e+00 7.372406676404123782e-02
1.861400000000000077e+01 5.999900000000000233e+01 2.912699999999999889e+01 -5.713055999999999912e+00 2.143962237182716613e-01
1.861799999999999855e+01 4.614900000000000091e+01 2.197299999999999898e+01 -7.544458999999999804e+00 9.209047635069055049e-02
1.861799999999999855e+01 4.986899999999999977e+01 3.301500000000000057e+01 -5.471006000000000036e+00 2.003812223233324141e-01
1.862300000000000111e+01 5.162500000000000000e+01 2.405499999999999972e+01 -1.592191000000000045e+01 6.162636724445733766e-02
1.862900000000000134e+01 5.569500000000000028e+01 3.587599999999999767e+01 -1.101811999999999969e+01 7.849520775134127826e-02
1.863299999999999912e+01 6.075800000000000267e+01 3.574900000000000233e+01 1.223171999999999926e+01 7.998417562612544773e-02
1.864399999999999835e+01 4.970100000000000051e+01 3.146300000000000097e+01 -8.665729000000000681e+00 7.104991920138412076e-02
1.864699999999999847e+01 4.287800000000000011e+01 3.252700000000000102e+01 -2.988966999999999885e+01 8.358048130908050932e-02
1.867099999999999937e+01 4.222099999999999653e+01 2.655300000000000082e+01 -3.100584999999999880e+01 7.443669558951150622e-02
1.868599999999999994e+01 4.627300000000000324e+01 2.106599999999999895e+01 -6.338724000000000025e+00 -2.381241435555931096e-01
1.868599999999999994e+01 4.650000000000000000e+01 2.026699999999999946e+01 -9.668891000000000346e+00 -2.360228041645075214e-01
1.868599999999999994e+01 4.779299999999999926e+01 1.954599999999999937e+01 -5.996747000000000050e+00 -2.424263196142950050e-01
1.868599999999999994e+01 4.908599999999999852e+01 2.026699999999999946e+01 -3.590460999999999814e+01 1.145628267514750276e-01
1.869399999999999906e+01 4.278499999999999659e+01 2.770299999999999940e+01 -1.483801000000000059e+01 8.890005634586446714e-02
1.869399999999999906e+01 4.278499999999999659e+01 2.856800000000000139e+01 -1.480691999999999986e+01 8.765907042184115094e-02
1.869500000000000028e+01 4.199600000000000222e+01 2.456099999999999994e+01 -4.813963000000000214e+00 8.026462054264033030e-02
1.870200000000000173e+01 5.000399999999999778e+01 3.216299999999999670e+01 -5.823269999999999946e+00 2.002855094066631203e-01
1.870200000000000173e+01 5.017699999999999960e+01 2.122599999999999909e+01 -1.899988000000000099e+01 9.872086003149013744e-02
1.870299999999999940e+01 4.342900000000000205e+01 2.380499999999999972e+01 -6.294772000000000034e+00 8.233547986752390302e-02
1.870799999999999841e+01 4.594800000000000040e+01 3.242099999999999937e+01 -1.136696000000000062e+01 7.932986731163085836e-02
1.870899999999999963e+01 4.135799999999999699e+01 3.090899999999999892e+01 -1.425548999999999999e+01 8.647734473272306044e-02
1.870899999999999963e+01 4.158500000000000085e+01 3.010999999999999943e+01 -8.054788000000000281e+00 8.704852023703238406e-02
1.870899999999999963e+01 4.158500000000000085e+01 3.170799999999999841e+01 -8.942916000000000309e+00 8.557714609946345807e-02
1.872100000000000009e+01 4.493500000000000227e+01 2.370899999999999963e+01 -9.192842999999999876e+00 8.181335595383847081e-02
1.874299999999999855e+01 4.464800000000000324e+01 3.318800000000000239e+01 -1.346208000000000027e+01 8.100370085068861470e-02
1.874599999999999866e+01 4.709599999999999653e+01 3.128800000000000026e+01 -1.301601999999999926e+01 7.763230875884788440e-02
1.876200000000000045e+01 4.196600000000000108e+01 2.580099999999999838e+01 -7.114133000000000262e-01 7.654962822737265693e-02
1.876800000000000068e+01 6.195100000000000051e+01 3.565299999999999869e+01 1.300272000000000006e+01 8.259847433334924216e-02
1.876800000000000068e+01 6.348599999999999710e+01 3.608899999999999864e+01 -3.506027999999999878e+01 8.580459041237797901e-02
1.877400000000000091e+01 4.778900000000000148e+01 3.127299999999999969e+01 -9.107124999999999915e+00 7.607507247677905426e-02
1.878200000000000003e+01 6.617600000000000193e+01 3.236699999999999733e+01 -1.144424000000000063e+01 -1.458293361685383815e-01
1.879299999999999926e+01 4.842099999999999937e+01 3.216299999999999670e+01 -7.399166000000000132e+00 7.451183817171200263e-02
1.882700000000000173e+01 6.487199999999999989e+01 3.540299999999999869e+01 -2.702546999999999855e+01 -1.402100420450787532e-01
1.883599999999999852e+01 6.512999999999999545e+01 3.366199999999999903e+01 -1.058281999999999989e+01 -1.461130881792861991e-01
1.883599999999999852e+01 6.512999999999999545e+01 3.456900000000000261e+01 -3.746569999999999823e+01 -1.422446261785075550e-01
1.883599999999999852e+01 6.234000000000000341e+01 2.989900000000000091e+01 -8.949709000000000358e+00 5.448541719822953822e-02
1.884199999999999875e+01 6.588700000000000045e+01 2.869500000000000028e+01 -5.234537000000000440e+00 -1.605134567988260874e-01
1.885099999999999909e+01 5.564500000000000313e+01 2.652799999999999869e+01 4.427940999999999683e+00 1.908002592885285897e-01
1.886400000000000077e+01 6.465200000000000102e+01 2.867099999999999937e+01 -3.886591999999999825e+00 5.990284217280047313e-02
1.886499999999999844e+01 5.618599999999999994e+01 3.576700000000000301e+01 -2.864253000000000071e+01 7.988042318711616185e-02
1.887699999999999889e+01 5.753300000000000125e+01 2.624699999999999989e+01 -4.788632999999999917e+00 2.035073803367667133e-01
1.887699999999999889e+01 5.882600000000000051e+01 2.696799999999999997e+01 -1.960972999999999900e+01 2.226195723387111580e-01
1.887699999999999889e+01 5.915100000000000335e+01 2.770499999999999829e+01 -4.203871999999999787e+01 2.315586287734984761e-01
1.888100000000000023e+01 6.711700000000000443e+01 2.951800000000000068e+01 -1.437298000000000009e+01 -1.378695198395773758e-01
1.888100000000000023e+01 6.711700000000000443e+01 3.045799999999999841e+01 -2.084636000000000067e+01 -1.384550506379169932e-01
1.888200000000000145e+01 6.043099999999999739e+01 2.982700000000000173e+01 -1.040630999999999950e+01 5.333070125055808935e-02
1.891100000000000136e+01 4.926800000000000068e+01 3.216299999999999670e+01 -1.127480000000000082e+01 7.260893159531658925e-02
1.893100000000000094e+01 4.754099999999999682e+01 3.221600000000000108e+01 -5.528120999999999619e+00 7.652198611462869560e-02
1.894200000000000017e+01 5.053199999999999648e+01 3.378699999999999903e+01 -8.694084000000000145e+00 2.000012085198808742e-01
1.895100000000000051e+01 4.664300000000000068e+01 3.226899999999999835e+01 -1.284149999999999991e+01 7.830112458483477755e-02
1.895299999999999940e+01 5.389800000000000324e+01 2.521000000000000085e+01 -5.800523000000000096e+00 3.061674543261235643e-02
1.896699999999999875e+01 4.888900000000000290e+01 3.303499999999999659e+01 -8.366559000000000523e+00 7.373814230719465124e-02
