2.357400000000000162e+01 -8.822400000000000020e+00 1.078599999999999994e+02 1.645002999999999993e+00 -2.996634560305888040e-01
2.357600000000000051e+01 -1.296199999999999974e+01 1.088900000000000006e+02 -1.786099000000000103e+01 -2.990071048685898347e-01
2.358099999999999952e+01 -1.981099999999999994e+01 1.103799999999999955e+02 6.872899999999999565e+00 -3.527517655501522520e-01
2.358599999999999852e+01 4.085099999999999731e+00 9.264000000000000057e+01 5.555672000000000388e+00 -1.119165313907084097e-01
2.358999999999999986e+01 -1.875300000000000011e+01 8.541899999999999693e+01 4.864717999999999876e+01 -3.762502982483880709e-01
2.359100000000000108e+01 -3.113599999999999923e+00 7.337199999999999989e+01 1.111832000000000065e+01 -8.541648968348544702e-02
2.359199999999999875e+01 -1.779700000000000060e+01 1.035900000000000034e+02 -1.619328000000000145e+01 -2.988118735690068473e-01
2.359499999999999886e+01 -1.059999999999999964e+01 7.248799999999999955e+01 -3.438054999999999861e+00 -2.635705269697481423e-01
2.359700000000000131e+01 -1.671799999999999997e+01 1.131200000000000045e+02 5.765495999999999732e+00 -3.529362561272224585e-01
2.359900000000000020e+01 -5.384699999999999598e+00 1.054099999999999966e+02 -5.508086999999999733e+00 -3.003911089849235494e-01
2.360500000000000043e+01 -8.498499999999999943e+00 1.142800000000000011e+02 -6.825395999999999574e+00 -2.991497853410085561e-01
2.361299999999999955e+01 -6.620000000000000329e-01 9.841599999999999682e+01 1.220363000000000042e+01 -3.019230304809964460e-01
2.361299999999999955e+01 -1.008999999999999897e+00 7.362900000000000489e+01 3.776425999999999839e+00 -7.713088644068606670e-02
2.361499999999999844e+01 -8.841200000000000614e+00 1.116899999999999977e+02 -5.468055999999999806e+00 -2.992998463740897397e-01
2.361599999999999966e+01 -1.856200000000000117e+01 1.053700000000000045e+02 1.509140999999999977e+01 -2.985153009800553536e-01
2.362199999999999989e+01 -1.237199999999999989e+01 1.054500000000000028e+02 -4.381596000000000046e+00 -2.994486028111970066e-01
2.362199999999999989e+01 -1.169699999999999918e+01 1.103599999999999994e+02 -3.938286999999999871e+00 -2.990552060207569696e-01
2.362399999999999878e+01 -1.688100000000000023e+01 9.195199999999999818e+01 -1.107544000000000084e+00 -3.121207970679028554e-01
2.362399999999999878e+01 -1.664999999999999858e+01 9.276699999999999591e+01 9.106165999999999983e+00 -3.123681274595909163e-01
2.362399999999999878e+01 -1.220500000000000007e+01 7.406499999999999773e+01 8.657314999999999872e-01 -2.601122636430628354e-01
2.362900000000000134e+01 -1.846999999999999886e+01 1.094500000000000028e+02 1.043579000000000079e+01 -2.982336216228800296e-01
2.362900000000000134e+01 -1.916199999999999903e+01 8.450400000000000489e+01 1.379867999999999917e+01 -3.762403625127208051e-01
2.364399999999999835e+01 -1.251699999999999946e+01 1.045400000000000063e+02 5.310989000000000404e-01 -2.995406541882768559e-01
2.364799999999999969e+01 -1.695799999999999841e+01 1.054200000000000017e+02 7.235140000000000349e+00 -2.987562993915635623e-01
2.364799999999999969e+01 -9.071699999999999875e+00 1.108799999999999955e+02 -5.392320999999999920e+00 -2.993415206819848851e-01
2.364900000000000091e+01 3.755700000000000038e+00 9.340000000000000568e+01 9.574877999999999645e+01 -1.115389848512472748e-01
2.365599999999999881e+01 -1.744600000000000151e+01 1.045400000000000063e+02 -7.443010000000000126e+00 -2.987713054374050992e-01
2.365800000000000125e+01 -1.282900000000000063e+01 1.095999999999999943e+02 -3.102730000000000032e+01 -2.989716142569486257e-01
2.365899999999999892e+01 -3.764200000000000212e+00 7.267199999999999704e+01 -7.928980000000000139e+00 -8.067846701237056661e-02
2.366000000000000014e+01 -1.679899999999999949e+01 1.083900000000000006e+02 1.360866000000000042e+01 -2.985270097369929765e-01
2.366000000000000014e+01 -1.222000000000000064e+01 1.063199999999999932e+02 1.646060999999999996e+00 -2.993727079144510861e-01
2.366000000000000014e+01 -9.419499999999999318e+00 1.063199999999999932e+02 -2.218952000000000169e+01 -2.997662149007876975e-01
2.366199999999999903e+01 -1.530100000000000016e+01 1.084000000000000057e+02 1.403850000000000087e+01 -2.987331570396498104e-01
2.366499999999999915e+01 -9.882600000000000051e+00 9.939499999999999602e+01 -2.113719000000000126e+00 -3.007466587055592222e-01
2.366600000000000037e+01 -1.755499999999999972e+01 9.984199999999999875e+01 -1.000877999999999979e+01 -3.127760013503887437e-01
2.367399999999999949e+01 -1.822800000000000153e+01 1.061400000000000006e+02 -6.062910999999999717e+00 -2.985037467223772834e-01
2.368199999999999861e+01 -1.153500000000000014e+01 9.924500000000000455e+01 1.141118000000000077e+00 -3.005162843364038716e-01
2.368599999999999994e+01 2.527499999999999858e+00 9.558400000000000318e+01 9.620350000000000179e+00 -1.828536413865718135e-01
2.368700000000000117e+01 9.808999999999999941e-01 7.208199999999999363e+01 5.312547999999999604e+00 -7.646991363517041673e-02
2.368700000000000117e+01 1.325900000000000079e+00 7.129900000000000659e+01 9.383487000000000355e-01 -1.837723952760721702e-01
2.368700000000000117e+01 2.771999999999999797e+00 7.049299999999999500e+01 4.727585999999999733e-01 -1.838680033845525030e-01
2.368799999999999883e+01 -1.920700000000000074e+01 1.141200000000000045e+02 -1.326515999999999984e+01 -3.529332377987844938e-01
2.368799999999999883e+01 -1.826699999999999946e+01 1.141200000000000045e+02 -3.116119000000000128e+01 -3.529486216544165944e-01
2.369699999999999918e+01 -1.140099999999999980e+01 1.145100000000000051e+02 -8.323862000000000094e+00 -3.530829006039523099e-01
2.370100000000000051e+01 2.623200000000000198e+00 9.391400000000000148e+01 2.413314000000000092e+01 -1.833336554457699885e-01
2.370100000000000051e+01 -1.657400000000000162e+01 9.709099999999999397e+01 -8.421784000000000603e+00 -3.129315567610030380e-01
2.370200000000000173e+01 -1.561500000000000021e+01 1.074800000000000040e+02 2.878263000000000105e+01 -2.987693638965140952e-01
2.370599999999999952e+01 -1.231900000000000084e+01 1.070799999999999983e+02 -6.481542000000000137e+00 -2.992793413703639382e-01
2.370700000000000074e+01 -1.857199999999999918e+01 1.014899999999999949e+02 -2.171358999999999995e+01 -3.125110735446016141e-01
2.371199999999999974e+01 -9.887999999999999901e+00 1.151099999999999994e+02 5.841108000000000189e+00 -3.531280098622279762e-01
2.371799999999999997e+01 -1.034600000000000009e+01 1.103199999999999932e+02 -5.362269000000000396e+00 -2.992365298188531253e-01
2.372299999999999898e+01 8.469699999999999562e+00 7.899699999999999989e+01 -2.865355999999999881e+01 -1.809722845429448668e-01
2.372299999999999898e+01 8.469699999999999562e+00 7.993699999999999761e+01 -4.079044999999999987e+01 -1.808889251188719460e-01
2.372400000000000020e+01 -1.878699999999999903e+01 1.006800000000000068e+02 -8.630205000000000126e+00 -3.123237117381398864e-01
2.373100000000000165e+01 -1.685099999999999909e+01 9.895699999999999363e+01 -1.024634999999999962e+00 -3.129913070224005223e-01
2.373600000000000065e+01 -1.061100000000000065e+01 1.031500000000000057e+02 -8.464242999999999739e+00 -3.000235529719632033e-01
2.373600000000000065e+01 -1.648600000000000065e+01 1.093100000000000023e+02 1.717238000000000042e+01 -2.985126227088092388e-01
2.373799999999999955e+01 -1.559500000000000064e+01 1.093299999999999983e+02 1.721786000000000172e+01 -2.986299760355006216e-01
2.373900000000000077e+01 -1.416200000000000081e+01 1.136700000000000017e+02 -1.787064000000000163e+01 -3.530017459042788519e-01
2.373900000000000077e+01 -1.286899999999999977e+01 1.143900000000000006e+02 -2.820198999999999856e+01 -3.530516304015813289e-01
2.374699999999999989e+01 4.847299999999999720e+00 7.250499999999999545e+01 1.483137999999999934e+01 -1.831497886659793350e-01
2.375100000000000122e+01 -1.719699999999999918e+01 1.061400000000000006e+02 1.200966000000000022e+01 -2.986632783818586323e-01
2.375400000000000134e+01 -5.476399999999999935e+00 1.049300000000000068e+02 2.483014999999999972e+00 -3.004482105438369133e-01
2.375499999999999901e+01 -2.185900000000000176e+01 7.709499999999999886e+01 -8.392357000000000511e+00 -3.623169829035984835e-01
2.375900000000000034e+01 2.319799999999999862e+00 9.461400000000000432e+01 1.794515000000000171e+01 -1.830573419010125824e-01
2.376000000000000156e+01 4.513899999999999579e+00 9.027299999999999613e+01 -3.045933999999999919e+00 -8.529448578448659002e-02
2.376000000000000156e+01 5.649600000000000399e+00 8.655700000000000216e+01 6.328896000000000299e+00 7.695648439309880906e-02
2.376200000000000045e+01 -1.538799999999999990e+01 1.129500000000000028e+02 4.990312000000000081e-01 -3.529498979667520797e-01
2.376200000000000045e+01 -4.008300000000000196e+00 7.176900000000000546e+01 -9.831507999999999470e+00 -8.092790901202634446e-02
2.376200000000000045e+01 1.638600000000000056e+00 9.838400000000000034e+01 8.182045999999999708e+00 -1.818987228910712850e-01
2.376200000000000045e+01 2.829499999999999904e+00 9.904800000000000182e+01 -7.230877999999999695e+00 -1.820696490178037585e-01
2.376200000000000045e+01 4.147999999999999687e+00 9.668300000000000693e+01 2.204532000000000025e+01 -1.829753048935308102e-01
2.376200000000000045e+01 5.466499999999999915e+00 9.741800000000000637e+01 1.084315999999999924e+01 -1.831057517463757223e-01
2.376200000000000045e+01 5.698000000000000398e+00 9.823300000000000409e+01 -1.160727999999999938e+01 -1.829668333401917868e-01
2.376200000000000045e+01 7.240000000000000213e+00 7.817400000000000659e+01 -5.167340000000000266e+00 -1.816894408926058302e-01
2.377199999999999847e+01 4.280999999999999694e+00 7.122799999999999443e+01 5.122689000000000270e+00 -1.832591597022871777e-01
2.378200000000000003e+01 8.220299999999999940e+00 8.070900000000000318e+01 -5.296153000000000333e+01 -1.809027243151080933e-01
2.378200000000000003e+01 -1.674699999999999989e+01 1.068700000000000045e+02 3.820879000000000048e+01 -2.986676060895347984e-01
2.378300000000000125e+01 4.576299999999999812e+00 7.173799999999999955e+01 1.312648000000000081e+01 -1.831728567981722455e-01
2.378699999999999903e+01 -1.845799999999999841e+01 9.991700000000000159e+01 -5.529175999999999647e+00 -3.123690472297592780e-01
2.379299999999999926e+01 -1.712699999999999889e+01 1.092999999999999972e+02 1.004266999999999932e+01 -2.984346312968768067e-01
2.379599999999999937e+01 -1.904400000000000048e+01 1.061700000000000017e+02 -1.307004000000000055e+01 -2.983981052993241456e-01
2.379599999999999937e+01 -7.466000000000000192e+00 7.046200000000000330e+01 -1.307071999999999967e+01 -2.828945588341599260e-01
2.379599999999999937e+01 -1.940899999999999892e+01 8.137900000000000489e+01 -2.578056999999999821e+00 -3.761952473186885859e-01
2.380000000000000071e+01 -1.335500000000000043e+01 1.025400000000000063e+02 1.896622999999999948e+01 -2.996896482254131633e-01
2.380099999999999838e+01 -5.238000000000000433e+00 7.094599999999999795e+01 -1.558927000000000085e+01 -7.992331156643669998e-02
2.380099999999999838e+01 4.197099999999999831e+00 7.732200000000000273e+01 -7.018798999999999566e+00 -1.831200158147357482e-01
2.380499999999999972e+01 -6.612000000000000099e+00 1.070699999999999932e+02 -2.788464000000000098e+01 -3.000393362251138618e-01
2.380900000000000105e+01 -1.435699999999999932e+01 7.639100000000000534e+01 1.267716000000000065e+01 -2.561113060764642624e-01
2.380999999999999872e+01 4.428899999999999615e+00 8.053300000000000125e+01 2.886909999999999865e+00 -1.824704253967023293e-01
2.381099999999999994e+01 2.566499999999999893e-01 7.286400000000000432e+01 -4.299750000000000405e+00 -7.726469450145125040e-02
2.381299999999999883e+01 5.669800000000000395e+00 8.745499999999999829e+01 -7.544235000000000246e-01 7.669379708086218606e-02
2.381400000000000006e+01 7.084999999999999964e+00 8.569700000000000273e+01 3.580245000000000033e+01 -1.806237257158547771e-01
2.381500000000000128e+01 -1.246599999999999930e+01 1.102999999999999972e+02 -1.870229000000000141e+01 -2.989752235452968199e-01
2.381899999999999906e+01 -7.995899999999999785e+00 1.139300000000000068e+02 -1.527435000000000009e+01 -2.992395606870625890e-01
2.382400000000000162e+01 4.145299999999999763e+00 7.475199999999999534e+01 2.468693000000000026e+01 -1.834005164336993121e-01
2.382900000000000063e+01 5.560200000000000031e+00 9.907999999999999829e+01 -5.512875000000000192e+00 -1.827394427407003641e-01
2.382900000000000063e+01 -2.189000000000000057e+01 7.442400000000000659e+01 -5.166642000000000401e+00 -3.624415281021503010e-01
2.382900000000000063e+01 -2.037000000000000099e+01 7.442400000000000659e+01 -4.919254999999999711e+00 -3.623402803242226078e-01
2.384400000000000119e+01 -1.790299999999999869e+01 1.134099999999999966e+02 -2.234131000000000000e+01 -3.529218437307390377e-01
2.385300000000000153e+01 -9.273199999999999221e+00 1.071299999999999955e+02 -1.005225000000000080e+01 -2.996995864331790105e-01
2.385399999999999920e+01 8.339000000000000412e+00 8.389900000000000091e+01 1.907060999999999851e+01 -1.804133695865662301e-01
2.385399999999999920e+01 8.339000000000000412e+00 8.485699999999999932e+01 3.622370000000000090e+01 -1.802831524783672645e-01
2.385699999999999932e+01 -1.961100000000000065e+01 1.133100000000000023e+02 -4.963320000000000398e+00 -3.528886522638591816e-01
2.386199999999999832e+01 8.229900000000000659e+00 8.309799999999999898e+01 3.220649999999999835e+01 -1.805624863548324632e-01
2.386299999999999955e+01 -1.016699999999999982e+01 7.178799999999999670e+01 -8.026334999999999553e+00 -2.644761952747318734e-01
2.386400000000000077e+01 -9.291399999999999437e+00 1.045699999999999932e+02 -1.028819999999999979e+01 -3.000165676068794474e-01
2.386400000000000077e+01 -9.291399999999999437e+00 1.054399999999999977e+02 -9.823760999999999299e+00 -2.999019099484184214e-01
2.386499999999999844e+01 4.589100000000000179e+00 7.784099999999999397e+01 -1.381652000000000058e+01 -1.828529639387223016e-01
2.386599999999999966e+01 5.554100000000000037e+00 8.922899999999999920e+01 1.220853999999999928e+01 7.608083144446689539e-02
2.386599999999999966e+01 5.807999999999999829e+00 8.833499999999999375e+01 3.426162999999999847e+00 7.654100516614625871e-02
2.386700000000000088e+01 -7.905000000000000249e+00 1.078900000000000006e+02 -2.230771000000000015e+01 -2.997892451944028092e-01
2.387099999999999866e+01 -1.705600000000000094e+01 8.930700000000000216e+01 1.348260999999999932e+00 -3.115885875254827408e-01
2.387099999999999866e+01 -1.705600000000000094e+01 9.035699999999999932e+01 6.916051999999999644e+00 -3.117504710469432561e-01
2.387399999999999878e+01 -1.811899999999999977e+01 7.513800000000000523e+01 1.671081000000000039e+00 -3.621981512590808916e-01
2.387999999999999901e+01 -1.094600000000000017e+00 9.911599999999999966e+01 1.620466000000000051e+01 -3.017639125108998455e-01
2.388200000000000145e+01 -1.698300000000000054e+01 8.660899999999999466e+01 -4.573592999999999797e+00 -3.762558603478062813e-01
2.388200000000000145e+01 -8.325300000000000367e+00 1.146899999999999977e+02 -1.312650000000000006e+01 -2.991573944244964589e-01
2.388400000000000034e+01 -1.605499999999999972e+01 7.585500000000000398e+01 4.522333999999999854e+00 -3.621166987881887511e-01
2.388700000000000045e+01 -5.849999999999999645e+00 1.061599999999999966e+02 1.277091000000000065e+01 -3.002440722692583663e-01
2.389900000000000091e+01 -1.594299999999999962e+01 1.068599999999999994e+02 3.632142999999999944e+01 -2.987958660681228618e-01
2.389900000000000091e+01 -8.816000000000000725e+00 7.006199999999999761e+01 -4.572274000000000171e+00 -2.815371920253032512e-01
2.389900000000000091e+01 -1.774000000000000021e+00 7.387099999999999511e+01 9.681732000000000227e+00 1.914644894245525614e-02
2.390899999999999892e+01 2.948700000000000099e+00 9.638800000000000523e+01 1.435603000000000051e+01 -1.827418836827987558e-01
2.390899999999999892e+01 3.813899999999999846e+00 1.000799999999999983e+02 1.057557000000000080e+01 -1.820933934481354100e-01
2.390899999999999892e+01 4.482099999999999973e+00 1.000799999999999983e+02 2.166013999999999839e+01 -1.822602663988987237e-01
2.391499999999999915e+01 -1.695499999999999829e+01 9.117700000000000671e+01 2.233767999999999976e+00 -3.119283851170656652e-01
2.391600000000000037e+01 3.799999999999999906e-02 9.835800000000000409e+01 1.622362000000000037e+01 -3.019602810323362418e-01
2.391700000000000159e+01 -1.680999999999999872e+01 9.809300000000000352e+01 -4.893352000000000146e+00 -3.128940601969890656e-01
2.391900000000000048e+01 5.387999999999999901e+00 7.912000000000000455e+01 -1.237950000000000017e+01 -1.823118037465673857e-01
2.392699999999999960e+01 -1.274699999999999989e+01 1.000300000000000011e+02 -4.012923999999999936e+00 -3.001865502379555961e-01
2.392699999999999960e+01 -1.274699999999999989e+01 1.009399999999999977e+02 3.093444000000000194e-01 -3.000372307050608867e-01
2.392800000000000082e+01 -8.180899999999999395e+00 1.130100000000000051e+02 -1.155480000000000018e+01 -2.992905275623195527e-01
2.392899999999999849e+01 5.386899999999999800e+00 7.989199999999999591e+01 -5.079611000000000542e-01 -1.821808234947532301e-01
2.394300000000000139e+01 5.998099999999999987e+00 7.864799999999999613e+01 -9.251780999999999366e+00 -1.821113326391041454e-01
2.394999999999999929e+01 -1.135699999999999932e+01 7.309799999999999898e+01 -2.844174000000000202e+00 -2.618033622965335039e-01
2.395700000000000074e+01 -1.966799999999999926e+01 7.470699999999999363e+01 -6.087731999999999921e+00 -3.622995063937846094e-01
2.395799999999999841e+01 -5.389000000000000234e+00 1.044500000000000028e+02 6.829471000000000291e-01 -3.005272188634350305e-01
2.395799999999999841e+01 -5.179899999999999949e+00 1.037099999999999937e+02 -6.567921000000000120e+00 -3.006565661819635138e-01
2.396199999999999974e+01 -6.332099999999999618e+00 7.101099999999999568e+01 -7.182680000000000398e+00 -2.834678429663256005e-01
2.396600000000000108e+01 -1.308900000000000041e+01 7.554800000000000182e+01 6.034120999999999846e+00 -2.582160953129259418e-01
2.397400000000000020e+01 -2.000000000000000000e+01 1.122199999999999989e+02 -1.989654999999999896e-01 -3.528310494340397008e-01
2.398600000000000065e+01 -3.426000000000000156e+00 1.029200000000000017e+02 8.657486000000000459e+00 -3.009592540273859917e-01
2.398600000000000065e+01 -1.979899999999999993e+00 1.021200000000000045e+02 1.564555999999999969e+01 -3.012151568620452524e-01
2.398600000000000065e+01 -1.634900000000000020e+00 1.013299999999999983e+02 1.468512999999999913e+01 -3.013655046688534789e-01
2.398600000000000065e+01 -1.962199999999999989e+01 8.217799999999999727e+01 -5.578682000000000363e-01 -3.762049390015256289e-01
2.398600000000000065e+01 -1.962199999999999989e+01 8.387800000000000011e+01 7.370543999999999762e+00 -3.762277309363476485e-01
2.399099999999999966e+01 -1.669099999999999895e+01 7.565800000000000125e+01 6.217507000000000339e+00 -3.621485012638655521e-01
2.399500000000000099e+01 -2.117500000000000071e+01 7.782599999999999341e+01 -1.640615000000000023e+01 -3.622924978003385643e-01
2.400199999999999889e+01 -1.347300000000000075e+01 1.034099999999999966e+02 3.316633999999999816e+01 -2.995629426853242405e-01
2.401300000000000168e+01 -1.758699999999999974e+01 8.576800000000000068e+01 -1.610464999999999947e+01 -3.762438161751476828e-01
2.401500000000000057e+01 3.333600000000000119e+00 9.400799999999999557e+01 1.661455000000000126e+01 -1.103339083860000319e-01
2.401800000000000068e+01 3.745899999999999785e+00 7.656900000000000261e+01 -4.969562999999999953e+00 -1.832167595394509907e-01
2.401899999999999835e+01 3.692899999999999849e+00 8.053300000000000125e+01 7.513340000000000352e+00 -1.825752964976999071e-01
2.401899999999999835e+01 5.165000000000000036e+00 8.053300000000000125e+01 6.402898000000000422e+00 -1.821008214204657416e-01
2.405699999999999861e+01 -1.999099999999999966e+01 8.302800000000000580e+01 -1.287295999999999996e+00 -3.762178276005055944e-01
2.405900000000000105e+01 -6.689899999999999736e-01 7.360999999999999943e+01 9.646533000000000468e-01 -7.747859069341586635e-02
2.405999999999999872e+01 4.266300000000000203e+00 9.139799999999999613e+01 -1.057835999999999999e+00 -1.125928781538937107e-01
2.406200000000000117e+01 -1.703699999999999903e+01 1.038799999999999955e+02 -3.320835000000000292e+01 -2.989483506252653133e-01
2.406200000000000117e+01 -1.846199999999999974e+01 8.477200000000000557e+01 4.498821999999999655e+00 -3.762324408230337536e-01
2.406599999999999895e+01 -1.670400000000000063e+01 8.850199999999999534e+01 -2.710920999999999914e+00 -2.977084841014369099e-01
2.406899999999999906e+01 -1.884900000000000020e+01 7.914300000000000068e+01 4.229625000000000412e+00 -3.622444410378986568e-01
2.406899999999999906e+01 -1.864000000000000057e+01 7.987900000000000489e+01 -6.480392000000000152e+00 -3.623071085403405389e-01
2.407300000000000040e+01 -1.107900000000000063e+01 1.103900000000000006e+02 -5.475734000000000101e+00 -2.991616188892484152e-01
2.407799999999999940e+01 3.996300000000000185e+00 8.123300000000000409e+01 2.533798000000000172e+01 -1.823181364787263559e-01
2.407799999999999940e+01 4.861600000000000144e+00 8.123300000000000409e+01 1.364527999999999963e+01 -1.820478112248010150e-01
2.407900000000000063e+01 -1.110200000000000031e+01 9.875400000000000489e+01 5.887598999999999805e+00 -3.006764130111843070e-01
2.408099999999999952e+01 -1.073799999999999955e+01 1.150400000000000063e+02 1.562659999999999938e+00 -3.531015989054750448e-01
2.409700000000000131e+01 -9.391700000000000159e+00 1.012600000000000051e+02 -1.211421999999999954e+01 -3.005012278428734751e-01
2.409700000000000131e+01 -9.182600000000000762e+00 1.005300000000000011e+02 -7.309389000000000358e+00 -3.006509894524714843e-01
2.410200000000000031e+01 -1.600300000000000011e+01 1.128100000000000023e+02 7.413899999999999935e+00 -3.529249007595571253e-01
2.410200000000000031e+01 -1.873699999999999832e+01 1.134200000000000017e+02 -2.634723999999999933e+01 -3.529025912792987940e-01
2.410600000000000165e+01 -1.921499999999999986e+01 1.099000000000000057e+02 2.826151999999999997e+00 -2.981711435243050712e-01
2.410699999999999932e+01 -1.218399999999999928e+01 7.392799999999999727e+01 -4.810118999999999923e-01 -2.600452493529702980e-01
2.410800000000000054e+01 -1.206400000000000006e+01 1.144200000000000017e+02 -1.690455000000000041e+01 -3.530574487745900547e-01
2.411499999999999844e+01 -1.825700000000000145e+01 1.022999999999999972e+02 -1.176651999999999987e+01 -2.989438668862786641e-01
2.411599999999999966e+01 -4.059999999999999609e+00 7.255100000000000193e+01 -4.353755999999999915e+01 -8.009136202419368800e-02
2.411899999999999977e+01 -1.658200000000000074e+01 1.048700000000000045e+02 -2.337657999999999958e-01 -2.989164367864808325e-01
2.411899999999999977e+01 4.515699999999999825e+00 9.217000000000000171e+01 1.328596000000000110e+00 -1.122580186893244597e-01
2.411899999999999977e+01 4.515699999999999825e+00 9.310999999999999943e+01 2.049702999999999875e+01 -1.118293339737742587e-01
2.412199999999999989e+01 -1.266600000000000037e+01 7.458599999999999852e+01 -6.438989000000000518e-02 -2.590623903836817843e-01
2.412399999999999878e+01 3.821099999999999941e+00 7.552500000000000568e+01 1.292079999999999984e+01 -1.832142342660705581e-01
2.412800000000000011e+01 4.652000000000000135e+00 7.912000000000000455e+01 -1.504637999999999920e+01 -1.824554091413629897e-01
2.412900000000000134e+01 -1.218699999999999939e+01 9.923799999999999955e+01 -5.344062000000000534e-01 -3.004188668850921728e-01
2.413700000000000045e+01 4.910099999999999909e+00 7.832699999999999818e+01 -9.487567000000000306e+00 -1.824742659515872223e-01
2.413800000000000168e+01 -1.016900000000000048e+01 7.087500000000000000e+01 -4.450237999999999694e+00 -2.647364373798732906e-01
2.413800000000000168e+01 6.122899999999999565e+00 7.989199999999999591e+01 3.156029999999999891e+00 -1.817655436936702062e-01
2.413899999999999935e+01 -3.605399999999999938e+00 7.331100000000000705e+01 8.293226999999999904e+00 -8.012342872486420686e-02
2.414000000000000057e+01 -1.488499999999999979e+01 1.128700000000000045e+02 -6.360560000000000436e+00 -3.529472984497578625e-01
2.414699999999999847e+01 -1.449600000000000044e+01 1.084899999999999949e+02 5.311055999999999777e+00 -2.988792553486348536e-01
2.414999999999999858e+01 7.860000000000000320e+00 8.563200000000000500e+01 3.327861999999999654e+01 -1.802448475485920465e-01
2.415399999999999991e+01 -1.152200000000000024e+01 8.910800000000000409e+01 -2.104464000000000057e-01 -3.144376324763392683e-01
2.415899999999999892e+01 -9.862999999999999545e+00 1.018700000000000045e+02 -1.362359000000000009e+01 -3.003383683947848382e-01
2.416300000000000026e+01 -1.755099999999999838e+01 9.922400000000000375e+01 -5.174910999999999817e+00 -3.126470524262283668e-01
2.417000000000000171e+01 -1.485699999999999932e+01 1.077699999999999960e+02 8.994293000000000760e+00 -2.988931030703576019e-01
2.417000000000000171e+01 -1.297100000000000009e+01 1.049500000000000028e+02 2.055349999999999788e+00 -2.994552867187215139e-01
2.417000000000000171e+01 -1.297100000000000009e+01 1.077699999999999960e+02 -6.482094000000000023e+00 -2.991527399834041923e-01
2.417000000000000171e+01 -1.651000000000000156e+01 1.059200000000000017e+02 2.223858999999999853e+01 -2.988269275218715104e-01
2.417500000000000071e+01 -1.598700000000000010e+01 1.098400000000000034e+02 8.810542999999999125e+00 -2.985852299443982338e-01
2.419000000000000128e+01 -1.755900000000000105e+01 1.097900000000000063e+02 1.866452000000000000e+00 -2.983904444640783082e-01
2.419099999999999895e+01 -1.325999999999999979e+01 1.100699999999999932e+02 -2.567980999999999980e+01 -2.989198477786434438e-01
2.419200000000000017e+01 6.282499999999999751e+00 7.929300000000000637e+01 -4.448852999999999724e+00 -1.817468387606746838e-01
2.419300000000000139e+01 6.770299999999999763e+00 7.870699999999999363e+01 -4.590606000000000186e+00 -1.815928061320855047e-01
2.419300000000000139e+01 7.709699999999999775e+00 7.870699999999999363e+01 -8.991723000000000354e+00 -1.811251936808747909e-01
2.419300000000000139e+01 -1.020100000000000051e+01 1.026599999999999966e+02 -8.069820999999999245e+00 -3.001707068611612073e-01
2.419500000000000028e+01 2.338600000000000012e+00 9.865099999999999625e+01 2.025780999999999832e+00 -1.820228509968059849e-01
2.419600000000000151e+01 5.819499999999999673e+00 8.059199999999999875e+01 1.733182000000000000e+00 -1.817494046899411075e-01
2.419999999999999929e+01 -1.743100000000000094e+01 1.031700000000000017e+02 -1.345916000000000068e+01 -2.989811706519815981e-01
2.420100000000000051e+01 8.436599999999999655e-01 9.839499999999999602e+01 1.616987999999999914e+01 -3.019850925381545315e-01
2.420200000000000173e+01 -2.474000000000000199e+00 7.381300000000000239e+01 6.852166000000000423e+00 -8.831852059761144402e-02
2.420299999999999940e+01 -2.496700000000000141e+00 1.029599999999999937e+02 7.874141999999999975e+00 -3.010398373660105320e-01
2.420400000000000063e+01 3.946299999999999919e+00 7.967400000000000659e+01 -1.599797000000000047e+01 -1.825498210655699394e-01
2.420599999999999952e+01 -1.657300000000000040e+01 9.487199999999999989e+01 -8.946061000000000263e+00 -3.126002298797616041e-01
2.420700000000000074e+01 -9.938200000000000145e+00 1.035300000000000011e+02 -1.696032999999999902e+01 -3.000824751535227652e-01
2.420700000000000074e+01 -1.646199999999999974e+01 9.566899999999999693e+01 -5.826789999999999914e+00 -3.127498868415497513e-01
2.420700000000000074e+01 -9.421099999999999142e+00 9.976099999999999568e+01 -2.092528000000000166e+00 -3.007483138117016952e-01
2.420799999999999841e+01 -1.347499999999999964e+01 1.084000000000000057e+02 -5.674698000000000242e+00 -2.990295781995825353e-01
2.420899999999999963e+01 -1.362899999999999956e+01 1.140999999999999943e+02 -1.650948999999999955e+01 -3.530158771035133425e-01
2.421199999999999974e+01 -1.203299999999999947e+01 1.107999999999999972e+02 -7.001859999999999751e+00 -2.990203473591113159e-01
2.421199999999999974e+01 1.921999999999999931e+00 7.081799999999999784e+01 -1.772764000000000006e+00 -1.836532254623511329e-01
2.421199999999999974e+01 3.621999999999999886e+00 7.081799999999999784e+01 4.137705999999999662e+00 -1.830376754278645879e-01
2.422299999999999898e+01 -1.666600000000000037e+01 8.694499999999999318e+01 -3.402482000000000006e+00 -3.762539409652211897e-01
2.422299999999999898e+01 -1.645700000000000074e+01 8.768099999999999739e+01 -3.066879000000000133e+00 -3.762627072052765476e-01
2.422500000000000142e+01 -1.513299999999999912e+01 7.620600000000000307e+01 3.148311999999999955e+01 -2.549086914905956402e-01
2.422599999999999909e+01 -1.458999999999999986e+01 1.093199999999999932e+02 -6.939391999999999783e+00 -2.988076434253593705e-01
2.422599999999999909e+01 -1.352800000000000047e+01 1.093199999999999932e+02 -1.231071000000000026e+01 -2.989465789996433864e-01
2.422800000000000153e+01 -1.091499999999999915e+01 9.133700000000000330e+01 -2.167719999999999914e+01 -3.149746903629965233e-01
2.422800000000000153e+01 -9.576000000000000512e+00 7.012500000000000000e+01 -4.138792999999999722e+00 -2.660279339475972726e-01
2.422800000000000153e+01 -8.055999999999999162e+00 7.012500000000000000e+01 -9.731156000000000361e+00 -2.819437390700613721e-01
2.423199999999999932e+01 -4.768299999999999983e+00 7.147899999999999920e+01 -1.364602999999999966e+01 -7.984828733618719310e-02
2.423300000000000054e+01 4.462500000000000355e+00 7.429300000000000637e+01 1.640022999999999911e+02 -1.829281381086741987e-01
2.423300000000000054e+01 4.693999999999999950e+00 7.347799999999999443e+01 9.956177000000000277e+00 -1.828145392397336477e-01
2.423699999999999832e+01 -9.416700000000000514e+00 1.104899999999999949e+02 -4.325355000000000061e+00 -2.993662556637150529e-01
2.424099999999999966e+01 -1.746999999999999886e+01 1.129200000000000017e+02 1.552916000000000019e-02 -3.529000950482888976e-01
2.424099999999999966e+01 3.373000000000000220e+00 9.948699999999999477e+01 2.028765999999999892e+01 -1.821045495339335685e-01
2.424099999999999966e+01 4.923000000000000043e+00 9.697899999999999920e+01 3.389630999999999972e+01 -1.830580263044711553e-01
2.424200000000000088e+01 -1.365700000000000003e+01 7.612300000000000466e+01 1.254199999999999982e+01 -2.572294267339699236e-01
2.425100000000000122e+01 -1.892599999999999838e+01 8.089799999999999613e+01 -5.364803000000000210e+00 -3.761737153754562413e-01
2.425499999999999901e+01 6.384999999999999787e+00 8.608299999999999841e+01 2.457753999999999905e+01 -1.806263500629950169e-01
2.425600000000000023e+01 -1.089600000000000080e+01 7.218999999999999773e+01 -5.246882000000000268e+00 -2.628080444892801903e-01
2.425600000000000023e+01 8.039099999999999469e+00 7.946699999999999875e+01 -3.078687000000000040e+01 -1.808585259363477971e-01
2.425700000000000145e+01 -1.921799999999999997e+01 1.002099999999999937e+02 -6.046497999999999706e+00 -3.120283440205702807e-01
2.425700000000000145e+01 -1.921799999999999997e+01 1.011500000000000057e+02 -8.291233000000000075e+00 -3.121474726400325639e-01
2.425799999999999912e+01 -1.353200000000000003e+01 1.041500000000000057e+02 4.973785999999999596e+00 -2.994749891358414184e-01
2.426500000000000057e+01 -7.032099999999999795e+00 7.095199999999999818e+01 -1.859600000000000009e+01 -2.826346009869258324e-01
2.426599999999999824e+01 -1.669399999999999906e+01 9.243399999999999750e+01 2.113776999999999973e+01 -3.122119316096210739e-01
2.426899999999999835e+01 -2.435400000000000065e-01 7.328700000000000614e+01 -7.059387000000000079e+00 -7.738792882718507904e-02
2.427100000000000080e+01 -1.925100000000000122e+01 1.127099999999999937e+02 9.903475000000000250e+00 -3.528599044086324632e-01
2.427299999999999969e+01 7.823699999999999655e+00 8.114199999999999591e+01 -8.651016999999999513e+00 -1.807911700546460110e-01
2.427499999999999858e+01 -8.664999999999999147e+00 1.075000000000000000e+02 -1.827271999999999963e+01 -2.997549841968191742e-01
2.427499999999999858e+01 -7.144999999999999574e+00 1.075000000000000000e+02 -3.576048999999999722e+01 -2.999405600476096612e-01
2.427499999999999858e+01 -1.453299999999999947e+01 1.108400000000000034e+02 -9.593704999999999927e+00 -2.987120661471582839e-01
2.428099999999999881e+01 -1.643900000000000006e+01 9.650900000000000034e+01 -5.626693000000000389e+00 -3.128442521271814769e-01
2.428200000000000003e+01 -1.120500000000000052e+00 1.005300000000000011e+02 1.058370000000000033e+01 -3.015206722905748871e-01
2.429100000000000037e+01 7.770900000000000141e+00 8.022599999999999909e+01 -4.207164000000000215e+01 -1.809033516606726733e-01
2.429200000000000159e+01 -5.706999999999999851e+00 7.137999999999999545e+01 -1.511243999999999943e+01 -7.863058004633985409e-02
2.429500000000000171e+01 -4.438900000000000290e+00 7.223900000000000432e+01 -1.865870999999999924e+01 -7.971728214417880820e-02
2.429899999999999949e+01 -2.264999999999999858e+01 7.565399999999999636e+01 -1.803435999999999950e+01 -3.624715281902584074e-01
2.429899999999999949e+01 -2.242299999999999827e+01 7.485500000000000398e+01 -5.407140000000000057e+00 -3.624985151798654770e-01
2.429899999999999949e+01 -2.242299999999999827e+01 7.645300000000000296e+01 -1.561477999999999966e+01 -3.624224406949536070e-01
2.429899999999999949e+01 -2.112999999999999901e+01 7.413400000000000034e+01 -1.658361000000000018e+01 -3.624558914557304279e-01
2.430000000000000071e+01 4.556199999999999584e+00 7.263100000000000023e+01 4.371662999999999855e+00 -1.827660714519925844e-01
2.430600000000000094e+01 3.381299999999999972e+00 9.687900000000000489e+01 3.038165000000000049e+01 -1.827101969512233137e-01
2.430699999999999861e+01 -1.314700000000000024e+01 1.107999999999999972e+02 -2.382855999999999952e+01 -2.988893807248161338e-01
2.431099999999999994e+01 4.980100000000000193e+00 9.956100000000000705e+01 6.864516999999999314e+01 -1.824805477913979956e-01
2.431299999999999883e+01 -3.946200000000000263e-01 9.884900000000000375e+01 2.317981999999999942e+01 -3.018335693220425830e-01
2.431299999999999883e+01 -8.794999999999999929e+00 1.152199999999999989e+02 -2.358230999999999966e+01 -2.990992593926045107e-01
2.432400000000000162e+01 -1.670799999999999841e+01 9.393600000000000705e+01 -1.039713000000000065e+01 -3.123973742174773749e-01
2.433099999999999952e+01 -1.524300000000000033e+01 1.071200000000000045e+02 6.785396999999999679e+00 -2.989112684787948448e-01
2.433099999999999952e+01 5.065599999999999881e+00 8.979500000000000171e+01 2.549087000000000103e+00 7.571185782425524091e-02
2.433899999999999864e+01 -1.111599999999999921e+00 9.960800000000000409e+01 2.206634999999999991e+01 -3.016628390452641417e-01
2.434199999999999875e+01 2.248699999999999921e+00 9.525600000000000023e+01 1.055697999999999936e+01 -1.828315919472381645e-01
2.434199999999999875e+01 2.248699999999999921e+00 9.612099999999999511e+01 1.261204999999999998e+01 -1.826084394375316611e-01
2.434799999999999898e+01 8.014300000000000423e+00 8.167799999999999727e+01 5.383653999999999940e+00 -1.806096166388049817e-01
2.434900000000000020e+01 -1.458500000000000085e+01 1.116299999999999955e+02 -7.131598999999999577e-01 -2.986627357148223805e-01
2.434900000000000020e+01 8.809099999999999708e-01 7.211799999999999500e+01 -2.688137999999999916e+00 -7.602787486932958971e-02
2.435000000000000142e+01 -1.080300000000000082e+01 8.930299999999999727e+01 -2.940059999999999896e+00 -3.147486182264305210e-01
2.435200000000000031e+01 -1.656700000000000017e+01 1.031200000000000045e+02 -2.924136999999999986e+01 -2.991380039188701323e-01
2.435200000000000031e+01 -7.565299999999999692e+00 1.134599999999999937e+02 -1.327285000000000004e+01 -2.993460809232941777e-01
2.435200000000000031e+01 -7.565299999999999692e+00 1.144000000000000057e+02 -2.423376000000000019e+01 -2.992806856495481282e-01
2.435399999999999920e+01 -1.056400000000000006e+01 7.135500000000000398e+01 -6.336395000000000444e+00 -2.636827022571419654e-01
2.435699999999999932e+01 -1.720799999999999841e+01 9.849699999999999989e+01 6.664252000000000509e-01 -3.126955729680628848e-01
2.436299999999999955e+01 -1.225900000000000034e+01 8.910800000000000409e+01 -5.645489000000000424e+00 -3.139975645182867536e-01
2.436599999999999966e+01 -1.253899999999999970e+01 1.058299999999999983e+02 -2.578762000000000221e+00 -2.994281391486890986e-01
2.436599999999999966e+01 -1.253899999999999970e+01 1.068900000000000006e+02 -4.955784999999999663e+00 -2.993133984802096581e-01
2.436799999999999855e+01 -1.886499999999999844e+01 8.221299999999999386e+01 2.000189999999999912e+00 -3.761926459885939211e-01
2.436799999999999855e+01 -1.886499999999999844e+01 8.384300000000000352e+01 9.116213999999999373e+00 -3.762161576031813892e-01
2.437000000000000099e+01 8.165300000000000225e+00 8.267100000000000648e+01 2.517222999999999900e+01 -1.804223969577795905e-01
2.437199999999999989e+01 -1.116999999999999993e+01 8.992199999999999704e+01 -6.069531999999999705e+00 -3.147084141173518979e-01
2.437300000000000111e+01 -1.053500000000000014e+01 9.030500000000000682e+01 -7.459106000000000236e+00 -3.150189519721655063e-01
2.438200000000000145e+01 -1.180199999999999960e+01 9.881199999999999761e+01 3.115974000000000022e+00 -3.005582284941349935e-01
2.438200000000000145e+01 -1.040199999999999925e+01 9.881199999999999761e+01 4.418717000000000006e+00 -3.007718620230325768e-01
2.438899999999999935e+01 -1.489499999999999957e+01 1.124000000000000057e+02 -5.001750999999999614e+00 -2.985858641609371866e-01
2.439000000000000057e+01 -1.896799999999999997e+01 7.497400000000000375e+01 -2.803202999999999889e+00 -3.623005885249777069e-01
2.439099999999999824e+01 -4.689000000000000057e+00 1.033100000000000023e+02 8.099071999999999605e+00 -3.007687345843417237e-01
2.439699999999999847e+01 -8.542600000000000193e+00 1.121299999999999955e+02 -7.938772000000000162e+00 -2.993414893852965331e-01
2.440899999999999892e+01 4.046000000000000263e+00 9.387000000000000455e+01 5.903887000000000285e+01 -1.114821898941057016e-01
2.441799999999999926e+01 -1.405899999999999928e+01 1.100699999999999932e+02 -2.438798999999999850e+01 -2.988363436145810015e-01
2.442000000000000171e+01 -1.683299999999999841e+01 1.098599999999999994e+02 2.175409000000000148e+00 -2.985004324667218656e-01
2.442000000000000171e+01 -1.683299999999999841e+01 1.127500000000000000e+02 5.727438000000000251e+00 -3.529004670821317413e-01
2.442099999999999937e+01 -1.917800000000000082e+01 8.305700000000000216e+01 6.720587000000000089e-01 -3.762059343479676743e-01
2.442099999999999937e+01 -1.195500000000000007e+01 8.840800000000000125e+01 -4.908890999999999671e+00 -3.134702994500034312e-01
2.442099999999999937e+01 -1.195500000000000007e+01 8.980800000000000693e+01 -1.821974000000000160e+01 -3.143222580736118044e-01
2.442099999999999937e+01 -1.108999999999999986e+01 8.840800000000000125e+01 -7.332532999999999745e+00 -3.138338189380395216e-01
2.442899999999999849e+01 -1.607900000000000063e+01 1.038700000000000045e+02 -1.322958999999999996e+01 -2.991319313806166669e-01
2.443100000000000094e+01 -1.973999999999999844e+01 1.107500000000000000e+02 -1.541857000000000089e-01 -3.527575113653203531e-01
2.443100000000000094e+01 -1.973999999999999844e+01 1.117999999999999972e+02 2.512836000000000070e+00 -3.528075635624260409e-01
2.443700000000000117e+01 -1.165099999999999980e+01 9.133700000000000330e+01 -2.932964000000000127e+01 -3.145913894423463253e-01
2.443700000000000117e+01 -1.017900000000000027e+01 9.133700000000000330e+01 -1.783158999999999850e+01 -3.152231278484032839e-01
2.444600000000000151e+01 -1.709600000000000009e+01 8.616500000000000625e+01 -1.419904000000000011e+01 -3.762407559788427669e-01
2.444900000000000162e+01 -1.789300000000000068e+01 1.024599999999999937e+02 -1.370659000000000027e+01 -2.990164587089271797e-01
2.445400000000000063e+01 -1.034600000000000009e+01 1.105300000000000011e+02 -8.069466000000000250e+00 -2.992636538769247734e-01
2.445400000000000063e+01 -8.899900000000000588e+00 1.113299999999999983e+02 -1.940846999999999989e+00 -2.993678416643789642e-01
2.445499999999999829e+01 -1.749200000000000088e+01 7.565600000000000591e+01 3.823341000000000101e+00 -3.622242270514832718e-01
2.445799999999999841e+01 6.877100000000000435e+00 8.002700000000000102e+01 -1.453243999999999936e+01 -1.812439294593701788e-01
2.447400000000000020e+01 4.428899999999999615e+00 8.172400000000000375e+01 1.833391999999999911e+01 -1.818903718112168943e-01
2.447500000000000142e+01 -1.836499999999999844e+01 1.098299999999999983e+02 2.236549000000000120e+00 -2.983184966650929693e-01
2.448300000000000054e+01 7.240000000000000213e+00 7.946699999999999875e+01 -3.637798999999999694e+01 -1.811225417755364109e-01
2.449399999999999977e+01 -1.812000000000000099e+01 8.528100000000000591e+01 -1.680843000000000131e+01 -3.762302568445796136e-01
2.449500000000000099e+01 -1.134800000000000075e+01 9.203700000000000614e+01 -2.417865000000000109e+01 -3.147623215037769762e-01
2.449500000000000099e+01 -1.048300000000000054e+01 9.203700000000000614e+01 -3.456340000000000146e+01 -3.151267249351149546e-01
2.449899999999999878e+01 -1.409900000000000020e+01 1.133400000000000034e+02 -1.298675000000000068e+01 -3.529721396534241662e-01
2.451000000000000156e+01 3.296300000000000008e+00 8.096599999999999397e+01 1.147883000000000031e+01 -1.823305624760610810e-01
2.451399999999999935e+01 -1.839600000000000080e+01 8.445900000000000318e+01 5.314708999999999683e-01 -3.762199945750740460e-01
2.451599999999999824e+01 6.573699999999999655e+00 8.072700000000000387e+01 9.940274000000000054e-01 -1.812571965133885077e-01
2.451899999999999835e+01 -1.543099999999999916e+01 1.107399999999999949e+02 4.609233999999999831e+00 -2.986288580231483136e-01
2.452899999999999991e+01 -5.144000000000000128e+00 1.054000000000000057e+02 6.428634999999999877e+00 -3.004325784000616562e-01
2.453099999999999881e+01 4.266600000000000392e+00 7.703700000000000614e+01 -1.191311999999999927e+01 -1.826005901298609069e-01
2.453399999999999892e+01 -1.391399999999999970e+01 1.078400000000000034e+02 -8.490552000000000099e-01 -2.990456219504140645e-01
2.453699999999999903e+01 4.147300000000000431e+00 7.166800000000000637e+01 2.461582999999999899e+01 -1.826211754337748183e-01
2.453699999999999903e+01 5.402000000000000135e+00 9.775400000000000489e+01 -6.211966000000000321e+00 -1.829691358541273849e-01
2.453699999999999903e+01 5.402000000000000135e+00 9.871200000000000330e+01 -8.276963999999999544e+00 -1.827544572707144044e-01
2.453800000000000026e+01 -1.286899999999999977e+01 1.141599999999999966e+02 -6.313380999999999688e+01 -3.530235701831802575e-01
2.453999999999999915e+01 -1.169299999999999962e+01 7.353100000000000591e+01 -3.551867000000000107e+00 -2.608477807844329921e-01
2.454500000000000171e+01 -1.008399999999999963e+01 8.949899999999999523e+01 -1.206187999999999982e-01 -3.150372058225835992e-01
2.454500000000000171e+01 -1.435699999999999932e+01 7.618200000000000216e+01 1.336768999999999963e+01 -2.561471211304159334e-01
2.454700000000000060e+01 -1.874800000000000111e+01 9.944700000000000273e+01 -5.170952999999999911e+00 -3.121075273692760499e-01
2.454700000000000060e+01 -1.874800000000000111e+01 1.019099999999999966e+02 -1.607470999999999961e+01 -3.123990620037796484e-01
2.455799999999999983e+01 -1.532099999999999973e+01 1.116299999999999955e+02 4.071201000000000292e+00 -2.985927186613895890e-01
2.455799999999999983e+01 -1.384900000000000020e+01 1.116299999999999955e+02 -1.412514999999999965e+01 -2.987680694958186334e-01
2.456200000000000117e+01 -1.945400000000000063e+01 7.865699999999999648e+01 1.402921000000000085e+00 -3.622461283948490984e-01
2.456400000000000006e+01 -9.023999999999999133e+00 1.050000000000000000e+02 -4.349784999999999791e+00 -3.000195712161202177e-01
2.456500000000000128e+01 -9.134700000000000486e+00 1.057999999999999972e+02 -9.400515000000000398e+00 -2.999049600570078411e-01
2.456500000000000128e+01 -9.134700000000000486e+00 1.067399999999999949e+02 -1.034924999999999962e+01 -2.997937439151052152e-01
2.457100000000000151e+01 -3.323999999999999844e+00 7.374200000000000443e+01 6.626116999999999813e+00 -8.363574822045886925e-02
2.457700000000000173e+01 4.147999999999999687e+00 9.691400000000000148e+01 6.832989999999999498e+01 -1.828747277588773090e-01
2.457700000000000173e+01 4.147999999999999687e+00 9.955200000000000671e+01 8.186176000000000386e+01 -1.822764372992501936e-01
2.458099999999999952e+01 2.771999999999999797e+00 7.074699999999999989e+01 2.132741999999999971e-01 -1.830008790661124263e-01
2.458200000000000074e+01 -9.798999999999999488e+00 9.030500000000000682e+01 2.901114000000000193e+00 -3.152637163084770489e-01
2.458399999999999963e+01 -1.558200000000000074e+01 1.062699999999999960e+02 2.554942000000000135e+01 -2.989649978501529581e-01
2.459299999999999997e+01 -2.038800000000000168e+01 7.789400000000000546e+01 9.975190999999999919e-01 -3.622983529301389560e-01
2.459400000000000119e+01 4.500200000000000422e+00 7.784300000000000352e+01 -2.233104000000000156e+01 -1.823833820130368599e-01
2.459400000000000119e+01 -1.730799999999999983e+01 9.056399999999999295e+01 5.043069000000000024e-01 -3.115702846559776917e-01
2.459499999999999886e+01 -6.407000000000000028e+00 7.132200000000000273e+01 -1.460679999999999978e+01 -2.826808475429183898e-01
2.459600000000000009e+01 -9.331099999999999284e+00 1.041099999999999994e+02 -2.079667999999999850e+01 -3.000975601239998514e-01
2.459799999999999898e+01 4.110400000000000165e-01 9.888599999999999568e+01 1.615040000000000120e+01 -3.018636839418512574e-01
2.459799999999999898e+01 -1.415900000000000070e+01 1.124000000000000057e+02 -1.386354000000000042e+01 -2.986888494671223193e-01
2.459900000000000020e+01 -1.836499999999999844e+01 1.127500000000000000e+02 1.518091000000000079e+01 -3.528701529561616423e-01
2.460000000000000142e+01 -1.454700000000000060e+01 1.040699999999999932e+02 -9.801209999999999312e+00 -2.993551759082558328e-01
2.460300000000000153e+01 -1.038700000000000045e+01 8.879900000000000659e+01 -1.962061999999999973e+00 -3.143264979946113202e-01
2.460399999999999920e+01 -7.905000000000000249e+00 1.075600000000000023e+02 -6.719230000000000302e+01 -2.998547475147720909e-01
2.460600000000000165e+01 -1.136400000000000077e+01 1.146800000000000068e+02 -4.658706999999999709e+00 -2.988759085841617980e-01
2.460600000000000165e+01 -9.887999999999999901e+00 1.153599999999999994e+02 -4.589968999999999966e+00 -2.989946017226038921e-01
2.460699999999999932e+01 7.281799999999999606e+00 8.093500000000000227e+01 -6.884953999999999574e+00 -1.808864735503978582e-01
2.460900000000000176e+01 2.681299999999999795e+00 9.455599999999999739e+01 9.247621999999999787e+00 -1.831082334164162995e-01
2.460900000000000176e+01 2.681299999999999795e+00 9.682099999999999795e+01 1.318723999999999918e+01 -1.825354623462848436e-01
2.460999999999999943e+01 1.348100000000000076e+00 7.155899999999999750e+01 -7.027662999999999549e-01 -7.516597781339716400e-02
2.461899999999999977e+01 4.255399999999999849e+00 7.868699999999999761e+01 -2.922793000000000063e+01 -1.823464531422503421e-01
2.461899999999999977e+01 -1.700000000000000000e+01 1.024200000000000017e+02 -3.183509000000000100e+01 -2.991789444888087179e-01
2.461899999999999977e+01 -1.613400000000000034e+01 1.024200000000000017e+02 -2.298969999999999914e+01 -2.993163512196137521e-01
2.462000000000000099e+01 -1.220500000000000007e+01 7.406499999999999773e+01 -8.313251000000000390e-01 -2.598341548274605284e-01
2.462699999999999889e+01 -1.301399999999999935e+01 1.004599999999999937e+02 -6.738838999999999579e+00 -3.000970086544839655e-01
2.462699999999999889e+01 -1.280499999999999972e+01 9.972899999999999920e+01 -5.405361000000000082e+00 -3.002478334056742915e-01
2.462800000000000011e+01 -9.429100000000000037e+00 1.013799999999999955e+02 -1.026521999999999935e+01 -3.004832334891159307e-01
2.462800000000000011e+01 -9.220000000000000639e+00 1.006500000000000057e+02 -5.160732999999999571e+00 -3.006280818334475247e-01
2.462800000000000011e+01 -1.228999999999999915e+01 9.283400000000000318e+01 -1.579734000000000016e+01 -3.143728932659181630e-01
2.462900000000000134e+01 7.084999999999999964e+00 8.592799999999999727e+01 2.254611999999999838e+01 -1.802966655372919280e-01
