5.281499999999999773e+01 8.947299999999999898e+01 -1.082999999999999972e+02 -7.634027999999999814e+00 -4.912522766063102952e-02
5.282800000000000296e+01 8.798399999999999466e+01 -8.619799999999999329e+01 -6.408788000000000373e+00 -7.072536438155004046e-02
5.282800000000000296e+01 8.927700000000000102e+01 -8.547700000000000387e+01 -8.465751000000000204e+01 -7.164846214903346222e-02
5.282800000000000296e+01 9.056999999999999318e+01 -8.619799999999999329e+01 -6.373163000000000267e+01 -7.314701705887415029e-02
5.282800000000000296e+01 9.079699999999999704e+01 -8.699699999999999989e+01 -6.538674000000000319e+01 -7.354375993546506673e-02
5.282800000000000296e+01 9.100600000000000023e+01 -8.773300000000000409e+01 -1.213095999999999997e+01 -7.385941760680803103e-02
5.283299999999999841e+01 1.137199999999999989e+02 -7.577599999999999625e+01 -1.023597999999999963e+01 -9.305163082378804795e-02
5.283899999999999864e+01 7.871899999999999409e+01 -1.001800000000000068e+02 2.155564000000000036e+01 -6.776804129710564673e-02
5.284100000000000108e+01 1.052500000000000000e+02 -8.840300000000000580e+01 -1.816590000000000060e+01 -4.642160138087099430e-02
5.284199999999999875e+01 9.771099999999999852e+01 -1.030900000000000034e+02 1.963718000000000075e+00 -4.664960750240591814e-02
5.284400000000000119e+01 1.022500000000000000e+02 -9.301699999999999591e+01 7.895438000000000178e-01 -4.753407222444559765e-02
5.285799999999999699e+01 8.621299999999999386e+01 -1.064300000000000068e+02 5.898839999999999861e+00 -5.089915634946871881e-02
5.285999999999999943e+01 9.812800000000000011e+01 -8.178100000000000591e+01 -2.862111000000000072e+00 -6.963838656363216528e-02
5.285999999999999943e+01 9.812800000000000011e+01 -7.903100000000000591e+01 6.200164000000000009e+00 -8.410013593447546176e-02
5.286099999999999710e+01 1.075999999999999943e+02 -7.482699999999999818e+01 1.686210000000000164e+01 1.170417529317045180e-01
5.286099999999999710e+01 8.068200000000000216e+01 -9.822100000000000364e+01 2.533900000000000041e+00 -6.835619358492042719e-02
5.286699999999999733e+01 9.564499999999999602e+01 -9.764100000000000534e+01 7.924729000000000356e-01 -5.091336600346799829e-02
5.287299999999999756e+01 8.505599999999999739e+01 -8.937500000000000000e+01 6.706623999999999697e+00 -6.942375288603394590e-02
5.287700000000000244e+01 7.553300000000000125e+01 -9.328700000000000614e+01 -3.485768000000000200e-01 -6.590024324230212005e-02
5.287700000000000244e+01 7.553300000000000125e+01 -9.158700000000000330e+01 2.480736999999999970e+00 -6.556663356905478857e-02
5.288199999999999790e+01 8.099399999999999977e+01 -9.890200000000000102e+01 3.097729000000000177e+00 -6.850605213276018957e-02
5.289500000000000313e+01 1.020699999999999932e+02 -1.027199999999999989e+02 4.873389000000000415e+00 -1.528386381926998827e-01
5.289600000000000080e+01 1.152399999999999949e+02 -7.585399999999999920e+01 2.193503000000000114e+01 -3.028001313232093206e-01
5.289800000000000324e+01 1.165300000000000011e+02 -8.479399999999999693e+01 -7.783942999999999834e-01 -2.884859803249387733e-01
5.289800000000000324e+01 1.165300000000000011e+02 -8.374399999999999977e+01 -1.796743999999999897e+00 -2.867786635189373268e-01
5.289999999999999858e+01 8.500100000000000477e+01 -1.054699999999999989e+02 -2.704140999999999906e+00 -5.162198029186047116e-02
5.290100000000000335e+01 1.181899999999999977e+02 -7.736899999999999977e+01 1.910142000000000095e+01 -3.765085166443443709e-01
5.290400000000000347e+01 1.040400000000000063e+02 -8.917799999999999727e+01 1.708721999999999852e+01 -4.823325325093076599e-02
5.291100000000000136e+01 1.148799999999999955e+02 -8.035999999999999943e+01 1.183793999999999969e+01 -2.943388796916828754e-01
5.291400000000000148e+01 8.260399999999999920e+01 -1.039599999999999937e+02 -1.286982999999999988e+00 -5.285847345088910687e-02
5.291400000000000148e+01 8.379500000000000171e+01 -1.046200000000000045e+02 -3.823417000000000066e+00 -5.229227622512574308e-02
5.291700000000000159e+01 7.872599999999999909e+01 -1.028499999999999943e+02 -5.039655999999999914e+00 -5.400873409064289865e-02
5.292000000000000171e+01 8.037900000000000489e+01 -9.752100000000000080e+01 6.350327999999999529e-01 -6.818242106286664939e-02
5.292000000000000171e+01 9.564000000000000057e+01 -8.755299999999999727e+01 6.643450999999999773e+00 -6.195773665174719724e-02
5.292199999999999704e+01 1.173900000000000006e+02 -7.566400000000000148e+01 8.247522999999999271e+00 -2.603495113483996759e-01
5.292499999999999716e+01 1.068100000000000023e+02 -8.598300000000000409e+01 -5.089415999999999940e+00 -4.478583476840206773e-02
5.292600000000000193e+01 1.046800000000000068e+02 -9.156000000000000227e+01 1.216727000000000025e+01 -4.435863180132169903e-02
5.292600000000000193e+01 1.046800000000000068e+02 -9.051000000000000512e+01 8.011613000000000540e+00 -4.524988445440560059e-02
5.292600000000000193e+01 1.004099999999999966e+02 -1.028599999999999994e+02 1.865978000000000137e+01 -1.526865845768995422e-01
5.292699999999999960e+01 1.060100000000000051e+02 -7.443600000000000705e+01 6.430290000000000283e+00 -1.202344507887253694e-01
5.292699999999999960e+01 1.069399999999999977e+02 -7.443600000000000705e+01 1.075097000000000058e+01 -1.228620080685881993e-01
5.292799999999999727e+01 1.022099999999999937e+02 -9.994100000000000250e+01 -3.140609999999999791e-01 -1.525589292877914671e-01
5.292799999999999727e+01 9.399800000000000466e+01 -1.023599999999999994e+02 -6.493765999999999428e-02 -4.926437896240581926e-02
5.292799999999999727e+01 8.622599999999999909e+01 -8.867000000000000171e+01 -3.419979999999999798e+00 -7.001646409173598040e-02
5.293200000000000216e+01 9.554699999999999704e+01 -1.022800000000000011e+02 8.005613999999999564e+00 -4.835979455720048475e-02
5.293200000000000216e+01 9.641200000000000614e+01 -1.022800000000000011e+02 1.341269999999999918e+01 -4.779410506794375124e-02
5.293599999999999994e+01 1.173499999999999943e+02 -7.842799999999999727e+01 9.702433999999999781e-01 -3.781850393636564389e-01
5.293599999999999994e+01 8.658199999999999363e+01 -8.793800000000000239e+01 -8.215058000000000860e+00 -7.008769490290463200e-02
5.293599999999999994e+01 8.703199999999999648e+01 -1.077500000000000000e+02 -2.973596999999999824e+00 -5.012582041267173855e-02
5.294200000000000017e+01 1.151500000000000057e+02 -8.571500000000000341e+01 -7.772767999999999899e-01 -1.533205649797201309e-01
5.294200000000000017e+01 1.151500000000000057e+02 -8.282299999999999329e+01 1.288057000000000007e+00 -1.512050155075840840e-01
5.294299999999999784e+01 9.701699999999999591e+01 -9.728400000000000603e+01 3.422196000000000016e+00 -5.002828704210260380e-02
5.294400000000000261e+01 9.234199999999999875e+01 -8.365099999999999625e+01 -8.796931000000000722e+00 -7.437680073358786392e-02
5.294400000000000261e+01 9.234199999999999875e+01 -8.213100000000000023e+01 -2.306335999999999942e+01 -7.364240449880951611e-02
5.294400000000000261e+01 9.328199999999999648e+01 -8.365099999999999625e+01 -2.129351000000000127e+01 -7.568354352158683518e-02
5.294400000000000261e+01 9.328199999999999648e+01 -8.213100000000000023e+01 -6.238065999999999889e+01 -7.503199671866096765e-02
5.294800000000000040e+01 7.516400000000000148e+01 -9.243699999999999761e+01 1.504407999999999967e+00 -6.560764578080126308e-02
5.295199999999999818e+01 1.162399999999999949e+02 -7.936299999999999955e+01 1.334247000000000050e+01 -2.852664353479605341e-01
5.295400000000000063e+01 9.532999999999999829e+01 -8.813400000000000034e+01 5.794732999999999912e+00 -6.138984810585208785e-02
5.296099999999999852e+01 1.056700000000000017e+02 -8.674099999999999966e+01 -5.058230000000000004e+00 -4.740662155082614460e-02
5.296200000000000330e+01 7.652299999999999613e+01 -9.147899999999999920e+01 5.360782999999999632e+00 -6.586047282237715572e-02
5.296200000000000330e+01 1.043499999999999943e+02 -8.987800000000000011e+01 4.199468000000000245e+01 -4.655509238063026967e-02
5.296200000000000330e+01 1.043499999999999943e+02 -8.847799999999999443e+01 5.316860000000000142e+00 -4.835602368966365749e-02
5.296800000000000352e+01 1.046500000000000057e+02 -7.597100000000000364e+01 -2.389050999999999902e+01 -9.952740621993112768e-02
5.296900000000000119e+01 1.115000000000000000e+02 -8.312900000000000489e+01 3.853070000000000217e+00 -1.481411049023836635e-01
5.296999999999999886e+01 1.032999999999999972e+02 -9.248099999999999454e+01 4.451390000000000069e-01 -4.610801204316510027e-02
5.296999999999999886e+01 1.056599999999999966e+02 -8.764900000000000091e+01 -2.104606000000000066e+01 -4.597439753336299978e-02
5.298199999999999932e+01 9.874899999999999523e+01 -8.582299999999999329e+01 1.037023000000000028e+00 -6.406304107386653901e-02
5.298400000000000176e+01 9.982399999999999807e+01 -7.894799999999999329e+01 -6.267558000000000185e+00 -8.995652241340061639e-02
5.299399999999999977e+01 1.079599999999999937e+02 -9.194700000000000273e+01 -7.818461000000000105e+00 -1.520604532924120789e-01
5.299399999999999977e+01 1.079599999999999937e+02 -9.100700000000000500e+01 -1.271491999999999933e+01 -1.517762363016803007e-01
5.299399999999999977e+01 1.104200000000000017e+02 -9.194700000000000273e+01 -2.897177999999999898e+01 -1.527999498286613245e-01
5.299699999999999989e+01 8.011599999999999966e+01 -1.037099999999999937e+02 1.340568999999999988e+01 -5.342937185314856896e-02
5.300099999999999767e+01 1.158100000000000023e+02 -7.581999999999999318e+01 -1.294275000000000064e+00 -2.913934532081893236e-01
5.300099999999999767e+01 9.584799999999999898e+01 -9.658400000000000318e+01 3.018829999999999902e+00 -5.142197210865475515e-02
5.300099999999999767e+01 9.671299999999999386e+01 -9.798399999999999466e+01 6.504572999999999716e+00 -4.976316282155143073e-02
5.300500000000000256e+01 9.168800000000000239e+01 -1.061099999999999994e+02 -2.484725999999999857e+01 -4.887642574358420228e-02
5.300500000000000256e+01 9.076800000000000068e+01 -1.052900000000000063e+02 7.148599000000000103e+01 -4.959339076850301231e-02
5.300699999999999790e+01 1.094699999999999989e+02 -8.831799999999999784e+01 -2.336148999999999987e+01 -1.511764840997791848e-01
5.300699999999999790e+01 1.109899999999999949e+02 -8.831799999999999784e+01 -4.088239999999999696e+01 -1.517980332365127527e-01
5.300699999999999790e+01 9.201300000000000523e+01 -8.289100000000000534e+01 -3.520407999999999760e+01 -7.355879212322222194e-02
5.300699999999999790e+01 9.361100000000000421e+01 -8.289100000000000534e+01 -4.216418999999999784e+01 -7.585074859873321140e-02
5.301500000000000057e+01 9.813800000000000523e+01 -8.626000000000000512e+01 1.267843000000000053e+01 -6.352520359392511973e-02
5.301800000000000068e+01 9.999899999999999523e+01 -8.419799999999999329e+01 -1.021519999999999939e+01 -6.648036509591177812e-02
5.301800000000000068e+01 1.002099999999999937e+02 -8.346200000000000330e+01 -1.843982000000000099e+01 -6.769581986990536038e-02
5.302000000000000313e+01 7.996099999999999852e+01 -1.006599999999999966e+02 -4.194876000000000005e+01 -6.817829798200494840e-02
5.302600000000000335e+01 9.275000000000000000e+01 -1.098400000000000034e+02 1.273517000000000010e+01 -4.726297946469741607e-02
5.303300000000000125e+01 1.091899999999999977e+02 -9.276999999999999602e+01 -9.535655999999999466e+00 -1.526065124844137866e-01
5.303499999999999659e+01 1.139500000000000028e+02 -8.039000000000000057e+01 2.479239000000000104e+01 -2.998408790900491394e-01
5.303699999999999903e+01 9.489600000000000080e+01 -8.952599999999999625e+01 5.882759000000000071e+00 -5.982037235505199835e-02
5.303799999999999670e+01 1.031899999999999977e+02 -7.612099999999999511e+01 -1.762997999999999976e+01 -9.300126682799235434e-02
5.303999999999999915e+01 9.265500000000000114e+01 -1.015799999999999983e+02 -1.748523000000000049e+00 -5.032397112593080257e-02
5.304099999999999682e+01 1.137500000000000000e+02 -8.482699999999999818e+01 8.578179999999999694e-01 -1.514586795938856478e-01
5.304299999999999926e+01 1.060100000000000051e+02 -7.292100000000000648e+01 4.396728000000000414e+00 -2.725705945097186556e-01
5.304399999999999693e+01 9.014600000000000080e+01 -1.045100000000000051e+02 -3.159155000000000157e-01 -5.015918567851270632e-02
5.305499999999999972e+01 1.130400000000000063e+02 -7.762999999999999545e+01 8.994547000000000736e+00 -6.778555522740967176e-02
5.305599999999999739e+01 8.109399999999999409e+01 -9.989700000000000557e+01 1.185660000000000025e+01 -5.471899843344944780e-02
5.305899999999999750e+01 9.175799999999999557e+01 -9.116899999999999693e+01 -2.734948999999999852e+00 -5.878480418693147330e-02
5.306000000000000227e+01 1.110600000000000023e+02 -7.872700000000000387e+01 -3.958950999999999998e-01 -6.949611105550251855e-02
5.306000000000000227e+01 1.119200000000000017e+02 -7.872700000000000387e+01 1.303726999999999947e+01 -6.598542699688547675e-02
5.306199999999999761e+01 1.109899999999999949e+02 -9.094199999999999307e+01 -2.155810999999999922e+01 -1.527365988750173376e-01
5.307200000000000273e+01 9.136100000000000421e+01 -1.091299999999999955e+02 -6.693920999999999566e+00 -4.802366535706827089e-02
5.307200000000000273e+01 9.288100000000000023e+01 -1.066700000000000017e+02 -8.390084000000000231e+01 -4.809714222668627637e-02
5.307500000000000284e+01 7.689499999999999602e+01 -9.392600000000000193e+01 -1.042059000000000069e+01 -6.643140730247748538e-02
5.307900000000000063e+01 9.499099999999999966e+01 -1.023799999999999955e+02 5.557260000000000311e+00 -4.857557948190098507e-02
5.308100000000000307e+01 9.998999999999999488e+01 -8.257099999999999795e+01 -4.366775999999999769e+00 -6.900650889027595825e-02
5.308100000000000307e+01 7.817700000000000671e+01 -9.467700000000000671e+01 -6.744093999999999589e+00 -6.700628978901915223e-02
5.308899999999999864e+01 9.170399999999999352e+01 -1.015600000000000023e+02 9.338922000000000168e+00 -5.079608717725997424e-02
5.310099999999999909e+01 7.824500000000000455e+01 -9.141500000000000625e+01 -1.791892999999999958e+00 -6.644815185873180485e-02
5.310699999999999932e+01 1.092000000000000028e+02 -7.741500000000000625e+01 -1.978787000000000162e+01 1.463337913889527775e-01
5.310999999999999943e+01 9.415699999999999648e+01 -9.081399999999999295e+01 9.667635000000000645e+00 -5.838996708414064679e-02
5.311299999999999955e+01 9.149399999999999977e+01 -8.836299999999999955e+01 -4.443291999999999575e+00 -6.021748784781013469e-02
5.311299999999999955e+01 9.174800000000000466e+01 -8.925700000000000500e+01 -4.506780000000000008e+00 -5.977349569573062876e-02
5.311599999999999966e+01 9.749399999999999977e+01 -9.701200000000000045e+01 -2.473254999999999981e+00 -4.965977659187926357e-02
5.311699999999999733e+01 9.206199999999999761e+01 -9.186899999999999977e+01 -1.033010999999999946e+01 -5.816682206475359829e-02
5.311699999999999733e+01 9.292700000000000671e+01 -9.186899999999999977e+01 -1.050487000000000037e+01 -5.776283885649820954e-02
5.311899999999999977e+01 8.226600000000000534e+01 -9.037500000000000000e+01 2.631642999999999954e+00 -6.799776057743320279e-02
5.311899999999999977e+01 8.371200000000000330e+01 -8.956900000000000261e+01 2.909668999999999883e+01 -6.858951765221202312e-02
5.313400000000000034e+01 9.521200000000000330e+01 -9.834099999999999397e+01 2.270578000000000041e-01 -5.055347419574802992e-02
5.313400000000000034e+01 9.607800000000000296e+01 -9.834099999999999397e+01 5.976577999999999946e+00 -4.992411000413608801e-02
5.313499999999999801e+01 9.537000000000000455e+01 -1.015000000000000000e+02 1.650649999999999906e+01 -4.870151190668664531e-02
5.313499999999999801e+01 1.084399999999999977e+02 -7.483599999999999852e+01 4.776780999999999722e+00 1.292077886212734394e-01
5.313600000000000279e+01 1.030300000000000011e+02 -7.969799999999999329e+01 -8.990861000000000658e+00 -7.727838004992189369e-02
5.313600000000000279e+01 1.030300000000000011e+02 -7.883299999999999841e+01 -1.841420000000000101e+01 -8.035675691060152614e-02
5.314600000000000080e+01 8.168300000000000693e+01 -9.694799999999999329e+01 5.627667999999999893e+00 -6.861630139674364248e-02
5.314999999999999858e+01 7.967900000000000205e+01 -9.688599999999999568e+01 2.642669999999999741e-01 -6.781728354128446767e-02
5.315200000000000102e+01 9.482399999999999807e+01 -9.744400000000000261e+01 -1.356745000000000090e+00 -5.141556426698697807e-02
5.315800000000000125e+01 1.085100000000000051e+02 -8.461199999999999477e+01 -1.483088000000000051e+01 -3.828836999014297027e-02
5.316799999999999926e+01 9.112800000000000011e+01 -1.059899999999999949e+02 3.179739000000000093e+00 -4.909670486516187066e-02
5.317000000000000171e+01 1.127000000000000028e+02 -8.170300000000000296e+01 4.097164000000000073e+01 -3.020125294379404357e-01
5.317099999999999937e+01 1.016899999999999977e+02 -9.954099999999999682e+01 1.006110999999999933e+01 -4.429759305511273004e-02
5.317300000000000182e+01 1.070999999999999943e+02 -7.401200000000000045e+01 3.041316000000000130e+00 -1.239146349314376588e-01
5.317399999999999949e+01 9.719100000000000250e+01 -9.631199999999999761e+01 -1.016377000000000086e+00 -5.037586525781493491e-02
5.317699999999999960e+01 8.107299999999999329e+01 -9.758400000000000318e+01 2.190923000000000176e+00 -6.840630971119215920e-02
5.318399999999999750e+01 1.017099999999999937e+02 -8.052400000000000091e+01 -5.125528000000000084e+00 -7.391914795463419563e-02
5.318500000000000227e+01 9.760299999999999443e+01 -8.093099999999999739e+01 -2.464212999999999987e+00 -8.297749642222998490e-02
5.318500000000000227e+01 9.760299999999999443e+01 -7.988100000000000023e+01 -4.746250999999999998e+00 -8.255844541512966095e-02
5.318599999999999994e+01 9.293000000000000682e+01 -1.092099999999999937e+02 4.229325000000000223e+00 -4.728080379248154885e-02
5.319299999999999784e+01 1.102500000000000000e+02 -8.406399999999999295e+01 3.616036999999999724e-02 -1.483958447159032246e-01
5.319500000000000028e+01 1.065100000000000051e+02 -7.373600000000000421e+01 2.695663000000000142e+00 -1.263072504027474008e-01
5.320400000000000063e+01 9.174099999999999966e+01 -8.993399999999999750e+01 -1.966726999999999892e+00 -5.932505311097774348e-02
5.320499999999999829e+01 7.970499999999999829e+01 -9.186199999999999477e+01 -7.731300000000000061e+00 -6.710440679888955706e-02
5.321300000000000097e+01 8.125900000000000034e+01 -9.135500000000000398e+01 2.340273999999999965e+00 -6.768890303431285282e-02
5.321999999999999886e+01 1.025900000000000034e+02 -1.018700000000000045e+02 1.495768999999999949e+01 -1.527998318840334546e-01
5.321999999999999886e+01 1.025900000000000034e+02 -1.008199999999999932e+02 3.550247999999999848e+01 -1.526893238669740360e-01
5.322099999999999653e+01 1.074399999999999977e+02 -8.553100000000000591e+01 -4.239500999999999742e+00 -4.184743240315724755e-02
5.322099999999999653e+01 7.931000000000000227e+01 -9.603600000000000136e+01 -1.539773000000000058e+00 -6.757654878579968938e-02
5.322399999999999665e+01 8.757800000000000296e+01 -1.085300000000000011e+02 -3.417210999999999999e+00 -4.957475430909872444e-02
5.322599999999999909e+01 8.705200000000000671e+01 -8.717799999999999727e+01 -3.212474000000000274e+01 -7.011278128619904959e-02
5.322699999999999676e+01 1.128900000000000006e+02 -7.808799999999999386e+01 1.184791000000000061e+01 -6.235755921811370062e-02
5.322800000000000153e+01 1.061099999999999994e+02 -8.604099999999999682e+01 2.848789000000000016e+00 -4.630836519315364302e-02
5.322899999999999920e+01 9.897799999999999443e+01 -8.185200000000000387e+01 -2.231723000000000123e+00 -6.933477388776385086e-02
5.322899999999999920e+01 9.897799999999999443e+01 -7.895999999999999375e+01 2.872530999999999946e+00 -8.632178914826169058e-02
5.323199999999999932e+01 1.178299999999999983e+02 -7.765300000000000580e+01 9.742794999999999561e+01 -3.765211223771652849e-01
5.323400000000000176e+01 9.281199999999999761e+01 -8.289100000000000534e+01 -1.746224000000000132e+01 -7.449076793623070347e-02
5.323499999999999943e+01 9.374800000000000466e+01 -1.015199999999999960e+02 7.281478999999999591e-01 -4.963008235326105133e-02
5.323499999999999943e+01 8.871200000000000330e+01 -1.085600000000000023e+02 -8.871430999999999401e+00 -4.916239110031732362e-02
5.324699999999999989e+01 9.017300000000000182e+01 -1.085699999999999932e+02 -8.295175000000000409e+00 -4.860034572171999245e-02
5.324900000000000233e+01 9.918200000000000216e+01 -8.512300000000000466e+01 -4.681036999999999892e+00 -6.464006889036358339e-02
5.325300000000000011e+01 9.452299999999999613e+01 -1.015000000000000000e+02 3.965971000000000135e+00 -4.916424159494221791e-02
5.325500000000000256e+01 1.048199999999999932e+02 -8.771099999999999852e+01 -2.765331999999999901e+00 -4.757166817276058113e-02
5.325600000000000023e+01 1.054000000000000057e+02 -7.374899999999999523e+01 2.615701000000000054e+00 -1.177215746438793065e-01
5.326100000000000279e+01 8.576200000000000045e+01 -1.053599999999999994e+02 -2.650310000000000166e+00 -5.130285601431785331e-02
5.326400000000000290e+01 1.012199999999999989e+02 -1.027900000000000063e+02 4.320196000000000147e+00 -1.527430969314612919e-01
5.326400000000000290e+01 1.068499999999999943e+02 -7.311700000000000443e+01 8.347965000000000302e+00 -1.334881418642695217e-01
5.327000000000000313e+01 7.824899999999999523e+01 -1.022300000000000040e+02 -4.391251999999999711e+00 -6.763823587768735823e-02
5.327000000000000313e+01 7.824899999999999523e+01 -1.007099999999999937e+02 -7.306525999999999854e+00 -6.757095114652654499e-02
5.327199999999999847e+01 1.165799999999999983e+02 -7.585500000000000398e+01 -1.211316000000000059e+01 -2.752949579593085838e-01
5.327799999999999869e+01 1.054200000000000017e+02 -7.466700000000000159e+01 3.078482000000000163e+00 -1.095524822425513883e-01
5.327900000000000347e+01 7.900700000000000500e+01 -9.533599999999999852e+01 -2.597783999999999871e+00 -6.736632928129095144e-02
5.328399999999999892e+01 1.129699999999999989e+02 -8.099399999999999977e+01 9.174858000000000402e+01 -3.028649799273354093e-01
5.328600000000000136e+01 9.504200000000000159e+01 -9.654699999999999704e+01 3.946768000000000054e+00 -5.181494491347088394e-02
5.328999999999999915e+01 1.089200000000000017e+02 -8.926399999999999579e+01 -1.153752000000000066e+01 -1.513521116921497933e-01
5.329599999999999937e+01 1.014200000000000017e+02 -9.606799999999999784e+01 1.443125000000000036e+01 -4.598508875522368256e-02
5.329599999999999937e+01 1.015300000000000011e+02 -9.522100000000000364e+01 5.699317999999999884e+00 -4.634976924162222123e-02
5.329699999999999704e+01 1.051099999999999994e+02 -7.292100000000000648e+01 6.525104999999999933e+00 -2.489089210643470607e-01
5.329699999999999704e+01 1.114599999999999937e+02 -9.001800000000000068e+01 -8.373625000000000540e+00 -1.526187480147165876e-01
5.329699999999999704e+01 1.114599999999999937e+02 -8.907800000000000296e+01 -2.635479000000000127e+01 -1.522809013044428839e-01
5.329699999999999704e+01 8.028799999999999670e+01 -9.186400000000000432e+01 -1.323479999999999990e+00 -6.733163664744658272e-02
5.329800000000000182e+01 8.851699999999999591e+01 -8.576699999999999591e+01 -1.098009000000000057e+01 -7.082287482655838518e-02
5.329800000000000182e+01 9.003700000000000614e+01 -8.576699999999999591e+01 -4.581071000000000026e+01 -7.224410655109748947e-02
5.329800000000000182e+01 9.852400000000000091e+01 -1.032500000000000000e+02 1.802705999999999920e+00 -4.573202811784660843e-02
5.330100000000000193e+01 8.067199999999999704e+01 -9.690800000000000125e+01 1.874023999999999912e+00 -6.817247310400667559e-02
5.330199999999999960e+01 1.080600000000000023e+02 -7.409199999999999875e+01 6.333254000000000161e+00 -1.136713595213914296e-01
5.330400000000000205e+01 1.166400000000000006e+02 -7.858599999999999852e+01 4.159404000000000323e+00 -2.796830045038272150e-01
5.330499999999999972e+01 1.177999999999999972e+02 -7.650799999999999557e+01 6.969265000000000043e+01 -3.739641717298861079e-01
5.330499999999999972e+01 7.596699999999999875e+01 -9.237999999999999545e+01 -1.118907000000000096e+00 -6.578848373552878548e-02
5.330799999999999983e+01 8.092400000000000659e+01 -1.037900000000000063e+02 2.858922999999999881e+00 -5.313937595916175261e-02
5.331099999999999994e+01 7.638599999999999568e+01 -9.320000000000000284e+01 -5.011093999999999937e+00 -6.608418752200354018e-02
5.331199999999999761e+01 9.095300000000000296e+01 -1.016500000000000057e+02 -8.042118000000000322e-01 -5.099081757678874949e-02
5.331199999999999761e+01 8.129600000000000648e+01 -9.620399999999999352e+01 3.622685000000000155e+00 -6.836220711993294674e-02
5.332300000000000040e+01 7.970000000000000284e+01 -9.522100000000000364e+01 1.480549999999999922e-01 -6.761017927134718719e-02
5.332399999999999807e+01 8.066100000000000136e+01 -1.005999999999999943e+02 -3.780156999999999989e+00 -5.445116243295727854e-02
5.332999999999999829e+01 7.918800000000000239e+01 -1.006099999999999994e+02 -2.809124999999999872e+01 -6.786196625147802863e-02
5.333299999999999841e+01 7.792000000000000171e+01 -1.014699999999999989e+02 -1.352581999999999951e+01 -6.749543704470732652e-02
5.333599999999999852e+01 1.102300000000000040e+02 -8.825499999999999545e+01 -2.922413999999999845e+01 -1.513547226591729911e-01
5.333700000000000330e+01 1.100400000000000063e+02 -7.829999999999999716e+01 -5.943723999999999563e+00 -4.335253167891604115e-02
5.334400000000000119e+01 9.610599999999999454e+01 -1.015000000000000000e+02 1.117727999999999966e+01 -4.807617463762679788e-02
5.334899999999999665e+01 1.014000000000000057e+02 -9.434099999999999397e+01 -2.435093999999999870e-01 -4.705127942496609844e-02
5.335000000000000142e+01 9.513599999999999568e+01 -1.006200000000000045e+02 6.891103000000000200e+00 -4.914706395477777545e-02
5.335199999999999676e+01 9.713200000000000500e+01 -1.025799999999999983e+02 5.690274999999999750e+00 -4.691791136689321684e-02
5.335199999999999676e+01 1.007199999999999989e+02 -8.241599999999999682e+01 -1.182959999999999923e+01 -6.887962509093135954e-02
5.335499999999999687e+01 8.241899999999999693e+01 -9.694799999999999329e+01 6.110034999999999883e+00 -6.887993490713630040e-02
5.335699999999999932e+01 1.087900000000000063e+02 -7.620499999999999829e+01 1.444943000000000088e+00 1.426053786542379187e-01
5.335699999999999932e+01 1.089899999999999949e+02 -7.694100000000000250e+01 -2.184540000000000148e+01 1.457031551193219698e-01
5.336099999999999710e+01 8.573499999999999943e+01 -8.906600000000000250e+01 9.077640999999999627e-01 -6.962309164750853097e-02
5.336200000000000188e+01 9.335099999999999909e+01 -1.083700000000000045e+02 -2.096067000000000036e+01 -4.723730009822459108e-02
5.336200000000000188e+01 9.335099999999999909e+01 -1.074300000000000068e+02 -4.221338000000000079e+01 -4.750290797644521334e-02
5.336800000000000210e+01 1.065300000000000011e+02 -7.207099999999999795e+01 3.900313999999999837e+00 -2.750658086806226921e-01
5.337299999999999756e+01 8.139000000000000057e+01 -9.933499999999999375e+01 3.367351000000000205e+00 -5.475690422497153653e-02
5.337400000000000233e+01 1.025999999999999943e+02 -7.790900000000000603e+01 -1.107531999999999961e+01 -8.202384731530348860e-02
5.338100000000000023e+01 1.107699999999999960e+02 -8.344899999999999807e+01 2.279774000000000189e+00 -1.477940676925840191e-01
5.338300000000000267e+01 8.330400000000000205e+01 -1.042199999999999989e+02 -3.678815000000000168e+00 -5.240751636497100602e-02
5.338700000000000045e+01 1.093199999999999932e+02 -8.428700000000000614e+01 -2.628338000000000063e-01 -3.308197019613338258e-02
5.339099999999999824e+01 7.915200000000000102e+01 -1.023100000000000023e+02 -1.240555999999999948e+01 -5.399946430569947664e-02
5.339200000000000301e+01 1.134899999999999949e+02 -7.976399999999999579e+01 1.445234999999999914e+01 -3.043267489089250821e-01
5.339200000000000301e+01 1.143599999999999994e+02 -7.976399999999999579e+01 1.006334000000000017e+01 -2.981058505860437191e-01
5.339200000000000301e+01 1.154099999999999966e+02 -7.976399999999999579e+01 1.348553000000000068e+01 -2.900757016701780988e-01
5.339300000000000068e+01 1.035199999999999960e+02 -8.948499999999999943e+01 1.991725999999999885e+01 -4.799262174838093281e-02
5.340100000000000335e+01 9.212099999999999511e+01 -1.065999999999999943e+02 -2.189139000000000124e+01 -4.832890601486355964e-02
5.340200000000000102e+01 1.013799999999999955e+02 -9.344299999999999784e+01 3.156454999999999789e+00 -4.770404529445470415e-02
5.340200000000000102e+01 9.580299999999999727e+01 -1.008100000000000023e+02 1.138978999999999964e+01 -4.856742827447230182e-02
5.340299999999999869e+01 1.119699999999999989e+02 -8.224800000000000466e+01 1.366238000000000063e+01 -1.467824769829179643e-01
5.340299999999999869e+01 1.025999999999999943e+02 -8.039799999999999613e+01 -3.144162999999999819e+00 -7.386634005278069903e-02
5.340800000000000125e+01 8.144799999999999329e+01 -9.837699999999999534e+01 1.570683999999999969e+00 -6.855268984289866752e-02
5.341100000000000136e+01 1.004099999999999966e+02 -8.311599999999999966e+01 -1.083516000000000012e+01 -6.743258968385043572e-02
5.341100000000000136e+01 1.004099999999999966e+02 -8.171599999999999397e+01 -1.856322999999999945e+00 -6.992055155147634815e-02
5.341299999999999670e+01 8.211599999999999966e+01 -9.764799999999999613e+01 6.395567999999999920e+00 -6.878053219280497177e-02
5.341299999999999670e+01 8.211599999999999966e+01 -9.624800000000000466e+01 4.242092999999999670e+00 -6.868938095363906482e-02
5.341400000000000148e+01 1.125400000000000063e+02 -7.888500000000000512e+01 1.797923000000000116e+01 -3.154074702471326708e-01
5.342300000000000182e+01 1.146299999999999955e+02 -8.511899999999999977e+01 -8.469883000000000273e-01 -1.523702679042134855e-01
5.342300000000000182e+01 1.146299999999999955e+02 -8.341899999999999693e+01 3.805774000000000101e-01 -1.508947622926354870e-01
5.342300000000000182e+01 1.156800000000000068e+02 -8.511899999999999977e+01 -1.852682999999999969e-01 -2.891931160756091024e-01
5.342300000000000182e+01 1.156800000000000068e+02 -8.341899999999999693e+01 7.210851000000000344e-01 -2.864225825015111471e-01
5.343699999999999761e+01 1.143499999999999943e+02 -7.620999999999999375e+01 5.798817999999999806e+00 -3.171179735779030007e-01
5.344200000000000017e+01 7.867799999999999727e+01 -9.481699999999999307e+01 -5.190995000000000026e+00 -6.713923571920654698e-02
5.344500000000000028e+01 8.465399999999999636e+01 -1.049500000000000028e+02 -6.992145999999999972e+00 -5.172330978494053128e-02
5.345100000000000051e+01 1.038299999999999983e+02 -9.188500000000000512e+01 7.387820999999999749e+00 -4.486904414323227008e-02
5.345100000000000051e+01 1.038299999999999983e+02 -9.018500000000000227e+01 1.598765999999999998e+01 -4.640145206505776748e-02
5.345600000000000307e+01 1.114899999999999949e+02 -7.921800000000000352e+01 1.432353999999999949e+01 -6.074263906792979478e-02
5.346399999999999864e+01 1.087199999999999989e+02 -9.223699999999999477e+01 -6.277968000000000437e+00 -1.522862046569826433e-01
5.346399999999999864e+01 1.096599999999999966e+02 -9.223699999999999477e+01 -2.370027999999999935e+01 -1.525685470591275628e-01
5.346900000000000119e+01 9.028300000000000125e+01 -1.017800000000000011e+02 -1.191009999999999902e+00 -5.114878090351833440e-02
5.346999999999999886e+01 1.050799999999999983e+02 -7.518899999999999295e+01 6.026218000000000075e+00 -1.013031108839023836e-01
5.346999999999999886e+01 9.584600000000000364e+01 -1.003100000000000023e+02 1.040634000000000015e+01 -4.873893234933046603e-02
5.347200000000000131e+01 1.054200000000000017e+02 -7.189799999999999613e+01 -9.108656000000000530e-01 -2.475414115194805587e-01
5.347500000000000142e+01 8.020399999999999352e+01 -9.603600000000000136e+01 5.310651000000000010e+00 -6.786981346583091657e-02
5.347699999999999676e+01 8.944599999999999795e+01 -1.033799999999999955e+02 -3.329757000000000033e+01 -5.074071917490283884e-02
5.347699999999999676e+01 8.965500000000000114e+01 -1.026400000000000006e+02 -3.655147000000000190e+01 -5.099628655919080655e-02
5.347999999999999687e+01 9.209699999999999420e+01 -1.092600000000000051e+02 -5.718856999999999857e+00 -4.751353963485575871e-02
5.348799999999999955e+01 8.320600000000000307e+01 -9.676900000000000546e+01 7.775611999999999746e+00 -6.918099416528465662e-02
5.348799999999999955e+01 1.078700000000000045e+02 -8.483100000000000307e+01 -6.305920000000000414e+00 -3.978061015377075404e-02
5.349000000000000199e+01 8.002899999999999636e+01 -1.008599999999999994e+02 -1.084163999999999994e+01 -5.430176895654974245e-02
5.349000000000000199e+01 8.156399999999999295e+01 -1.038799999999999955e+02 -4.058305999999999858e-01 -5.290778817344139739e-02
5.349099999999999966e+01 9.317799999999999727e+01 -1.011200000000000045e+02 3.629914000000000057e-02 -5.000611447535337206e-02
5.349199999999999733e+01 8.426099999999999568e+01 -8.940399999999999636e+01 6.068578999999999724e+00 -6.874805909213926869e-02
5.349399999999999977e+01 1.142600000000000051e+02 -8.426900000000000546e+01 -1.102054000000000089e+00 -1.512836003278031083e-01
5.349399999999999977e+01 1.160499999999999972e+02 -8.426900000000000546e+01 -1.953268999999999922e+00 -2.889986993423371286e-01
5.350000000000000000e+01 1.034500000000000028e+02 -8.870199999999999818e+01 1.424550999999999945e+01 -4.898803844436540322e-02
5.350399999999999778e+01 9.066100000000000136e+01 -1.088599999999999994e+02 -4.546579000000000370e+00 -4.821685720777764417e-02
5.350600000000000023e+01 1.039500000000000028e+02 -7.594700000000000273e+01 -3.876066999999999751e+01 -9.263003108685888276e-02
5.350900000000000034e+01 7.748499999999999943e+01 -9.426300000000000523e+01 -6.462896999999999892e+00 -6.660734073927365717e-02
5.350900000000000034e+01 7.900499999999999545e+01 -9.180299999999999727e+01 -2.174345999999999890e+01 -6.673481314952608989e-02
5.351400000000000290e+01 9.249399999999999977e+01 -9.235999999999999943e+01 -1.242900999999999989e+01 -5.707531317753995748e-02
5.352199999999999847e+01 1.041899999999999977e+02 -9.103499999999999659e+01 7.530027999999999722e+00 -4.471558053435677194e-02
5.352600000000000335e+01 8.021299999999999386e+01 -1.032500000000000000e+02 5.402285000000000004e+00 -5.342122545843138587e-02
5.352600000000000335e+01 9.217700000000000671e+01 -1.010499999999999972e+02 2.598247999999999891e+01 -5.057078943879401989e-02
5.352700000000000102e+01 1.083900000000000006e+02 -9.147700000000000387e+01 -1.468878999999999913e+01 -1.519623127264814189e-01
5.352700000000000102e+01 1.099899999999999949e+02 -9.147700000000000387e+01 -3.869545999999999708e+01 -1.524627578308174192e-01
5.352799999999999869e+01 9.949599999999999511e+01 -8.456799999999999784e+01 -3.648913999999999991e+00 -6.488709330426360722e-02
5.353999999999999915e+01 9.424500000000000455e+01 -1.007099999999999937e+02 1.822734000000000076e+00 -4.955050532980244393e-02
5.354500000000000171e+01 8.956999999999999318e+01 -1.042800000000000011e+02 -9.618636000000000408e+00 -5.026499351795941234e-02
5.354599999999999937e+01 1.026200000000000045e+02 -7.670900000000000318e+01 -4.708211999999999620e+00 -8.544084943319886494e-02
5.354999999999999716e+01 9.136199999999999477e+01 -9.160099999999999909e+01 -7.143348999999999727e+00 -5.815470959263439876e-02
5.354999999999999716e+01 9.136199999999999477e+01 -9.073600000000000421e+01 3.420617000000000019e+00 -5.857603751227739158e-02
5.354999999999999716e+01 9.362699999999999534e+01 -9.160099999999999909e+01 -8.551517999999999731e+00 -5.728072965590771254e-02
5.355100000000000193e+01 8.947299999999999898e+01 -1.085100000000000051e+02 -7.628174999999999706e+00 -4.877234494508443652e-02
5.355199999999999960e+01 1.134200000000000017e+02 -7.893800000000000239e+01 1.644048000000000087e+01 -3.085925805303732505e-01
5.355700000000000216e+01 9.560599999999999454e+01 -9.960500000000000398e+01 2.997294000000000125e+00 -4.921870478954402245e-02
5.356000000000000227e+01 7.871899999999999409e+01 -1.014699999999999989e+02 -3.368059999999999832e+01 -6.770834990220390981e-02
5.356199999999999761e+01 1.086599999999999966e+02 -9.071800000000000352e+01 -1.360305999999999926e+01 -1.517844532251229339e-01
5.356700000000000017e+01 9.451200000000000045e+01 -9.807399999999999807e+01 -4.686195000000000022e+01 -5.088958417239267812e-02
5.357000000000000028e+01 7.748600000000000421e+01 -9.170499999999999829e+01 -1.681730999999999909e+01 -6.612200471820588177e-02
5.357099999999999795e+01 1.008199999999999932e+02 -8.053300000000000125e+01 -9.320433000000000190e-01 -7.205144919503272960e-02
5.357800000000000296e+01 8.052700000000000102e+01 -9.527899999999999636e+01 4.039004000000000261e+00 -6.789311890628131618e-02
5.358500000000000085e+01 1.102999999999999972e+02 -9.077700000000000102e+01 -4.986218000000000217e+01 -1.523527491066780093e-01
5.358599999999999852e+01 8.314499999999999602e+01 -9.621299999999999386e+01 8.273647000000000418e+00 -6.909837463156169590e-02
5.358800000000000097e+01 9.050700000000000500e+01 -8.652700000000000102e+01 -7.308934999999999604e+01 -7.276469744780721116e-02
5.359700000000000131e+01 1.019599999999999937e+02 -9.255200000000000671e+01 -1.280140000000000056e+00 -4.732326220957399493e-02
5.359799999999999898e+01 9.488400000000000034e+01 -8.960299999999999443e+01 7.937104999999999855e+00 -5.905589566952074154e-02
5.360000000000000142e+01 8.098799999999999955e+01 -9.180599999999999739e+01 4.378010999999999875e+00 -6.755434750076354244e-02
5.360099999999999909e+01 9.042799999999999727e+01 -1.057199999999999989e+02 -1.136672000000000082e+01 -4.930677926319789600e-02
5.360199999999999676e+01 8.160599999999999454e+01 -9.542000000000000171e+01 7.002098000000000155e+00 -6.835358823272741358e-02
5.360199999999999676e+01 9.649299999999999500e+01 -8.688500000000000512e+01 3.190109999999999957e+01 -6.185062844985075164e-02
5.360399999999999920e+01 1.009899999999999949e+02 -9.840800000000000125e+01 5.975571999999999662e+00 -4.504881319686730723e-02
5.360399999999999920e+01 1.012000000000000028e+02 -9.767199999999999704e+01 -6.709272999999999598e+00 -4.513138618037902672e-02
5.360699999999999932e+01 9.789100000000000534e+01 -9.744499999999999318e+01 7.258930000000000327e+00 -4.859636357048346261e-02
5.360699999999999932e+01 9.789100000000000534e+01 -9.657999999999999829e+01 1.549685999999999897e+00 -4.915652787914091826e-02
5.360699999999999932e+01 8.002599999999999625e+01 -9.443200000000000216e+01 5.341986999999999597e+00 -6.757488274687153962e-02
5.360900000000000176e+01 1.136500000000000057e+02 -7.812300000000000466e+01 1.750608000000000075e+01 -3.115446381699972234e-01
5.361699999999999733e+01 9.470300000000000296e+01 -9.992400000000000659e+01 -5.718437999999999910e+00 -4.962201523013673454e-02
5.362299999999999756e+01 7.905400000000000205e+01 -9.434300000000000352e+01 -1.493804000000000087e+01 -6.717521227322455213e-02
5.362700000000000244e+01 8.927700000000000102e+01 -8.570399999999999352e+01 -6.418825999999999965e+01 -7.132208516857201086e-02
5.362899999999999778e+01 9.328900000000000148e+01 -9.239100000000000534e+01 -1.288549000000000078e+01 -5.650927768774086785e-02
5.363300000000000267e+01 1.015000000000000000e+02 -9.677700000000000102e+01 2.537885999999999864e+00 -4.516604265779523841e-02
5.363499999999999801e+01 1.138700000000000045e+02 -7.712000000000000455e+01 1.065695999999999977e+01 -3.168554082141422645e-01
5.364200000000000301e+01 9.345199999999999818e+01 -1.007300000000000040e+02 -7.134405000000000330e-01 -4.995681653162656333e-02
5.364399999999999835e+01 8.286199999999999477e+01 -8.989400000000000546e+01 8.595167999999999253e+00 -6.804353235619939322e-02
5.364600000000000080e+01 8.175000000000000000e+01 -9.095799999999999841e+01 -3.151352000000000042e-01 -6.772422451481610595e-02
5.365400000000000347e+01 9.512000000000000455e+01 -8.878900000000000148e+01 2.497914999999999885e+00 -6.005403988438776791e-02
5.365400000000000347e+01 9.527200000000000557e+01 -8.783100000000000307e+01 4.493962999999999930e+00 -6.083701377310503366e-02
5.365599999999999881e+01 1.089699999999999989e+02 -9.030700000000000216e+01 -1.824104000000000170e+01 -1.517158947957896464e-01
5.365800000000000125e+01 8.532899999999999352e+01 -1.048700000000000045e+02 -1.091710999999999920e+01 -5.147653642737213403e-02
5.365800000000000125e+01 9.675100000000000477e+01 -1.017000000000000028e+02 1.676870999999999867e+01 -4.733401843228214612e-02
5.366100000000000136e+01 1.056200000000000045e+02 -8.643800000000000239e+01 9.240536000000000305e-01 -4.598923780227485991e-02
5.366100000000000136e+01 1.068100000000000023e+02 -8.577400000000000091e+01 -9.378262000000000542e-01 -4.253544642378583041e-02
5.366400000000000148e+01 1.035600000000000023e+02 -8.795900000000000318e+01 1.944829000000000008e+01 -4.949679490536988691e-02
5.366799999999999926e+01 1.047900000000000063e+02 -8.717199999999999704e+01 -1.083358999999999961e+00 -4.742871552995036460e-02
5.366899999999999693e+01 1.112399999999999949e+02 -8.269599999999999795e+01 5.487433000000000227e+00 -1.467500824725479214e-01
5.367900000000000205e+01 1.152399999999999949e+02 -7.619899999999999807e+01 1.062296000000000085e+01 -2.977408735044957400e-01
5.367900000000000205e+01 9.658199999999999363e+01 -1.003100000000000023e+02 1.896871000000000151e+01 -4.805999070586434996e-02
5.368299999999999983e+01 9.547499999999999432e+01 -9.605599999999999739e+01 9.883088000000000761e+00 -5.153968665410187111e-02
5.369400000000000261e+01 8.646200000000000330e+01 -1.056299999999999955e+02 3.609913999999999845e+00 -5.080242678696712810e-02
5.369599999999999795e+01 8.503499999999999659e+01 -8.912500000000000000e+01 3.438166999999999973e+00 -6.907636745417791713e-02
5.369599999999999795e+01 8.619400000000000261e+01 -8.834600000000000364e+01 -4.067211999999999605e+00 -6.963176610841945169e-02
5.369599999999999795e+01 8.651900000000000546e+01 -8.760899999999999466e+01 -2.144326999999999828e+01 -6.965697660541374236e-02
5.369700000000000273e+01 8.394199999999999307e+01 -9.676900000000000546e+01 7.905040999999999762e+00 -5.546268062522315134e-02
5.369700000000000273e+01 9.112999999999999545e+01 -1.087999999999999972e+02 -6.148568000000000033e+00 -4.796379524075146394e-02
5.369899999999999807e+01 1.124500000000000028e+02 -8.147299999999999898e+01 1.056547000000000054e+02 -3.030320186805673388e-01
5.370000000000000284e+01 1.080199999999999960e+02 -7.358100000000000307e+01 6.436868000000000034e-01 -1.073024732245022594e-01
5.370100000000000051e+01 9.698099999999999454e+01 -9.841700000000000159e+01 1.667460000000000164e+01 -4.872579019075275880e-02
5.370700000000000074e+01 9.482099999999999795e+01 -9.048799999999999955e+01 5.198380000000000223e+01 -5.775049184543975395e-02
5.371000000000000085e+01 9.845300000000000296e+01 -8.125600000000000023e+01 -5.085352999999999568e+00 -6.875555652277832996e-02
5.371000000000000085e+01 9.845300000000000296e+01 -7.955599999999999739e+01 1.723479000000000028e+01 -8.405500939894761103e-02
5.371000000000000085e+01 9.950300000000000011e+01 -7.955599999999999739e+01 -7.784633999999999610e+00 -7.238911515651366702e-02
5.371099999999999852e+01 1.170600000000000023e+02 -7.639900000000000091e+01 5.133823999999999721e+00 -2.651810448933122899e-01
5.371600000000000108e+01 9.644700000000000273e+01 -1.010000000000000000e+02 1.891713000000000022e+01 -4.781370028862495791e-02
5.371800000000000352e+01 1.011500000000000057e+02 -9.308799999999999386e+01 3.156454999999999789e+00 -4.791406541739039182e-02
5.371900000000000119e+01 9.101600000000000534e+01 -8.784999999999999432e+01 -6.746978000000000364e+00 -7.344032051060855881e-02
5.372500000000000142e+01 1.060699999999999932e+02 -7.144499999999999318e+01 -2.616077000000000208e+00 -2.452431415302767093e-01
5.372599999999999909e+01 9.848900000000000432e+01 -8.575300000000000011e+01 3.152896999999999839e+00 -6.301673539001829971e-02
5.373400000000000176e+01 8.625600000000000023e+01 -1.003100000000000023e+02 -2.636277999999999899e+00 -5.331529985425249862e-02
5.373799999999999955e+01 8.774399999999999977e+01 -8.676399999999999579e+01 -2.891271000000000058e+01 -7.030337053930922619e-02
5.374000000000000199e+01 8.632099999999999795e+01 -1.010199999999999960e+02 -2.376088999999999896e+00 -5.291427855399614272e-02
5.374300000000000210e+01 8.815399999999999636e+01 -1.090100000000000051e+02 -5.601954000000000100e+00 -4.903288062637214950e-02
5.374399999999999977e+01 9.062999999999999545e+01 -8.712399999999999523e+01 -1.903776999999999830e+01 -7.293365628593731498e-02
5.374499999999999744e+01 1.017399999999999949e+02 -1.021899999999999977e+02 2.051944000000000212e+00 -1.527167691384902493e-01
5.374799999999999756e+01 1.151500000000000057e+02 -8.426900000000000546e+01 -6.692515999999999465e-01 -1.522043423276965290e-01
5.374900000000000233e+01 9.424099999999999966e+01 -9.678600000000000136e+01 6.595921999999999841e+00 -5.182777870891275285e-02
5.375399999999999778e+01 1.091899999999999977e+02 -9.147700000000000387e+01 -8.961565000000000225e+00 -1.521691370833791190e-01
5.375500000000000256e+01 9.645999999999999375e+01 -9.939900000000000091e+01 2.822413999999999845e+01 -4.855627276386104141e-02
5.375500000000000256e+01 8.277299999999999613e+01 -9.746899999999999409e+01 6.678276000000000323e+00 -5.515840356517232035e-02
5.375500000000000256e+01 8.363899999999999579e+01 -9.746899999999999409e+01 7.563680999999999877e+00 -5.523380912040515289e-02
5.375800000000000267e+01 1.045900000000000034e+02 -7.242300000000000182e+01 -1.866433999999999926e+00 -2.284900539922304907e-01
5.375999999999999801e+01 1.107900000000000063e+02 -7.915999999999999659e+01 6.745745000000000324e+00 -2.164829983754271506e-02
5.376100000000000279e+01 1.141500000000000057e+02 -7.893800000000000239e+01 5.332984999999999864e+00 -3.016759628888081024e-01
5.376700000000000301e+01 1.107000000000000028e+02 -9.030800000000000693e+01 -1.884584999999999866e+01 -1.523247542402930421e-01
5.376700000000000301e+01 1.107000000000000028e+02 -8.878799999999999670e+01 -2.997400999999999982e+01 -1.517139487679030341e-01
5.376700000000000301e+01 1.121899999999999977e+02 -7.977800000000000580e+01 1.157821000000000033e+01 -3.113026600435978564e-01
5.376800000000000068e+01 1.160999999999999943e+02 -7.629399999999999693e+01 -5.167268000000000416e-01 -2.795718458351552638e-01
5.377499999999999858e+01 1.125699999999999932e+02 -8.056100000000000705e+01 2.126773999999999987e+01 -3.056617192084223333e-01
5.377600000000000335e+01 1.173900000000000006e+02 -7.717400000000000659e+01 2.387533000000000172e+01 -3.748883365690263703e-01
5.377600000000000335e+01 1.031299999999999955e+02 -9.191800000000000637e+01 8.092171000000000447e+00 -4.560910836677205954e-02
5.377700000000000102e+01 9.774899999999999523e+01 -1.029500000000000028e+02 5.853134999999999977e+00 -4.608298114532578121e-02
5.377700000000000102e+01 9.929900000000000659e+01 -1.029500000000000028e+02 2.475275999999999854e+01 -4.492958537479817271e-02
5.378099999999999881e+01 9.808400000000000318e+01 -8.040600000000000591e+01 -2.156975000000000087e+00 -8.325075103745539773e-02
5.378600000000000136e+01 1.166299999999999955e+02 -7.826399999999999579e+01 5.480439999999999756e+00 -2.764395875208379705e-01
5.378600000000000136e+01 7.948900000000000432e+01 -1.015799999999999983e+02 -9.473741000000000412e+00 -5.403754145285492166e-02
5.378699999999999903e+01 8.677899999999999636e+01 -1.080900000000000034e+02 -3.195009000000000210e+00 -4.977909107449954990e-02
5.379299999999999926e+01 8.072899999999999920e+01 -1.035000000000000000e+02 -4.789263000000000048e+00 -5.312570295329456516e-02
5.379299999999999926e+01 8.072899999999999920e+01 -1.007999999999999972e+02 -9.441053999999999391e+00 -5.426354295635168329e-02
5.379899999999999949e+01 7.701500000000000057e+01 -9.350300000000000011e+01 -3.232578999999999869e+00 -6.625603837465129931e-02
5.380299999999999727e+01 1.153100000000000023e+02 -7.912099999999999511e+01 8.342558000000000362e+00 -2.900056529158284713e-01
5.380700000000000216e+01 9.454399999999999693e+01 -9.608599999999999852e+01 1.471909999999999918e+01 -5.210015763055821786e-02
5.380700000000000216e+01 9.998199999999999932e+01 -8.122499999999999432e+01 3.723618999999999790e+00 -6.950427741006549864e-02
5.380899999999999750e+01 1.011700000000000017e+02 -9.923199999999999932e+01 2.487315000000000165e+00 -4.437515205428221865e-02
