2.791600000000000037e+01 8.349200000000000443e+01 -8.745199999999999640e-01 1.051134000000000057e+01 -1.204195024344736770e-01
2.791600000000000037e+01 8.349200000000000443e+01 -9.277000000000000524e-03 8.381748999999999228e+00 -1.202756802625737642e-01
2.792000000000000171e+01 6.218999999999999773e+01 2.416100000000000136e+01 -6.974569999999999936e+00 -6.818126390095965994e-02
2.792000000000000171e+01 7.403600000000000136e+01 9.512800000000000367e+00 -5.601440000000000197e+00 -2.753642082349202352e-02
2.792099999999999937e+01 8.793600000000000705e+01 6.018900000000000361e-01 1.143675999999999959e+01 -1.173973358854091542e-01
2.792399999999999949e+01 7.967300000000000182e+01 -1.810300000000000020e+00 6.133061999999999792e+00 -1.208139537388397411e-01
2.792399999999999949e+01 8.665000000000000568e+01 -1.275900000000000034e+01 8.731987999999999417e+00 -1.067001499670282294e-01
2.792699999999999960e+01 7.588700000000000045e+01 5.810999999999999943e+00 4.205434000000000339e+00 -1.195183977339721315e-01
2.792800000000000082e+01 9.123399999999999466e+01 2.417500000000000071e+01 9.787183000000000632e+00 -3.499999999999999778e-01
2.793199999999999861e+01 7.579900000000000659e+01 2.512900000000000134e+01 -8.305869999999999642e-01 -3.523086189898139153e-02
2.793299999999999983e+01 6.991700000000000159e+01 1.260599999999999987e+01 -9.369922000000000750e+00 -2.664807507618228155e-01
2.793499999999999872e+01 9.001000000000000512e+01 2.516600000000000037e+01 7.305289000000000144e+00 -1.205645710229431289e-01
2.793499999999999872e+01 7.929000000000000625e+01 -1.342399999999999949e+01 -3.775631000000000181e+00 1.425315031336810701e-01
2.793700000000000117e+01 8.102400000000000091e+01 3.355599999999999739e+01 -4.492562000000000388e+00 1.654541092512096939e-02
2.793799999999999883e+01 6.124600000000000222e+01 2.436199999999999832e+01 6.590963999999999601e+00 -1.450941011043339612e-01
2.794399999999999906e+01 8.573099999999999454e+01 1.551099999999999923e+01 9.389708999999999861e+00 -3.969208460870243260e-01
2.794399999999999906e+01 9.297400000000000375e+01 1.764699999999999935e+00 3.537986000000000075e+00 -3.630080385316120095e-01
2.794500000000000028e+01 7.527400000000000091e+01 -1.362700000000000067e+01 1.191896999999999984e+01 1.458264166736372991e-01
2.794500000000000028e+01 7.675799999999999557e+01 2.504299999999999926e+01 -3.361610000000000209e+00 -1.500530158757032960e-02
2.795100000000000051e+01 5.485000000000000142e+01 2.264799999999999969e+01 -2.144249999999999989e+00 -3.837774992673778640e-01
2.795299999999999940e+01 7.932099999999999795e+01 1.151100000000000012e+00 3.986587999999999798e+00 -1.203876975489405615e-01
2.795400000000000063e+01 8.815800000000000125e+01 -1.547399999999999887e-01 2.067017999999999844e+01 -1.173636874262280194e-01
2.795499999999999829e+01 9.968500000000000227e+01 9.221000000000000085e+00 5.031546000000000074e-01 -1.686843803284533150e-01
2.795499999999999829e+01 8.051600000000000534e+01 3.527400000000000091e+00 -1.463753000000000082e+00 -1.198093102418965328e-01
2.795899999999999963e+01 5.638300000000000267e+01 6.534600000000000186e+00 1.014677000000000007e+01 -2.434760847668476225e-01
2.795899999999999963e+01 7.771599999999999397e+01 2.495700000000000074e+01 -3.405225000000000057e-01 -5.192938390379572139e-02
2.796000000000000085e+01 8.249800000000000466e+01 -6.453000000000000291e+00 1.531715999999999944e+01 1.400007381485659508e-01
2.796000000000000085e+01 8.270699999999999363e+01 -5.716999999999999638e+00 1.256621999999999950e+01 1.397665598679865284e-01
2.796399999999999864e+01 7.765399999999999636e+01 -1.986499999999999844e+01 1.757397999999999882e+01 1.427555353478084377e-01
2.796399999999999864e+01 9.775100000000000477e+01 2.120400000000000063e+01 3.135603000000000051e+01 -1.589425725376788501e-01
2.796799999999999997e+01 9.667600000000000193e+01 1.912099999999999866e+01 2.340546999999999933e+00 -1.616738266443407401e-01
2.796999999999999886e+01 9.043399999999999750e+01 3.101099999999999923e+01 -2.637757999999999825e+01 -7.597205531799115785e-02
2.797200000000000131e+01 7.442900000000000205e+01 8.759000000000000341e+00 -2.310999999999999943e+01 -2.830083675126808182e-02
2.797299999999999898e+01 9.747700000000000387e+01 2.036299999999999955e+01 7.590038999999999980e+00 -1.600161134112035310e-01
2.797599999999999909e+01 7.466500000000000625e+01 7.915899999999999714e+00 4.148342999999999892e-01 -2.884348526942023816e-02
2.798100000000000165e+01 6.210699999999999932e+01 2.364399999999999835e+00 8.423895999999999162e+00 -3.394904338964745416e-01
2.798300000000000054e+01 9.606900000000000261e+01 2.414099999999999824e+01 2.156176999999999921e+01 -3.499999999999999778e-01
2.798699999999999832e+01 6.739499999999999602e+01 2.696200000000000152e+00 -2.073961000000000165e+00 -8.866899609336233168e-02
2.798799999999999955e+01 7.905299999999999727e+01 1.909999999999999920e+00 3.655974000000000057e+00 -1.202756031704082657e-01
2.798900000000000077e+01 8.003700000000000614e+01 -2.688299999999999912e+00 5.864240999999999815e+00 -1.209254241660598223e-01
2.798900000000000077e+01 7.072599999999999909e+01 2.155799999999999983e+01 -2.426000000000000156e+01 -4.247443214706346504e-02
2.799099999999999966e+01 8.958299999999999841e+01 -9.748099999999999543e-01 9.364404000000000394e+00 -1.160794731202206276e-01
2.799399999999999977e+01 8.981000000000000227e+01 2.611199999999999832e+01 -2.108731000000000133e+00 -3.499999999999999778e-01
2.799500000000000099e+01 5.775999999999999801e+01 4.783500000000000085e+00 5.115127000000000201e+00 -2.425647773399159102e-01
2.799599999999999866e+01 5.257300000000000040e+01 1.717200000000000060e+01 -5.551762999999999559e-01 -2.442997184619914164e-01
2.799800000000000111e+01 7.625600000000000023e+01 4.961000000000000298e+00 4.472788999999999682e+00 -1.197543066750150348e-01
2.799800000000000111e+01 7.730599999999999739e+01 4.961000000000000298e+00 5.775350000000000428e+00 -1.196991858799996561e-01
2.800700000000000145e+01 7.945600000000000307e+01 3.350800000000000267e+01 -5.770407999999999760e+00 2.610436758480417369e-02
2.800700000000000145e+01 9.104999999999999716e+01 -4.706299999999999928e-01 3.692539000000000016e+00 -1.144305259733040953e-01
2.801300000000000168e+01 8.629900000000000659e+01 -1.093200000000000038e+01 -7.710809000000000246e+00 -1.066191229805904805e-01
2.801300000000000168e+01 8.650799999999999557e+01 -1.166799999999999926e+01 4.395241000000000398e+00 -1.066736468981863695e-01
2.801699999999999946e+01 8.475499999999999545e+01 1.076200000000000045e+01 1.026158999999999999e+01 -3.704556438371744281e-02
2.801800000000000068e+01 8.529900000000000659e+01 -1.673400000000000176e+01 -3.574763000000000246e-01 -1.065930281365042170e-01
2.801800000000000068e+01 8.529900000000000659e+01 -1.579400000000000048e+01 -2.152515999999999963e+01 -1.065717926648811209e-01
2.801800000000000068e+01 8.529900000000000659e+01 -1.492900000000000027e+01 -6.602968000000000171e-01 -1.065509421930647127e-01
2.801800000000000068e+01 9.648499999999999943e+01 1.753900000000000148e+01 -1.020997999999999983e+01 -1.634500848959096753e-01
2.802299999999999969e+01 4.777700000000000102e+01 2.376699999999999946e+01 8.670008999999999633e-01 -3.068459084980102447e-01
2.802299999999999969e+01 4.777700000000000102e+01 2.470700000000000074e+01 3.629448000000000119e-01 -3.072038382791131284e-01
2.802599999999999980e+01 9.637199999999999989e+01 1.842099999999999937e+01 5.841207999999999956e-01 -1.625542553593153916e-01
2.802799999999999869e+01 6.429399999999999693e+01 5.122600000000000486e-01 7.927762999999999671e+00 -9.664694041301975791e-02
2.802899999999999991e+01 5.074799999999999756e+01 1.445700000000000074e+01 4.855194999999999927e-01 -2.448141832890599334e-01
2.803099999999999881e+01 9.486599999999999966e+01 2.456800000000000139e+01 1.100656999999999996e+01 -3.499999999999999778e-01
2.803300000000000125e+01 5.195300000000000296e+01 1.499000000000000021e+01 2.005627000000000049e+00 -2.444880445498717469e-01
2.803300000000000125e+01 8.672899999999999920e+01 1.358799999999999919e+01 1.291076999999999941e+01 -3.974982286575306500e-01
2.803399999999999892e+01 9.958899999999999864e+01 8.212699999999999889e+00 -2.776009999999999867e+00 -1.692180529219448615e-01
2.803500000000000014e+01 5.650600000000000023e+01 5.623000000000000220e+00 1.153040999999999983e+01 -2.432880257162903237e-01
2.803800000000000026e+01 5.184199999999999875e+01 6.431000000000000050e+00 -2.810686000000000018e+00 -2.446288508866118483e-01
2.804799999999999827e+01 4.865200000000000102e+01 7.025000000000000355e+00 8.788071000000000410e+00 -2.452976806882644634e-01
2.804799999999999827e+01 5.315200000000000102e+01 7.140299999999999869e+00 -2.133019000000000176e+01 -2.442993716200025922e-01
2.805099999999999838e+01 8.638700000000000045e+01 -9.628299999999999415e+00 -1.475756000000000068e+00 -1.066108174860102842e-01
2.805099999999999838e+01 7.938200000000000500e+01 2.669999999999999929e+00 2.798470000000000013e+00 -1.201246141827183589e-01
2.805399999999999849e+01 8.106300000000000239e+01 -7.279700000000000060e+00 2.349070000000000036e+01 1.414796313060468214e-01
2.805600000000000094e+01 5.252499999999999858e+01 1.644900000000000162e+01 -1.245635000000000048e+00 -2.443229374741751891e-01
2.805600000000000094e+01 7.629999999999999716e+01 -1.350900000000000034e+01 6.792627999999999666e+00 1.449944801402734962e-01
2.805699999999999861e+01 8.406900000000000261e+01 -1.755699999999999861e+01 2.404952999999999896e+00 -1.064371429338104580e-01
2.806599999999999895e+01 7.684399999999999409e+01 -1.358399999999999963e+01 5.446499000000000201e+00 1.445211578823148435e-01
2.806599999999999895e+01 6.289699999999999847e+01 1.454099999999999948e+00 5.653436000000000128e+00 -9.459587145744782766e-02
2.806800000000000139e+01 7.896099999999999852e+01 2.579599999999999937e+01 9.723355000000000192e-01 -5.726126591022423495e-02
2.806800000000000139e+01 7.896099999999999852e+01 2.666199999999999903e+01 -1.756662999999999997e+01 -5.792856100876862813e-02
2.806899999999999906e+01 5.382600000000000051e+01 2.245100000000000051e+01 -3.798407999999999785e+00 -3.836831174532905342e-01
2.807199999999999918e+01 6.994199999999999307e+01 1.102800000000000047e+01 3.482226999999999961e+00 -2.650263690538322559e-01
2.807499999999999929e+01 8.897400000000000375e+01 3.145700000000000074e+01 -1.484195000000000064e+01 -3.864410346983294664e-01
2.807499999999999929e+01 8.259099999999999397e+01 -4.780800000000000161e+00 9.928357999999999350e+00 1.398343834093313531e-01
2.807499999999999929e+01 8.828100000000000591e+01 -7.218300000000000161e+00 8.563874999999999460e+00 -1.193399145456175148e-01
2.807499999999999929e+01 8.828100000000000591e+01 -6.167699999999999960e+00 4.868449000000000249e-01 -1.188493008751853042e-01
2.807600000000000051e+01 7.694100000000000250e+01 2.766400000000000148e+01 -1.155395000000000039e+01 1.177190544284475171e-01
2.807600000000000051e+01 7.780599999999999739e+01 2.766400000000000148e+01 -1.985253000000000156e+01 1.160416817841399412e-01
2.807600000000000051e+01 8.499800000000000466e+01 -1.951899999999999968e+00 1.673044000000000153e+01 -1.205134639549580305e-01
2.807600000000000051e+01 7.351399999999999579e+01 1.026699999999999946e+01 -2.614567999999999892e-01 -2.660447930986145626e-02
2.807700000000000173e+01 7.533100000000000307e+01 -1.625300000000000011e+01 4.167281999999999931e-01 1.450622566345722286e-01
2.807799999999999940e+01 9.012300000000000466e+01 2.728399999999999892e+01 -2.113646999999999920e+01 -3.499999999999999778e-01
2.807900000000000063e+01 8.188200000000000500e+01 -1.844500000000000028e+01 -2.235837000000000074e+01 1.401395025883635237e-01
2.808200000000000074e+01 4.983200000000000074e+01 1.447499999999999964e+01 -2.046861000000000175e+01 -2.450537638159901166e-01
2.808500000000000085e+01 5.209300000000000352e+01 2.456599999999999895e+01 8.804061000000000803e+00 -3.828291260548880581e-01
2.808500000000000085e+01 7.944599999999999795e+01 -9.735599999999999810e+00 4.171267000000000280e+00 1.428754588019869598e-01
2.808999999999999986e+01 6.693000000000000682e+01 7.811499999999999666e+00 3.616409999999999769e+01 -8.518414470232280045e-02
2.809100000000000108e+01 5.225699999999999790e+01 1.568999999999999950e+01 -2.155196999999999807e+00 -2.444082756134931811e-01
2.809100000000000108e+01 4.932500000000000284e+01 2.078300000000000125e+01 1.112498999999999905e+00 -3.975205505346243173e-01
2.809199999999999875e+01 7.353799999999999670e+01 2.317099999999999937e+01 3.982180000000000053e+00 -3.657438089581101226e-02
2.809199999999999875e+01 7.353799999999999670e+01 2.422100000000000009e+01 1.304876999999999947e-02 -3.810289450689850060e-02
2.809700000000000131e+01 5.096900000000000119e+01 1.825799999999999912e+01 -5.889777000000000484e-01 -2.785613444115427884e-01
2.809900000000000020e+01 7.963800000000000523e+01 -7.553200000000000358e+00 1.108134000000000086e+01 1.429762532824231935e-01
2.809900000000000020e+01 5.759300000000000352e+01 2.505499999999999972e+01 1.633488000000000051e+00 -1.077185442560297107e-01
2.810500000000000043e+01 8.780899999999999750e+01 3.339999999999999858e+01 -9.499696000000000140e+00 -5.503840526040180287e-02
2.810500000000000043e+01 7.533899999999999864e+01 2.691799999999999926e+01 -6.270223999999999798e+00 -1.970479622545847492e-02
2.811100000000000065e+01 7.499299999999999500e+01 -1.546400000000000041e+01 6.028221000000000274e-01 1.455192263863812341e-01
2.811199999999999832e+01 9.047499999999999432e+01 2.830300000000000082e+01 -2.834364000000000061e+01 -3.499999999999999778e-01
2.811199999999999832e+01 8.029699999999999704e+01 -1.062199999999999989e+01 4.048193000000000374e+00 1.419454759061319349e-01
2.812000000000000099e+01 6.027199999999999847e+01 2.462699999999999889e+01 4.154334000000000060e+01 -1.458326549844169151e-01
2.812300000000000111e+01 7.636799999999999500e+01 -1.723199999999999932e+01 2.291091999999999906e+00 1.440792966010313869e-01
2.812500000000000000e+01 7.936299999999999955e+01 -1.215200000000000030e-01 5.680361000000000438e+00 -1.206630289872390877e-01
2.812800000000000011e+01 9.693500000000000227e+01 5.095699999999999896e+00 4.245882999999999741e-01 -3.634233157681274751e-01
2.812900000000000134e+01 6.729800000000000182e+01 6.896300000000000097e+00 2.320994999999999919e+01 -8.619828463986557721e-02
2.812900000000000134e+01 5.626200000000000045e+01 2.463100000000000023e+01 1.600923000000000096e+00 -1.346106398095553991e-01
2.813200000000000145e+01 9.616700000000000159e+01 5.035300000000000331e+00 5.133252999999999844e-01 -3.633246687814159492e-01
2.813500000000000156e+01 8.385899999999999466e+01 1.561599999999999966e+01 2.352330999999999861e+01 -3.213773878965364705e-01
2.814000000000000057e+01 9.761400000000000432e+01 1.575399999999999956e+01 -2.686745999999999857e+00 -1.648338144999735855e-01
2.814300000000000068e+01 4.831300000000000239e+01 1.437700000000000067e+01 -3.424260999999999999e+00 -2.454151585919070455e-01
2.814399999999999835e+01 4.825699999999999790e+01 2.296699999999999875e+01 1.142600999999999978e+00 -3.063356822171342531e-01
2.814600000000000080e+01 5.894500000000000028e+01 2.547899999999999920e+01 -2.274998000000000076e+00 -1.122282847711786047e-01
2.814699999999999847e+01 8.394799999999999329e+01 7.521799999999999597e-01 -5.433381999999999934e+00 -1.201768475569191946e-01
2.815200000000000102e+01 8.689499999999999602e+01 1.263599999999999923e+01 1.160828000000000060e+01 -2.966891344581925605e-01
2.815299999999999869e+01 8.249899999999999523e+01 1.499000000000000021e+01 2.989667999999999992e+01 -3.221770555619716814e-01
2.815899999999999892e+01 4.944899999999999807e+01 1.987600000000000122e+01 -2.353419999999999845e+00 -2.758648278999732972e-01
2.815899999999999892e+01 4.967600000000000193e+01 1.907700000000000173e+01 3.525961000000000234e-01 -2.770312498071257346e-01
2.816300000000000026e+01 1.002399999999999949e+02 1.482900000000000063e+01 -8.945397999999999961e-01 -1.650042990430105327e-01
2.816499999999999915e+01 7.501300000000000523e+01 -1.449200000000000088e+01 4.208009999999999806e+00 1.457694505631663973e-01
2.816600000000000037e+01 8.140399999999999636e+01 -3.522299999999999986e+00 4.257259999999999600e+00 -1.209991026121859381e-01
2.816900000000000048e+01 8.232500000000000284e+01 1.266499999999999915e+01 3.349110000000000031e+00 -3.227956687804636737e-01
2.817500000000000071e+01 8.640000000000000568e+01 -2.839799999999999880e+00 2.334376999999999924e+01 -1.199271753074225011e-01
2.817800000000000082e+01 6.298199999999999932e+01 2.415200000000000102e+01 -7.243528999999999662e+00 -6.655170175854983883e-02
2.817899999999999849e+01 9.861499999999999488e+01 5.223700000000000010e+00 2.193199000000000121e-01 -1.706998134805721434e-01
2.818100000000000094e+01 8.631100000000000705e+01 1.961799999999999988e+00 1.267753000000000085e+01 -1.189527428788702268e-01
2.818400000000000105e+01 5.217699999999999960e+01 2.329200000000000159e+01 1.782843000000000089e+01 -3.832167631726859924e-01
2.818499999999999872e+01 6.076100000000000279e+01 4.182999999999999829e+00 2.450278000000000134e+01 -3.394994597913509882e-01
2.818599999999999994e+01 7.436599999999999966e+01 3.057700000000000173e+01 -4.631329999999999814e+01 -1.428961101426563240e-01
2.818700000000000117e+01 6.010000000000000142e+01 4.430600000000000094e+00 5.332252999999999687e+00 -3.394958385694795688e-01
2.819500000000000028e+01 8.744499999999999318e+01 1.128100000000000103e+00 9.809487999999999985e+00 -1.177350920003716050e-01
2.819500000000000028e+01 8.304699999999999704e+01 -1.762699999999999889e+01 4.002858999999999945e+00 1.393700267542338778e-01
2.819800000000000040e+01 9.731100000000000705e+01 1.645400000000000063e+01 -2.408070000000000022e+01 -1.642935622779216898e-01
2.819900000000000162e+01 6.796500000000000341e+01 9.989699999999999136e+00 1.214410999999999952e+01 -2.633690586919785748e-01
2.819999999999999929e+01 8.406699999999999307e+01 -1.921699999999999964e+00 7.863097999999999921e+00 -1.206223307693490288e-01
2.820799999999999841e+01 8.144299999999999784e+01 -1.915599999999999881e+01 -2.554037999999999808e+00 1.403601474155097284e-01
2.821000000000000085e+01 6.368099999999999739e+01 2.390099999999999980e+01 -2.061157000000000128e+00 -6.455203851521754133e-02
2.821000000000000085e+01 6.454699999999999704e+01 2.390099999999999980e+01 -1.216887999999999970e+01 -6.288843321858778035e-02
2.821399999999999864e+01 7.832699999999999818e+01 3.311999999999999744e+01 -2.358974999999999866e+01 4.055185051124531731e-02
2.821699999999999875e+01 7.409999999999999432e+01 2.737199999999999989e+01 -1.806197999999999837e+01 -1.314692303414714269e-01
2.821799999999999997e+01 8.018399999999999750e+01 -1.998799999999999955e+01 -7.636058999999999486e-01 1.410972054264767739e-01
2.821900000000000119e+01 8.303100000000000591e+01 1.188799999999999990e+01 -2.866535999999999973e+01 -2.229053251417776882e-01
2.822899999999999920e+01 9.843300000000000693e+01 2.224699999999999989e+01 -2.102557000000000009e+00 -3.499999999999999778e-01
2.823000000000000043e+01 5.576899999999999835e+01 2.384600000000000009e+01 -7.217065000000000285e-01 -1.300888942198676068e-01
2.823600000000000065e+01 9.969899999999999807e+01 7.256700000000000372e+00 -1.423953999999999986e+01 -1.696781262376427513e-01
2.823600000000000065e+01 6.514700000000000557e+01 5.380000000000000338e-01 8.233695000000000874e+00 -9.765045952360344728e-02
2.823600000000000065e+01 6.619700000000000273e+01 5.380000000000000338e-01 1.277945000000000064e+01 -8.851750458383940423e-02
2.824299999999999855e+01 7.630299999999999727e+01 2.431500000000000128e+01 -3.685328000000000159e+00 -2.002635218905496062e-01
2.824299999999999855e+01 7.716800000000000637e+01 2.431500000000000128e+01 -5.256432000000000215e+00 -2.008920748763966535e-01
2.824299999999999855e+01 8.042700000000000671e+01 -1.198799999999999955e+01 1.089164999999999939e+00 1.416610922790949856e-01
2.824299999999999855e+01 8.053100000000000591e+01 -1.118800000000000061e+01 3.103384000000000142e+00 1.416430533780135281e-01
2.824299999999999855e+01 7.808400000000000318e+01 -1.428299999999999947e+01 -1.940295000000000103e+00 1.433322905665407876e-01
2.824500000000000099e+01 6.581399999999999295e+01 2.467699999999999960e+01 -1.501238999999999990e+01 -6.257048251131705485e-02
2.824500000000000099e+01 8.659399999999999409e+01 -3.593399999999999928e+00 9.328454999999999941e+00 -1.198383126002794813e-01
2.824899999999999878e+01 9.469299999999999784e+01 2.705900000000000194e+00 -1.223785999999999952e+01 -3.631301993501891423e-01
2.824899999999999878e+01 9.492000000000000171e+01 3.504999999999999893e+00 -3.089705000000000013e+01 -3.631533155052608652e-01
2.824899999999999878e+01 9.512900000000000489e+01 4.240999999999999659e+00 -2.016249000000000180e+00 -3.631764243062545194e-01
2.825300000000000011e+01 7.118399999999999750e+01 1.055400000000000027e+01 3.166596999999999884e+00 -2.334344650867975837e-02
2.825600000000000023e+01 7.858899999999999864e+01 5.985699999999999577e+00 1.714132000000000033e+01 -1.194409199145782530e-01
2.825600000000000023e+01 7.998900000000000432e+01 5.985699999999999577e+00 1.438142000000000031e+01 -1.193195369282624707e-01
2.825700000000000145e+01 7.238500000000000512e+01 1.060800000000000054e+01 -1.657628000000000101e+00 -2.494141590187628002e-02
2.825799999999999912e+01 8.283499999999999375e+01 3.459300000000000352e+01 1.110693000000000019e+01 -6.828788571443911160e-02
2.825900000000000034e+01 1.003900000000000006e+02 1.100900000000000034e+01 -9.573760000000000048e-01 -1.676349890856650982e-01
2.826000000000000156e+01 7.491299999999999670e+01 2.517200000000000060e+01 -3.749979999999999869e+00 -3.514446194147691216e-02
2.826399999999999935e+01 6.741500000000000625e+01 2.502799999999999869e+01 6.897511999999999865e+00 -5.960086128742510952e-02
2.826500000000000057e+01 8.598799999999999955e+01 -1.371400000000000041e+01 -2.043077999999999950e+00 -1.066891098355508688e-01
2.826899999999999835e+01 9.812399999999999523e+01 2.143799999999999883e+01 -1.902612999999999943e-01 -1.585423241035017750e-01
2.826999999999999957e+01 8.664199999999999591e+01 1.168500000000000050e+01 7.923302999999999763e+00 -2.969293514879082219e-01
2.827299999999999969e+01 8.641599999999999682e+01 1.425799999999999912e+01 1.422936999999999941e+01 -3.974006335745078333e-01
2.827599999999999980e+01 9.256399999999999295e+01 1.286100000000000021e+00 5.769012000000000029e+00 -1.121181841346804015e-01
2.827700000000000102e+01 7.581300000000000239e+01 3.330100000000000193e+01 -2.487046000000000134e+01 6.824195072494326775e-02
2.828200000000000003e+01 9.810299999999999443e+01 2.308999999999999986e+01 -4.314492999999999689e+00 -3.500000000000000333e-01
2.828500000000000014e+01 5.871699999999999875e+01 4.696200000000000152e+00 -2.534495999999999860e+00 -2.420790043824153359e-01
2.828600000000000136e+01 9.397400000000000375e+01 2.452599999999999980e+01 4.339904999999999902e+00 -3.499999999999999778e-01
2.828900000000000148e+01 7.839100000000000534e+01 -1.986499999999999844e+01 -5.049191999999999680e+00 1.422366649639063563e-01
2.828999999999999915e+01 8.490800000000000125e+01 1.907699999999999951e+00 -9.127364000000000033e+00 -1.199045974135633658e-01
2.828999999999999915e+01 9.235800000000000409e+01 2.393100000000000094e+01 -2.679193000000000158e+00 -3.500000000000000333e-01
2.829100000000000037e+01 7.290600000000000591e+01 2.767099999999999937e+01 -7.445084999999999731e+00 -1.353468139654659397e-01
2.829100000000000037e+01 7.290600000000000591e+01 3.013100000000000023e+01 -1.764170000000000016e+01 -1.461977801155103507e-01
2.829100000000000037e+01 9.346099999999999852e+01 2.385300000000000153e+01 -2.584306999999999910e+00 -3.499999999999999778e-01
2.829799999999999827e+01 7.579200000000000159e+01 2.742200000000000060e+01 -6.376559000000000310e+00 1.209767725603146243e-01
2.830300000000000082e+01 5.093599999999999994e+01 2.561799999999999855e+01 1.814996999999999971e+01 -3.060267337991426362e-01
2.830499999999999972e+01 7.929900000000000659e+01 -1.236299999999999955e+00 8.362598999999999450e+00 -1.208936584779400913e-01
2.830600000000000094e+01 8.782699999999999818e+01 3.434400000000000119e+01 -3.178642999999999930e+01 -4.988143424044268887e-02
2.831299999999999883e+01 4.824699999999999989e+01 2.546699999999999875e+01 -2.405390000000000139e+00 -3.072897217117370183e-01
2.831800000000000139e+01 8.681999999999999318e+01 -8.928300000000000125e+00 1.895799999999999841e+01 1.376236559165272821e-01
2.831899999999999906e+01 6.678799999999999670e+01 9.123400000000000176e+00 1.028308999999999962e+01 -8.403244909697143994e-02
2.832000000000000028e+01 7.824399999999999977e+01 2.956700000000000017e+01 -2.127169999999999916e+01 1.116859705240392103e-01
2.832700000000000173e+01 5.457399999999999807e+01 7.525999999999999801e+00 6.095495999999999803e+00 -2.439485696706956974e-01
2.832700000000000173e+01 5.576500000000000057e+01 6.862000000000000099e+00 6.556934000000000040e+00 -2.436561310015170623e-01
2.833099999999999952e+01 5.698499999999999943e+01 4.847999999999999865e+00 1.108587999999999951e+01 -2.428483496352919491e-01
2.833299999999999841e+01 4.945799999999999841e+01 6.987700000000000244e+00 6.768480000000000274e+00 -2.451797835414880056e-01
2.833399999999999963e+01 6.167799999999999727e+01 2.485300000000000153e+01 -9.577324000000000837e+00 -1.456615580600453541e-01
2.833399999999999963e+01 6.261800000000000210e+01 2.485300000000000153e+01 -9.058500999999999692e+00 -1.451953543185109108e-01
2.833500000000000085e+01 7.852800000000000580e+01 2.509600000000000009e+01 -4.691275000000000084e+00 -5.433810684258984225e-02
2.833800000000000097e+01 8.483299999999999841e+01 3.519500000000000028e+01 -1.016703000000000046e+01 -2.684899277877342283e-01
2.833800000000000097e+01 7.733199999999999363e+01 3.339900000000000091e+01 -3.837713999999999714e+01 7.301796556476468358e-02
2.834199999999999875e+01 8.854099999999999682e+01 3.215699999999999648e+01 -1.574844000000000044e+01 -3.868592977520711740e-01
2.834199999999999875e+01 8.215900000000000603e+01 -4.080799999999999983e+00 3.407427000000000206e+00 -1.210665093335370895e-01
2.834600000000000009e+01 4.777799999999999869e+01 7.081800000000000317e+00 5.246728000000000058e+00 -2.455083443483910277e-01
2.835000000000000142e+01 8.174800000000000466e+01 3.371500000000000341e+01 -3.172575999999999841e+00 1.336800550417481248e-01
2.836199999999999832e+01 4.708899999999999864e+01 9.007400000000000517e+00 4.171395999999999660e+00 -2.456516419040552512e-01
2.836599999999999966e+01 6.491100000000000136e+01 2.460200000000000031e+01 -1.193687000000000076e+01 -6.404245295236994651e-02
2.836799999999999855e+01 7.978100000000000591e+01 -1.302800000000000047e+01 -6.314918999999999727e+00 1.420815937389031947e-01
2.837399999999999878e+01 7.920499999999999829e+01 -9.227499999999999147e+00 6.287379999999999747e+00 1.431286997355790958e-01
2.837399999999999878e+01 7.920499999999999829e+01 -8.398500000000000298e+00 1.140311999999999948e+01 1.432556882437194257e-01
2.837399999999999878e+01 8.618300000000000693e+01 3.582200000000000273e+01 -2.274661000000000044e+01 -2.605396857663436760e-01
2.837399999999999878e+01 8.747599999999999909e+01 3.510099999999999909e+01 -6.532880000000000109e+01 -4.225870974063879182e-02
2.837500000000000000e+01 4.714999999999999858e+01 1.011400000000000077e+01 3.557866000000000195e+00 -2.456536020871588344e-01
2.837600000000000122e+01 7.861799999999999500e+01 2.741199999999999903e+01 -2.849323000000000050e+01 -5.589625357905122355e-02
2.837699999999999889e+01 8.503100000000000591e+01 1.577800000000000047e+01 3.559530999999999779e+00 -3.966086611513585103e-01
2.837699999999999889e+01 8.622199999999999420e+01 1.511400000000000077e+01 1.316582999999999970e+01 -3.973129742777403162e-01
2.837800000000000011e+01 9.724500000000000455e+01 1.901800000000000068e+01 -8.686401999999999735e-01 -1.616519812697918279e-01
2.837800000000000011e+01 8.967400000000000659e+01 3.139900000000000091e+01 -3.627749000000000024e+01 -3.858061716425670307e-01
2.838400000000000034e+01 5.534100000000000108e+01 2.304500000000000171e+01 -4.711523000000000239e-01 -3.837840718095015258e-01
2.838800000000000168e+01 7.981600000000000250e+01 3.259999999999999787e+00 -6.620529000000000330e+00 -1.201008676355772575e-01
2.839199999999999946e+01 6.880899999999999750e+01 2.415399999999999991e+01 1.834475000000000078e+00 -5.179892950964905263e-02
2.839199999999999946e+01 6.906300000000000239e+01 2.326000000000000156e+01 1.068866000000000049e+01 -4.858869542734343960e-02
2.839199999999999946e+01 6.927200000000000557e+01 2.252400000000000091e+01 -1.152009000000000061e+00 -4.640474278453975143e-02
2.839499999999999957e+01 7.517700000000000671e+01 7.485500000000000043e+00 1.453975999999999935e+00 -1.192733189222219548e-01
2.839499999999999957e+01 7.538599999999999568e+01 6.749500000000000277e+00 2.381126000000000076e+00 -1.194850781530218953e-01
2.839600000000000080e+01 6.659499999999999886e+01 1.318799999999999972e+00 1.700450999999999979e+01 -8.847240946347185997e-02
2.839699999999999847e+01 6.792199999999999704e+01 4.820299999999999585e+00 -1.399361000000000033e+01 -8.808103880885390091e-02
2.839999999999999858e+01 8.880800000000000693e+01 -5.819800000000000528e-01 1.374135000000000062e+01 -1.166263114023548819e-01
2.839999999999999858e+01 9.035800000000000409e+01 -5.819800000000000528e-01 8.695498999999999867e-01 -1.149931695718527241e-01
2.840099999999999980e+01 8.691599999999999682e+01 -4.368699999999999584e+00 -2.248301999999999801e+00 -1.196097131089393362e-01
2.840099999999999980e+01 6.159499999999999886e+01 2.794299999999999784e+00 4.628313000000000343e+00 -3.394710077289366801e-01
2.840399999999999991e+01 9.687000000000000455e+01 2.380199999999999960e+01 3.033689999999999998e+01 -3.500000000000000333e-01
2.840700000000000003e+01 9.070099999999999341e+01 2.466700000000000159e+01 1.289043999999999990e+01 -3.499999999999999778e-01
2.841100000000000136e+01 4.868999999999999773e+01 2.226699999999999946e+01 2.715803999999999885e+00 -3.971376858044258773e-01
2.841700000000000159e+01 7.828900000000000148e+01 3.082900000000000063e+01 -2.030542000000000158e+01 6.852229277772337035e-02
2.842200000000000060e+01 6.816700000000000159e+01 3.975900000000000212e+00 -1.893634000000000128e+01 -8.881539631991791639e-02
2.842599999999999838e+01 9.149399999999999977e+01 9.167100000000000248e-02 4.472628000000000270e+00 -1.135882495898437317e-01
2.842699999999999960e+01 7.773900000000000432e+01 -1.828699999999999903e+01 9.809324000000000154e+00 1.428814148978090892e-01
2.843100000000000094e+01 4.719500000000000028e+01 8.413000000000000256e+00 6.698101999999999556e+00 -2.456382032161274487e-01
2.843400000000000105e+01 7.831499999999999773e+01 2.811199999999999832e+01 -2.115887999999999991e+01 1.167585672403903124e-01
2.843599999999999994e+01 9.696500000000000341e+01 1.739099999999999824e+01 9.552918999999999272e+00 -1.635205746518719472e-01
2.844000000000000128e+01 9.096699999999999875e+01 2.898199999999999932e+01 -1.625213000000000108e+01 -3.854221259508812669e-01
2.844000000000000128e+01 9.096699999999999875e+01 3.057999999999999829e+01 -3.782168999999999670e+01 -3.848346272407815460e-01
2.844000000000000128e+01 9.119400000000000261e+01 2.978099999999999881e+01 -5.261372000000000071e+01 -3.849818360566187314e-01
2.844399999999999906e+01 1.006599999999999966e+02 1.210899999999999999e+01 -1.136971999999999916e+01 -1.669491233382321693e-01
2.844699999999999918e+01 9.520199999999999818e+01 2.456400000000000006e+01 1.310735000000000028e+01 -3.499999999999999778e-01
2.844999999999999929e+01 8.405500000000000682e+01 1.102899999999999991e+01 2.006679000000000102e+00 -3.725333919106237068e-02
2.844999999999999929e+01 8.545499999999999829e+01 1.102899999999999991e+01 1.482551999999999914e+01 -4.625382087182784013e-02
2.845100000000000051e+01 5.260999999999999943e+01 2.259199999999999875e+01 2.024032000000000053e+01 -3.834902891142216164e-01
2.845499999999999829e+01 6.262700000000000244e+01 1.901599999999999957e+00 4.463108000000000075e+00 -9.379720095507236566e-02
2.845499999999999829e+01 9.814700000000000557e+01 2.077100000000000080e+01 3.634809999999999874e+00 -1.593493278067963925e-01
2.845599999999999952e+01 6.782899999999999352e+01 3.186900000000000066e+00 -5.356914999999999871e+00 -8.881477364373538408e-02
2.845899999999999963e+01 7.125900000000000034e+01 2.112699999999999889e+01 -4.088072999999999979e+01 -3.885958036401829241e-02
2.845899999999999963e+01 7.245000000000000284e+01 2.046300000000000097e+01 -1.113922999999999952e+01 -3.579506619617099650e-02
2.845899999999999963e+01 7.364100000000000534e+01 2.112699999999999889e+01 7.088256999999999586e+00 -3.339467973904333004e-02
2.845899999999999963e+01 7.384999999999999432e+01 2.186299999999999955e+01 2.319126999999999938e+00 -3.309193954812836291e-02
2.846199999999999974e+01 7.887199999999999989e+01 6.680500000000000327e-01 4.579924000000000106e+00 -1.206956235216771339e-01
2.846300000000000097e+01 7.482500000000000284e+01 9.191599999999999326e+00 -2.592660000000000053e+01 -2.885164705361720205e-02
2.846499999999999986e+01 8.116899999999999693e+01 3.302199999999999847e+01 -2.313738999999999990e+00 2.225724633531226543e-02
2.847100000000000009e+01 8.829999999999999716e+01 3.334700000000000131e+01 -1.002685999999999922e+01 -3.878521835715583177e-01
2.847200000000000131e+01 7.737399999999999523e+01 2.815500000000000114e+01 -1.688624000000000080e+01 1.195490386292194229e-01
2.847700000000000031e+01 7.852400000000000091e+01 -1.925900000000000034e+01 -7.309060999999999808e+00 1.422020890910937474e-01
2.847899999999999920e+01 7.678100000000000591e+01 4.364899999999999558e+00 4.231505000000000294e+00 -1.200853071137595041e-01
2.848100000000000165e+01 5.266100000000000136e+01 6.743699999999999584e+00 -1.458477000000000068e+01 -2.444858290685769653e-01
2.848100000000000165e+01 5.385199999999999676e+01 7.407700000000000173e+00 -3.955581000000000014e+00 -2.441637867710719778e-01
2.848799999999999955e+01 8.453900000000000148e+01 -1.702400000000000091e+01 3.032792999999999850e+01 -1.065800386539532407e-01
2.848799999999999955e+01 1.007600000000000051e+02 1.397899999999999920e+01 -3.041952999999999907e+00 -1.656373102512997686e-01
2.848799999999999955e+01 7.893099999999999739e+01 3.291199999999999903e+01 -1.360444000000000031e+01 3.954511209352147560e-02
2.848799999999999955e+01 7.998099999999999454e+01 3.291199999999999903e+01 -8.561270999999999631e+00 3.131038978541787754e-02
2.848999999999999844e+01 5.939999999999999858e+01 4.488900000000000112e+00 3.066307000000000116e+00 -2.416921290882485529e-01
2.849099999999999966e+01 9.375100000000000477e+01 2.519900000000000162e+01 2.725639000000000145e+00 -3.499999999999999778e-01
2.849099999999999966e+01 4.881900000000000261e+01 2.130900000000000105e+01 2.152242000000000210e+00 -3.973863012525554184e-01
2.849899999999999878e+01 9.844199999999999307e+01 1.546499999999999986e+01 5.269961999999999591e+00 -1.649461563742286863e-01
2.850199999999999889e+01 7.490600000000000591e+01 2.740899999999999892e+01 -3.083606000000000069e+00 -1.951745645410107519e-02
2.850900000000000034e+01 7.281399999999999295e+01 1.053400000000000070e+01 3.630365999999999982e+00 -2.560137251654657706e-02
2.850900000000000034e+01 9.688200000000000500e+01 1.797200000000000131e+01 4.996819999999999595e+00 -1.629437994468038997e-01
2.851200000000000045e+01 6.394200000000000017e+01 1.117699999999999916e+00 7.367430999999999841e+00 -9.569563457645959004e-02
2.851599999999999824e+01 5.984000000000000341e+01 2.511799999999999855e+01 -7.242176999999999865e+00 -1.463910437940091624e-01
2.851800000000000068e+01 5.139300000000000068e+01 2.483299999999999841e+01 1.667171000000000092e+01 -3.826688858707394947e-01
2.851999999999999957e+01 8.063800000000000523e+01 -3.306799999999999962e+00 4.815172999999999703e+00 -1.211387447634659359e-01
2.852100000000000080e+01 7.862199999999999989e+01 1.440299999999999914e+00 2.982873000000000108e+00 -1.206027397951411617e-01
2.852100000000000080e+01 7.862199999999999989e+01 2.379700000000000149e+00 1.406468000000000051e+00 -1.204270337668685853e-01
2.852100000000000080e+01 7.042499999999999716e+01 1.051900000000000013e+01 3.440818999999999850e+00 -2.233755995230248675e-02
2.852100000000000080e+01 7.194299999999999784e+01 1.051900000000000013e+01 3.169866999999999990e+00 -2.438833307326542660e-02
2.852100000000000080e+01 4.977499999999999858e+01 2.582300000000000040e+01 -9.956610999999999934e-02 -3.066918533011678272e-01
2.852299999999999969e+01 5.129999999999999716e+01 6.847100000000000186e+00 -9.876751999999999754e+00 -2.448105218339592937e-01
2.852299999999999969e+01 7.540600000000000591e+01 5.285700000000000287e+00 5.748693000000000275e+00 -1.199410006909672893e-01
2.852299999999999969e+01 7.815600000000000591e+01 5.285700000000000287e+00 1.280125999999999920e+01 -1.197879301058560469e-01
2.852299999999999969e+01 8.042199999999999704e+01 4.420399999999999885e+00 2.282630000000000159e+00 -1.198271252366031742e-01
2.852299999999999969e+01 8.042199999999999704e+01 5.285700000000000287e+00 7.902622000000000035e+00 -1.195946191551790216e-01
2.852400000000000091e+01 8.485599999999999454e+01 -1.569800000000000040e+01 1.046678999999999959e+01 -1.066066706457544228e-01
2.852400000000000091e+01 8.485599999999999454e+01 -1.483300000000000018e+01 1.606190000000000140e+01 -1.065865501149598493e-01
2.852899999999999991e+01 7.750799999999999557e+01 2.956700000000000017e+01 -6.397095000000000198e+01 1.157946426499551346e-01
2.852899999999999991e+01 7.898000000000000398e+01 2.956700000000000017e+01 -1.644098999999999933e+01 7.282346844403141117e-02
2.852899999999999991e+01 9.578199999999999648e+01 4.791000000000000369e+00 2.590783999999999865e-01 -3.632405168668677575e-01
2.853200000000000003e+01 5.829299999999999926e+01 2.532300000000000040e+01 -4.075749000000000066e+00 -1.091041894430045123e-01
2.853500000000000014e+01 7.483299999999999841e+01 8.205600000000000449e+00 -1.223883000000000010e+01 -1.191252326366665226e-01
2.854299999999999926e+01 8.222700000000000387e+01 -1.769900000000000162e+01 -7.235129000000000143e-01 1.398396508614598854e-01
2.854700000000000060e+01 7.586400000000000432e+01 -1.668400000000000105e+01 5.550352000000000063e-02 1.445100388627983401e-01
2.854700000000000060e+01 7.738400000000000034e+01 -1.422400000000000020e+01 -2.421699999999999875e+01 1.438654653613979650e-01
2.854799999999999827e+01 8.359999999999999432e+01 -1.712300000000000111e+01 1.394420000000000037e+01 1.389168892841540492e-01
2.854899999999999949e+01 8.753100000000000591e+01 -5.293899999999999828e+00 -1.375456999999999930e+01 -1.191367662453432646e-01
2.855000000000000071e+01 9.981199999999999761e+01 9.453200000000000713e+00 -5.447828999999999589e+00 -1.687154133758401731e-01
2.855000000000000071e+01 1.000199999999999960e+02 1.018900000000000006e+01 9.792948999999999682e-01 -1.682723730161991837e-01
2.855000000000000071e+01 7.931600000000000250e+01 -2.270300000000000207e+00 5.319264999999999688e+00 -1.211096832283918012e-01
2.855000000000000071e+01 9.949099999999999966e+01 1.499600000000000044e+01 5.976086999999999705e+00 -1.651059467130766567e-01
2.855099999999999838e+01 8.486799999999999500e+01 -1.626399999999999935e+01 7.117070999999999970e+01 -1.066266396668196642e-01
2.855699999999999861e+01 8.552299999999999613e+01 -2.548000000000000043e+00 1.399526999999999965e+01 -1.207001507537052987e-01
2.855900000000000105e+01 7.928900000000000148e+01 6.043999999999999595e+00 1.590239000000000047e+01 -1.194972574808967070e-01
2.856500000000000128e+01 5.207600000000000051e+01 1.693199999999999861e+01 -1.237230000000000052e+00 -2.445401718858973561e-01
2.856599999999999895e+01 5.175000000000000000e+01 1.766199999999999903e+01 -8.624903000000000430e-01 -2.446390505603709964e-01
2.856700000000000017e+01 7.534300000000000352e+01 3.254099999999999682e+01 -4.155039000000000016e+01 8.332955026369191776e-02
2.856800000000000139e+01 8.315900000000000603e+01 1.534900000000000020e+01 2.945998000000000161e+01 -3.218709009616846362e-01
2.856899999999999906e+01 9.209000000000000341e+01 5.193699999999999983e-01 5.795641999999999960e+00 -1.128995714181858095e-01
2.857799999999999940e+01 7.095399999999999352e+01 2.151800000000000068e+01 -3.633053999999999917e+01 -3.947409996887209227e-02
2.858099999999999952e+01 7.243600000000000705e+01 2.843100000000000094e+01 -8.002667999999999893e+00 -1.389544641417200244e-01
2.858099999999999952e+01 7.243600000000000705e+01 2.937099999999999866e+01 -8.452913000000000565e+00 -1.433642505350036789e-01
2.858399999999999963e+01 6.090599999999999881e+01 2.491199999999999903e+01 -2.141830000000000123e+00 -1.460691612052979482e-01
2.858599999999999852e+01 8.179900000000000659e+01 1.385699999999999932e+01 1.244590999999999958e+01 -3.229087459009097882e-01
2.858599999999999852e+01 8.200799999999999557e+01 1.459299999999999997e+01 2.594513999999999854e+01 -3.226384072181472940e-01
2.858599999999999852e+01 7.796099999999999852e+01 3.276200000000000045e+01 -4.705405999999999977e+01 5.065686899590785691e-02
2.858599999999999852e+01 6.722100000000000364e+01 9.823399999999999466e+00 1.404335999999999984e+01 -2.626760459671203529e-01
2.858800000000000097e+01 7.781100000000000705e+01 2.886700000000000088e+01 -2.716965000000000074e+01 1.178895006272653728e-01
2.858800000000000097e+01 7.781100000000000705e+01 3.026699999999999946e+01 -3.825672999999999746e+01 1.120822263997820062e-01
2.858999999999999986e+01 6.686199999999999477e+01 2.166999999999999815e+00 8.555540000000000589e+00 -8.826297633113751318e-02
2.859199999999999875e+01 8.444799999999999329e+01 1.163499999999999979e+00 -8.683581000000000216e-01 -1.202053825309381263e-01
2.859299999999999997e+01 8.560800000000000409e+01 1.965999999999999970e+00 3.542289999999999939e+00 -1.198051114607451978e-01
2.859400000000000119e+01 7.735200000000000387e+01 -1.754299999999999926e+01 1.654589999999999961e+01 1.432523488289260682e-01
2.860500000000000043e+01 6.859099999999999397e+01 1.034699999999999953e+01 7.531886000000000081e+00 -2.635313088154801475e-01
2.860600000000000165e+01 8.018200000000000216e+01 -7.286699999999999733e+00 1.547616000000000014e+01 1.422848742641138753e-01
2.860600000000000165e+01 7.657299999999999329e+01 3.336399999999999721e+01 -4.530664000000000158e+01 7.326054574082672965e-02
2.860699999999999932e+01 8.212099999999999511e+01 1.291799999999999926e+01 2.005152999999999963e+00 -3.229493007475404687e-01
2.860900000000000176e+01 8.009600000000000364e+01 -1.027299999999999969e+01 6.898967999999999989e+00 1.420543556270854602e-01
2.861299999999999955e+01 8.665500000000000114e+01 1.520699999999999941e+00 1.004851000000000028e+01 -1.184948030804467700e-01
2.861299999999999955e+01 4.755299999999999727e+01 1.314700000000000024e+01 -4.047096999999999944e+00 -2.456516948467930006e-01
2.861299999999999955e+01 4.778000000000000114e+01 1.234800000000000075e+01 -9.493988999999999900e-02 -2.455964264272346986e-01
2.861299999999999955e+01 4.778000000000000114e+01 1.394599999999999973e+01 -1.288397000000000014e+00 -2.456138855260194820e-01
2.861299999999999955e+01 4.798899999999999721e+01 1.161200000000000010e+01 4.204301000000000066e+00 -2.455460495253697084e-01
2.861299999999999955e+01 4.907300000000000040e+01 1.466699999999999982e+01 -1.826690999999999931e+01 -2.453342624317440546e-01
2.861299999999999955e+01 7.580599999999999739e+01 -1.414799999999999969e+01 -2.347601999999999833e+01 1.451719146842833097e-01
2.861599999999999966e+01 8.343300000000000693e+01 2.941199999999999926e-01 -4.386249000000000287e+00 -1.204688832268126647e-01
2.861700000000000088e+01 7.438800000000000523e+01 2.454599999999999937e+01 -1.339108000000000054e+01 -3.304039725846130704e-02
2.861700000000000088e+01 7.543800000000000239e+01 2.454599999999999937e+01 -1.444236000000000075e+01 -3.054537454531742330e-02
2.861899999999999977e+01 9.927400000000000091e+01 5.633700000000000152e+00 -5.084573999999999927e+00 -1.705363039670172720e-01
2.862000000000000099e+01 7.366599999999999682e+01 2.760800000000000054e+01 -1.413001000000000040e+01 -1.323327409983284519e-01
2.862000000000000099e+01 7.366599999999999682e+01 3.019399999999999906e+01 -9.943220999999999776e+01 -1.430708774434158725e-01
2.862199999999999989e+01 8.176200000000000045e+01 -6.974099999999999966e+00 2.207200999999999880e+01 1.405653120230649644e-01
2.862199999999999989e+01 9.279099999999999682e+01 2.452599999999999980e+01 -1.472196999999999978e+00 -3.499999999999999778e-01
2.862399999999999878e+01 5.182600000000000051e+01 1.616000000000000014e+01 -1.690600000000000103e+00 -2.446224860173971949e-01
2.862600000000000122e+01 7.755299999999999727e+01 3.082900000000000063e+01 -7.421611000000000047e+01 1.096662670542262463e-01
2.862800000000000011e+01 8.589199999999999591e+01 -3.398000000000000131e+00 9.126213999999999160e+00 -1.205001947572002796e-01
2.863100000000000023e+01 5.015599999999999881e+01 1.854299999999999926e+01 -1.428336999999999968e+00 -2.780651742689553840e-01
2.863500000000000156e+01 9.006799999999999784e+01 2.546900000000000119e+01 6.329979999999999496e-01 -3.500000000000000333e-01
2.863899999999999935e+01 7.673499999999999943e+01 2.382400000000000162e+01 -2.592060000000000031e+00 -2.017157085379605308e-01
2.864199999999999946e+01 8.453300000000000125e+01 -2.440399999999999903e+00 1.370470000000000077e+01 -1.207956727873542996e-01
2.864300000000000068e+01 8.734499999999999886e+01 -8.078300000000000480e+00 5.720360999999999585e+00 1.381712526230301497e-01
2.864300000000000068e+01 9.816500000000000625e+01 2.019900000000000162e+01 2.021650000000000169e+00 -1.600413333095142832e-01
2.864600000000000080e+01 5.714200000000000301e+01 2.489600000000000080e+01 1.459308000000000050e+00 -1.364149143745555792e-01
2.865899999999999892e+01 7.890300000000000580e+01 -1.437599999999999945e+01 1.534554999999999891e+00 1.425762263363710702e-01
2.865899999999999892e+01 7.798399999999999466e+01 2.452400000000000091e+01 -8.034615000000000506e+00 -2.011590059917178763e-01
2.866400000000000148e+01 6.576300000000000523e+01 1.330600000000000005e+00 1.273989000000000082e+01 -9.814359081098181226e-02
2.867099999999999937e+01 8.779999999999999716e+01 -6.692999999999999616e+00 -1.247965999999999909e+00 1.385492736923697454e-01
2.867200000000000060e+01 7.835800000000000409e+01 -1.840599999999999881e+01 2.050237999999999783e+00 1.423993753037123555e-01
2.867599999999999838e+01 7.523799999999999955e+01 3.160699999999999932e+01 -1.218309999999999960e+01 9.926441231935714815e-02
2.867800000000000082e+01 8.090999999999999659e+01 -1.958699999999999974e+01 -3.116423999999999861e+00 1.405813455033752546e-01
2.868199999999999861e+01 9.471599999999999397e+01 2.528399999999999892e+01 1.407630999999999943e+01 -3.499999999999999778e-01
2.868299999999999983e+01 8.755500000000000682e+01 -7.538800000000000168e+00 7.506009999999999627e-01 1.383565610891401843e-01
2.868299999999999983e+01 8.755500000000000682e+01 -5.847199999999999953e+00 -1.216237999999999930e+00 -1.192735710520787390e-01
2.868299999999999983e+01 7.766700000000000159e+01 4.377600000000000158e+00 4.119083999999999968e+00 -1.201239637975684837e-01
2.868400000000000105e+01 7.785699999999999932e+01 3.152899999999999991e+01 -3.176032000000000011e+01 6.770397491891079478e-02
2.868400000000000105e+01 7.872199999999999420e+01 3.152899999999999991e+01 -1.178438000000000052e+01 5.998902700802096616e-02
2.868599999999999994e+01 5.101400000000000290e+01 1.497600000000000087e+01 6.372232999999999592e+00 -2.448598235468253947e-01
2.868700000000000117e+01 6.343200000000000216e+01 2.463500000000000156e+01 3.881144000000000260e-01 -6.634139920549067537e-02
2.868700000000000117e+01 6.429699999999999704e+01 2.463500000000000156e+01 -3.035327000000000108e+00 -6.469579622823343201e-02
2.868799999999999883e+01 7.401900000000000546e+01 2.369600000000000151e+01 -2.395699000000000023e+00 -3.252862258584018201e-02
2.869099999999999895e+01 8.318099999999999739e+01 -4.936599999999999877e-01 -2.369100999999999846e-02 -1.206479602184197669e-01
