7.852500000000000568e+01 4.574900000000000233e+01 2.146199999999999974e+01 -1.388274000000000008e+00 -6.271633615893038374e-03
7.854099999999999682e+01 3.196699999999999875e+01 3.146600000000000108e+01 1.074616000000000043e-01 -7.192747038222405132e-02
7.854800000000000182e+01 4.844899999999999807e+01 2.233699999999999974e+01 2.726643000000000150e+00 -6.259468449689398369e-03
7.856300000000000239e+01 3.390699999999999648e+01 3.030199999999999960e+01 -4.996410000000000196e+01 -6.904567614765383388e-02
7.856399999999999295e+01 3.329899999999999949e+01 1.686899999999999977e+01 -7.206354000000000148e+00 -1.856606011972899428e-01
7.859499999999999886e+01 2.499399999999999977e+01 2.423499999999999943e+01 -3.243921999999999972e+00 2.544638093332985546e-02
7.859699999999999420e+01 2.170799999999999841e+01 1.841900000000000048e+01 -3.840037999999999840e+00 -3.085885362580805813e-01
7.859799999999999898e+01 3.331199999999999761e+01 1.598300000000000054e+01 -3.788533000000000150e+00 -1.845714499332578584e-01
7.860099999999999909e+01 2.762699999999999889e+01 1.413599999999999923e+01 -6.587006999999999834e+00 -2.912637213862260266e-01
7.860699999999999932e+01 2.378399999999999892e+01 1.572199999999999953e+01 4.372501999999999778e-01 -2.773951696850408544e-01
7.861599999999999966e+01 2.226200000000000045e+01 2.022800000000000153e+01 -3.829129000000000005e+00 -1.590677489956190960e-01
7.862699999999999534e+01 2.934400000000000119e+01 1.372899999999999920e+01 -6.204123000000000054e+00 2.648502533259869483e-03
7.862900000000000489e+01 5.179899999999999949e+01 2.883200000000000074e+01 1.123916999999999966e+01 -9.818310213420687604e-02
7.863100000000000023e+01 4.744599999999999795e+01 2.611899999999999977e+01 4.519619999999999749e-01 -9.725453949302047263e-02
7.863100000000000023e+01 3.188700000000000045e+01 1.360599999999999987e+01 -9.189080000000000581e+00 -1.508421192043342685e-01
7.863100000000000023e+01 3.320600000000000307e+01 1.434099999999999930e+01 7.715747000000000355e+01 -1.528788464023438931e-01
7.863100000000000023e+01 3.343699999999999761e+01 1.515600000000000058e+01 5.400670000000000215e+01 -1.837241450155771005e-01
7.863700000000000045e+01 3.491299999999999670e+01 1.895400000000000063e+01 2.357744999999999980e-01 -1.888502843523880981e-01
7.863899999999999579e+01 4.879599999999999937e+01 2.322599999999999909e+01 1.001810000000000045e+01 -5.574982322921319053e-03
7.864000000000000057e+01 2.203600000000000136e+01 1.923999999999999844e+01 -5.176196000000000019e+00 -3.224526005611013657e-01
7.865800000000000125e+01 3.833299999999999841e+01 2.793599999999999994e+01 -2.240133000000000152e+00 -6.663065161438359862e-02
7.865900000000000603e+01 5.210600000000000165e+01 2.793799999999999883e+01 5.562892999999999866e+00 -9.796194864527323076e-02
7.866500000000000625e+01 4.710199999999999676e+01 2.530399999999999849e+01 -1.072419000000000011e+00 -9.695000055580491050e-02
7.866599999999999682e+01 4.735600000000000165e+01 2.849399999999999977e+01 -7.524295000000000400e+00 -9.799358842141692172e-02
7.867199999999999704e+01 3.560300000000000153e+01 2.834700000000000131e+01 1.009741000000000000e+01 -6.684380453094855568e-02
7.867499999999999716e+01 4.761399999999999721e+01 2.766000000000000014e+01 -4.826315000000000133e+00 -9.772026331289622447e-02
7.867600000000000193e+01 2.805900000000000105e+01 3.137999999999999901e+01 -5.529246999999999801e+00 -8.168425537869962449e-02
7.868600000000000705e+01 2.489099999999999824e+01 2.318599999999999994e+01 -4.298663000000000345e+00 2.950506017695763566e-02
7.869199999999999307e+01 4.613600000000000279e+01 2.071799999999999997e+01 2.320076999999999945e+00 -7.529172296559650743e-03
7.869199999999999307e+01 4.718599999999999994e+01 2.071799999999999997e+01 6.466166000000000302e+00 -7.794671416532410538e-03
7.869400000000000261e+01 4.389500000000000313e+01 2.809600000000000009e+01 4.467047999999999774e+01 -9.777989687553761966e-02
7.870799999999999841e+01 4.532300000000000040e+01 2.429500000000000171e+01 3.922997000000000067e+00 -9.639470721762330441e-02
7.870799999999999841e+01 4.618800000000000239e+01 2.429500000000000171e+01 7.656766000000000183e+00 -9.650581868012078623e-02
7.872599999999999909e+01 2.626099999999999923e+01 2.642399999999999949e+01 -5.831413000000000402e+00 -7.350207846368055076e-02
7.873399999999999466e+01 4.770700000000000074e+01 2.929299999999999926e+01 -2.216614999999999824e+01 -9.821228630258325987e-02
7.873399999999999466e+01 4.900000000000000000e+01 3.001399999999999935e+01 -2.141541000000000139e+01 -9.842969156354998417e-02
7.874399999999999977e+01 4.034400000000000119e+01 3.079799999999999827e+01 1.807458000000000120e-01 -6.763382764157883920e-02
7.874399999999999977e+01 4.204399999999999693e+01 3.079799999999999827e+01 6.245349000000000039e+00 -6.759479190106740254e-02
7.874399999999999977e+01 4.801700000000000301e+01 2.145100000000000051e+01 8.079805000000000348e+00 -7.271940804279311728e-03
7.875799999999999557e+01 4.463199999999999790e+01 2.043100000000000094e+01 -4.223853000000000080e+00 -7.568782410898033941e-03
7.875900000000000034e+01 4.355899999999999750e+01 2.887099999999999866e+01 4.679469000000000101e+00 -9.806976363926722673e-02
7.875900000000000034e+01 3.816199999999999903e+01 1.909100000000000108e+01 -1.857775000000000176e+01 8.610040175644871618e-02
7.876000000000000512e+01 3.712700000000000244e+01 2.712000000000000099e+01 1.620232000000000061e-01 -6.603641597248294248e-02
7.876900000000000546e+01 4.410499999999999687e+01 2.591100000000000136e+01 -1.436829000000000001e+01 -9.679220948662640989e-02
7.876900000000000546e+01 4.410499999999999687e+01 2.685900000000000176e+01 -5.324222999999999928e+00 -9.718210572537266945e-02
7.877200000000000557e+01 3.630100000000000193e+01 1.920499999999999829e+01 -1.345850000000000080e+01 -8.169470006049349420e-02
7.878000000000000114e+01 3.461099999999999710e+01 2.938599999999999923e+01 9.362031999999999243e+00 -6.743252357328848035e-02
7.879200000000000159e+01 4.023299999999999699e+01 1.973900000000000077e+01 -1.467763000000000062e+01 -7.298023439100858809e-03
7.879300000000000637e+01 4.531600000000000250e+01 2.076200000000000045e+01 -2.541116999999999848e+00 -7.380030452837841974e-03
7.879399999999999693e+01 4.476100000000000279e+01 2.471399999999999864e+01 2.633232000000000017e+00 -9.639075791337690935e-02
7.881000000000000227e+01 2.401399999999999935e+01 1.493900000000000006e+01 -8.283048000000000854e+00 -2.719965304211232060e-01
7.881000000000000227e+01 2.424099999999999966e+01 1.414000000000000057e+01 -4.007455000000000211e+00 -4.235387505127854446e-01
7.881000000000000227e+01 2.553399999999999892e+01 1.341900000000000048e+01 -4.691389000000000031e+00 -4.221323854434964606e-01
7.881199999999999761e+01 2.697100000000000009e+01 3.090800000000000125e+01 -7.279112999999999722e+00 -8.651635865294390881e-02
7.882599999999999341e+01 2.163899999999999935e+01 1.700300000000000011e+01 -1.570942000000000061e+00 -2.792835933871245513e-01
7.882999999999999829e+01 3.929299999999999926e+01 2.942299999999999827e+01 3.224578999999999862e+00 -6.699843794319110257e-02
7.884600000000000364e+01 4.322999999999999687e+01 1.953999999999999915e+01 -4.067044000000000104e+00 9.712778333864015290e-02
7.884600000000000364e+01 2.688400000000000034e+01 1.404599999999999937e+01 -2.416592999999999947e+01 -2.875117742222358941e-01
7.885299999999999443e+01 4.445700000000000074e+01 2.541400000000000148e+01 -4.436456999999999873e+00 -9.655756898553509437e-02
7.888599999999999568e+01 3.118400000000000105e+01 3.146600000000000108e+01 2.324640000000000128e+01 -7.155299538174400564e-02
7.889600000000000080e+01 4.316799999999999926e+01 2.963500000000000156e+01 -1.741946000000000050e-01 -9.830739278372808976e-02
7.889700000000000557e+01 4.992799999999999727e+01 2.434499999999999886e+01 -1.868460000000000010e+00 -5.195155342742851373e-03
7.890300000000000580e+01 3.887599999999999767e+01 2.870799999999999841e+01 -2.627411000000000052e-01 -6.658713684844741465e-02
7.893800000000000239e+01 3.239900000000000091e+01 3.195700000000000074e+01 3.033436000000000021e+00 -7.047869834712082449e-02
7.893800000000000239e+01 3.322800000000000153e+01 3.195700000000000074e+01 1.940188999999999941e-01 -6.979184195143159353e-02
7.894700000000000273e+01 4.211299999999999955e+01 1.950700000000000145e+01 -9.863018999999999536e-01 -8.577336199873792505e-03
7.895199999999999818e+01 2.960000000000000142e+01 3.180900000000000105e+01 -3.234560999999999797e+00 -7.471149694317655299e-02
7.896500000000000341e+01 4.947399999999999665e+01 2.399500000000000099e+01 -2.026210999999999984e+00 -5.415946758789921128e-03
7.897299999999999898e+01 3.349600000000000222e+01 3.136400000000000077e+01 -4.136930999999999692e+00 -6.897411186622047496e-02
7.898699999999999477e+01 2.364699999999999847e+01 2.210000000000000142e+01 -7.685744999999999827e+00 3.565950071197217242e-02
7.898999999999999488e+01 3.278600000000000136e+01 3.268599999999999994e+01 -3.065236000000000072e-01 -7.063644264119059435e-02
7.899200000000000443e+01 2.674099999999999966e+01 2.723300000000000054e+01 -5.034714000000000134e+00 -7.125315323212122465e-02
7.900300000000000011e+01 2.128800000000000026e+01 1.786499999999999844e+01 -2.976065999999999878e+00 -2.930833460426365833e-01
7.900499999999999545e+01 5.170600000000000307e+01 2.547599999999999909e+01 1.299982999999999933e+01 -9.719393399433948200e-02
7.900499999999999545e+01 5.196000000000000085e+01 2.637000000000000099e+01 3.395515000000000327e+01 -9.741520872811761100e-02
7.900499999999999545e+01 5.216899999999999693e+01 2.710600000000000165e+01 7.384255999999999709e+00 -9.759669317356793605e-02
7.901099999999999568e+01 2.850700000000000145e+01 1.405400000000000027e+01 -8.223487000000000435e+00 6.237754705516719567e-03
7.901200000000000045e+01 3.018499999999999872e+01 1.345400000000000063e+01 -7.309766999999999904e+00 1.060724866904016843e-02
7.903499999999999659e+01 3.876299999999999812e+01 2.955799999999999983e+01 -2.765489999999999782e+00 -6.673904597362555202e-02
7.903900000000000148e+01 4.471200000000000330e+01 2.673699999999999832e+01 4.046530999999999878e-01 -9.692975617969586122e-02
7.904900000000000659e+01 2.237800000000000011e+01 2.108299999999999841e+01 -3.518269000000000091e+00 4.131895727178368227e-02
7.906399999999999295e+01 3.118700000000000117e+01 1.333900000000000041e+01 -5.545271999999999757e+00 8.793944222570442698e-03
7.906600000000000250e+01 4.805100000000000193e+01 2.094900000000000162e+01 1.594003999999999976e+00 -8.178114168017048408e-03
7.906699999999999307e+01 4.503699999999999903e+01 2.582400000000000162e+01 -1.516212999999999866e-01 -9.658911636187118843e-02
7.906900000000000261e+01 5.114000000000000057e+01 2.924200000000000088e+01 1.221997000000000000e+01 -9.803983245812755709e-02
7.906999999999999318e+01 3.442199999999999704e+01 1.855699999999999861e+01 2.939629000000000048e+01 -1.884369547323463956e-01
7.907399999999999807e+01 2.672200000000000131e+01 2.819399999999999906e+01 -4.444085000000000285e+00 -7.434487076624370083e-02
7.907599999999999341e+01 3.700099999999999767e+01 1.914699999999999847e+01 -2.130176000000000158e+01 8.613674303281662614e-02
7.908199999999999363e+01 2.205300000000000082e+01 1.633200000000000074e+01 -2.203454999999999941e+00 -2.710927905300836160e-01
7.909600000000000364e+01 3.953300000000000125e+01 1.968100000000000094e+01 -2.774041000000000068e+01 -7.815283075206951036e-03
7.909699999999999420e+01 2.191000000000000014e+01 1.971300000000000097e+01 -4.033021999999999885e+00 -3.240209519628208246e-01
7.909699999999999420e+01 4.553699999999999903e+01 2.503699999999999903e+01 -8.554173000000000471e-01 -9.634891218076188646e-02
7.909699999999999420e+01 4.640200000000000102e+01 2.503699999999999903e+01 -1.316279999999999895e+00 -9.646499078626240287e-02
7.910500000000000398e+01 3.529599999999999937e+01 2.908699999999999974e+01 4.184391999999999889e+00 -6.630184671673536312e-02
7.910999999999999943e+01 3.266199999999999903e+01 1.390199999999999925e+01 4.072348999999999997e+00 -1.713037133404191337e-01
7.911100000000000421e+01 4.667499999999999716e+01 1.999399999999999977e+01 -9.787879000000000440e-01 9.653192960903271558e-02
7.912199999999999989e+01 4.704899999999999949e+01 2.655199999999999960e+01 -1.627552000000000110e+00 -9.700504817338394259e-02
7.913299999999999557e+01 4.439099999999999824e+01 2.762199999999999989e+01 1.768311999999999884e+01 -9.718074449473082521e-02
7.913299999999999557e+01 4.439099999999999824e+01 2.857000000000000028e+01 5.533708999999999989e+00 -9.758377054687024377e-02
7.914900000000000091e+01 2.553000000000000114e+01 2.573100000000000165e+01 -4.771347999999999701e+00 -6.751460947822726655e-02
7.915500000000000114e+01 3.419400000000000261e+01 3.011700000000000088e+01 -5.435151000000000288e+00 -6.706494105270295603e-02
7.915500000000000114e+01 3.582300000000000040e+01 2.848799999999999955e+01 2.469011000000000067e+00 -6.581851826873345856e-02
7.915600000000000591e+01 4.670600000000000307e+01 2.573699999999999832e+01 -1.452144000000000101e+00 -9.668104736272624400e-02
7.915600000000000591e+01 3.669400000000000261e+01 2.761100000000000065e+01 -1.557879000000000014e+00 -6.544609141218951653e-02
7.915600000000000591e+01 3.755899999999999750e+01 2.761100000000000065e+01 -2.191828000000000110e+00 -6.557790004356256475e-02
7.915800000000000125e+01 4.536299999999999955e+01 2.035500000000000043e+01 -2.734897999999999829e+00 -8.423569502988649538e-03
7.916599999999999682e+01 4.721699999999999875e+01 2.722700000000000031e+01 -2.139019999999999921e+00 -9.720719199507202313e-02
7.917499999999999716e+01 3.593399999999999750e+01 1.953200000000000003e+01 -1.655524000000000129e+01 1.011205928304261120e-01
7.918800000000000239e+01 4.819899999999999807e+01 2.985800000000000054e+01 -1.642181000000000068e+01 -9.808995820268628929e-02
7.919199999999999307e+01 3.886200000000000188e+01 1.935800000000000054e+01 -6.758941000000000088e+00 -8.504117381268098963e-03
7.919400000000000261e+01 4.690200000000000102e+01 2.803800000000000026e+01 -2.337606000000000073e+00 -9.743888444868729903e-02
7.920099999999999341e+01 2.890899999999999892e+01 3.170499999999999829e+01 2.192623000000000033e+01 -7.480410770115795971e-02
7.920399999999999352e+01 3.971800000000000352e+01 3.044099999999999895e+01 -1.405820000000000070e+00 -6.689579852032731533e-02
7.920399999999999352e+01 4.975999999999999801e+01 2.972400000000000020e+01 -3.070985999999999905e+01 -9.806300057371973578e-02
7.920499999999999829e+01 3.397800000000000153e+01 1.773999999999999844e+01 -9.970755999999999730e+00 -1.873616035392488555e-01
7.921299999999999386e+01 4.546600000000000108e+01 2.655199999999999960e+01 8.612695999999999685e+00 -9.678059984529172044e-02
7.922100000000000364e+01 2.463700000000000045e+01 2.476000000000000156e+01 -3.093627000000000127e+00 -7.454236196463273623e-02
7.922299999999999898e+01 2.135099999999999909e+01 1.887900000000000134e+01 -4.380156999999999634e+00 -3.109311499553994440e-01
7.924299999999999500e+01 2.331400000000000006e+01 1.607199999999999918e+01 8.368967999999999963e-01 -2.770333634010305746e-01
7.925000000000000000e+01 3.363900000000000290e+01 1.689300000000000068e+01 -9.016367999999999938e+00 -1.861668079337234771e-01
7.925400000000000489e+01 2.198600000000000065e+01 2.073400000000000176e+01 -4.126840999999999759e+00 -2.077111037494300538e-01
7.925499999999999545e+01 3.030000000000000071e+01 3.175100000000000122e+01 4.488230999999999860e+00 -7.145971115721201639e-02
7.925600000000000023e+01 2.446399999999999864e+01 2.373100000000000165e+01 -7.751824999999999966e-01 2.908936598091394973e-02
7.926300000000000523e+01 3.396500000000000341e+01 3.060500000000000043e+01 7.309175999999999451e-01 -6.722524459070275404e-02
7.926900000000000546e+01 4.119400000000000261e+01 3.112300000000000111e+01 -2.122243999999999797e+00 -6.711620617855183768e-02
7.926900000000000546e+01 4.264000000000000057e+01 3.031700000000000017e+01 -3.436526000000000192e+00 -9.828545406454397559e-02
7.928000000000000114e+01 2.629400000000000048e+01 1.370899999999999963e+01 -1.330538999999999916e+01 -4.215279710050185424e-01
7.928199999999999648e+01 2.472100000000000009e+01 1.360599999999999987e+01 -7.949085000000000178e+00 -4.214284516734852493e-01
7.928199999999999648e+01 2.621099999999999852e+01 2.967800000000000082e+01 -4.811501999999999946e+00 -8.202536761098208618e-02
7.928199999999999648e+01 2.643799999999999883e+01 2.887900000000000134e+01 -4.236225000000000129e+00 -7.603989401255356606e-02
7.928199999999999648e+01 2.643799999999999883e+01 3.047700000000000031e+01 -3.721445999999999810e+00 -8.351821845652669662e-02
7.928300000000000125e+01 3.161700000000000088e+01 3.195700000000000074e+01 1.831618999999999886e+01 -6.991358046583005803e-02
7.928499999999999659e+01 4.418599999999999994e+01 1.963700000000000045e+01 -2.496236999999999817e+00 9.686446270217197174e-02
7.929600000000000648e+01 4.038400000000000034e+01 2.000300000000000011e+01 -1.036608999999999980e+01 -7.898222095269129273e-03
7.932599999999999341e+01 2.419200000000000017e+01 2.288299999999999912e+01 -2.599244000000000110e+00 -8.353440299709288808e-02
7.933100000000000307e+01 3.359199999999999875e+01 1.639499999999999957e+01 -8.872985999999999152e+00 -1.855588215907940652e-01
7.933100000000000307e+01 4.631300000000000239e+01 2.655199999999999960e+01 6.860553000000000345e-01 -9.677424711173895910e-02
7.933199999999999363e+01 4.519400000000000261e+01 2.783899999999999864e+01 1.069289999999999985e+01 -9.714696339183509499e-02
7.934099999999999397e+01 3.192000000000000171e+01 3.265699999999999648e+01 2.587273000000000156e+00 -7.018559802487382704e-02
7.934099999999999397e+01 3.370799999999999841e+01 3.265699999999999648e+01 5.517255999999999716e+00 -6.891799105780639645e-02
7.934199999999999875e+01 4.512700000000000244e+01 2.857000000000000028e+01 1.021499999999999986e+01 -9.742639210786141479e-02
7.934499999999999886e+01 4.863600000000000279e+01 2.198199999999999932e+01 3.681197000000000052e+00 -7.556938599503277773e-03
7.935399999999999920e+01 2.095700000000000074e+01 1.737600000000000122e+01 -2.411296000000000106e+00 -2.792775806444000031e-01
7.935899999999999466e+01 5.204699999999999704e+01 2.763500000000000156e+01 1.497382999999999953e+01 -9.753277341449070881e-02
7.936499999999999488e+01 4.596999999999999886e+01 2.573699999999999832e+01 -1.057841000000000031e+00 -9.642717879304119055e-02
7.936499999999999488e+01 4.596999999999999886e+01 2.736700000000000088e+01 9.354071000000000469e-01 -9.700259529381596857e-02
7.937399999999999523e+01 2.290299999999999869e+01 2.193299999999999983e+01 -3.818423999999999818e+00 -8.369367889519210846e-02
7.937399999999999523e+01 5.179299999999999926e+01 2.844300000000000139e+01 1.386999999999999922e+01 -9.770396693080861394e-02
7.937500000000000000e+01 4.648100000000000165e+01 2.722700000000000031e+01 -5.131850999999999496e-01 -9.699021962044454548e-02
7.937699999999999534e+01 4.754699999999999704e+01 2.013500000000000156e+01 -1.670015999999999945e+00 9.633007019648598401e-02
7.939199999999999591e+01 3.695600000000000307e+01 3.055000000000000071e+01 -2.602599000000000107e+00 -6.659055768294883104e-02
7.939400000000000546e+01 2.766900000000000048e+01 1.437800000000000011e+01 -1.514983999999999931e+01 -2.887883758036955406e-01
7.939799999999999613e+01 3.324099999999999966e+01 1.461200000000000010e+01 4.507930999999999955e+01 -1.725888967128486329e-01
7.939799999999999613e+01 4.877400000000000091e+01 2.286199999999999832e+01 1.451061999999999941e+01 -6.754825191924870853e-03
7.939799999999999613e+01 4.898299999999999699e+01 2.359799999999999898e+01 1.020991000000000071e+01 -6.077907889208538847e-03
7.941200000000000614e+01 4.390200000000000102e+01 2.942599999999999838e+01 8.411360000000000170e+00 -9.769021083093050450e-02
7.941200000000000614e+01 3.228900000000000148e+01 3.350699999999999790e+01 2.165935999999999861e+00 -8.175123638553499772e-02
7.941200000000000614e+01 3.333899999999999864e+01 3.350699999999999790e+01 3.616582000000000185e+00 -8.086590545773718330e-02
7.942499999999999716e+01 2.132600000000000051e+01 1.652599999999999980e+01 -1.436911000000000049e+00 -2.669694501948837173e-01
7.943999999999999773e+01 4.610799999999999699e+01 2.805600000000000094e+01 2.459881999999999902e+00 -9.720599938509381921e-02
7.944100000000000250e+01 3.345499999999999829e+01 1.564899999999999913e+01 -9.655421000000000475e+00 -1.720248547618113411e-01
7.944400000000000261e+01 4.713100000000000023e+01 1.921699999999999875e+01 -5.595975000000000144e+00 9.716980911042258362e-02
7.944700000000000273e+01 4.827100000000000080e+01 2.030999999999999872e+01 -7.659968999999999806e-01 9.616139249556845958e-02
7.946399999999999864e+01 3.389300000000000068e+01 3.179700000000000060e+01 6.044395999999999880e+00 -6.773051494874217371e-02
7.946699999999999875e+01 3.764000000000000057e+01 1.907499999999999929e+01 -9.979651000000000494e+00 -9.533408801297530225e-03
7.946699999999999875e+01 3.806300000000000239e+01 2.842500000000000071e+01 1.781652999999999931e+00 -6.547710401195483421e-02
7.946699999999999875e+01 3.806300000000000239e+01 2.982499999999999929e+01 -2.957895000000000163e+00 -6.612780087310339561e-02
7.947199999999999420e+01 4.126299999999999812e+01 1.983200000000000074e+01 5.589533999999999558e+00 -8.824309918501612240e-03
7.947799999999999443e+01 3.523400000000000176e+01 1.947299999999999898e+01 -1.705778000000000016e+00 1.011977945302507120e-01
7.947799999999999443e+01 3.663400000000000034e+01 1.947299999999999898e+01 -1.190107000000000070e+01 -8.241783580080418517e-03
7.948799999999999955e+01 5.118900000000000006e+01 2.489900000000000091e+01 4.410334999999999894e+00 -5.730328524409055921e-03
7.949299999999999500e+01 2.934400000000000119e+01 1.372899999999999920e+01 -6.074829000000000256e+00 -5.346521245476987261e-02
7.950300000000000011e+01 3.065399999999999991e+01 1.301999999999999957e+01 -7.097584000000000337e+00 -1.705483188445549581e-01
7.950499999999999545e+01 2.619999999999999929e+01 2.675499999999999901e+01 -6.199303999999999704e+00 -6.326150108036061870e-02
7.950700000000000500e+01 3.901800000000000068e+01 3.038299999999999912e+01 -2.283761999999999848e+00 -6.640483588333914722e-02
7.950900000000000034e+01 5.037500000000000000e+01 2.937600000000000122e+01 2.811408999999999825e+00 -9.780725790020712573e-02
7.951000000000000512e+01 2.374699999999999989e+01 1.537199999999999989e+01 -2.877442999999999973e+00 -2.730226834705671290e-01
7.951800000000000068e+01 4.482800000000000296e+01 2.898600000000000065e+01 6.063130000000000130e+00 -9.742982971133645753e-02
7.952599999999999625e+01 3.836699999999999733e+01 2.912500000000000000e+01 -2.568919999999999870e+00 -6.573979277247325725e-02
7.953000000000000114e+01 3.783599999999999852e+01 3.060300000000000153e+01 -2.865221000000000018e+00 -6.639706837384783122e-02
7.954300000000000637e+01 3.196199999999999974e+01 1.348300000000000054e+01 -9.798892999999999631e+00 -1.728569255978305574e-01
7.954600000000000648e+01 2.516199999999999903e+01 2.560999999999999943e+01 -4.546743000000000201e+00 -6.186119396463864856e-02
7.954600000000000648e+01 2.261400000000000077e+01 1.612999999999999901e+01 -6.185258999999999618e-01 -2.724959345579971992e-01
7.954999999999999716e+01 4.902900000000000347e+01 2.989199999999999946e+01 -3.946161000000000030e+01 -9.788418826002295847e-02
7.955200000000000671e+01 4.778699999999999903e+01 2.976099999999999923e+01 -8.286293000000000575e+00 -9.780399129815339765e-02
7.956600000000000250e+01 3.648799999999999955e+01 2.967800000000000082e+01 -2.568702000000000041e+00 -6.570465905357120162e-02
7.956900000000000261e+01 2.420599999999999952e+01 1.440799999999999947e+01 -4.482687000000000310e+00 -4.219064150114871237e-01
7.958799999999999386e+01 3.489399999999999835e+01 2.985000000000000142e+01 4.423981000000000385e+00 -6.562295123184365420e-02
7.958799999999999386e+01 3.575900000000000034e+01 2.985000000000000142e+01 -1.474974999999999925e+00 -6.569185445878417129e-02
7.958799999999999386e+01 3.652300000000000324e+01 2.821999999999999886e+01 9.819020999999999999e-01 -6.484302044622468342e-02
7.958799999999999386e+01 3.738900000000000290e+01 2.821999999999999886e+01 -1.428355000000000041e+00 -6.503949487871932278e-02
7.958799999999999386e+01 4.585600000000000165e+01 1.978200000000000003e+01 -3.449123999999999857e+00 9.661111138780603680e-02
7.959399999999999409e+01 4.862800000000000011e+01 2.109700000000000131e+01 -8.032998000000000083e-01 -8.736005674420319750e-03
7.959900000000000375e+01 3.968399999999999750e+01 1.994500000000000028e+01 -1.835960000000000036e+01 -8.467249484729669207e-03
7.960699999999999932e+01 4.496099999999999852e+01 1.979299999999999926e+01 -3.165702000000000016e+00 9.659047783674025445e-02
7.961899999999999977e+01 2.974099999999999966e+01 3.185500000000000043e+01 3.672899000000000136e+00 -7.043809871997865069e-02
7.962199999999999989e+01 4.812100000000000222e+01 1.969999999999999929e+01 -1.882641999999999927e+00 9.665157356620159013e-02
7.963400000000000034e+01 3.395900000000000318e+01 3.356400000000000006e+01 -5.299329999999999874e-01 -7.998721383536287755e-02
7.963400000000000034e+01 2.082499999999999929e+01 1.835399999999999920e+01 -2.928279999999999994e+00 -2.961137231264759917e-01
7.964600000000000080e+01 3.606199999999999761e+01 3.055000000000000071e+01 -2.181366999999999834e+00 -6.605288515417419293e-02
7.964600000000000080e+01 3.621999999999999886e+01 2.892000000000000171e+01 -1.035983000000000098e+00 -6.504438526488029448e-02
7.964700000000000557e+01 4.578600000000000136e+01 2.890599999999999881e+01 8.913175000000000736e+00 -9.733892203698517320e-02
7.964700000000000557e+01 4.665200000000000102e+01 2.890599999999999881e+01 9.629569000000000045e-01 -9.738994578247472944e-02
7.968000000000000682e+01 4.621900000000000119e+01 1.900000000000000000e+01 -3.728518999999999917e+00 9.737070749780937784e-02
7.968000000000000682e+01 4.781700000000000017e+01 1.900000000000000000e+01 -2.992236999999999814e+00 9.727549307539554158e-02
7.969599999999999795e+01 3.466499999999999915e+01 3.033800000000000097e+01 3.617783000000000193e+00 -6.571328041431037659e-02
7.969799999999999329e+01 2.444500000000000028e+01 1.390000000000000036e+01 -8.276612999999999332e+00 -4.208251343830705649e-01
7.970199999999999818e+01 4.313100000000000023e+01 2.992000000000000171e+01 -3.428871000000000002e+00 -9.762566180713341812e-02
7.970499999999999829e+01 5.222699999999999676e+01 2.680300000000000082e+01 4.744054000000000215e+00 -1.820425915351310819e-01
7.970600000000000307e+01 2.568299999999999983e+01 2.629500000000000171e+01 -5.248959000000000152e+00 -5.944929652416942878e-02
7.971699999999999875e+01 3.643099999999999739e+01 3.139999999999999858e+01 -1.835073999999999872e-01 -6.647185986535249225e-02
7.971699999999999875e+01 3.748100000000000165e+01 3.139999999999999858e+01 1.286141000000000090e-01 -6.649008395518299364e-02
7.971699999999999875e+01 2.553399999999999892e+01 1.329499999999999993e+01 -4.677629999999999733e+00 -1.241945173381034939e-01
7.972299999999999898e+01 2.155300000000000082e+01 2.017299999999999827e+01 -3.181192999999999937e+00 -3.180541979093910454e-01
7.972599999999999909e+01 2.805900000000000105e+01 3.137999999999999901e+01 -5.920120999999999967e+00 -7.229285734834819954e-02
7.973499999999999943e+01 3.763000000000000256e+01 2.912500000000000000e+01 -5.637222000000000399e+00 -6.526077126471878376e-02
7.973699999999999477e+01 4.032200000000000273e+01 3.094900000000000162e+01 4.622931000000000124e-01 1.055873771101162595e-01
7.973999999999999488e+01 4.322999999999999687e+01 1.928600000000000136e+01 -1.758420000000000094e+00 9.713965513000240304e-02
7.974299999999999500e+01 3.109600000000000009e+01 3.245499999999999829e+01 9.334538000000000224e+00 -6.906306768122118245e-02
7.974299999999999500e+01 4.654800000000000182e+01 1.823999999999999844e+01 -6.477210999999999608e+00 9.808631040129477119e-02
7.974299999999999500e+01 4.748799999999999955e+01 1.823999999999999844e+01 -9.035149999999999793e+00 9.798427702007719842e-02
7.975199999999999534e+01 2.697100000000000009e+01 3.090800000000000125e+01 -1.260647999999999946e+01 -7.470370075222365625e-02
7.975400000000000489e+01 3.436200000000000188e+01 3.103800000000000026e+01 8.337013000000000673e+00 -6.615085824590564989e-02
7.976200000000000045e+01 4.992799999999999727e+01 2.434499999999999886e+01 -6.730774000000000479e-01 -6.059229266292332980e-03
7.976900000000000546e+01 3.374499999999999744e+01 3.413300000000000267e+01 1.676736000000000004e+00 -8.037595681497446132e-02
7.979399999999999693e+01 4.204399999999999693e+01 3.079799999999999827e+01 -9.491802999999999768e-01 1.038952999068688127e-01
7.979500000000000171e+01 3.277100000000000080e+01 3.414999999999999858e+01 1.486814999999999998e+00 -8.099685635728380573e-02
7.980200000000000671e+01 3.422899999999999920e+01 3.215899999999999892e+01 8.262988000000000000e+00 -6.702737118451490561e-02
7.980200000000000671e+01 5.209599999999999653e+01 2.591400000000000148e+01 1.627861999999999920e+00 -1.821770471275661607e-01
7.982500000000000284e+01 4.456099999999999994e+01 2.955999999999999872e+01 5.584247000000000405e+00 -9.738801059498028434e-02
7.982699999999999818e+01 2.836899999999999977e+01 1.410999999999999943e+01 -6.584100000000000286e+00 -5.182714654823709216e-02
7.983199999999999363e+01 2.989399999999999835e+01 1.308300000000000018e+01 -6.124750999999999834e+00 -1.702450699982408500e-01
7.983199999999999363e+01 3.141400000000000148e+01 1.308300000000000018e+01 -8.968583999999999889e+00 -1.742090807394494623e-01
7.984000000000000341e+01 3.450699999999999790e+01 1.829700000000000060e+01 -6.597049000000000163e+00 -7.062529377070352055e-03
7.985200000000000387e+01 3.434700000000000131e+01 1.726500000000000057e+01 -9.837021000000000015e+00 -3.308205268472050840e-03
7.985500000000000398e+01 3.695600000000000307e+01 2.892000000000000171e+01 -3.332335000000000047e+00 -6.478420703062351405e-02
7.985899999999999466e+01 4.200699999999999790e+01 1.966499999999999915e+01 -3.390623999999999860e+00 9.657780035447613431e-02
7.986899999999999977e+01 2.887000000000000099e+01 1.391000000000000014e+01 -8.759318000000000382e+00 -5.425893436502061962e-02
7.987800000000000011e+01 3.258200000000000074e+01 1.403400000000000070e+01 -1.005108000000000068e+01 -1.746213483121883958e-01
7.989799999999999613e+01 2.696900000000000119e+01 1.410999999999999943e+01 -1.160548999999999964e+01 -1.626907865844008372e-01
7.989900000000000091e+01 2.230699999999999861e+01 2.145200000000000173e+01 -5.785338999999999565e+00 -8.156145590227782682e-02
7.989900000000000091e+01 2.363800000000000168e+01 2.237399999999999878e+01 4.275439999999999685e+00 -8.126299093767778980e-02
7.990600000000000591e+01 2.185099999999999909e+01 1.592999999999999972e+01 1.441686000000000079e-01 -2.637192048367418273e-01
7.991100000000000136e+01 3.474300000000000210e+01 1.907700000000000173e+01 -1.059320999999999957e+00 1.001486216280037256e-01
7.991100000000000136e+01 3.593399999999999750e+01 1.974099999999999966e+01 -5.675733000000000139e+00 -8.593684619412665995e-03
7.992100000000000648e+01 4.738300000000000267e+01 2.971799999999999997e+01 -6.990364999999999718e+00 -9.751507842796744430e-02
7.993500000000000227e+01 3.851200000000000045e+01 1.936499999999999844e+01 -6.019414000000000264e+00 -1.028922069177017583e-02
7.993699999999999761e+01 3.143900000000000006e+01 3.318200000000000216e+01 3.888212999999999919e+00 -8.037449377964647756e-02
7.993800000000000239e+01 4.866799999999999926e+01 1.987699999999999889e+01 1.228126999999999969e+00 9.641228682738769984e-02
7.993800000000000239e+01 4.868399999999999750e+01 2.996000000000000085e+01 -2.718604000000000021e+00 -7.727096194073371227e-02
7.994299999999999784e+01 2.304700000000000060e+01 1.563899999999999935e+01 -1.271098000000000061e+00 -2.704034286527247088e-01
7.994599999999999795e+01 5.084799999999999898e+01 2.885999999999999943e+01 1.486658000000000079e+01 -9.744971161554454031e-02
7.995000000000000284e+01 2.047599999999999909e+01 1.685099999999999909e+01 -2.073859000000000119e+00 -2.640642171232982505e-01
7.995000000000000284e+01 2.047599999999999909e+01 1.790099999999999980e+01 -2.056287999999999894e+00 -2.836411157804117344e-01
7.995399999999999352e+01 3.447699999999999676e+01 3.270100000000000051e+01 3.318442000000000114e+00 -7.812153144219438627e-02
7.996299999999999386e+01 3.509799999999999898e+01 3.103800000000000026e+01 3.864301999999999904e+00 -6.561995770712907017e-02
7.996500000000000341e+01 2.446999999999999886e+01 2.514699999999999847e+01 -4.169872999999999941e+00 -1.837483391295503532e-01
7.996699999999999875e+01 2.118400000000000105e+01 1.926599999999999824e+01 -3.025293000000000010e+00 -3.097763589939762641e-01
7.997299999999999898e+01 2.611599999999999966e+01 2.699500000000000099e+01 -1.009864999999999924e+01 -5.582503753826859733e-02
7.998799999999999955e+01 4.685799999999999699e+01 2.946300000000000097e+01 -3.431528000000000134e+00 -9.734675004550580324e-02
7.999099999999999966e+01 3.476200000000000045e+01 3.350699999999999790e+01 1.993106999999999962e+00 -7.877640651626968693e-02
7.999399999999999977e+01 4.951100000000000279e+01 2.398699999999999832e+01 8.128049999999999997e-01 -6.506051264527216646e-03
7.999699999999999989e+01 3.601899999999999835e+01 3.181800000000000139e+01 3.025532999999999806e+00 -6.617153960592493667e-02
7.999800000000000466e+01 2.886899999999999977e+01 3.179899999999999949e+01 5.271293000000000006e+00 -6.916124057440270478e-02
8.000199999999999534e+01 2.371499999999999986e+01 1.480499999999999972e+01 -3.101799999999999891e+00 -4.211621314986737086e-01
8.000499999999999545e+01 3.956400000000000006e+01 3.086899999999999977e+01 -1.625550000000000050e+00 1.062013662226631433e-01
8.001500000000000057e+01 2.193499999999999872e+01 2.105000000000000071e+01 -4.178486999999999618e+00 -8.093064242559751265e-02
8.001800000000000068e+01 4.954200000000000159e+01 2.937099999999999866e+01 1.296181999999999945e+01 -9.746579485572673396e-02
8.001999999999999602e+01 2.476599999999999824e+01 1.335299999999999976e+01 -4.110955999999999833e+00 -4.193739856589349668e-01
8.003199999999999648e+01 4.038400000000000034e+01 2.021199999999999974e+01 -5.514699000000000240e+00 -9.097624273617372151e-03
8.003499999999999659e+01 3.331000000000000227e+01 3.450000000000000000e+01 -3.241883999999999877e-01 -8.038003598548351669e-02
8.004200000000000159e+01 2.650100000000000122e+01 2.834299999999999997e+01 -7.726395000000000124e+00 -5.920420267148683580e-02
8.004200000000000159e+01 2.650100000000000122e+01 2.920799999999999841e+01 -1.564681999999999995e+01 -6.363617960844249188e-02
8.004200000000000159e+01 2.650100000000000122e+01 3.014799999999999969e+01 -2.137355000000000160e+01 -6.888989246433784019e-02
8.005100000000000193e+01 3.044099999999999895e+01 3.212199999999999989e+01 9.927763999999999811e+00 -6.762297250488107092e-02
8.005400000000000205e+01 4.836500000000000199e+01 1.862500000000000000e+01 -6.332192000000000043e+00 9.748731569140153819e-02
8.005599999999999739e+01 4.542499999999999716e+01 1.923100000000000165e+01 -3.809718000000000160e+00 9.706003234289037329e-02
8.006199999999999761e+01 3.439300000000000068e+01 3.435699999999999932e+01 8.813803999999999528e-01 -7.959551182271648595e-02
8.007099999999999795e+01 2.431200000000000117e+01 2.423499999999999943e+01 -8.245099000000000178e-01 -1.885953002207086948e-01
8.007999999999999829e+01 5.123400000000000176e+01 2.484299999999999997e+01 -7.768226000000000298e-01 -6.345271413058149734e-03
8.009799999999999898e+01 4.904099999999999682e+01 2.329500000000000171e+01 7.483467000000000313e-01 -7.166210884749726721e-03
8.010200000000000387e+01 5.001200000000000045e+01 1.879100000000000037e+01 3.573887000000000036e-01 -8.020045989442389778e-02
8.011599999999999966e+01 2.767200000000000060e+01 3.106400000000000006e+01 -2.246415999999999968e+01 -6.830704059840488063e-02
8.012800000000000011e+01 4.526100000000000279e+01 2.950199999999999889e+01 5.709939999999999571e+00 -9.714156305037116579e-02
8.014100000000000534e+01 3.372299999999999898e+01 1.608200000000000074e+01 -8.863039999999999807e+00 -1.749426650086010337e-01
8.014400000000000546e+01 4.894599999999999795e+01 2.160000000000000142e+01 -4.335802999999999741e-01 -8.903145070227371990e-03
8.014600000000000080e+01 2.622400000000000020e+01 2.767699999999999960e+01 -4.178882999999999903e+00 -5.449964195934885181e-02
8.014799999999999613e+01 2.095599999999999952e+01 1.594100000000000072e+01 -2.605541000000000107e+00 -4.194551996493004475e-01
8.015900000000000603e+01 2.584400000000000119e+01 1.340199999999999925e+01 -5.776561000000000057e+00 -1.654832583926376943e-01
8.016299999999999670e+01 4.119400000000000261e+01 3.086899999999999977e+01 5.670804999999999652e+00 1.042571454177944473e-01
8.017400000000000659e+01 4.701800000000000068e+01 1.770700000000000074e+01 -3.777715000000000156e+00 -8.036600039280498986e-02
8.018000000000000682e+01 4.381499999999999773e+01 2.992500000000000071e+01 -9.911955999999999545e-01 -9.718106624467361121e-02
8.018999999999999773e+01 4.896800000000000352e+01 2.248199999999999932e+01 1.105685000000000073e+01 -8.072493083621339049e-03
8.019799999999999329e+01 3.695600000000000307e+01 3.199599999999999866e+01 1.377739000000000047e+01 1.087690759569953369e-01
8.021299999999999386e+01 3.853499999999999659e+01 3.125199999999999889e+01 -3.527216999999999825e+00 1.070067105304921273e-01
8.021299999999999386e+01 4.578799999999999670e+01 1.853000000000000114e+01 -4.127201999999999593e+00 9.774648312435055275e-02
8.021399999999999864e+01 3.359899999999999665e+01 1.506199999999999939e+01 -3.347623000000000015e+00 -1.761963692521428260e-01
8.021999999999999886e+01 4.916499999999999915e+01 1.879100000000000037e+01 -1.418835999999999986e+00 9.724958413324671924e-02
8.023399999999999466e+01 5.133200000000000074e+01 2.849599999999999866e+01 1.246721999999999930e+01 -1.819075579114497465e-01
8.024200000000000443e+01 2.085800000000000054e+01 1.877799999999999869e+01 -2.823976000000000042e+00 -2.992079758078236007e-01
8.024399999999999977e+01 4.404500000000000171e+01 1.943799999999999883e+01 1.097226999999999997e+01 9.677861633008419395e-02
8.026200000000000045e+01 3.196399999999999864e+01 3.403199999999999648e+01 1.536243999999999943e-01 -8.008237928016422036e-02
8.026200000000000045e+01 5.008800000000000097e+01 2.891100000000000136e+01 1.583567000000000036e+01 -1.816308534795175456e-01
8.026500000000000057e+01 4.238000000000000256e+01 1.961100000000000065e+01 -1.886479000000000017e+00 9.650137000909880802e-02
8.026900000000000546e+01 2.414799999999999969e+01 1.410500000000000043e+01 -3.760736000000000079e+00 -4.195718325623417622e-01
8.027700000000000102e+01 4.259100000000000108e+01 3.040299999999999869e+01 -2.989345000000000141e+00 1.031211484835135445e-01
8.029800000000000182e+01 4.957900000000000063e+01 1.972100000000000009e+01 5.772988999999999926e+00 9.644494594552077693e-02
8.030200000000000671e+01 2.936100000000000065e+01 1.351399999999999935e+01 -9.737695999999999685e+00 -1.705256749941098104e-01
8.030200000000000671e+01 3.065399999999999991e+01 1.279299999999999926e+01 -5.636636000000000202e+00 -1.761756366845441957e-01
8.030200000000000671e+01 3.194699999999999918e+01 1.351399999999999935e+01 -1.899961000000000055e+01 -1.769308788787186948e-01
8.030299999999999727e+01 2.228399999999999892e+01 1.543900000000000006e+01 -2.402066000000000034e+00 -4.200730541145895058e-01
8.031799999999999784e+01 3.321699999999999875e+01 1.455499999999999972e+01 -4.105280999999999736e+00 -1.013590415717178644e-01
8.032200000000000273e+01 4.109700000000000131e+01 2.035500000000000043e+01 -2.695524999999999949e+00 -9.601779065542888347e-03
8.034300000000000352e+01 3.523400000000000176e+01 1.947299999999999898e+01 2.032166000000000139e+00 -1.078572233250560224e-02
8.034300000000000352e+01 3.663400000000000034e+01 1.947299999999999898e+01 -7.196549000000000085e+00 -1.098412879294180869e-02
8.035599999999999454e+01 4.927600000000000335e+01 2.042099999999999937e+01 7.092753000000000085e+00 9.585483126568554446e-02
8.035599999999999454e+01 5.090599999999999881e+01 1.879100000000000037e+01 1.169362000000000013e+00 -8.028849925403942767e-02
8.038100000000000023e+01 5.249399999999999977e+01 2.638200000000000145e+01 -1.139117000000000068e+01 -1.824176139575408861e-01
8.038100000000000023e+01 5.249399999999999977e+01 2.732199999999999918e+01 -2.437809000000000026e+01 -1.823008671858897256e-01
8.039100000000000534e+01 4.033200000000000074e+01 3.090700000000000003e+01 1.761319000000000079e+00 1.048374522574540280e-01
8.039300000000000068e+01 3.558599999999999852e+01 3.230899999999999750e+01 4.399987999999999566e+00 -7.664581704343097213e-02
8.039799999999999613e+01 2.438700000000000045e+01 1.359699999999999953e+01 -3.467636999999999858e+00 -4.186443061815126043e-01
8.040200000000000102e+01 2.766900000000000048e+01 1.437800000000000011e+01 -8.418072999999999695e+00 -5.352226728988233873e-02
8.040300000000000580e+01 2.412900000000000134e+01 2.276999999999999957e+01 9.494224000000000885e+00 -7.914591621201838567e-02
8.040300000000000580e+01 2.433800000000000097e+01 2.350600000000000023e+01 2.418873000000000051e+00 -1.894465547966212582e-01
8.040300000000000580e+01 3.764000000000000057e+01 1.919099999999999895e+01 -6.327018999999999949e+00 -1.194541842042352690e-02
8.040600000000000591e+01 4.792499999999999716e+01 3.013400000000000034e+01 -1.298075000000000045e+01 -7.697298761013351975e-02
8.041299999999999670e+01 4.606700000000000017e+01 2.953900000000000148e+01 6.415357000000000198e+00 -9.698911716567147623e-02
8.041700000000000159e+01 2.519900000000000162e+01 1.286200000000000010e+01 -3.125795999999999797e+00 -1.707273324941054049e-01
8.042400000000000659e+01 2.290299999999999869e+01 2.193299999999999983e+01 -2.565711999999999993e+00 -7.927373443731233760e-02
8.042700000000000671e+01 4.948700000000000188e+01 1.794099999999999895e+01 -1.204813000000000064e-02 -8.047771891242430642e-02
8.042700000000000671e+01 5.053699999999999903e+01 1.794099999999999895e+01 8.826312999999999520e-02 -8.052830714494949027e-02
8.042700000000000671e+01 5.053699999999999903e+01 1.964099999999999824e+01 2.378283999999999843e+00 9.645936261156065616e-02
8.043800000000000239e+01 2.438200000000000145e+01 2.537500000000000000e+01 -4.760500999999999650e+00 -1.790245726426637485e-01
8.045000000000000284e+01 4.905100000000000193e+01 2.976699999999999946e+01 -5.030120000000000147e-01 -7.699865617630521908e-02
8.046500000000000341e+01 3.968399999999999750e+01 1.994500000000000028e+01 -6.395815999999999946e+00 -1.053659897670321775e-02
8.046599999999999397e+01 2.974099999999999966e+01 3.197299999999999898e+01 1.674111999999999867e+01 -6.543058301426010748e-02
8.047899999999999920e+01 3.532800000000000296e+01 3.304200000000000159e+01 3.283936000000000188e+00 -7.717651846688970696e-02
8.048099999999999454e+01 2.308099999999999952e+01 1.514499999999999957e+01 -2.822890000000000121e+00 -4.198350374821212538e-01
8.050300000000000011e+01 4.625800000000000267e+01 1.776999999999999957e+01 -4.252917000000000058e+00 -8.033807958315869469e-02
8.050300000000000011e+01 4.777799999999999869e+01 1.776999999999999957e+01 -5.738044999999999618e+00 -8.044835409866925302e-02
8.051200000000000045e+01 2.726099999999999923e+01 3.043799999999999883e+01 -1.409088000000000029e+01 -6.139716597351538990e-02
8.053100000000000591e+01 2.826500000000000057e+01 3.129100000000000037e+01 3.651565000000000172e+00 -6.395830200589100456e-02
8.053600000000000136e+01 3.776599999999999824e+01 3.206600000000000250e+01 6.807368999999999559e+00 1.069507594518690069e-01
8.054300000000000637e+01 3.386800000000000210e+01 3.495300000000000296e+01 1.798105000000000064e+00 -7.934856242821478056e-02
8.057299999999999329e+01 2.148199999999999932e+01 2.054200000000000159e+01 -3.237397000000000080e+00 -2.308895896101307021e-01
8.057500000000000284e+01 2.693199999999999861e+01 2.967800000000000082e+01 -2.733247000000000071e+01 -5.654094996212627455e-02
8.057800000000000296e+01 2.158299999999999841e+01 1.536500000000000021e+01 -3.518549000000000149e+00 -4.177757165087433444e-01
8.058700000000000330e+01 3.524300000000000210e+01 3.403199999999999648e+01 1.553571000000000035e+00 -7.792115671272295541e-02
8.059000000000000341e+01 5.003799999999999670e+01 2.437600000000000122e+01 -8.517185000000000450e-01 -6.918534053420575744e-03
8.059099999999999397e+01 2.343299999999999983e+01 1.479499999999999993e+01 6.286422999999999872e-01 -4.192634563014984161e-01
8.059099999999999397e+01 2.633500000000000085e+01 1.379899999999999949e+01 -8.244991999999999877e+00 -1.701257075056480661e-01
8.060200000000000387e+01 2.111799999999999855e+01 1.972899999999999920e+01 -2.724054999999999893e+00 -2.289254815687625233e-01
8.060699999999999932e+01 4.456099999999999994e+01 2.990500000000000114e+01 2.562945000000000029e+00 -9.683551001023490978e-02
8.060899999999999466e+01 5.195900000000000318e+01 2.544000000000000128e+01 2.996614999999999807e+00 -1.825676563268681662e-01
8.061100000000000421e+01 3.480199999999999960e+01 1.686899999999999977e+01 -7.062509999999999621e+00 1.019412773088286678e-01
8.061100000000000421e+01 3.480199999999999960e+01 1.877299999999999969e+01 -6.187037000000000120e+00 -1.402599910252891845e-02
8.061499999999999488e+01 3.448899999999999721e+01 1.637399999999999878e+01 -5.925877999999999979e+00 -1.002079078709122301e-01
8.062600000000000477e+01 4.039699999999999847e+01 2.029599999999999937e+01 5.249220000000000219e+00 -1.029075716662029502e-02
8.062699999999999534e+01 3.097700000000000031e+01 3.270300000000000296e+01 7.602814000000000405e+00 -7.713829113745708510e-02
8.062800000000000011e+01 2.883500000000000085e+01 1.417900000000000027e+01 -1.054388999999999932e+01 -5.811452960112283017e-02
8.062800000000000011e+01 3.247299999999999898e+01 1.417900000000000027e+01 -1.258742999999999945e+01 -1.780466258671226931e-01
8.063200000000000500e+01 2.683800000000000097e+01 2.877599999999999980e+01 -6.645350999999999786e+00 -5.090597855436643920e-02
8.064700000000000557e+01 3.593399999999999750e+01 1.953200000000000003e+01 -4.626865999999999701e+00 -1.181624984364842632e-02
8.067100000000000648e+01 4.175200000000000244e+01 3.041600000000000037e+01 1.021697999999999951e+01 1.034004845139750994e-01
8.067100000000000648e+01 5.202400000000000091e+01 2.808200000000000074e+01 -9.710267999999999233e+00 -1.822635525596433825e-01
8.067400000000000659e+01 4.716599999999999682e+01 3.016900000000000048e+01 -3.215666999999999831e+00 -7.673131473272370995e-02
8.067700000000000671e+01 3.625600000000000023e+01 3.239900000000000091e+01 8.696274000000000726e+00 -7.620763592541823783e-02
8.068000000000000682e+01 3.414600000000000080e+01 1.556600000000000072e+01 -4.822794000000000025e+00 -1.008500383202066697e-01
8.068300000000000693e+01 4.181900000000000261e+01 2.033200000000000074e+01 -5.782962000000000380e+00 -1.048850738458460483e-02
8.069199999999999307e+01 4.307500000000000284e+01 3.022700000000000031e+01 -6.870980999999999561e+00 1.024067629418635994e-01
8.070799999999999841e+01 5.056400000000000006e+01 2.863899999999999935e+01 8.502881999999999607e+00 -1.819722859612090682e-01
8.073499999999999943e+01 4.868500000000000227e+01 3.007100000000000151e+01 -8.006256000000000483e+00 -7.686818025020963896e-02
8.074200000000000443e+01 2.655999999999999872e+01 2.803999999999999915e+01 -9.208512999999999948e+00 -4.521912752770698707e-02
8.074699999999999989e+01 2.028900000000000148e+01 1.649599999999999866e+01 -2.813994999999999802e+00 -3.633082806074601212e-01
8.075199999999999534e+01 3.469100000000000250e+01 1.782100000000000151e+01 -9.766908000000000811e+00 9.941500529406747944e-02
8.076099999999999568e+01 3.825800000000000267e+01 3.200399999999999778e+01 -2.044318999999999997e-01 1.060055502463628646e-01
8.077200000000000557e+01 2.501500000000000057e+01 2.655099999999999838e+01 -4.296561999999999770e+00 -3.709322585684031448e-02
8.077200000000000557e+01 2.989399999999999835e+01 1.308300000000000018e+01 -7.576137000000000121e+00 4.035350877918596202e-02
