4.897399999999999665e+01 6.854900000000000659e+01 8.248199999999999932e+01 -2.228991000000000167e+00 -1.558610811428103871e-01
4.899600000000000222e+01 8.661299999999999955e+01 6.060399999999999920e+01 1.640335999999999927e+01 -1.987595296282832213e-01
4.899600000000000222e+01 8.353700000000000614e+01 8.706399999999999295e+01 7.390547999999999895e+00 -8.827353238640497923e-02
4.900699999999999790e+01 9.726800000000000068e+01 6.632500000000000284e+01 -4.983751999999999960e+00 -2.906167408687978515e-01
4.903199999999999648e+01 9.095999999999999375e+01 5.959400000000000119e+01 9.596234999999999626e-01 -2.048818167690621972e-01
4.903900000000000148e+01 7.296399999999999864e+01 6.521699999999999875e+01 2.736085999999999796e+00 -2.795373411964964250e-01
4.903900000000000148e+01 7.296399999999999864e+01 6.626699999999999591e+01 8.063779000000000252e+00 -2.841819757839155747e-01
4.903999999999999915e+01 9.610099999999999909e+01 5.841100000000000136e+01 -7.918508000000000102e+00 -3.001935804925836559e-01
4.904500000000000171e+01 9.880100000000000193e+01 7.674399999999999977e+01 4.820183000000000106e+00 -3.944140940596297940e-01
4.905499999999999972e+01 9.871200000000000330e+01 6.707200000000000273e+01 -2.718154999999999877e+00 -2.906890257637525510e-01
4.906300000000000239e+01 9.643200000000000216e+01 8.069400000000000261e+01 -8.002235999999999905e+00 -3.046391193157122479e-01
4.906400000000000006e+01 8.971899999999999409e+01 8.652700000000000102e+01 2.687689999999999912e+01 -8.541685815782196212e-02
4.906400000000000006e+01 8.992799999999999727e+01 8.579099999999999682e+01 3.498210999999999871e+01 -8.500230601571104327e-02
4.906400000000000006e+01 9.525600000000000023e+01 8.134699999999999420e+01 5.868829999999999814e+01 -3.817687982318812567e-01
4.906799999999999784e+01 8.215699999999999648e+01 8.531799999999999784e+01 -4.091932999999999820e-01 -8.789502167682006206e-02
4.907500000000000284e+01 8.816400000000000148e+01 6.060399999999999920e+01 3.621099999999999852e+01 -2.001823046874928180e-01
4.908899999999999864e+01 6.891899999999999693e+01 8.330500000000000682e+01 1.946776000000000062e+00 -1.018041492957968697e-01
4.908899999999999864e+01 7.181100000000000705e+01 8.330500000000000682e+01 2.899489000000000161e+01 1.170249687814673561e-01
4.908899999999999864e+01 7.206499999999999773e+01 8.241100000000000136e+01 2.106844999999999857e+01 -1.018640855470944462e-01
4.908899999999999864e+01 7.227400000000000091e+01 8.167499999999999716e+01 1.289569999999999972e+01 -3.536815214972273136e-01
4.911500000000000199e+01 8.315999999999999659e+01 6.090200000000000102e+01 1.215789000000000009e+01 -2.837093357137960847e-01
4.912100000000000222e+01 8.033799999999999386e+01 8.462000000000000455e+01 2.338098000000000010e+00 -8.913705519844954128e-02
4.912299999999999756e+01 7.373900000000000432e+01 6.973699999999999477e+01 8.017620000000000857e+00 -2.934762833396548087e-01
4.912899999999999778e+01 9.784600000000000364e+01 6.653199999999999648e+01 -3.382054999999999811e+00 -2.907380045261350188e-01
4.915999999999999659e+01 8.652299999999999613e+01 8.750700000000000500e+01 -3.247811000000000092e+01 -8.703117557393760806e-02
4.916700000000000159e+01 7.895799999999999841e+01 8.500900000000000034e+01 1.658185999999999938e+00 -9.161666735454912502e-02
4.918999999999999773e+01 9.760200000000000387e+01 8.010299999999999443e+01 -3.855664000000000158e+01 -3.946916748293810562e-01
4.919899999999999807e+01 9.166899999999999693e+01 5.754999999999999716e+01 5.533125000000000071e+00 -1.706403695286641264e-01
4.920199999999999818e+01 9.795600000000000307e+01 6.111500000000000199e+01 2.401133999999999880e+00 -2.966057245246368490e-01
4.921699999999999875e+01 8.912399999999999523e+01 7.996800000000000352e+01 9.012506000000000128e-01 -3.823652317265607836e-01
4.921699999999999875e+01 9.031499999999999773e+01 7.930400000000000205e+01 3.229730000000000101e-01 -3.040855761052290718e-01
4.922699999999999676e+01 6.965099999999999625e+01 7.511700000000000443e+01 -1.944612999999999925e+00 -2.834781903398185254e-01
4.923199999999999932e+01 9.948799999999999955e+01 7.366400000000000148e+01 -7.882098000000000049e+00 -2.872237878945336220e-01
4.924300000000000210e+01 9.304399999999999693e+01 5.662899999999999778e+01 4.210454000000000363e+00 -1.685491571176368775e-01
4.924499999999999744e+01 7.357699999999999818e+01 7.126200000000000045e+01 -5.929339999999999833e+00 3.855071948251800277e-03
4.924499999999999744e+01 7.378600000000000136e+01 7.052599999999999625e+01 -2.421297000000000033e+00 -2.949663772922191396e-01
4.924600000000000222e+01 7.330899999999999750e+01 7.195699999999999363e+01 -5.283039999999999736e+00 4.859029617723617002e-03
4.924699999999999989e+01 7.261199999999999477e+01 8.068300000000000693e+01 1.242652000000000001e+01 -3.540542430805500573e-01
4.924699999999999989e+01 7.282200000000000273e+01 7.994700000000000273e+01 1.749592000000000169e+01 -3.543390927269216006e-01
4.924699999999999989e+01 7.401200000000000045e+01 7.928300000000000125e+01 -1.197888000000000019e+01 -3.548170114882868154e-01
4.925300000000000011e+01 8.926200000000000045e+01 8.357699999999999818e+01 8.088222000000000023e+00 -8.416610522783637971e-02
4.925300000000000011e+01 9.793099999999999739e+01 7.934300000000000352e+01 -3.963221999999999667e+01 -1.746501841773386299e-01
4.925300000000000011e+01 9.653000000000000114e+01 6.400400000000000489e+01 -9.603400999999999854e+00 -2.927141359805897625e-01
4.925300000000000011e+01 9.653000000000000114e+01 6.540399999999999636e+01 -5.788393000000000121e+00 -2.911687100705614428e-01
4.926400000000000290e+01 7.067499999999999716e+01 7.429000000000000625e+01 -2.657494999999999941e+00 -2.877611963697462860e-01
4.926599999999999824e+01 9.752200000000000557e+01 6.546200000000000330e+01 -1.137408999999999892e+00 -2.916011384696797215e-01
4.926800000000000068e+01 7.185800000000000409e+01 7.347899999999999920e+01 -4.488793000000000255e+00 -2.915661075816812220e-01
4.926899999999999835e+01 1.007600000000000051e+02 7.319299999999999784e+01 -2.163022999999999918e+00 -2.880498045987260336e-01
4.927199999999999847e+01 9.446800000000000352e+01 5.744100000000000250e+01 1.098254999999999981e+01 -1.672117262260354176e-01
4.927400000000000091e+01 7.611199999999999477e+01 7.888800000000000523e+01 -4.641522000000000148e+00 -1.234318817585710465e-01
4.927600000000000335e+01 9.912699999999999534e+01 6.203099999999999881e+01 3.474991999999999859e+00 -2.957243229627112280e-01
4.927600000000000335e+01 9.912699999999999534e+01 6.297099999999999653e+01 -3.299466999999999928e+00 -2.947242229865666974e-01
4.927700000000000102e+01 8.162600000000000477e+01 5.994700000000000273e+01 1.329296000000000078e+01 -2.875733850695171290e-01
4.931199999999999761e+01 9.622599999999999909e+01 6.470399999999999352e+01 -1.172405000000000008e+01 -2.917746336675369756e-01
4.932099999999999795e+01 8.025100000000000477e+01 5.902600000000000335e+01 4.530234000000000094e+00 -2.692216492832102404e-01
4.932600000000000051e+01 7.750400000000000489e+01 7.976699999999999591e+01 -1.862908000000000008e+00 -1.239709920310478053e-01
4.932999999999999829e+01 9.657099999999999795e+01 5.917099999999999937e+01 -8.524283000000000499e+00 -2.989788862275321035e-01
4.933200000000000074e+01 8.583799999999999386e+01 6.066899999999999693e+01 4.314970999999999890e+00 -1.980259596892817719e-01
4.933599999999999852e+01 8.259000000000000341e+01 8.601800000000000068e+01 2.029679999999999929e+00 -8.855505969463708937e-02
4.934300000000000352e+01 7.708799999999999386e+01 8.330299999999999727e+01 3.507686000000000082e+00 -8.192800608216352365e-02
4.934300000000000352e+01 7.734199999999999875e+01 8.419700000000000273e+01 1.026103999999999905e+00 -9.364438320440594821e-02
4.935000000000000142e+01 7.054000000000000625e+01 8.424599999999999511e+01 1.470473999999999926e+01 -1.137906663595110723e-01
4.935499999999999687e+01 8.742600000000000193e+01 6.053199999999999648e+01 9.368487000000000009e+00 -1.999201385651915019e-01
4.935799999999999699e+01 7.220999999999999375e+01 7.307999999999999829e+01 -4.455900999999999890e+00 -2.927627903516386576e-01
4.935999999999999943e+01 6.700600000000000023e+01 7.671500000000000341e+01 -8.911434999999999773e-01 -1.436985510783410636e-01
4.936399999999999721e+01 7.348900000000000432e+01 6.436700000000000443e+01 -1.677902999999999922e+00 -2.769333686803006067e-01
4.936599999999999966e+01 8.271399999999999864e+01 8.694899999999999807e+01 4.825048999999999921e+00 -8.935119402576266467e-02
4.937299999999999756e+01 7.753199999999999648e+01 8.150199999999999534e+01 2.633100999999999914e+00 -7.103174814952818716e-02
4.937700000000000244e+01 6.893300000000000693e+01 7.530299999999999727e+01 -1.640300000000000091e+00 -2.813232782295406187e-01
4.938100000000000023e+01 8.412000000000000455e+01 8.792400000000000659e+01 1.731547999999999976e-01 -8.903343179653280814e-02
4.938100000000000023e+01 9.837999999999999545e+01 7.740000000000000568e+01 1.211074999999999946e+01 -3.942631337469220121e-01
4.938199999999999790e+01 7.260699999999999932e+01 6.765999999999999659e+01 -9.052381999999999929e-01 -2.888496991251456314e-01
4.938199999999999790e+01 7.260699999999999932e+01 6.861799999999999500e+01 -6.186639000000000443e-01 -2.914478087995381883e-01
4.938400000000000034e+01 7.255700000000000216e+01 8.117000000000000171e+01 7.020656999999999925e+00 -3.538716011382868065e-01
4.939900000000000091e+01 8.975600000000000023e+01 8.436499999999999488e+01 1.548005999999999993e+01 -8.462816331907026257e-02
4.940100000000000335e+01 7.724899999999999523e+01 8.237999999999999545e+01 7.716944999999999499e-01 -7.623349231792468650e-02
4.940400000000000347e+01 9.130400000000000205e+01 5.912800000000000011e+01 1.436542999999999903e+00 -2.983036872443940446e-01
4.940400000000000347e+01 9.540000000000000568e+01 5.825500000000000256e+01 4.305979999999999919e+00 -3.002785194501493282e-01
4.942000000000000171e+01 9.809399999999999409e+01 7.844100000000000250e+01 1.140497000000000050e+01 -1.733177235415858941e-01
4.942300000000000182e+01 1.006500000000000057e+02 7.021200000000000330e+01 -1.493390999999999913e+00 -2.894780045445009553e-01
4.943099999999999739e+01 9.007999999999999829e+01 8.513299999999999557e+01 2.002992000000000061e+01 -8.498891003927533383e-02
4.943099999999999739e+01 7.615900000000000603e+01 6.126200000000000045e+01 -5.000011999999999901e+00 -2.503968100460315371e-01
4.943099999999999739e+01 7.638599999999999568e+01 6.046300000000000097e+01 -2.974241999999999830e+00 -2.523566090033941833e-01
4.943099999999999739e+01 7.767900000000000205e+01 5.974199999999999733e+01 -1.119938999999999929e+01 -2.588938140449419945e-01
4.943099999999999739e+01 8.845000000000000284e+01 8.204200000000000159e+01 -7.722631999999999941e+00 -8.372762700068113462e-02
4.943099999999999739e+01 8.865900000000000603e+01 8.130599999999999739e+01 -7.009075000000000166e+00 -3.838279354346225136e-01
4.943099999999999739e+01 8.865900000000000603e+01 8.277800000000000580e+01 -1.392997000000000085e+01 -8.403014466434870211e-02
4.943299999999999983e+01 8.902299999999999613e+01 8.729300000000000637e+01 1.557949999999999946e+01 -8.631752600495144756e-02
4.943399999999999750e+01 7.568899999999999295e+01 6.379399999999999693e+01 -3.177881999999999874e+00 -3.885678694204435790e-01
4.943500000000000227e+01 7.885399999999999920e+01 5.949199999999999733e+01 -2.372513999999999790e+00 -2.637784261799780428e-01
4.943699999999999761e+01 8.308299999999999841e+01 8.779900000000000659e+01 3.609151000000000220e+00 -8.987340793828757501e-02
4.943800000000000239e+01 9.991800000000000637e+01 6.885200000000000387e+01 -6.386797999999999753e+00 -2.899806920314405567e-01
4.944899999999999807e+01 8.731699999999999307e+01 8.741500000000000625e+01 7.143685999999999758e+00 -8.694023425110851411e-02
4.945100000000000051e+01 6.833799999999999386e+01 8.244100000000000250e+01 -9.190867000000000786e+00 -1.552650836191079298e-01
4.945700000000000074e+01 9.153300000000000125e+01 5.835900000000000176e+01 1.109172999999999965e+00 -1.712459591959183958e-01
4.946000000000000085e+01 7.628100000000000591e+01 6.207800000000000296e+01 -4.793096000000000245e+00 -2.501231110613731379e-01
4.946399999999999864e+01 9.212800000000000011e+01 7.956699999999999307e+01 9.277540000000000120e+00 -3.039275593114987295e-01
4.946600000000000108e+01 6.684799999999999898e+01 7.762699999999999534e+01 9.874522999999999495e-01 -1.421971627808704397e-01
4.946600000000000108e+01 6.710200000000000387e+01 7.852100000000000080e+01 1.094411999999999940e+00 -1.174284936239196886e-01
4.947299999999999898e+01 9.873999999999999488e+01 6.379800000000000182e+01 -3.432206000000000046e+01 -2.937525074618779763e-01
4.947599999999999909e+01 8.840000000000000568e+01 8.755800000000000693e+01 2.141904999999999859e+01 -8.668532470602868800e-02
4.947800000000000153e+01 6.823000000000000398e+01 7.974200000000000443e+01 7.455236000000000196e+00 -1.292050941330778469e-01
4.948899999999999721e+01 6.855899999999999750e+01 8.069199999999999307e+01 -5.114554000000000045e-01 -1.360432398515975250e-01
4.949000000000000199e+01 7.629300000000000637e+01 6.296200000000000330e+01 -5.292046000000000028e+00 -3.885701956471766527e-01
4.949099999999999966e+01 9.462800000000000011e+01 8.153700000000000614e+01 5.194395999999999702e+01 -3.820407626276130508e-01
4.949300000000000210e+01 8.574099999999999966e+01 8.737099999999999511e+01 -5.780645999999999951e+00 -8.767331162329486394e-02
4.949600000000000222e+01 9.078000000000000114e+01 5.975999999999999801e+01 2.799077000000000037e+00 -2.043194314506167064e-01
4.950000000000000000e+01 7.698900000000000432e+01 7.896699999999999875e+01 -4.097360000000000113e+00 -1.235159778843985257e-01
4.951599999999999824e+01 9.818600000000000705e+01 6.460699999999999932e+01 -1.016778000000000048e+01 -2.927439593330388723e-01
4.952100000000000080e+01 9.696200000000000330e+01 6.470399999999999352e+01 -9.973015000000000185e+00 -2.921362865448539070e-01
4.954599999999999937e+01 9.334999999999999432e+01 8.127100000000000080e+01 4.660204000000000235e+00 -3.821606691403854894e-01
4.954899999999999949e+01 8.454200000000000159e+01 6.106700000000000017e+01 6.923199000000000325e+00 -2.830444185433023119e-01
4.954999999999999716e+01 1.011899999999999977e+02 7.227899999999999636e+01 3.008321000000000023e+00 -2.886868218064465585e-01
4.955299999999999727e+01 1.002900000000000063e+02 6.967499999999999716e+01 -6.508409000000000333e+00 -2.896452940037766988e-01
4.955299999999999727e+01 9.690099999999999625e+01 8.026000000000000512e+01 -7.416188000000000002e+00 -1.609933768363252804e-01
4.956499999999999773e+01 9.866299999999999670e+01 6.621899999999999409e+01 -2.579912999999999901e+00 -2.914347703924674571e-01
4.956600000000000250e+01 9.865699999999999648e+01 6.127100000000000080e+01 1.523504999999999932e+01 -2.964442648516005252e-01
4.956900000000000261e+01 8.171699999999999875e+01 8.516400000000000148e+01 1.837911000000000128e-01 -8.887809142586826361e-02
4.957500000000000284e+01 7.960299999999999443e+01 8.506000000000000227e+01 1.536534999999999984e-01 -9.131108547753932769e-02
4.957600000000000051e+01 7.483299999999999841e+01 7.932599999999999341e+01 -1.776060999999999979e+01 -3.548643077203806895e-01
4.957999999999999829e+01 8.630800000000000693e+01 8.720199999999999818e+01 -1.675010999999999939e+01 -8.736050252028865204e-02
4.960300000000000153e+01 7.012500000000000000e+01 7.493600000000000705e+01 -3.477864999999999984e+00 -2.848545878724543234e-01
4.960600000000000165e+01 9.693500000000000227e+01 6.013100000000000023e+01 -1.295363000000000042e+01 -2.976211296511952487e-01
4.961399999999999721e+01 6.951500000000000057e+01 8.378600000000000136e+01 1.501131999999999911e+00 -1.068719956980252184e-01
4.961399999999999721e+01 7.121500000000000341e+01 8.378600000000000136e+01 1.721103000000000094e+01 -1.103516727067106740e-01
4.962199999999999989e+01 9.879399999999999693e+01 7.467600000000000193e+01 -2.155266000000000126e+00 -2.865800086162552107e-01
4.962199999999999989e+01 9.879399999999999693e+01 7.561199999999999477e+01 -4.735541999999999696e+00 -2.862939602214816803e-01
4.962299999999999756e+01 9.835999999999999943e+01 6.551900000000000546e+01 -1.476218999999999948e+00 -2.919377708329206067e-01
4.964999999999999858e+01 8.961499999999999488e+01 7.957099999999999795e+01 4.374755999999999645e+00 -3.714130671482656632e-01
4.965400000000000347e+01 7.523499999999999943e+01 7.892499999999999716e+01 -1.985023999999999944e+01 -3.549962674730311463e-01
4.967099999999999937e+01 8.396999999999999886e+01 6.108599999999999852e+01 1.708718000000000004e+01 -2.832189754428760531e-01
4.967799999999999727e+01 7.308599999999999852e+01 6.939300000000000068e+01 -3.399575999999999987e-02 -2.925647433359421234e-01
4.967900000000000205e+01 7.281799999999999784e+01 7.235399999999999920e+01 -2.230372000000000021e+00 -2.943651367252942963e-01
4.967999999999999972e+01 7.331199999999999761e+01 7.955100000000000193e+01 -3.506365000000000176e+00 -3.544844715524724243e-01
4.968099999999999739e+01 6.823300000000000409e+01 7.536100000000000421e+01 -2.922830999999999957e+00 -1.488789838664498766e-01
4.970100000000000051e+01 7.136700000000000443e+01 7.387600000000000477e+01 -2.482711000000000112e+00 -2.895102901675094542e-01
4.970400000000000063e+01 8.136700000000000443e+01 6.008200000000000074e+01 2.870846999999999927e+00 -2.872453556872401892e-01
4.971000000000000085e+01 9.590099999999999625e+01 8.106000000000000227e+01 9.711959999999999482e+00 -3.814588559974901871e-01
4.971200000000000330e+01 6.685599999999999454e+01 7.712800000000000011e+01 -2.337848999999999844e+00 -1.438058895649295676e-01
4.971699999999999875e+01 8.878900000000000148e+01 6.076100000000000279e+01 1.888572999999999880e+01 -2.004293061209661553e-01
4.971999999999999886e+01 6.700300000000000011e+01 7.618399999999999750e+01 -1.035465000000000080e+00 -1.459835466759019096e-01
4.972399999999999665e+01 9.251900000000000546e+01 5.722500000000000142e+01 4.222427999999999848e+00 -1.698163961227467933e-01
4.972399999999999665e+01 9.356900000000000261e+01 5.722500000000000142e+01 6.221568999999999683e+00 -1.685386161215121636e-01
4.972899999999999920e+01 1.011200000000000045e+02 7.119199999999999307e+01 -3.298271000000000175e+00 -2.892017886070599175e-01
4.973100000000000165e+01 9.256100000000000705e+01 8.026699999999999591e+01 1.166333999999999982e+01 -3.815856839373138465e-01
4.974399999999999977e+01 9.753499999999999659e+01 7.890999999999999659e+01 6.869256000000000029e+00 -1.742526871677792244e-01
4.974399999999999977e+01 9.920999999999999375e+01 6.759399999999999409e+01 -3.308806000000000136e+00 -2.905811475826231005e-01
4.974600000000000222e+01 9.486599999999999966e+01 5.794700000000000273e+01 1.015423999999999971e+01 -1.674149857743144065e-01
4.976400000000000290e+01 8.998699999999999477e+01 8.609399999999999409e+01 1.986541000000000068e+01 -8.576685110197961037e-02
4.976700000000000301e+01 9.142799999999999727e+01 7.950900000000000034e+01 7.617772999999999683e+00 -3.038869263618548811e-01
4.976899999999999835e+01 9.987099999999999511e+01 7.298999999999999488e+01 -1.689207999999999998e+01 -2.877878656413465075e-01
4.977600000000000335e+01 7.785800000000000409e+01 8.480700000000000216e+01 5.153328000000000353e-01 -9.414981837830056766e-02
4.977900000000000347e+01 9.888100000000000023e+01 6.421500000000000341e+01 -1.571936999999999962e+01 -2.933727374464295545e-01
4.977900000000000347e+01 9.888100000000000023e+01 6.507999999999999829e+01 -2.337829000000000157e+00 -2.925532769805436750e-01
4.977900000000000347e+01 9.888100000000000023e+01 6.669100000000000250e+01 -2.968821000000000154e+00 -2.911481342787676230e-01
4.977900000000000347e+01 6.881900000000000261e+01 8.324899999999999523e+01 -6.245266000000000428e-01 -9.986749817396387008e-02
4.977900000000000347e+01 9.726600000000000534e+01 7.966899999999999693e+01 -1.878125000000000000e+01 -3.945594653226065507e-01
4.979599999999999937e+01 7.837900000000000489e+01 5.958599999999999852e+01 -2.561228999999999978e+00 -2.615642227638969031e-01
4.980499999999999972e+01 9.873799999999999955e+01 7.374800000000000466e+01 -5.420531999999999684e+00 -2.869157622958051213e-01
4.981099999999999994e+01 8.661299999999999955e+01 6.037299999999999756e+01 3.821930000000000049e+00 -1.999953078250936434e-01
4.981099999999999994e+01 8.816400000000000148e+01 6.081400000000000006e+01 2.877752999999999872e+01 -1.998348155999662701e-01
4.982900000000000063e+01 8.080899999999999750e+01 5.947899999999999920e+01 9.762165000000000425e-01 -2.894104479543682107e-01
4.983100000000000307e+01 7.169400000000000261e+01 7.351699999999999591e+01 -3.840196999999999861e+00 -2.906370178890578249e-01
4.983599999999999852e+01 8.214900000000000091e+01 8.586400000000000432e+01 1.712722000000000078e+00 -8.948356270361426668e-02
4.983899999999999864e+01 8.050799999999999557e+01 8.487999999999999545e+01 -5.897356000000000265e-01 -9.029281579591377782e-02
4.985199999999999676e+01 8.524200000000000443e+01 6.100900000000000034e+01 1.976099999999999968e+00 -2.831660102209844210e-01
4.985900000000000176e+01 7.252299999999999613e+01 6.657699999999999818e+01 9.819468000000000085e-01 -2.855825630824576633e-01
4.987899999999999778e+01 8.979099999999999682e+01 8.693099999999999739e+01 1.479451000000000072e+01 -8.633299065732516486e-02
4.988900000000000290e+01 7.263899999999999579e+01 6.574200000000000443e+01 8.760795999999999584e-01 -2.824642593152003611e-01
4.988900000000000290e+01 7.289300000000000068e+01 6.484799999999999898e+01 -1.505244999999999944e+00 -2.789518177066904192e-01
4.988900000000000290e+01 7.433899999999999864e+01 6.404200000000000159e+01 -1.935116999999999976e+00 -3.891083108111270117e-01
4.989200000000000301e+01 8.985899999999999466e+01 8.466500000000000625e+01 7.651359000000000243e+00 -8.520432150049930820e-02
4.989800000000000324e+01 8.878000000000000114e+01 8.303499999999999659e+01 -6.591453999999999702e+00 -8.459644262276308502e-02
4.990100000000000335e+01 7.691899999999999693e+01 6.003199999999999648e+01 -2.740941999999999990e+00 -2.553547812271498296e-01
4.990299999999999869e+01 7.895799999999999841e+01 8.521800000000000352e+01 -9.553606999999999516e-01 -9.294355819788308049e-02
4.990400000000000347e+01 7.212199999999999989e+01 8.217900000000000205e+01 2.510396000000000072e+00 -3.533926546522004886e-01
4.991700000000000159e+01 8.918200000000000216e+01 8.027100000000000080e+01 1.142835999999999963e+01 -3.826199038961314303e-01
4.991799999999999926e+01 8.360800000000000409e+01 8.839499999999999602e+01 1.843069999999999986e+00 -9.045195085289967074e-02
4.992600000000000193e+01 8.504099999999999682e+01 8.763899999999999579e+01 1.209206999999999965e+01 -8.875497005667087880e-02
4.992900000000000205e+01 9.525600000000000023e+01 8.134699999999999420e+01 2.025551000000000101e+01 -3.817769652187363305e-01
4.993800000000000239e+01 7.498900000000000432e+01 6.406199999999999761e+01 1.776130999999999960e-01 -3.887391251997971420e-01
4.993900000000000006e+01 7.173999999999999488e+01 8.293600000000000705e+01 1.669192999999999927e+01 -1.040412949182164815e-01
4.994700000000000273e+01 7.287999999999999545e+01 8.025100000000000477e+01 -1.528564000000000078e+01 -3.541212236982160810e-01
4.994700000000000273e+01 7.914100000000000534e+01 5.973400000000000176e+01 -2.306970000000000187e+00 -2.637189616203666764e-01
4.995300000000000296e+01 9.031499999999999773e+01 7.951300000000000523e+01 6.155648000000000231e+00 -3.711174444816550122e-01
4.996099999999999852e+01 9.026200000000000045e+01 6.020199999999999818e+01 6.037613999999999592e+00 -2.029211638458778277e-01
4.996099999999999852e+01 9.129900000000000659e+01 5.931900000000000261e+01 1.859801999999999955e+00 -2.055576391438473927e-01
4.996200000000000330e+01 8.223300000000000409e+01 8.747400000000000375e+01 5.671578000000000230e+00 -9.105054366530015986e-02
4.997200000000000131e+01 8.179900000000000659e+01 6.078199999999999648e+01 4.535832000000000086e+00 -2.849511626118175212e-01
4.997699999999999676e+01 8.674099999999999966e+01 8.671099999999999852e+01 1.651770000000000138e+01 -8.724682799091752761e-02
4.998299999999999699e+01 7.036499999999999488e+01 8.385699999999999932e+01 -4.798303999999999903e+00 -1.084465048482580463e-01
4.998299999999999699e+01 7.401200000000000045e+01 7.949200000000000443e+01 -1.769972999999999885e+01 -3.545850899530721412e-01
4.999099999999999966e+01 6.769799999999999329e+01 7.900199999999999534e+01 4.394991000000000092e+00 -1.231481561168337596e-01
4.999099999999999966e+01 7.747499999999999432e+01 8.438100000000000023e+01 1.566116999999999926e-01 -9.456441338328799850e-02
4.999399999999999977e+01 9.796500000000000341e+01 6.085699999999999932e+01 3.780501000000000111e+00 -2.967415431861567532e-01
4.999600000000000222e+01 9.946500000000000341e+01 6.834399999999999409e+01 -6.380981000000000236e+00 -2.901845538515464007e-01
5.000600000000000023e+01 6.900100000000000477e+01 7.527700000000000102e+01 -1.578178000000000081e+00 -2.816745438373925436e-01
5.000699999999999790e+01 9.929500000000000171e+01 6.331700000000000017e+01 -3.011895000000000167e+01 -2.943573087127416832e-01
5.000900000000000034e+01 8.315999999999999659e+01 6.115599999999999881e+01 7.302114000000000438e+00 -2.834442879065520726e-01
5.000999999999999801e+01 7.611199999999999477e+01 7.867900000000000205e+01 -8.299668000000000490e+00 -3.550583388660518702e-01
5.000999999999999801e+01 6.747299999999999898e+01 7.542400000000000659e+01 -3.634500000000000064e+00 -1.488871898961150186e-01
5.001100000000000279e+01 9.796699999999999875e+01 7.820999999999999375e+01 5.456839999999999691e+01 -3.836853314017030225e-01
5.001299999999999812e+01 8.560800000000000409e+01 8.746899999999999409e+01 9.232673999999999381e+00 -8.837118594061846300e-02
5.001800000000000068e+01 9.537500000000000000e+01 5.842099999999999937e+01 1.226465999999999923e+01 -2.997193918057984297e-01
5.002400000000000091e+01 9.386299999999999955e+01 8.181199999999999761e+01 1.058386999999999922e+01 -3.824187671835251878e-01
5.002600000000000335e+01 7.756199999999999761e+01 7.946399999999999864e+01 -1.881839000000000084e+01 -1.243127078966893978e-01
5.003000000000000114e+01 9.651200000000000045e+01 5.947500000000000142e+01 -5.290840999999999461e-01 -2.983051227415778883e-01
5.003600000000000136e+01 7.061599999999999966e+01 7.454000000000000625e+01 -3.125141999999999864e+00 -2.865355147332871444e-01
5.003600000000000136e+01 9.918999999999999773e+01 6.170199999999999818e+01 5.297782000000000124e+01 -2.959693318358652125e-01
5.003600000000000136e+01 9.941700000000000159e+01 6.250099999999999767e+01 -1.739324999999999832e+01 -2.951906453763468718e-01
5.003900000000000148e+01 9.742600000000000193e+01 6.052700000000000102e+01 3.316408000000000023e+00 -2.970572849497630230e-01
5.004599999999999937e+01 7.979699999999999704e+01 5.958100000000000307e+01 -1.544413000000000036e+00 -2.658083267338241518e-01
5.005799999999999983e+01 9.215200000000000102e+01 5.782800000000000296e+01 2.299350000000000005e+00 -1.707111988065308505e-01
5.007200000000000273e+01 9.407399999999999807e+01 5.784700000000000131e+01 4.782115000000000116e+00 -1.684534347294569523e-01
5.007200000000000273e+01 9.917100000000000648e+01 7.304800000000000182e+01 -2.363709000000000060e+00 -2.874706641063319301e-01
5.007300000000000040e+01 8.949299999999999500e+01 6.073499999999999943e+01 1.324709999999999965e+01 -2.010952239886453774e-01
5.008100000000000307e+01 9.264799999999999613e+01 8.114900000000000091e+01 2.763001000000000040e+00 -3.822533067842907029e-01
5.008299999999999841e+01 7.782299999999999329e+01 8.102599999999999625e+01 5.446862999999999566e-01 -6.892934055958216399e-02
5.008700000000000330e+01 7.474399999999999977e+01 7.932099999999999795e+01 -2.762079999999999913e+01 -3.547340346871969419e-01
5.011899999999999977e+01 7.785399999999999920e+01 8.029900000000000659e+01 -7.643054000000000237e+00 -6.514402706120811515e-02
5.013100000000000023e+01 8.871699999999999875e+01 8.160899999999999466e+01 -2.291064999999999907e-01 -3.840231258361032074e-01
5.015299999999999869e+01 7.727200000000000557e+01 8.274699999999999989e+01 4.391368999999999967e-01 -7.835428107954582611e-02
5.015699999999999648e+01 7.231100000000000705e+01 6.813899999999999579e+01 -1.666676999999999964e+00 -2.896346317734660447e-01
5.015699999999999648e+01 7.242300000000000182e+01 6.733299999999999841e+01 -4.161970999999999865e-01 -2.875013769393609531e-01
5.015699999999999648e+01 7.254200000000000159e+01 6.895399999999999352e+01 -4.082563000000000386e+00 -2.914304707378098658e-01
5.015699999999999648e+01 7.350100000000000477e+01 6.991200000000000614e+01 8.761008999999999602e+00 -2.927615451936426694e-01
5.015699999999999648e+01 7.350100000000000477e+01 7.138400000000000034e+01 2.145337999999999967e-01 -2.955400360203581100e-01
5.015699999999999648e+01 7.370999999999999375e+01 7.064799999999999613e+01 2.873015999999999792e+00 -2.940337869860075726e-01
5.015800000000000125e+01 7.723999999999999488e+01 8.380700000000000216e+01 5.655168999999999890e-01 -9.442344070804381539e-02
5.016100000000000136e+01 7.217499999999999716e+01 7.273699999999999477e+01 -5.110510000000000330e-01 -2.924381690284020285e-01
5.016199999999999903e+01 8.128499999999999659e+01 6.706999999999999318e+01 -2.762623999999999924e+01 -3.845552307386790880e-01
5.016400000000000148e+01 9.186100000000000421e+01 8.000000000000000000e+01 6.643218000000000067e+00 -3.815541617306025812e-01
5.018699999999999761e+01 9.834300000000000352e+01 7.768500000000000227e+01 1.868875999999999848e+01 -3.942332463789133268e-01
5.018699999999999761e+01 9.859699999999999420e+01 7.679099999999999682e+01 -3.389355000000000118e+00 -3.943503582694949383e-01
5.018999999999999773e+01 7.635099999999999909e+01 6.326500000000000057e+01 -3.807999000000000134e+00 -3.882554920210940508e-01
5.018999999999999773e+01 7.656000000000000227e+01 6.252900000000000347e+01 -1.396096000000000004e+01 -3.884437965652166591e-01
5.019100000000000250e+01 7.644899999999999807e+01 6.079200000000000159e+01 -3.432993000000000183e+00 -2.526852632273026145e-01
5.019800000000000040e+01 7.770699999999999363e+01 8.196200000000000330e+01 1.645956999999999892e+00 -7.400041705627280475e-02
5.020400000000000063e+01 7.322899999999999920e+01 7.182800000000000296e+01 -1.380435000000000134e-01 -2.948680210294116755e-01
5.020799999999999841e+01 1.003499999999999943e+02 7.244599999999999795e+01 1.958111000000000104e+02 -2.883270987883957415e-01
5.021000000000000085e+01 7.261400000000000432e+01 8.162800000000000011e+01 -1.848158000000000101e+01 -3.536473628281424086e-01
5.021900000000000119e+01 7.123000000000000398e+01 7.383199999999999363e+01 -1.824224000000000068e+00 -2.889689274891636406e-01
5.022500000000000142e+01 8.834000000000000341e+01 8.734099999999999397e+01 1.527499000000000073e+01 -8.726012962309978582e-02
5.022999999999999687e+01 7.767900000000000205e+01 5.996900000000000119e+01 -7.086373000000000033e+00 -2.582444493420697484e-01
5.024799999999999756e+01 6.815800000000000125e+01 8.195900000000000318e+01 -1.117038999999999893e+00 -1.409155200824799004e-01
5.024799999999999756e+01 6.838500000000000512e+01 8.115999999999999659e+01 -6.252288000000000068e+00 -1.372517678229937532e-01
5.024799999999999756e+01 6.838500000000000512e+01 8.275799999999999557e+01 -1.021005000000000074e+01 -1.548649391109346296e-01
5.024799999999999756e+01 6.859399999999999409e+01 8.042400000000000659e+01 -1.461746999999999908e+00 -1.338195306598713996e-01
5.025399999999999778e+01 9.171999999999999886e+01 5.871399999999999864e+01 1.664217000000000057e+00 -1.716160042513653339e-01
5.027199999999999847e+01 7.810800000000000409e+01 8.514700000000000557e+01 -1.618068000000000006e-01 -9.477020283060748340e-02
5.027199999999999847e+01 7.980800000000000693e+01 8.514700000000000557e+01 -1.608629000000000087e+00 -9.207344701242485552e-02
5.027300000000000324e+01 1.006899999999999977e+02 7.167100000000000648e+01 8.530113000000000056e+01 -2.888502108122009693e-01
5.028000000000000114e+01 8.604099999999999682e+01 8.676900000000000546e+01 1.205305000000000071e+01 -8.792296488026575541e-02
5.028000000000000114e+01 8.744100000000000250e+01 8.676900000000000546e+01 1.464072999999999958e+01 -8.729723430668288875e-02
5.028699999999999903e+01 8.275799999999999557e+01 8.832399999999999807e+01 1.491983999999999977e+00 -9.160548328652298733e-02
5.028699999999999903e+01 8.445799999999999841e+01 8.832399999999999807e+01 2.369870000000000143e+00 -9.006788514406739721e-02
5.028699999999999903e+01 9.312300000000000466e+01 8.172799999999999443e+01 2.114484000000000030e+00 -3.825526860295042630e-01
5.028799999999999670e+01 9.984699999999999420e+01 6.922100000000000364e+01 -7.974266000000000076e+00 -2.898180130636102136e-01
5.028999999999999915e+01 8.583799999999999386e+01 6.066899999999999693e+01 2.626053000000000193e+00 -1.986826588687368722e-01
5.028999999999999915e+01 8.738800000000000523e+01 6.066899999999999693e+01 1.933256000000000085e+01 -1.998758846119494670e-01
5.029500000000000171e+01 9.931799999999999784e+01 6.460699999999999932e+01 -5.174115999999999715e+00 -2.931376027085787483e-01
5.029500000000000171e+01 9.931799999999999784e+01 6.629900000000000659e+01 -3.703797999999999924e+00 -2.916860174471123113e-01
5.030700000000000216e+01 9.956300000000000239e+01 6.545300000000000296e+01 -1.005044000000000048e+00 -2.924781779659912928e-01
5.030799999999999983e+01 1.004099999999999966e+02 7.090399999999999636e+01 3.267037999999999887e+00 -2.891131797630728251e-01
5.031000000000000227e+01 6.967799999999999727e+01 8.357699999999999818e+01 -7.581831000000000209e+00 -1.040391399950382489e-01
5.031199999999999761e+01 8.245999999999999375e+01 6.109799999999999898e+01 7.530771999999999800e+00 -2.839568001030897682e-01
5.031600000000000250e+01 6.717300000000000182e+01 7.815200000000000102e+01 6.333184999999999509e-02 -1.172761758359241735e-01
5.031900000000000261e+01 8.165000000000000568e+01 6.777100000000000080e+01 -2.661287000000000091e+01 -3.843978222234679665e-01
5.032000000000000028e+01 9.935899999999999466e+01 6.720399999999999352e+01 -3.262894000000000183e+00 -2.909964914755752141e-01
5.032200000000000273e+01 9.684300000000000352e+01 8.006699999999999307e+01 2.785146000000000122e+00 -1.606678132060574138e-01
5.032900000000000063e+01 7.649099999999999966e+01 6.167300000000000182e+01 -4.250359000000000442e+00 -2.520002664602605247e-01
5.032999999999999829e+01 8.458299999999999841e+01 6.138000000000000256e+01 3.043842000000000159e+00 -2.826882986800346442e-01
5.033100000000000307e+01 8.896999999999999886e+01 8.731300000000000239e+01 1.242852000000000068e+01 -8.713611793067491118e-02
5.034199999999999875e+01 8.932899999999999352e+01 8.389100000000000534e+01 5.608818000000000303e+00 -8.532695954260940963e-02
5.034499999999999886e+01 9.941500000000000625e+01 7.248399999999999466e+01 1.511312999999999906e+00 -2.878866543420807167e-01
5.035000000000000142e+01 8.988200000000000500e+01 8.000400000000000489e+01 6.525311999999999557e+00 -3.717168106453885845e-01
5.035000000000000142e+01 9.074800000000000466e+01 8.000400000000000489e+01 5.994472000000000023e+00 -3.818635160795834649e-01
5.035099999999999909e+01 8.128400000000000603e+01 8.523000000000000398e+01 -3.517596000000000167e+00 -9.043871784265193614e-02
5.036099999999999710e+01 9.029200000000000159e+01 8.522599999999999909e+01 1.545581999999999923e+01 -8.580854518985935042e-02
5.036099999999999710e+01 9.029200000000000159e+01 8.627599999999999625e+01 2.184353000000000122e+01 -8.630458555758604988e-02
5.036399999999999721e+01 9.842900000000000205e+01 7.447100000000000364e+01 -6.453959000000000223e+00 -2.866212284740955463e-01
5.037100000000000222e+01 8.054900000000000659e+01 6.706999999999999318e+01 -3.161446000000000112e+01 -3.848918121669531178e-01
5.037100000000000222e+01 8.202100000000000080e+01 6.706999999999999318e+01 -1.768429000000000073e+01 -3.843766479780051926e-01
5.037700000000000244e+01 9.937999999999999545e+01 6.366599999999999682e+01 -2.160774999999999935e+01 -2.940214550300850882e-01
5.037899999999999778e+01 9.595799999999999841e+01 5.910600000000000165e+01 8.820691999999999311e+00 -2.986301428774906785e-01
5.037899999999999778e+01 9.309900000000000375e+01 5.773100000000000165e+01 4.116452999999999918e+00 -1.697502960279612672e-01
5.037899999999999778e+01 9.850400000000000489e+01 7.514400000000000546e+01 -9.532959999999999212e+00 -2.864486754572371230e-01
5.037899999999999778e+01 9.850400000000000489e+01 7.607999999999999829e+01 -2.230367000000000033e+01 -2.861854716517506225e-01
5.039600000000000080e+01 9.993200000000000216e+01 7.021099999999999852e+01 7.324046000000000056e+00 -2.892844945442750726e-01
5.040400000000000347e+01 8.130800000000000693e+01 6.038499999999999801e+01 -3.196642999999999901e+00 -2.863740928925214702e-01
5.040800000000000125e+01 8.957899999999999352e+01 8.070399999999999352e+01 1.098479999999999990e+01 -3.828539768781861752e-01
5.041100000000000136e+01 9.481900000000000261e+01 8.164499999999999602e+01 4.057724999999999937e+01 -3.820735428658260657e-01
5.041400000000000148e+01 7.348900000000000432e+01 6.436700000000000443e+01 4.279358000000000217e+00 -2.783566670285365641e-01
5.041499999999999915e+01 9.843699999999999761e+01 7.339100000000000534e+01 -1.303088999999999942e+01 -2.870275485039900376e-01
5.041799999999999926e+01 8.496699999999999875e+01 6.635299999999999443e+01 -8.579845000000000388e-01 -2.736818507543313239e-01
5.041799999999999926e+01 6.837399999999999523e+01 7.950799999999999557e+01 7.747154000000000096e+00 -1.282662605139359147e-01
5.042999999999999972e+01 8.085299999999999443e+01 6.637000000000000455e+01 -1.602664000000000044e+01 -3.849102559377662880e-01
5.042999999999999972e+01 8.085299999999999443e+01 6.776999999999999602e+01 -3.162309000000000125e+01 -3.846962180793191410e-01
5.042999999999999972e+01 8.171800000000000352e+01 6.637000000000000455e+01 -1.188954000000000022e+01 -3.845916621934541979e-01
5.043200000000000216e+01 7.507200000000000273e+01 6.398299999999999699e+01 1.149812999999999974e+00 -3.886179989399162205e-01
5.043699999999999761e+01 7.378199999999999648e+01 7.985500000000000398e+01 -3.522066000000000230e+01 -3.543510869116602846e-01
5.044500000000000028e+01 9.731399999999999295e+01 7.886599999999999966e+01 1.588668000000000013e+01 -1.743478834261329435e-01
5.045300000000000296e+01 9.456600000000000250e+01 5.828099999999999881e+01 2.753436999999999912e+00 -1.683831769553497948e-01
5.046000000000000085e+01 8.396599999999999397e+01 6.132800000000000296e+01 1.755309999999999926e+00 -2.830198782690480086e-01
5.046300000000000097e+01 9.700300000000000011e+01 5.987100000000000222e+01 4.809515000000000207e+00 -2.976945459479062306e-01
5.046399999999999864e+01 7.089000000000000057e+01 8.326099999999999568e+01 -1.290826999999999947e+00 -1.039366050333007108e-01
5.047899999999999920e+01 9.720799999999999841e+01 7.936599999999999966e+01 7.597146000000000399e+00 -3.944674377333632909e-01
5.047999999999999687e+01 6.671299999999999386e+01 7.665399999999999636e+01 -9.404544999999999710e-01 -1.468146437475256194e-01
5.047999999999999687e+01 6.693999999999999773e+01 7.585500000000000398e+01 -4.792785000000000295e+00 -1.486318535991041634e-01
5.047999999999999687e+01 6.823300000000000409e+01 7.513400000000000034e+01 -1.540567000000000020e+00 -1.509421097325058803e-01
5.049199999999999733e+01 9.793000000000000682e+01 6.071999999999999886e+01 5.433889999999999887e+00 -2.967820303648530111e-01
5.049900000000000233e+01 9.083599999999999852e+01 5.971800000000000352e+01 1.534367999999999954e+00 -2.043716317377071157e-01
5.050399999999999778e+01 9.987099999999999511e+01 7.167100000000000648e+01 2.094119999999999848e+01 -2.885105061193248277e-01
5.050600000000000023e+01 9.865699999999999648e+01 6.127100000000000080e+01 1.284378000000000064e+01 -2.962675885536252274e-01
5.050900000000000034e+01 9.907999999999999829e+01 7.188599999999999568e+01 3.399659999999999904e+00 -2.880254419069039340e-01
5.050900000000000034e+01 6.683499999999999375e+01 7.746999999999999886e+01 -1.304784000000000077e+01 -1.455323998216153658e-01
5.051299999999999812e+01 9.194799999999999329e+01 8.088200000000000500e+01 3.598682000000000158e+00 -3.822394212093095933e-01
5.052000000000000313e+01 7.523499999999999943e+01 7.892499999999999716e+01 -3.973351999999999862e+01 -3.547977012977256428e-01
5.052100000000000080e+01 9.128700000000000614e+01 5.941400000000000148e+01 1.327668999999999988e+00 -2.052341229081273699e-01
5.052300000000000324e+01 8.884799999999999898e+01 6.357999999999999829e+01 1.967227000000000103e+01 -1.940248621157397158e-01
5.052799999999999869e+01 8.238599999999999568e+01 6.777100000000000080e+01 -1.019100000000000072e+01 -3.842477145270361549e-01
5.053399999999999892e+01 7.837900000000000489e+01 5.991100000000000136e+01 -2.646733999999999920e+00 -2.605447814734713763e-01
5.053600000000000136e+01 7.326900000000000546e+01 8.090900000000000603e+01 -3.682403999999999655e+01 -3.539571964518101188e-01
5.053600000000000136e+01 8.820799999999999841e+01 6.142699999999999960e+01 8.731106999999999729e+00 -1.985202376479924813e-01
5.053600000000000136e+01 8.907399999999999807e+01 6.142699999999999960e+01 1.210560000000000080e+01 -1.991862723086415821e-01
5.054999999999999716e+01 7.026600000000000534e+01 7.485099999999999909e+01 -2.016555000000000170e-03 -2.850456211729929246e-01
5.055299999999999727e+01 7.171299999999999386e+01 7.304999999999999716e+01 3.424224000000000157e-01 -2.909099970535134472e-01
5.055700000000000216e+01 9.952200000000000557e+01 7.109600000000000364e+01 3.264072999999999780e+00 -2.886407411442100668e-01
5.056900000000000261e+01 9.865600000000000591e+01 7.244599999999999795e+01 -3.339399999999999924e+00 -2.875669406610035783e-01
5.057200000000000273e+01 9.225100000000000477e+01 8.158199999999999363e+01 1.335698999999999970e+00 -3.826888044891289531e-01
5.058599999999999852e+01 8.121699999999999875e+01 6.847100000000000364e+01 -4.273908999999999736e+01 -3.845448086260114806e-01
5.058599999999999852e+01 8.208299999999999841e+01 6.847100000000000364e+01 -2.855293999999999954e+01 -3.842924815849965703e-01
5.059799999999999898e+01 8.883899999999999864e+01 8.186700000000000443e+01 4.305724999999999802e+00 -3.841560538566340388e-01
5.059799999999999898e+01 8.883899999999999864e+01 8.273199999999999932e+01 2.818157999999999941e+00 -8.512466744712569866e-02
5.062599999999999767e+01 8.661299999999999955e+01 6.060399999999999920e+01 1.156927999999999912e+01 -1.996546942982980188e-01
5.062700000000000244e+01 8.423099999999999454e+01 6.635299999999999443e+01 -5.326722000000000179e+00 -2.737415197942659750e-01
5.062700000000000244e+01 8.570300000000000296e+01 6.635299999999999443e+01 9.017383000000000592e+00 -2.742037508250760314e-01
5.063600000000000279e+01 7.308599999999999852e+01 6.939300000000000068e+01 1.816750000000000043e+01 -2.914768887242861761e-01
5.064000000000000057e+01 9.556000000000000227e+01 5.893500000000000227e+01 7.121573999999999849e+00 -2.987302309054569727e-01
5.065299999999999869e+01 8.276399999999999579e+01 6.720499999999999829e+01 1.007189000000000001e-01 -2.724018589037580651e-01
5.067099999999999937e+01 7.711400000000000432e+01 7.882099999999999795e+01 -1.449925999999999959e+01 -3.549713372837287606e-01
5.067099999999999937e+01 8.529699999999999704e+01 6.134499999999999886e+01 7.139755000000000074e+00 -2.827943494991970175e-01
5.067600000000000193e+01 7.409199999999999875e+01 7.063500000000000512e+01 1.018621000000000087e+01 -2.930892895838752010e-01
5.068299999999999983e+01 7.914100000000000534e+01 5.994299999999999784e+01 -9.296611000000000180e-01 -2.626934425896269021e-01
5.068500000000000227e+01 8.453499999999999659e+01 6.565300000000000580e+01 -9.341621999999999204e+00 -2.748450309341071152e-01
5.068500000000000227e+01 8.453499999999999659e+01 6.705299999999999727e+01 -2.400778999999999996e+00 -2.730820767311815112e-01
5.068500000000000227e+01 8.540000000000000568e+01 6.565300000000000580e+01 1.603269999999999840e+01 -2.750778862843338279e-01
5.068500000000000227e+01 8.540000000000000568e+01 6.705299999999999727e+01 -7.135186000000000028e-01 -2.733752686497208373e-01
5.068599999999999994e+01 8.976699999999999591e+01 8.712600000000000477e+01 1.566393000000000058e+01 -8.710980371167166558e-02
5.069899999999999807e+01 9.587300000000000466e+01 8.143399999999999750e+01 5.082101999999999897e+00 -3.817233013871024760e-01
5.070700000000000074e+01 7.386199999999999477e+01 7.142499999999999716e+01 1.699932999999999916e+00 -2.945765209080938307e-01
5.071099999999999852e+01 8.246099999999999852e+01 6.650499999999999545e+01 -7.970132000000000438e+00 -2.732856635684533519e-01
5.071200000000000330e+01 9.774699999999999989e+01 7.816599999999999682e+01 2.206983999999999924e+01 -3.837600576792211671e-01
5.071300000000000097e+01 8.674099999999999966e+01 8.650199999999999534e+01 5.136251000000000033e+01 -8.784255322942177702e-02
5.071800000000000352e+01 6.891800000000000637e+01 8.318899999999999295e+01 -1.810804999999999865e+01 -9.855993107473967618e-02
5.071800000000000352e+01 9.834399999999999409e+01 7.188599999999999568e+01 -8.018425000000000580e+00 -2.876940690189742633e-01
5.072800000000000153e+01 7.711599999999999966e+01 6.041899999999999693e+01 -8.135835000000000150e+00 -2.557006632727732987e-01
5.072899999999999920e+01 7.281799999999999784e+01 7.235399999999999920e+01 6.561287999999999565e-01 -2.930479214527247911e-01
5.073199999999999932e+01 8.811199999999999477e+01 6.357999999999999829e+01 2.029664999999999964e+01 -1.934788008280822758e-01
5.073199999999999932e+01 8.958400000000000318e+01 6.357999999999999829e+01 1.704717000000000127e+01 -1.949237422772850670e-01
5.073400000000000176e+01 7.378900000000000148e+01 6.993500000000000227e+01 2.471854000000000084e+01 -2.919571762635623235e-01
5.073499999999999943e+01 7.577200000000000557e+01 6.392399999999999949e+01 2.530485000000000095e+00 -3.882194158532182859e-01
5.073899999999999721e+01 7.296399999999999864e+01 6.521699999999999875e+01 4.807638999999999996e+00 -2.804651656636307777e-01
5.074300000000000210e+01 8.875199999999999534e+01 6.227700000000000102e+01 8.353002999999999290e+00 -1.969907917672580611e-01
5.074399999999999977e+01 8.800199999999999534e+01 8.724399999999999977e+01 1.215554000000000023e+01 -8.778738134466743115e-02
5.074799999999999756e+01 9.002599999999999625e+01 6.058200000000000074e+01 3.289807000000000148e+00 -2.019347937482183775e-01
5.075699999999999790e+01 9.920499999999999829e+01 6.792400000000000659e+01 -5.307907000000000153e+00 -2.904514841992859031e-01
5.075699999999999790e+01 9.941400000000000148e+01 6.865999999999999659e+01 -5.023079000000000072e+00 -2.900441173441116738e-01
5.075800000000000267e+01 7.237099999999999511e+01 6.697899999999999920e+01 -8.905754000000000170e-01 -2.863246722547175271e-01
5.076200000000000045e+01 7.355100000000000193e+01 8.042700000000000671e+01 -1.307662999999999975e+01 -3.541029701079411174e-01
5.077600000000000335e+01 9.864799999999999613e+01 7.118600000000000705e+01 -3.231421999999999795e+00 -2.882061316571988829e-01
5.077900000000000347e+01 9.256999999999999318e+01 5.838900000000000290e+01 2.079402999999999935e+01 -1.708056377977933415e-01
5.077900000000000347e+01 9.362000000000000455e+01 5.838900000000000290e+01 2.008959000000000117e+01 -1.696115946204004576e-01
5.078099999999999881e+01 7.678600000000000136e+01 6.122599999999999909e+01 -1.304257999999999917e+01 -2.537124817283035183e-01
5.078300000000000125e+01 7.433899999999999864e+01 6.429600000000000648e+01 9.589700999999999809e+00 -3.887651594569064839e-01
5.078699999999999903e+01 9.024099999999999966e+01 8.087300000000000466e+01 8.486592999999999165e+00 -3.827568222399072018e-01
5.078699999999999903e+01 9.110699999999999932e+01 8.087300000000000466e+01 4.618801000000000379e+00 -3.824776958571535213e-01
5.078999999999999915e+01 7.148699999999999477e+01 8.259699999999999420e+01 -2.609468999999999816e+00 -3.530085118693307988e-01
5.078999999999999915e+01 6.880100000000000193e+01 8.067499999999999716e+01 -2.054425999999999863e+00 -1.352254715703492260e-01
