1.855000000000000071e+01 -6.876999999999999780e+00 2.027499999999999858e+01 5.441488999999999798e+00 -1.554101574579475065e-02
1.855699999999999861e+01 -1.351200000000000045e+01 1.739199999999999946e+01 9.940398999999999319e+00 -3.819368287797219041e-01
1.857199999999999918e+01 -5.890900000000000247e+00 5.563699999999999868e+00 7.864476999999999940e+00 2.240269355570052578e-01
1.858099999999999952e+01 -4.210399999999999920e+00 5.736500000000000377e+00 9.817085999999999757e+00 2.195885140019588067e-01
1.858699999999999974e+01 -2.886000000000000121e+00 -1.278299999999999947e+01 -8.426035000000000608e+00 3.115408372554955285e-01
1.859600000000000009e+01 -2.549200000000000088e+01 9.339999999999999858e+00 4.434841999999999951e-02 -3.814948929977257652e-01
1.859600000000000009e+01 -2.538100000000000023e+01 8.542099999999999582e+00 -4.541151000000000160e+00 -3.814628954747024681e-01
1.859600000000000009e+01 -2.526500000000000057e+01 1.013899999999999935e+01 -3.203082999999999902e+00 -3.815100780079908604e-01
1.859600000000000009e+01 -2.397200000000000131e+01 1.085999999999999943e+01 -1.178509000000000029e+01 -3.814502626703545340e-01
1.859700000000000131e+01 6.957699999999999996e+00 -6.023699999999999832e+00 -2.122103000000000073e+00 1.394961868092386148e-01
1.859700000000000131e+01 6.957699999999999996e+00 -5.084299999999999820e+00 -3.036652999999999825e+00 1.400995601999011630e-01
1.859700000000000131e+01 -1.671300000000000097e+01 1.489799999999999969e+01 1.190227999999999930e+01 -3.813134227291749001e-01
1.859799999999999898e+01 6.847000000000000419e+00 -4.286999999999999922e+00 1.210307999999999939e-01 1.404817705088054480e-01
1.860000000000000142e+01 -1.146899999999999942e+01 -1.877100000000000080e+01 3.378483000000000125e+00 2.280547817983558656e-01
1.860099999999999909e+01 -1.341099999999999959e+01 1.657199999999999918e+01 2.010597999999999885e+01 -3.816898902324421528e-01
1.860399999999999920e+01 1.035899999999999999e+01 -5.633299999999999974e-01 -1.137272999999999978e+00 1.100046361612497386e-01
1.860500000000000043e+01 -3.723199999999999843e+00 1.486500000000000021e+01 8.831600999999999146e+00 1.852591911420192194e-01
1.860500000000000043e+01 -2.786999999999999922e+00 1.486500000000000021e+01 6.738245000000000040e+00 1.870574136799150744e-01
1.860800000000000054e+01 -4.279099999999999682e+00 1.250099999999999945e+01 -2.120632000000000073e-01 1.750245634902185266e-01
1.861799999999999855e+01 5.008000000000000007e+00 -8.467000000000000526e+00 -2.220181999999999878e+00 1.357052936605162574e-01
1.862399999999999878e+01 -1.645299999999999940e+01 1.406000000000000050e+01 8.336812999999999363e+00 -3.812034302342713343e-01
1.862699999999999889e+01 -1.466699999999999982e+01 -1.191300000000000026e+01 9.922670999999999353e+00 2.288749136160181941e-01
1.862699999999999889e+01 -1.466699999999999982e+01 -1.104700000000000060e+01 8.583116000000000412e+00 2.289267880028141577e-01
1.862900000000000134e+01 -1.135500000000000043e+01 1.484099999999999930e+01 -7.191367999999999938e+01 -1.427686176380391359e-01
1.863200000000000145e+01 -1.603099999999999881e+01 -9.113200000000000855e+00 3.407919000000000143e+00 2.294116104172037041e-01
1.863299999999999912e+01 -1.716799999999999926e+01 1.115499999999999936e+01 -1.669047000000000125e+01 -1.384774015979536033e-01
1.863400000000000034e+01 -6.692999999999999616e+00 -1.381700000000000017e+01 -3.008662999999999865e+00 2.266086013738152771e-01
1.863500000000000156e+01 -2.210999999999999943e+01 1.109200000000000053e+01 1.452585000000000015e+01 -3.813382949110126763e-01
1.863800000000000168e+01 -3.888900000000000023e+00 1.028500000000000014e+01 1.521096000000000004e+00 2.828836219918120023e-02
1.865700000000000003e+01 3.128400000000000070e+00 -1.180199999999999960e+01 -1.281845999999999997e+01 1.335809391899425158e-01
1.866000000000000014e+01 4.031399999999999650e+00 6.413700000000000401e+00 1.546864000000000017e+00 1.504413540359336998e-01
1.866600000000000037e+01 -7.352000000000000313e+00 4.044999999999999929e+00 -6.539951000000000292e+00 2.261074111846169132e-01
1.866600000000000037e+01 -7.142900000000000027e+00 4.781100000000000350e+00 4.732230999999999632e+00 2.259209589911634064e-01
1.866900000000000048e+01 -1.603500000000000014e+01 1.191300000000000026e+01 -1.630086999999999975e+01 -1.386907709644429887e-01
1.867299999999999827e+01 -1.455000000000000071e+00 2.169200000000000017e+01 4.966102000000000238e+00 1.990581624710618946e-01
1.867699999999999960e+01 -1.721900000000000119e+01 -1.896099999999999852e+01 -1.085272999999999932e+00 2.290422478346968160e-01
1.867699999999999960e+01 -1.699200000000000088e+01 -1.976000000000000156e+01 -1.305156000000000094e-01 2.289834737712596602e-01
1.867699999999999960e+01 -1.699200000000000088e+01 -1.816199999999999903e+01 -4.299864999999999937e-01 2.290335129140020631e-01
1.868499999999999872e+01 4.410999999999999588e+00 -1.124000000000000021e+01 1.087830999999999992e+00 1.349124910733124627e-01
1.868700000000000117e+01 -1.613500000000000156e+01 -2.093400000000000105e+01 3.354302000000000117e+00 2.288244914104324290e-01
1.868700000000000117e+01 -1.580700000000000038e+01 -2.167899999999999849e+01 1.425407000000000046e+01 2.287638428093607956e-01
1.868700000000000117e+01 -1.448799999999999955e+01 -2.241400000000000148e+01 4.658685000000000187e+00 2.285617806392937212e-01
1.868700000000000117e+01 -1.316900000000000048e+01 -2.167899999999999849e+01 1.002130999999999972e+01 3.126431327394141313e-01
1.868700000000000117e+01 -1.284099999999999930e+01 -2.093400000000000105e+01 3.690794000000000352e+01 3.125842799487827950e-01
1.868700000000000117e+01 -9.300000000000000488e-01 -1.284500000000000064e+01 -1.589768999999999988e+00 1.302176506070763240e-01
1.868900000000000006e+01 -4.817499999999999893e+00 1.239400000000000013e+01 4.364659999999999762e+00 1.761736027513331748e-01
1.869300000000000139e+01 5.131000000000000227e+00 -9.378899999999999793e+00 4.151076999999999906e+00 1.358663257575092875e-01
1.869699999999999918e+01 -4.660000000000000253e-01 2.153200000000000003e+01 3.510680999999999941e+00 1.874009079063814753e-01
1.869900000000000162e+01 1.138100000000000023e+01 2.550100000000000033e+00 -4.300710000000000122e+01 1.134305473567570194e-01
1.869999999999999929e+01 -2.123000000000000220e+00 6.875099999999999767e+00 5.624929999999999986e+00 2.089135309916932692e-01
1.869999999999999929e+01 -1.257800000000000029e+00 6.875099999999999767e+00 5.974186999999999692e+00 2.037860101421541670e-01
1.870100000000000051e+01 -4.090399999999999814e+00 2.547000000000000153e+00 2.081266000000000105e+01 2.205168739594378091e-01
1.870599999999999952e+01 -1.681700000000000017e+01 -1.551600000000000001e+01 2.264432999999999918e+00 2.291010534326683445e-01
1.870700000000000074e+01 -5.819899999999999629e+00 1.062199999999999989e+01 5.888486000000000331e+00 4.213082368955450158e-02
1.871199999999999974e+01 -4.440000000000000391e+00 1.469500000000000028e+01 1.188668999999999976e+01 1.845032699050981329e-01
1.871499999999999986e+01 -1.083600000000000030e+01 -1.846699999999999875e+01 4.552871999999999808e+00 2.278774848093387817e-01
1.872400000000000020e+01 -9.112500000000000711e+00 -1.591900000000000048e+01 1.796477000000000102e+00 2.273930891755625294e-01
1.872599999999999909e+01 -2.289899999999999824e+00 1.541300000000000026e+01 8.299811999999999301e+00 1.935042012561176972e-01
1.872800000000000153e+01 6.758000000000000007e+00 -2.842400000000000038e+00 2.325674000000000063e+01 1.419732361778669738e-01
1.873499999999999943e+01 -7.307000000000000384e+00 1.055599999999999916e+01 2.164230999999999838e+01 4.892494215675599611e-02
1.874399999999999977e+01 -8.216599999999999682e+00 -1.481000000000000050e+01 4.815704000000000207e+00 2.270834983188170786e-01
1.874599999999999866e+01 -1.665899999999999892e+01 -1.354100000000000037e+01 9.578984000000000165e+00 2.291586890308072721e-01
1.875000000000000000e+01 -1.313799999999999990e+01 1.568900000000000006e+01 -7.677344999999999864e+00 -4.182886941125071867e-01
1.875000000000000000e+01 5.260900000000000354e+00 -7.663000000000000256e+00 5.405386000000000024e+00 1.363908571000042869e-01
1.875900000000000034e+01 -2.654299999999999926e+01 3.650700000000000056e+00 2.961233999999999811e-01 -4.469467717815443775e-02
1.876500000000000057e+01 -1.490099999999999980e+01 -9.854400000000000048e+00 1.062344000000000044e+01 2.289933611886135201e-01
1.877299999999999969e+01 2.310799999999999965e+00 -1.165300000000000047e+01 -2.119385000000000119e+01 1.328591784479049021e-01
1.878999999999999915e+01 1.141699999999999982e+01 1.975999999999999979e+00 -1.670511000000000124e+01 1.124844790037717035e-01
1.880499999999999972e+01 -4.201299999999999812e+00 1.130000000000000071e+01 2.465951000000000004e+00 3.191692211312136679e-02
1.881400000000000006e+01 8.529899999999999594e+00 -6.090900000000000203e-01 4.938657000000000075e+00 1.508158133202334161e-01
1.881500000000000128e+01 3.281200000000000228e-01 7.568699999999999761e+00 6.761032000000000153e+00 9.094560706517398896e-02
1.881500000000000128e+01 -2.266600000000000037e+01 -4.200999999999999623e+00 4.651429000000000258e+00 6.966486155643809852e-02
1.881500000000000128e+01 -2.111599999999999966e+01 -4.200999999999999623e+00 1.942781000000000091e+01 2.309349164652931274e-01
1.881700000000000017e+01 -2.776500000000000057e+01 5.431000000000000050e+00 -2.620747999999999855e+00 -1.345108046675874414e-01
1.881700000000000017e+01 -2.753800000000000026e+01 4.631899999999999906e+00 2.836134000000000155e-01 -1.374206827833434896e-01
1.881700000000000017e+01 -2.753800000000000026e+01 6.230100000000000193e+00 -1.947451000000000043e+00 -1.322880602966777230e-01
1.881700000000000017e+01 -2.631299999999999883e+01 7.075499999999999901e+00 -3.466752000000000056e+00 -1.315096941031216882e-01
1.882000000000000028e+01 -2.277100000000000080e+01 -1.636400000000000077e+00 2.594074000000000169e+01 6.928900966547871243e-02
1.882600000000000051e+01 -3.410600000000000076e+00 9.511799999999999145e+00 1.423610000000000042e+01 2.492283452460519397e-02
1.883399999999999963e+01 1.112500000000000000e+01 9.486200000000000188e-01 -2.045487000000000055e+00 1.116334894923785015e-01
1.884100000000000108e+01 1.082699999999999996e+00 2.093499999999999872e+01 7.044450000000000323e+00 1.899438106441221630e-01
1.884199999999999875e+01 3.862200000000000077e+00 7.036699999999999733e+00 3.853712999999999944e+00 1.556854158146539491e-01
1.884299999999999997e+01 8.804700000000000026e-02 2.143100000000000094e+01 -1.218922000000000061e+00 1.779382283874904880e-01
1.884400000000000119e+01 -2.065500000000000114e+01 1.209099999999999930e+01 6.776394999999999946e+00 -3.813762521757527724e-01
1.884400000000000119e+01 5.144400000000000084e+00 6.200499999999999901e+00 -2.274303999999999881e+00 1.706514328034466899e-01
1.884400000000000119e+01 6.612000000000000099e+00 6.075999999999999623e+00 -2.709498999999999924e+01 1.863639094871068214e-01
1.884400000000000119e+01 8.229900000000000659e+00 4.617899999999999672e+00 -2.639304999999999879e+01 -1.442321844157563870e-02
1.884499999999999886e+01 -5.754500000000000171e+00 1.571400000000000041e+01 -1.090197000000000083e+00 1.875982220001302936e-01
1.884600000000000009e+01 2.887900000000000134e+00 2.031700000000000017e+01 2.102132999999999896e+01 1.651989141137788775e-01
1.884900000000000020e+01 -3.555800000000000072e+00 -1.396899999999999942e+01 -1.663220000000000098e+01 3.116469820665007662e-01
1.885000000000000142e+01 -6.836999999999999744e+00 2.172599999999999909e+01 1.668320000000000025e+00 -4.659031383933528309e-03
1.885000000000000142e+01 -6.583099999999999952e+00 2.262000000000000099e+01 5.815639000000000003e+00 -3.063245199724393686e-01
1.885000000000000142e+01 -5.136999999999999567e+00 2.342599999999999838e+01 -2.122180000000000177e+00 6.295176298599894794e-04
1.885000000000000142e+01 -3.690900000000000070e+00 2.262000000000000099e+01 3.916966000000000059e-01 -1.264222307763815042e-02
1.885000000000000142e+01 7.397300000000000431e+00 -1.367399999999999949e+00 5.231942000000000093e+01 1.461928718929480786e-01
1.885200000000000031e+01 1.296699999999999964e+00 1.748300000000000054e+01 3.031277000000000221e+00 2.339065286134297261e-01
1.885200000000000031e+01 -2.510800000000000054e+01 2.854600000000000026e+00 4.172241999999999784e+00 -4.932303480252613059e-02
1.885399999999999920e+01 -3.318700000000000205e+00 -1.348300000000000054e+01 -3.209682000000000102e+01 3.115416117446180300e-01
1.885600000000000165e+01 -9.221299999999999386e+00 1.191600000000000037e+01 1.810078000000000031e+01 5.622147108733780568e-02
1.886400000000000077e+01 -2.257700000000000173e+01 -7.267400000000000526e-01 1.076988000000000056e+01 6.909755468133929601e-02
1.887900000000000134e+01 -2.266300000000000026e+01 3.096000000000000085e+00 2.192965999999999838e+01 -5.457503886564089163e-02
1.887900000000000134e+01 -1.849299999999999855e+01 -4.606099999999999639e+00 4.862916000000000238e+00 2.303808000854091209e-01
1.888599999999999923e+01 7.126299999999999635e+00 -2.134100000000000108e+00 2.043900000000000006e+01 1.442793300012216173e-01
1.888700000000000045e+01 2.238999999999999879e+00 8.638099999999999667e+00 1.348865999999999943e+01 1.182183498309037628e-01
1.888700000000000045e+01 6.488000000000000433e+00 -6.783699999999999619e+00 -4.977693000000000256e-01 1.388165618864716233e-01
1.889000000000000057e+01 -2.185999999999999943e+00 -1.272499999999999964e+01 -8.667090999999999212e+00 3.113568039645923102e-01
1.889300000000000068e+01 -1.970200000000000173e+01 -3.804100000000000037e+00 1.421280999999999928e+01 2.307258245339697811e-01
1.889499999999999957e+01 -1.509999999999999964e+01 -1.261299999999999955e+01 1.115512000000000015e+01 2.288102261242649926e-01
1.889499999999999957e+01 8.056100000000000483e-01 7.881499999999999950e+00 1.910563999999999929e+00 9.442402910477562528e-02
1.889699999999999847e+01 -1.211400000000000077e+01 1.480599999999999916e+01 -4.964943000000000239e+01 -1.368385811595697332e-01
1.889900000000000091e+01 -3.922600000000000087e+00 -1.476699999999999946e+01 -7.714783999999999864e+00 3.117767971960888618e-01
1.890899999999999892e+01 -4.918000000000000149e+00 -1.479199999999999982e+01 -4.312585999999999586e+00 3.117657019384673101e-01
1.891499999999999915e+01 -2.405399999999999849e+01 2.886800000000000033e+00 6.867734999999999701e+00 -5.164742663016615165e-02
1.891700000000000159e+01 2.773000000000000131e+00 1.680099999999999838e+01 7.581209999999999560e+00 2.530204064070113446e-01
1.891700000000000159e+01 4.219100000000000072e+00 1.760699999999999932e+01 1.337072000000000038e+01 2.260618098414360344e-01
1.891700000000000159e+01 4.219100000000000072e+00 1.939499999999999957e+01 2.108370999999999995e+01 1.775769775187011346e-01
1.891700000000000159e+01 4.472999999999999865e+00 1.850100000000000122e+01 1.009262000000000015e+01 1.993980908957039833e-01
1.892099999999999937e+01 -2.279700000000000060e+01 1.197999999999999954e+00 1.899277000000000015e+01 -5.838812567202533721e-02
1.892699999999999960e+01 6.701699999999999768e+00 -3.834200000000000053e+00 -5.139599000000000251e-01 1.413193081024321229e-01
1.892899999999999849e+01 1.088400000000000034e+01 2.866699999999999804e-01 -6.926432000000000144e+00 1.116403109327078064e-01
1.893100000000000094e+01 3.614300000000000068e+00 7.717299999999999827e+00 2.674961000000000144e+00 1.579290786203130792e-01
1.893199999999999861e+01 -1.065499999999999936e+01 1.489899999999999913e+01 -1.158769999999999989e+01 -1.512843430254719734e-01
1.893299999999999983e+01 -2.255199999999999960e+01 3.522299999999999875e-01 1.364868000000000059e+01 -6.065433699372019261e-02
1.893499999999999872e+01 -7.205000000000000071e+00 -1.414000000000000057e+01 -4.958613999999999855e+00 2.266355705223474237e-01
1.893499999999999872e+01 -5.804999999999999716e+00 -1.414000000000000057e+01 -5.119486000000000203e+00 2.261982326585102177e-01
1.893599999999999994e+01 -1.887500000000000000e+01 1.222000000000000064e+01 1.019895999999999958e+01 -3.813165524953197605e-01
1.893599999999999994e+01 -1.786799999999999855e+01 1.121299999999999919e+01 -3.166187999999999780e-01 -1.353154597403821158e-01
1.893599999999999994e+01 -1.646799999999999997e+01 1.121299999999999919e+01 -1.181878000000000029e+01 -1.427206535446547686e-01
1.894300000000000139e+01 -2.308899999999999952e+00 2.192000000000000171e+01 5.848076999999999970e+00 2.013579515986788082e-01
1.894999999999999929e+01 -2.304100000000000037e+01 1.102500000000000036e+01 -9.475182999999999467e+00 -3.815067489569119452e-01
1.895499999999999829e+01 9.253899999999999793e+00 3.720699999999999896e+00 8.591326999999999992e-02 -1.434539630492142302e-02
1.895599999999999952e+01 -2.137700000000000156e+00 7.451999999999999957e+00 6.798917999999999573e+00 2.065168394320822109e-01
1.895899999999999963e+01 -9.239000000000000767e+00 1.299900000000000055e+01 1.385157000000000060e+01 1.831327062751124390e-01
1.896300000000000097e+01 -2.054399999999999782e+00 1.616499999999999915e+01 8.784397000000000233e+00 2.010963916686158426e-01
1.896300000000000097e+01 -1.845299999999999940e+00 1.690099999999999980e+01 9.719402000000000541e+00 2.051346963498828502e-01
1.896699999999999875e+01 -6.620000000000000329e-01 1.771199999999999974e+01 -4.191425999999999874e+00 2.155804226251490374e-01
1.896699999999999875e+01 7.379999999999999893e-01 1.771199999999999974e+01 2.173448000000000047e+00 2.286137496299311400e-01
1.897299999999999898e+01 9.509000000000000341e+00 -6.341099999999999515e-01 4.361135999999999902e-01 1.139226706215232809e-01
1.897400000000000020e+01 -1.638400000000000034e+01 -1.621600000000000108e+01 1.096710999999999991e+00 2.288926255867594628e-01
1.898100000000000165e+01 -1.247300000000000075e+01 -2.029200000000000159e+01 1.384573999999999927e+01 2.281309562743588371e-01
1.898400000000000176e+01 -5.817099999999999937e+00 1.908199999999999896e+00 9.682003999999999166e+00 2.231233758540570322e-01
1.898600000000000065e+01 -8.096700000000000230e+00 1.411100000000000065e+01 1.682145999999999830e+01 1.842455620885774803e-01
1.900100000000000122e+01 -3.290599999999999969e+00 1.535599999999999987e+01 6.174386000000000152e+00 1.914561457576815506e-01
1.900499999999999901e+01 -8.065400000000000347e+00 1.107699999999999996e+01 1.565967999999999982e+01 5.188527683836742510e-02
1.900900000000000034e+01 -3.592400000000000038e+00 3.352700000000000014e+00 1.476152000000000086e+01 2.179786835299066805e-01
1.900900000000000034e+01 -3.383300000000000196e+00 4.088700000000000223e+00 9.246487999999999374e+00 2.167465333798802019e-01
1.901000000000000156e+01 4.936300000000000132e+00 -1.039000000000000057e+01 6.256594999999999906e+00 1.359081607642440015e-01
1.901200000000000045e+01 1.411200000000000010e+00 -1.209800000000000075e+01 -4.647217999999999627e+00 1.323188812087149890e-01
1.901300000000000168e+01 -4.910400000000000098e+00 6.003899999999999793e+00 6.136506999999999934e+00 2.199586504112499008e-01
1.901300000000000168e+01 -3.719500000000000028e+00 5.339900000000000091e+00 7.601981000000000321e+00 2.165981901602348214e-01
1.901599999999999824e+01 -1.612000000000000099e+01 1.869300000000000139e+01 4.429152000000000089e-01 -3.828154031684807279e-01
1.901599999999999824e+01 -1.441999999999999993e+01 1.869300000000000139e+01 7.889407000000000281e+00 -3.829930975334698284e-01
1.903099999999999881e+01 -9.740000000000000213e+00 1.696799999999999997e+01 2.304336000000000162e+00 -1.267645386376720085e-01
1.903099999999999881e+01 -9.486100000000000421e+00 1.786199999999999832e+01 7.519153000000000198e+00 -4.202121634712636111e-01
1.903300000000000125e+01 -1.568399999999999928e+01 1.197300000000000075e+01 -2.046334999999999837e+01 -1.414137623713538905e-01
1.903900000000000148e+01 -1.819600000000000151e+01 -5.334900000000000198e+00 4.489404999999999646e+00 2.301157140483490182e-01
1.903900000000000148e+01 -1.810500000000000043e+01 -6.918000000000000149e+00 4.146882999999999875e+00 2.298937646445168015e-01
1.903900000000000148e+01 -1.798699999999999832e+01 -6.070899999999999963e+00 3.821927000000000074e+00 2.299725666085554177e-01
1.903900000000000148e+01 -1.785099999999999909e+01 -7.811700000000000088e+00 3.568416000000000032e+00 2.297371009760341976e-01
1.904299999999999926e+01 -2.237399999999999878e+01 2.163300000000000001e+00 2.920656999999999925e+01 -5.772659022898229964e-02
1.905399999999999849e+01 3.560999999999999943e+00 -1.131099999999999994e+01 2.488249999999999851e+00 1.344066866446141373e-01
1.905600000000000094e+01 -8.000000000000000167e-02 -1.277399999999999913e+01 -1.127502999999999922e+00 1.312186476492568921e-01
1.906599999999999895e+01 -2.473199999999999932e+01 1.057000000000000028e+01 -2.702607000000000070e+01 -3.816271019981062329e-01
1.907700000000000173e+01 -8.126200000000000756e+00 1.877799999999999869e+01 -8.937155999999999878e+00 -1.514493206937592151e-02
1.907700000000000173e+01 -1.744899999999999896e+00 -1.294699999999999918e+01 -2.747316000000000091e+00 1.299808912286592733e-01
1.908500000000000085e+01 -1.649099999999999966e+01 -8.727499999999999147e+00 3.366544999999999899e+00 2.293080729380799487e-01
1.908800000000000097e+01 -2.339900000000000091e+01 3.096000000000000085e+00 1.488911000000000051e+01 -5.299644652253412275e-02
1.908800000000000097e+01 -2.192699999999999960e+01 3.096000000000000085e+00 3.875276000000000209e+01 -5.696151486069980091e-02
1.908999999999999986e+01 -1.557300000000000040e+01 1.288400000000000034e+01 7.156329999999999636e-01 -1.337897782371668121e-01
1.909799999999999898e+01 -6.006599999999999717e-01 7.385799999999999699e+00 6.776046000000000014e+00 9.118102557453865165e-02
1.909900000000000020e+01 -6.652000000000000135e+00 5.177699999999999747e+00 6.766264999999999752e+00 5.142391387930872471e-02
1.910600000000000165e+01 7.379599999999999937e+00 6.142199999999999882e+00 -2.937774999999999892e+01 1.955916295739667243e-01
1.911100000000000065e+01 1.064799999999999969e+01 2.870299999999999851e+00 -7.367623000000000033e+00 1.210453590792363449e-01
1.911799999999999855e+01 7.829900000000000304e+00 -6.673799999999999732e-01 2.236592999999999876e+01 1.498209530397980882e-01
1.912300000000000111e+01 -8.788700000000000401e+00 1.121599999999999930e+01 1.973826999999999998e+01 5.410678958500578922e-02
1.912800000000000011e+01 -1.591000000000000014e+01 1.359699999999999953e+01 4.193525000000000169e+00 -1.248065254446164979e-01
1.913100000000000023e+01 1.732499999999999929e+00 -1.127500000000000036e+01 -5.438825999999999716e+00 1.325829939372776267e-01
1.913400000000000034e+01 -4.581299999999999706e+00 2.150399999999999867e+00 1.565370000000000061e+01 2.205933201184555603e-01
1.913400000000000034e+01 -6.957699999999999996e+00 2.803300000000000125e+00 -3.468316000000000177e+00 2.243796749557824821e-01
1.913599999999999923e+01 -7.700700000000000323e+00 -1.437299999999999933e+01 -1.657149999999999901e+00 2.267024382313385655e-01
1.914199999999999946e+01 -1.525000000000000000e+01 -9.023300000000000765e+00 8.292673000000000627e+00 2.289346099113510891e-01
1.914600000000000080e+01 -2.309600000000000009e+01 3.795900000000000052e+00 1.308394999999999975e+01 -5.216788646596154377e-02
1.914600000000000080e+01 -2.223100000000000165e+01 3.795900000000000052e+00 3.408939000000000163e+01 -5.447840209999316174e-02
1.914600000000000080e+01 -1.655799999999999983e+01 -1.767099999999999937e+01 -1.896613999999999933e+01 2.288175211776123930e-01
1.914600000000000080e+01 -1.634900000000000020e+01 -1.693499999999999872e+01 -6.937605000000000022e-01 2.288008317445299755e-01
1.914799999999999969e+01 -6.454500000000000348e+00 1.565499999999999936e+01 2.197080999999999840e+00 1.880868117234301695e-01
1.914799999999999969e+01 -5.054499999999999993e+00 1.565499999999999936e+01 -5.067482000000000042e+00 1.895445451989085650e-01
1.915299999999999869e+01 -7.709600000000000009e+00 1.485500000000000043e+01 9.122951999999999728e+00 1.859951542327896723e-01
1.915500000000000114e+01 -9.558999999999999275e+00 -1.658800000000000097e+01 9.703072000000000585e+00 2.273450964354960246e-01
1.916600000000000037e+01 -7.069499999999999673e+00 1.515000000000000036e+01 6.020761000000000251e+00 1.867193633358782690e-01
1.916600000000000037e+01 -1.526299999999999990e+01 -2.211799999999999855e+01 3.313803000000000054e+00 2.285411036658107908e-01
1.916600000000000037e+01 -1.371299999999999919e+01 -2.211799999999999855e+01 5.627977999999999703e+00 2.283017682075559607e-01
1.919800000000000040e+01 -9.952099999999999724e+00 1.613200000000000145e+01 1.600916999999999923e+00 -1.408280545641487635e-01
1.920100000000000051e+01 -1.281400000000000006e+01 1.486400000000000077e+01 -3.623964000000000141e+01 -1.311387403389343842e-01
1.920299999999999940e+01 -1.136899999999999977e+01 -1.904799999999999827e+01 5.982867999999999853e+00 2.278196496063296661e-01
1.921699999999999875e+01 -8.732499999999999929e+00 -1.524699999999999989e+01 -1.522896000000000027e+00 2.270255906147327640e-01
1.921999999999999886e+01 -2.581200000000000117e+01 7.214900000000000091e+00 -3.727485999999999855e+00 -1.324789054756788376e-01
1.922299999999999898e+01 -2.570300000000000029e+00 8.151999999999999247e+00 6.953128000000000419e+00 2.052320697545922598e-02
1.922500000000000142e+01 4.794700000000000073e-01 2.135600000000000165e+01 2.264177999999999802e+00 1.698433443562116785e-01
1.923799999999999955e+01 -6.504999999999999893e+00 -1.408099999999999952e+01 -4.397029999999999994e+00 2.262504861493422614e-01
1.923999999999999844e+01 -1.024000000000000021e+01 -1.798600000000000065e+01 8.662444999999999951e+00 2.275318044798339268e-01
1.924399999999999977e+01 -4.785000000000000142e+00 1.178400000000000070e+01 5.313938000000000272e+00 3.531375733720262117e-02
1.925600000000000023e+01 1.389000000000000012e+00 8.567299999999999471e+00 8.991182999999999481e+00 1.064061518265874973e-01
1.925600000000000023e+01 3.088999999999999968e+00 8.567299999999999471e+00 2.345235999999999876e+00 1.564360885034361548e-01
1.925600000000000023e+01 -1.609299999999999997e+01 -1.298000000000000043e+01 1.063894999999999946e+01 2.288501049697964640e-01
1.925900000000000034e+01 -1.456700000000000017e+01 -9.958399999999999253e+00 1.234294000000000047e+01 2.286238308843663025e-01
1.926899999999999835e+01 -1.310499999999999998e+00 2.185000000000000142e+01 2.021532999999999802e+00 2.005022088361544663e-01
1.927100000000000080e+01 3.799999999999999906e-02 1.777100000000000080e+01 -1.085933999999999955e+01 2.247114472122281603e-01
1.927400000000000091e+01 1.782699999999999951e+00 2.066700000000000159e+01 1.256546999999999947e+01 2.845632295166324391e-02
1.927700000000000102e+01 8.720900000000000318e+00 4.221300000000000274e+00 -7.678744000000000014e+00 -1.086966813569365843e-02
1.928099999999999881e+01 1.101999999999999957e+01 1.543400000000000105e+00 -7.566252999999999673e+00 1.160950278696617072e-01
1.928300000000000125e+01 -3.200000000000000178e+00 2.222299999999999898e+01 -5.454523999999999484e-01 -9.791539107868096892e-02
1.928399999999999892e+01 7.083700000000000330e+00 -1.568999999999999950e+00 5.231942000000000093e+01 1.463096044738759205e-01
1.928600000000000136e+01 -1.741499999999999915e+01 -1.506700000000000017e+01 2.303227999999999831e+00 2.290088260396243580e-01
1.928600000000000136e+01 -1.741499999999999915e+01 -1.401699999999999946e+01 2.949812000000000101e+00 2.290569544700868376e-01
1.928600000000000136e+01 -2.590099999999999980e+01 3.282700000000000173e+00 5.563176000000000343e+00 -4.741221378060243158e-02
1.928699999999999903e+01 -2.700499999999999901e+01 4.201299999999999812e+00 -1.776793999999999984e+00 -1.402588757316741708e-01
1.928699999999999903e+01 -2.700499999999999901e+01 6.660700000000000287e+00 -5.877575000000000216e+00 -1.322923609230366726e-01
1.929400000000000048e+01 -2.344099999999999895e+01 -2.947000000000000064e+00 4.063665000000000305e+00 6.967359514610360627e-02
1.929400000000000048e+01 -2.321000000000000085e+01 -3.761899999999999800e+00 5.447782000000000124e+00 6.973621048434405778e-02
1.929400000000000048e+01 -2.321000000000000085e+01 -2.132099999999999884e+00 1.631718000000000046e+01 6.949378184211439657e-02
1.929400000000000048e+01 -2.189099999999999824e+01 -4.496999999999999886e+00 1.574310000000000009e+01 6.952805812481725745e-02
1.929599999999999937e+01 -2.182900000000000063e+01 7.689500000000000224e-01 2.132534000000000063e+01 6.863855213734304517e-02
1.929700000000000060e+01 -9.882600000000000051e+00 -1.718299999999999983e+01 1.898686000000000007e+01 2.273918815919925840e-01
1.929899999999999949e+01 -2.469300000000000050e+00 1.577500000000000036e+01 8.291537999999999187e+00 1.996049683022624310e-01
1.930000000000000071e+01 -1.611700000000000088e+01 1.127299999999999969e+01 -2.160734000000000066e+01 -1.453223372552953085e-01
1.930399999999999849e+01 -2.128099999999999881e+01 1.173399999999999999e+01 2.430305999999999855e+00 -3.815703093291056835e-01
1.930499999999999972e+01 -3.990600000000000147e+00 1.529800000000000004e+01 4.656808999999999976e+00 1.912229953059610965e-01
1.930799999999999983e+01 -1.900199999999999889e+01 -3.862400000000000055e+00 1.177322000000000024e+01 2.303308861269799390e-01
1.930799999999999983e+01 -5.276099999999999568e+00 1.104100000000000037e+01 4.254686000000000412e+00 3.631603025364033011e-02
1.931800000000000139e+01 5.844400000000000261e+00 5.933099999999999596e+00 -2.572134000000000142e+00 1.827268766693115332e-01
1.932499999999999929e+01 -1.629700000000000060e+01 1.442399999999999949e+01 1.258707000000000065e+01 -3.817013454015744101e-01
1.932700000000000173e+01 -1.460899999999999999e+01 -1.221599999999999930e+01 1.099488000000000021e+01 2.285031841276539688e-01
1.932700000000000173e+01 -1.440000000000000036e+01 -1.148000000000000043e+01 6.641769000000000034e+00 2.284756281901293151e-01
1.932999999999999829e+01 -1.369199999999999973e+00 7.418899999999999828e+00 6.902243999999999602e+00 1.996076789239727423e-01
1.933500000000000085e+01 -2.051999999999999957e+01 -3.861000000000000210e+00 6.210246000000000066e+01 6.903978304031742341e-02
1.933699999999999974e+01 -6.554199999999999804e+00 1.031099999999999994e+01 -9.892035000000000133e-01 4.515084679801982526e-02
1.933800000000000097e+01 -3.947099999999999831e+00 9.981999999999999318e+00 -2.647785999999999973e+00 2.650696017773680052e-02
1.933800000000000097e+01 -2.939900000000000180e+00 8.974700000000000344e+00 1.029517000000000060e+01 2.041281582597952865e-02
1.934100000000000108e+01 -1.664499999999999957e+01 1.679299999999999926e+01 9.579978000000000105e-01 -3.822961338249754037e-01
1.934100000000000108e+01 -1.664499999999999957e+01 1.784299999999999997e+01 1.118152000000000035e+00 -3.826794075811460472e-01
1.934100000000000108e+01 -1.389499999999999957e+01 1.784299999999999997e+01 1.510472999999999955e+00 -4.191121052991005902e-01
1.934900000000000020e+01 -8.839199999999999946e+00 1.403200000000000003e+01 1.261402000000000001e+01 1.852699281540547971e-01
1.935000000000000142e+01 3.702799999999999869e+00 2.000499999999999901e+01 2.753484999999999872e+01 1.708600770358781051e-01
1.935399999999999920e+01 -2.213200000000000145e+01 6.895300000000000040e-02 1.586355999999999966e+01 6.884570831951500325e-02
1.935399999999999920e+01 -2.213200000000000145e+01 1.469000000000000083e+00 1.131221000000000032e+01 -6.029224558752270535e-02
1.935600000000000165e+01 -2.520200000000000173e+01 8.870300000000000296e+00 -2.262316000000000216e+00 -3.816533728065490960e-01
1.935600000000000165e+01 -2.520200000000000173e+01 9.809699999999999420e+00 -4.442020000000000302e+00 -3.816958514569534500e-01
1.935699999999999932e+01 5.795600000000000307e+00 -7.198500000000000121e+00 -5.308106999999999687e+00 1.382997915047417259e-01
1.935699999999999932e+01 7.020999999999999908e+00 -6.353100000000000414e+00 -4.554405000000000037e+00 1.407187932570025668e-01
1.935699999999999932e+01 7.020999999999999908e+00 -4.754900000000000126e+00 -2.518650999999999840e+01 1.420335089342018020e-01
1.935699999999999932e+01 7.248000000000000220e+00 -5.554000000000000270e+00 -3.371668999999999983e+01 1.417220965428648838e-01
1.936499999999999844e+01 -1.135500000000000043e+01 1.463199999999999967e+01 -1.873680999999999841e+01 -1.491746806610999010e-01
1.936499999999999844e+01 -1.016399999999999970e+01 1.529599999999999937e+01 3.208111999999999853e+00 -2.244589523946847326e-02
1.936499999999999844e+01 -1.644999999999999929e+01 1.598600000000000065e+01 8.216622000000000092e-01 -3.820777026146405242e-01
1.936599999999999966e+01 -7.084600000000000009e+00 3.612400000000000055e+00 -1.288790000000000013e+01 2.240116801879459829e-01
1.936599999999999966e+01 -7.084600000000000009e+00 4.477699999999999569e+00 -5.361148000000000025e+00 5.370614774316771062e-02
1.936899999999999977e+01 -1.980499999999999972e+01 1.241600000000000037e+01 7.270132000000000261e+00 -3.815769772880363009e-01
1.936899999999999977e+01 -1.835900000000000176e+01 1.160999999999999943e+01 1.029795999999999978e+01 -1.312262128140308515e-01
1.937500000000000000e+01 -5.987000000000000099e+00 2.310099999999999909e+01 6.057779000000000025e+00 -3.071172449621947242e-01
1.937500000000000000e+01 -4.286999999999999922e+00 2.310099999999999909e+01 -5.735261000000000386e+00 -3.292518429444523109e-01
1.937800000000000011e+01 -1.639999999999999858e+01 1.536599999999999966e+01 7.493539999999999646e-01 -3.819309181212472426e-01
1.938400000000000034e+01 -9.097599999999999909e+00 -1.566699999999999982e+01 1.408829000000000109e+00 2.270741226265637069e-01
1.938500000000000156e+01 -1.526999999999999957e+01 1.876399999999999935e+01 -3.098821000000000048e+00 -3.832953117843126423e-01
1.938500000000000156e+01 1.900700000000000056e+00 1.697500000000000142e+01 5.657818999999999932e+00 2.518865032531342196e-01
1.939300000000000068e+01 4.863599999999999923e+00 -8.946300000000000807e+00 -2.090959999999999930e+00 1.365029283978656527e-01
1.939300000000000068e+01 5.072700000000000209e+00 -8.210200000000000387e+00 1.901737000000000011e+00 1.369478926726830081e-01
1.939499999999999957e+01 -1.354400000000000048e+00 1.729799999999999827e+01 -8.203188000000000812e+00 2.133022717263702572e-01
1.939900000000000091e+01 4.487300000000000288e+00 6.562999999999999723e+00 8.542972000000000676e+00 1.731068408469119413e-01
1.939999999999999858e+01 -4.448999999999999844e+00 -1.522600000000000087e+01 -6.207352000000000203e+00 3.116144488665581469e-01
1.939999999999999858e+01 -1.480000000000000071e+01 1.284399999999999942e+01 -3.897695000000000132e+00 -1.402765140489936613e-01
1.940099999999999980e+01 9.934400000000000175e-02 7.444099999999999717e+00 2.172492999999999785e+00 9.946591145658068012e-02
1.940800000000000125e+01 -2.200900000000000034e+01 1.147300000000000075e+01 2.236918000000000184e+00 -3.816297627522141633e-01
1.941199999999999903e+01 -2.400100000000000122e+01 1.073799999999999955e+01 -7.325016999999999889e+00 -3.816944541227481058e-01
1.941499999999999915e+01 -2.495200000000000173e+01 8.098100000000000520e+00 -1.755082999999999949e+00 -1.309977177139602378e-01
1.941499999999999915e+01 -2.313299999999999912e+01 4.294200000000000017e+00 1.162917000000000023e+01 -5.125371716032729730e-02
1.941499999999999915e+01 -2.226699999999999946e+01 4.294200000000000017e+00 1.776486999999999838e+01 -5.354988893957250695e-02
1.942099999999999937e+01 3.587899999999999867e+00 1.695299999999999940e+01 1.246945000000000014e+01 5.508651678452541889e-02
1.942099999999999937e+01 -1.376600000000000001e+01 1.688500000000000156e+01 -4.309957999999999845e-01 -4.187588777531133788e-01
1.942200000000000060e+01 -4.207900000000000418e+00 1.085699999999999932e+01 -2.698488000000000220e+00 3.001192673707085007e-02
1.943199999999999861e+01 -6.692999999999999616e+00 1.972800000000000153e+01 2.463026999999999855e+00 -3.121885045424993566e-01
1.943700000000000117e+01 -1.692899999999999849e+01 -1.943100000000000094e+01 -2.822837000000000263e-01 2.287454324622887059e-01
1.943700000000000117e+01 -1.692899999999999849e+01 -1.849099999999999966e+01 -1.015724000000000071e+00 2.287635947077764076e-01
1.943900000000000006e+01 -1.713100000000000023e+01 1.086999999999999922e+01 -6.613752999999999993e+00 -1.428651136125729804e-01
1.943900000000000006e+01 -3.219300000000000050e+00 -1.440300000000000047e+01 -1.531675000000000075e+01 1.298376150765966908e-01
1.944000000000000128e+01 -7.000700000000000145e+00 -1.431499999999999950e+01 -1.474249999999999972e+01 2.263272421401723022e-01
1.944200000000000017e+01 -2.411299999999999955e+01 3.275599999999999845e+00 9.064439999999999387e+00 -5.139764905607132478e-02
1.944399999999999906e+01 -1.399699999999999989e+01 1.632100000000000151e+01 -1.333263999999999960e+01 -4.185083351529185758e-01
1.944600000000000151e+01 -7.339999999999999858e+00 1.881700000000000017e+01 -1.531162000000000079e-01 -3.105962504840287797e-01
1.944600000000000151e+01 -4.210399999999999920e+00 5.736500000000000377e+00 5.792517000000000138e+00 4.385645718850661456e-02
1.945799999999999841e+01 -1.510299999999999976e+01 1.214400000000000013e+01 -1.476666999999999952e+01 -1.449987064716725116e-01
1.945799999999999841e+01 -1.510299999999999976e+01 1.354400000000000048e+01 -4.918833000000000233e+00 -1.312814857908718436e-01
1.946199999999999974e+01 -1.574200000000000088e+01 -2.134299999999999997e+01 8.653499000000000052e-01 2.285311158470217097e-01
1.946199999999999974e+01 -1.323399999999999999e+01 -2.134299999999999997e+01 7.720659000000000560e+01 2.281249849838147825e-01
1.946199999999999974e+01 -1.610300000000000153e+01 -2.060699999999999932e+01 -4.890125000000000166e-01 2.285918041649729893e-01
1.947700000000000031e+01 -8.511799999999999145e+00 1.493900000000000006e+01 1.490460999999999991e+01 1.869657405093915481e-01
1.948699999999999832e+01 -2.513500000000000068e+00 -1.323000000000000043e+01 -1.231148999999999916e+01 1.298923195170726408e-01
1.949099999999999966e+01 2.693799999999999972e+00 2.054100000000000037e+01 1.777728000000000108e+01 1.035873434595654605e-02
1.949699999999999989e+01 1.013299999999999912e+01 -1.274899999999999922e-01 1.006361999999999951e-01 1.158815996795393710e-01
1.950199999999999889e+01 -1.448799999999999955e+01 -2.218299999999999983e+01 -1.345137999999999889e-01 2.283262237322443156e-01
1.950300000000000011e+01 -1.369400000000000084e+01 1.562100000000000044e+01 -2.035394000000000148e+01 -4.183437546380068817e-01
1.950700000000000145e+01 -4.053099999999999703e+00 2.831700000000000106e+00 1.052407000000000004e+01 2.181775826056067680e-01
1.952799999999999869e+01 2.165099999999999802e+00 -1.078400000000000070e+01 9.823328000000000060e-01 1.333915282695463111e-01
1.952899999999999991e+01 -2.516199999999999903e+01 7.243999999999999773e+00 -5.929491999999999763e+00 -1.341542956910594941e-01
1.953900000000000148e+01 -1.201999999999999957e+01 -1.978399999999999892e+01 1.558154000000000039e+01 2.278492995466200599e-01
1.954400000000000048e+01 8.288199999999999790e+00 4.921299999999999564e+00 -2.809738000000000113e+01 -5.537294140577980577e-03
1.955000000000000071e+01 8.529899999999999594e+00 -4.000000000000000222e-01 3.491190000000000015e+00 1.538469779856458941e-01
1.955499999999999972e+01 1.052699999999999925e+01 7.466899999999999649e-01 -2.216830999999999836e-03 1.172291193734190662e-01
1.955600000000000094e+01 -9.279600000000000293e+00 1.161299999999999955e+01 2.682311999999999941e+01 5.204435070951164699e-02
1.955600000000000094e+01 -8.890000000000000568e+00 1.834299999999999997e+01 2.172588999999999881e+00 -3.056590383631747621e-01
1.956200000000000117e+01 -2.174599999999999866e+01 1.854000000000000092e+00 1.359206000000000003e+01 -6.094112673266081220e-02
1.956400000000000006e+01 -1.725499999999999901e+01 -8.293300000000000338e+00 5.850620000000000154e+00 2.292706693985882838e-01
1.956500000000000128e+01 4.124399999999999622e+00 1.958800000000000097e+01 2.559225999999999956e+01 4.876406352095048746e-02
1.956599999999999895e+01 -2.036700000000000177e+00 1.647500000000000142e+01 9.674607999999999208e+00 2.074840322814978655e-01
1.957499999999999929e+01 3.063099999999999934e+00 -1.084999999999999964e+01 5.185580999999999996e+00 1.344256093848602007e-01
1.957600000000000051e+01 -5.309199999999999697e+00 2.101999999999999869e+00 7.586781000000000219e+00 2.209482157544231384e-01
1.957700000000000173e+01 -2.747500000000000142e+01 4.961299999999999599e+00 7.323781999999999515e-02 -1.373130921385763981e-01
1.957700000000000173e+01 -2.747500000000000142e+01 5.900699999999999612e+00 -4.804455000000000253e-01 -1.343370649410810247e-01
1.957900000000000063e+01 -2.153099999999999881e+01 3.528599999999999959e+00 4.784165999999999741e+01 -5.789137338915859715e-02
1.957900000000000063e+01 -1.704899999999999949e+01 -1.580300000000000082e+01 4.073077999999999754e+00 2.288047561114273931e-01
1.958099999999999952e+01 -5.754500000000000171e+00 1.592300000000000004e+01 -1.483781000000000128e-01 1.911171729062622615e-01
1.958099999999999952e+01 -4.563600000000000101e+00 1.525900000000000034e+01 3.859398999999999802e+00 1.912965353188922912e-01
1.958099999999999952e+01 -9.300000000000000488e-01 -1.309900000000000020e+01 -2.189315000000000122e+00 1.311065161366707088e-01
1.958599999999999852e+01 -2.500000000000000000e+00 2.216499999999999915e+01 -1.161507000000000067e+00 -1.123541804148704693e-01
1.958899999999999864e+01 7.758200000000000429e+00 6.311899999999999622e+00 -2.602850999999999804e+00 5.858902419134248175e-03
1.958999999999999986e+01 8.149100000000000676e+00 5.473399999999999821e+00 -1.793269000000000091e+01 -1.420499371860587659e-03
1.959400000000000119e+01 -6.895100000000000229e+00 1.907700000000000173e+01 2.283555999999999919e+00 -3.118316486557927703e-01
1.959600000000000009e+01 -5.921800000000000175e+00 5.585300000000000153e+00 9.428578999999999155e+00 4.907797396500789000e-02
1.959700000000000131e+01 -2.147800000000000153e+01 1.095099999999999962e+00 1.081493000000000038e+01 6.847107215304165662e-02
1.959700000000000131e+01 -2.147800000000000153e+01 2.612899999999999778e+00 7.443738000000000454e+01 -6.019735854922758644e-02
1.960800000000000054e+01 -2.253399999999999892e+01 -8.565300000000000136e-01 1.147710999999999970e+01 6.911719142012240358e-02
1.960900000000000176e+01 -3.328699999999999992e-01 2.164799999999999969e+01 -1.143990999999999980e+00 1.861367344096600263e-01
1.961100000000000065e+01 -1.689000000000000057e+01 -1.316699999999999982e+01 8.694399999999999906e+00 2.288581037280600639e-01
1.961100000000000065e+01 -6.358699999999999797e+00 2.490400000000000169e+00 4.806054999999999744e+00 2.224978910637914198e-01
1.961299999999999955e+01 4.050500000000000433e+00 -1.075300000000000011e+01 1.272827999999999982e+01 1.355614236702162023e-01
1.961599999999999966e+01 -2.624500000000000099e+01 6.724000000000000199e+00 -4.292076999999999742e+01 -1.339195838280609618e-01
1.961799999999999855e+01 1.022799999999999976e+01 3.121500000000000163e+00 1.349150999999999989e+00 1.279802378906346461e-01
1.962399999999999878e+01 5.626700000000000035e-01 -1.239100000000000001e+01 -1.029425000000000034e+00 1.322069954531612801e-01
1.963299999999999912e+01 -1.211400000000000077e+01 1.459699999999999953e+01 -2.277504000000000062e+01 -1.430247688305713027e-01
1.963500000000000156e+01 -6.072400000000000020e+00 -1.457199999999999918e+01 -4.643520999999999788e+00 2.259722388105180335e-01
1.963599999999999923e+01 4.579100000000000392e+00 -9.930300000000000793e+00 6.945748000000000033e+00 1.362892032014521582e-01
1.964000000000000057e+01 -7.234300000000000175e+00 1.548499999999999943e+01 5.773005999999999638e+00 1.888257656851281552e-01
1.964799999999999969e+01 -1.559900000000000020e+01 -8.401400000000000645e+00 6.549337999999999660e+00 2.287854952251489882e-01
1.965099999999999980e+01 -8.664999999999999147e+00 -1.496700000000000053e+01 -6.755970000000000031e-01 2.267805549655121933e-01
1.965500000000000114e+01 -2.505099999999999838e+01 3.211899999999999977e+00 8.448537999999999215e+00 -4.978194937425274580e-02
1.965899999999999892e+01 -9.506399999999999295e+00 1.256700000000000017e+01 2.193314000000000163e+01 5.435807162162158146e-02
1.966799999999999926e+01 4.632399999999999629e+00 1.813599999999999923e+01 1.310965000000000025e+01 2.157553333657919459e-01
1.968400000000000105e+01 -1.380000000000000071e+01 1.413499999999999979e+01 -2.149010000000000176e+01 -1.345775274230087692e-01
1.968400000000000105e+01 -1.446700000000000053e+01 -9.159599999999999298e+00 9.293957999999999942e+00 2.283950284486754578e-01
1.968900000000000006e+01 -2.279700000000000060e+01 -1.636800000000000033e+00 1.993514000000000053e+01 6.931297287206601709e-02
1.969600000000000151e+01 8.856500000000000483e-01 -1.147000000000000064e+01 -2.471887000000000167e+00 1.323781664942013381e-01
1.969900000000000162e+01 -6.544299999999999562e-01 1.735600000000000165e+01 -8.277183000000000845e+00 2.223584200566980917e-01
1.969999999999999929e+01 -6.512299999999999756e+00 2.120100000000000051e+01 1.654614000000000029e+00 -3.089045451139190712e-01
1.969999999999999929e+01 -6.512299999999999756e+00 2.225100000000000122e+01 5.008899999999999686e+00 -3.046219546993459426e-01
1.970400000000000063e+01 -2.646199999999999974e+01 4.003999999999999559e+00 6.023492999999999764e-01 -4.535871564509664361e-02
1.970499999999999829e+01 -1.072799999999999976e+01 -1.855199999999999960e+01 9.724427000000000376e+00 2.274855198536827605e-01
1.970700000000000074e+01 1.082699999999999996e+00 2.093499999999999872e+01 7.892349000000000281e+00 4.278993964206358191e-02
1.972899999999999920e+01 -1.807700000000000173e+01 -5.020299999999999763e+00 5.536951000000000178e+00 2.297108606646484641e-01
1.972899999999999920e+01 -5.208999999999999631e+00 -1.516300000000000026e+01 -3.722542999999999935e+00 2.257497395163231002e-01
1.972899999999999920e+01 -3.689000000000000057e+00 -1.516300000000000026e+01 -3.141055000000000152e+00 1.300523754462401815e-01
1.973600000000000065e+01 1.158600000000000074e+00 1.699800000000000111e+01 2.845746000000000109e+00 2.467819271668980630e-01
1.973699999999999832e+01 -3.290599999999999969e+00 1.556499999999999950e+01 7.353561000000000014e+00 1.975561519536147836e-01
1.974200000000000088e+01 -1.783099999999999952e+01 1.092800000000000082e+01 -3.256619000000000153e+00 -1.395536670284499292e-01
1.974200000000000088e+01 -1.643100000000000094e+01 1.092800000000000082e+01 -9.280305000000000248e+00 -1.471795714357339024e-01
1.974399999999999977e+01 -5.136999999999999567e+00 2.317200000000000060e+01 -2.317066000000000070e+00 -3.150161201603708383e-01
1.975000000000000000e+01 -4.910400000000000098e+00 5.794800000000000395e+00 4.200771999999999728e+00 4.598007232169389058e-02
1.975000000000000000e+01 -1.796099999999999852e+01 -5.760500000000000398e+00 4.913730000000000153e+00 2.295852949833371570e-01
1.975100000000000122e+01 5.144400000000000084e+00 6.200499999999999901e+00 5.575579000000000285e+00 1.830706430161157250e-01
1.975100000000000122e+01 6.544400000000000439e+00 6.200499999999999901e+00 -2.565150999999999826e+01 1.982838704709568856e-01
1.976000000000000156e+01 -1.509999999999999964e+01 -1.261299999999999955e+01 1.472706999999999944e+01 2.284082663785790834e-01
1.976399999999999935e+01 2.773000000000000131e+00 1.691900000000000048e+01 9.754934000000000438e+00 5.777575944272430458e-02
1.976500000000000057e+01 -1.537299999999999933e+01 1.157099999999999973e+01 -1.801273000000000124e+01 -1.489658570691810013e-01
1.976699999999999946e+01 -2.413800000000000168e+01 7.879999999999999893e+00 -1.419612000000000052e+01 -1.342883643858977516e-01
1.976899999999999835e+01 -7.254199999999999982e+00 1.057799999999999940e+01 2.925642999999999994e+00 4.591536503876448433e-02
1.977100000000000080e+01 -3.456199999999999939e+00 9.585399999999999920e+00 2.229855000000000143e+00 2.646851538878016233e-02
1.977199999999999847e+01 -3.706599999999999895e+00 3.597700000000000120e+00 5.538878000000000412e+00 2.159922191021692028e-01
1.977299999999999969e+01 3.529599999999999960e-01 1.716000000000000014e+01 2.525383999999999851e+00 2.353366964761545166e-01
1.977299999999999969e+01 -2.266600000000000037e+01 -4.200999999999999623e+00 5.886641000000000012e+00 6.968100901109933187e-02
