3.006599999999999895e+01 1.014899999999999949e+02 1.626300000000000168e+01 -3.128286999999999818e+00 -9.788267498025855773e-02
3.006800000000000139e+01 9.618600000000000705e+01 2.305900000000000105e+01 7.965943000000000218e+00 -1.934304220513925754e-01
3.009299999999999997e+01 9.551300000000000523e+01 1.855699999999999861e+01 -5.477636000000000394e+00 -1.080679930260182997e-01
3.009799999999999898e+01 1.093599999999999994e+02 2.917399999999999949e+01 9.769363000000000241e+00 -1.929148492098072265e-01
3.009799999999999898e+01 9.848600000000000421e+01 1.814799999999999969e+01 1.799236000000000057e+00 -9.576838269533087533e-02
3.010699999999999932e+01 1.025699999999999932e+02 1.964999999999999858e+01 3.875087999999999866e+00 -9.465445389119306330e-02
3.011700000000000088e+01 1.101500000000000057e+02 2.027599999999999980e+01 8.277907000000000792e+00 -1.815838599815465526e-02
3.012900000000000134e+01 1.013299999999999983e+02 1.913299999999999912e+01 -1.472869999999999990e+01 -9.504750672084763541e-02
3.013200000000000145e+01 9.428300000000000125e+01 1.937999999999999901e+01 -1.909888000000000030e+00 -1.061968362697211371e-01
3.013200000000000145e+01 9.428300000000000125e+01 2.032000000000000028e+01 -6.821324999999999861e+00 -1.050773232809336377e-01
3.016900000000000048e+01 1.048700000000000045e+02 2.081099999999999994e+01 -1.778926000000000118e-01 -2.779408599697843346e-02
3.017099999999999937e+01 1.110600000000000023e+02 2.049599999999999866e+01 -5.551793999999999896e-01 -1.772698322848675206e-02
3.017699999999999960e+01 1.015400000000000063e+02 3.263000000000000256e+01 -2.373065000000000069e+01 -2.729729469546110510e-01
3.018299999999999983e+01 9.885500000000000398e+01 1.740500000000000114e+01 4.937670000000000115e-01 -9.659838290771430303e-02
3.020799999999999841e+01 1.113400000000000034e+02 2.130199999999999960e+01 6.648677000000000170e+00 -1.645303151351194121e-02
3.021099999999999852e+01 9.478799999999999670e+01 2.105499999999999972e+01 -1.627135000000000176e+01 -1.045853282661125261e-01
3.021199999999999974e+01 9.948900000000000432e+01 1.550300000000000011e+01 -2.994035999999999920e+00 -1.111230274341636487e-01
3.023300000000000054e+01 1.136800000000000068e+02 2.402700000000000102e+01 3.965535000000000032e+00 -3.106721509081057375e-01
3.023300000000000054e+01 1.136800000000000068e+02 2.677700000000000102e+01 2.372304000000000102e+01 -3.099241828602862237e-01
3.025199999999999889e+01 9.877500000000000568e+01 1.589700000000000024e+01 -2.452704999999999913e+00 -1.108729426158766157e-01
3.026099999999999923e+01 1.124000000000000057e+02 2.346499999999999986e+01 4.811932999999999794e+00 -3.107662483047531343e-01
3.026999999999999957e+01 1.096099999999999994e+02 1.990099999999999980e+01 5.153461000000000070e+00 -1.878565581175909924e-02
3.027599999999999980e+01 1.112099999999999937e+02 2.219200000000000017e+01 8.081379000000000090e+00 -1.506846704575531305e-02
3.027799999999999869e+01 9.697700000000000387e+01 1.722599999999999909e+01 8.019095000000000084e+00 -9.663675789631756552e-02
3.027899999999999991e+01 1.037699999999999960e+02 2.008299999999999841e+01 6.772261000000000308e+00 -2.910364945716694199e-02
3.028200000000000003e+01 1.084099999999999966e+02 2.033399999999999963e+01 6.775578999999999574e+00 -1.818127002595613245e-02
3.028800000000000026e+01 1.070699999999999932e+02 3.136299999999999955e+01 -3.305267999999999873e+00 -2.722860219254181202e-01
3.028800000000000026e+01 1.106400000000000006e+02 2.757799999999999940e+01 2.169303000000000026e+01 -3.094792001152175676e-01
3.030000000000000071e+01 1.001299999999999955e+02 1.841600000000000037e+01 -4.401358000000000104e+00 -9.569695168385025652e-02
3.031200000000000117e+01 1.002199999999999989e+02 2.979299999999999926e+01 6.059613999999999834e-01 -2.732976812599700045e-01
3.032199999999999918e+01 1.116700000000000017e+02 2.297700000000000031e+01 4.211473999999999940e+00 -1.387807484297015267e-02
3.033099999999999952e+01 1.060999999999999943e+02 2.117999999999999972e+01 6.965936000000000128e+00 -1.689360059530192401e-02
3.033500000000000085e+01 9.835099999999999909e+01 1.658999999999999986e+01 2.089111999999999914e-01 -1.109942551414172807e-01
3.033500000000000085e+01 9.935899999999999466e+01 1.658999999999999986e+01 -2.449934999999999974e+00 -9.752957128276971976e-02
3.033500000000000085e+01 9.935899999999999466e+01 1.821999999999999886e+01 -2.152315999999999896e+00 -9.583594887624062586e-02
3.034299999999999997e+01 1.121299999999999955e+02 2.725100000000000122e+01 1.828178000000000125e+01 -3.096847711199289810e-01
3.036700000000000088e+01 1.098499999999999943e+02 2.852299999999999969e+01 1.264442999999999984e+01 -2.100246540433725051e-01
3.037199999999999989e+01 1.050300000000000011e+02 3.231000000000000227e+01 -2.982003999999999877e+00 -2.724843349535846504e-01
3.038500000000000156e+01 1.105799999999999983e+02 1.957600000000000051e+01 2.709125999999999923e+00 -1.918629251210647590e-02
3.038500000000000156e+01 9.958299999999999841e+01 2.914900000000000091e+01 7.327833999999999737e-01 -2.734308879627923572e-01
3.038800000000000168e+01 1.084599999999999937e+02 3.078099999999999881e+01 3.882087999999999983e+00 -2.721513061196899619e-01
3.040299999999999869e+01 1.001200000000000045e+02 1.685300000000000153e+01 -1.013934000000000069e+01 -9.733352030642108965e-02
3.040299999999999869e+01 1.010199999999999960e+02 1.685300000000000153e+01 -1.578143999999999991e+01 -9.738856067824265550e-02
3.041000000000000014e+01 1.062800000000000011e+02 3.182199999999999918e+01 -5.151398999999999617e+00 -2.723476099368607461e-01
3.041900000000000048e+01 9.973999999999999488e+01 1.496100000000000030e+01 -3.166596999999999884e+00 -1.111150880208190833e-01
3.042200000000000060e+01 9.475300000000000011e+01 1.862000000000000099e+01 -2.055699999999999861e+00 -1.075235516927833396e-01
3.044500000000000028e+01 9.828300000000000125e+01 2.359199999999999875e+01 -3.047804000000000180e+00 -1.931504775591420531e-01
3.044800000000000040e+01 9.757800000000000296e+01 1.659700000000000131e+01 2.123425000000000118e+00 -1.105165692798436294e-01
3.046099999999999852e+01 9.981900000000000261e+01 1.755300000000000082e+01 -3.324573000000000000e+00 -9.660565393212361407e-02
3.046499999999999986e+01 1.008900000000000006e+02 1.854400000000000048e+01 -6.873726999999999698e+00 -9.567176736299798367e-02
3.048900000000000077e+01 9.594599999999999795e+01 1.806599999999999895e+01 -1.780307000000000084e+00 -1.090926979026856924e-01
3.049699999999999989e+01 1.010199999999999960e+02 1.421000000000000085e+01 -1.973735000000000017e+00 -9.699907392107838533e-02
3.050600000000000023e+01 9.788100000000000023e+01 1.589700000000000024e+01 -9.515793000000000168e-01 -1.103798882292516687e-01
3.053399999999999892e+01 9.913599999999999568e+01 2.466900000000000048e+01 -6.653558000000000305e+00 -1.931025801906604278e-01
3.053399999999999892e+01 9.934499999999999886e+01 2.540500000000000114e+01 -3.098324999999999996e+00 -1.931242073357831435e-01
3.053600000000000136e+01 1.022500000000000000e+02 1.597300000000000075e+01 -1.033666000000000018e+01 -9.784797255366886604e-02
3.056200000000000117e+01 1.029500000000000028e+02 1.995499999999999829e+01 4.059038000000000146e+00 -2.924615736587368037e-02
3.057700000000000173e+01 9.825000000000000000e+01 1.504700000000000060e+01 -1.178606999999999960e+00 -1.102042353777591827e-01
3.058099999999999952e+01 1.077000000000000028e+02 2.078500000000000014e+01 5.459090999999999916e+00 -1.739260005858715014e-02
3.058599999999999852e+01 1.114000000000000057e+02 2.000000000000000000e+01 -7.844179999999999708e+00 -1.838649504420089911e-02
3.059199999999999875e+01 1.035900000000000034e+02 3.273899999999999721e+01 -5.496668999999999805e+00 -2.726385690491146541e-01
3.059299999999999997e+01 9.559000000000000341e+01 2.257799999999999940e+01 2.543822000000000116e+01 -1.934055735104002749e-01
3.059299999999999997e+01 9.692100000000000648e+01 2.350000000000000000e+01 -1.811417999999999973e+00 -1.932775564588813944e-01
3.060200000000000031e+01 1.055699999999999932e+02 2.107799999999999940e+01 -5.281977000000000200e-02 -2.726486476458069713e-02
3.060999999999999943e+01 9.521399999999999864e+01 2.172599999999999909e+01 -1.001290999999999931e+00 3.086149028304076367e-03
3.061100000000000065e+01 1.088499999999999943e+02 1.993599999999999994e+01 7.628534000000000148e+00 -1.873905542981534750e-02
3.061700000000000088e+01 1.019699999999999989e+02 1.917299999999999827e+01 -2.546371999999999858e+00 -9.515904391051610567e-02
3.063800000000000168e+01 1.041099999999999994e+02 2.052100000000000080e+01 9.162008000000000374e-01 -2.818232365131628780e-02
3.064699999999999847e+01 1.006500000000000057e+02 3.049299999999999855e+01 3.376094999999999846e+00 -2.731755051075722696e-01
3.064699999999999847e+01 1.007800000000000011e+02 3.139999999999999858e+01 1.101730000000000098e+00 -2.731140738691789638e-01
3.064699999999999847e+01 1.010000000000000000e+02 3.219899999999999807e+01 4.118671999999999889e-01 -2.730433810892117785e-01
3.064699999999999847e+01 1.022999999999999972e+02 3.292000000000000171e+01 -1.891533000000000087e+01 -2.728117332158455088e-01
3.064699999999999847e+01 1.114000000000000057e+02 2.753200000000000003e+01 2.359834999999999994e+01 -3.095432867814750799e-01
3.065099999999999980e+01 1.100999999999999943e+02 1.922500000000000142e+01 1.000586000000000020e+01 -1.977490907383070221e-02
3.065099999999999980e+01 1.110600000000000023e+02 1.922500000000000142e+01 6.618382999999999905e-01 -1.964972467907774925e-02
3.067000000000000171e+01 1.005499999999999972e+02 1.755300000000000082e+01 -1.030250999999999983e+01 -9.672266292824437117e-02
3.067699999999999960e+01 1.023900000000000006e+02 1.512700000000000067e+01 -2.839430000000000121e+01 -9.721992084366254394e-02
3.068700000000000117e+01 1.129500000000000028e+02 2.358599999999999852e+01 3.097131000000000078e+00 -3.107732136714845828e-01
3.071000000000000085e+01 9.905800000000000693e+01 2.724899999999999878e+01 1.575369000000000019e+00 -1.932498982771946872e-01
3.073499999999999943e+01 1.119500000000000028e+02 2.197400000000000020e+01 2.376431000000000182e+00 -1.524361205993810843e-02
3.074399999999999977e+01 1.068599999999999994e+02 2.092500000000000071e+01 1.851078999999999919e+00 -1.716423706446194158e-02
3.074800000000000111e+01 9.758299999999999841e+01 2.353399999999999892e+01 -6.974455999999999989e+00 -1.931750318137147593e-01
3.075799999999999912e+01 1.128299999999999983e+02 2.710200000000000031e+01 1.157873000000000019e+01 -3.097707423537739979e-01
3.075799999999999912e+01 1.142800000000000011e+02 2.450799999999999912e+01 3.616557999999999939e+00 -3.105826502873679784e-01
3.075799999999999912e+01 1.142800000000000011e+02 2.629599999999999937e+01 5.437469999999999803e-02 -3.100910462017280045e-01
3.075799999999999912e+01 1.145300000000000011e+02 2.540200000000000102e+01 -1.230053999999999981e+00 -3.103500088566474302e-01
3.076200000000000045e+01 9.960599999999999454e+01 1.440799999999999947e+01 -1.467718999999999996e+00 -1.109078615353620983e-01
3.076500000000000057e+01 1.002699999999999960e+02 1.417500000000000071e+01 -2.057814000000000032e+00 -9.731265481711351417e-02
3.078200000000000003e+01 9.613599999999999568e+01 1.735300000000000153e+01 2.591643000000000141e-01 -9.656009992092220995e-02
3.080000000000000071e+01 1.103400000000000034e+02 2.812600000000000122e+01 3.040850000000000009e+01 -3.092807450435955396e-01
3.080399999999999849e+01 1.118299999999999983e+02 2.077700000000000102e+01 -7.853094000000000463e-01 -1.707986250653425672e-02
3.082600000000000051e+01 1.017800000000000011e+02 1.427299999999999969e+01 -2.440669999999999895e+00 -9.683586921592073071e-02
3.082600000000000051e+01 1.017800000000000011e+02 1.673300000000000054e+01 -4.655189000000000021e+01 -9.769087489551667169e-02
3.082999999999999829e+01 9.498499999999999943e+01 1.811799999999999855e+01 -1.791841000000000017e+00 -1.084328073621003280e-01
3.084100000000000108e+01 9.915300000000000580e+01 2.836499999999999844e+01 7.308088000000000362e-01 -1.933080630605416572e-01
3.084400000000000119e+01 9.414499999999999602e+01 2.071399999999999864e+01 -1.114816999999999947e+00 -1.045484063317115436e-01
3.084700000000000131e+01 1.058100000000000023e+02 3.233800000000000097e+01 -4.258631000000000277e+00 -2.723436503378309226e-01
3.084900000000000020e+01 1.124200000000000017e+02 2.286700000000000088e+01 3.444229999999999792e-01 -3.109611688527307294e-01
3.085600000000000165e+01 1.094099999999999966e+02 2.949699999999999989e+01 1.174945999999999913e+01 -1.928312538565199741e-01
3.085800000000000054e+01 9.283100000000000307e+01 3.330899999999999750e+01 3.455051000000000094e+00 -2.745098122587151801e-01
3.085800000000000054e+01 9.388200000000000500e+01 1.983999999999999986e+01 -1.790116999999999958e+00 -1.054304042407617770e-01
3.086799999999999855e+01 1.044099999999999966e+02 3.275500000000000256e+01 -1.239014999999999977e+00 -2.725030667768748582e-01
3.089199999999999946e+01 9.421999999999999886e+01 1.905099999999999838e+01 -5.825539000000000023e+00 -1.066871884229320944e-01
3.091300000000000026e+01 1.077199999999999989e+02 3.122200000000000131e+01 -1.159014999999999906e+00 -2.721605162478596407e-01
3.091300000000000026e+01 1.090499999999999972e+02 3.030000000000000071e+01 7.226213000000000442e+00 -1.928868250365702586e-01
3.092599999999999838e+01 1.071500000000000057e+02 3.151899999999999835e+01 -6.230973999999999791e+00 -2.722104001161108622e-01
3.095200000000000173e+01 1.027699999999999960e+02 1.550300000000000011e+01 -1.135708999999999946e+01 -9.741467785809497515e-02
3.096300000000000097e+01 9.661599999999999966e+01 1.664300000000000068e+01 5.165313999999999739e-01 -1.101005767216639147e-01
3.096699999999999875e+01 9.864499999999999602e+01 2.427299999999999969e+01 -1.484391999999999934e+00 -1.930579652148632364e-01
3.098199999999999932e+01 1.002500000000000000e+02 2.947500000000000142e+01 -1.240895999999999999e+00 -2.732685694068573978e-01
3.098999999999999844e+01 9.872499999999999432e+01 1.437800000000000011e+01 -1.641289999999999916e+00 -1.103826483342205123e-01
3.100000000000000000e+01 1.035499999999999972e+02 2.029500000000000171e+01 4.112301999999999680e+00 -2.851607102618683443e-02
3.105300000000000082e+01 1.048400000000000034e+02 2.079899999999999949e+01 -1.646037999999999890e+00 -2.761493783244590647e-02
3.105999999999999872e+01 9.612099999999999511e+01 2.317699999999999960e+01 4.389500000000000313e+01 -1.932874880692482811e-01
3.106700000000000017e+01 1.060999999999999943e+02 2.097100000000000009e+01 1.241749999999999909e+00 -1.704171873601409079e-02
3.107100000000000151e+01 9.930899999999999750e+01 2.594900000000000162e+01 -5.846479999999999455e-01 -1.930719784510248616e-01
3.107300000000000040e+01 1.092500000000000000e+02 1.945100000000000051e+01 3.395116999999999940e+00 -1.943466341555332572e-02
3.108899999999999864e+01 9.201600000000000534e+01 3.330899999999999750e+01 8.451195000000000235e+00 -2.746831516950881680e-01
3.108899999999999864e+01 9.364600000000000080e+01 3.330899999999999750e+01 2.826314999999999955e+01 -2.743448275026815208e-01
3.108999999999999986e+01 1.105799999999999983e+02 1.868100000000000094e+01 7.004742000000000246e+00 -2.055025747744984241e-02
3.109799999999999898e+01 1.109300000000000068e+02 2.797599999999999909e+01 2.954144000000000148e+01 -3.093638566955184688e-01
3.110200000000000031e+01 9.740000000000000568e+01 1.537199999999999989e+01 -3.312650999999999790e+00 -1.100312021499717102e-01
3.111700000000000088e+01 1.015400000000000063e+02 3.263000000000000256e+01 -1.134121999999999986e+01 -2.729042899968854297e-01
3.112099999999999866e+01 1.030600000000000023e+02 3.277700000000000102e+01 -1.051726999999999990e+01 -2.726667227097763213e-01
3.112999999999999901e+01 1.118400000000000034e+02 1.952100000000000080e+01 -2.000773000000000135e+00 -1.899922309030688261e-02
3.114799999999999969e+01 1.098900000000000006e+02 2.883599999999999852e+01 8.183877999999999986e+01 -3.090195950781294831e-01
3.115399999999999991e+01 9.235200000000000387e+01 3.253399999999999892e+01 7.240775000000000183e+00 -2.746644631755160715e-01
3.115399999999999991e+01 9.235200000000000387e+01 3.408400000000000318e+01 2.727618999999999971e+01 -2.745631802838616742e-01
3.115399999999999991e+01 9.331000000000000227e+01 3.253399999999999892e+01 5.336130999999999958e+00 -2.744629585732865640e-01
3.115399999999999991e+01 9.331000000000000227e+01 3.408400000000000318e+01 6.790206000000000586e+01 -2.743653635552158465e-01
3.117299999999999827e+01 1.121299999999999955e+02 2.725100000000000122e+01 2.670646999999999949e+01 -3.096689135442026175e-01
3.120299999999999940e+01 1.072199999999999989e+02 2.081299999999999883e+01 3.110838999999999910e+00 -1.720039489978486894e-02
3.121499999999999986e+01 9.543600000000000705e+01 1.762000000000000099e+01 -2.060791000000000039e+00 -1.095401663233869227e-01
3.123400000000000176e+01 9.907800000000000296e+01 2.497299999999999898e+01 -4.030600999999999878e+00 -1.930058513654688834e-01
3.123699999999999832e+01 1.052600000000000051e+02 3.268399999999999750e+01 -3.653141000000000194e+00 -2.723613270087313909e-01
3.124299999999999855e+01 1.001299999999999955e+02 1.381199999999999939e+01 -4.060004000000000168e+00 -9.718970601751315830e-02
3.124699999999999989e+01 1.027600000000000051e+02 1.463799999999999990e+01 -5.277614999999999945e+00 -9.683360970171481230e-02
3.125000000000000000e+01 9.981399999999999295e+01 2.877499999999999858e+01 -1.590822000000000069e-01 -2.733620891995294233e-01
3.125799999999999912e+01 1.035900000000000034e+02 3.285699999999999932e+01 -4.266053000000000317e+00 -2.725756267592325810e-01
3.125900000000000034e+01 1.125799999999999983e+02 2.258099999999999952e+01 -5.639146000000000214e+00 -3.110709941035110782e-01
3.127299999999999969e+01 9.573900000000000432e+01 1.692000000000000171e+01 -3.545659999999999812e+00 -1.097362786930666106e-01
3.128300000000000125e+01 1.136800000000000068e+02 2.677700000000000102e+01 2.424992000000000036e+00 -3.099162826698320106e-01
3.128699999999999903e+01 1.065699999999999932e+02 3.220400000000000063e+01 -2.543855000000000199e+00 -2.722156345351286477e-01
3.128999999999999915e+01 1.023799999999999955e+02 1.638100000000000023e+01 -8.300285999999999831e+01 -9.824058912402386379e-02
3.129599999999999937e+01 1.011599999999999966e+02 1.798699999999999832e+01 -1.050408999999999970e+01 -9.648827242423410611e-02
3.129599999999999937e+01 1.013700000000000045e+02 1.725100000000000122e+01 -4.292392000000000252e+01 -9.728862451114630994e-02
3.129599999999999937e+01 1.013700000000000045e+02 1.872299999999999898e+01 -1.236007999999999996e+01 -9.571630009032038033e-02
3.132499999999999929e+01 9.467799999999999727e+01 2.120100000000000051e+01 -1.345237999999999978e+01 -2.514179692820723427e-02
3.133200000000000074e+01 1.084099999999999966e+02 2.033399999999999963e+01 8.263643000000000072e+00 -1.792323985459853483e-02
3.133399999999999963e+01 1.124599999999999937e+02 2.167800000000000082e+01 -1.051359000000000066e+01 -1.549638264822515363e-02
3.133500000000000085e+01 1.123499999999999943e+02 2.088100000000000023e+01 -2.858435000000000059e+00 -1.674642852424702844e-02
3.133699999999999974e+01 9.822199999999999420e+01 2.407199999999999918e+01 -1.083727000000000107e+00 -1.930285751975358288e-01
3.133800000000000097e+01 1.055699999999999932e+02 2.086899999999999977e+01 -9.055282000000000053e-01 -1.719284385685454150e-02
3.134100000000000108e+01 1.137999999999999972e+02 2.394999999999999929e+01 3.429781999999999886e+00 -3.107315238598173379e-01
3.134600000000000009e+01 9.418899999999999295e+01 3.302700000000000102e+01 2.714662000000000130e+00 -2.742498997506158664e-01
3.136100000000000065e+01 9.465399999999999636e+01 1.855999999999999872e+01 -8.142276000000000735e+00 -1.077640927804055515e-01
3.138100000000000023e+01 1.084800000000000040e+02 3.093199999999999861e+01 6.611073000000000199e+00 -2.720445810653385754e-01
3.139900000000000091e+01 9.555299999999999727e+01 2.229299999999999926e+01 1.468915999999999933e+01 -1.932683624279935564e-01
3.140599999999999881e+01 1.009699999999999989e+02 3.193100000000000094e+01 1.543709999999999916e+00 -2.730064773360935670e-01
3.141000000000000014e+01 9.932500000000000284e+01 2.681599999999999895e+01 3.373358000000000079e+00 -1.930736588354306504e-01
3.141499999999999915e+01 1.009200000000000017e+02 3.092599999999999838e+01 3.064265999999999934e+00 -2.730597529057166017e-01
3.141700000000000159e+01 9.348600000000000421e+01 2.042699999999999960e+01 -1.174549999999999983e+00 -1.044240755783778923e-01
3.142599999999999838e+01 1.098100000000000023e+02 1.874599999999999866e+01 7.555055000000000298e+00 -2.052140398366583685e-02
3.142599999999999838e+01 1.113599999999999994e+02 1.874599999999999866e+01 2.040600999999999943e-01 -2.027961169181929230e-02
3.142699999999999960e+01 9.792499999999999716e+01 1.452200000000000024e+01 -1.831677000000000000e+00 -1.100967419451907015e-01
3.142699999999999960e+01 1.029500000000000028e+02 1.995499999999999829e+01 4.880520999999999887e-01 -2.911015009854399718e-02
3.144600000000000151e+01 1.022999999999999972e+02 3.269299999999999784e+01 -1.081128000000000000e+01 -2.727561227464068705e-01
3.145200000000000173e+01 1.034000000000000057e+02 1.556400000000000006e+01 -6.194671999999999956e-01 -9.733042538944997046e-02
3.145299999999999940e+01 9.380899999999999750e+01 3.204599999999999937e+01 1.914226999999999901e+00 -2.743897936222746692e-01
3.151000000000000156e+01 9.413200000000000500e+01 3.386399999999999721e+01 2.183080999999999960e+01 -2.742093069667381200e-01
3.151699999999999946e+01 1.036599999999999966e+02 1.478899999999999970e+01 -1.182399999999999896e+00 -9.665793241713482864e-02
3.152899999999999991e+01 9.692100000000000648e+01 2.350000000000000000e+01 -2.921997000000000178e+00 -1.931200255264137744e-01
3.153999999999999915e+01 9.623399999999999466e+01 1.608500000000000085e+01 -1.692889000000000088e+00 -1.097693066381690147e-01
3.154100000000000037e+01 9.490800000000000125e+01 1.782199999999999918e+01 -1.917945999999999929e+00 -1.089894304939029307e-01
3.154799999999999827e+01 9.389400000000000546e+01 1.942000000000000171e+01 -1.733174999999999910e+00 -1.060733598831414826e-01
3.154799999999999827e+01 1.006099999999999994e+02 3.004799999999999827e+01 4.562591000000000285e+00 -2.731441260411556216e-01
3.157900000000000063e+01 9.680100000000000193e+01 1.568500000000000050e+01 -2.213045000000000151e+00 -1.100035842899046157e-01
3.158099999999999952e+01 9.925100000000000477e+01 2.795100000000000051e+01 2.863678000000000168e+00 -1.931431704886570899e-01
3.159199999999999875e+01 1.133400000000000034e+02 2.305199999999999960e+01 -4.964519000000000126e+00 -3.109809683696455607e-01
3.159299999999999997e+01 9.283100000000000307e+01 3.198999999999999844e+01 6.507177000000000433e+00 -2.746063149900087597e-01
3.159299999999999997e+01 9.283100000000000307e+01 3.462800000000000011e+01 1.116775999999999982e+02 -2.744323685194497986e-01
3.159799999999999898e+01 9.500199999999999534e+01 1.692000000000000171e+01 -3.622545999999999822e+00 -1.092967146056568889e-01
3.160500000000000043e+01 9.865500000000000114e+01 2.477199999999999847e+01 3.687266000000000155e+00 -1.929725644089276826e-01
3.160800000000000054e+01 1.142099999999999937e+02 2.592699999999999960e+01 8.824783999999999295e+00 -3.101915861975351740e-01
3.161199999999999832e+01 9.928100000000000591e+01 1.388299999999999912e+01 -1.594708000000000014e+00 -1.108477509736400801e-01
3.161299999999999955e+01 1.094599999999999937e+02 2.982100000000000151e+01 1.046470000000000056e+01 -2.920528689488899876e-01
3.161400000000000077e+01 1.072000000000000028e+02 3.167000000000000171e+01 -3.045389000000000124e+00 -2.721295930414878717e-01
3.162800000000000011e+01 9.397799999999999443e+01 2.114300000000000068e+01 5.201396000000000353e-01 2.293007411817682938e-03
3.163299999999999912e+01 9.157699999999999818e+01 3.282999999999999829e+01 6.020960999999999785e+00 -2.748259144056336978e-01
3.163299999999999912e+01 9.157699999999999818e+01 3.378799999999999670e+01 6.449768999999999863e+00 -2.747593423976198435e-01
3.163599999999999923e+01 1.065199999999999960e+02 2.107999999999999829e+01 9.282156999999999769e-01 -1.662099642246979772e-02
3.163800000000000168e+01 1.128799999999999955e+02 2.696399999999999864e+01 1.472888000000000019e+01 -3.098013582440272140e-01
3.163899999999999935e+01 1.114500000000000028e+02 2.754500000000000171e+01 3.296282000000000068e+01 -3.095172713845025791e-01
3.164099999999999824e+01 9.752200000000000557e+01 2.401399999999999935e+01 2.941152000000000211e+00 -1.930528568747618967e-01
3.164399999999999835e+01 1.143199999999999932e+02 2.483699999999999974e+01 1.010126999999999997e+00 -3.105106704777989002e-01
3.166100000000000136e+01 9.533100000000000307e+01 1.616000000000000014e+01 -2.268463000000000118e+00 -1.091255859876198303e-01
3.168199999999999861e+01 1.003100000000000023e+02 2.917099999999999937e+01 4.004855000000000054e+00 -2.732290688640122145e-01
3.168400000000000105e+01 1.023100000000000023e+02 1.947200000000000131e+01 -1.909647000000000094e+00 -9.508227547770188581e-02
3.168499999999999872e+01 1.008900000000000006e+02 1.370500000000000007e+01 -3.007295000000000051e+00 -9.690502194795116986e-02
3.170299999999999940e+01 9.499200000000000443e+01 3.308400000000000318e+01 9.992800000000000793e+00 -2.740753044919879144e-01
3.172899999999999920e+01 1.018599999999999994e+02 1.912000000000000099e+01 -6.405822999999999823e+00 -9.542872524565255976e-02
3.174800000000000111e+01 1.044699999999999989e+02 1.478899999999999970e+01 5.705761999999999778e-01 -9.638935447901308962e-02
3.175600000000000023e+01 1.031800000000000068e+02 1.390900000000000070e+01 -1.859963000000000033e+00 -9.619152499362296216e-02
3.176000000000000156e+01 1.091599999999999966e+02 3.067899999999999849e+01 6.335008000000000195e+00 -2.924245686587324533e-01
3.176200000000000045e+01 1.044099999999999966e+02 3.300900000000000034e+01 -2.292669000000000068e+00 -2.724087873208139166e-01
3.176200000000000045e+01 1.060400000000000063e+02 3.254599999999999937e+01 -1.729617000000000004e+01 -2.722172839822346591e-01
3.176500000000000057e+01 1.077099999999999937e+02 2.060099999999999909e+01 5.704354999999999620e+00 -1.738212331791440940e-02
3.176500000000000057e+01 1.089000000000000057e+02 1.993700000000000117e+01 1.689077999999999946e+01 -1.847848648703175750e-02
3.176500000000000057e+01 1.018799999999999955e+02 1.679299999999999926e+01 -8.117610999999999422e+01 -9.796715226781499419e-02
3.177100000000000080e+01 9.904200000000000159e+01 2.551599999999999824e+01 5.886789000000000049e-01 -1.929478035930292379e-01
3.177400000000000091e+01 9.462300000000000466e+01 3.223400000000000176e+01 4.328596000000000110e+00 -2.742042095183264139e-01
3.177400000000000091e+01 9.462300000000000466e+01 3.393399999999999750e+01 9.401891000000000886e+00 -2.740996968437613424e-01
3.181299999999999883e+01 1.041400000000000006e+02 1.401399999999999935e+01 -1.843042999999999987e+00 -9.591928791468895543e-02
3.181299999999999883e+01 1.041400000000000006e+02 1.556400000000000006e+01 1.606254999999999988e+00 -9.711783479068379632e-02
3.184799999999999898e+01 1.099500000000000028e+02 2.913899999999999935e+01 3.238011999999999802e+01 -3.088978630776070267e-01
3.184900000000000020e+01 1.028499999999999943e+02 3.259100000000000108e+01 -1.346246999999999971e+01 -2.726409650617210856e-01
3.186400000000000077e+01 9.359799999999999898e+01 3.466299999999999670e+01 1.086513999999999953e+02 -2.742685818247146967e-01
3.186499999999999844e+01 1.035499999999999972e+02 2.029500000000000171e+01 -1.530672999999999950e+00 -2.834340833707043456e-02
3.186899999999999977e+01 1.048100000000000023e+02 2.067699999999999960e+01 -9.088300999999999519e+00 -2.767471169175121995e-02
3.188100000000000023e+01 9.865999999999999659e+01 1.408099999999999952e+01 -1.796945999999999932e+00 -1.106526043070303889e-01
3.188500000000000156e+01 9.334199999999999875e+01 2.887600000000000122e+01 -5.632224000000000119e-01 -2.746762664733062298e-01
3.189600000000000080e+01 9.310999999999999943e+01 2.091700000000000159e+01 8.284065000000000456e-01 -1.034971132187575138e-01
3.190500000000000114e+01 1.092600000000000051e+02 1.918499999999999872e+01 3.972045000000000048e+00 -1.975928569652202899e-02
3.190500000000000114e+01 1.105799999999999983e+02 1.844999999999999929e+01 1.824484999999999912e+00 -2.084987464851761202e-02
3.190500000000000114e+01 1.119000000000000057e+02 1.918499999999999872e+01 7.709561000000000330e-01 -1.940249898260634764e-02
3.190500000000000114e+01 1.121299999999999955e+02 2.000000000000000000e+01 1.720131999999999994e+00 -1.803048822931354461e-02
3.190500000000000114e+01 9.506100000000000705e+01 2.191900000000000048e+01 -3.884933999999999887e+00 4.229874745400473771e-03
3.190899999999999892e+01 9.728199999999999648e+01 1.490499999999999936e+01 -1.934773000000000076e+00 -1.100868984902114711e-01
3.192899999999999849e+01 9.205599999999999739e+01 3.205499999999999972e+01 2.412662000000000084e+00 -2.747823181487609734e-01
3.192899999999999849e+01 9.205599999999999739e+01 3.456300000000000239e+01 1.544206999999999930e+01 -2.746079176670850885e-01
3.193700000000000117e+01 1.018299999999999983e+02 3.225900000000000034e+01 7.102481000000000044e+00 -2.728078409333466459e-01
3.195499999999999829e+01 9.661700000000000443e+01 2.352299999999999969e+01 -5.010875999999999664e-01 -1.930852695883634729e-01
3.195599999999999952e+01 1.016200000000000045e+02 1.379199999999999982e+01 -5.222785000000000011e+00 -9.674547072188723063e-02
3.196000000000000085e+01 1.107699999999999960e+02 2.811599999999999966e+01 4.137057999999999680e+01 -3.092762915075447649e-01
3.198100000000000165e+01 9.340300000000000580e+01 1.981599999999999895e+01 -1.294974000000000069e+00 -1.052047591265788534e-01
3.198699999999999832e+01 9.595099999999999341e+01 1.568500000000000050e+01 -2.055607000000000184e+00 -1.095155193620758888e-01
3.198999999999999844e+01 9.326399999999999579e+01 3.150000000000000000e+01 1.823633999999999977e+00 -2.745485033455491442e-01
3.199599999999999866e+01 1.014300000000000068e+02 1.755399999999999849e+01 -1.807423999999999964e+01 -9.719215313467391426e-02
3.199599999999999866e+01 1.014300000000000068e+02 1.842000000000000171e+01 -1.089771999999999963e+01 -9.622703404990361198e-02
3.203699999999999903e+01 9.795499999999999829e+01 2.450499999999999901e+01 3.833651999999999838e+00 -1.929571771723443685e-01
3.203999999999999915e+01 1.129300000000000068e+02 2.223999999999999844e+01 -2.149475999999999942e+01 -3.112287422467758247e-01
3.205199999999999960e+01 9.389100000000000534e+01 2.512500000000000000e+01 -7.827614000000000516e-01 -1.935833004464132256e-01
3.206400000000000006e+01 1.097600000000000051e+02 2.980499999999999972e+01 1.022701999999999956e+01 -2.917716198628036994e-01
3.206900000000000261e+01 1.072199999999999989e+02 2.081299999999999883e+01 4.062057000000000251e+00 -1.693096275549500068e-02
3.206900000000000261e+01 1.024000000000000057e+02 1.394999999999999929e+01 -5.717353000000000129e+00 -9.658809060528143753e-02
3.209400000000000119e+01 1.125199999999999960e+02 2.134900000000000020e+01 -6.684052999999999578e+00 -1.576264661203116008e-02
3.210000000000000142e+01 1.057000000000000028e+02 2.071199999999999974e+01 -2.201700999999999908e+00 -1.724515723264227057e-02
3.210999999999999943e+01 9.905800000000000693e+01 2.638299999999999912e+01 2.891131000000000117e+00 -1.929455123707718989e-01
3.210999999999999943e+01 9.905800000000000693e+01 2.724899999999999878e+01 2.697525000000000173e+00 -1.930137966040161301e-01
3.211200000000000188e+01 9.254300000000000637e+01 2.887600000000000122e+01 -1.974428999999999990e+00 -2.748650398854756705e-01
3.211200000000000188e+01 9.414100000000000534e+01 2.887600000000000122e+01 -1.079803000000000068e+01 -2.744999922863907704e-01
3.211500000000000199e+01 1.006500000000000057e+02 3.139999999999999858e+01 4.393642999999999965e+00 -2.730335459930371966e-01
3.211500000000000199e+01 9.981399999999999295e+01 2.877499999999999858e+01 5.436196999999999946e+00 -2.733119895476588956e-01
3.211500000000000199e+01 1.282500000000000000e+02 2.214300000000000068e+01 3.454310999999999865e+01 -3.243338539837082868e-01
3.213000000000000256e+01 1.112199999999999989e+02 2.786899999999999977e+01 4.120839000000000141e+01 -3.093851833762902848e-01
3.213100000000000023e+01 9.416299999999999670e+01 3.160800000000000054e+01 5.356277000000000399e+00 -2.743421082652586773e-01
3.213100000000000023e+01 9.457099999999999795e+01 1.644999999999999929e+01 -2.282846000000000153e+00 -1.088871323748547698e-01
3.213100000000000023e+01 9.457099999999999795e+01 1.739000000000000057e+01 -2.688940000000000108e+00 -1.094983869650978103e-01
3.213100000000000023e+01 9.457099999999999795e+01 1.825499999999999901e+01 -2.136112999999999928e+00 -1.083330737464392318e-01
3.214600000000000080e+01 9.433799999999999386e+01 1.876899999999999835e+01 -2.119582999999999995e+00 -1.074377854578969504e-01
3.215299999999999869e+01 9.438500000000000512e+01 2.175900000000000034e+01 1.749803999999999915e+00 4.109312281179906129e-03
3.215999999999999659e+01 1.034599999999999937e+02 1.350000000000000000e+01 -1.529352999999999962e+00 -9.581067650729736818e-02
3.217499999999999716e+01 9.287199999999999989e+01 2.811599999999999966e+01 -2.021036000000000055e+00 -2.748295827014921588e-01
3.217499999999999716e+01 9.287199999999999989e+01 2.963599999999999923e+01 -5.349427000000000376e+00 -2.747508278159301875e-01
3.217499999999999716e+01 9.381199999999999761e+01 2.811599999999999966e+01 -2.651727000000000167e+00 -2.746137340559192674e-01
3.217499999999999716e+01 9.381199999999999761e+01 2.963599999999999923e+01 -9.912496000000000862e+00 -2.745354522762349925e-01
3.217499999999999716e+01 9.381199999999999761e+01 3.103600000000000136e+01 1.042564999999999964e+00 -2.744556020034900623e-01
3.218200000000000216e+01 1.134599999999999937e+02 2.632499999999999929e+01 2.187868999999999886e+01 -3.100266058169740546e-01
3.218800000000000239e+01 1.031200000000000045e+02 1.978300000000000125e+01 -1.294357999999999898e+00 -2.939412366200278015e-02
3.219500000000000028e+01 9.363400000000000034e+01 2.178999999999999915e+01 1.119946000000000019e+01 4.425283663370168166e-03
3.219800000000000040e+01 1.084099999999999966e+02 2.033399999999999963e+01 6.134673000000000265e+00 -1.769193649701086835e-02
3.219800000000000040e+01 1.023700000000000045e+02 1.639600000000000080e+01 -2.333088000000000051e+01 -9.857188003779272789e-02
3.220000000000000284e+01 9.415699999999999648e+01 3.460300000000000153e+01 2.876492999999999967e+01 -2.741509087297873681e-01
3.220400000000000063e+01 9.834199999999999875e+01 2.524899999999999878e+01 1.256320999999999977e+01 -1.929278056810556641e-01
3.222200000000000131e+01 9.704900000000000659e+01 2.422299999999999898e+01 5.350037999999999627e+00 -1.930189247293695176e-01
3.222399999999999665e+01 1.005400000000000063e+02 3.037199999999999989e+01 2.024809999999999999e+00 -2.730941064148446618e-01
3.222399999999999665e+01 9.894799999999999329e+01 1.361899999999999977e+01 -2.201420999999999850e+00 -1.107877419549282705e-01
3.222800000000000153e+01 1.103400000000000034e+02 2.881599999999999895e+01 4.032737999999999801e+01 -3.090117367988072239e-01
3.224499999999999744e+01 1.076599999999999966e+02 3.132600000000000051e+01 -4.187243999999999966e-01 -2.720236552792881235e-01
3.224600000000000222e+01 9.549299999999999500e+01 2.264199999999999946e+01 -7.240470000000000184e+00 -1.931466590785288484e-01
3.225200000000000244e+01 1.036599999999999966e+02 1.610800000000000054e+01 1.820636999999999972e+01 -9.782411937459024875e-02
3.225300000000000011e+01 9.230700000000000216e+01 2.085999999999999943e+01 4.028850999999999960e-01 -1.028931997899276973e-01
3.225800000000000267e+01 9.591700000000000159e+01 2.346499999999999986e+01 -6.270171000000000383e+00 -1.931245427314810525e-01
3.226700000000000301e+01 1.137999999999999972e+02 2.548699999999999832e+01 1.513484000000000052e+01 -3.102989443206972120e-01
3.227900000000000347e+01 9.309199999999999875e+01 2.512500000000000000e+01 -1.116681999999999952e+00 -1.936888207797548278e-01
3.227900000000000347e+01 9.468999999999999773e+01 2.512500000000000000e+01 -3.623219000000000189e+00 -1.934143400682869218e-01
3.228000000000000114e+01 1.065900000000000034e+02 3.235499999999999687e+01 5.430930999999999953e-01 -2.721034158800099689e-01
3.228699999999999903e+01 1.035600000000000023e+02 3.268399999999999750e+01 5.471765000000000434e+00 -2.724895570351003604e-01
3.228699999999999903e+01 1.052600000000000051e+02 3.268399999999999750e+01 -2.626631999999999856e+00 -2.722546409661075750e-01
3.229200000000000159e+01 1.049099999999999966e+02 1.431000000000000050e+01 1.805456999999999823e+01 -9.593241246983828796e-02
3.229200000000000159e+01 1.049099999999999966e+02 1.526800000000000068e+01 5.581013000000000090e+01 -9.668289078002813286e-02
3.229899999999999949e+01 9.547299999999999898e+01 3.255899999999999750e+01 1.065634000000000015e+01 -2.739938207570578044e-01
3.229899999999999949e+01 9.547299999999999898e+01 3.360900000000000176e+01 4.232927999999999713e+01 -2.739296639547287859e-01
3.230199999999999960e+01 1.041099999999999994e+02 2.041000000000000014e+01 -1.042019000000000029e+00 -2.806442596811028339e-02
3.232099999999999795e+01 9.334199999999999875e+01 3.041100000000000136e+01 -3.081123999999999974e+00 -2.746020248385076523e-01
3.232200000000000273e+01 1.178199999999999932e+02 2.262399999999999878e+01 -4.987140999999999935e-01 -3.112934927617601044e-01
3.232399999999999807e+01 9.267600000000000193e+01 2.001000000000000156e+01 -6.357692000000000343e-01 -1.043565333334577072e-01
3.232399999999999807e+01 9.267600000000000193e+01 2.171000000000000085e+01 3.554946999999999857e+00 4.524156889645088164e-03
3.232699999999999818e+01 1.002999999999999972e+02 1.321899999999999942e+01 -2.505787999999999904e+00 -9.686722345658717315e-02
3.234199999999999875e+01 9.342100000000000648e+01 2.436499999999999844e+01 -1.246374000000000093e+00 -1.935657764072045983e-01
3.234199999999999875e+01 9.436100000000000421e+01 2.588500000000000156e+01 -3.224028000000000116e+00 -1.935166555362449192e-01
3.234199999999999875e+01 1.010199999999999960e+02 3.199699999999999989e+01 1.688868999999999954e+00 -2.729225936024618493e-01
3.234400000000000119e+01 1.022800000000000011e+02 3.194000000000000128e+01 3.178515000000000157e+01 -2.727133208055027014e-01
3.234599999999999653e+01 1.274300000000000068e+02 2.214300000000000068e+01 4.095701000000000036e+00 -3.243911234243332387e-01
3.234599999999999653e+01 1.290600000000000023e+02 2.214300000000000068e+01 1.105307999999999957e+01 -3.242588232512672031e-01
3.236099999999999710e+01 1.138599999999999994e+02 2.362600000000000122e+01 -2.842014999999999958e+00 -3.108642575400930030e-01
3.236399999999999721e+01 1.170799999999999983e+02 2.034299999999999997e+01 5.222788000000000430e-01 -2.780515472661262422e-01
3.237199999999999989e+01 9.924800000000000466e+01 2.843100000000000094e+01 4.117566000000000059e+00 -1.930506882122224044e-01
3.237199999999999989e+01 1.065199999999999960e+02 2.087099999999999866e+01 9.177235000000000253e-01 -1.677226472736979487e-02
3.238199999999999790e+01 1.002500000000000000e+02 2.947500000000000142e+01 5.390019999999999811e+00 -2.731792876126631908e-01
3.238400000000000034e+01 1.098100000000000023e+02 1.874599999999999866e+01 9.338901999999999148e+00 -2.039499033782966528e-02
3.238400000000000034e+01 1.113599999999999994e+02 1.874599999999999866e+01 1.238706000000000085e+00 -2.014692668245682619e-02
3.240599999999999881e+01 1.135100000000000051e+02 2.282400000000000162e+01 -1.540211999999999914e+00 -3.110940772708819524e-01
3.240800000000000125e+01 9.128100000000000591e+01 3.330899999999999750e+01 1.438442999999999916e+00 -2.748872790702040492e-01
3.240800000000000125e+01 9.151200000000000045e+01 3.249399999999999977e+01 6.300583999999999740e+00 -2.748933935051459665e-01
3.240800000000000125e+01 9.151200000000000045e+01 3.412400000000000233e+01 1.384944999999999915e+01 -2.747735790374876141e-01
3.240800000000000125e+01 9.247100000000000364e+01 3.153600000000000136e+01 2.708508999999999833e+00 -2.747365203210874740e-01
3.240800000000000125e+01 9.283100000000000307e+01 3.485900000000000176e+01 1.764854000000000056e+01 -2.744231979301546276e-01
3.241100000000000136e+01 1.277699999999999960e+02 2.136799999999999855e+01 4.513965999999999923e+00 -3.244634374208402727e-01
3.241100000000000136e+01 1.277699999999999960e+02 2.291799999999999926e+01 7.078198999999999685e+00 -3.242558132482358801e-01
3.241100000000000136e+01 1.287299999999999898e+02 2.136799999999999855e+01 8.387053999999999121e+00 -3.243823799459946144e-01
3.241100000000000136e+01 1.287299999999999898e+02 2.291799999999999926e+01 1.330400000000000027e+01 -3.241809410834615157e-01
3.241799999999999926e+01 9.500700000000000500e+01 3.169200000000000017e+01 6.349866999999999706e+00 -2.741469887263988103e-01
3.242099999999999937e+01 9.504099999999999682e+01 1.568999999999999950e+01 -2.192727000000000093e+00 -1.089415105287758340e-01
3.242699999999999960e+01 9.336299999999999955e+01 2.600600000000000023e+01 -1.493384000000000045e+00 -1.936877006669366907e-01
3.245700000000000074e+01 9.868099999999999739e+01 2.610000000000000142e+01 2.969119000000000064e+00 -1.929017419531116606e-01
3.246500000000000341e+01 1.088499999999999943e+02 1.963400000000000034e+01 9.759793000000000163e+00 -1.888273988283264287e-02
3.246500000000000341e+01 1.019399999999999977e+02 1.709600000000000009e+01 -2.314096999999999937e+01 -9.789531859449472628e-02
3.246600000000000108e+01 1.019699999999999989e+02 1.345899999999999963e+01 -2.770535000000000192e+00 -9.642061467449342116e-02
3.247699999999999676e+01 9.792499999999999716e+01 1.452200000000000024e+01 -2.331658000000000008e+00 -1.107005586200781044e-01
3.248400000000000176e+01 1.094300000000000068e+02 3.126200000000000045e+01 4.429764999999999731e+00 -2.922731644845279475e-01
3.248700000000000188e+01 1.018199999999999932e+02 1.798699999999999832e+01 -6.290310999999999986e+00 -9.688615011505526120e-02
3.248899999999999721e+01 1.045199999999999960e+02 1.347300000000000075e+01 -5.428465000000000096e-01 -9.542437831161396100e-02
3.250099999999999767e+01 1.077099999999999937e+02 2.039199999999999946e+01 2.394830999999999932e+00 -1.756044311802244795e-02
3.250099999999999767e+01 1.030699999999999932e+02 1.633800000000000097e+01 3.513239000000000090e+01 -9.831644128348386580e-02
3.251200000000000045e+01 9.330599999999999739e+01 2.752599999999999980e+01 -5.765896000000000354e-01 -2.747671960605178043e-01
3.251200000000000045e+01 1.072300000000000040e+02 3.202600000000000335e+01 2.404450999999999894e+00 -2.720161107470813189e-01
3.251599999999999824e+01 9.876800000000000068e+01 2.765599999999999881e+01 2.373606000000000105e+00 -1.930084716173995907e-01
3.252499999999999858e+01 9.384799999999999898e+01 2.671199999999999974e+01 -8.401026000000000327e-01 -1.936469249282946337e-01
3.254200000000000159e+01 1.100799999999999983e+02 3.041199999999999903e+01 6.270528999999999797e+00 -2.916628786864545742e-01
3.254599999999999937e+01 9.463200000000000500e+01 2.840700000000000003e+01 3.144393999999999662e-02 -2.744151799846085704e-01
3.254599999999999937e+01 9.463200000000000500e+01 2.934499999999999886e+01 -1.761716999999999866e-01 -2.743661335009340285e-01
3.254800000000000182e+01 1.083599999999999994e+02 3.126800000000000068e+01 -4.269138000000000099e-01 -2.719180152517942095e-01
3.254800000000000182e+01 1.176400000000000006e+02 2.115299999999999869e+01 1.299887000000000126e-01 -3.117020434341450930e-01
3.254899999999999949e+01 1.025400000000000063e+02 1.909799999999999898e+01 8.016754000000000380e-01 -9.569747510733003781e-02
3.254899999999999949e+01 1.170199999999999960e+02 2.262399999999999878e+01 1.762983999999999940e-01 -3.112840626964887281e-01
3.254899999999999949e+01 1.186200000000000045e+02 2.262399999999999878e+01 -1.873534000000000033e-01 -3.113237904835858272e-01
3.255599999999999739e+01 9.400000000000000000e+01 2.756700000000000017e+01 -3.265801999999999872e+00 -2.746035225057772422e-01
3.256300000000000239e+01 1.117099999999999937e+02 2.747200000000000131e+01 3.648207000000000022e+01 -3.095363504518321429e-01
3.256700000000000017e+01 1.181400000000000006e+02 2.185600000000000165e+01 -6.395189000000000235e+00 -3.115209909586571513e-01
3.257200000000000273e+01 1.167699999999999960e+02 2.117899999999999849e+01 1.026432999999999929e+00 -3.116832950979696593e-01
3.257600000000000051e+01 1.028799999999999955e+02 1.327399999999999913e+01 -5.050202000000000302e-01 -9.590925844222737695e-02
3.257900000000000063e+01 9.384699999999999420e+01 1.916499999999999915e+01 -2.156121000000000176e+00 -1.065735525399803540e-01
3.258500000000000085e+01 9.462000000000000455e+01 3.094800000000000040e+01 3.728705000000000158e+00 -2.742779780328464811e-01
3.258800000000000097e+01 1.044300000000000068e+02 1.604299999999999926e+01 1.401373000000000069e+01 -9.753402946943003082e-02
3.259499999999999886e+01 1.010600000000000023e+02 1.318399999999999928e+01 -2.974234000000000044e+00 -9.657849419032125959e-02
3.260099999999999909e+01 9.866100000000000136e+01 2.681599999999999895e+01 2.614078000000000124e+00 -1.929332889223271397e-01
3.260099999999999909e+01 1.039200000000000017e+02 1.298099999999999987e+01 -8.088708999999999483e-01 -9.524905974697764344e-02
3.260499999999999687e+01 1.048100000000000023e+02 2.046799999999999997e+01 -4.865273999999999988e-01 -1.767398911336121731e-02
3.260699999999999932e+01 1.103400000000000034e+02 3.118700000000000117e+01 -2.600595000000000212e+00 -2.917619853396242191e-01
3.261200000000000188e+01 1.173499999999999943e+02 2.338400000000000034e+01 -8.615741999999999567e-01 -3.110852790613963248e-01
3.261200000000000188e+01 1.182900000000000063e+02 2.338400000000000034e+01 -1.423492000000000068e+01 -3.111143146994543862e-01
3.261800000000000210e+01 1.161899999999999977e+02 2.034299999999999997e+01 7.196981999999999546e-01 -2.779980976668126047e-01
3.261800000000000210e+01 1.179800000000000040e+02 2.034299999999999997e+01 3.159333999999999865e+00 -2.781987132314843736e-01
3.262400000000000233e+01 9.494799999999999329e+01 3.445900000000000318e+01 1.577022999999999975e+01 -2.739817172855350536e-01
3.262899999999999778e+01 9.656900000000000261e+01 1.533399999999999963e+01 -2.672013000000000194e+00 -1.101770750316833913e-01
3.263000000000000256e+01 1.170799999999999983e+02 2.187900000000000134e+01 -2.767856999999999790e+00 -3.114979079056843236e-01
3.263600000000000279e+01 9.745600000000000307e+01 2.505300000000000082e+01 9.259738999999999720e+00 -1.929413737523786865e-01
3.264000000000000057e+01 1.129500000000000028e+02 2.680399999999999849e+01 1.155025999999999975e+01 -3.098415827295232239e-01
3.264300000000000068e+01 9.431699999999999307e+01 3.024800000000000111e+01 -8.465839000000000780e+00 -2.743891146192219965e-01
3.264500000000000313e+01 9.211199999999999477e+01 2.840599999999999881e+01 -6.778111999999999471e-01 -2.750126247961688364e-01
3.264500000000000313e+01 9.211199999999999477e+01 2.934600000000000009e+01 -2.518302999999999958e+00 -2.749623590401744644e-01
3.265500000000000114e+01 9.548399999999999466e+01 2.395599999999999952e+01 -9.712866999999999251e+00 -1.931453280582496879e-01
3.265500000000000114e+01 9.634900000000000375e+01 2.395599999999999952e+01 -6.852590000000000181e+00 -1.930177790732273690e-01
3.265599999999999881e+01 1.044099999999999966e+02 3.275500000000000256e+01 2.277511000000000152e+01 -2.723270475486324615e-01
3.265599999999999881e+01 9.953799999999999670e+01 1.328200000000000003e+01 -4.597547999999999746e+00 -9.732472829616276022e-02
3.267000000000000171e+01 1.273299999999999983e+02 2.111700000000000088e+01 8.177566999999999808e+00 -3.245251766132034588e-01
3.267900000000000205e+01 9.392700000000000671e+01 2.237500000000000000e+01 9.283509999999999707e+00 -1.933055896199798174e-01
3.267900000000000205e+01 9.392700000000000671e+01 2.377499999999999858e+01 -8.262014999999999887e+00 -1.933838583977273151e-01
