3.001399999999999935e+01 2.929699999999999971e+00 7.671699999999999875e+01 1.042778999999999900e+00 -2.536619655696599196e-01
3.001399999999999935e+01 2.929699999999999971e+00 7.776699999999999591e+01 1.806176999999999921e+00 -2.533981422592205268e-01
3.001800000000000068e+01 1.884499999999999886e+01 5.823799999999999955e+01 -1.803226999999999913e+00 -2.550270186111504578e-01
3.002199999999999847e+01 4.992199999999999704e+01 7.253600000000000136e+01 1.061468000000000078e+00 1.654367329145581961e-02
3.002400000000000091e+01 5.018099999999999739e+01 7.045699999999999363e+01 3.160004999999999953e+00 -1.574030768847156092e-01
3.002499999999999858e+01 5.183800000000000097e+01 7.147199999999999420e+01 6.893901999999999530e-01 3.107380788538778235e-02
3.002499999999999858e+01 5.277799999999999869e+01 6.995199999999999818e+01 -1.060460000000000014e-01 5.685483828759931718e-02
3.002899999999999991e+01 8.293699999999999406e+00 7.919199999999999307e+01 3.966980999999999824e+01 -1.646527148085906167e-01
3.003500000000000014e+01 4.824399999999999977e+01 5.315999999999999659e+01 -7.246915999999999913e-01 -3.828353625997332754e-01
3.003699999999999903e+01 3.625300000000000011e+01 6.355100000000000193e+01 -3.929483999999999977e+00 -1.470171324416257863e-01
3.003900000000000148e+01 3.848299999999999699e+01 7.238299999999999557e+01 5.260856999999999672e+00 -1.564859688404756644e-01
3.003900000000000148e+01 3.869200000000000017e+01 7.311899999999999977e+01 5.550610999999999962e+00 -1.648015017892016654e-01
3.004100000000000037e+01 3.276400000000000290e+01 8.725000000000000000e+01 2.068708000000000169e+01 -8.643252079266754151e-02
3.004200000000000159e+01 3.598199999999999932e+01 6.526800000000000068e+01 -1.514955999999999969e+00 -4.311502113984154450e-02
3.004299999999999926e+01 5.097999999999999687e+01 7.012199999999999989e+01 1.400290000000000035e+00 5.219804745510712995e-02
3.004700000000000060e+01 1.087899999999999956e+01 7.759600000000000364e+01 -8.831925000000000026e+00 -1.638023221962586207e-01
3.004899999999999949e+01 5.041799999999999926e+01 7.927100000000000080e+01 5.039088999999999707e+00 -2.674929716742210362e-01
3.004899999999999949e+01 4.189500000000000313e+01 6.870399999999999352e+01 2.894553000000000154e+01 3.408962801065361370e-02
3.005099999999999838e+01 1.390799999999999947e+01 6.875600000000000023e+01 8.996280000000000499e+00 -2.547417769633709694e-01
3.005099999999999838e+01 4.152799999999999869e+01 7.445399999999999352e+01 7.730834999999999901e+00 -1.988960634787638182e-01
3.005099999999999838e+01 3.645300000000000296e+01 6.594899999999999807e+01 2.222434999999999938e+00 1.316569391587767701e-01
3.005600000000000094e+01 4.004899999999999949e+01 8.289600000000000080e+01 -4.546446000000000431e+00 -8.017490511971628320e-02
3.005600000000000094e+01 4.004899999999999949e+01 8.383599999999999852e+01 -8.501504000000000616e+00 -7.973455863699076274e-02
3.005699999999999861e+01 4.036800000000000210e+01 5.165200000000000102e+01 -5.810893000000000086e+00 -6.773969422678895180e-02
3.005799999999999983e+01 3.734199999999999875e+01 6.367399999999999949e+01 6.612473999999999741e+00 -1.480478242371318642e-01
3.005799999999999983e+01 4.304999999999999716e+00 7.579600000000000648e+01 1.094367000000000090e+00 -2.536519979220405174e-01
3.005799999999999983e+01 4.304999999999999716e+00 7.868800000000000239e+01 9.616965999999999681e+00 -2.528808183773509910e-01
3.005900000000000105e+01 1.379899999999999949e+01 6.795499999999999829e+01 3.862657999999999703e+01 -2.552504415054784870e-01
3.006099999999999994e+01 9.438900000000000290e+00 7.996699999999999875e+01 7.133298000000000627e+01 -1.643056280231470212e-01
3.007199999999999918e+01 2.042000000000000171e+01 8.700799999999999557e+01 1.859704999999999941e+01 -9.247460667585731542e-02
3.007300000000000040e+01 5.019599999999999795e+01 5.867099999999999937e+01 -8.323890000000000455e+00 -3.887224103419440469e-01
3.007300000000000040e+01 4.621500000000000341e+01 6.554699999999999704e+01 1.153351999999999933e+01 -1.789772564493511964e-01
3.007300000000000040e+01 1.096899999999999942e+01 7.297899999999999920e+01 -7.231398999999999466e-01 -2.531605323560436327e-01
3.007300000000000040e+01 1.122300000000000075e+01 7.208499999999999375e+01 1.795838000000000045e+00 -2.535128548854518327e-01
3.007300000000000040e+01 1.122300000000000075e+01 7.387300000000000466e+01 -3.396060000000000190e-01 -2.526825773988728985e-01
3.007300000000000040e+01 1.266900000000000048e+01 7.127899999999999636e+01 3.703733999999999860e+00 -2.535507032620502033e-01
3.007300000000000040e+01 1.385999999999999943e+01 7.061499999999999488e+01 -2.384545999999999832e+00 -2.536090788937758189e-01
3.007300000000000040e+01 1.406900000000000084e+01 6.987900000000000489e+01 -8.641558000000000295e-01 -2.540032069666983694e-01
3.007300000000000040e+01 5.253300000000000125e+01 7.425199999999999534e+01 7.022232999999999947e+00 -6.985160399755646794e-03
3.007400000000000162e+01 1.222000000000000064e+01 6.254800000000000182e+01 -5.182523999999999464e-01 -2.576422907714263077e-01
3.007400000000000162e+01 1.222000000000000064e+01 6.500799999999999557e+01 -8.933130000000000237e+00 -2.570378812771755839e-01
3.007400000000000162e+01 4.626899999999999835e+01 7.697400000000000375e+01 1.652540000000000120e+01 9.618367618557579352e-03
3.007600000000000051e+01 3.635099999999999909e+01 7.831300000000000239e+01 1.965722999999999843e+01 -8.594891554190056682e-02
3.007799999999999940e+01 1.340300000000000047e+01 6.581900000000000261e+01 -1.439783000000000035e+00 -2.565585921107272904e-01
3.008099999999999952e+01 3.211800000000000210e+01 5.270000000000000284e+01 -2.492404000000000064e+00 -3.832389909844354237e-01
3.008200000000000074e+01 4.987700000000000244e+01 7.115699999999999648e+01 2.894258999999999915e+00 -1.667760139073871939e-01
3.008200000000000074e+01 5.134899999999999665e+01 7.115699999999999648e+01 7.880831000000000364e-01 3.698749092681263145e-02
3.008299999999999841e+01 1.364600000000000080e+01 6.689799999999999613e+01 5.377049999999999663e+00 -2.559018211156717237e-01
3.008500000000000085e+01 3.461500000000000199e+01 4.693500000000000227e+01 4.794354000000000227e+00 -2.982043468573721823e-01
3.008500000000000085e+01 4.865299999999999869e+01 7.329600000000000648e+01 2.647618000000000027e+00 1.247730180909339681e-01
3.008500000000000085e+01 4.959300000000000352e+01 7.329600000000000648e+01 2.154402999999999846e+00 9.058930117295797835e-03
3.008699999999999974e+01 5.572500000000000142e+01 7.615300000000000580e+01 -4.508098999999999634e+00 -1.605609645424978943e-02
3.008699999999999974e+01 2.195499999999999829e+01 5.410999999999999943e+01 5.591949999999999754e+00 -3.854703536115208218e-01
3.008699999999999974e+01 2.230000000000000071e+01 5.332699999999999818e+01 4.537926999999999822e+00 -3.856297049687484879e-01
3.009299999999999997e+01 5.179299999999999926e+01 8.019199999999999307e+01 1.063391000000000020e+01 -2.658399426447287661e-01
3.009499999999999886e+01 3.595000000000000284e+01 6.425100000000000477e+01 -5.371612999999999971e+00 -4.517192845025355674e-02
3.009600000000000009e+01 2.738500000000000156e+01 4.880799999999999983e+01 9.741172999999999860e+00 -3.865877319384393163e-01
3.010200000000000031e+01 3.292900000000000205e+01 5.336200000000000188e+01 4.060105999999999993e-01 -3.821558249982536792e-01
3.010300000000000153e+01 4.055599999999999739e+01 5.317999999999999972e+01 2.996709000000000067e+00 -3.754601218797971041e-01
3.010900000000000176e+01 2.042800000000000082e+01 5.823799999999999955e+01 1.323404999999999987e+01 -2.547468835390384045e-01
3.010999999999999943e+01 4.770499999999999829e+01 6.571299999999999386e+01 1.134905999999999970e+01 -2.747386043588582738e-01
3.011599999999999966e+01 4.006499999999999773e+01 5.235199999999999676e+01 4.845534999999999926e+00 -6.550701767123132124e-02
3.011599999999999966e+01 3.764500000000000313e+01 6.437399999999999523e+01 2.882744999999999891e+00 -4.954331727227942461e-02
3.011899999999999977e+01 3.748599999999999710e+01 6.592900000000000205e+01 5.785566000000000209e+00 1.211774025543349287e-01
3.012099999999999866e+01 1.916799999999999926e+01 5.899499999999999744e+01 -2.476463000000000136e-01 -2.555080468643982083e-01
3.012199999999999989e+01 1.331400000000000006e+01 7.601600000000000534e+01 1.048231000000000002e+01 -1.628620657034251240e-01
3.012399999999999878e+01 3.539500000000000313e+01 5.077700000000000102e+01 7.127390000000000114e+00 -3.810421223198135476e-01
3.012399999999999878e+01 1.336400000000000077e+01 6.045300000000000296e+01 9.400937000000000765e+00 -2.566818130075468329e-01
3.012399999999999878e+01 1.611400000000000077e+01 6.045300000000000296e+01 1.351379999999999981e+01 -2.566510246597679124e-01
3.013100000000000023e+01 4.651800000000000068e+01 6.624699999999999989e+01 6.273210999999999871e+00 -1.798536216751531469e-01
3.013100000000000023e+01 5.674699999999999989e+01 7.141299999999999670e+01 1.495352000000000015e+00 -7.301263656633344423e-02
3.013100000000000023e+01 5.775399999999999778e+01 7.242000000000000171e+01 5.926584000000000074e+00 -7.980181372157471587e-02
3.013100000000000023e+01 1.011200000000000010e+01 8.421200000000000330e+01 -1.370748000000000077e+00 -1.643512389052674272e-01
3.013899999999999935e+01 5.043699999999999761e+01 6.049799999999999756e+01 -1.758106000000000080e+01 -3.937330901918722481e-01
3.014699999999999847e+01 4.141299999999999670e+01 7.788500000000000512e+01 -1.329621000000000031e+01 -1.174510882341291695e-01
3.014699999999999847e+01 2.045599999999999952e+01 5.547399999999999665e+01 4.358234999999999637e+00 -3.500000000000000888e-01
3.014900000000000091e+01 4.952499999999999858e+01 6.363300000000000267e+01 5.281114999999999782e+00 -2.548500781568693307e-01
3.014900000000000091e+01 2.417000000000000171e+01 4.905400000000000205e+01 4.224529000000000423e+00 -3.865167058095499431e-01
3.015099999999999980e+01 4.660099999999999909e+01 7.172899999999999920e+01 9.841507999999999257e+00 9.028709333431342299e-02
3.015099999999999980e+01 5.596399999999999864e+01 7.117700000000000671e+01 1.439356000000000080e+00 -7.407600004843314934e-02
3.015800000000000125e+01 4.264000000000000057e+01 5.609300000000000352e+01 1.563045999999999935e+01 -3.805188027736424172e-01
3.016100000000000136e+01 3.150600000000000023e+01 8.965200000000000102e+01 2.676358000000000104e+01 -9.030513668799461380e-02
3.016199999999999903e+01 4.219200000000000017e+01 5.373799999999999955e+01 2.678837999999999830e+00 -3.789186054583566499e-01
3.016700000000000159e+01 4.312299999999999756e+01 5.767000000000000171e+01 1.643630999999999887e+01 -3.821407186257677613e-01
3.016700000000000159e+01 2.528399999999999892e+01 9.152599999999999625e+01 -3.645408000000000204e+00 -9.484066514041117335e-02
3.016700000000000159e+01 2.012500000000000000e+01 5.893800000000000239e+01 4.847224999999999895e+00 -2.553366694165687401e-01
3.016799999999999926e+01 1.473900000000000077e+01 5.953199999999999648e+01 5.542767000000000444e+00 -2.561606738395193483e-01
3.017000000000000171e+01 4.653799999999999670e+01 8.212900000000000489e+01 -5.705595999999999890e+00 -2.544972864781149813e-01
3.017299999999999827e+01 1.069999999999999929e+01 7.867400000000000659e+01 -1.048345999999999911e+01 -1.638447128878775805e-01
3.017399999999999949e+01 2.670700000000000074e+01 9.222899999999999920e+01 -3.375322999999999851e+00 -9.466161232213259058e-02
3.017699999999999960e+01 3.778999999999999915e+01 6.522899999999999920e+01 3.499556999999999807e+00 1.179034469408907215e-01
3.017999999999999972e+01 1.210899999999999999e+01 7.671599999999999397e+01 -1.427651999999999965e+01 -1.633313991164244139e-01
3.017999999999999972e+01 1.301099999999999923e+01 7.531600000000000250e+01 6.291191000000000422e+00 -2.513622409548643688e-01
3.017999999999999972e+01 1.301099999999999923e+01 7.671599999999999397e+01 -7.864487999999999701e+00 -1.629585776185677459e-01
3.018199999999999861e+01 5.235599999999999810e+00 7.871800000000000352e+01 3.388867999999999991e+00 -2.526370523591783823e-01
3.018599999999999994e+01 5.796399999999999864e+01 7.770199999999999818e+01 -8.237546999999999287e+00 -1.053992115551163761e-01
3.019000000000000128e+01 4.314500000000000313e+01 7.697599999999999909e+01 3.450048000000000314e+01 -1.308562542814190391e-02
3.019200000000000017e+01 4.020600000000000307e+01 7.381199999999999761e+01 1.198584999999999923e+01 -1.885999546444988573e-01
3.019600000000000151e+01 5.039000000000000057e+01 7.177700000000000102e+01 -3.646250000000000213e+00 2.755369008643594395e-02
3.019600000000000151e+01 5.540100000000000335e+01 7.056699999999999307e+01 -8.959483999999999504e-02 -6.797579469564492272e-02
3.019699999999999918e+01 4.778499999999999659e+01 8.318000000000000682e+01 1.024733999999999945e+01 -2.555469363769845570e-01
3.019999999999999929e+01 2.908399999999999963e+01 8.972499999999999432e+01 1.198044000000000109e+00 -9.165766686364368310e-02
3.020200000000000173e+01 4.274099999999999966e+01 5.691299999999999670e+01 1.860183999999999926e+01 -3.811170359856263512e-01
3.020299999999999940e+01 3.535699999999999932e+01 5.260399999999999920e+01 4.766397000000000439e+00 -3.796845735851545611e-01
3.020299999999999940e+01 3.547500000000000142e+01 5.175699999999999790e+01 5.761638999999999733e+00 -3.801109756522127459e-01
3.020400000000000063e+01 3.912199999999999989e+01 8.122799999999999443e+01 2.398242999999999903e+00 -8.207139171716557047e-02
3.020499999999999829e+01 3.647299999999999898e+01 7.963100000000000023e+01 3.323713999999999658e+01 -8.189214384483946285e-02
3.021000000000000085e+01 4.859499999999999886e+01 6.751900000000000546e+01 3.531029999999999891e+00 -1.664298169855906173e-01
3.021000000000000085e+01 4.992600000000000193e+01 6.844100000000000250e+01 -1.488088000000000077e+00 -1.514844910975365333e-01
3.021199999999999974e+01 5.387100000000000222e+01 7.062999999999999545e+01 -3.473733000000000182e+00 -8.062423352263993481e-02
3.021199999999999974e+01 4.320300000000000296e+01 6.746599999999999397e+01 1.544671999999999912e+01 5.893007800285061937e-02
3.021199999999999974e+01 4.332099999999999795e+01 6.661899999999999977e+01 1.786505999999999972e+01 6.578161656311296013e-02
3.021199999999999974e+01 4.432999999999999829e+01 6.824899999999999523e+01 7.925474999999999604e+00 6.775157088500963209e-02
3.021300000000000097e+01 3.840699999999999648e+01 7.154300000000000637e+01 1.938112999999999886e+01 -1.499129219855195039e-01
3.021300000000000097e+01 3.861599999999999966e+01 7.080700000000000216e+01 3.489063000000000159e+01 -1.500409981806184179e-01
3.021499999999999986e+01 3.042800000000000082e+01 9.133400000000000318e+01 -2.921086999999999989e+01 -9.244738614127402665e-02
3.021699999999999875e+01 4.397800000000000153e+01 6.506000000000000227e+01 3.084657999999999944e+01 7.781723987718455748e-02
3.021699999999999875e+01 4.484400000000000119e+01 6.506000000000000227e+01 2.687536000000000058e+01 8.513173605276411204e-02
3.022299999999999898e+01 3.868299999999999983e+01 6.786599999999999966e+01 3.613450999999999880e+01 9.379341863885450048e-02
3.023199999999999932e+01 1.327899999999999991e+01 6.144299999999999784e+01 5.267020999999999731e+00 -2.571322657742078910e-01
3.023199999999999932e+01 1.619900000000000162e+01 6.144299999999999784e+01 2.090890999999999877e+01 -2.572008821816786917e-01
3.024099999999999966e+01 4.028399999999999892e+01 7.770600000000000307e+01 1.860034999999999883e+01 -1.137936969910768870e-01
3.024099999999999966e+01 4.903499999999999659e+01 5.264999999999999858e+01 -1.650751999999999997e+00 -4.026213920036478267e-01
3.024200000000000088e+01 4.218399999999999750e+01 6.790200000000000102e+01 2.231435000000000102e+01 4.531859596805815765e-02
3.024500000000000099e+01 3.226500000000000057e+01 8.656999999999999318e+01 9.770813999999999666e+00 -8.552234619731784171e-02
3.024599999999999866e+01 5.190200000000000102e+01 7.213700000000000045e+01 -1.668757000000000046e+00 2.129630512905172218e-02
3.024899999999999878e+01 3.712899999999999778e+01 4.720300000000000296e+01 -2.566412000000000138e+00 -2.673702707758899288e-01
3.024899999999999878e+01 2.007199999999999918e+01 5.718599999999999994e+01 2.077748999999999846e+00 -2.539448562924918051e-01
3.025199999999999889e+01 3.766400000000000148e+01 8.043099999999999739e+01 1.409448000000000079e+01 -8.176283350802195093e-02
3.025400000000000134e+01 4.479500000000000171e+01 5.899000000000000199e+01 1.921394000000000091e+01 -3.807951771567452681e-01
3.025799999999999912e+01 5.075000000000000000e+01 5.269800000000000040e+01 -1.779220000000000024e+00 -3.995098670081768666e-01
3.025799999999999912e+01 5.075000000000000000e+01 5.515800000000000125e+01 -2.160999999999999943e+01 -5.498847373113140147e-02
3.025900000000000034e+01 9.361700000000000799e+00 8.116599999999999682e+01 3.820157000000000025e+00 -1.643437899373430544e-01
3.026099999999999923e+01 2.996999999999999886e+01 5.177199999999999847e+01 5.581654000000000337e+00 -3.848644974259395335e-01
3.026599999999999824e+01 4.726800000000000068e+01 5.690999999999999659e+01 3.984658000000000033e+00 -3.767807454716667892e-01
3.026699999999999946e+01 1.825799999999999912e+01 6.195199999999999818e+01 3.137089000000000016e+00 -2.575887567301999859e-01
3.026699999999999946e+01 7.633200000000000429e+00 7.622199999999999420e+01 -4.064995999999999832e+00 -2.527456026865163019e-01
3.027100000000000080e+01 6.023799999999999955e+01 7.629900000000000659e+01 -2.190891000000000144e+00 -9.469283882339869785e-02
3.027499999999999858e+01 4.367499999999999716e+01 6.576000000000000512e+01 2.208687000000000111e+01 7.300303016090943509e-02
3.027599999999999980e+01 4.516100000000000136e+01 8.119599999999999795e+01 -1.799243999999999843e+01 2.025135040223859789e-02
3.027700000000000102e+01 2.876300000000000168e+01 5.068800000000000239e+01 4.196471999999999980e+00 -3.856898437714678662e-01
3.028200000000000003e+01 5.999600000000000222e+01 7.540399999999999636e+01 -2.136633999999999922e+00 -9.160264253763193698e-02
3.028500000000000014e+01 1.229599999999999937e+01 7.495300000000000296e+01 3.763748999999999789e+00 -2.517771454642594442e-01
3.028600000000000136e+01 3.396200000000000330e+01 5.367099999999999937e+01 -4.592651000000000039e+00 -3.808492567601630685e-01
3.028800000000000026e+01 4.746099999999999852e+01 7.230599999999999739e+01 6.829348999999999670e+00 1.018437745240736991e-01
3.028999999999999915e+01 4.257099999999999795e+01 4.970600000000000307e+01 -5.734966000000000008e+00 -3.866232990029180305e-01
3.029100000000000037e+01 5.061299999999999955e+01 7.115699999999999648e+01 -3.092347000000000179e+00 3.690341842321921001e-02
3.029400000000000048e+01 3.934100000000000108e+01 4.869700000000000273e+01 1.235321999999999948e-01 -2.951830104629399321e-01
3.029799999999999827e+01 2.518400000000000105e+01 4.851299999999999812e+01 3.648563999999999918e+00 -3.865850997028478231e-01
3.029899999999999949e+01 2.773400000000000176e+01 9.310200000000000387e+01 -1.570902000000000065e+01 -9.473240702384139178e-02
3.030199999999999960e+01 3.535499999999999687e+01 8.468500000000000227e+01 -5.218804999999999694e+00 -7.844429589437280914e-02
3.030300000000000082e+01 3.966599999999999682e+01 6.961700000000000443e+01 5.078097999999999956e+01 5.328028615841785831e-02
3.031200000000000117e+01 3.488300000000000267e+01 4.996300000000000097e+01 8.282427999999999457e-01 -3.822801211305229541e-01
3.031299999999999883e+01 6.176999999999999602e+00 7.524699999999999989e+01 -2.859396999999999966e+00 -2.533928650592651155e-01
3.031500000000000128e+01 3.679800000000000182e+01 6.431199999999999761e+01 -6.749024999999999608e+00 -4.769218123121353459e-02
3.031800000000000139e+01 5.449900000000000233e+01 7.064199999999999591e+01 -2.412176000000000042e-01 -7.551789239511355611e-02
3.031800000000000139e+01 1.302100000000000080e+01 6.217600000000000193e+01 1.160130000000000050e-01 -2.574468963264996413e-01
3.031800000000000139e+01 1.645700000000000074e+01 6.217600000000000193e+01 1.470958000000000077e+01 -2.576122488367093011e-01
3.031800000000000139e+01 4.528399999999999892e+01 5.931900000000000261e+01 1.302276999999999951e+01 -3.799700052973022379e-01
3.031800000000000139e+01 4.668399999999999750e+01 5.931900000000000261e+01 2.251183999999999941e+01 -3.777370225922357938e-01
3.032100000000000151e+01 3.804899999999999949e+01 4.791899999999999693e+01 -2.700296999999999947e+00 -3.019092955895179564e-01
3.032499999999999929e+01 3.678099999999999881e+01 7.742499999999999716e+01 2.643134999999999835e+01 -9.526155741347154537e-02
3.032499999999999929e+01 3.797200000000000131e+01 7.676099999999999568e+01 1.222775000000000034e+01 -1.088478918336196477e-01
3.032600000000000051e+01 4.112700000000000244e+01 5.168699999999999761e+01 -1.629719000000000051e+01 -3.787108060190646497e-01
3.032600000000000051e+01 4.112700000000000244e+01 5.308700000000000330e+01 3.188797000000000104e+00 -3.772075065088184020e-01
3.032600000000000051e+01 4.199300000000000210e+01 5.308700000000000330e+01 2.567193000000000058e+00 -3.793583642875755779e-01
3.032799999999999940e+01 1.188000000000000078e+01 8.415699999999999648e+01 -1.913504999999999967e+01 -1.637859990991922532e-01
3.033200000000000074e+01 3.725099999999999767e+01 8.550300000000000011e+01 -5.963606000000000051e+01 -7.906090849831734491e-02
3.033500000000000085e+01 2.908399999999999963e+01 9.372899999999999920e+01 -1.731072999999999951e+01 -9.468345328552785212e-02
3.033500000000000085e+01 3.037699999999999889e+01 9.300799999999999557e+01 -6.005011999999999972e+01 -9.376505211781173410e-02
3.033500000000000085e+01 3.060399999999999920e+01 9.220900000000000318e+01 -8.606381000000000370e+01 -9.303631495776651383e-02
3.033899999999999864e+01 2.370100000000000051e+01 4.948599999999999710e+01 4.495879999999999654e+00 -3.863507740274878532e-01
3.034199999999999875e+01 5.986899999999999977e+01 7.714900000000000091e+01 -8.695534999999999792e-01 -9.682093152706031103e-02
3.034600000000000009e+01 3.957900000000000063e+01 8.459600000000000364e+01 -2.044653999999999883e+01 -8.047844972588205636e-02
3.034700000000000131e+01 3.967799999999999727e+01 8.207599999999999341e+01 -4.979531999999999847e+00 -8.243032983557854743e-02
3.034799999999999898e+01 5.100000000000000000e+01 8.264799999999999613e+01 -1.904992999999999981e+01 -2.605233469729555940e-01
3.034900000000000020e+01 1.484900000000000020e+01 8.379600000000000648e+01 7.014610000000000412e+01 -1.627091051153106149e-01
3.035099999999999909e+01 4.237800000000000011e+01 4.885199999999999676e+01 -3.701351999999999975e+00 -2.860802574623781402e-01
3.035399999999999920e+01 5.615800000000000125e+01 7.685299999999999443e+01 -3.169150999999999829e+00 -1.556877615911347011e-02
3.035600000000000165e+01 4.418299999999999983e+01 6.896399999999999864e+01 7.340650000000000119e+00 5.940731625555385753e-02
3.035699999999999932e+01 4.565200000000000102e+01 6.572599999999999909e+01 1.195553999999999917e+01 9.151651396966384300e-02
3.035699999999999932e+01 4.565200000000000102e+01 6.712600000000000477e+01 5.847201000000000093e+00 9.056301587738099790e-02
3.035800000000000054e+01 4.697899999999999920e+01 5.506600000000000250e+01 9.991261999999999643e-01 -3.795810722164474904e-01
3.035800000000000054e+01 4.697899999999999920e+01 5.611599999999999966e+01 2.422658000000000200e+00 -3.781842519912373413e-01
3.035800000000000054e+01 4.972899999999999920e+01 5.611599999999999966e+01 -4.001238999999999990e+00 -4.179052530369158081e-02
3.036100000000000065e+01 4.073299999999999699e+01 7.398999999999999488e+01 1.247563000000000066e+01 -1.930634914063479868e-01
3.036100000000000065e+01 5.004999999999999893e+00 7.573799999999999955e+01 -5.810707999999999984e-01 -2.534758131453634378e-01
3.036400000000000077e+01 1.175000000000000000e+01 6.330799999999999983e+01 -9.024784999999999613e+00 -2.577667304873482168e-01
3.036400000000000077e+01 1.175000000000000000e+01 6.424800000000000466e+01 -1.239228999999999914e+01 -2.573117024422266752e-01
3.036499999999999844e+01 5.469100000000000250e+01 7.567100000000000648e+01 2.827846000000000082e+00 -1.302190772520012488e-02
3.036700000000000088e+01 5.687100000000000222e+01 7.757699999999999818e+01 -8.384356000000000364e+00 -1.123842215562526753e-01
3.036799999999999855e+01 4.339699999999999847e+01 7.802100000000000080e+01 4.071517000000000053e+00 8.858402927611098857e-04
3.036799999999999855e+01 1.942599999999999838e+01 8.585999999999999943e+01 4.068344999999999878e+00 -1.614517767602974829e-01
3.037199999999999989e+01 4.881900000000000261e+01 8.341800000000000637e+01 3.600816999999999979e+01 -2.570216003099246027e-01
3.037500000000000000e+01 1.709900000000000020e+01 6.274799999999999756e+01 1.825916000000000139e+01 -2.579754190898383426e-01
3.037500000000000000e+01 1.796399999999999864e+01 6.274799999999999756e+01 7.138087999999999766e+00 -2.580475990412242071e-01
3.037600000000000122e+01 3.673299999999999699e+01 8.040099999999999625e+01 6.159163000000000210e+01 -8.139609175250607509e-02
3.038400000000000034e+01 4.082399999999999807e+01 5.238700000000000045e+01 4.440366000000000035e+00 -3.773347507073737672e-01
3.038400000000000034e+01 3.293399999999999750e+01 8.386899999999999977e+01 -3.268406000000000233e+01 -7.961440755710710859e-02
3.038400000000000034e+01 3.433400000000000318e+01 8.386899999999999977e+01 -7.341774000000000022e+00 -7.835308355779646572e-02
3.038500000000000156e+01 5.141100000000000136e+01 8.211899999999999977e+01 4.933655000000000124e-01 -2.618054152151497727e-01
3.038599999999999923e+01 3.705400000000000205e+01 6.522899999999999920e+01 -9.726950999999999681e+00 1.224625923659858062e-01
3.038700000000000045e+01 4.960799999999999699e+01 7.920099999999999341e+01 6.571615000000000428e+00 -2.672914334144878556e-01
3.039199999999999946e+01 4.375300000000000011e+01 7.847799999999999443e+01 3.092525000000000190e+00 6.874180116112063241e-03
3.039199999999999946e+01 5.203199999999999648e+01 7.295000000000000284e+01 2.805022000000000126e+00 1.081547338963046410e-02
3.039699999999999847e+01 4.352499999999999858e+01 5.821500000000000341e+01 1.812828999999999979e+01 -4.165445538235600376e-01
3.039799999999999969e+01 5.071600000000000108e+01 7.230500000000000682e+01 -2.328506999999999938e-01 2.143518635924173896e-02
3.040099999999999980e+01 6.419699999999999740e+00 7.934199999999999875e+01 7.850950000000000095e+00 -1.651363743811852525e-01
3.040099999999999980e+01 7.470299999999999940e+00 7.934199999999999875e+01 1.357291000000000025e+01 -1.648449980908605617e-01
3.040200000000000102e+01 4.707999999999999829e+01 5.424600000000000222e+01 5.827906999999999949e-01 -3.812711286815789746e-01
3.040500000000000114e+01 4.684000000000000341e+01 6.694899999999999807e+01 7.073252000000000095e+00 -1.797160781060074264e-01
3.040599999999999881e+01 1.896699999999999875e+01 6.113199999999999790e+01 -6.655750999999999751e-01 -2.569811130661857623e-01
3.040599999999999881e+01 5.000399999999999778e+01 6.119800000000000040e+01 5.442003999999999841e+00 -3.957560934202442593e-01
3.040700000000000003e+01 2.288700000000000045e+01 5.112899999999999778e+01 9.156299000000000632e+00 -3.859933667037635519e-01
3.040700000000000003e+01 2.300499999999999901e+01 5.197599999999999909e+01 1.688532000000000011e+01 -3.858148449132787761e-01
3.040700000000000003e+01 2.314099999999999824e+01 5.023499999999999943e+01 5.581528999999999741e+00 -3.861727432843155006e-01
3.040800000000000125e+01 7.687000000000000277e+00 7.734999999999999432e+01 -6.576252000000000209e+00 -2.523447292307707257e-01
3.041100000000000136e+01 4.407500000000000284e+01 6.730700000000000216e+01 8.568678999999999490e+00 6.984930739481179374e-02
3.041199999999999903e+01 5.360499999999999687e+01 7.014900000000000091e+01 -3.956265000000000143e+00 -7.437649983686485389e-02
3.041400000000000148e+01 1.922800000000000153e+01 6.033200000000000074e+01 2.823417999999999761e-01 -2.563897067830285259e-01
3.041499999999999915e+01 2.242200000000000060e+01 8.841700000000000159e+01 -1.651664000000000021e+00 -9.451517309544087142e-02
3.041499999999999915e+01 4.595499999999999829e+01 6.642600000000000193e+01 9.042246999999999701e+00 9.418473128361076752e-02
3.041700000000000159e+01 5.860699999999999932e+01 7.434000000000000341e+01 -1.711047999999999902e+01 -9.123436100518254877e-02
3.041799999999999926e+01 5.126800000000000068e+01 7.934199999999999875e+01 4.929408999999999708e+00 -2.682778639878675708e-01
3.041799999999999926e+01 4.968099999999999739e+01 8.348000000000000398e+01 2.162781999999999982e+01 -2.580828113884682251e-01
3.042299999999999827e+01 4.818200000000000216e+01 6.511400000000000432e+01 1.243327999999999989e+01 -2.682841139398245422e-01
3.042599999999999838e+01 2.309600000000000009e+01 9.066500000000000625e+01 -8.128080000000000638e+00 -9.518895164174778767e-02
3.043199999999999861e+01 3.794700000000000273e+01 6.786599999999999966e+01 2.742624999999999957e+01 1.031075793266048313e-01
3.043499999999999872e+01 3.590100000000000335e+01 8.510299999999999443e+01 -6.747302999999999606e+00 -7.884033571722046108e-02
3.043599999999999994e+01 2.102400000000000091e+01 5.477499999999999858e+01 1.300975999999999910e+00 -3.852822966184095144e-01
3.043799999999999883e+01 1.292099999999999937e+01 6.516400000000000148e+01 -1.564652000000000065e+01 -2.567986337715845169e-01
3.043900000000000006e+01 4.841199999999999903e+01 7.850499999999999545e+01 -2.560672999999999977e+00 -2.683964503214329445e-01
3.044399999999999906e+01 5.106099999999999994e+01 5.991899999999999693e+01 1.333596000000000004e+00 -3.259510215207492290e-01
3.044600000000000151e+01 5.238799999999999812e+01 7.371399999999999864e+01 5.983971000000000373e+00 2.096726292323109007e-03
3.044999999999999929e+01 4.218800000000000239e+01 7.782699999999999818e+01 2.326244000000000156e+01 -1.034353276050045851e-02
3.045499999999999829e+01 4.678399999999999892e+01 7.697599999999999909e+01 1.203815999999999953e+01 7.104991078647628078e-03
3.045599999999999952e+01 5.230799999999999983e+01 6.941899999999999693e+01 -2.131213999999999942e+00 6.193034404144346500e-02
3.046000000000000085e+01 4.390800000000000125e+01 6.644799999999999329e+01 1.800313999999999837e+01 7.211402239881373188e-02
3.046300000000000097e+01 1.711100000000000065e+01 8.490099999999999625e+01 7.456351999999999869e+00 -1.620573632094171601e-01
3.046499999999999986e+01 4.590899999999999892e+01 7.162699999999999534e+01 9.203229999999999578e+00 7.269203313187458382e-02
3.046699999999999875e+01 3.122599999999999909e+01 5.246099999999999852e+01 -1.688789000000000096e+00 -3.837800865740745304e-01
3.047100000000000009e+01 3.918299999999999983e+01 7.351600000000000534e+01 8.890392999999999546e+00 -1.708732241835389798e-01
3.047200000000000131e+01 7.838700000000000223e+00 7.849200000000000443e+01 1.308521000000000001e+01 -1.647300144966782343e-01
3.048100000000000165e+01 5.042300000000000182e+01 7.306199999999999761e+01 -7.613291000000000253e+00 1.313604999842970730e-02
3.048100000000000165e+01 4.100900000000000034e+01 6.890000000000000568e+01 3.107914999999999850e+01 -6.282547594960623261e-02
3.048100000000000165e+01 3.966499999999999915e+01 7.746999999999999886e+01 1.247383999999999915e+01 -1.146125738842627556e-01
3.048199999999999932e+01 1.398099999999999987e+01 8.091299999999999670e+01 3.852960999999999814e+01 -1.626488657109764480e-01
3.048400000000000176e+01 1.360699999999999932e+01 6.623799999999999955e+01 7.305630999999999986e+00 -2.561335028833807703e-01
3.048400000000000176e+01 4.441100000000000136e+01 6.576000000000000512e+01 1.817873000000000161e+01 7.926555624508682674e-02
3.048600000000000065e+01 4.803799999999999670e+01 7.793500000000000227e+01 1.881772999999999918e+00 -2.705109904022428569e-01
3.048600000000000065e+01 2.445799999999999841e+01 9.148799999999999955e+01 -1.250445000000000029e+01 -9.494260130042997403e-02
3.048900000000000077e+01 3.218399999999999750e+01 5.352799999999999869e+01 -2.381632000000000193e+00 -3.825641820043745311e-01
3.048999999999999844e+01 4.225200000000000244e+01 7.521399999999999864e+01 1.705749000000000137e+01 -5.724858879088068342e-02
3.049099999999999966e+01 3.825099999999999767e+01 6.716599999999999682e+01 2.120169999999999888e+01 1.029620108629382552e-01
3.049099999999999966e+01 3.911599999999999966e+01 6.716599999999999682e+01 3.433429000000000286e+01 9.052847683180226257e-02
3.049099999999999966e+01 5.071000000000000085e+01 5.910499999999999687e+01 5.683229000000000058e-02 -3.194888049080161774e-01
3.049200000000000088e+01 3.950500000000000256e+01 6.795799999999999841e+01 4.274712999999999852e+01 7.715464848677779097e-02
3.049299999999999855e+01 4.741599999999999682e+01 5.339900000000000091e+01 -3.700864999999999849e-01 -3.840354193449826981e-01
3.049599999999999866e+01 1.846199999999999974e+01 8.571599999999999397e+01 1.291628999999999916e+00 -1.617561273583320858e-01
3.049899999999999878e+01 3.336099999999999710e+01 5.385300000000000153e+01 -1.646274000000000015e+01 -3.813473850930523268e-01
3.050199999999999889e+01 5.065200000000000102e+01 6.922400000000000375e+01 8.315240000000000409e-01 -1.448557892482340292e-01
3.050499999999999901e+01 1.018599999999999994e+01 7.958599999999999852e+01 2.478142000000000067e+00 -1.639903788726670975e-01
3.050600000000000023e+01 1.336899999999999977e+01 7.101200000000000045e+01 -4.492937999999999654e+00 -2.533612510192166378e-01
3.050700000000000145e+01 4.275000000000000000e+01 5.464099999999999824e+01 3.756314000000000153e+00 -3.806192783563699389e-01
3.050700000000000145e+01 4.813799999999999812e+01 6.760399999999999920e+01 4.748770000000000380e+00 -1.709615441480481779e-01
3.050900000000000034e+01 1.746999999999999886e+01 8.565800000000000125e+01 2.067083999999999921e+00 -1.621085250929745758e-01
3.051200000000000045e+01 3.545900000000000318e+01 4.684300000000000352e+01 1.280516999999999905e+00 -2.632501656140885382e-01
3.051500000000000057e+01 2.098400000000000176e+01 8.751600000000000534e+01 8.097747999999999280e+00 -9.324341167916018469e-02
3.051599999999999824e+01 4.912299999999999756e+01 7.382899999999999352e+01 -1.817174999999999985e+00 8.199146291920230215e-03
3.051699999999999946e+01 1.163899999999999935e+01 7.730599999999999739e+01 -5.186150999999999733e+00 -1.634514489833299167e-01
3.051899999999999835e+01 4.299499999999999744e+01 5.379500000000000171e+01 1.860746000000000011e+00 -3.819018087431322317e-01
3.051999999999999957e+01 2.146399999999999864e+01 5.450699999999999790e+01 2.464366000000000057e+00 -3.852989345501927620e-01
3.053500000000000014e+01 4.951299999999999812e+01 5.741499999999999915e+01 -1.428380999999999901e+00 -5.736021808744461159e-02
3.053500000000000014e+01 4.972200000000000131e+01 5.815100000000000335e+01 -5.632153999999999883e+00 -3.897820722827555207e-01
3.053600000000000136e+01 4.432399999999999807e+01 6.981100000000000705e+01 7.275847999999999871e+00 5.393863320986783810e-02
3.053600000000000136e+01 4.457800000000000296e+01 7.070499999999999829e+01 7.753747999999999863e+00 5.023845224206935356e-02
3.053900000000000148e+01 3.779700000000000060e+00 7.639199999999999591e+01 1.580880000000000063e+00 -2.534991083463864481e-01
3.053900000000000148e+01 3.779700000000000060e+00 7.809199999999999875e+01 1.347911999999999999e+01 -2.530603667139343371e-01
3.054299999999999926e+01 4.700500000000000256e+01 6.598099999999999454e+01 1.170088999999999935e+01 -1.746346605360196425e-01
3.054599999999999937e+01 2.351899999999999835e+01 9.138899999999999579e+01 -7.189379999999999882e+00 -9.525934336183541906e-02
3.054799999999999827e+01 4.367199999999999704e+01 6.820900000000000318e+01 9.611617000000000743e+00 5.849824797992660141e-02
3.054899999999999949e+01 3.244899999999999807e+01 8.967400000000000659e+01 1.391402000000000072e+01 -8.943962715426587162e-02
3.055199999999999960e+01 4.137800000000000011e+01 6.804999999999999716e+01 4.054746999999999701e+01 -5.341641323520907036e-02
3.055300000000000082e+01 4.529200000000000159e+01 7.720900000000000318e+01 8.586551999999999296e+00 1.802577713781033280e-03
3.055499999999999972e+01 4.789300000000000068e+01 7.300600000000000023e+01 3.081501999999999963e+00 1.002558300329892127e-01
3.055699999999999861e+01 4.579399999999999693e+01 8.196200000000000330e+01 -6.773647000000000418e-01 1.872597625672335619e-02
3.056200000000000117e+01 4.084400000000000119e+01 4.816599999999999682e+01 -1.556652000000000036e-01 -2.970649968805084695e-01
3.056200000000000117e+01 3.178300000000000125e+01 8.549500000000000455e+01 -3.877585999999999977e+00 -8.392446755827759342e-02
3.056200000000000117e+01 3.199200000000000088e+01 8.475900000000000034e+01 -8.789191999999999894e+00 -8.243506179004876644e-02
3.056200000000000117e+01 3.199200000000000088e+01 8.623099999999999454e+01 1.069773999999999958e+01 -8.488244856973069241e-02
3.056500000000000128e+01 1.958299999999999841e+01 5.945700000000000074e+01 -2.109270000000000034e-01 -2.556540630620717236e-01
3.056599999999999895e+01 3.378499999999999659e+01 4.844700000000000273e+01 2.180859999999999843e+01 -2.888820320157582389e-01
3.056599999999999895e+01 3.406700000000000017e+01 4.751200000000000045e+01 6.507659000000000304e+00 -2.941064362470964810e-01
3.056599999999999895e+01 3.406700000000000017e+01 4.927400000000000091e+01 1.248611000000000004e+01 -3.834657007608314738e-01
3.057000000000000028e+01 5.760900000000000176e+01 7.182500000000000284e+01 4.726569999999999716e+00 -3.639724911350648573e-01
3.057700000000000173e+01 1.257799999999999940e+01 7.720699999999999363e+01 -2.193047999999999931e+01 -1.630693699778626993e-01
3.057900000000000063e+01 4.802900000000000169e+00 7.822700000000000387e+01 8.920852999999999255e+00 -2.527951857485936094e-01
3.057999999999999829e+01 1.131000000000000050e+01 7.806600000000000250e+01 -2.571599000000000146e+01 -1.635615282122001024e-01
3.058500000000000085e+01 2.276099999999999923e+01 5.280599999999999739e+01 1.158915999999999968e+01 -3.855880204973551884e-01
3.058500000000000085e+01 4.711699999999999733e+01 5.775399999999999778e+01 1.486594999999999978e+01 -3.770587118499658663e-01
3.058500000000000085e+01 4.711699999999999733e+01 5.861899999999999977e+01 2.277992000000000061e+01 -3.770140165951497147e-01
3.058999999999999986e+01 3.466199999999999903e+01 5.361299999999999955e+01 -7.537804000000000393e+00 -3.800095040094366161e-01
3.058999999999999986e+01 4.262599999999999767e+01 5.294500000000000028e+01 1.833131999999999984e+00 -3.819381553443171318e-01
3.059299999999999997e+01 4.156000000000000227e+01 5.238700000000000045e+01 1.485168000000000044e+00 -3.795494746887492221e-01
3.059400000000000119e+01 1.704599999999999937e+01 6.322999999999999687e+01 2.248205000000000098e+01 -6.605983394715859991e-02
3.059799999999999898e+01 1.181900000000000084e+01 7.160399999999999920e+01 1.541285999999999934e+00 -2.534379161003460501e-01
3.059799999999999898e+01 1.181900000000000084e+01 7.435399999999999920e+01 5.808069999999999844e+00 -2.521315185906760070e-01
3.060000000000000142e+01 2.082499999999999929e+01 5.867099999999999937e+01 3.257228000000000012e+00 -2.548616754486460745e-01
3.060099999999999909e+01 9.352000000000000313e+00 8.298199999999999932e+01 -1.056356999999999990e+00 -1.644087763896971421e-01
3.060099999999999909e+01 9.579000000000000625e+00 8.378100000000000591e+01 -1.172485999999999917e+00 -1.644057291202186966e-01
3.060099999999999909e+01 1.087199999999999989e+01 8.450199999999999534e+01 -4.623447999999999780e+01 -1.640989023447914641e-01
3.060600000000000165e+01 2.582100000000000151e+01 9.203300000000000125e+01 -3.934597000000000122e+00 -9.457581524281148677e-02
3.060900000000000176e+01 1.802799999999999869e+01 6.319700000000000273e+01 9.943148000000000764e+00 -6.534783316820538812e-02
3.060999999999999943e+01 3.411300000000000221e+00 7.724200000000000443e+01 4.652349000000000068e+00 -2.533362657761206727e-01
3.060999999999999943e+01 4.254599999999999937e+01 6.734999999999999432e+01 1.968741999999999948e+01 5.351563126896595468e-02
3.061100000000000065e+01 3.916899999999999693e+01 6.881300000000000239e+01 4.537894000000000005e+01 7.232036558348822752e-02
3.061100000000000065e+01 3.818500000000000227e+01 6.887600000000000477e+01 3.702324999999999733e+01 8.821072702900309426e-02
3.061199999999999832e+01 4.153300000000000125e+01 7.809499999999999886e+01 5.532729999999999926e+00 -1.184162166868075738e-01
3.061299999999999955e+01 1.371100000000000030e+01 7.558299999999999841e+01 7.182652000000000037e+00 -1.626278405361501200e-01
3.061299999999999955e+01 1.371100000000000030e+01 7.644899999999999807e+01 8.406942000000000803e+00 -1.625905802033431047e-01
3.061400000000000077e+01 5.805599999999999739e+01 7.277700000000000102e+01 5.413705000000000211e+00 -3.639351489229987746e-01
3.061700000000000088e+01 9.902599999999999625e+00 8.032099999999999795e+01 4.225502999999999787e+00 -1.640914528124887695e-01
3.062000000000000099e+01 2.433399999999999963e+01 4.871999999999999886e+01 4.354846000000000217e+00 -3.864007440185003861e-01
3.062099999999999866e+01 4.684599999999999653e+01 5.698700000000000188e+01 3.271160000000000068e+00 -3.779552010246814975e-01
3.062099999999999866e+01 4.598400000000000176e+01 5.937800000000000011e+01 1.439719999999999978e+01 -3.789190252647165469e-01
3.062199999999999989e+01 4.363600000000000279e+01 7.737300000000000466e+01 1.711710000000000065e+01 -7.546776341017263738e-03
3.062399999999999878e+01 1.339100000000000001e+01 8.305800000000000693e+01 2.587261000000000166e+01 -1.630993684782153785e-01
3.062399999999999878e+01 4.521900000000000119e+01 6.642600000000000193e+01 8.906907999999999603e+00 8.539756029968703643e-02
3.062500000000000000e+01 1.355400000000000027e+01 8.144299999999999784e+01 4.125488000000000000e+01 -1.628524317497224150e-01
3.062699999999999889e+01 3.019399999999999906e+01 5.244899999999999807e+01 -3.211878000000000011e+00 -3.842596412800508010e-01
3.062800000000000011e+01 3.309599999999999653e+01 8.892100000000000648e+01 1.546391999999999989e+01 -8.802408516072478262e-02
3.062800000000000011e+01 6.104800000000000004e+00 7.852899999999999636e+01 1.084378000000000064e+00 -2.523907134494087212e-01
3.062999999999999901e+01 9.474399999999999267e+00 8.216599999999999682e+01 7.128567000000000098e-01 -1.643144983719245222e-01
3.063299999999999912e+01 2.814199999999999946e+01 4.972800000000000153e+01 3.255602000000000107e+00 -3.859420179556913855e-01
3.063700000000000045e+01 2.712600000000000122e+01 9.292100000000000648e+01 -5.086406000000000205e+00 -9.457774559603376874e-02
3.063800000000000168e+01 1.946600000000000108e+01 8.638100000000000023e+01 4.534983999999999682e+00 -9.095858692313174565e-02
3.063899999999999935e+01 3.873299999999999699e+01 4.823899999999999721e+01 -1.591215000000000046e+00 -2.993272272632398479e-01
3.064000000000000057e+01 2.653500000000000014e+01 4.860099999999999909e+01 2.565799999999999859e+00 -3.863958255168415956e-01
3.064099999999999824e+01 1.403400000000000070e+01 6.918600000000000705e+01 -1.538454999999999906e+00 -2.542219398458682722e-01
3.064099999999999824e+01 2.599899999999999878e+01 4.854699999999999704e+01 2.415932999999999886e+00 -3.864240406311829634e-01
3.064900000000000091e+01 1.224000000000000021e+01 8.384600000000000364e+01 -1.902212000000000103e+01 -1.635907485832051034e-01
3.064900000000000091e+01 1.421400000000000041e+01 6.012800000000000011e+01 6.446132000000000417e+00 -2.563655631528251599e-01
3.064900000000000091e+01 1.526399999999999935e+01 6.012800000000000011e+01 6.593944999999999723e+00 -2.563301959741242642e-01
3.064900000000000091e+01 4.734400000000000119e+01 8.255400000000000205e+01 1.040395000000000003e+01 -2.563513106325782109e-01
3.066400000000000148e+01 3.158500000000000085e+01 5.329500000000000171e+01 -1.612540999999999869e+01 -3.830469625411602186e-01
3.066799999999999926e+01 4.737599999999999589e+00 7.631199999999999761e+01 -2.062679000000000151e+00 -2.533083100988991476e-01
3.066900000000000048e+01 4.464399999999999835e+01 6.644799999999999329e+01 9.956630999999999787e+00 7.914737659667597791e-02
3.067099999999999937e+01 4.871200000000000330e+01 5.246200000000000330e+01 -1.650751999999999997e+00 -4.033682372789556547e-01
3.067399999999999949e+01 1.325999999999999979e+01 7.487199999999999989e+01 2.830287000000000219e+00 -2.513295868533171329e-01
3.067399999999999949e+01 4.098400000000000176e+01 7.797299999999999898e+01 6.540942000000000256e+00 -1.176417464622162151e-01
3.067500000000000071e+01 2.086700000000000088e+01 5.759799999999999898e+01 4.772038000000000224e+00 -2.539564258591252011e-01
3.067599999999999838e+01 1.236599999999999966e+01 7.134499999999999886e+01 1.847394999999999898e+00 -2.534014209557436947e-01
3.067899999999999849e+01 2.952700000000000102e+01 5.169200000000000017e+01 7.223277000000000392e+00 -3.848362416124473384e-01
3.068400000000000105e+01 5.817499999999999716e+01 7.364000000000000057e+01 2.830356999999999790e+00 -8.800978282846130818e-02
3.068400000000000105e+01 4.662899999999999778e+01 7.212999999999999545e+01 9.344386999999999333e+00 8.359489782651233214e-02
3.068799999999999883e+01 3.363400000000000034e+01 8.381100000000000705e+01 -2.276676000000000144e+01 -7.981533942774202139e-02
3.069000000000000128e+01 5.293699999999999761e+01 7.448099999999999454e+01 2.461400000000000077e+01 -2.925617078915377419e-03
3.069500000000000028e+01 3.237700000000000244e+01 6.340599999999999881e+01 -2.477199999999999847e+01 -4.792482580856292917e-02
3.071000000000000085e+01 3.160300000000000153e+01 6.313400000000000034e+01 3.550883999999999929e+00 -4.912485884305024808e-02
3.071399999999999864e+01 5.493099999999999739e+01 7.015099999999999625e+01 3.024012999999999840e-01 -6.581673645833878428e-02
3.071399999999999864e+01 5.587100000000000222e+01 7.015099999999999625e+01 5.642745999999999595e-01 -7.527364380765269591e-02
3.071499999999999986e+01 4.455700000000000216e+01 7.972899999999999920e+01 -4.495758999999999617e+00 1.343118734815689289e-02
3.071699999999999875e+01 4.273700000000000188e+01 5.564500000000000313e+01 8.964527999999999608e+00 -3.810750700939745661e-01
3.071900000000000119e+01 2.731400000000000006e+01 7.634300000000000352e+01 -1.992723999999999940e+00 -1.515252182809130876e-01
3.071999999999999886e+01 1.384500000000000064e+01 6.097800000000000153e+01 4.150457000000000285e+00 -2.567794738464915238e-01
3.071999999999999886e+01 1.563299999999999912e+01 6.097800000000000153e+01 8.921124000000000720e+00 -2.567718331187350267e-01
3.072200000000000131e+01 4.003300000000000125e+01 4.828199999999999648e+01 7.366439000000000181e-01 -2.988267539073999890e-01
3.072200000000000131e+01 4.156900000000000261e+01 4.828199999999999648e+01 -9.703682999999999614e-01 -2.895560471023720939e-01
3.072299999999999898e+01 4.360900000000000176e+01 7.884499999999999886e+01 3.564315999999999818e+00 5.249145423910762595e-03
3.072599999999999909e+01 6.945000000000000284e+00 7.849200000000000443e+01 1.081649000000000083e+00 -1.649563020541451874e-01
3.072700000000000031e+01 1.853500000000000014e+01 8.643600000000000705e+01 1.955931000000000086e+00 -1.619161513310057310e-01
3.072800000000000153e+01 5.033400000000000318e+01 5.567600000000000193e+01 -1.665497999999999834e+01 -5.647312837010661640e-02
3.072800000000000153e+01 5.128300000000000125e+01 5.312899999999999778e+01 -7.692861999999999867e+00 -3.974411326931023281e-01
3.072800000000000153e+01 5.128300000000000125e+01 5.472699999999999676e+01 -2.825106999999999857e+01 -3.922867803944331544e-01
3.072800000000000153e+01 5.150999999999999801e+01 5.392799999999999727e+01 -5.501133000000000095e+01 -3.943708863681271715e-01
3.072899999999999920e+01 3.600800000000000267e+01 7.886899999999999977e+01 3.558529000000000053e+01 -8.803940377964822317e-02
3.073100000000000165e+01 4.777300000000000324e+01 5.256099999999999994e+01 -3.570374000000000159e+00 -3.871129446811278907e-01
3.073199999999999932e+01 2.666600000000000037e+01 7.558499999999999375e+01 1.727886000000000166e+01 -1.521518980258576292e-01
3.073400000000000176e+01 3.486399999999999721e+01 8.428799999999999670e+01 -5.863284000000000162e+00 -7.965915628590750086e-02
3.073600000000000065e+01 3.905700000000000216e+01 7.007699999999999818e+01 4.259434999999999860e+01 -1.546589333986462811e-01
