1.377500000000000036e+01 8.801000000000000156e+00 1.271299999999999919e+01 -4.441591000000000289e-02 -1.819831876562768014e-01
1.377599999999999980e+01 4.761299999999999955e+01 2.496900000000000119e+01 -3.978443999999999869e-01 -8.767675686821067849e-02
1.377699999999999925e+01 2.488299999999999912e+01 2.416100000000000136e+01 -6.472526999999999475e+01 -7.880831294016012178e-02
1.377699999999999925e+01 2.582300000000000040e+01 2.416100000000000136e+01 -1.257253000000000043e+02 -7.580064223776006305e-02
1.377699999999999925e+01 3.140599999999999881e+01 1.633500000000000085e+01 4.059665999999999997e+00 -8.187894978502421872e-02
1.378200000000000003e+01 5.170399999999999885e+00 1.005799999999999983e+01 1.312729000000000035e+01 -1.861710030650162995e-01
1.378200000000000003e+01 4.305799999999999983e+01 1.385200000000000031e+01 2.335291999999999923e+00 -9.158179477700915949e-02
1.378200000000000003e+01 5.099300000000000388e+00 1.067200000000000060e+01 7.939734999999999765e+00 -1.856177622780761927e-01
1.378299999999999947e+01 9.495599999999999596e+00 9.984299999999999287e+00 5.502582999999999558e+00 -1.836153088311750503e-01
1.378299999999999947e+01 9.495599999999999596e+00 1.084999999999999964e+01 5.590777000000000108e+00 -1.828608433635122155e-01
1.378299999999999947e+01 1.957999999999999829e+01 1.823600000000000065e+01 -1.350565999999999933e+00 -1.877503854497471203e-02
1.378599999999999959e+01 3.836699999999999733e+01 1.439300000000000068e+01 -9.582678000000000029e-01 -1.017540044039060287e-01
1.379299999999999926e+01 3.931999999999999940e+00 7.820899999999999963e+00 1.449530999999999903e+00 -2.226469165745588730e-01
1.379700000000000060e+01 4.566199999999999903e+01 2.480799999999999983e+01 3.611713999999999758e-01 -8.755770810787767700e-02
1.379700000000000060e+01 4.299799999999999756e+01 2.182300000000000040e+01 -9.909502000000000033e-01 -8.929823494772899661e-02
1.379899999999999949e+01 1.639300000000000068e+01 -6.798099999999999810e+00 2.558701999999999810e+00 2.929546579580034060e-01
1.380199999999999960e+01 2.358800000000000097e+01 2.188500000000000156e+01 -8.418024000000000839e+00 -7.726891727938980936e-02
1.380700000000000038e+01 2.745299999999999940e+01 1.996499999999999986e+01 -1.182572000000000045e+01 -7.557743815319389880e-02
1.380700000000000038e+01 2.831899999999999906e+01 1.996499999999999986e+01 -2.761036999999999964e+00 -7.649338630629688718e-02
1.380799999999999983e+01 4.280100000000000193e+01 2.483399999999999963e+01 -1.373135999999999912e+00 -8.689557404377770689e-02
1.380899999999999928e+01 1.973699999999999832e+01 3.516199999999999992e+00 9.279624000000000095e+00 -6.788121047755998894e-02
1.381000000000000050e+01 1.314700000000000024e+01 1.867599999999999838e+01 -4.068804000000000087e+00 -1.808232898057546278e-02
1.381000000000000050e+01 4.300099999999999767e+01 1.633800000000000097e+01 7.518307000000000073e+00 -9.322879876641315677e-02
1.381300000000000061e+01 1.951599999999999824e+01 5.051200000000000134e-01 8.034484999999999388e+01 -1.255748326374699908e-01
1.381300000000000061e+01 1.974699999999999989e+01 1.320000000000000062e+00 4.059861999999999682e+01 -1.461035826183359476e-01
1.381799999999999962e+01 8.927300000000000679e+00 2.277000000000000135e+00 -3.275546999999999764e-01 -1.173806419049824301e-01
1.381799999999999962e+01 2.410300000000000153e+01 2.149399999999999977e+01 -1.979842000000000102e+00 -7.735182802057105622e-02
1.381900000000000084e+01 4.285000000000000142e+01 2.339600000000000080e+01 -2.105351999999999890e+00 -8.793638231208003586e-02
1.382000000000000028e+01 2.221799999999999997e+01 5.916999999999999815e+00 3.559292999999999818e+00 -8.827005485579113298e-02
1.382000000000000028e+01 2.308399999999999963e+01 5.916999999999999815e+00 3.087978999999999807e+00 -8.901372331974520546e-02
1.382300000000000040e+01 4.442900000000000205e+01 1.321599999999999930e+01 1.416571000000000069e+01 -8.779635459071009895e-02
1.382300000000000040e+01 4.574799999999999756e+01 1.395100000000000051e+01 3.284702000000000055e+01 -8.648303292548968624e-02
1.382300000000000040e+01 4.574799999999999756e+01 1.558099999999999952e+01 1.751512999999999920e+02 -8.808580219970292557e-02
1.382300000000000040e+01 4.597899999999999920e+01 1.476600000000000001e+01 2.076732000000000156e+01 -8.702422346257439323e-02
1.382399999999999984e+01 4.164200000000000301e+01 1.538000000000000078e+01 1.346465999999999941e+00 -9.595524366299475194e-02
1.382600000000000051e+01 1.727599999999999980e+01 -7.569300000000000139e+00 6.657203999999999899e-01 2.664825312855325090e-01
1.383099999999999952e+01 2.263899999999999935e+01 2.003200000000000003e+01 -2.821865000000000023e+01 -7.587756294576636362e-02
1.383999999999999986e+01 2.615200000000000102e+01 2.340099999999999980e+01 -2.455545000000000044e+01 -7.580286924174375884e-02
1.384099999999999930e+01 4.229699999999999704e+01 2.566199999999999903e+01 -1.851221999999999923e+00 -8.623490958332194478e-02
1.384099999999999930e+01 4.504699999999999704e+01 2.671199999999999974e+01 1.125882999999999967e+01 -8.638338940767673058e-02
1.384399999999999942e+01 2.850600000000000023e+01 7.713700000000000223e+00 1.194083000000000006e+01 -2.936292326696559041e-01
1.384500000000000064e+01 9.031499999999999417e+00 1.885600000000000165e+01 -5.939319000000000237e+00 -2.444290369892672121e-01
1.384600000000000009e+01 1.962199999999999989e+01 2.146700000000000053e+00 -2.225055999999999923e+00 -1.558060275587588861e-01
1.384699999999999953e+01 2.642200000000000060e+01 2.109400000000000119e+01 -3.083061999999999969e+01 -7.516611510052821632e-02
1.384900000000000020e+01 1.928999999999999915e+01 -3.850900000000000212e+00 1.522545000000000037e+01 5.621274579438326896e-02
1.385100000000000087e+01 3.300000000000000000e+01 2.001399999999999935e+01 -5.731370000000000076e+00 -8.280695297992843318e-02
1.385500000000000043e+01 4.427600000000000335e+01 2.107000000000000028e+01 2.024815999999999860e+01 -9.026737087696361239e-02
1.385500000000000043e+01 2.347299999999999898e+01 2.034100000000000108e+01 -1.982705999999999946e+01 -7.645698385927290897e-02
1.385599999999999987e+01 2.594000000000000128e+01 6.217999999999999972e+00 3.334552000000000072e-01 -7.332979899476843588e-02
1.385800000000000054e+01 4.467300000000000182e+01 2.159400000000000119e+01 2.818436000000000163e+01 -8.982987609391988870e-02
1.386299999999999955e+01 3.859400000000000119e+01 1.382600000000000051e+01 -3.100003000000000064e+00 -1.041240939034708823e-01
1.386599999999999966e+01 4.316700000000000159e+01 2.259900000000000020e+01 -1.063115999999999950e+01 -8.869162405359276580e-02
1.386899999999999977e+01 1.901699999999999946e+01 -2.934400000000000119e+00 1.135548999999999964e+01 1.695234051681438203e-01
1.386899999999999977e+01 4.481099999999999994e+01 2.411499999999999844e+01 2.951401000000000163e+00 -8.789490329466745355e-02
1.387299999999999933e+01 1.563100000000000023e+01 1.772700000000000031e+01 -2.300387000000000182e+00 -2.055802502362146650e-02
1.387400000000000055e+01 2.718400000000000105e+01 6.677200000000000024e+00 1.835642999999999914e+00 -2.500610070651414912e-02
1.387500000000000000e+01 6.238900000000000112e+00 1.625400000000000134e+01 -7.052813999999999695e+00 -1.819575214041269373e-01
1.387500000000000000e+01 2.588400000000000034e+01 2.264199999999999946e+01 -8.326385000000000147e+00 -7.540625915145819647e-02
1.388199999999999967e+01 1.888899999999999935e+01 -1.800300000000000011e+00 3.647552000000000127e+00 1.432718340781035937e-01
1.388799999999999990e+01 3.995799999999999841e+01 2.956400000000000006e+01 3.976204000000000072e+00 -8.360898132899242940e-02
1.388899999999999935e+01 9.295700000000000074e+00 1.427000000000000046e+00 -1.327699999999999991e-01 -1.163531024210434223e-01
1.388899999999999935e+01 9.295700000000000074e+00 3.126999999999999780e+00 -6.067635000000000112e+00 3.253611337771920853e-02
1.388899999999999935e+01 9.295700000000000074e+00 4.527000000000000135e+00 -3.004943000000000097e+01 3.238519785552051305e-02
1.388899999999999935e+01 1.034600000000000009e+01 1.427000000000000046e+00 8.191176999999999486e-01 2.778159103081553200e-02
1.388899999999999935e+01 1.121199999999999974e+01 1.427000000000000046e+00 1.850235000000000074e+00 2.389126873192177342e-02
1.389000000000000057e+01 2.313599999999999923e+01 2.327700000000000102e+01 -2.889207999999999998e+01 -7.775323098976463787e-02
1.389000000000000057e+01 2.619999999999999929e+01 2.188599999999999923e+01 -8.365232000000000667e+00 -7.535319788272852592e-02
1.389100000000000001e+01 3.365100000000000335e+01 1.740700000000000003e+01 3.196708999999999801e+00 -8.628555807073097494e-02
1.389199999999999946e+01 4.651800000000000068e+01 2.572400000000000020e+01 -5.837077999999999989e+00 -8.718265034402003510e-02
1.389499999999999957e+01 4.201100000000000279e+01 1.452999999999999936e+01 3.614724999999999966e+00 -9.468551232798716466e-02
1.389499999999999957e+01 4.201100000000000279e+01 1.623000000000000043e+01 4.760820999999999970e+00 -9.518413348227179605e-02
1.389799999999999969e+01 4.147099999999999653e+01 2.241799999999999926e+01 -4.233492000000000033e+00 -8.832802485340351950e-02
1.389899999999999913e+01 2.375400000000000134e+01 5.509000000000000341e+00 2.012611000000000150e+00 -9.705928552110593133e-02
1.389899999999999913e+01 2.469399999999999906e+01 5.509000000000000341e+00 5.111474999999999769e-01 -1.336552609467558106e-01
1.390900000000000070e+01 1.798600000000000065e+01 1.853300000000000125e+01 -1.252666999999999975e+00 -2.262659507705563552e-02
1.391300000000000026e+01 5.910099999999999909e+00 1.515600000000000058e+01 -1.568741999999999948e+01 -1.826851582514901207e-01
1.391499999999999915e+01 4.582300000000000040e+01 2.568900000000000006e+01 -1.654622999999999955e+00 -8.710929316076888862e-02
1.392099999999999937e+01 2.340099999999999980e+01 2.271499999999999986e+01 -1.975172999999999845e+01 -7.765245314769318730e-02
1.392099999999999937e+01 9.130200000000000538e-01 9.539999999999999147e+00 2.066183000000000103e+00 -2.213863472611790062e-01
1.392099999999999937e+01 9.130200000000000538e-01 1.049799999999999933e+01 5.356441000000000230e+00 -2.215910904996250541e-01
1.392099999999999937e+01 1.224600000000000044e+01 -3.767000000000000209e-02 -7.882348999999999606e-01 -1.007447391410849213e-01
1.392600000000000016e+01 8.097300000000000608e+00 7.908999999999999808e+00 -3.714176999999999840e+00 -1.879415545712511959e-01
1.392699999999999960e+01 4.511500000000000199e+01 2.341499999999999915e+01 4.235299000000000369e+00 -8.846152091441231158e-02
1.392900000000000027e+01 4.495600000000000307e+01 2.232799999999999940e+01 1.169651999999999958e+01 -8.927485707756602218e-02
1.392900000000000027e+01 4.189800000000000324e+01 2.335900000000000176e+01 -7.890295000000000059e+00 -8.771469740020045036e-02
1.392999999999999972e+01 5.401900000000000368e+00 8.837600000000000122e+00 1.313771999999999984e+01 -1.881566735749470032e-01
1.393500000000000050e+01 8.371399999999999508e+00 6.996599999999999930e+00 -4.776184999999999903e+00 -1.892245197761244779e-01
1.393800000000000061e+01 6.568299999999999805e+00 1.701399999999999935e+01 -1.607715999999999923e+01 -1.817297333821098482e-01
1.393999999999999950e+01 4.317399999999999949e+01 2.401099999999999923e+01 -8.685511999999999233e+00 -8.763081518449142293e-02
1.394400000000000084e+01 4.884799999999999898e+01 2.322500000000000142e+01 2.129372000000000043e+01 -8.767986309478219276e-02
1.394400000000000084e+01 4.910199999999999676e+01 2.233099999999999952e+01 4.069079999999999919e-01 -8.734565224358811775e-02
1.394699999999999918e+01 9.599099999999999966e+00 3.826999999999999957e+00 -1.633160000000000167e+01 3.221812767116387366e-02
1.394800000000000040e+01 5.641899999999999693e+00 1.439700000000000024e+01 -4.140632000000000090e+00 -1.833093169361308949e-01
1.396700000000000053e+01 4.108899999999999864e+01 2.143100000000000094e+01 -3.244644000000000084e+00 -8.916650440187005866e-02
1.396899999999999942e+01 1.516000000000000014e+01 -6.304199999999999804e+00 3.413197999999999954e+00 2.940982221136519414e-01
1.397400000000000020e+01 2.077700000000000102e+01 1.752899999999999991e+01 -2.875223000000000084e+01 -1.664524232709650373e-02
1.397700000000000031e+01 2.403500000000000014e+01 2.056400000000000006e+01 -2.147695999999999827e+01 -7.699112126596149852e-02
1.398300000000000054e+01 3.214900000000000091e+01 9.169999999999999929e+00 1.555630999999999986e+01 -1.109291701109330897e-01
1.398399999999999999e+01 8.064999999999999503e+00 1.271299999999999919e+01 1.871791999999999900e+00 -1.832857592407180491e-01
1.398499999999999943e+01 3.506199999999999761e+01 1.668400000000000105e+01 -1.783040000000000092e+01 -9.053651902670251106e-02
1.398499999999999943e+01 3.657999999999999829e+01 1.668400000000000105e+01 -2.232693000000000083e+01 -9.313318141521158278e-02
1.399099999999999966e+01 4.035699999999999932e+01 2.869000000000000128e+01 6.093617999999999535e-01 -8.411847298172507592e-02
1.399099999999999966e+01 4.324900000000000233e+01 3.047800000000000153e+01 1.813287000000000049e+01 -8.436949493123721555e-02
1.399099999999999966e+01 4.359400000000000119e+01 2.969500000000000028e+01 1.738360000000000127e+01 -8.474826921187131323e-02
1.399499999999999922e+01 4.746000000000000085e+01 2.567099999999999937e+01 -1.492215999999999987e+01 -8.735498793075012480e-02
1.400099999999999945e+01 2.216799999999999926e+01 1.907999999999999829e+01 -4.128699999999999903e+01 -8.846129646834035437e-03
1.400099999999999945e+01 1.997500000000000142e+01 -6.608500000000000263e+00 2.502188999999999997e+00 9.577048484914871262e-02
1.400500000000000078e+01 1.955099999999999838e+01 -7.568299999999999805e+00 -8.228368999999999822e-01 1.020617955611180933e-01
1.400699999999999967e+01 4.129299999999999926e+01 2.054599999999999937e+01 -2.364879000000000175e+00 -9.024471551472793007e-02
1.400999999999999979e+01 2.191000000000000014e+01 1.828800000000000026e+01 -2.374295000000000044e+01 -1.094914148120863101e-02
1.401099999999999923e+01 5.971300000000000274e+00 1.363700000000000045e+01 -8.931938999999999851e+00 -1.838337216658909312e-01
1.401399999999999935e+01 3.853199999999999648e+01 1.277500000000000036e+01 -2.344961000000000073e+00 -1.067660405360957993e-01
1.401500000000000057e+01 3.519100000000000250e+01 1.189400000000000013e+01 2.927700000000000191e+00 -1.117946683905729904e-01
1.402100000000000080e+01 4.388900000000000290e+01 2.181400000000000006e+01 4.995589999999999975e+00 -8.961207521181349667e-02
1.402599999999999980e+01 1.217699999999999960e+01 -7.048300000000000232e+00 -8.175390999999999631e-01 3.331423824534608946e-01
1.402599999999999980e+01 1.387700000000000067e+01 -7.048300000000000232e+00 1.627588000000000079e+01 3.399932228372892773e-01
1.402699999999999925e+01 2.483899999999999864e+01 2.149399999999999977e+01 -1.086265000000000036e+01 -7.795272878690238938e-02
1.403299999999999947e+01 7.618699999999999584e+00 1.313700000000000045e+01 -9.730000999999999678e+00 -1.834376037317816677e-01
1.403400000000000070e+01 8.314000000000000057e+00 1.863899999999999935e+01 -2.372383999999999826e+00 -2.457160167936795203e-01
1.403500000000000014e+01 3.058200000000000074e+01 8.781000000000000583e+00 6.174512000000000000e+00 -9.071160990731345908e-02
1.403700000000000081e+01 3.280799999999999983e+01 1.001299999999999990e+01 1.531409000000000020e+01 -1.127102606186198563e-01
1.403700000000000081e+01 1.034999999999999964e+01 1.935999999999999943e+01 -4.340474999999999639e+00 -1.039107688878360969e-01
1.403899999999999970e+01 1.913500000000000156e+01 -2.940300000000000136e-01 6.619785000000000252e+00 -1.080828659273250780e-01
1.403999999999999915e+01 4.363499999999999801e+01 2.335800000000000054e+01 -1.119814000000000043e+01 -8.828154896624303138e-02
1.404800000000000004e+01 4.202900000000000347e+01 3.131400000000000006e+01 1.361847000000000030e+01 -8.377348609017074010e-02
1.404899999999999949e+01 4.666599999999999859e+00 1.137199999999999989e+01 6.194252999999999787e+01 -1.863044207214212267e-01
1.405100000000000016e+01 2.139999999999999858e+01 5.149200000000000443e+00 7.368025000000000269e+00 -9.311917508753062012e-02
1.405799999999999983e+01 1.882900000000000018e+00 1.166999999999999993e+01 5.952441999999999567e+00 -1.869672698978571135e-01
1.405899999999999928e+01 2.428099999999999881e+01 2.276800000000000068e+01 5.823023000000000060e+00 -7.819887553042191575e-02
1.406000000000000050e+01 3.377900000000000347e+01 1.910500000000000043e+01 1.362381000000000064e+00 -8.490168615642970651e-02
1.406700000000000017e+01 2.535300000000000153e+01 2.340099999999999980e+01 -3.241037000000000035e+01 -7.550736090841145276e-02
1.406900000000000084e+01 4.070700000000000074e+01 3.106700000000000017e+01 3.782457999999999743e+01 -8.345305901405003501e-02
1.407199999999999918e+01 4.467300000000000182e+01 2.757700000000000173e+01 9.446315999999999491e+00 -8.595459880743921977e-02
1.407799999999999940e+01 1.238799999999999990e+01 1.871099999999999852e+01 -1.104641999999999946e+01 -1.089346732734497725e-01
1.408500000000000085e+01 4.464900000000000091e+01 2.046600000000000108e+01 1.092783000000000015e+01 -9.100857913476854966e-02
1.408500000000000085e+01 2.453600000000000136e+01 2.079400000000000048e+01 -1.338127000000000066e+01 -7.750112822452055739e-02
1.408500000000000085e+01 2.453600000000000136e+01 2.219399999999999906e+01 5.705512999999999835e+00 -7.812432041724770571e-02
1.409500000000000064e+01 3.708599999999999852e+01 1.123799999999999955e+01 4.454980000000000051e-01 -1.166429406001349978e-01
1.409600000000000009e+01 1.062299999999999933e+01 -2.582300000000000040e+00 -4.594035000000000202e-01 -1.247188956952185838e-02
1.409600000000000009e+01 1.062299999999999933e+01 -1.531700000000000061e+00 -1.853870999999999991e-01 -1.384919036859775035e-02
1.409699999999999953e+01 4.026100000000000279e+01 3.049599999999999866e+01 8.181756999999999280e+00 -8.348979579248076710e-02
1.410200000000000031e+01 3.623700000000000188e+01 1.191000000000000014e+01 2.594587999999999894e-01 -1.141778194795485535e-01
1.410200000000000031e+01 3.800900000000000034e+01 1.191000000000000014e+01 -3.652202000000000226e-02 -1.099486789807504888e-01
1.410699999999999932e+01 4.406199999999999761e+01 2.246300000000000097e+01 -8.128718000000000332e-01 -8.912064245746767477e-02
1.410899999999999999e+01 4.231300000000000239e+01 2.415500000000000114e+01 -1.052618999999999971e+01 -8.735115489522846111e-02
1.411100000000000065e+01 4.293099999999999739e+01 1.878800000000000026e+01 2.642966999999999955e-01 -9.289602524242036863e-02
1.411100000000000065e+01 4.440100000000000335e+01 2.808699999999999974e+01 7.771167000000000158e+00 -8.566632643027531635e-02
1.411100000000000065e+01 2.893900000000000006e+01 8.413700000000000401e+00 8.494640999999999664e+00 -2.913920612197274940e-01
1.411200000000000010e+01 3.379599999999999937e+01 1.136599999999999966e+01 3.117150000000000176e+01 -1.095388903638195022e-01
1.411999999999999922e+01 3.349900000000000233e+01 1.411500000000000021e+01 4.466667000000000165e+00 -9.327215251070909707e-02
1.411999999999999922e+01 8.360799999999999343e+00 5.949600000000000222e+00 -3.216318999999999928e+00 -2.298026796539878736e-01
1.412199999999999989e+01 7.185200000000000031e+00 1.266000000000000014e+01 -3.509348999999999830e+00 -1.843613032067163426e-01
1.412400000000000055e+01 2.047699999999999854e+00 8.688299999999999912e+00 2.424568999999999974e+01 -2.231277979611786810e-01
1.412700000000000067e+01 3.922899999999999920e+01 1.617999999999999972e+01 -1.531357000000000035e+01 -9.703896931824348981e-02
1.412800000000000011e+01 8.339000000000000412e+00 8.840799999999999770e+00 -4.289062000000000152e-01 -1.877171366521940832e-01
1.412899999999999956e+01 1.814099999999999824e+01 -7.838599999999999568e+00 3.637992000000000049e-03 1.762561689259796449e-01
1.413299999999999912e+01 4.561599999999999966e+01 2.039399999999999835e+01 8.475443000000000282e+00 -9.011736483457460922e-02
1.413299999999999912e+01 2.509100000000000108e+01 2.263299999999999912e+01 6.066816000000000431e-01 -7.864627937430548887e-02
1.413599999999999923e+01 4.437899999999999778e+01 2.341499999999999915e+01 7.846851999999999716e-01 -8.843658699209686058e-02
1.413899999999999935e+01 1.390700000000000003e+01 1.861299999999999955e+01 -4.675894999999999868e+01 -1.914923539783138992e-02
1.414199999999999946e+01 8.723100000000000520e+00 4.289100000000000357e+00 -4.511334999999999873e+00 -1.202615492785689827e-01
1.414300000000000068e+01 3.042299999999999827e+01 2.151699999999999946e+01 -2.744930999999999788e+00 -7.941635282409251206e-02
1.414600000000000080e+01 1.080599999999999916e+01 -3.225900000000000212e+00 -6.847986999999999824e-01 -1.324306404498209501e-02
1.414899999999999913e+01 2.298199999999999932e+01 5.450400000000000134e+00 3.143286999999999942e+00 -1.007388005950711624e-01
1.415499999999999936e+01 3.125000000000000000e+00 1.216000000000000014e+01 8.459737000000000506e+00 -1.865620208008057224e-01
1.415799999999999947e+01 2.011599999999999966e+01 4.388300000000000090e+00 1.130325999999999986e+01 -7.465278342855916072e-02
1.415900000000000070e+01 2.891799999999999926e+01 2.072500000000000142e+01 6.834643000000000246e-01 -7.773703805721089710e-02
1.416099999999999959e+01 3.654099999999999682e+01 1.121000000000000085e+01 1.065814999999999957e+00 -1.201423436160812541e-01
1.416099999999999959e+01 4.433800000000000097e+01 1.965800000000000125e+01 4.468702999999999648e+00 -9.152841062601786704e-02
1.416200000000000081e+01 3.081999999999999851e+00 7.891700000000000159e+00 2.244826999999999906e+00 -1.200933520319122511e-01
1.416200000000000081e+01 4.782000000000000028e+00 7.891700000000000159e+00 3.094800000000000217e+00 -2.259336622912802572e-01
1.416200000000000081e+01 3.792900000000000205e+01 1.694699999999999918e+01 -1.589997999999999934e+01 -9.432156631231594646e-02
1.417200000000000060e+01 3.407300000000000040e+01 1.535599999999999987e+01 -7.100108999999999781e+00 -9.163067173730740644e-02
1.417399999999999949e+01 1.126200000000000045e+01 8.647000000000000242e-01 1.305830000000000046e+00 2.634844497753178680e-02
1.417600000000000016e+01 1.493099999999999916e+01 1.778600000000000136e+01 -1.037180000000000035e+01 -2.028500529206190769e-02
1.417600000000000016e+01 1.633099999999999952e+01 1.778600000000000136e+01 -2.167513000000000023e+00 -2.177883284383639803e-02
1.417699999999999960e+01 8.454900000000000304e+00 5.048000000000000043e+00 -3.056524000000000019e+00 -2.306616586000243552e-01
1.417800000000000082e+01 3.380199999999999960e+01 1.481499999999999950e+01 -9.272247999999999601e-02 -9.230876241718578845e-02
1.417999999999999972e+01 8.497600000000000264e+00 1.178299999999999947e+01 1.555652999999999953e+00 -1.846260713460562974e-01
1.418900000000000006e+01 3.302600000000000335e+01 1.695799999999999841e+01 8.458202999999999694e-01 -8.601695619919040581e-02
1.418900000000000006e+01 3.389099999999999824e+01 1.695799999999999841e+01 -1.699671000000000098e-01 -8.793096406987008229e-02
1.419100000000000072e+01 4.384499999999999886e+01 1.644800000000000040e+01 2.028461000000000070e+01 -9.157242554906143417e-02
1.419100000000000072e+01 2.539499999999999957e+01 2.193299999999999983e+01 -7.524638999999999633e+00 -7.862027360906714835e-02
1.419599999999999973e+01 4.145499999999999829e+01 2.680399999999999849e+01 1.789916000000000063e+00 -8.546553419962120424e-02
1.420299999999999940e+01 3.245799999999999841e+01 1.415799999999999947e+01 1.313245000000000040e+01 -8.929274694638432430e-02
1.421000000000000085e+01 3.210600000000000165e+01 1.660200000000000031e+01 3.172696999999999878e+00 -8.429504089660276589e-02
1.421299999999999919e+01 1.868599999999999994e+01 1.847500000000000142e+01 -1.089463000000000070e+00 -2.129044289955861827e-02
1.422300000000000075e+01 2.799299999999999855e+01 2.045700000000000074e+01 -6.338091999999999615e+00 -7.677455677423772329e-02
1.422899999999999920e+01 4.694200000000000017e+01 1.973100000000000165e+01 9.667410999999999532e+00 -8.857129755116489866e-02
1.422899999999999920e+01 4.846200000000000330e+01 1.973100000000000165e+01 -1.221832999999999991e+01 -8.712488381865014786e-02
1.423300000000000054e+01 2.019099999999999895e+01 -4.561399999999999899e+00 1.437257999999999925e+01 -8.088560588642244864e-02
1.423300000000000054e+01 1.156499999999999950e+01 1.647000000000000131e-01 7.034228000000000147e-01 2.416475710478854094e-02
1.423799999999999955e+01 8.801000000000000156e+00 1.108300000000000018e+01 2.338989999999999903e+00 -1.853805364207808115e-01
1.423900000000000077e+01 8.759700000000000486e+00 3.674599999999999866e+00 -3.055705000000000116e+00 -1.197556017455872340e-01
1.424000000000000021e+01 3.206700000000000017e+01 1.506300000000000061e+01 9.347428999999999988e+00 -8.620872145850591584e-02
1.424200000000000088e+01 4.077499999999999858e+01 2.236799999999999855e+01 -3.256692999999999838e+00 -8.829118359392613968e-02
1.424300000000000033e+01 8.869300000000000850e+00 9.627100000000000435e+00 2.249054999999999804e+00 -1.870080743532611389e-01
1.424699999999999989e+01 3.419500000000000028e+01 1.625799999999999912e+01 -4.072226999999999819e+00 -8.999084697901867103e-02
1.424900000000000055e+01 1.722200000000000131e+01 1.861299999999999955e+01 -1.410541999999999963e+00 -2.251276640151493938e-02
1.425099999999999945e+01 3.672099999999999653e+01 1.053800000000000026e+01 7.298282000000000380e-01 -1.200285429196802367e-01
1.425200000000000067e+01 4.253600000000000136e+01 1.685600000000000165e+01 8.064019999999999300e+00 -9.403215130930980825e-02
1.425600000000000023e+01 4.357800000000000296e+01 1.338899999999999935e+01 2.198770999999999809e+00 -8.960798687153348485e-02
1.425600000000000023e+01 3.929500000000000171e+01 1.508200000000000074e+01 -6.803230000000000111e+00 -1.002381643019614882e-01
1.425600000000000023e+01 1.111200000000000010e+01 -6.236099999999999977e-01 2.503713000000000188e-01 -1.762194572816934424e-02
1.426500000000000057e+01 1.691100000000000136e+01 -7.239499999999999602e+00 1.439834999999999976e+00 1.545557615001057483e-01
1.426800000000000068e+01 3.180300000000000082e+01 1.590199999999999925e+01 4.359966000000000008e+00 -8.436658300599540750e-02
1.427299999999999969e+01 5.567000000000000171e+00 1.049099999999999966e+01 7.508771000000000306e+00 -1.878182836516260334e-01
1.427399999999999913e+01 9.099000000000000199e+00 1.041699999999999982e+01 6.927821999999999925e+00 -1.860882638850932524e-01
1.427699999999999925e+01 4.113400000000000034e+01 1.482199999999999918e+01 1.121167000000000025e+00 -9.687121636619908105e-02
1.427699999999999925e+01 4.113400000000000034e+01 1.593800000000000061e+01 3.853338000000000041e-01 -9.692336621796551754e-02
1.427699999999999925e+01 2.007700000000000173e+01 1.758800000000000097e+01 -6.897020000000000550e+01 -1.936418600319351341e-02
1.427699999999999925e+01 2.147700000000000031e+01 1.758800000000000097e+01 -1.582503999999999955e+01 -1.433604575999333774e-02
1.427899999999999991e+01 8.406299999999999883e+00 2.774900000000000144e+00 -7.763115000000000432e-01 -1.183550108388448929e-01
1.427899999999999991e+01 4.155599999999999739e+01 1.973900000000000077e+01 -1.579134000000000038e+00 -9.151050767339850844e-02
1.427899999999999991e+01 5.842399999999999594e+00 9.476000000000000867e+00 5.229408000000000278e+00 -1.889657719048573603e-01
1.427899999999999991e+01 2.691300000000000026e+01 2.069800000000000040e+01 -1.743663000000000096e+01 -7.588142285126771303e-02
1.428100000000000058e+01 1.978099999999999881e+01 -4.247499999999999609e+00 1.908192000000000021e+01 -7.143056620168888871e-02
1.428899999999999970e+01 3.187000000000000099e+01 2.072500000000000142e+01 -3.643648999999999916e+00 -8.145912928486018223e-02
1.429700000000000060e+01 4.530899999999999750e+01 1.345500000000000007e+01 3.394129999999999825e+01 -8.639496955622261165e-02
1.429700000000000060e+01 4.530899999999999750e+01 1.607700000000000173e+01 6.667038999999999760e+01 -8.896050073489253363e-02
1.429899999999999949e+01 9.768200000000000216e+00 7.680000000000000160e-01 1.480390000000000039e-01 -1.161600334724321171e-01
1.430199999999999960e+01 4.851100000000000279e+01 2.387500000000000000e+01 1.477699999999999925e+01 -8.795022339029319458e-02
1.430400000000000027e+01 6.990400000000000169e+00 1.762199999999999989e+01 -3.048756000000000022e+00 -1.823577197183177401e-01
1.430899999999999928e+01 7.539699999999999847e+00 1.186299999999999955e+01 2.534906000000000104e-01 -1.856541764553771012e-01
1.431099999999999994e+01 2.553000000000000114e+01 5.732599999999999696e+00 -4.616309000000000218e+00 -9.454947257765446145e-02
1.431799999999999962e+01 4.564600000000000080e+01 2.639900000000000091e+01 -1.086508999999999947e+00 -8.683608278041241024e-02
1.433000000000000007e+01 2.422400000000000020e+01 4.975999999999999979e+00 1.829126999999999947e+00 -1.587020231748453303e-01
1.433300000000000018e+01 5.686700000000000088e+00 1.582099999999999973e+01 -6.135659999999999670e+00 -1.837433698048065722e-01
1.433900000000000041e+01 2.793700000000000117e+01 6.964699999999999669e+00 3.877975999999999868e+00 -3.915952402524684912e-03
1.434099999999999930e+01 1.424199999999999910e+00 9.337899999999999423e+00 3.490635999999999850e+00 -1.203390061737760891e-01
1.434800000000000075e+01 6.404600000000000293e+00 1.304700000000000060e+01 -1.133395999999999937e+01 -1.853230764402467590e-01
1.434900000000000020e+01 3.245400000000000063e+01 2.050000000000000000e+01 -6.940614000000000061e+00 -8.237907693508736418e-02
1.435800000000000054e+01 4.242999999999999972e+01 1.383799999999999919e+01 6.589990000000000236e+00 -9.280607769610273172e-02
1.436800000000000033e+01 1.909499999999999886e+01 2.621300000000000185e+00 5.281902000000000186e+01 -1.524804976078641405e-01
1.436800000000000033e+01 1.909499999999999886e+01 3.486600000000000144e+00 1.859953000000000145e+01 -5.706936560900875699e-02
1.436800000000000033e+01 1.083000000000000007e+01 -4.034299999999999997e+00 -2.192788000000000181e+00 3.359306360577869743e-02
1.436999999999999922e+01 3.979399999999999693e+01 1.602899999999999991e+01 -2.611759999999999948e+01 -9.783157900084413217e-02
1.438000000000000078e+01 3.336399999999999721e+01 1.066600000000000037e+01 2.431912000000000162e+01 -1.128223370543837561e-01
1.438100000000000023e+01 3.333700000000000330e+01 1.535599999999999987e+01 6.485910999999999760e-01 -8.993566313648038157e-02
1.438199999999999967e+01 3.462899999999999778e+01 1.717500000000000071e+01 -7.867801000000000045e+00 -8.934868187634784076e-02
1.438499999999999979e+01 3.325399999999999778e+01 1.995499999999999829e+01 -1.037697000000000003e+01 -8.383146480984646209e-02
1.439100000000000001e+01 2.286899999999999977e+01 1.978999999999999915e+01 -2.713121999999999900e+01 -7.638549150832089907e-02
1.439499999999999957e+01 3.571099999999999852e+01 1.122400000000000020e+01 -1.503500999999999976e+00 -1.193798004610601426e-01
1.439899999999999913e+01 4.113799999999999812e+01 2.306899999999999906e+01 -1.358535999999999966e+01 -8.791918848260085739e-02
1.440099999999999980e+01 1.908399999999999963e+01 -1.670700000000000074e+00 -1.191278000000000059e+00 1.315452749834617463e-01
1.440099999999999980e+01 1.908399999999999963e+01 -8.054900000000000393e-01 -1.862910000000000121e-01 1.197879762750242716e-01
1.440600000000000058e+01 9.500000000000000000e+00 1.928900000000000148e+01 -6.387612999999999985e+00 -2.454396205820584265e-01
1.440600000000000058e+01 1.119999999999999929e+01 1.928900000000000148e+01 -2.699078000000000088e+00 -1.069237306119009412e-01
1.440600000000000058e+01 6.708000000000000185e+00 1.234699999999999953e+01 -2.599158000000000079e+00 -1.860201595444965772e-01
1.440799999999999947e+01 5.808300000000000018e+00 1.672400000000000020e+01 -1.535051999999999950e+01 -1.834630091112167682e-01
1.441200000000000081e+01 1.093099999999999916e+01 -4.854099999999999859e+00 -1.275562000000000085e+00 2.181652895698799402e-02
1.441399999999999970e+01 8.445700000000000429e+00 1.751700000000000035e+00 -6.222959000000000129e-01 -1.168984001099815789e-01
1.441600000000000037e+01 3.449600000000000222e+01 1.142399999999999949e+01 4.443725999999999843e+00 -1.134461895745404875e-01
1.441799999999999926e+01 4.110799999999999699e+01 3.111899999999999977e+01 1.794763000000000019e+01 -8.367872933195194540e-02
1.442200000000000060e+01 5.460700000000000109e+00 1.315499999999999936e+01 -1.053257999999999939e+01 -1.859027947684056825e-01
1.442399999999999949e+01 4.835399999999999920e+01 2.445700000000000074e+01 -4.076882000000000339e+00 -8.809037207574269002e-02
1.442600000000000016e+01 4.699000000000000199e+01 2.620400000000000063e+01 -7.330237000000000336e+00 -8.716751754210461112e-02
1.444500000000000028e+01 1.148499999999999943e+01 -6.585399999999999920e+00 -7.434412999999999716e-01 -8.850125748891438104e-02
1.444899999999999984e+01 3.280299999999999727e+01 1.506300000000000061e+01 5.673953000000000024e+00 -8.907313825250461059e-02
1.445199999999999996e+01 4.009299999999999642e+00 1.226099999999999923e+01 1.073399999999999999e+01 -1.872905778263788679e-01
1.445599999999999952e+01 3.345900000000000318e+01 1.625799999999999912e+01 -2.632789999999999964e+00 -8.858499240391454199e-02
1.446000000000000085e+01 1.308399999999999963e+01 -7.476399999999999935e+00 5.547205000000000191e-02 3.341697033493647995e-01
1.446199999999999974e+01 7.923700000000000188e+00 6.541199999999999903e+00 -3.069084999999999841e+00 -1.940436755067874164e-01
1.446299999999999919e+01 4.401100000000000279e+01 2.897700000000000031e+01 1.069641000000000020e+01 -8.529923771406669464e-02
1.446499999999999986e+01 4.821999999999999886e+01 2.538100000000000023e+01 -1.431260999999999939e+01 -8.772534896410061345e-02
1.446899999999999942e+01 2.031099999999999994e+01 -7.224700000000000344e+00 -8.290822000000000358e+00 1.072580886276525980e-01
1.447400000000000020e+01 3.728900000000000148e+01 1.700000000000000000e+01 -3.522688000000000130e+01 -9.389351582787758277e-02
1.447499999999999964e+01 6.627600000000000158e+00 1.185599999999999987e+01 -1.123089000000000004e+00 -1.868173327882823309e-01
1.447499999999999964e+01 4.198799999999999955e+01 1.885300000000000153e+01 -2.101967999999999837e+00 -9.294927828225338362e-02
1.447499999999999964e+01 4.387400000000000233e+01 1.885300000000000153e+01 2.080200000000000049e+00 -9.199020929258275303e-02
1.447700000000000031e+01 3.253900000000000148e+01 1.590199999999999925e+01 2.737350999999999868e+00 -8.682673965054742149e-02
1.447799999999999976e+01 3.592199999999999704e+01 1.053800000000000026e+01 1.255837000000000092e+00 -1.248462799670475853e-01
1.447799999999999976e+01 3.752000000000000313e+01 1.053800000000000026e+01 -5.258949999999999569e+00 -1.126637808417288167e-01
1.448099999999999987e+01 5.211299999999999599e+00 1.392699999999999960e+01 -3.376954000000000011e+00 -1.856015368433137636e-01
1.448099999999999987e+01 5.211299999999999599e+00 1.486700000000000088e+01 -4.150622000000000256e+00 -1.849428129768324047e-01
1.448199999999999932e+01 5.366600000000000037e+00 1.110500000000000043e+01 7.118324999999999569e+00 -1.881401968546857206e-01
1.448199999999999932e+01 5.366600000000000037e+00 1.250500000000000078e+01 -1.736509999999999998e+00 -1.867280492044384732e-01
1.448199999999999932e+01 6.231900000000000439e+00 1.110500000000000043e+01 2.654314999999999980e+00 -1.878142690082890698e-01
1.448799999999999955e+01 9.049099999999999255e+00 1.907999999999999829e+01 -2.283900999999999826e+01 -2.461528943981418638e-01
1.449099999999999966e+01 3.868900000000000006e+01 1.688400000000000034e+01 -4.901201999999999970e+01 -9.540268354897077363e-02
1.449200000000000088e+01 1.935099999999999909e+01 -2.555899999999999839e+00 9.093035999999999675e+00 1.384293603821869501e-01
1.449399999999999977e+01 4.038499999999999801e+01 1.587800000000000011e+01 -8.318360000000000198e+00 -9.837094156895181962e-02
1.449399999999999977e+01 7.687700000000000422e+00 1.828200000000000003e+01 -4.832781999999999911e+00 -1.823672449935814233e-01
1.449799999999999933e+01 4.234899999999999665e+01 1.813100000000000023e+01 -8.376870999999999623e-02 -9.406810598298807891e-02
1.449799999999999933e+01 7.872600000000000264e+00 7.383600000000000385e+00 -4.374208000000000318e+00 -1.926686189900244373e-01
1.450300000000000011e+01 5.873099999999999987e+00 8.443599999999999994e+00 5.025218999999999880e+00 -1.916134525374075248e-01
1.451399999999999935e+01 4.591400000000000148e+01 1.441399999999999970e+01 8.285558999999999230e+00 -8.655394241954991741e-02
1.451600000000000001e+01 4.265299999999999869e+01 3.095899999999999963e+01 3.900688000000000244e+01 -8.420891375875536045e-02
1.451699999999999946e+01 1.252999999999999892e+00 1.001900000000000013e+01 7.315425000000000288e+00 -1.206580629266873206e-01
1.451800000000000068e+01 2.523600000000000065e+01 2.106099999999999994e+01 -1.787246000000000024e+01 -7.847871109687258595e-02
1.451900000000000013e+01 4.893200000000000216e+01 2.049099999999999966e+01 -1.244154999999999944e+01 -8.693310381869764902e-02
1.452399999999999913e+01 1.067900000000000027e+01 7.639200000000000157e-02 5.084619000000000222e-01 3.320845522781049747e-02
1.453200000000000003e+01 4.147800000000000153e+01 1.665299999999999869e+01 1.018895000000000106e+00 -9.595872874937974584e-02
1.453400000000000070e+01 1.894800000000000040e+01 -8.101100000000000634e+00 -5.863485999999999976e-01 1.760185861779295646e-01
1.453999999999999915e+01 5.063200000000000145e+00 1.180499999999999972e+01 1.055799000000000021e+01 -1.877415080557585103e-01
1.454100000000000037e+01 3.625099999999999767e+01 9.778000000000000469e+00 9.357883999999999647e-01 -1.236821265005277060e-01
1.454100000000000037e+01 3.719100000000000250e+01 9.778000000000000469e+00 -9.801794000000000340e-01 -1.147814486766487035e-01
1.454400000000000048e+01 2.963899999999999935e+01 8.680999999999999162e+00 7.283053999999999917e+00 -2.128181191433445307e-01
1.454800000000000004e+01 4.106499999999999773e+01 2.769399999999999906e+01 6.731889999999999930e+00 -8.503166789258639890e-02
1.454800000000000004e+01 4.037100000000000222e+01 2.199200000000000088e+01 -4.017833000000000432e+00 -8.864982592149810159e-02
1.454899999999999949e+01 1.934900000000000020e+01 -3.547499999999999876e+00 2.833192999999999984e+01 -6.079580866850523707e-02
1.455100000000000016e+01 1.450300000000000011e+01 -6.691099999999999604e+00 1.583199000000000023e+00 6.317403012445450827e-02
1.455400000000000027e+01 2.054899999999999949e+01 4.879199999999999982e+00 7.088218000000000352e+00 -8.125394055603184229e-02
1.455499999999999972e+01 2.373999999999999844e+01 1.990800000000000125e+01 -4.557222000000000151e+01 -7.706181437735508399e-02
1.455599999999999916e+01 3.157100000000000151e+01 8.606199999999999406e+00 8.289974000000000842e+00 -1.072573893609939655e-01
1.455799999999999983e+01 4.770199999999999818e+01 1.966799999999999926e+01 2.219141000000000119e+01 -8.774154622251933988e-02
1.455899999999999928e+01 4.287800000000000011e+01 1.344699999999999918e+01 1.608157000000000059e+00 -9.113799410539027979e-02
1.455899999999999928e+01 4.442900000000000205e+01 1.300699999999999967e+01 1.072194000000000091e+00 -8.719139405170069079e-02
1.456400000000000006e+01 7.867700000000000138e+00 3.526699999999999946e+00 -1.310675999999999952e+00 -1.193716152347490400e-01
1.457300000000000040e+01 1.002399999999999913e+01 4.206799999999999984e-01 -1.583121999999999863e-01 -1.161692279640239162e-01
1.457699999999999996e+01 3.896300000000000097e+01 1.229899999999999949e+01 3.548280000000000101e+00 -1.038498423650454361e-01
1.458000000000000007e+01 1.934199999999999875e+01 4.002900000000000208e-02 5.273645000000000138e+00 -5.784927998267211553e-03
1.458200000000000074e+01 1.740700000000000003e+01 -7.558300000000000018e+00 2.841451000000000171e+00 1.639981787265841207e-01
1.458500000000000085e+01 4.213000000000000256e+01 2.440899999999999892e+01 -1.890255000000000152e+01 -8.733871852879696029e-02
1.458500000000000085e+01 4.213000000000000256e+01 2.527499999999999858e+01 -5.197835999999999679e+00 -8.675383875022327218e-02
1.458799999999999919e+01 4.341299999999999670e+01 1.693900000000000006e+01 1.463937999999999917e+01 -9.232874504105281765e-02
1.458799999999999919e+01 1.945100000000000051e+01 8.410199999999999898e-01 7.526110000000000078e+00 -2.646775996442538026e-02
1.458799999999999919e+01 1.945100000000000051e+01 1.798999999999999932e+00 4.982732000000000383e+00 -4.271581716558355002e-02
1.458900000000000041e+01 4.503199999999999648e+01 1.979400000000000048e+01 6.848323999999999856e+00 -9.058946524605712702e-02
1.458999999999999986e+01 4.578300000000000125e+01 1.531000000000000050e+01 4.424719000000000335e+01 -8.758511436499560876e-02
1.458999999999999986e+01 1.941600000000000037e+01 4.120899999999999785e+00 4.221180000000000376e+00 -6.560055405696219033e-02
1.459399999999999942e+01 4.004399999999999693e+01 2.117599999999999838e+01 -4.168428999999999718e+00 -8.937147550162347076e-02
1.459399999999999942e+01 1.988700000000000045e+01 -8.002000000000000668e+00 -3.003915000000000113e+00 1.150470951076650178e-01
1.460899999999999999e+01 1.443999999999999950e+01 1.818199999999999861e+01 -4.104500000000000171e+01 -2.034408007303017962e-02
1.460899999999999999e+01 1.563100000000000023e+01 1.751800000000000068e+01 -2.712053000000000047e+00 -2.176733931626647842e-02
1.460899999999999999e+01 1.682199999999999918e+01 1.818199999999999861e+01 -1.334893000000000107e+00 -2.281681278038206334e-02
1.460899999999999999e+01 1.825300000000000011e+01 1.896600000000000108e+01 -7.850553999999999588e-01 -2.169808953208769361e-02
1.460999999999999943e+01 4.080199999999999960e+01 2.819399999999999906e+01 2.876430000000000042e+00 -8.473398431972209432e-02
1.461100000000000065e+01 7.964199999999999946e+00 5.517000000000000348e+00 -1.367699999999999960e+01 -1.214528205446983727e-01
1.461800000000000033e+01 3.296900000000000119e+01 9.649699999999999278e+00 8.505083000000000837e+00 -1.185249331904247166e-01
1.461800000000000033e+01 4.899199999999999733e+01 2.142999999999999972e+01 -4.819404000000000110e+01 -8.713500090948113341e-02
1.461800000000000033e+01 4.164099999999999824e+01 1.394500000000000028e+01 4.334776999999999880e+00 -9.482229012863915840e-02
1.462100000000000044e+01 4.634599999999999653e+01 2.634100000000000108e+01 -5.051835999999999771e+00 -8.707890890688980978e-02
1.463400000000000034e+01 7.530300000000000438e+00 4.336999999999999744e+00 -1.844262000000000068e+00 -1.201541938527561360e-01
1.463700000000000045e+01 2.056700000000000017e+01 -5.597699999999999676e+00 6.641263000000000361e+00 -1.128198419781133860e-01
1.464600000000000080e+01 4.310900000000000176e+01 1.763899999999999935e+01 3.542638999999999871e+00 -9.295020394615979842e-02
1.465600000000000058e+01 2.869300000000000139e+01 2.072500000000000142e+01 -5.927788000000000501e-01 -7.804841827623298922e-02
1.465700000000000003e+01 4.037299999999999756e+01 2.041600000000000037e+01 -3.746932999999999847e+00 -9.046276928586430288e-02
1.465900000000000070e+01 2.346399999999999864e+01 5.039299999999999891e+00 2.062428000000000150e+00 5.540517428164539598e-02
1.465900000000000070e+01 2.498400000000000176e+01 5.039299999999999891e+00 -2.462606000000000073e+00 -1.283125950467773890e-01
1.466099999999999959e+01 4.624199999999999733e+01 1.999899999999999878e+01 3.292244000000000170e+00 -8.926857787316973269e-02
1.466200000000000081e+01 3.007300000000000040e+01 2.159700000000000131e+01 -2.382946000000000009e+00 -7.955446569186606920e-02
1.466600000000000037e+01 7.134400000000000297e+00 1.123700000000000010e+01 6.982424000000000408e-01 -1.881207479861915499e-01
1.466600000000000037e+01 7.999699999999999811e+00 1.123700000000000010e+01 1.772944000000000075e+00 -1.877189134213753663e-01
1.467099999999999937e+01 4.488700000000000045e+01 1.644399999999999906e+01 1.969556000000000040e+01 -8.969820655014716648e-02
1.467300000000000004e+01 2.213700000000000045e+01 5.425300000000000011e+00 4.338655000000000150e+00 5.281976175171916588e-02
1.467500000000000071e+01 3.432000000000000028e+01 1.785900000000000176e+01 1.103622000000000014e+01 -8.807324763110382926e-02
1.467699999999999960e+01 3.893900000000000006e+01 1.341399999999999970e+01 -3.045631999999999895e+00 -1.036312109108088464e-01
1.467699999999999960e+01 3.893900000000000006e+01 1.427899999999999991e+01 -1.128921000000000063e+01 -1.031702691976388309e-01
1.467699999999999960e+01 2.430300000000000082e+01 2.013100000000000023e+01 -4.165144000000000091e+01 -7.763027719314311015e-02
1.467999999999999972e+01 2.274999999999999911e+00 1.183500000000000085e+01 1.097832999999999970e+01 -1.889038111940657960e-01
1.468699999999999939e+01 2.485899999999999999e+00 8.373300000000000409e+00 3.648913999999999991e+00 -1.205012520787010349e-01
1.468699999999999939e+01 3.931999999999999940e+00 7.567000000000000171e+00 4.386483000000000132e+00 -1.206791189250295410e-01
1.469100000000000072e+01 4.511800000000000210e+01 2.708099999999999952e+01 8.249062000000000339e+00 -8.651039477717863135e-02
1.469500000000000028e+01 4.184599999999999653e+01 1.735300000000000153e+01 2.688232000000000177e+00 -9.509902812637932579e-02
1.469800000000000040e+01 6.277999999999999581e+00 1.748400000000000176e+01 -5.971346999999999738e+00 -1.837322002669464494e-01
1.469899999999999984e+01 4.360399999999999920e+01 1.840599999999999881e+01 1.790186999999999973e+00 -9.225304701181377687e-02
1.470100000000000051e+01 2.222599999999999909e+01 1.877700000000000102e+01 -3.876127000000000322e+01 -1.007583645005136370e-02
1.471000000000000085e+01 1.958599999999999852e+01 1.798400000000000176e+01 -4.294872999999999763e+01 -2.047824473513189941e-02
1.471000000000000085e+01 2.077700000000000102e+01 1.732000000000000028e+01 -1.189397000000000020e+02 -1.821438970420963949e-02
1.471000000000000085e+01 2.196799999999999997e+01 1.798400000000000176e+01 -2.730846000000000018e+01 -1.233544327896443984e-02
1.471199999999999974e+01 6.676099999999999923e+00 1.088299999999999912e+01 2.644292999999999783e+00 -1.889540088705867205e-01
1.471199999999999974e+01 7.541299999999999670e+00 8.487099999999999866e+00 -1.930943999999999994e+00 -1.921652767441447140e-01
1.471299999999999919e+01 4.007099999999999795e+01 1.503800000000000026e+01 -4.207942000000000071e+00 -9.940477450833758166e-02
1.471499999999999986e+01 2.840899999999999892e+01 7.919100000000000250e+00 1.075427000000000000e+01 -3.027958976897080490e-01
1.472199999999999953e+01 3.137900000000000134e+01 2.112199999999999989e+01 -1.636408000000000129e+01 -8.118562957197156260e-02
1.472300000000000075e+01 8.006999999999999673e+00 9.273400000000000531e+00 3.745478999999999892e-01 -1.907097264906963685e-01
1.472300000000000075e+01 2.058800000000000097e+01 -4.993999999999999773e+00 7.782347999999999821e+00 -9.911125120116781595e-02
1.472400000000000020e+01 6.629100000000000215e+00 8.500999999999999446e+00 2.784489000000000214e+00 -1.925389003900098150e-01
1.472899999999999920e+01 4.579999999999999716e+01 1.385200000000000031e+01 2.541309000000000040e+01 -8.600502867552552166e-02
1.473000000000000043e+01 1.639300000000000068e+01 -6.798099999999999810e+00 2.326213999999999782e+00 4.542113771862853200e-02
1.473399999999999999e+01 1.301399999999999935e+01 1.909600000000000009e+01 -3.131946999999999903e+01 -1.912743022698765866e-02
1.473399999999999999e+01 8.472699999999999676e+00 1.006000000000000050e+01 1.472272999999999943e+00 -1.893480400932016083e-01
1.473900000000000077e+01 8.971000000000000085e+00 9.016699999999999715e-01 -5.446026999999999951e-01 -1.162396973880099188e-01
1.474900000000000055e+01 2.768799999999999883e+01 2.055199999999999960e+01 -2.485910000000000153e+01 -7.708336756741818174e-02
1.474900000000000055e+01 5.799299999999999677e+00 1.180499999999999972e+01 -4.712563000000000168e-01 -1.883511428718303293e-01
1.475200000000000067e+01 3.580400000000000205e+01 1.690599999999999881e+01 -5.351120999999999839e+01 -9.243040805744213995e-02
1.475500000000000078e+01 4.775000000000000000e+01 2.614099999999999824e+01 -2.121873000000000076e+01 -8.738042564400830270e-02
1.477100000000000080e+01 6.372700000000000031e+00 9.187099999999999156e+00 4.224554000000000364e+00 -1.917500067863753821e-01
