-3.593599999999999994e+01 -2.486700000000000021e-01 -2.461599999999999966e+01 2.922569000000000194e+00 -1.705437713879169870e-01
-3.593399999999999750e+01 -9.265700000000000713e+00 -1.529099999999999904e+00 -1.949108999999999980e+00 -2.091951035763340572e-01
-3.592699999999999960e+01 -4.533000000000000362e+00 -2.177000000000000046e+00 -2.027589000000000041e+01 -1.833583071554844568e-01
-3.592699999999999960e+01 -3.240000000000000213e+00 -2.897899999999999920e+00 -6.482793999999999812e+01 -1.854277756540713973e-01
-3.592399999999999949e+01 -1.926500000000000057e+01 -1.648199999999999932e+01 -9.394740000000000535e+00 -1.925625542772609056e-01
-3.592000000000000171e+01 2.484199999999999964e+00 -1.436700000000000088e+01 3.271780000000000244e-01 -1.885421599222677769e-01
-3.590100000000000335e+01 -1.292300000000000004e+01 -5.250000000000000222e-01 -1.281095000000000095e+00 -3.404347455878949935e-01
-3.589600000000000080e+01 2.679300000000000015e+00 -1.622400000000000020e+01 3.511811999999999934e+00 -1.880493450764667007e-01
-3.589600000000000080e+01 2.679300000000000015e+00 -1.517399999999999949e+01 2.898528000000000215e+00 -1.884499528919560130e-01
-3.587299999999999756e+01 -1.201200000000000045e+01 9.667099999999999582e-01 -7.949647999999999826e+00 -3.405719615033074299e-01
-3.587299999999999756e+01 -1.049200000000000088e+01 9.667099999999999582e-01 -3.600697000000000259e+01 -3.392893276519329260e-01
-3.585600000000000165e+01 -1.746399999999999864e+01 -1.826800000000000068e+01 1.068956000000000017e+00 -3.206053344016731588e-01
-3.585499999999999687e+01 1.798999999999999932e+00 -2.155600000000000094e+01 1.430366999999999944e+00 -1.860816879081071407e-01
-3.585099999999999909e+01 -2.052799999999999869e+01 -1.372700000000000031e+01 1.158387999999999973e+00 -1.918912982622201502e-01
-3.584599999999999653e+01 7.843799999999999661e-01 -1.356099999999999994e+01 -5.581915999999999656e+00 -1.863449063290708863e-01
-3.583800000000000097e+01 -1.326699999999999946e+01 -1.074200000000000044e+00 -1.029360999999999970e+00 -3.404006053008685750e-01
-3.582600000000000051e+01 -1.351200000000000045e+01 -1.919999999999999929e+00 -2.832025000000000237e-01 -3.618765833103875229e-01
-3.582500000000000284e+01 4.150599999999999845e-01 -1.223000000000000043e+01 -5.671314999999999884e+00 -1.862244463960648078e-01
-3.581499999999999773e+01 -2.052700000000000102e+01 -1.559200000000000053e+01 -1.926126999999999923e+00 -1.926905419021182619e-01
-3.581400000000000006e+01 -2.081299999999999883e+01 -1.453299999999999947e+01 -6.054810999999999943e-01 -1.923638720446791406e-01
-3.581099999999999994e+01 3.174300000000000122e+00 -2.063500000000000156e+01 5.833002999999999938e-01 -1.874163890398546084e-01
-3.581099999999999994e+01 3.174300000000000122e+00 -1.958500000000000085e+01 1.263423999999999936e-01 -1.876296749859646673e-01
-3.580799999999999983e+01 -1.438899999999999935e+01 -5.902700000000000280e+00 -9.677913000000000487e-02 -3.573286951041678150e-01
-3.580599999999999739e+01 -9.200699999999999434e+00 -9.629999999999999671e-01 -7.273956000000000088e+00 -3.369805935016812470e-01
-3.579899999999999949e+01 -1.513099999999999890e+00 -5.097699999999999676e+00 3.787710000000000132e+00 -1.857556840936783749e-01
-3.579099999999999682e+01 -2.246900000000000119e+01 -8.820999999999999730e+00 1.045087999999999989e-01 -1.900496156567893224e-01
-3.579099999999999682e+01 -2.221499999999999986e+01 -7.927299999999999791e+00 1.718417000000000083e+00 -2.169585601728465374e-01
-3.579099999999999682e+01 -2.076899999999999835e+01 -7.121000000000000441e+00 8.813468000000000302e+00 -2.165730682267620055e-01
-3.578799999999999670e+01 4.809800000000000186e-01 -1.286100000000000065e+01 -1.060151000000000066e+00 -1.860823972392774972e-01
-3.578699999999999903e+01 -8.454599999999999893e-01 -6.697199999999999598e+00 6.419097999999999749e-01 -1.847810994142413121e-01
-3.577600000000000335e+01 -5.467600000000000016e+00 -2.248400000000000176e+01 -9.382348000000000077e-02 -1.703540931163462502e-01
-3.577300000000000324e+01 -5.901500000000000412e+00 -1.643999999999999906e+00 -1.205923999999999996e+00 -2.127378197783365010e-01
-3.577000000000000313e+01 -1.323700000000000010e+01 -5.185999999999999943e+00 6.883727999999999625e+00 -3.582547540942500608e-01
-3.576700000000000301e+01 -6.669500000000000428e-02 -6.900999999999999801e+00 -3.576421999999999990e+00 -1.861480092761688410e-01
-3.576400000000000290e+01 4.969000000000000083e-01 -1.132399999999999984e+01 1.379996999999999918e+00 -1.867407667700149154e-01
-3.576299999999999812e+01 -6.742499999999999716e+00 -2.228399999999999892e+01 6.194351999999999636e-01 -1.705912412284400770e-01
-3.576200000000000045e+01 -3.257399999999999740e-01 -4.291999999999999815e+00 7.229472999999999594e-01 -1.902326957665261553e-01
-3.576200000000000045e+01 1.461699999999999999e+00 -4.291999999999999815e+00 6.843160999999999827e-01 -1.944982436656740865e-01
-3.574799999999999756e+01 -2.248900000000000077e+01 -1.022300000000000075e+01 -4.523030999999999580e+00 -1.908990105987335706e-01
-3.574799999999999756e+01 -2.226200000000000045e+01 -1.102200000000000024e+01 -1.002210999999999963e+00 -1.912448656044242745e-01
-3.574799999999999756e+01 -2.131299999999999883e+01 -1.197100000000000009e+01 2.947763999999999940e-01 -1.913727996398382203e-01
-3.574699999999999989e+01 7.330000000000000071e+00 -2.098600000000000065e+01 -5.286958999999999929e-03 -3.167685235386341058e-01
-3.574499999999999744e+01 -1.247799999999999976e+01 -1.916199999999999903e+01 1.677958999999999978e+00 -3.170355178912484528e-01
-3.573400000000000176e+01 7.030999999999999472e-01 -1.043500000000000050e+01 1.414758999999999878e-01 -1.876055163153564354e-01
-3.572399999999999665e+01 -7.312999999999999723e+00 -8.518900000000000361e-01 5.002144000000000368e+00 -2.115477249410519511e-01
-3.572200000000000131e+01 -1.125200000000000067e+01 -1.988500000000000156e+01 -1.417745000000000033e+00 -3.163340512375498736e-01
-3.572200000000000131e+01 -1.030300000000000082e+01 -2.083399999999999963e+01 3.880238999999999772e-01 -3.159930304562830750e-01
-3.571699999999999875e+01 1.742299999999999960e+00 -1.364100000000000001e+01 -1.015889999999999915e+01 -1.877327183696756718e-01
-3.569100000000000250e+01 4.267100000000000060e-02 -5.142000000000000348e+00 3.295310999999999879e+00 -1.893826374387810041e-01
-3.569100000000000250e+01 4.267100000000000060e-02 -3.442000000000000171e+00 7.432151000000000174e+00 -1.930500855143975902e-01
-3.569100000000000250e+01 1.093299999999999939e+00 -5.142000000000000348e+00 4.689195999999999920e+00 -1.918187959923047248e-01
-3.569100000000000250e+01 1.093299999999999939e+00 -3.442000000000000171e+00 3.031248000000000165e+00 -1.956737659884543734e-01
-3.569100000000000250e+01 -9.869699999999999918e+00 -2.144800000000000040e+01 7.400727000000000277e-01 -3.159510180352149145e-01
-3.566499999999999915e+01 2.304800000000000182e+00 -1.708899999999999864e+01 9.708411999999999598e-01 -1.872769236732987896e-01
-3.566199999999999903e+01 -1.928200000000000003e+01 -6.766000000000000014e+00 6.943375000000000341e+01 -2.163560467779888641e-01
-3.565599999999999881e+01 -8.131999999999999673e+00 -2.311100000000000065e+01 3.854242000000000168e+00 -3.153822272904293067e-01
-3.563300000000000267e+01 -1.125999999999999890e+00 -5.841999999999999638e+00 6.750815000000000232e+00 -1.852951750202691816e-01
-3.562599999999999767e+01 -1.658800000000000097e+01 -1.914000000000000057e+01 8.896868999999999472e-01 -3.204617952608538323e-01
-3.561200000000000188e+01 -9.507300000000000750e+00 -2.219000000000000128e+01 2.941148999999999791e+00 -3.160512697770651025e-01
-3.560399999999999920e+01 -8.389300000000000423e+00 -9.140300000000000091e-01 -2.080623000000000056e-01 -2.100856178547561015e-01
-3.560099999999999909e+01 -6.028900000000000148e+00 -2.236499999999999844e+01 1.856986999999999943e-01 -1.704431618676679472e-01
-3.559799999999999898e+01 -2.707399999999999807e+00 -2.836400000000000077e+01 1.046337999999999956e-02 -1.724113607555595173e-01
-3.559499999999999886e+01 2.722300000000000164e+00 -2.153399999999999892e+01 1.251101999999999936e+00 -1.868309761355686771e-01
-3.559000000000000341e+01 -7.770500000000000185e-01 -5.097699999999999676e+00 3.454374000000000056e+00 -1.873997030081835935e-01
-3.558400000000000318e+01 -1.970299999999999940e+01 -1.588599999999999923e+01 -5.901171999999999862e+00 -1.926568498724578749e-01
-3.558200000000000074e+01 -1.145999999999999908e+00 -2.823000000000000043e+01 -1.428349000000000046e+01 -1.721465354177421081e-01
-3.556199999999999761e+01 -5.232999999999999652e+00 -2.020799999999999930e+00 -1.224812999999999974e+01 -2.131319768544440163e-01
-3.553699999999999903e+01 2.763399999999999856e+00 -1.869699999999999918e+01 2.633166000000000118e+00 -1.873579561772626967e-01
-3.553399999999999892e+01 -1.159599999999999964e+00 -4.286500000000000199e+00 2.697007999999999850e+00 -1.879465045819517788e-01
-3.552799999999999869e+01 -1.482799999999999940e+01 -1.931200000000000117e+01 6.155236999999999625e+00 -3.192754891969362685e-01
-3.552000000000000313e+01 6.530899999999999928e+00 -2.098600000000000065e+01 -1.695472000000000090e+00 -3.169756559323225753e-01
-3.552000000000000313e+01 8.129099999999999326e+00 -2.098600000000000065e+01 -9.210544000000000509e+00 -1.774992147666094033e-01
-3.551500000000000057e+01 -2.122700000000000031e+00 -4.280999999999999694e+00 4.958172000000000246e+00 -1.853636612889612845e-01
-3.551100000000000279e+01 6.023399999999999865e-01 -2.241700000000000159e+01 2.363369000000000053e+00 -1.849537773418707398e-01
-3.550200000000000244e+01 -1.280400000000000027e+01 -4.485999999999999766e+00 5.731611000000000011e+00 -3.591200287146559811e-01
-3.550200000000000244e+01 -1.280400000000000027e+01 -3.620800000000000018e+00 6.053651999999999589e+00 -3.601548401690865542e-01
-3.549699999999999989e+01 -3.741999999999999993e+00 -2.789799999999999969e+01 3.059031999999999862e-01 -1.724244668370243927e-01
-3.549399999999999977e+01 -2.749099999999999877e+00 -3.294500000000000206e+00 -5.113052999999999848e+00 -1.855187173447156168e-01
-3.549099999999999966e+01 -1.877400000000000091e+01 -1.687900000000000134e+01 -1.250815000000000010e+00 -1.927667440546784461e-01
-3.547500000000000142e+01 -5.047900000000000276e+00 -2.320499999999999829e+01 -1.772038999999999920e+00 -1.706515957019170970e-01
-3.545700000000000074e+01 -3.773000000000000131e+00 -2.467299999999999827e+00 -6.937120000000000175e+01 -1.842179334832430015e-01
-3.545700000000000074e+01 6.860299999999999621e+00 -2.022599999999999909e+01 -5.717913000000000023e-01 -3.170796103538766619e-01
-3.545700000000000074e+01 7.799699999999999633e+00 -2.174599999999999866e+01 -1.861125999999999892e-01 -1.779690540011975297e-01
-3.545700000000000074e+01 7.799699999999999633e+00 -2.022599999999999909e+01 -5.927878999999999898e+00 -3.168395691836109473e-01
-3.544899999999999807e+01 -1.736400000000000077e+01 -6.620899999999999785e+00 -2.058115000000000094e+01 -3.560818977897660664e-01
-3.542399999999999949e+01 -3.899500000000000188e-01 -5.841999999999999638e+00 2.272968999999999795e+00 -1.868717374368851214e-01
-3.541899999999999693e+01 -1.325399999999999956e+01 -1.920899999999999963e+01 3.648744000000000209e+00 -3.180197903964022688e-01
-3.540599999999999881e+01 -1.642299999999999827e+01 -6.666699999999999626e+00 -3.121740000000000137e+01 -3.562003019889626865e-01
-3.540299999999999869e+01 -1.125200000000000067e+01 1.256999999999999895e+00 -3.540827999999999776e+01 -3.405384961802714883e-01
-3.540299999999999869e+01 -9.958999999999999631e+00 5.361099999999999755e-01 -2.755974000000000146e+01 -3.388994056346484318e-01
-3.540299999999999869e+01 -9.634100000000000108e+00 -2.010899999999999910e-01 -2.252803000000000111e+01 -3.381278396498251793e-01
-3.539300000000000068e+01 -1.704500000000000171e+01 -1.896000000000000085e+01 5.886481999999999548e-01 -3.209698525257481672e-01
-3.537599999999999767e+01 -2.006899999999999906e+01 -6.971599999999999575e+00 1.957547999999999888e+01 -2.164793386225239424e-01
-3.537599999999999767e+01 1.098999999999999977e+00 -2.195899999999999963e+01 2.326427999999999940e+00 -1.853421849009590783e-01
-3.536999999999999744e+01 9.273700000000000276e-01 -9.613300000000000622e+00 -8.641885000000000261e-01 -1.884867616256825640e-01
-3.536999999999999744e+01 9.273700000000000276e-01 -7.944700000000000095e+00 -8.991728999999999417e+00 -1.863840653184461460e-01
-3.535999999999999943e+01 -2.092500000000000071e+01 -1.329400000000000048e+01 1.320848999999999940e+00 -1.920887120432094308e-01
-3.535999999999999943e+01 1.282299999999999995e+00 -1.301500000000000057e+01 -4.089202000000000226e+00 -1.871633141147410195e-01
-3.535499999999999687e+01 -6.463000000000000078e+00 -9.226699999999999902e-01 2.475750000000000117e+00 -2.121598172502809354e-01
-3.535399999999999920e+01 -1.365399999999999991e+01 -5.462299999999999933e+00 5.530081000000000024e+00 -3.578595057866421625e-01
-3.534799999999999898e+01 -1.173900000000000077e+01 -1.932499999999999929e+01 -3.689073000000000047e+00 -3.167825635532462991e-01
-3.533400000000000318e+01 6.333100000000000396e-01 -7.168300000000000338e+00 -3.195463000000000164e+00 -1.869174828317940185e-01
-3.533400000000000318e+01 6.333100000000000396e-01 -5.768299999999999983e+00 2.297887999999999931e+00 -1.893812129354795482e-01
-3.533100000000000307e+01 -1.831400000000000006e+01 -1.794300000000000139e+01 3.516236000000000139e+00 -1.930601223476861861e-01
-3.532900000000000063e+01 -2.345699999999999896e+00 -3.591800000000000104e+00 -2.091717000000000048e+00 -1.858831007050968653e-01
-3.532900000000000063e+01 -4.682699999999999640e+00 -2.399699999999999989e+01 9.464023000000000296e-01 -1.709797827271415938e-01
-3.532900000000000063e+01 -4.567000000000000171e+00 -2.493299999999999983e+01 3.987550000000000150e+00 -1.713992457259749802e-01
-3.532900000000000063e+01 -4.448999999999999844e+00 -2.578000000000000114e+01 1.752733000000000096e+00 -1.717474484732475493e-01
-3.532800000000000296e+01 6.692099999999999937e+00 -2.185600000000000165e+01 1.005310999999999982e-01 -3.167672757943779671e-01
-3.532300000000000040e+01 -2.121000000000000085e+01 -1.409999999999999964e+01 2.808940999999999910e+00 -1.925760561948338112e-01
-3.531099999999999994e+01 1.060999999999999943e+00 -8.778999999999999915e+00 -1.144148000000000032e+01 -1.894494992365383657e-01
-3.531000000000000227e+01 -2.100600000000000023e+01 -1.498600000000000065e+01 3.464396999999999949e+00 -1.928806252451329972e-01
-3.530499999999999972e+01 -1.340399999999999991e+01 3.289999999999999739e-04 -1.119985999999999926e+00 -3.415119297800009446e-01
-3.530199999999999960e+01 9.789099999999999469e-01 -1.231499999999999950e+01 2.288660999999999890e-01 -1.869410354580695321e-01
-3.529599999999999937e+01 -1.374499999999999922e+01 -6.794400000000000439e-01 -8.698443999999999621e-01 -3.413295352109686487e-01
-3.529200000000000159e+01 -6.762899999999999467e-01 -2.746999999999999886e+01 -2.544888999999999868e+01 -1.718293334319251631e-01
-3.528799999999999670e+01 -5.802800000000000180e-01 -2.667399999999999949e+01 -5.096838999999999942e+01 -1.715054592782875864e-01
-3.528799999999999670e+01 -5.802800000000000180e-01 -2.580900000000000105e+01 -1.271062000000000047e+01 -1.711423030636692322e-01
-3.528699999999999903e+01 -8.981999999999999318e+00 -2.303999999999999915e+01 2.804959000000000202e+00 -3.162156656242950392e-01
-3.528699999999999903e+01 -7.282000000000000028e+00 -2.303999999999999915e+01 1.049074000000000062e+00 -1.711793589764543932e-01
-3.527900000000000347e+01 -2.182799999999999940e+01 -1.151299999999999990e+01 -2.323735999999999802e+00 -1.915723968130132737e-01
-3.527600000000000335e+01 3.299099999999999810e-01 -6.468300000000000161e+00 -2.377027999999999919e-01 -1.873612104732616523e-01
-3.526599999999999824e+01 -2.161899999999999977e+01 -7.445700000000000429e+00 6.698419999999999597e+00 -2.167522911788715978e-01
-3.525900000000000034e+01 -8.434500000000000330e-01 -3.637999999999999901e+00 3.701607000000000092e+00 -1.900471988785282507e-01
-3.525200000000000244e+01 -1.071899999999999942e+01 -2.031599999999999895e+01 -4.497350999999999988e-01 -3.164414436645223150e-01
-3.523599999999999710e+01 -1.876600000000000046e+00 -2.839799999999999969e+01 -5.631952999999999543e-01 -1.723318144415984798e-01
-3.522999999999999687e+01 -1.399300000000000033e+01 -2.445300000000000029e+00 -4.141280999999999990e-01 -3.612924353738576899e-01
-3.522999999999999687e+01 -1.399300000000000033e+01 -1.394700000000000051e+00 -5.341234000000000259e-01 -3.625457435662980399e-01
-3.521800000000000352e+01 -1.501500000000000057e+01 -6.259900000000000020e+00 -5.529510000000000147e+00 -3.567777797009510365e-01
-3.521600000000000108e+01 1.144500000000000073e+00 -1.183099999999999952e+01 3.522479999999999833e+00 -1.874434474104017534e-01
-3.521000000000000085e+01 5.679999999999999494e-01 -2.845899999999999874e+00 3.937912999999999997e+00 -1.960026919577109727e-01
-3.520100000000000051e+01 1.916499999999999870e-01 -2.315500000000000114e+01 8.893689000000000178e+00 -1.845618292140205896e-01
-3.519200000000000017e+01 2.592299999999999827e+00 -1.396599999999999930e+01 -5.310541999999999874e+00 -1.887250518943251187e-01
-3.516599999999999682e+01 1.943300000000000027e+00 -4.817300000000000360e+00 5.322212000000000387e+00 -1.944088255665514797e-01
-3.516599999999999682e+01 1.943300000000000027e+00 -3.766700000000000159e+00 5.231440000000000090e+00 -1.960854154622361789e-01
-3.515299999999999869e+01 -1.568500000000000050e+01 -6.712399999999999700e+00 -9.609166999999999348e+00 -3.562230817116319725e-01
-3.515100000000000335e+01 -1.921199999999999974e+01 -1.628300000000000125e+01 -2.061294000000000182e+00 -1.928752385802365577e-01
-3.514200000000000301e+01 2.931599999999999984e+00 -2.179799999999999827e+01 -6.134779000000000204e-01 -1.868900843878770757e-01
-3.513499999999999801e+01 -1.207799999999999940e+01 1.209400000000000031e+00 -1.305104000000000042e+01 -3.414509187400920354e-01
-3.511099999999999710e+01 -4.503599999999999604e+00 -2.299399999999999888e+00 -1.219417999999999935e+01 -1.819355379768251013e-01
-3.510799999999999699e+01 1.060300000000000020e+00 -1.084099999999999930e+01 2.642047000000000168e+01 -1.878161916696800826e-01
-3.510099999999999909e+01 -1.573799999999999955e+01 -1.946499999999999986e+01 6.196970000000000534e-01 -3.204427653336001658e-01
-3.509899999999999665e+01 2.865800000000000125e+00 -1.481900000000000084e+01 2.041449000000000069e+00 -1.886864703876781346e-01
-3.509499999999999886e+01 -1.685300000000000153e+01 -7.412399999999999878e+00 -2.126702999999999832e+01 -2.166196351662004749e-01
-3.509499999999999886e+01 -1.598799999999999955e+01 -7.412399999999999878e+00 -2.368466000000000093e+01 -3.555442770090066484e-01
-3.508700000000000330e+01 -1.322100000000000009e+01 -4.762299999999999756e+00 3.005030000000000090e+00 -3.587234586507565548e-01
-3.508599999999999852e+01 6.040199999999999569e+00 -2.145499999999999829e+01 -9.076819999999999888e-01 -3.170168517176398248e-01
-3.508599999999999852e+01 -1.778899999999999926e-01 -2.498499999999999943e+01 2.462337999999999916e+00 -1.707353399231181790e-01
-3.508599999999999852e+01 7.599999999999999811e-02 -2.409100000000000108e+01 4.613641000000000325e+00 -1.844930691317758498e-01
-3.507600000000000051e+01 3.614700000000000024e+00 -2.010999999999999943e+01 2.184448999999999974e-01 -1.878013398264430367e-01
-3.507200000000000273e+01 1.798999999999999932e+00 -2.190099999999999980e+01 4.254866999999999955e+00 -1.858786246691755406e-01
-3.506900000000000261e+01 -4.524399999999999977e+00 -2.655199999999999960e+01 7.230054999999999676e-01 -1.721035845250100116e-01
-3.506700000000000017e+01 3.340599999999999792e+00 -2.102199999999999847e+01 1.094098999999999933e+00 -1.873592453093073928e-01
-3.506400000000000006e+01 9.592699999999999561e-01 -1.002100000000000080e+01 4.802610999999999963e-01 -1.881437734902577374e-01
-3.504800000000000182e+01 -2.137199999999999989e+01 -1.314000000000000057e+01 8.940462999999999605e-01 -1.923512033051894277e-01
-3.504800000000000182e+01 -2.137199999999999989e+01 -1.227399999999999913e+01 -7.798943000000000403e-01 -1.919194230008167690e-01
-3.504599999999999937e+01 2.540999999999999925e+00 -1.732900000000000063e+01 -1.520475999999999939e+00 -1.873384231502152053e-01
-3.504599999999999937e+01 2.750100000000000211e+00 -1.659299999999999997e+01 1.994072999999999851e+01 -1.878164420537386803e-01
-3.504599999999999937e+01 3.004000000000000004e+00 -1.569899999999999984e+01 4.128081000000000245e+01 -1.884762190936149773e-01
-3.504200000000000159e+01 -5.747899999999999565e+00 -2.293700000000000117e+01 4.675082999999999878e-01 -1.707114580746276755e-01
-3.503399999999999892e+01 -1.356099999999999994e+01 -3.331500000000000128e+00 8.165574000000000443e-02 -3.603968015227140831e-01
-3.502600000000000335e+01 7.330000000000000071e+00 -1.969300000000000139e+01 2.428903000000000034e+00 -3.171309121532366881e-01
-3.502499999999999858e+01 -3.182999999999999829e+00 -2.803799999999999848e+00 -4.159595999999999627e+00 -1.846755806368660657e-01
-3.501100000000000279e+01 -1.319999999999999929e+01 -4.053399999999999892e+00 2.738980000000000192e+00 -3.595954657564032764e-01
-3.500800000000000267e+01 -3.197299999999999809e+00 -2.846300000000000097e+01 8.129745000000000443e-01 -1.725776744209169544e-01
-3.500600000000000023e+01 -1.778900000000000148e+01 -1.879299999999999926e+01 5.517164000000000179e+00 -1.933209038792371437e-01
-3.498799999999999955e+01 -2.219900000000000162e+01 -1.069299999999999962e+01 -1.743279999999999941e+00 -1.914226384546062754e-01
-3.498700000000000188e+01 6.100299999999999834e+00 -2.051599999999999824e+01 -3.227694999999999870e-01 -3.172424504608057361e-01
-3.498700000000000188e+01 8.559699999999999420e+00 -2.145599999999999952e+01 -1.085243999999999964e+01 -1.780065595789988575e-01
-3.498700000000000188e+01 8.559699999999999420e+00 -2.051599999999999824e+01 -1.312973999999999997e+01 -1.775431854566739964e-01
-3.497999999999999687e+01 -5.795399999999999885e+00 -1.514199999999999990e+00 1.257462000000000080e+00 -2.120397173429692528e-01
-3.496999999999999886e+01 -1.287500000000000000e+01 1.018799999999999928e+00 -2.171987999999999808e+00 -3.420679100008000573e-01
-3.496999999999999886e+01 -9.143100000000000449e+00 -5.976900000000000546e-01 -8.425470000000000681e+00 -3.375754618534895224e-01
-3.496999999999999886e+01 1.511300000000000088e+00 -5.703500000000000014e+00 4.803449999999999775e+00 -1.914105246537296801e-01
-3.496099999999999852e+01 3.245099999999999874e+00 -1.921600000000000108e+01 4.580772999999999762e+00 -1.876192354435610166e-01
-3.495600000000000307e+01 -4.418000000000000149e+00 -2.751699999999999946e+01 -6.593082000000000109e-01 -1.724628889686754818e-01
-3.494700000000000273e+01 1.150500000000000078e+00 -6.425399999999999778e+00 3.780009000000000174e+00 -1.891163894397109302e-01
-3.494700000000000273e+01 -5.115300000000000402e+00 -2.329700000000000060e+01 -1.296410000000000062e+00 -1.707483361161477586e-01
-3.494100000000000250e+01 -2.214399999999999835e+01 -8.295700000000000074e+00 1.944528999999999952e+00 -1.899184577467807611e-01
-3.493299999999999983e+01 -1.049200000000000088e+01 9.667099999999999582e-01 -8.470047999999999888e+01 -3.401149946015628589e-01
-3.492099999999999937e+01 -1.758699999999999974e+01 -7.023600000000000065e+00 -2.606888999999999790e+00 -2.164220162899226363e-01
-3.491100000000000136e+01 -2.082199999999999918e+01 -7.259199999999999875e+00 8.663731000000000293e+00 -2.166474383324552555e-01
-3.489800000000000324e+01 -1.565399999999999903e+00 -3.660800000000000054e+00 -1.430429000000000006e-01 -1.876092620746572515e-01
-3.487899999999999778e+01 -1.125600000000000023e+01 -1.964900000000000091e+01 -1.779657999999999962e+00 -3.168924043566167525e-01
-3.487100000000000222e+01 -2.226200000000000045e+01 -9.367499999999999716e+00 -4.636724000000000068e+00 -1.907122209627236109e-01
-3.486699999999999733e+01 2.067000000000000171e+00 -1.311599999999999966e+01 -1.070195999999999925e+00 -1.882541710167850435e-01
-3.486299999999999955e+01 -1.406400000000000006e+01 -1.902499999999999858e+01 1.734701999999999966e+00 -3.191706921641530026e-01
-3.484100000000000108e+01 -2.819999999999999729e-01 -2.916700000000000070e+00 1.492853999999999992e+01 -1.933868085961930605e-01
-3.484100000000000108e+01 1.417999999999999927e+00 -2.916700000000000070e+00 7.675041000000000224e+00 -1.982342052855363412e-01
-3.482999999999999829e+01 5.701299999999999812e+00 -2.185200000000000031e+01 6.641228999999999605e-01 -3.170167401488981906e-01
-3.482999999999999829e+01 -7.312999999999999723e+00 -5.979999999999999760e-01 5.891542000000000306e-02 -2.105693421450689495e-01
-3.481600000000000250e+01 -1.242600000000000016e+01 -1.899599999999999866e+01 2.370587000000000000e+00 -3.177182989641718636e-01
-3.481499999999999773e+01 -1.928200000000000003e+01 -6.884000000000000341e+00 3.468704999999999927e+01 -2.164000734344204147e-01
-3.480899999999999750e+01 -1.155000000000000071e+01 1.411000000000000032e+00 -2.542462000000000089e+01 -3.414829495490153133e-01
-3.478799999999999670e+01 -1.450000000000000000e+01 -5.824799999999999756e+00 2.224730000000000096e+00 -3.572362735758196073e-01
-3.477600000000000335e+01 6.964799999999999880e-01 -2.280499999999999972e+01 5.252488999999999741e+00 -1.848525796602382976e-01
-3.476200000000000045e+01 -9.832000000000000739e+00 -2.166499999999999915e+01 9.372823000000000127e-01 -3.166726962793801059e-01
-3.476200000000000045e+01 -9.578099999999999170e+00 -2.255900000000000105e+01 3.115032999999999941e+00 -3.168369659816390738e-01
-3.476200000000000045e+01 -8.131999999999999673e+00 -2.336499999999999844e+01 1.671103000000000005e+00 -3.160329582257036529e-01
-3.476200000000000045e+01 -6.502200000000000202e+00 -2.290200000000000102e+01 1.016852000000000089e+00 -1.709246397360129621e-01
-3.475900000000000034e+01 6.069700000000000095e+00 -2.270200000000000173e+01 1.768056999999999990e+00 -3.167591414777294334e-01
-3.475900000000000034e+01 7.120300000000000296e+00 -2.270200000000000173e+01 1.456002999999999985e-02 -1.774826747489412493e-01
-3.475699999999999790e+01 -2.036899999999999977e+01 -1.566200000000000081e+01 -9.813404999999999490e-01 -1.932489011089888742e-01
-3.475500000000000256e+01 -1.343199999999999950e+00 -2.784299999999999997e+01 -5.194726000000000177e+00 -1.720976434637586650e-01
-3.473199999999999932e+01 3.416100000000000136e+00 -2.225499999999999901e+01 -2.167374999999999996e-01 -1.871688814246067201e-01
-3.473100000000000165e+01 -4.498400000000000176e+00 -2.385099999999999909e+01 -9.310683999999999627e-02 -1.709067725471745403e-01
-3.472899999999999920e+01 -1.150300000000000011e+01 -1.894200000000000017e+01 -2.572951000000000210e+00 -3.168869492344856265e-01
-3.472699999999999676e+01 -2.169099999999999895e+01 -1.462500000000000000e+01 1.257901999999999909e-01 -1.932914528220170403e-01
-3.472699999999999676e+01 -2.169099999999999895e+01 -1.357499999999999929e+01 5.195454000000000461e-01 -1.928507330617337534e-01
-3.471000000000000085e+01 2.365299999999999958e+00 -2.233999999999999986e+01 -2.140711999999999893e-01 -1.862582319847317369e-01
-3.469800000000000040e+01 -1.642099999999999937e+01 -7.903299999999999770e+00 -1.657017000000000095e+01 -2.168844832298463532e-01
-3.469700000000000273e+01 6.570000000000000284e+00 -1.975600000000000023e+01 1.358408000000000015e+01 -3.173552178177895811e-01
-3.469700000000000273e+01 8.089999999999999858e+00 -2.221600000000000108e+01 -1.225395999999999930e+00 -1.786292219164558881e-01
-3.469700000000000273e+01 8.089999999999999858e+00 -1.975600000000000023e+01 -3.559590000000000032e+00 -1.774539840730093576e-01
-3.468999999999999773e+01 1.412099999999999911e+00 -7.646600000000000286e+00 5.652712000000000181e+00 -1.913447815641327321e-01
-3.468999999999999773e+01 1.412099999999999911e+00 -6.781399999999999650e+00 7.180102999999999902e+00 -1.889023092433348427e-01
-3.468299999999999983e+01 -2.158999999999999986e+01 -1.275500000000000078e+01 -9.977878000000000025e-01 -1.924549964192393270e-01
-3.466199999999999903e+01 -1.528800000000000026e+01 -7.145100000000000229e+00 -8.787421000000000149e+00 -3.557469967128967792e-01
-3.465999999999999659e+01 -3.774099999999999788e+00 -2.577999999999999847e+00 -1.008148000000000089e+01 -1.827704996463300757e-01
-3.465999999999999659e+01 -3.939000000000000057e+00 -2.829200000000000159e+01 9.793049999999999811e-01 -1.726824426676876745e-01
-3.465299999999999869e+01 -2.126200000000000045e+01 -1.550099999999999945e+01 -3.491658000000000261e-01 -1.935328341224783200e-01
-3.464699999999999847e+01 -9.947699999999999321e+00 -2.072899999999999920e+01 1.894374000000000002e+00 -3.164238143917834645e-01
-3.464300000000000068e+01 -1.002200000000000024e+01 2.067100000000000048e-01 -3.608689999999999998e+01 -3.394074035853181792e-01
-3.463700000000000045e+01 -2.350800000000000001e+00 -2.842899999999999849e+01 2.811446999999999807e+00 -1.724675705026669503e-01
-3.461800000000000210e+01 -1.397899999999999920e+01 -5.051700000000000301e+00 -8.481543000000000276e-01 -3.581954255000478482e-01
-3.461800000000000210e+01 -1.980699999999999861e+01 -6.965300000000000047e+00 6.647115000000000329e+00 -2.164616511645436892e-01
-3.461099999999999710e+01 1.328400000000000025e+00 -8.346399999999999153e+00 6.499310999999999616e+00 -1.903312517576315199e-01
-3.460300000000000153e+01 -1.898699999999999832e+01 -1.651399999999999935e+01 -1.571949000000000041e+00 -1.931918804075591356e-01
-3.458500000000000085e+01 4.011300000000000310e+00 -2.061400000000000077e+01 -1.676895999999999942e+00 -1.879789950787784103e-01
-3.457600000000000051e+01 3.737200000000000077e+00 -2.145499999999999829e+01 -6.938598999999999961e+00 -1.875523006122199743e-01
-3.457600000000000051e+01 5.209299999999999820e+00 -2.145499999999999829e+01 4.107845000000000191e+00 -3.172366239993435477e-01
-3.457600000000000051e+01 -1.488799999999999990e+01 -1.914000000000000057e+01 3.011308999999999791e-01 -3.202011848699697905e-01
-3.454999999999999716e+01 -1.828800000000000026e+01 -7.075999999999999623e+00 7.348113999999999812e+00 -2.164668803238471995e-01
-3.453399999999999892e+01 -1.119699999999999918e+00 -2.698799999999999955e+01 -1.386661999999999928e+01 -1.717547770182817901e-01
-3.452799999999999869e+01 3.736000000000000210e+00 -1.961299999999999955e+01 1.789652000000000021e+00 -1.879424865117753085e-01
-3.452799999999999869e+01 -6.309000000000000163e-01 -2.549299999999999855e+01 8.560888999999999527e+00 -1.710511497831946337e-01
-3.452499999999999858e+01 -1.325399999999999956e+01 -1.895499999999999829e+01 1.540027999999999953e+00 -3.187467239175599265e-01
-3.450900000000000034e+01 1.381399999999999961e+00 -2.246499999999999986e+01 2.412399000000000182e+00 -1.853647142457792163e-01
-3.449900000000000233e+01 4.222100000000000186e+00 -2.225000000000000000e+01 -5.523907999999999596e-01 -1.878147663596298478e-01
-3.449799999999999756e+01 -1.685000000000000142e+01 -1.925199999999999889e+01 2.073878999999999861e-01 -3.218332373717662787e-01
-3.448100000000000165e+01 -1.863899999999999935e+01 -1.741799999999999926e+01 6.870237999999999623e+00 -1.934581998733485575e-01
-3.448100000000000165e+01 -1.838500000000000156e+01 -1.831200000000000117e+01 4.641263000000000361e+00 -1.936520799682246996e-01
-3.447500000000000142e+01 -1.384999999999999964e+01 -3.721200000000000063e-01 -4.319250000000000034e-01 -3.642700629497103160e-01
-3.447200000000000131e+01 -2.156599999999999895e+01 -1.191799999999999926e+01 -2.721384000000000025e+00 -1.921364158934285582e-01
-3.446300000000000097e+01 -4.931000000000000050e+00 -2.315099999999999980e+01 -9.678390000000000271e+00 -1.706592694722035841e-01
-3.446300000000000097e+01 -1.374200000000000088e+01 -4.431700000000000195e+00 -3.107691000000000203e-01 -3.590047223142119326e-01
-3.445700000000000074e+01 -5.338700000000000223e+00 -2.085599999999999898e+00 2.843881000000000103e+00 -2.114116062284500663e-01
-3.445700000000000074e+01 -4.393299999999999983e+00 -2.540099999999999980e+01 5.709511000000000003e+00 -1.716507005099416894e-01
-3.445499999999999829e+01 -2.176800000000000068e+01 -1.022300000000000075e+01 -1.141141999999999967e+01 -1.912404873691611329e-01
-3.444400000000000261e+01 -1.095899999999999963e+01 1.185200000000000031e+00 -2.677759000000000000e+01 -3.412263323339670973e-01
-3.444100000000000250e+01 -2.819999999999999840e+00 -2.967000000000000082e+00 -1.123897000000000013e+01 -1.846520695280207680e-01
-3.443999999999999773e+01 4.254900000000000126e+00 -2.006599999999999895e+01 2.482139000000000095e+00 -1.883248867432076867e-01
-3.443599999999999994e+01 5.155499999999999972e+00 -2.237500000000000000e+01 1.946558999999999928e+00 -3.170310273119587574e-01
-3.443299999999999983e+01 -1.417999999999999972e+01 -2.799799999999999844e+00 -7.530428000000000122e-01 -3.609750441186908576e-01
-3.443099999999999739e+01 -1.355499999999999972e+01 5.745700000000000252e-01 -2.727200999999999986e+00 -3.428003350134988803e-01
-3.442699999999999960e+01 2.304800000000000182e+00 -1.708899999999999864e+01 3.100353999999999832e+00 -1.869556180537961521e-01
-3.442000000000000171e+01 -2.150000000000000000e+01 -1.098199999999999932e+01 -1.410490000000000066e+01 -1.916043530560872232e-01
-3.441599999999999682e+01 -1.049499999999999922e+01 -1.990399999999999991e+01 -7.135178999999999938e+00 -3.166943480911079689e-01
-3.440299999999999869e+01 2.792100000000000026e+00 -1.870799999999999841e+01 1.211639000000000088e+01 -1.871333718377897193e-01
-3.439500000000000313e+01 -1.712099999999999866e+01 -7.845100000000000406e+00 -1.057906999999999931e+00 -2.168727853691440333e-01
-3.439500000000000313e+01 -1.572100000000000009e+01 -7.845100000000000406e+00 -1.773292000000000002e+01 -3.549722094316805632e-01
-3.438100000000000023e+01 -2.308300000000000018e+00 -3.273899999999999810e+00 -6.465311999999999948e+00 -1.855634796151891530e-01
-3.438100000000000023e+01 -9.083400000000000363e-01 -3.273899999999999810e+00 5.238266999999999562e+00 -1.902584577198339622e-01
-3.438000000000000256e+01 -1.431799999999999962e+01 -1.919999999999999929e+00 -6.331369999999999498e-01 -3.620775831884173179e-01
-3.438000000000000256e+01 -1.406400000000000006e+01 -1.026299999999999990e+00 3.255364000000000035e-01 -3.633718593328434388e-01
-3.437599999999999767e+01 4.747300000000000075e+00 -2.061400000000000077e+01 3.138571999999999917e+00 -3.175813805246276433e-01
-3.437599999999999767e+01 -9.589700000000000557e+00 -4.932900000000000063e-01 -1.636796000000000006e+01 -3.386229592204430539e-01
-3.436899999999999977e+01 2.129799999999999915e+00 -5.171800000000000175e+00 6.695537999999999990e+00 -3.301059131506233202e-01
-3.436699999999999733e+01 4.473300000000000054e+00 -2.145499999999999829e+01 -1.906368999999999980e+00 -1.881751960865691575e-01
-3.434499999999999886e+01 -2.166300000000000026e+01 -8.820999999999999730e+00 9.607244999999999813e-01 -1.903131070865450858e-01
-3.434400000000000119e+01 -2.140099999999999980e+01 -7.946500000000000341e+00 1.993984999999999985e+01 -1.895308991009900523e-01
-3.434300000000000352e+01 2.055700000000000027e-01 -2.320100000000000051e+01 1.955858999999999881e+01 -1.843577600644284997e-01
-3.434199999999999875e+01 1.655899999999999928e+00 -1.258999999999999986e+01 8.003495000000000470e-01 -1.876571123629096616e-01
-3.434199999999999875e+01 2.663100000000000023e+00 -1.359699999999999953e+01 1.821957000000000093e+01 -1.888349749053777615e-01
-3.434199999999999875e+01 2.916999999999999815e+00 -1.449099999999999966e+01 1.187596000000000096e+00 -1.887543504579141107e-01
-3.434100000000000108e+01 -1.230899999999999928e+01 1.584999999999999964e+00 -6.231006999999999962e+00 -3.427071517258912237e-01
-3.433599999999999852e+01 -1.079299999999999926e+01 -1.914499999999999957e+01 -9.383943999999999619e+00 -3.166431913293203948e-01
-3.433299999999999841e+01 -1.193500000000000050e+01 -1.845100000000000051e+01 -8.840141999999999722e-01 -3.174114760759751963e-01
-3.433100000000000307e+01 2.936300000000000132e+00 -2.298100000000000165e+01 -2.204187999999999981e-01 -1.866086826713767022e-01
-3.433100000000000307e+01 3.875700000000000145e+00 -2.298100000000000165e+01 -3.662328999999999724e-01 -1.873808074446823291e-01
-3.432999999999999829e+01 -1.386599999999999966e+01 -3.668400000000000105e+00 -8.042631000000000085e-01 -3.599620220863317677e-01
-3.431600000000000250e+01 5.679999999999999494e-01 -2.592000000000000082e+00 4.719695999999999891e+00 -1.970444185367717094e-01
-3.431600000000000250e+01 2.014100000000000001e+00 -3.398299999999999876e+00 1.201493999999999929e+01 -1.976211745137175790e-01
-3.431600000000000250e+01 2.267999999999999794e+00 -4.291999999999999815e+00 8.662262000000000128e+00 -1.959379873405121264e-01
-3.431099999999999994e+01 1.246799999999999908e+00 -1.048600000000000065e+01 1.094806999999999952e+01 -1.881455699965541017e-01
-3.430799999999999983e+01 -2.137800000000000011e+01 -9.626699999999999591e+00 -3.702020000000000266e+01 -1.907425856419726340e-01
-3.430499999999999972e+01 -6.463000000000000078e+00 -9.226699999999999902e-01 -2.731701000000000157e+00 -2.106156024506309898e-01
-3.429999999999999716e+01 1.415899999999999936e+00 -1.160999999999999943e+01 9.634320999999999913e+00 -1.877449615979114306e-01
-3.428499999999999659e+01 -1.097599999999999909e+00 -2.598100000000000165e+01 1.681553999999999860e+01 -1.713476691704903521e-01
-3.427799999999999869e+01 6.594999999999999751e+00 -2.329799999999999827e+01 3.872519000000000045e+00 -1.767489160449486896e-01
-3.426100000000000279e+01 2.237999999999999989e+00 -1.810099999999999909e+01 -2.876456000000000124e+00 -1.865960004014586837e-01
-3.424799999999999756e+01 -4.600999999999999979e+00 -2.620700000000000074e+01 1.233969000000000094e+00 -1.720651215283526825e-01
-3.423700000000000188e+01 -8.981999999999999318e+00 -2.303999999999999915e+01 2.367293000000000092e+00 -3.169128685268448042e-01
-3.423700000000000188e+01 -7.282000000000000028e+00 -2.303999999999999915e+01 1.496976000000000084e+00 -1.712886922487025787e-01
-3.423599999999999710e+01 -2.208800000000000097e+01 -1.505799999999999983e+01 -9.304396999999999807e-01 -1.938750755212606536e-01
-3.423599999999999710e+01 -2.486700000000000021e-01 -2.461599999999999966e+01 6.591495000000000104e+00 -1.706068186658041275e-01
-3.423100000000000165e+01 2.852300000000000058e+00 -1.519500000000000028e+01 6.991431000000000395e+00 -1.882996402618333787e-01
-3.422999999999999687e+01 8.053399999999999892e+00 -2.250100000000000122e+01 -1.225395999999999930e+00 -1.788812429495039436e-01
-3.422899999999999920e+01 1.933100000000000041e+00 -6.283400000000000318e+00 4.598355999999999888e+00 -1.946921670535603499e-01
-3.422699999999999676e+01 -8.141000000000000014e+00 -8.108999999999999542e-01 2.371259999999999923e+00 -2.082439958304504457e-01
-3.422699999999999676e+01 7.330000000000000071e+00 -1.946600000000000108e+01 3.396988999999999947e+01 -3.172750838423579189e-01
-3.422699999999999676e+01 8.622999999999999332e+00 -2.178500000000000014e+01 -5.999765000000000015e+00 -1.786801665619006940e-01
-3.422699999999999676e+01 8.622999999999999332e+00 -2.018700000000000117e+01 -3.349184000000000339e+01 -1.779277665196414282e-01
-3.422699999999999676e+01 8.849999999999999645e+00 -2.098600000000000065e+01 -1.334459000000000017e+01 -1.782773939921394046e-01
-3.422299999999999898e+01 2.843100000000000183e+00 -1.583200000000000074e+01 1.957112000000000052e+01 -1.880194550057715241e-01
-3.421900000000000119e+01 -4.370499999999999829e+00 -2.606300000000000061e+00 -1.495546000000000042e+01 -1.799861640052128897e-01
-3.420700000000000074e+01 -1.573799999999999955e+01 -1.921099999999999852e+01 -5.349167999999999701e-01 -3.213007258563722601e-01
-3.420499999999999829e+01 -2.185600000000000165e+01 -1.560100000000000087e+01 -1.339960999999999958e+00 -1.940168828445449911e-01
-3.419899999999999807e+01 1.808699999999999974e+00 -7.214000000000000412e+00 1.737230999999999881e+01 -1.929393526806851000e-01
-3.418599999999999994e+01 1.604500000000000037e+00 -8.099899999999999878e+00 1.216952000000000034e+01 -1.912361336422174485e-01
-3.418500000000000227e+01 -2.039699999999999847e+01 -7.301800000000000068e+00 6.931209999999999871e-01 -2.166675330806831778e-01
-3.418500000000000227e+01 -1.769699999999999918e+01 -7.301800000000000068e+00 -2.728375999999999912e+00 -2.165759302134370734e-01
-3.418099999999999739e+01 -4.714000000000000412e+00 -2.703800000000000026e+01 8.400366000000000222e-01 -1.724290023840726049e-01
-3.418099999999999739e+01 -4.482499999999999929e+00 -2.785300000000000153e+01 1.035870999999999986e+00 -1.726849087382140158e-01
-3.418099999999999739e+01 -3.164000000000000146e+00 -2.858800000000000097e+01 1.937998999999999938e+01 -1.727024734959021757e-01
-3.417999999999999972e+01 -1.499699999999999989e+01 -6.650500000000000078e+00 -3.933852999999999933e-01 -3.561285584969652307e-01
-3.417000000000000171e+01 -1.947700000000000031e+01 -1.611700000000000088e+01 -3.045417000000000041e+00 -1.934717408699424268e-01
-3.416199999999999903e+01 -2.070700000000000074e+01 -1.099099999999999966e+01 -7.139787000000000106e+00 -1.913946964262879247e-01
-3.415599999999999881e+01 -1.196099999999999941e-01 -2.365800000000000125e+01 1.602934000000000125e+01 -1.701044787720736307e-01
-3.414900000000000091e+01 -6.181400000000000006e+00 -2.254200000000000159e+01 -8.233619000000000354e-02 -1.706882851034566551e-01
-3.414000000000000057e+01 -9.064099999999999824e+00 -8.646099999999999897e-01 5.258270999999999917e-01 -3.378106461788736858e-01
-3.413499999999999801e+01 1.404400000000000093e+00 -9.022100000000000009e+00 4.954178999999999888e+00 -1.897054038149200705e-01
-3.413199999999999790e+01 -1.373399999999999999e+01 -1.862500000000000000e+01 6.091244999999999576e-01 -3.194565364231465310e-01
-3.413000000000000256e+01 -2.103099999999999881e+01 -1.022300000000000075e+01 -1.267575000000000074e+01 -1.910691471825667065e-01
-3.412700000000000244e+01 -1.772399999999999975e+00 -2.791900000000000048e+01 2.518904000000000032e+00 -1.722452959800047922e-01
-3.410399999999999920e+01 -2.101099999999999923e+01 -1.169100000000000072e+01 -4.554338000000000442e+00 -1.919963910113550165e-01
-3.409899999999999665e+01 -1.901800000000000068e+01 -6.797399999999999665e+00 -1.000946000000000069e+01 -2.163274501421056650e-01
-3.408100000000000307e+01 4.647899999999999920e+00 -2.303999999999999915e+01 3.943378000000000161e-01 -1.879609591998424589e-01
-3.407999999999999829e+01 4.978100000000000414e+00 -2.010800000000000054e+01 1.390447999999999951e+01 -3.177140251290973549e-01
-3.407900000000000063e+01 -2.135999999999999943e+01 -1.238199999999999967e+01 -3.290141999999999900e+00 -1.925433614111480563e-01
-3.407800000000000296e+01 1.183000000000000052e+00 -9.778100000000000236e+00 1.284823999999999966e+00 -1.884634108577124267e-01
-3.407800000000000296e+01 -1.608300000000000063e+00 -3.332199999999999829e+00 -7.530143000000000253e-01 -1.874592843978155898e-01
-3.407500000000000284e+01 3.232400000000000162e+00 -1.942000000000000171e+01 3.243657999999999930e+00 -1.873802690129182658e-01
-3.406799999999999784e+01 -1.047899999999999920e+01 7.059100000000000374e-01 -2.085088000000000008e+01 -3.408373531090824748e-01
-3.404399999999999693e+01 -1.272899999999999920e+01 -1.835900000000000176e+01 1.360870000000000024e+00 -3.184516653514348206e-01
-3.403099999999999881e+01 -4.440100000000000158e+00 -2.354700000000000060e+01 3.628607999999999834e+00 -1.707899580069089651e-01
-3.403099999999999881e+01 -4.230999999999999872e+00 -2.428300000000000125e+01 6.295996999999999844e+00 -1.711250071212365997e-01
-3.401500000000000057e+01 -1.441900000000000048e+01 -1.870700000000000074e+01 -1.467799000000000076e+00 -3.202430863093752578e-01
-3.401200000000000045e+01 -1.306900000000000084e+01 1.521700000000000053e+00 -2.048733000000000004e+01 -3.435622059211539403e-01
-3.401200000000000045e+01 -1.154899999999999949e+01 1.521700000000000053e+00 -6.572785000000000366e+01 -3.424937931590722462e-01
-3.399199999999999733e+01 -2.213200000000000145e+01 -1.402899999999999991e+01 -1.827846000000000082e+00 -1.936488913312440774e-01
-3.398799999999999955e+01 -2.031599999999999895e+01 -1.589100000000000001e+01 -1.380686999999999998e+00 -1.937845499673522265e-01
-3.397999999999999687e+01 -5.937700000000000422e+00 -1.772699999999999942e+00 4.395552999999999599e+00 -2.098965251363103524e-01
-3.397200000000000131e+01 -1.140700000000000003e+01 -1.781400000000000006e+01 1.426296999999999926e+00 -3.168304579392944853e-01
-3.396399999999999864e+01 -1.448099999999999987e+01 -6.191900000000000404e+00 1.844981999999999900e+00 -3.566472359044174367e-01
-3.396399999999999864e+01 -1.427200000000000024e+01 -5.455899999999999750e+00 -7.464032999999999918e-01 -3.575502175765327140e-01
-3.396200000000000330e+01 -3.595000000000000195e+00 -2.670999999999999819e+00 2.726040000000000063e+01 -1.818768256012786577e-01
-3.396200000000000330e+01 -1.642099999999999937e+01 -8.112399999999999167e+00 -1.779747000000000057e+01 -2.170294485873510981e-01
-3.396200000000000330e+01 -1.523000000000000043e+01 -7.448500000000000121e+00 -1.951231999999999900e+01 -3.552271619896086308e-01
-3.395600000000000307e+01 -1.778900000000000148e+01 -1.879299999999999926e+01 3.504236000000000129e+00 -1.938948536994508365e-01
-3.394299999999999784e+01 -1.008099999999999952e+01 -9.669400000000000217e-02 -1.307277999999999984e+01 -3.399174043169433945e-01
-3.393599999999999994e+01 -7.312999999999999723e+00 -8.518900000000000361e-01 1.438150000000000084e+01 -2.087204733525254985e-01
-3.391199999999999903e+01 -9.507300000000000750e+00 -2.219000000000000128e+01 2.358671000000000184e+00 -3.172482849649537195e-01
-3.390999999999999659e+01 2.096499999999999808e+00 -2.280499999999999972e+01 5.587817999999999952e-01 -1.858329248415820367e-01
-3.390899999999999892e+01 5.745000000000000107e+00 -2.322700000000000031e+01 7.092036000000000229e+00 -1.755146008315652817e-01
-3.390899999999999892e+01 7.445000000000000284e+00 -2.322700000000000031e+01 2.469841999999999871e+00 -1.781349172009948911e-01
-3.389999999999999858e+01 3.406000000000000139e+00 -2.351399999999999935e+01 -3.742047000000000012e-01 -1.868636773130629425e-01
-3.389999999999999858e+01 5.047500000000000320e-01 -2.288200000000000145e+01 2.244900000000000162e+01 -1.844766413451056353e-01
-3.389699999999999847e+01 -1.513400000000000079e+00 -2.612600000000000122e+01 -5.191924000000000206e+00 -1.715029737939505750e-01
-3.389600000000000080e+01 -1.435599999999999987e+01 -3.199399999999999800e+00 -1.130209000000000019e+00 -3.604562456124759118e-01
-3.387700000000000244e+01 -1.234200000000000053e+01 -1.761499999999999844e+01 6.945598000000000383e+00 -3.178265931355225837e-01
-3.387700000000000244e+01 -2.176200000000000045e+01 -1.320599999999999952e+01 -1.695497999999999950e+00 -1.932377389945370838e-01
-3.386800000000000210e+01 -8.131999999999999673e+00 -2.311100000000000065e+01 1.394854999999999956e+00 -3.165083162570512254e-01
-3.384799999999999898e+01 -3.043299999999999894e-01 -2.765699999999999825e+00 1.069177999999999962e+00 -1.936140814590171233e-01
-3.384499999999999886e+01 -6.881400000000000183e+00 -2.260099999999999909e+01 3.596470000000000056e+00 -1.709710894670400383e-01
-3.384499999999999886e+01 -5.481399999999999828e+00 -2.260099999999999909e+01 -1.061354000000000042e+01 -1.705471721354250014e-01
-3.383899999999999864e+01 -1.426200000000000045e+01 -4.100999999999999979e+00 -1.291442999999999897e+00 -3.592712751555708350e-01
-3.383299999999999841e+01 -9.602499999999999147e+00 -2.118199999999999861e+01 5.060252000000000194e+00 -3.169611555616567711e-01
-3.382699999999999818e+01 2.604000000000000092e+00 -1.894800000000000040e+01 1.899513000000000007e+00 -1.867396280956830634e-01
-3.381700000000000017e+01 -2.098100000000000165e+01 -8.448000000000000398e+00 4.110141999999999740e+00 -1.899242453144651122e-01
-3.381000000000000227e+01 -1.878399999999999892e+01 -1.698600000000000065e+01 3.305489999999999817e-01 -1.937642255009831005e-01
