5.652499999999999858e+01 3.489999999999999858e+01 8.122199999999999420e+01 -7.173319000000000223e-01 -3.352848377173112682e-01
5.652799999999999869e+01 5.608800000000000097e+01 8.859600000000000364e+01 2.031232999999999844e+00 -2.040746920037805057e-01
5.653099999999999881e+01 5.057600000000000051e+01 7.407099999999999795e+01 -3.548956000000000000e+00 -7.315454703898245647e-02
5.653099999999999881e+01 4.082600000000000051e+01 8.199399999999999977e+01 -7.330077000000000398e-01 -2.604204809383498520e-01
5.653399999999999892e+01 4.496300000000000097e+01 6.005400000000000205e+01 1.007380999999999993e+01 -2.971049768843846417e-01
5.653399999999999892e+01 3.763199999999999790e+01 7.781499999999999773e+01 -1.340746999999999911e+00 -1.822029914714115850e-01
5.653600000000000136e+01 4.272699999999999676e+01 7.094799999999999329e+01 1.237835999999999971e-02 -8.621969252408553941e-02
5.653600000000000136e+01 4.876800000000000068e+01 8.672400000000000375e+01 -1.487334000000000067e+01 -3.071552027164015097e-01
5.654299999999999926e+01 3.907999999999999829e+01 8.694799999999999329e+01 3.179170000000000051e+00 -2.828064692484130727e-01
5.654599999999999937e+01 4.610499999999999687e+01 7.690399999999999636e+01 4.353422000000000125e-01 -8.177168260286658830e-02
5.654899999999999949e+01 3.112999999999999901e+01 7.431300000000000239e+01 -6.527484000000000286e+00 -1.182285664436366623e-02
5.655499999999999972e+01 3.991299999999999670e+01 6.015200000000000102e+01 9.237315999999999860e-01 -2.877234282984406644e-01
5.656300000000000239e+01 5.738799999999999812e+01 8.936299999999999955e+01 -2.159986999999999879e-01 -2.781652741720108124e-01
5.657099999999999795e+01 4.299499999999999744e+01 7.170699999999999363e+01 -3.924277999999999933e-01 -8.664482876039766857e-02
5.658200000000000074e+01 4.004299999999999926e+01 7.904200000000000159e+01 -1.532084999999999919e+00 -1.509554501089114542e-01
5.659400000000000119e+01 3.868299999999999983e+01 6.097500000000000142e+01 9.436364000000000418e-01 -2.896043216854376490e-01
5.659599999999999653e+01 4.621000000000000085e+01 6.157699999999999818e+01 6.789010000000000211e+00 -1.817177609879686018e-01
5.660199999999999676e+01 5.861800000000000210e+01 8.854000000000000625e+01 -1.891001999999999938e+01 -9.908676991197810924e-02
5.660600000000000165e+01 3.526899999999999835e+01 7.506799999999999784e+01 3.518802999999999770e+01 -3.907573124424662536e-02
5.660799999999999699e+01 4.389999999999999858e+01 5.949600000000000222e+01 1.345863999999999949e+00 -2.942494799861414267e-01
5.663000000000000256e+01 3.755100000000000193e+01 6.173400000000000176e+01 1.223817000000000021e+01 -2.918779536075237768e-01
5.663100000000000023e+01 4.777499999999999858e+01 7.528000000000000114e+01 -8.968859000000000137e-01 -8.352234200645036744e-02
5.663199999999999790e+01 3.259499999999999886e+01 7.228499999999999659e+01 4.338686000000000043e+00 -5.006335921050227011e-02
5.663400000000000034e+01 4.086099999999999710e+01 7.246699999999999875e+01 1.168903000000000070e+01 -8.539615995986890584e-02
5.663400000000000034e+01 4.172599999999999909e+01 7.246699999999999875e+01 -5.980865999999999794e+00 -8.597911351984235950e-02
5.663400000000000034e+01 4.266599999999999682e+01 7.246699999999999875e+01 -1.083098000000000027e+01 -8.674788757664322891e-02
5.663499999999999801e+01 4.287700000000000244e+01 5.879899999999999949e+01 -5.196207999999999938e-01 -2.914295505302397782e-01
5.663900000000000290e+01 4.704399999999999693e+01 6.713599999999999568e+01 7.170124999999999638e+00 -1.882307070688651052e-01
5.664099999999999824e+01 3.973899999999999721e+01 7.985699999999999932e+01 -1.916929000000000016e+01 -1.643844095990673604e-01
5.664999999999999858e+01 5.143299999999999983e+01 8.498199999999999932e+01 -2.169735000000000014e+01 -9.947180871864770568e-02
5.665899999999999892e+01 5.452000000000000313e+01 6.956900000000000261e+01 1.396580999999999939e+01 8.173305623029170422e-03
5.665999999999999659e+01 4.618599999999999994e+01 6.257500000000000284e+01 3.682717000000000240e+01 -1.819651788486867927e-01
5.666299999999999670e+01 6.002100000000000080e+01 8.348799999999999955e+01 1.443580000000000041e+01 -2.302190440782420425e-02
5.666499999999999915e+01 6.004899999999999949e+01 8.168000000000000682e+01 1.916480999999999923e+01 -3.693788786886530694e-03
5.667000000000000171e+01 5.577799999999999869e+01 7.020900000000000318e+01 -1.139585000000000070e+00 5.653476780131833426e-03
5.667000000000000171e+01 5.668500000000000227e+01 7.020900000000000318e+01 -1.731640999999999986e+00 3.182390406168181338e-03
5.667099999999999937e+01 3.153500000000000014e+01 7.346200000000000330e+01 2.216794999999999849e+00 -1.146845443616254998e-02
5.667799999999999727e+01 3.664000000000000057e+01 6.126800000000000068e+01 8.681729000000000696e+00 -8.187794097051723230e-02
5.667900000000000205e+01 3.728199999999999648e+01 7.361100000000000421e+01 1.432502000000000031e+01 -3.061347085726924891e-02
5.668299999999999983e+01 4.896200000000000330e+01 7.485099999999999909e+01 -2.818176999999999932e+00 -7.911830643984452127e-02
5.668299999999999983e+01 4.714500000000000313e+01 6.526600000000000534e+01 7.538936999999999777e+00 -1.846052499839582750e-01
5.668299999999999983e+01 4.714500000000000313e+01 6.631600000000000250e+01 7.961543999999999954e+00 -1.864648241792696282e-01
5.668900000000000006e+01 4.467300000000000182e+01 7.747700000000000387e+01 1.514666000000000068e+01 -8.209959956125127689e-02
5.669299999999999784e+01 5.989699999999999847e+01 8.255700000000000216e+01 2.148048000000000002e+01 -2.237827080389288154e-02
5.669299999999999784e+01 4.248599999999999710e+01 6.971999999999999886e+01 3.527191999999999883e+00 -1.690728973756682185e-01
5.669500000000000028e+01 4.591499999999999915e+01 6.334199999999999875e+01 8.043246999999999147e+00 -1.820797618232856130e-01
5.669500000000000028e+01 3.510699999999999932e+01 7.654999999999999716e+01 1.033806000000000047e+01 -3.271640786890965269e-01
5.669800000000000040e+01 4.097899999999999920e+01 7.904200000000000159e+01 -2.275151000000000145e+00 -1.636112453398557987e-01
5.669899999999999807e+01 3.303499999999999659e+01 7.141700000000000159e+01 5.442802999999999614e+00 -6.065351243823674521e-02
5.670100000000000051e+01 5.867300000000000182e+01 7.271699999999999875e+01 -5.156759000000000093e+00 1.481258963107032981e-03
5.670199999999999818e+01 5.133100000000000307e+01 8.628799999999999670e+01 -4.968256000000000228e+01 -2.067376180944127118e-01
5.670499999999999829e+01 3.915699999999999648e+01 8.581300000000000239e+01 2.169726999999999961e+00 -2.767351510622841348e-01
5.670799999999999841e+01 5.173599999999999710e+01 8.428199999999999648e+01 -2.436267000000000138e+01 -9.929765296928040608e-02
5.670799999999999841e+01 5.260199999999999676e+01 8.428199999999999648e+01 -1.024477000000000082e+01 -9.902290257378099092e-02
5.671200000000000330e+01 6.165800000000000125e+01 8.056199999999999761e+01 2.277124999999999844e+01 -2.992848303936919245e-03
5.671699999999999875e+01 3.379099999999999682e+01 6.954999999999999716e+01 1.660772000000000048e+01 4.146262905088225759e-02
5.671900000000000119e+01 5.111599999999999966e+01 8.709699999999999420e+01 -3.906653000000000020e+01 -3.105784147017648378e-01
5.672200000000000131e+01 4.178499999999999659e+01 5.963100000000000023e+01 6.003360999999999947e+00 -2.910748941541252965e-01
5.673599999999999710e+01 4.601700000000000301e+01 8.819199999999999307e+01 3.317616999999999905e+01 -3.011155097360010968e-01
5.673700000000000188e+01 5.106300000000000239e+01 8.552899999999999636e+01 -3.168871000000000038e+01 -2.079620188219747923e-01
5.673799999999999955e+01 3.297999999999999687e+01 6.751000000000000512e+01 5.887852999999999781e+00 1.821309209046197697e-01
5.673799999999999955e+01 3.321099999999999852e+01 6.669499999999999318e+01 1.171030000000000015e+01 1.865094110303804065e-01
5.673799999999999955e+01 3.321099999999999852e+01 6.832500000000000284e+01 1.218413999999999930e+01 4.177490313581365411e-02
5.674099999999999966e+01 5.436299999999999955e+01 8.570399999999999352e+01 1.570220999999999911e+01 -9.888444321869743758e-02
5.674600000000000222e+01 3.914399999999999835e+01 7.296099999999999852e+01 8.350395000000000678e+00 1.045703915917200744e-01
5.675200000000000244e+01 5.881499999999999773e+01 8.672199999999999420e+01 5.331531999999999938e-01 -2.426145222844221933e-02
5.676200000000000045e+01 4.315800000000000125e+01 7.798099999999999454e+01 3.149856999999999907e+00 -2.207883867412950563e-01
5.676400000000000290e+01 5.206000000000000227e+01 7.165300000000000580e+01 -3.720585999999999949e+00 -2.098020271463804376e-01
5.676899999999999835e+01 3.939200000000000301e+01 8.056399999999999295e+01 -4.078223999999999627e+00 -2.641806138422309047e-01
5.676899999999999835e+01 4.025699999999999790e+01 8.196399999999999864e+01 -1.260933999999999999e+00 -2.633574943937575519e-01
5.677000000000000313e+01 5.314699999999999847e+01 7.091599999999999682e+01 -5.854625999999999664e+00 -2.046260947203966674e-01
5.677400000000000091e+01 3.334700000000000131e+01 7.957500000000000284e+01 -4.290372999999999770e+00 -3.297803392408229506e-01
5.678000000000000114e+01 3.356799999999999784e+01 7.044799999999999329e+01 3.742322999999999844e+00 5.066871636252577582e-02
5.678199999999999648e+01 6.297699999999999676e+01 7.809999999999999432e+01 1.514331999999999923e+01 -2.806979541924043645e-03
5.678199999999999648e+01 6.297699999999999676e+01 7.973000000000000398e+01 2.708562999999999832e+01 8.957735987892150031e-02
5.678199999999999648e+01 6.320799999999999841e+01 7.891500000000000625e+01 1.256100999999999956e+01 8.992866271274224665e-02
5.678399999999999892e+01 5.534700000000000131e+01 6.953600000000000136e+01 1.412635000000000041e+01 5.863622619645335668e-03
5.679500000000000171e+01 3.806400000000000006e+01 8.141599999999999682e+01 -2.121708999999999889e+01 -2.764477999654331164e-01
5.679599999999999937e+01 3.686399999999999721e+01 7.774899999999999523e+01 -2.817003000000000146e+00 4.127946454764315487e-02
5.680100000000000193e+01 3.968200000000000216e+01 7.850000000000000000e+01 -9.639461000000000723e+00 -1.584790154226867476e-01
5.680499999999999972e+01 6.206300000000000239e+01 7.692499999999999716e+01 8.034354999999999691e+00 -2.007976877365038985e-03
5.681099999999999994e+01 3.900900000000000034e+01 8.134000000000000341e+01 -5.609166000000000096e+00 -2.687000178952705376e-01
5.681099999999999994e+01 3.931199999999999761e+01 8.204000000000000625e+01 -2.565135000000000165e+00 -2.686548730934661955e-01
5.681300000000000239e+01 4.653799999999999670e+01 7.620399999999999352e+01 8.242582999999999993e-01 -8.365148012523333787e-02
5.681499999999999773e+01 3.536999999999999744e+01 8.198199999999999932e+01 -6.280235000000000234e+00 -3.345383142546527466e-01
5.681499999999999773e+01 3.689000000000000057e+01 8.198199999999999932e+01 -4.600786999999999694e+01 -1.675118713424191552e-01
5.682300000000000040e+01 4.067199999999999704e+01 6.011699999999999733e+01 -4.384001999999999732e+00 -2.902429072053719361e-01
5.683200000000000074e+01 5.340200000000000102e+01 7.026900000000000546e+01 -1.633185000000000109e+00 -2.025521064717127617e-01
5.683899999999999864e+01 4.806799999999999784e+01 8.678199999999999648e+01 -1.033060000000000045e+01 -3.057574362977696913e-01
5.685399999999999920e+01 3.836800000000000210e+01 7.315000000000000568e+01 9.861408000000000840e+00 9.036210137603675752e-02
5.685900000000000176e+01 4.145100000000000051e+01 8.781100000000000705e+01 4.382425999999999711e+00 -2.790888865285107157e-01
5.685900000000000176e+01 3.977000000000000313e+01 7.321800000000000352e+01 1.132445000000000057e+01 -8.516808420614936648e-02
5.686599999999999966e+01 6.056600000000000250e+01 7.477400000000000091e+01 1.104263000000000083e+01 -4.752828718274066484e-04
5.686800000000000210e+01 4.197699999999999676e+01 5.882200000000000273e+01 1.097752000000000061e+00 -2.909404926284022141e-01
5.688400000000000034e+01 3.915299999999999869e+01 6.021500000000000341e+01 7.212197999999999665e-01 -2.889880430714731885e-01
5.688600000000000279e+01 4.277700000000000102e+01 8.718699999999999761e+01 1.060476000000000063e+01 -2.742855782468530679e-01
5.689000000000000057e+01 5.067699999999999960e+01 7.296999999999999886e+01 -4.438877999999999879e+00 -7.280611967699171516e-02
5.689000000000000057e+01 5.370499999999999829e+01 6.956900000000000261e+01 -2.070502999999999927e-01 -2.003691616005715270e-01
5.689200000000000301e+01 5.662800000000000011e+01 8.929999999999999716e+01 1.021989000000000036e+00 -2.040631320052811726e-01
5.689200000000000301e+01 5.814800000000000324e+01 8.929999999999999716e+01 -5.240084000000000408e+00 -2.788715168666748290e-01
5.689399999999999835e+01 4.141199999999999903e+01 7.997199999999999420e+01 -4.066730999999999874e+00 -1.650946543851212200e-01
5.690299999999999869e+01 4.365800000000000125e+01 5.878900000000000148e+01 8.281865999999999950e-01 -2.938492284078681460e-01
5.690500000000000114e+01 3.173999999999999844e+01 7.763700000000000045e+01 6.749984000000000428e+00 -3.237419093222124733e-01
5.691599999999999682e+01 4.338199999999999790e+01 8.726200000000000045e+01 1.781535999999999831e+01 -2.738531725461688104e-01
5.691700000000000159e+01 3.968599999999999994e+01 8.792900000000000205e+01 2.137974999999999959e+00 -2.837009230556449269e-01
5.692300000000000182e+01 4.393200000000000216e+01 6.999099999999999966e+01 6.583164000000000016e+00 -1.760311072793324660e-01
5.692799999999999727e+01 3.906799999999999784e+01 8.481799999999999784e+01 1.301153000000000004e+00 -2.783143152205707627e-01
5.693399999999999750e+01 4.121600000000000108e+01 8.143399999999999750e+01 -1.263517000000000001e+00 -1.598475244583891508e-01
5.693699999999999761e+01 5.621099999999999852e+01 6.950900000000000034e+01 2.490683999999999954e-01 3.920140261969243083e-03
5.693999999999999773e+01 3.579500000000000171e+01 7.440000000000000568e+01 1.305383999999999922e+01 -4.236355055979066503e-02
5.694599999999999795e+01 5.754899999999999949e+01 7.022899999999999920e+01 -1.483822999999999892e+00 1.985471486730479209e-03
5.694800000000000040e+01 5.097999999999999687e+01 7.226999999999999602e+01 -3.927866999999999997e+00 -2.160685203517774267e-01
5.695199999999999818e+01 4.171500000000000341e+01 8.067199999999999704e+01 -2.657255999999999840e+00 -1.664090342913346621e-01
5.695499999999999829e+01 5.404099999999999682e+01 6.879399999999999693e+01 3.488302000000000014e+00 -1.982169123558524537e-01
5.695499999999999829e+01 5.499900000000000233e+01 6.879399999999999693e+01 1.181690000000000040e+01 5.592761091747783762e-03
5.695499999999999829e+01 4.616299999999999670e+01 6.849800000000000466e+01 1.074050000000000082e+01 -1.955296312270100589e-01
5.697500000000000142e+01 4.015599999999999881e+01 8.009699999999999420e+01 -4.436354999999999826e+00 -1.531492135225327456e-01
5.697899999999999920e+01 5.509599999999999653e+01 8.684999999999999432e+01 8.017730999999999497e+00 -9.903382591999394802e-02
5.698100000000000165e+01 3.892999999999999972e+01 8.393800000000000239e+01 1.420787000000000022e+00 -2.768117461726979367e-01
5.698100000000000165e+01 6.019599999999999795e+01 7.395099999999999341e+01 1.675242000000000075e+01 7.492822804800679701e-06
5.698400000000000176e+01 3.363100000000000023e+01 6.141700000000000159e+01 4.570330000000000226e+00 -8.667816701699290749e-02
5.698599999999999710e+01 4.826200000000000045e+01 7.490900000000000603e+01 -9.228695000000000093e-01 -8.332363536652402647e-02
5.698700000000000188e+01 5.050000000000000000e+01 8.758400000000000318e+01 -2.792789000000000144e+01 -3.091206178964525098e-01
5.698799999999999955e+01 3.843299999999999983e+01 7.797100000000000364e+01 -2.852252999999999972e+01 -1.440605034062418521e-01
5.698799999999999955e+01 3.625399999999999778e+01 7.366400000000000148e+01 1.287993999999999950e+01 -3.451420568369979042e-02
5.700699999999999790e+01 3.393099999999999739e+01 6.498399999999999466e+01 1.275444000000000067e+01 1.940841357893610675e-01
5.700999999999999801e+01 5.984400000000000119e+01 8.554099999999999682e+01 5.873579999999999579e+00 -2.364604052616083377e-02
5.700999999999999801e+01 6.009799999999999898e+01 8.464700000000000557e+01 9.172926999999999609e+00 -2.326505537794738843e-02
5.701400000000000290e+01 3.879699999999999704e+01 8.279500000000000171e+01 -9.805018999999999540e-02 -2.745688291897541711e-01
5.702300000000000324e+01 4.045400000000000063e+01 7.819199999999999307e+01 1.497671999999999892e+00 -1.741368902957703135e-01
5.702300000000000324e+01 4.150399999999999778e+01 7.819199999999999307e+01 2.396973000000000020e+00 -1.897836260827107657e-01
5.702300000000000324e+01 4.236999999999999744e+01 7.819199999999999307e+01 6.930144999999999778e-01 -2.053649312975056596e-01
5.702499999999999858e+01 3.148300000000000054e+01 7.424099999999999966e+01 -6.109274000000000093e-01 -1.717795640901362275e-02
5.702700000000000102e+01 3.711800000000000210e+01 6.124300000000000210e+01 6.755349999999999966e+00 -8.201966196825734301e-02
5.702700000000000102e+01 3.798299999999999699e+01 6.124300000000000210e+01 2.786481999999999903e+00 -2.908178997053446624e-01
5.703499999999999659e+01 3.983800000000000097e+01 8.103000000000000114e+01 -2.028073000000000015e+00 -2.639168214210251273e-01
5.703900000000000148e+01 3.575900000000000034e+01 7.693699999999999761e+01 6.127304999999999779e+00 6.352623665100279489e-03
5.704099999999999682e+01 4.232399999999999807e+01 5.807699999999999818e+01 1.041118999999999906e+00 -2.912544148124929233e-01
5.704099999999999682e+01 4.326400000000000290e+01 5.807699999999999818e+01 9.406012000000000262e-01 -2.926885866705061234e-01
5.704800000000000182e+01 3.364200000000000301e+01 6.424899999999999523e+01 2.240525999999999840e+01 1.973529720491529749e-01
5.705100000000000193e+01 4.352900000000000347e+01 7.123499999999999943e+01 -2.991881999999999930e+00 -8.888834944221848944e-02
5.705499999999999972e+01 6.177100000000000080e+01 7.603700000000000614e+01 1.263528999999999947e+01 -1.450018249045167918e-03
5.705899999999999750e+01 4.455199999999999960e+01 5.952799999999999869e+01 2.179060000000000219e+00 -2.974753490917821375e-01
5.705899999999999750e+01 4.555899999999999750e+01 6.053499999999999659e+01 1.331912999999999947e+01 -1.824673319128180260e-01
5.705899999999999750e+01 5.522500000000000142e+01 8.780800000000000693e+01 3.120052999999999965e+00 -2.051147678532011243e-01
5.706099999999999994e+01 3.398100000000000165e+01 8.001200000000000045e+01 -1.891008000000000067e+01 -3.304512867651124286e-01
5.706499999999999773e+01 4.219599999999999795e+01 7.300000000000000000e+01 -2.246475000000000222e+00 -8.844015856538098297e-02
5.706799999999999784e+01 5.135999999999999943e+01 7.171099999999999852e+01 -3.598438999999999943e+00 -2.134778343913744936e-01
5.706900000000000261e+01 4.496999999999999886e+01 6.906600000000000250e+01 1.188807000000000080e+01 -1.668915710248110029e-01
5.708400000000000318e+01 5.715500000000000114e+01 6.951699999999999591e+01 -2.905150000000000232e-01 2.163587793981162303e-03
5.709400000000000119e+01 4.983800000000000097e+01 7.368899999999999295e+01 -4.113781999999999606e+00 -7.596883270287604906e-02
5.709499999999999886e+01 3.503699999999999903e+01 6.062800000000000011e+01 5.619194000000000244e+00 -8.364381847364880940e-02
5.709499999999999886e+01 3.615299999999999869e+01 6.062800000000000011e+01 4.886322999999999972e+00 -8.226366932922557496e-02
5.709799999999999898e+01 6.074900000000000233e+01 8.141200000000000614e+01 1.577968000000000082e+01 -2.986298927052372879e-03
5.710399999999999920e+01 4.342600000000000193e+01 7.217700000000000671e+01 -2.950330999999999815e+00 -9.007554406586748552e-02
5.710499999999999687e+01 5.216899999999999693e+01 8.379099999999999682e+01 -2.042165999999999926e+01 -9.932937097575771090e-02
5.711599999999999966e+01 4.591599999999999682e+01 6.137299999999999756e+01 1.237085000000000079e+01 -1.828540006735266121e-01
5.712100000000000222e+01 4.373199999999999932e+01 7.730800000000000693e+01 2.626456000000000124e+00 -2.505986898585318423e-01
5.713400000000000034e+01 5.797299999999999898e+01 7.158499999999999375e+01 -1.864770000000000039e+01 3.033308133065489368e-03
5.713400000000000034e+01 5.818200000000000216e+01 7.232099999999999795e+01 -6.247855999999999632e+00 3.185534451215340547e-03
5.713799999999999812e+01 4.706300000000000239e+01 7.535399999999999920e+01 -7.061526000000000192e-01 -8.609032909663340283e-02
5.714099999999999824e+01 5.103600000000000136e+01 8.454900000000000659e+01 -4.173745000000000260e+01 -9.987320245161876442e-02
5.714099999999999824e+01 5.330199999999999960e+01 8.454900000000000659e+01 -1.452316000000000074e+01 -9.913076472711132570e-02
5.714999999999999858e+01 4.578900000000000148e+01 6.214200000000000301e+01 1.273820000000000086e+01 -1.830631046723364963e-01
5.715299999999999869e+01 5.014200000000000301e+01 7.298900000000000432e+01 -1.636028999999999911e+01 -7.461240869002846998e-02
5.715699999999999648e+01 5.024399999999999977e+01 7.226999999999999602e+01 -1.195520999999999923e+01 -7.387571725660438404e-02
5.717600000000000193e+01 4.550200000000000244e+01 7.711199999999999477e+01 3.863088999999999995e+00 -8.464278368890258697e-02
5.717900000000000205e+01 5.025200000000000244e+01 8.671599999999999397e+01 -2.605526000000000053e+01 -3.101324810673303789e-01
5.718299999999999983e+01 6.047699999999999676e+01 8.211799999999999500e+01 2.344416999999999973e+01 -3.536107182043011447e-03
5.718599999999999994e+01 4.551800000000000068e+01 6.290899999999999892e+01 1.051195000000000057e+01 -1.833047491414501462e-01
5.718599999999999994e+01 4.551800000000000068e+01 6.377400000000000091e+01 -2.680404999999999927e+00 -1.838069390956747207e-01
5.719899999999999807e+01 5.463300000000000267e+01 8.596899999999999409e+01 2.198605999999999838e+01 -9.907974233324132185e-02
5.720199999999999818e+01 5.265599999999999881e+01 7.131300000000000239e+01 -4.483006999999999742e+00 -2.081896931001167295e-01
5.721200000000000330e+01 3.364999999999999858e+01 6.619899999999999807e+01 5.222234999999999872e+01 1.878841364002137859e-01
5.721699999999999875e+01 3.222699999999999676e+01 7.332200000000000273e+01 4.909805999999999671e+00 -3.483474285065501358e-02
5.721999999999999886e+01 4.110499999999999687e+01 5.962599999999999767e+01 6.380183000000000382e-01 -2.920864690888210213e-01
5.722800000000000153e+01 5.066599999999999682e+01 8.596200000000000330e+01 -3.561525999999999925e+01 -2.069128899231658103e-01
5.722999999999999687e+01 3.121499999999999986e+01 7.573699999999999477e+01 8.220658000000000243e+00 2.795455329653618714e-03
5.722999999999999687e+01 3.121499999999999986e+01 7.678700000000000614e+01 1.472333000000000069e+01 1.532196191083963141e-02
5.722999999999999687e+01 3.852600000000000335e+01 8.219799999999999329e+01 -3.170110999999999901e+00 -2.752131549832456670e-01
5.723700000000000188e+01 4.908299999999999841e+01 8.601600000000000534e+01 -4.160851999999999862e+01 -3.094099293460397249e-01
5.723700000000000188e+01 4.994899999999999807e+01 8.601600000000000534e+01 -3.659416000000000224e+01 -2.051964810182144439e-01
5.724300000000000210e+01 4.058899999999999864e+01 8.079699999999999704e+01 -8.593743999999999161e+00 -1.592186009443234129e-01
5.724399999999999977e+01 4.642399999999999949e+01 6.484799999999999898e+01 3.301969000000000154e+00 -1.859481117827195551e-01
5.724499999999999744e+01 3.833599999999999852e+01 6.042900000000000205e+01 1.099841000000000069e+00 -2.904602958377043298e-01
5.725600000000000023e+01 6.253799999999999670e+01 7.760399999999999920e+01 4.088092999999999932e+01 -1.861543286504199713e-03
5.726100000000000279e+01 6.243299999999999983e+01 8.016899999999999693e+01 3.748597999999999786e+01 -2.233313622552084762e-03
5.727199999999999847e+01 4.757699999999999818e+01 8.717900000000000205e+01 8.329798999999999953e-01 -3.044351874172033234e-01
5.728000000000000114e+01 4.668800000000000239e+01 6.764799999999999613e+01 8.670937999999999590e+00 -1.946650344915794029e-01
5.728099999999999881e+01 6.108100000000000307e+01 8.106000000000000227e+01 1.522568000000000055e+01 -2.483968771228097470e-03
5.728499999999999659e+01 3.483700000000000330e+01 8.155100000000000193e+01 -7.621933000000000291e+00 -3.320768443823317595e-01
5.728499999999999659e+01 3.613000000000000256e+01 8.227200000000000557e+01 -2.917762000000000100e+01 -1.757221096331557930e-01
5.728499999999999659e+01 3.759000000000000341e+01 8.192300000000000182e+01 -4.448252000000000095e+01 -2.812707720655765464e-01
5.728900000000000148e+01 6.037800000000000011e+01 8.308199999999999363e+01 2.106931000000000154e+01 -4.358528598050593825e-03
5.728999999999999915e+01 5.559899999999999665e+01 8.867300000000000182e+01 7.170778000000000318e+00 -2.046699563415498857e-01
5.729099999999999682e+01 3.941400000000000148e+01 7.807099999999999795e+01 -3.978857000000000088e+00 -1.705889185675319164e-01
5.729200000000000159e+01 3.323499999999999943e+01 6.231700000000000017e+01 8.695619999999999905e+00 -3.284818920607140980e-02
5.729200000000000159e+01 3.323499999999999943e+01 6.336699999999999733e+01 2.262212999999999852e+01 -3.885176589645581574e-02
5.729299999999999926e+01 3.363199999999999790e+01 6.881100000000000705e+01 4.528613000000000000e+01 4.321865140764561547e-02
5.729699999999999704e+01 4.864600000000000080e+01 7.467900000000000205e+01 -3.676048999999999900e+00 -8.254882086357107074e-02
5.730899999999999750e+01 4.678799999999999670e+01 6.579099999999999682e+01 4.463574000000000375e+00 -1.884363200812209926e-01
5.730899999999999750e+01 4.678799999999999670e+01 6.672199999999999420e+01 1.140634999999999977e+01 -1.911264695944663583e-01
5.731099999999999994e+01 5.582099999999999795e+01 6.901399999999999579e+01 2.985519000000000034e+00 4.972592677558640775e-03
5.731400000000000006e+01 3.265999999999999659e+01 7.883400000000000318e+01 1.798635999999999902e+00 -3.261325065465322526e-01
5.732600000000000051e+01 5.603799999999999670e+01 8.896299999999999386e+01 1.706981000000000082e+00 -2.045886054218429562e-01
5.733299999999999841e+01 4.143699999999999761e+01 7.303499999999999659e+01 -9.855113000000000067e-02 -8.834905054605442232e-02
5.733299999999999841e+01 6.027700000000000102e+01 8.390200000000000102e+01 8.794249000000000649e+00 -2.255522603140809601e-02
5.733800000000000097e+01 3.223100000000000165e+01 7.803400000000000603e+01 1.997211000000000070e+00 -3.244544766851170103e-01
5.734400000000000119e+01 4.537899999999999778e+01 8.835299999999999443e+01 1.941545999999999950e+01 -3.000455124580422295e-01
5.734899999999999665e+01 4.408200000000000074e+01 8.752899999999999636e+01 2.726045999999999836e+01 -2.739454290440379025e-01
5.735399999999999920e+01 3.991299999999999670e+01 5.992499999999999716e+01 2.254203999999999930e-01 -2.910732780717351087e-01
5.735900000000000176e+01 3.889000000000000057e+01 7.382999999999999829e+01 5.472751999999999839e+00 -2.194829197345921634e-01
5.735900000000000176e+01 3.993999999999999773e+01 7.382999999999999829e+01 6.012916999999999845e+00 -8.630666831789007842e-02
5.736200000000000188e+01 5.738799999999999812e+01 8.959000000000000341e+01 -2.476582000000000150e+01 -2.044987714383107169e-01
5.736200000000000188e+01 5.868099999999999739e+01 8.886899999999999977e+01 -2.190790000000000148e+01 -2.450335949032025548e-02
5.736200000000000188e+01 5.879699999999999704e+01 8.727200000000000557e+01 -1.817725000000000080e+01 -2.384863172006702198e-02
5.736200000000000188e+01 5.890800000000000125e+01 8.806999999999999318e+01 -3.572120999999999924e+01 -2.422141356979783111e-02
5.736200000000000188e+01 5.900600000000000023e+01 8.653600000000000136e+01 5.805485999999999702e-01 -2.354320970656085393e-02
5.737100000000000222e+01 5.080700000000000216e+01 8.664900000000000091e+01 -3.499128999999999934e+01 -2.059579803882677085e-01
5.737299999999999756e+01 3.509499999999999886e+01 7.553300000000000125e+01 6.229086000000000212e+01 -2.534940286090969080e-02
5.737299999999999756e+01 3.530400000000000205e+01 7.479699999999999704e+01 4.935267999999999944e+01 -3.537658079961263080e-02
5.737299999999999756e+01 3.530400000000000205e+01 7.626900000000000546e+01 3.264439000000000135e+01 -1.071092418334323310e-02
5.738400000000000034e+01 3.890100000000000335e+01 8.643600000000000705e+01 3.412287000000000070e+00 -2.793250961868982696e-01
5.738400000000000034e+01 3.915500000000000114e+01 8.732999999999999829e+01 2.987575000000000092e+00 -2.820906372805910278e-01
5.738400000000000034e+01 4.060099999999999909e+01 8.813599999999999568e+01 -6.744936000000000043e+00 -2.812510189098985647e-01
5.738400000000000034e+01 4.207699999999999818e+01 8.745399999999999352e+01 7.143697999999999659e+00 -2.759214281840743355e-01
5.738400000000000034e+01 4.944500000000000028e+01 7.226999999999999602e+01 -4.345073000000000185e+00 -7.655234518485384831e-02
5.738499999999999801e+01 3.668699999999999761e+01 7.317300000000000182e+01 2.182308000000000092e+01 -3.312640893576120765e-02
5.738700000000000045e+01 5.071300000000000097e+01 7.141100000000000136e+01 -4.719171000000000227e+00 -2.160015186817643984e-01
5.738799999999999812e+01 3.636299999999999955e+01 7.708799999999999386e+01 1.861493999999999982e+00 1.755008602457821046e-02
5.739399999999999835e+01 5.452000000000000313e+01 6.825000000000000000e+01 1.585995999999999917e+01 -1.975939294433451121e-01
5.739399999999999835e+01 4.295600000000000307e+01 7.293699999999999761e+01 -5.837526000000000437e+00 -9.180920704138355315e-02
5.740800000000000125e+01 5.146900000000000119e+01 8.384900000000000375e+01 -3.798993000000000109e+01 -9.981266784536266257e-02
5.740800000000000125e+01 5.286899999999999977e+01 8.384900000000000375e+01 -2.204305000000000092e+01 -9.930137451718652752e-02
5.741100000000000136e+01 3.691400000000000148e+01 6.067900000000000205e+01 4.093003999999999643e+00 -8.210774776497378746e-02
5.742099999999999937e+01 3.555400000000000205e+01 7.393099999999999739e+01 2.095786999999999978e+01 -3.099799097863369796e-02
5.743399999999999750e+01 5.326599999999999824e+01 6.909000000000000341e+01 -6.285715000000000052e-02 -2.012137970876390347e-01
5.743599999999999994e+01 4.413700000000000045e+01 7.717799999999999727e+01 2.773985000000000145e+00 -8.607857291504980579e-02
5.743699999999999761e+01 3.903900000000000148e+01 8.555599999999999739e+01 2.264568999999999832e+00 -2.802117997526162863e-01
5.744100000000000250e+01 3.770000000000000284e+01 7.769100000000000250e+01 -7.608556000000000097e+00 -1.534837983222698266e-01
5.744400000000000261e+01 4.442999999999999972e+01 6.953000000000000114e+01 3.375587999999999766e+01 -1.790309189385490551e-01
5.744700000000000273e+01 4.977400000000000091e+01 7.151000000000000512e+01 -4.110200999999999993e+00 -7.570221629057928558e-02
5.745300000000000296e+01 4.595100000000000051e+01 6.447400000000000375e+01 1.199489000000000027e+00 -1.858815292302810618e-01
5.745900000000000318e+01 5.374900000000000233e+01 8.508299999999999841e+01 -8.832613000000000270e+00 -9.926907178342353477e-02
5.746200000000000330e+01 4.289099999999999824e+01 7.754800000000000182e+01 3.304117000000000193e+00 -2.341935897441889125e-01
5.746500000000000341e+01 3.219500000000000028e+01 7.391299999999999670e+01 6.756541999999999604e+00 -2.824131737700109543e-02
5.746999999999999886e+01 5.308899999999999864e+01 7.061299999999999955e+01 -2.674898000000000220e+00 -2.058375999875932116e-01
5.747200000000000131e+01 4.279399999999999693e+01 5.754399999999999693e+01 -1.603045999999999915e-01 -2.928457922441340400e-01
5.749199999999999733e+01 4.504299999999999926e+01 5.992499999999999716e+01 1.091244000000000014e+01 -3.011206247989558493e-01
5.750300000000000011e+01 4.120799999999999841e+01 5.909899999999999665e+01 8.098680000000000323e-01 -2.926584811419729593e-01
5.750399999999999778e+01 4.097899999999999920e+01 7.759600000000000364e+01 6.795810000000000350e+00 -1.991988260971393476e-01
5.750500000000000256e+01 4.932800000000000296e+01 7.320699999999999363e+01 -4.739594000000000307e+00 -7.850087094863861248e-02
5.750600000000000023e+01 5.960000000000000142e+01 7.346999999999999886e+01 9.770117000000000829e+00 1.718324541338516571e-03
5.751100000000000279e+01 4.156400000000000006e+01 5.836699999999999733e+01 8.644053000000000431e-01 -2.922407032415656469e-01
5.751100000000000279e+01 4.402400000000000091e+01 5.836699999999999733e+01 -5.097080000000000499e-01 -2.960661279376622934e-01
5.751299999999999812e+01 5.804899999999999949e+01 7.073000000000000398e+01 -2.015461999999999865e+00 2.825353677879953625e-03
5.751299999999999812e+01 3.327600000000000335e+01 6.703100000000000591e+01 3.430760000000000076e+01 1.835348841143070175e-01
5.751299999999999812e+01 3.327600000000000335e+01 6.798900000000000432e+01 4.774668000000000134e+00 4.430950725051095718e-02
5.751500000000000057e+01 5.668500000000000227e+01 6.898399999999999466e+01 1.594595000000000040e-01 3.390205875190756106e-03
5.754200000000000159e+01 4.540800000000000125e+01 6.856999999999999318e+01 1.808092999999999861e+01 -1.682377103472353919e-01
5.754399999999999693e+01 5.074799999999999756e+01 8.733899999999999864e+01 -1.396987999999999985e+01 -3.100285957804583825e-01
5.754899999999999949e+01 3.296399999999999864e+01 7.104800000000000182e+01 4.320568999999999882e+00 -5.775964387794781801e-02
5.755400000000000205e+01 5.791499999999999915e+01 6.980700000000000216e+01 -5.369102999999999959e+00 2.112549448848294494e-03
5.755599999999999739e+01 4.449900000000000233e+01 5.914600000000000080e+01 1.082867999999999942e+00 -2.985442842137692177e-01
5.755700000000000216e+01 6.291199999999999903e+01 7.843600000000000705e+01 1.647758000000000038e+02 -1.860945498051757739e-03
5.755700000000000216e+01 6.291199999999999903e+01 7.939400000000000546e+01 -7.450555999999999734e+00 -1.903834942222736113e-03
5.756000000000000227e+01 3.320000000000000284e+01 7.037699999999999534e+01 3.570453000000000099e+00 5.882685418630485830e-02
5.756400000000000006e+01 4.907800000000000296e+01 7.397899999999999920e+01 -4.170245000000000424e+00 -8.080914722707495390e-02
5.756400000000000006e+01 3.442399999999999949e+01 6.454300000000000637e+01 2.903417999999999921e+01 1.943955859920007689e-01
5.756400000000000006e+01 3.442399999999999949e+01 6.540800000000000125e+01 1.257048999999999950e+01 1.904995477173916096e-01
5.756600000000000250e+01 3.821999999999999886e+01 5.992600000000000193e+01 1.088551999999999964e+00 -2.908666134474770515e-01
5.758200000000000074e+01 3.155099999999999838e+01 7.703499999999999659e+01 1.335483999999999938e+01 -3.224721943405202684e-01
5.758400000000000318e+01 5.033599999999999852e+01 8.489700000000000557e+01 -4.585264000000000095e+01 -2.095658698470392323e-01
5.758400000000000318e+01 5.033599999999999852e+01 8.576300000000000523e+01 -3.739766000000000190e+01 -2.072610131804294986e-01
5.759000000000000341e+01 6.127700000000000102e+01 7.509000000000000341e+01 9.261219000000000534e+00 -2.500216464124628470e-04
5.760399999999999920e+01 3.439999999999999858e+01 8.032599999999999341e+01 -4.561992000000000047e+00 -3.294033138450504494e-01
5.760399999999999920e+01 3.460900000000000176e+01 8.106199999999999761e+01 -7.621933000000000291e+00 -3.303562317216717226e-01
5.761599999999999966e+01 3.914500000000000313e+01 5.985900000000000176e+01 5.938457999999999792e-01 -2.908642056892488670e-01
5.761599999999999966e+01 5.936599999999999966e+01 8.605400000000000205e+01 6.004072999999999993e+00 -2.312299850833209741e-02
5.761899999999999977e+01 5.476299999999999812e+01 8.774200000000000443e+01 3.382392999999999983e+00 -9.943802445770208442e-02
5.763400000000000034e+01 4.951599999999999824e+01 8.552500000000000568e+01 -4.141794000000000153e+01 -2.060231538355844216e-01
5.763700000000000045e+01 5.413700000000000045e+01 8.549500000000000455e+01 5.629438999999999638e+00 -9.931904452871406774e-02
5.765100000000000335e+01 3.413700000000000045e+01 6.097200000000000131e+01 4.445819000000000187e+00 -8.622748731858852211e-02
5.765899999999999892e+01 4.836500000000000199e+01 8.631300000000000239e+01 -4.308424999999999727e+01 -3.077127524290813043e-01
5.765999999999999659e+01 3.915699999999999648e+01 8.456100000000000705e+01 7.585174999999999557e+00 -2.778735350623076084e-01
5.766299999999999670e+01 4.612199999999999989e+01 7.661799999999999500e+01 4.444771000000000249e+00 -8.740150702927115822e-02
5.766299999999999670e+01 4.646699999999999875e+01 7.583499999999999375e+01 -3.577537000000000078e-01 -8.868536020666276110e-02
5.768800000000000239e+01 3.598700000000000188e+01 7.323099999999999454e+01 1.869129999999999825e+01 -3.383590876207966808e-02
5.768800000000000239e+01 3.738700000000000045e+01 7.323099999999999454e+01 6.592511000000000010e+00 -2.356444951331679652e-02
5.769200000000000017e+01 4.463700000000000045e+01 8.818200000000000216e+01 8.932572999999999297e+01 -2.982897133786682753e-01
5.769200000000000017e+01 4.618699999999999761e+01 8.818200000000000216e+01 1.975823000000000107e+01 -3.006688218600342966e-01
5.769700000000000273e+01 5.148599999999999710e+01 7.145099999999999341e+01 -9.871527000000000385e+00 -7.464037333989417822e-02
5.769700000000000273e+01 3.236800000000000210e+01 7.471200000000000330e+01 1.489329999999999998e+01 -2.150777994183998218e-02
5.770199999999999818e+01 4.789800000000000324e+01 7.488100000000000023e+01 -3.492856999999999879e+00 -8.792762522287443649e-02
5.770499999999999829e+01 4.706099999999999994e+01 8.778900000000000148e+01 1.060937999999999981e+01 -3.029695003182573121e-01
5.770799999999999841e+01 3.257600000000000051e+01 7.185899999999999466e+01 5.136224000000000345e+00 -4.895502455142281689e-02
5.771300000000000097e+01 6.157200000000000273e+01 8.066299999999999670e+01 9.240745999999999682e+00 -1.725945504996391922e-03
5.772999999999999687e+01 5.374499999999999744e+01 6.831499999999999773e+01 9.599581000000000364e-01 -1.992854805982302580e-01
5.772999999999999687e+01 5.529500000000000171e+01 6.831499999999999773e+01 2.159505000000000052e+01 5.853347700580083593e-03
5.774699999999999989e+01 3.317600000000000193e+01 7.944400000000000261e+01 1.159997000000000078e+01 -3.267617945050343975e-01
5.774699999999999989e+01 3.574099999999999966e+01 6.004999999999999716e+01 8.635669999999999291e+00 -8.308711877515920219e-02
5.775500000000000256e+01 3.536999999999999744e+01 8.198199999999999932e+01 -1.419328999999999930e+01 -3.308851314280700229e-01
5.775500000000000256e+01 3.689000000000000057e+01 8.198199999999999932e+01 -7.172298000000000684e+01 -1.681432911226043436e-01
5.775500000000000256e+01 3.206499999999999773e+01 7.541200000000000614e+01 1.354151000000000060e+01 -1.095394861882214091e-02
5.776700000000000301e+01 6.032900000000000063e+01 7.403100000000000591e+01 8.499714000000000880e+00 1.119637067469312188e-03
5.778699999999999903e+01 4.061299999999999955e+01 5.965800000000000125e+01 -1.798509000000000080e-01 -2.936670606694963270e-01
5.778900000000000148e+01 4.178499999999999659e+01 7.755899999999999750e+01 3.702228999999999992e+00 -2.174676255814659565e-01
5.779099999999999682e+01 4.082600000000000051e+01 7.363400000000000034e+01 4.883601999999999776e+00 -8.874240977621808413e-02
5.779500000000000171e+01 3.812199999999999989e+01 8.178900000000000148e+01 -1.245762000000000036e+01 -2.779790319247964492e-01
5.779599999999999937e+01 4.561500000000000199e+01 6.080100000000000193e+01 1.281884999999999941e+01 -1.841091917603796535e-01
5.779699999999999704e+01 3.362800000000000011e+01 6.205400000000000205e+01 6.858867000000000047e+00 -3.216157294246858173e-02
5.780100000000000193e+01 4.203399999999999892e+01 5.760699999999999932e+01 7.787230000000000540e-01 -2.929804761003784730e-01
5.780100000000000193e+01 4.355400000000000205e+01 5.760699999999999932e+01 -3.144550999999999874e+00 -2.951303341599987862e-01
5.780400000000000205e+01 4.484499999999999886e+01 7.733599999999999852e+01 4.350635999999999726e+00 -8.724449706225911871e-02
5.780499999999999972e+01 3.579500000000000171e+01 7.666599999999999682e+01 1.738757999999999981e+01 2.883044969055617406e-03
5.780700000000000216e+01 3.648100000000000165e+01 6.018800000000000239e+01 6.454208000000000389e+00 -8.260418476773029317e-02
5.780700000000000216e+01 3.734599999999999653e+01 6.018800000000000239e+01 2.062971000000000110e+00 -1.987549803201198451e-01
5.781600000000000250e+01 5.658700000000000330e+01 8.943399999999999750e+01 -1.105364999999999959e-01 -2.048247109116247411e-01
5.782000000000000028e+01 4.593200000000000216e+01 6.812399999999999523e+01 1.635779000000000138e+01 -1.666952222359436575e-01
5.782099999999999795e+01 5.897500000000000142e+01 7.295600000000000307e+01 6.678860000000000241e+00 3.213047983133657942e-03
5.782800000000000296e+01 3.712800000000000011e+01 7.722199999999999420e+01 -2.817225000000000090e+00 -1.616832462891595046e-01
5.783100000000000307e+01 3.925500000000000256e+01 8.254699999999999704e+01 -3.228282999999999792e+00 -2.732125550221973231e-01
5.783100000000000307e+01 3.925500000000000256e+01 8.341299999999999670e+01 3.472488999999999937e+00 -2.751371665341970085e-01
5.783200000000000074e+01 3.399099999999999966e+01 6.610800000000000409e+01 6.532900999999999847e+00 1.870438550639736686e-01
5.783200000000000074e+01 5.814800000000000324e+01 8.929999999999999716e+01 -1.448855999999999966e+01 -2.414740557824660711e-02
5.783400000000000318e+01 5.824099999999999966e+01 7.201699999999999591e+01 2.289661000000000127e-03 4.225013655082122781e-03
5.784000000000000341e+01 3.941499999999999915e+01 7.442600000000000193e+01 8.924798999999999927e-01 -2.242619300175636154e-01
5.784100000000000108e+01 5.216899999999999693e+01 8.358199999999999363e+01 -3.420029000000000252e+01 -9.980115089501581660e-02
5.784100000000000108e+01 5.335999999999999943e+01 8.424599999999999511e+01 -2.568449999999999989e+01 -9.946746782881166205e-02
5.784400000000000119e+01 5.744500000000000028e+01 6.904699999999999704e+01 -2.052608999999999906e+00 2.642617890427102160e-03
5.785000000000000142e+01 5.074699999999999989e+01 8.829399999999999693e+01 5.995918000000000081e-01 -3.088934833085621445e-01
5.785099999999999909e+01 4.633700000000000330e+01 6.599099999999999966e+01 9.856678000000000495e+00 -1.911573292481515973e-01
5.785300000000000153e+01 3.395600000000000307e+01 6.378499999999999659e+01 2.024396000000000129e+01 -4.122110023988045241e-02
5.785999999999999943e+01 5.977300000000000324e+01 8.517199999999999704e+01 1.700016000000000105e+01 -2.251825662178793402e-02
5.786399999999999721e+01 4.219599999999999795e+01 7.322700000000000387e+01 -3.620000999999999891e+01 -9.236892451799862125e-02
5.786399999999999721e+01 4.348899999999999721e+01 7.250600000000000023e+01 -1.843184000000000111e+01 -9.506779405895446344e-02
5.786399999999999721e+01 4.360499999999999687e+01 7.090900000000000603e+01 -1.444772999999999996e+01 -9.148467522273422137e-02
5.786399999999999721e+01 4.371600000000000108e+01 7.170699999999999363e+01 -2.968519999999999825e+01 -9.344646080019183843e-02
5.786500000000000199e+01 5.090100000000000335e+01 8.403100000000000591e+01 -7.756533000000000300e+01 -1.003863038014496389e-01
5.786599999999999966e+01 5.241400000000000148e+01 7.118099999999999739e+01 -3.594937999999999967e+00 -2.101108180443994888e-01
5.787299999999999756e+01 4.012899999999999778e+01 7.766700000000000159e+01 1.675904000000000060e+00 -1.916275202488370577e-01
5.787800000000000011e+01 5.024399999999999977e+01 7.097700000000000387e+01 -4.945793000000000106e+00 -7.646918805860355994e-02
5.788199999999999790e+01 4.277700000000000102e+01 8.718699999999999761e+01 1.094472000000000023e+01 -2.736102912050312752e-01
5.788600000000000279e+01 4.525099999999999767e+01 6.334199999999999875e+01 5.912448000000000370e+00 -1.856349709065147624e-01
5.789900000000000091e+01 5.457500000000000284e+01 8.627200000000000557e+01 8.495516000000000290e+00 -9.943109898616417364e-02
5.790100000000000335e+01 4.336999999999999744e+01 7.700400000000000489e+01 1.112445999999999913e+01 -8.835613784104716373e-02
5.790500000000000114e+01 6.184199999999999875e+01 7.566800000000000637e+01 1.547921999999999976e+01 -4.484839056847813037e-04
5.790500000000000114e+01 6.209599999999999653e+01 7.656199999999999761e+01 1.696453999999999951e+01 -6.630783636326681354e-04
5.790599999999999881e+01 4.633100000000000307e+01 6.712300000000000466e+01 1.712406999999999968e+01 -1.600814609413862555e-01
5.790899999999999892e+01 4.548799999999999955e+01 6.195400000000000063e+01 1.554676000000000080e+01 -1.848170767246677948e-01
5.790899999999999892e+01 3.975099999999999767e+01 8.781100000000000705e+01 2.778178000000000036e+00 -2.812841515218830191e-01
5.790899999999999892e+01 4.145100000000000051e+01 8.781100000000000705e+01 2.120352000000000103e+01 -2.777776041450512046e-01
5.791700000000000159e+01 3.249399999999999977e+01 7.288899999999999579e+01 8.636903999999999471e+00 -4.001756570137149360e-02
5.791700000000000159e+01 4.901400000000000290e+01 7.179999999999999716e+01 -4.505255000000000010e+00 -7.987281844060446778e-02
5.791700000000000159e+01 4.901400000000000290e+01 7.273999999999999488e+01 -5.196151999999999660e+00 -8.084715204959759538e-02
5.791799999999999926e+01 3.359199999999999875e+01 6.284199999999999875e+01 7.852816999999999936e+00 -3.675263844082079373e-02
5.791899999999999693e+01 4.388600000000000279e+01 7.004900000000000659e+01 2.830976000000000070e+01 -9.024146920741386857e-02
5.792199999999999704e+01 3.167800000000000082e+01 7.615600000000000591e+01 1.216899000000000086e+01 -1.737215548822757059e-04
5.793099999999999739e+01 4.750099999999999767e+01 8.764499999999999602e+01 2.101338999999999846e+00 -3.042547393260415234e-01
5.793699999999999761e+01 6.004699999999999704e+01 8.427500000000000568e+01 1.294716000000000022e+01 -2.202433700095574737e-02
5.793699999999999761e+01 4.881600000000000250e+01 8.558299999999999841e+01 -5.510251000000000232e+01 -2.046134716478363591e-01
5.794500000000000028e+01 3.283200000000000074e+01 7.470499999999999829e+01 2.505659999999999954e+01 -2.637746113514784913e-02
5.794899999999999807e+01 5.598499999999999943e+01 6.860099999999999909e+01 1.194852000000000025e+00 5.310114398774259600e-03
5.795600000000000307e+01 4.546999999999999886e+01 6.408799999999999386e+01 -1.283846999999999960e+00 -1.868614236486840219e-01
5.796300000000000097e+01 3.778699999999999903e+01 5.943500000000000227e+01 8.567858999999999892e-01 -1.988559713224584968e-01
5.797500000000000142e+01 4.491799999999999926e+01 6.896699999999999875e+01 3.949654000000000309e+01 -1.790327143741291815e-01
5.797800000000000153e+01 4.416499999999999915e+01 5.800800000000000267e+01 -9.964876999999999541e+00 -2.972663215185800123e-01
5.798100000000000165e+01 6.113900000000000290e+01 8.136299999999999955e+01 1.709165000000000134e+01 -1.921322093514857363e-03
5.798100000000000165e+01 3.863799999999999812e+01 7.784399999999999409e+01 -2.956853000000000176e+00 -1.785958669629012230e-01
5.798499999999999943e+01 3.792999999999999972e+01 7.364900000000000091e+01 5.736717999999999762e+00 -2.146647080069243041e-01
5.799199999999999733e+01 3.252300000000000324e+01 7.352800000000000580e+01 1.066430000000000078e+01 -3.470854171987498848e-02
5.799199999999999733e+01 3.870000000000000284e+01 5.941700000000000159e+01 4.819489000000000134e-01 -2.911385360905637265e-01
5.799300000000000210e+01 3.369100000000000250e+01 6.850799999999999557e+01 1.596861999999999959e+01 1.971506918717412238e-01
5.799300000000000210e+01 3.369100000000000250e+01 6.998000000000000398e+01 1.480811000000000099e+00 -5.095053448190918488e-02
5.799300000000000210e+01 3.389999999999999858e+01 6.924399999999999977e+01 1.862606999999999857e+01 1.976798630103831500e-01
5.800099999999999767e+01 5.386399999999999721e+01 8.520300000000000296e+01 -7.588854000000000433e+00 -9.952720378087769049e-02
5.800300000000000011e+01 3.252799999999999869e+01 7.540500000000000114e+01 1.945392000000000010e+01 -1.610868949974067835e-02
5.801400000000000290e+01 3.260199999999999676e+01 7.913700000000000045e+01 1.373690999999999995e+00 -3.252800168769234279e-01
5.802000000000000313e+01 6.221200000000000330e+01 7.749800000000000466e+01 4.198431999999999675e+01 -6.386208437992434844e-04
5.803699999999999903e+01 3.390899999999999892e+01 7.992900000000000205e+01 8.780754999999999200e+00 -3.273941185018537370e-01
