-8.184400000000000119e+00 1.269000000000000057e+02 4.282600000000000051e+01 1.440390000000000015e+01 -9.808414483127286115e-03
-8.182299999999999685e+00 1.301500000000000057e+02 4.195600000000000307e+01 1.814877999999999991e+00 -8.457270680589723327e-05
-8.179000000000000270e+00 1.382700000000000102e+02 3.912800000000000011e+01 2.819838999999999984e+00 -1.389677513355335736e-01
-8.179000000000000270e+00 1.397500000000000000e+02 3.981000000000000227e+01 1.053490000000000038e+01 -1.487303747302692325e-01
-8.171099999999999142e+00 1.189599999999999937e+02 5.784899999999999665e+01 1.737615999999999872e+01 -3.500000000000000333e-01
-8.159000000000000696e+00 1.327500000000000000e+02 4.355899999999999750e+01 5.337030000000000385e+00 -2.488453717793133804e-02
-8.157700000000000173e+00 1.143900000000000006e+02 4.709100000000000108e+01 2.265638999999999825e+01 -1.107312668102470726e-01
-8.156000000000000583e+00 1.402700000000000102e+02 4.026800000000000068e+01 5.861823000000000228e+00 -1.518084868531745790e-01
-8.156000000000000583e+00 1.402700000000000102e+02 4.277600000000000335e+01 4.571929999999999694e+01 1.699521931564689781e-01
-8.154999999999999361e+00 1.186700000000000017e+02 5.036899999999999977e+01 -1.619064000000000059e+00 -1.055537396568832220e-01
-8.152799999999999159e+00 1.260300000000000011e+02 4.804399999999999693e+01 5.420595999999999748e+01 -1.210243558564322308e-01
-8.150999999999999801e+00 1.259899999999999949e+02 2.896600000000000108e+01 -1.318326000000000109e+00 -3.640940771752335103e-01
-8.150999999999999801e+00 1.272900000000000063e+02 2.824500000000000099e+01 -4.236074000000000339e+00 -3.640873965051998895e-01
-8.150999999999999801e+00 1.285800000000000125e+02 2.896600000000000108e+01 -2.730773000000000117e+00 -3.643052828459225068e-01
-8.150999999999999801e+00 1.286999999999999886e+02 3.056299999999999883e+01 1.504491999999999940e+01 -3.646088645741932810e-01
-8.150999999999999801e+00 1.288100000000000023e+02 2.976500000000000057e+01 -6.994396000000000058e+00 -3.644767704155819632e-01
-8.147100000000000009e+00 1.271800000000000068e+02 4.363199999999999790e+01 2.274360000000000070e+01 -1.655041354007625101e-02
-8.145400000000000418e+00 1.330399999999999920e+02 5.380700000000000216e+01 1.822090999999999994e+01 -7.020685061807144245e-02
-8.141899999999999693e+00 1.256599999999999966e+02 4.579800000000000182e+01 4.562711999999999790e+01 -1.218791781121582735e-01
-8.141899999999999693e+00 1.294600000000000080e+02 4.512800000000000011e+01 1.587148999999999965e+01 -1.312050481419724801e-01
-8.138500000000000512e+00 1.356800000000000068e+02 4.569599999999999795e+01 -3.080433000000000199e+00 -1.599441128297531267e-01
-8.138199999999999434e+00 1.295900000000000034e+02 4.186399999999999721e+01 -1.099499999999999922e+01 5.819683453972537487e-04
-8.137100000000000222e+00 1.360800000000000125e+02 4.518399999999999750e+01 4.804516999999999705e+00 -1.569817636357897783e-01
-8.137000000000000455e+00 1.296399999999999864e+02 3.401800000000000068e+01 -1.178087999999999980e+01 -2.325975311550634861e-01
-8.137000000000000455e+00 1.296399999999999864e+02 3.495799999999999841e+01 -2.392986000000000146e+01 -2.333924533424961700e-01
-8.135999999999999233e+00 1.330900000000000034e+02 4.273599999999999710e+01 1.655868999999999858e+01 -1.176850702313348568e-02
-8.131999999999999673e+00 1.353300000000000125e+02 4.627499999999999858e+01 -4.240618000000000443e+00 -1.576829374898115199e-01
-8.128299999999999415e+00 1.318300000000000125e+02 4.364600000000000080e+01 3.217571999999999832e+01 -2.386480647499051450e-02
-8.126300000000000523e+00 1.277199999999999989e+02 5.545499999999999829e+01 1.239315999999999995e+01 -3.499999999999999778e-01
-8.125099999999999767e+00 1.294600000000000080e+02 3.562500000000000000e+01 -1.608860999999999919e+01 -2.342118959843791648e-01
-8.122199999999999420e+00 1.179300000000000068e+02 5.823700000000000188e+01 6.391180999999999557e+00 -3.500000000000000333e-01
-8.122099999999999653e+00 1.196599999999999966e+02 6.079500000000000171e+01 6.568051999999999779e+00 -3.499999999999999778e-01
-8.119799999999999685e+00 1.346200000000000045e+02 4.432699999999999818e+01 1.280851999999999968e+01 1.220147718969091521e-01
-8.110300000000000509e+00 1.317899999999999920e+02 4.199900000000000233e+01 5.798333000000000403e+00 6.469436391841872167e-04
-8.109299999999999287e+00 1.131099999999999994e+02 5.701500000000000057e+01 -2.518101000000000145e+00 -3.500000000000000333e-01
-8.105600000000000804e+00 1.177099999999999937e+02 4.335600000000000165e+01 -5.914741999999999500e-01 -1.149745125638610907e-02
-8.105600000000000804e+00 1.191099999999999994e+02 4.335600000000000165e+01 4.906470999999999805e+00 -1.162923609774041932e-02
-8.102100000000000080e+00 1.296699999999999875e+02 4.030400000000000205e+01 -5.276131000000000348e+00 -1.390469968094856790e-01
-8.093400000000000816e+00 1.268700000000000045e+02 4.460000000000000142e+01 3.274385000000000190e+01 -1.215597345179398048e-01
-8.092900000000000205e+00 1.210600000000000023e+02 5.219400000000000261e+01 4.885211999999999932e+01 -1.002465336885938613e-01
-8.092900000000000205e+00 1.210600000000000023e+02 5.305899999999999750e+01 2.888891999999999882e+01 -3.499999999999999778e-01
-8.092100000000000293e+00 1.340600000000000023e+02 4.269800000000000040e+01 1.420618999999999943e+01 -1.206778960957695726e-02
-8.090099999999999625e+00 1.151599999999999966e+02 4.760000000000000142e+01 6.218778999999999613e+00 -1.102253778569561027e-01
-8.082100000000000506e+00 1.204000000000000057e+02 5.118500000000000227e+01 5.698100999999999772e+01 -1.034988819043453773e-01
-8.080700000000000216e+00 1.351899999999999977e+02 4.188799999999999812e+01 5.064903000000000155e+00 4.477487329727870488e-03
-8.077299999999999258e+00 1.284199999999999875e+02 4.799699999999999989e+01 4.211858000000000146e+01 -1.277458319407799303e-01
-8.069499999999999673e+00 1.144500000000000028e+02 5.708400000000000318e+01 2.809786000000000228e-01 -3.500000000000000333e-01
-8.069499999999999673e+00 1.161299999999999955e+02 5.876599999999999824e+01 -7.346272999999999831e-01 -3.499999999999999778e-01
-8.068699999999999761e+00 1.233599999999999994e+02 6.261500000000000199e+01 -1.704723999999999906e+00 -3.499999999999999778e-01
-8.067000000000000171e+00 1.299399999999999977e+02 4.106300000000000239e+01 -7.719456000000000095e+00 1.080667269755157187e-02
-8.062099999999999156e+00 1.209500000000000028e+02 6.255700000000000216e+01 -1.803550999999999860e+01 -3.499999999999999778e-01
-8.061500000000000554e+00 1.349199999999999875e+02 4.502700000000000102e+01 5.212622999999999784e+00 1.153087924885181498e-01
-8.060999999999999943e+00 1.287500000000000000e+02 5.633800000000000097e+01 1.477265000000000050e+01 -3.499999999999999778e-01
-8.054500000000000881e+00 1.295399999999999920e+02 3.638400000000000034e+01 -3.165310999999999986e+00 -2.350410394185112606e-01
-8.051999999999999602e+00 1.314799999999999898e+02 4.439900000000000091e+01 2.046801999999999921e+01 -1.357947151602565961e-01
-8.037000000000000810e+00 1.172900000000000063e+02 5.510999999999999943e+01 1.340063999999999922e+01 -3.499999999999999778e-01
-8.029999999999999361e+00 1.269399999999999977e+02 4.811999999999999744e+01 1.106510999999999996e+02 -1.226927402703041903e-01
-8.025000000000000355e+00 1.247399999999999949e+02 6.169400000000000261e+01 -2.350800000000000001e+00 -3.499999999999999778e-01
-8.022999999999999687e+00 1.106099999999999994e+02 5.660000000000000142e+01 -6.538332999999999728e+00 -3.500000000000000333e-01
-8.022999999999999687e+00 1.197199999999999989e+02 6.173400000000000176e+01 3.701151999999999997e+00 -3.499999999999999778e-01
-8.017099999999999227e+00 1.115600000000000023e+02 5.709599999999999653e+01 -4.047008999999999901e+01 -3.499999999999999778e-01
-8.013999999999999346e+00 1.248700000000000045e+02 6.063000000000000256e+01 -3.921964000000000006e+00 -3.500000000000000333e-01
-8.011200000000000543e+00 1.147600000000000051e+02 5.778399999999999892e+01 1.318484999999999907e+00 -3.499999999999999778e-01
-8.003700000000000259e+00 1.278100000000000023e+02 4.182300000000000040e+01 -4.698576000000000086e+00 -5.266465945915052354e-04
-8.000299999999999301e+00 1.256200000000000045e+02 5.537500000000000000e+01 1.187354000000000021e+01 -3.499999999999999778e-01
-7.996100000000000207e+00 1.152699999999999960e+02 5.886899999999999977e+01 1.899653999999999954e+00 -3.499999999999999778e-01
-7.992200000000000415e+00 1.215100000000000051e+02 3.473400000000000176e+01 5.322447000000000289e-02 -2.507260043928871140e-01
-7.990300000000000402e+00 1.329799999999999898e+02 5.077000000000000313e+01 3.292572999999999972e+00 -1.121749419413037574e-01
-7.988999999999999879e+00 1.297199999999999989e+02 4.448899999999999721e+01 7.524510000000000254e+00 -1.289834342321273808e-01
-7.988000000000000433e+00 1.330999999999999943e+02 4.430100000000000193e+01 3.154006000000000043e+01 1.306025189225148431e-01
-7.985999999999999766e+00 1.170799999999999983e+02 4.908100000000000307e+01 1.022833999999999932e+01 -1.081255756442407040e-01
-7.985000000000000320e+00 1.172800000000000011e+02 5.903999999999999915e+01 1.608552999999999900e+00 -3.499999999999999778e-01
-7.980699999999999683e+00 1.246400000000000006e+02 5.982399999999999807e+01 -1.429213999999999984e+01 -3.499999999999999778e-01
-7.969400000000000261e+00 1.298899999999999864e+02 5.656499999999999773e+01 1.543558999999999948e+01 -3.499999999999999778e-01
-7.968099999999999739e+00 1.305200000000000102e+02 3.747699999999999676e+01 -3.405657000000000156e+00 -2.360943545096366447e-01
-7.959900000000000198e+00 1.102600000000000051e+02 5.622899999999999920e+01 -2.926684999999999981e+00 -3.500000000000000333e-01
-7.950199999999999712e+00 1.288300000000000125e+02 4.200399999999999778e+01 -9.846197999999999340e+00 -1.438001408252837952e-03
-7.944300000000000139e+00 1.124200000000000017e+02 5.178199999999999648e+01 1.903345000000000065e+00 -1.025695585535810472e-01
-7.944300000000000139e+00 1.141200000000000045e+02 5.178199999999999648e+01 2.682398000000000060e+00 -1.023945202106588681e-01
-7.943200000000000038e+00 1.152099999999999937e+02 4.133200000000000074e+01 4.991206000000000254e-01 -5.808257340824346873e-03
-7.940100000000000158e+00 1.348000000000000114e+02 4.551599999999999824e+01 5.212622999999999784e+00 -1.557607973311175564e-01
-7.939799999999999969e+00 1.100100000000000051e+02 5.521500000000000341e+01 -1.910600999999999994e+00 -3.499999999999999778e-01
-7.938500000000000334e+00 1.290399999999999920e+02 4.601700000000000301e+01 2.087633999999999901e+01 -1.317256841322555494e-01
-7.936399999999999899e+00 1.352500000000000000e+02 4.135900000000000176e+01 3.263876000000000221e+00 -1.399346434215154311e-01
-7.930799999999999628e+00 1.300300000000000011e+02 4.378900000000000148e+01 6.274439000000000100e+00 -2.147466323025381749e-02
-7.929700000000000415e+00 1.319300000000000068e+02 4.500099999999999767e+01 1.883134000000000086e+01 -1.404588940532021657e-01
-7.922399999999999665e+00 1.259399999999999977e+02 4.753600000000000136e+01 6.546209000000000344e+01 -1.229001930640374746e-01
-7.918899999999999828e+00 1.292899999999999920e+02 3.320400000000000063e+01 6.059879999999999711e+00 -2.326447902385292699e-01
-7.918099999999999916e+00 1.184800000000000040e+02 5.484700000000000131e+01 8.341604999999999492e+00 -3.500000000000000333e-01
-7.905899999999999928e+00 1.268599999999999994e+02 5.521699999999999875e+01 1.913723999999999847e+01 -3.499999999999999778e-01
-7.905000000000000249e+00 1.345300000000000011e+02 4.627499999999999858e+01 1.713462999999999958e+00 -1.525840493120044494e-01
-7.905000000000000249e+00 1.361299999999999955e+02 4.627499999999999858e+01 -1.282925000000000093e+00 -1.571496988798521399e-01
-7.904499999999999638e+00 1.168499999999999943e+02 4.209499999999999886e+01 3.445565999999999907e+00 -7.471393596098707506e-03
-7.903999999999999915e+00 1.218799999999999955e+02 3.392099999999999937e+01 5.149325000000000152e-01 -3.642328459319587042e-01
-7.903999999999999915e+00 1.233299999999999983e+02 3.311500000000000199e+01 9.883802000000000421e-01 -3.643046683218523207e-01
-7.901699999999999946e+00 1.324000000000000057e+02 4.582399999999999807e+01 2.806272999999999840e+01 -1.469000925300199267e-01
-7.894400000000000084e+00 1.197600000000000051e+02 6.022500000000000142e+01 5.973774999999999835e+00 -3.499999999999999778e-01
-7.893299999999999983e+00 1.199200000000000017e+02 5.397299999999999898e+01 1.980208000000000013e+01 -3.499999999999999778e-01
-7.891899999999999693e+00 1.276599999999999966e+02 4.270400000000000063e+01 6.968378000000000405e+00 -8.526572908614209537e-03
-7.871500000000000163e+00 1.215999999999999943e+02 3.553600000000000136e+01 -8.416863999999999457e-01 -2.510926041973359224e-01
-7.871500000000000163e+00 1.215999999999999943e+02 3.700800000000000267e+01 4.973557000000000117e-01 -2.520586296530212822e-01
-7.871500000000000163e+00 1.218100000000000023e+02 3.627199999999999847e+01 1.551732999999999862e-01 -2.514847088628602845e-01
-7.869299999999999962e+00 1.136700000000000017e+02 4.199099999999999966e+01 1.115744000000000069e+00 -7.936333049435546211e-03
-7.864099999999999646e+00 1.256299999999999955e+02 4.683599999999999852e+01 5.973785999999999774e+01 -1.231292254915645479e-01
-7.863000000000000433e+00 1.142500000000000000e+02 5.879599999999999937e+01 1.430296000000000012e+00 -3.499999999999999778e-01
-7.863000000000000433e+00 1.321599999999999966e+02 5.772299999999999898e+01 4.090892000000000195e+01 -2.308512547251414249e-01
-7.863000000000000433e+00 1.332700000000000102e+02 5.462199999999999989e+01 2.321972999999999843e+01 -2.301016270544381792e-01
-7.863000000000000433e+00 1.334799999999999898e+02 5.388600000000000279e+01 9.573244000000000753e+00 5.517713479822168587e-02
-7.863000000000000433e+00 1.334799999999999898e+02 5.535799999999999699e+01 1.656441999999999837e+01 -2.299477107332520698e-01
-7.863000000000000433e+00 1.334799999999999898e+02 5.698799999999999955e+01 5.451953999999999922e+01 -2.305796837948132505e-01
-7.863000000000000433e+00 1.337100000000000080e+02 5.617300000000000182e+01 1.430220999999999947e+02 -2.301730722142112384e-01
-7.857899999999999885e+00 1.306800000000000068e+02 4.106300000000000239e+01 -7.405848000000000431e-01 1.254819503623765854e-02
-7.846000000000000085e+00 1.205900000000000034e+02 4.020199999999999818e+01 8.362416000000000293e-01 1.727132596103939793e-03
-7.843700000000000117e+00 1.363400000000000034e+02 4.048100000000000165e+01 5.531392999999999560e+00 -1.388469696074349780e-01
-7.843399999999999928e+00 1.335800000000000125e+02 4.507699999999999818e+01 8.231645999999999574e+00 -1.492644130378852629e-01
-7.842999999999999972e+00 1.322199999999999989e+02 4.439900000000000091e+01 1.788361000000000089e+01 -1.379419717272192258e-01
-7.841700000000000337e+00 1.348600000000000136e+02 4.703499999999999659e+01 2.845476999999999812e+00 -1.487273653566795750e-01
-7.841700000000000337e+00 1.358000000000000114e+02 4.703499999999999659e+01 -3.311606999999999967e+00 -1.510537545317299224e-01
-7.836100000000000065e+00 1.200600000000000023e+02 5.952499999999999858e+01 1.478736999999999924e+01 -3.500000000000000333e-01
-7.824699999999999989e+00 1.254699999999999989e+02 2.963100000000000023e+01 -4.933160999999999796e-01 -3.641884349075991123e-01
-7.818999999999999950e+00 1.375300000000000011e+02 4.414699999999999847e+01 1.354645999999999972e+01 1.353457122575010274e-01
-7.815400000000000347e+00 1.325600000000000023e+02 4.694200000000000017e+01 2.002505999999999986e+01 -1.421857962734640601e-01
-7.812899999999999956e+00 1.163199999999999932e+02 5.917199999999999704e+01 1.183297000000000043e+00 -3.500000000000000333e-01
-7.809999999999999609e+00 1.288499999999999943e+02 4.729699999999999704e+01 3.558057000000000158e+01 -1.314631924599359292e-01
-7.809800000000000075e+00 1.158499999999999943e+02 5.466499999999999915e+01 9.204102999999999923e+00 -3.499999999999999778e-01
-7.808099999999999596e+00 1.198400000000000034e+02 5.127700000000000102e+01 3.142409999999999926e+01 -1.032076797750002967e-01
-7.801999999999999602e+00 1.170199999999999960e+02 4.271300000000000097e+01 -4.941975000000000118e-01 -9.319553366414264767e-03
-7.798600000000000421e+00 1.131099999999999994e+02 4.347399999999999665e+01 6.378211000000000297e-01 -1.073122580180293911e-01
-7.793899999999999828e+00 1.217099999999999937e+02 6.259199999999999875e+01 -1.546998999999999924e+01 -3.499999999999999778e-01
-7.786100000000000243e+00 1.110000000000000000e+02 5.379200000000000159e+01 -2.884580999999999951e-01 -3.499999999999999778e-01
-7.785899999999999821e+00 1.129000000000000057e+02 4.435999999999999943e+01 7.886942000000000119e-01 -1.079185871312653838e-01
-7.785300000000000331e+00 1.202300000000000040e+02 4.266599999999999682e+01 7.414606000000000030e+00 -8.770020094163643795e-03
-7.778699999999999726e+00 1.295399999999999920e+02 4.264699999999999847e+01 3.652635000000000076e+00 -7.987874998733716231e-03
-7.774499999999999744e+00 1.185300000000000011e+02 5.834000000000000341e+01 7.122010000000000396e+00 -3.499999999999999778e-01
-7.774499999999999744e+00 1.193900000000000006e+02 5.834000000000000341e+01 2.238592999999999833e+01 -3.499999999999999778e-01
-7.773900000000000254e+00 1.277199999999999989e+02 4.805599999999999739e+01 8.515698999999999330e+01 -1.248028443316730601e-01
-7.759000000000000341e+00 1.312500000000000000e+02 3.747699999999999676e+01 -1.341118000000000032e+00 -2.361611577429666153e-01
-7.747700000000000031e+00 1.139500000000000028e+02 4.643200000000000216e+01 4.302912000000000070e+00 -1.097903437216801725e-01
-7.746699999999999697e+00 1.240799999999999983e+02 3.296600000000000108e+01 1.527536999999999923e+00 -3.643864114475358074e-01
-7.744699999999999918e+00 1.280099999999999909e+02 4.342999999999999972e+01 5.904077000000000019e+00 -1.498255550533018551e-02
-7.743999999999999773e+00 1.381999999999999886e+02 4.339099999999999824e+01 2.218335000000000079e+01 1.437472812548030165e-01
-7.735800000000000232e+00 1.326500000000000057e+02 4.222999999999999687e+01 6.770910999999999902e+00 -2.193699391648630103e-03
-7.733999999999999986e+00 1.340999999999999943e+02 5.187700000000000244e+01 4.139670999999999879e+00 -9.329931336501637307e-02
-7.733999999999999986e+00 1.340999999999999943e+02 5.281700000000000017e+01 1.010585000000000067e+00 4.680594236440842326e-02
-7.732899999999999885e+00 1.251800000000000068e+02 5.607500000000000284e+01 1.787941999999999920e+00 -3.499999999999999778e-01
-7.732700000000000351e+00 1.201899999999999977e+02 6.249399999999999977e+01 -2.822758000000000211e-01 -3.499999999999999778e-01
-7.731300000000000061e+00 1.225499999999999972e+02 6.268500000000000227e+01 -3.683021000000000100e+00 -3.499999999999999778e-01
-7.730999999999999872e+00 1.340600000000000023e+02 4.551599999999999824e+01 6.466120000000000090e+00 -1.521561915075254900e-01
-7.727000000000000313e+00 1.179800000000000040e+02 4.995499999999999829e+01 8.142293000000000447e+00 -1.063999131645749774e-01
-7.721799999999999997e+00 1.307199999999999989e+02 3.817199999999999704e+01 -1.454088999999999965e+00 -2.373139568667749777e-01
-7.720600000000000129e+00 1.326699999999999875e+02 4.500099999999999767e+01 1.268745000000000012e+01 -1.428714080807592379e-01
-7.720399999999999707e+00 1.298499999999999943e+02 4.334700000000000131e+01 5.346208999999999989e+00 -1.586850533382332812e-02
-7.716999999999999638e+00 1.212300000000000040e+02 3.789699999999999847e+01 6.849756999999999652e-01 -2.526414693597923700e-01
-7.716199999999999726e+00 1.182199999999999989e+02 5.903999999999999915e+01 3.526755000000000084e+00 -3.499999999999999778e-01
-7.716199999999999726e+00 1.197000000000000028e+02 5.903999999999999915e+01 1.069378000000000029e+01 -3.499999999999999778e-01
-7.714999999999999858e+00 1.325000000000000000e+02 4.745900000000000318e+01 1.281015999999999977e+01 -1.384756600451291786e-01
-7.714999999999999858e+00 1.325000000000000000e+02 4.832500000000000284e+01 1.002130999999999972e+01 -1.327931106516090642e-01
-7.711299999999999599e+00 1.137399999999999949e+02 5.798100000000000165e+01 7.584516000000000036e-01 -3.500000000000000888e-01
-7.709299999999999820e+00 1.263599999999999994e+02 4.553000000000000114e+01 4.003871000000000180e+01 -1.217701844627991220e-01
-7.709299999999999820e+00 1.287599999999999909e+02 4.539500000000000313e+01 8.191325000000000855e+00 -1.279589603000578779e-01
-7.703400000000000247e+00 1.252000000000000028e+02 5.695900000000000318e+01 -8.719181000000000736e+00 -3.499999999999999778e-01
-7.700300000000000367e+00 1.242099999999999937e+02 6.254399999999999693e+01 1.495143000000000111e+00 -3.499999999999999778e-01
-7.700300000000000367e+00 1.313499999999999943e+02 4.134000000000000341e+01 1.391818999999999917e+00 1.017826879894767091e-02
-7.695899999999999963e+00 1.337899999999999920e+02 4.627499999999999858e+01 5.308943000000000190e+00 -1.482970126676035894e-01
-7.695000000000000284e+00 1.369799999999999898e+02 4.512100000000000222e+01 4.938555000000000028e+00 -1.491756237996745560e-01
-7.690000000000000391e+00 1.265100000000000051e+02 4.752400000000000091e+01 7.086490000000000578e+01 -1.241056302985080739e-01
-7.686399999999999899e+00 1.277099999999999937e+02 4.413000000000000256e+01 1.051008000000000031e+01 -1.209050979339186815e-01
-7.686399999999999899e+00 1.291800000000000068e+02 4.413000000000000256e+01 6.547325999999999979e+00 -1.246445908626800103e-01
-7.681300000000000239e+00 1.265300000000000011e+02 2.853500000000000014e+01 -6.588469000000000131e-01 -3.641637843885284775e-01
-7.681300000000000239e+00 1.280500000000000114e+02 2.853500000000000014e+01 -1.936112999999999973e+00 -3.642898612662307523e-01
-7.676999999999999602e+00 1.394900000000000091e+02 4.307200000000000273e+01 2.180252999999999872e+02 1.593216226918107992e-01
-7.676999999999999602e+00 1.408100000000000023e+02 4.070700000000000074e+01 3.975207999999999942e+01 -2.574094284669963817e-01
-7.676999999999999602e+00 1.408100000000000023e+02 4.233700000000000330e+01 4.876429000000000258e+01 2.380935841352557758e-02
-7.676999999999999602e+00 1.410399999999999920e+02 4.152199999999999847e+01 2.703165999999999869e+01 -2.502980172938357173e-01
-7.676899999999999835e+00 1.135900000000000034e+02 4.558200000000000074e+01 -3.274132999999999960e+00 -1.089727678753234230e-01
-7.674000000000000377e+00 1.250900000000000034e+02 5.857399999999999807e+01 -1.972328999999999866e+01 -3.499999999999999778e-01
-7.674000000000000377e+00 1.253199999999999932e+02 5.777499999999999858e+01 -3.169765999999999906e+01 -3.500000000000000333e-01
-7.673000000000000043e+00 1.184099999999999966e+02 4.362299999999999756e+01 3.378461999999999854e+00 -1.091885173596915115e-01
-7.670700000000000074e+00 1.108299999999999983e+02 5.692799999999999727e+01 -2.508073999999999870e+01 -3.499999999999999778e-01
-7.662700000000000067e+00 1.288100000000000023e+02 3.115599999999999881e+01 2.472882999999999853e+01 -3.648519982847418519e-01
-7.662700000000000067e+00 1.290200000000000102e+02 3.189199999999999946e+01 8.504497999999999891e+00 -3.650246310463714505e-01
-7.660300000000000331e+00 1.203599999999999994e+02 5.192699999999999960e+01 3.425009000000000015e+01 -1.012627302534914175e-01
-7.660300000000000331e+00 1.203599999999999994e+02 5.332699999999999818e+01 2.520401000000000025e+01 -3.499999999999999778e-01
-7.653699999999999726e+00 1.374199999999999875e+02 3.945300000000000296e+01 3.104547999999999863e+00 -1.382374545401131583e-01
-7.653699999999999726e+00 1.391200000000000045e+02 3.945300000000000296e+01 5.772205999999999726e+00 -1.454053840651562401e-01
-7.650999999999999801e+00 1.260499999999999972e+02 4.622999999999999687e+01 6.423252999999999702e+01 -1.224266016559725223e-01
-7.650999999999999801e+00 1.275900000000000034e+02 4.469500000000000028e+01 7.170411999999999786e+00 -1.222905204119924816e-01
-7.650999999999999801e+00 1.290600000000000023e+02 4.469500000000000028e+01 1.380148999999999937e+01 -1.263137792245284940e-01
-7.650900000000000034e+00 1.304199999999999875e+02 4.052100000000000080e+01 -2.307892999999999972e+01 -1.390347250892917663e-01
-7.647999999999999687e+00 1.344900000000000091e+02 4.215500000000000114e+01 6.321645000000000181e+00 -6.330145774517346438e-04
-7.641200000000000436e+00 1.167199999999999989e+02 5.993999999999999773e+01 -1.098573000000000022e+00 -3.499999999999999778e-01
-7.641200000000000436e+00 1.178299999999999983e+02 5.993999999999999773e+01 -1.862891999999999992e+00 -3.499999999999999778e-01
-7.639899999999999913e+00 1.159099999999999966e+02 4.139000000000000057e+01 -2.989918999999999993e+00 -5.603869412040708015e-03
-7.635799999999999699e+00 1.184500000000000028e+02 5.045000000000000284e+01 1.242966999999999977e+01 -1.052865977027715172e-01
-7.631700000000000372e+00 1.262000000000000028e+02 4.682399999999999807e+01 7.872736999999999341e+01 -1.238672115687330377e-01
-7.629299999999999748e+00 1.285500000000000114e+02 4.288600000000000279e+01 6.963530000000000442e+00 -1.006093587929266127e-02
-7.626999999999999780e+00 1.193299999999999983e+02 5.952499999999999858e+01 9.711899000000000726e+00 -3.499999999999999778e-01
-7.621900000000000119e+00 1.302400000000000091e+02 3.665200000000000102e+01 -5.281321000000000154e+00 -2.353998423366118475e-01
-7.613000000000000433e+00 1.165499999999999972e+02 4.839900000000000091e+01 1.747026999999999930e+01 -1.093087453093739975e-01
-7.609099999999999753e+00 1.133499999999999943e+02 5.879599999999999937e+01 2.972582000000000058e+00 -3.500000000000000333e-01
-7.606300000000000061e+00 1.333000000000000114e+02 4.594599999999999795e+01 1.718965999999999994e+01 -1.474209151945721497e-01
-7.604400000000000048e+00 1.165900000000000034e+02 5.484300000000000352e+01 9.426220999999999961e+00 -3.499999999999999778e-01
-7.604400000000000048e+00 1.179899999999999949e+02 5.484300000000000352e+01 -1.198817999999999939e+00 -3.499999999999999778e-01
-7.602000000000000313e+00 1.206599999999999966e+02 5.262700000000000244e+01 3.413107000000000113e+01 -9.905878761662306742e-02
-7.599499999999999922e+00 1.306200000000000045e+02 5.687100000000000222e+01 2.767377000000000109e+01 -3.499999999999999778e-01
-7.592600000000000016e+00 1.301200000000000045e+02 3.982099999999999795e+01 -1.096320000000000050e+01 -1.383810682252002711e-01
-7.587699999999999889e+00 1.272600000000000051e+02 4.545499999999999829e+01 2.221999999999999975e+00 -1.234058620823940411e-01
-7.587699999999999889e+00 1.281200000000000045e+02 4.545499999999999829e+01 1.037903999999999982e+01 -1.257409933402230950e-01
-7.585099999999999731e+00 1.262399999999999949e+02 5.540100000000000335e+01 2.610707999999999984e+01 -3.499999999999999778e-01
-7.582900000000000418e+00 1.190000000000000000e+02 6.064000000000000057e+01 7.321862999999999566e+00 -3.500000000000000333e-01
-7.577899999999999636e+00 1.151500000000000057e+02 5.319800000000000040e+01 5.619456999999999702e+00 -3.500000000000000333e-01
-7.574200000000000266e+00 1.326599999999999966e+02 4.895600000000000307e+01 1.098156999999999961e+01 -1.272231171878810685e-01
-7.574200000000000266e+00 1.326599999999999966e+02 4.982200000000000273e+01 1.207403000000000048e+01 -1.196776971731342981e-01
-7.570700000000000429e+00 1.208599999999999994e+02 3.922800000000000153e+01 4.586822999999999873e+00 -2.534623458066665447e-01
-7.566300000000000026e+00 1.122900000000000063e+02 5.737400000000000233e+01 -2.376433000000000106e+01 -3.499999999999999778e-01
-7.563600000000000101e+00 1.299300000000000068e+02 3.595199999999999818e+01 -4.870248000000000133e+00 -2.347621908921991574e-01
-7.548899999999999721e+00 1.335800000000000125e+02 4.220700000000000074e+01 1.042318999999999996e+01 -1.432965747443283068e-03
-7.545499999999999652e+00 1.186700000000000017e+02 5.987199999999999989e+01 4.877989999999999604e+00 -3.499999999999999778e-01
-7.542399999999999771e+00 1.154200000000000017e+02 5.396500000000000341e+01 6.473310999999999815e+00 -3.499999999999999778e-01
-7.538299999999999557e+00 1.137199999999999989e+02 5.964600000000000080e+01 2.983238000000000056e+00 -3.500000000000000333e-01
-7.538299999999999557e+00 1.147699999999999960e+02 5.964600000000000080e+01 1.232240000000000002e+01 -3.499999999999999778e-01
-7.536800000000000388e+00 1.291899999999999977e+02 5.629800000000000182e+01 1.867069000000000045e+01 -3.500000000000000333e-01
-7.534600000000000186e+00 1.174500000000000028e+02 4.341299999999999670e+01 -6.652715000000000156e-01 -1.083934674313910690e-01
-7.532000000000000028e+00 1.305200000000000102e+02 3.901200000000000045e+01 -5.342291000000000345e+00 -1.370258751242225403e-01
-7.532000000000000028e+00 1.320500000000000114e+02 3.747699999999999676e+01 -6.455114000000000019e+00 -2.364366831825982229e-01
-7.519999999999999574e+00 1.250999999999999943e+02 3.037699999999999889e+01 1.997605999999999993e+00 -3.642851582274341804e-01
-7.519999999999999574e+00 1.250999999999999943e+02 3.142699999999999960e+01 1.329531000000000063e+01 -3.643909965872177414e-01
-7.519999999999999574e+00 1.250999999999999943e+02 3.229299999999999926e+01 1.078749000000000002e+01 -3.644731642196662458e-01
-7.517900000000000027e+00 1.197999999999999972e+02 4.336599999999999966e+01 9.132319000000000742e+00 -1.142764812378970277e-02
-7.511300000000000310e+00 1.291100000000000136e+02 4.334700000000000131e+01 8.240323999999999316e+00 -1.477312116075414107e-02
-7.510100000000000442e+00 1.132099999999999937e+02 5.135399999999999920e+01 2.772346000000000199e+00 -1.032144504794602902e-01
-7.507100000000000328e+00 1.189599999999999937e+02 5.903999999999999915e+01 1.096523000000000003e+01 -3.500000000000000333e-01
-7.505499999999999616e+00 1.156800000000000068e+02 4.768900000000000006e+01 7.814886999999999695e+00 -1.102605043019062314e-01
-7.504500000000000171e+00 1.147800000000000011e+02 5.219200000000000017e+01 2.106987999999999861e+00 -3.499999999999999778e-01
-7.490599999999999703e+00 1.175699999999999932e+02 4.964000000000000057e+01 8.579551000000000371e+00 -1.070065718454323023e-01
-7.485599999999999810e+00 1.152300000000000040e+02 4.723700000000000188e+01 3.556775000000000020e+00 -1.108004538931771921e-01
-7.483200000000000074e+00 1.128900000000000006e+02 5.808500000000000085e+01 -1.697375999999999996e+00 -3.500000000000000333e-01
-7.477299999999999613e+00 1.284399999999999977e+02 4.413000000000000256e+01 8.501480000000000814e+00 -1.219817748768550897e-01
-7.473300000000000054e+00 1.275600000000000023e+02 5.548499999999999943e+01 1.469504000000000055e+01 -3.499999999999999778e-01
-7.473099999999999632e+00 1.193100000000000023e+02 5.447500000000000142e+01 7.725722000000000200e+00 -3.499999999999999778e-01
-7.468700000000000117e+00 1.317199999999999989e+02 3.671699999999999875e+01 -8.043638000000000524e-03 -2.351787653034109749e-01
-7.468700000000000117e+00 1.317199999999999989e+02 3.823700000000000188e+01 -9.954352000000000089e+00 -2.377934714039555697e-01
-7.447099999999999831e+00 1.366800000000000068e+02 4.584199999999999875e+01 -2.457812999999999803e+00 -1.513276431702285096e-01
-7.444600000000000328e+00 1.300500000000000114e+02 3.448799999999999955e+01 -3.222100999999999882e+00 -2.332818660481446593e-01
-7.444600000000000328e+00 1.300500000000000114e+02 3.539500000000000313e+01 -7.097165999999999642e+00 -2.341865186714207070e-01
-7.443699999999999761e+00 1.336299999999999955e+02 5.111699999999999733e+01 1.901041999999999899e+00 -1.036144218799829042e-01
-7.442999999999999616e+00 1.337299999999999898e+02 5.363700000000000045e+01 2.054921999999999827e+01 5.433586603182717634e-02
-7.441900000000000404e+00 1.267900000000000063e+02 4.622999999999999687e+01 5.150135999999999825e+01 -1.236272334159848746e-01
-7.441900000000000404e+00 1.283199999999999932e+02 4.469500000000000028e+01 8.335413000000000849e+00 -1.234825814336829863e-01
-7.438399999999999679e+00 1.357100000000000080e+02 4.083800000000000097e+01 3.091845000000000176e+00 -1.396170957459711426e-01
-7.435900000000000176e+00 1.158400000000000034e+02 5.990500000000000114e+01 1.872775999999999885e-01 -3.499999999999999778e-01
-7.435900000000000176e+00 1.298000000000000114e+02 3.365400000000000347e+01 1.444623999999999908e-01 -2.328599979886593341e-01
-7.418999999999999595e+00 1.114800000000000040e+02 5.304599999999999937e+01 1.348505000000000065e+00 -3.500000000000000333e-01
-7.418999999999999595e+00 1.118199999999999932e+02 5.226299999999999812e+01 2.448903000000000052e+00 -3.499999999999999778e-01
-7.411100000000000243e+00 1.353300000000000125e+02 4.756799999999999784e+01 -5.322676000000000407e+00 -1.410662806222483523e-01
-7.410000000000000142e+00 1.295600000000000023e+02 3.307500000000000284e+01 3.805620999999999921e+00 -2.327744862954660710e-01
-7.403999999999999915e+00 1.293400000000000034e+02 3.261599999999999966e+01 4.275959000000000287e+00 -2.327872464765066152e-01
-7.403999999999999915e+00 1.208799999999999955e+02 4.119400000000000261e+01 -7.779563999999999702e+00 -2.106058382220977153e-03
-7.403999999999999915e+00 1.208799999999999955e+02 4.205899999999999750e+01 9.525919000000000469e-01 -5.858579409868423966e-03
-7.391000000000000014e+00 1.285200000000000102e+02 2.929500000000000171e+01 1.863280000000000047e+00 -3.645328565694536671e-01
-7.385600000000000165e+00 1.331899999999999977e+02 4.700399999999999778e+01 1.455652000000000079e+01 -1.404588827772322857e-01
-7.385600000000000165e+00 1.340500000000000114e+02 4.700399999999999778e+01 3.434875000000000012e-01 -1.424927345884732799e-01
-7.384000000000000341e+00 1.313799999999999955e+02 5.742699999999999960e+01 2.837058999999999997e+01 -2.317013165497069094e-01
-7.384000000000000341e+00 1.329300000000000068e+02 5.742699999999999960e+01 1.790800999999999874e+02 -2.318634279687855348e-01
-7.380099999999999660e+00 1.309300000000000068e+02 4.060699999999999932e+01 -1.675856000000000012e-01 -1.390244861744405480e-01
-7.377299999999999969e+00 1.272900000000000063e+02 4.616499999999999915e+01 3.912049999999999983e+01 -1.245752802913137336e-01
-7.377299999999999969e+00 1.272900000000000063e+02 4.756499999999999773e+01 9.689956999999999709e+01 -1.255808322836357294e-01
-7.377299999999999969e+00 1.281500000000000057e+02 4.756499999999999773e+01 5.506255000000000166e+01 -1.278490507387980701e-01
-7.376900000000000013e+00 1.134599999999999937e+02 4.263000000000000256e+01 1.151944999999999997e+00 -9.355667556585140626e-03
-7.371999999999999886e+00 1.365600000000000023e+02 4.674499999999999744e+01 -7.819601000000000468e-01 -1.482459668478804948e-01
-7.351899999999999658e+00 1.272900000000000063e+02 2.847200000000000131e+01 -3.793810999999999822e+00 -3.642776024898083387e-01
-7.349599999999999689e+00 1.286500000000000057e+02 3.021900000000000119e+01 1.754756999999999891e+02 -3.647256965907902937e-01
-7.342399999999999594e+00 1.143700000000000045e+02 4.157999999999999829e+01 1.944911000000000001e-01 -6.582630986176387852e-03
-7.339699999999999669e+00 1.104000000000000057e+02 5.474799999999999756e+01 -1.845739999999999936e+00 -3.500000000000000333e-01
-7.335899999999999643e+00 1.133799999999999955e+02 4.374699999999999989e+01 -3.397668999999999828e-01 -1.072880742458937886e-01
-7.319099999999999717e+00 1.269800000000000040e+02 4.686500000000000199e+01 6.180089999999999861e+01 -1.250377298009661131e-01
-7.319099999999999717e+00 1.284600000000000080e+02 4.686500000000000199e+01 3.557945999999999742e+01 -1.293943804006812415e-01
-7.315299999999999692e+00 1.190600000000000023e+02 5.117600000000000193e+01 2.584408000000000172e+01 -1.034763123385518541e-01
-7.301000000000000156e+00 1.172900000000000063e+02 5.490100000000000335e+01 7.748406000000000127e+00 -3.500000000000000333e-01
-7.300300000000000011e+00 1.258799999999999955e+02 5.580799999999999983e+01 2.222804000000000002e+01 -3.500000000000000333e-01
-7.293099999999999916e+00 1.368400000000000034e+02 4.013799999999999812e+01 3.473774999999999835e+00 -1.397377742139434553e-01
-7.285300000000000331e+00 1.382700000000000102e+02 3.938199999999999790e+01 1.291829000000000072e+01 -1.420191600729044379e-01
-7.277800000000000047e+00 1.260400000000000063e+02 2.926099999999999923e+01 -1.101882000000000028e+00 -3.642830819720699886e-01
-7.262999999999999901e+00 1.193400000000000034e+02 6.132600000000000051e+01 3.067289999999999850e+00 -3.499999999999999778e-01
-7.262999999999999901e+00 1.196599999999999966e+02 6.206300000000000239e+01 1.783428999999999931e+00 -3.499999999999999778e-01
-7.262999999999999901e+00 1.209500000000000028e+02 6.278399999999999892e+01 -4.720584999999999809e+01 -3.499999999999999778e-01
-7.260299999999999976e+00 1.321100000000000136e+02 4.147399999999999665e+01 4.033858000000000388e+00 9.631839407604422115e-03
-7.252600000000000158e+00 1.246700000000000017e+02 3.299300000000000210e+01 2.857368999999999826e+00 -3.645201690866239908e-01
-7.243199999999999861e+00 1.154699999999999989e+02 4.089900000000000091e+01 -1.761884000000000006e+00 -4.323205857171870913e-03
-7.224499999999999922e+00 1.147300000000000040e+02 4.124699999999999989e+01 4.237437000000000009e-01 -5.571522729272528410e-03
-7.224099999999999966e+00 1.329000000000000057e+02 4.789200000000000301e+01 1.242943999999999960e+01 -1.331985208138780075e-01
-7.216899999999999871e+00 1.143100000000000023e+02 5.143900000000000006e+01 1.878538999999999959e+00 -1.030169230657236035e-01
-7.211999999999999744e+00 1.212399999999999949e+02 3.503000000000000114e+01 -1.715467999999999993e-01 -2.504675205604015020e-01
-7.211100000000000065e+00 1.115600000000000023e+02 5.732900000000000063e+01 -2.023181999999999903e+01 -3.500000000000000333e-01
-7.206000000000000405e+00 1.220600000000000023e+02 6.271600000000000108e+01 -1.882750000000000057e+01 -3.499999999999999778e-01
-7.200999999999999623e+00 1.100699999999999932e+02 5.569800000000000040e+01 -3.017847000000000168e+00 -3.499999999999999778e-01
-7.200999999999999623e+00 1.102999999999999972e+02 5.649699999999999989e+01 -2.873010000000000019e+01 -3.499999999999999778e-01
-7.198000000000000398e+00 1.402700000000000102e+02 4.026800000000000068e+01 8.390978000000000492e+00 -2.621978604618125375e-01
-7.198000000000000398e+00 1.402700000000000102e+02 4.277600000000000335e+01 6.691357000000000710e+01 1.762502419398080666e-02
-7.193299999999999805e+00 1.198599999999999994e+02 5.367000000000000171e+01 2.386337999999999937e+01 -3.500000000000000333e-01
-7.185999999999999943e+00 1.139800000000000040e+02 4.514900000000000091e+01 -8.273505000000000109e+00 -1.084407907588087888e-01
-7.183300000000000018e+00 1.207800000000000011e+02 3.833800000000000097e+01 7.743204000000000198e-01 -2.526596752607982443e-01
-7.182100000000000151e+00 1.184800000000000040e+02 5.463799999999999812e+01 5.881827000000000361e+00 -3.499999999999999778e-01
-7.180299999999999905e+00 1.170400000000000063e+02 4.879599999999999937e+01 2.198679999999999879e+01 -1.086522226205370867e-01
-7.176300000000000345e+00 1.331999999999999886e+02 5.041700000000000159e+01 5.046539000000000108e+00 -1.110856033600642057e-01
-7.174999999999999822e+00 1.233599999999999994e+02 6.286899999999999977e+01 -4.607921000000000156e+00 -3.499999999999999778e-01
-7.174999999999999822e+00 1.248100000000000023e+02 6.206300000000000239e+01 -3.005288000000000181e+00 -3.500000000000000333e-01
-7.174999999999999822e+00 1.249200000000000017e+02 6.028900000000000148e+01 4.960142000000000162e-01 -3.499999999999999778e-01
-7.174999999999999822e+00 1.250600000000000023e+02 6.116899999999999693e+01 5.080379999999999896e-01 -3.499999999999999778e-01
-7.171499999999999986e+00 1.215499999999999972e+02 3.583899999999999864e+01 -3.442737000000000158e+00 -2.507850541229737495e-01
-7.171499999999999986e+00 1.215499999999999972e+02 3.670499999999999829e+01 -6.426849000000000034e-01 -2.513460281515961792e-01
-7.170899999999999608e+00 1.374399999999999977e+02 3.967600000000000193e+01 3.104547999999999863e+00 -1.401807686704431566e-01
-7.169900000000000162e+00 1.268599999999999994e+02 5.542699999999999960e+01 2.614821999999999846e+01 -3.499999999999999778e-01
-7.163999999999999702e+00 1.248299999999999983e+02 5.936899999999999977e+01 -3.499230000000000018e+01 -3.499999999999999223e-01
-7.163100000000000023e+00 1.199899999999999949e+02 5.273899999999999721e+01 2.743878000000000128e+01 -3.499999999999999778e-01
-7.163000000000000256e+00 1.179399999999999977e+02 5.001299999999999812e+01 1.319674000000000014e+01 -1.062224522211902417e-01
-7.148699999999999832e+00 1.142699999999999960e+02 4.595499999999999829e+01 2.195713999999999999e-01 -1.091337530173790149e-01
-7.144300000000000317e+00 1.209500000000000028e+02 4.249199999999999733e+01 7.307563000000000031e+00 -7.590332658288620644e-03
-7.142900000000000027e+00 1.345699999999999932e+02 4.760300000000000153e+01 -1.260305999999999926e+01 -1.371506610166332574e-01
-7.134699999999999598e+00 1.195900000000000034e+02 5.195799999999999841e+01 2.522785000000000011e+01 -1.013363422391427848e-01
-7.132200000000000095e+00 1.312899999999999920e+02 3.612700000000000244e+01 -8.620999000000000301e-01 -2.348282967326167925e-01
-7.132200000000000095e+00 1.312899999999999920e+02 3.882699999999999818e+01 -1.791468000000000060e+01 -2.389484294070210735e-01
-7.131300000000000416e+00 1.172800000000000011e+02 6.057099999999999795e+01 -3.987731000000000137e+00 -3.500000000000000333e-01
-7.122200000000000308e+00 1.286100000000000136e+02 3.082199999999999918e+01 3.266470999999999947e+01 -3.648725154858165065e-01
-7.118999999999999773e+00 1.374600000000000080e+02 4.460199999999999676e+01 2.523009000000000057e+01 -1.392431846896317049e-01
-7.118299999999999628e+00 1.350999999999999943e+02 4.127300000000000324e+01 4.833066999999999780e+00 -1.404948745200641225e-01
-7.110000000000000320e+00 1.277199999999999989e+02 4.686500000000000199e+01 5.186630000000000251e+01 -1.264001603306449673e-01
-7.109799999999999898e+00 1.161200000000000045e+02 5.423199999999999932e+01 9.656745000000000800e+00 -3.500000000000000333e-01
-7.102000000000000313e+00 1.167500000000000000e+02 4.228099999999999881e+01 -1.481789000000000023e+01 -7.780471754967531808e-03
-7.102000000000000313e+00 1.169599999999999937e+02 4.301700000000000301e+01 -4.160502000000000145e+00 -9.985819401625751698e-03
-7.096300000000000274e+00 1.335099999999999909e+02 5.415699999999999648e+01 4.882130999999999688e+01 -2.321206370606730407e-01
-7.092800000000000438e+00 1.127399999999999949e+02 5.836299999999999955e+01 -3.109756000000000187e-01 -3.500000000000000333e-01
-7.088000000000000078e+00 1.334099999999999966e+02 5.569400000000000261e+01 5.686184999999999690e+01 -2.319424189249831569e-01
-7.088000000000000078e+00 1.334099999999999966e+02 5.665200000000000102e+01 4.081882000000000232e+01 -2.323237218802473580e-01
-7.086000000000000298e+00 1.206500000000000057e+02 4.319200000000000017e+01 1.397245000000000026e+01 -1.055473069508091818e-02
-7.085300000000000153e+00 1.190999999999999943e+02 4.363300000000000267e+01 2.977233000000000018e+00 -1.089447452930155935e-01
-7.083999999999999631e+00 1.322199999999999989e+02 3.656000000000000227e+01 -4.759465999999999752e+00 -2.354353340281634954e-01
-7.083300000000000374e+00 1.330500000000000114e+02 4.938900000000000290e+01 9.378147000000000233e+00 -1.205654882082024953e-01
-7.081699999999999662e+00 1.360900000000000034e+02 4.750500000000000256e+01 -1.595388999999999946e+01 -1.385989839403372892e-01
-7.081299999999999706e+00 1.284300000000000068e+02 5.609700000000000131e+01 1.406335999999999942e+01 -3.499999999999999778e-01
-7.073900000000000077e+00 1.309900000000000091e+02 3.952700000000000102e+01 -5.138100999999999807e+00 -1.377149179100264631e-01
-7.072799999999999976e+00 1.161700000000000017e+02 4.808599999999999852e+01 1.831932000000000116e+01 -1.096957515066232236e-01
-7.061600000000000321e+00 1.378100000000000023e+02 4.379899999999999949e+01 1.364020000000000010e+01 -1.268671633619534167e-01
-7.060699999999999754e+00 1.155499999999999972e+02 5.270000000000000284e+01 1.301905999999999963e+01 -3.499999999999999778e-01
-7.058200000000000252e+00 1.137500000000000000e+02 5.080499999999999972e+01 1.706550999999999929e+00 -1.041392592185314409e-01
-7.056899999999999729e+00 1.233299999999999983e+02 3.323299999999999699e+01 1.816829000000000027e+00 -3.644158289830477515e-01
-7.056700000000000195e+00 1.142500000000000000e+02 6.024199999999999733e+01 1.735239999999999938e+01 -3.499999999999999778e-01
-7.051499999999999879e+00 1.158199999999999932e+02 5.353199999999999648e+01 1.872831000000000046e+01 -3.499999999999999778e-01
-7.048099999999999810e+00 1.321599999999999966e+02 5.749199999999999733e+01 9.911065000000000680e+01 -2.324066267032212918e-01
-7.040899999999999714e+00 1.308300000000000125e+02 5.677400000000000091e+01 2.450332999999999828e+01 -2.321800397704345542e-01
-7.040099999999999802e+00 1.389600000000000080e+02 4.302100000000000080e+01 3.040155999999999992e+01 2.085966457205024136e-03
-7.038000000000000256e+00 1.205799999999999983e+02 3.997699999999999676e+01 5.211879999999999846e+00 -2.535957777559070259e-01
-7.031600000000000072e+00 1.149099999999999966e+02 4.644899999999999807e+01 2.826652999999999860e+00 -1.096878073184314184e-01
-7.023699999999999832e+00 1.331599999999999966e+02 5.491799999999999926e+01 4.274085999999999785e+01 -2.319862325283887916e-01
-7.017000000000000348e+00 1.211700000000000017e+02 3.759400000000000119e+01 -6.467567000000000454e-02 -2.519558832223444123e-01
-7.012999999999999901e+00 1.128700000000000045e+02 5.932099999999999795e+01 3.955928999999999807e+00 -3.499999999999999778e-01
-6.998999999999999666e+00 1.324799999999999898e+02 3.794700000000000273e+01 -8.989755000000000607e+00 -2.381989708279447782e-01
-6.998000000000000220e+00 1.166800000000000068e+02 4.132800000000000296e+01 -1.179683999999999955e+01 -4.905530058089259057e-03
-6.994799999999999685e+00 1.336699999999999875e+02 4.794500000000000028e+01 1.164883000000000024e+01 -1.322206910898888199e-01
-6.994699999999999918e+00 1.259500000000000028e+02 3.005199999999999960e+01 -1.992996999999999908e+00 -3.644131587394495164e-01
-6.986399999999999721e+00 1.123400000000000034e+02 5.165299999999999869e+01 2.774294999999999956e+00 -1.028098188462337054e-01
-6.982000000000000206e+00 1.364600000000000080e+02 4.047500000000000142e+01 5.643906999999999563e+00 -1.404750201309601931e-01
-6.974000000000000199e+00 1.341599999999999966e+02 5.154800000000000182e+01 -5.912924000000000291e+00 -9.426821681636690653e-02
-6.974000000000000199e+00 1.341599999999999966e+02 5.314600000000000080e+01 4.232687000000000310e+00 5.129051580176739039e-02
-6.974000000000000199e+00 1.343899999999999864e+02 5.234700000000000131e+01 -2.501274000000000086e+01 -8.336563742871697102e-02
-6.972500000000000142e+00 1.182600000000000051e+02 4.366700000000000159e+01 1.322650000000000103e+00 -1.084911168071901189e-01
-6.967999999999999972e+00 1.255300000000000011e+02 3.151800000000000068e+01 1.850372000000000128e+01 -3.645300029494940031e-01
-6.967999999999999972e+00 1.255300000000000011e+02 3.238300000000000267e+01 1.851781000000000077e+01 -3.646146675218705502e-01
-6.953700000000000436e+00 1.304499999999999886e+02 3.401400000000000290e+01 1.177656000000000036e+00 -2.331112422272161311e-01
-6.951999999999999957e+00 1.198400000000000034e+02 4.341899999999999693e+01 5.497397000000000311e+00 -1.088913889437585630e-01
-6.947400000000000020e+00 1.316299999999999955e+02 4.087500000000000000e+01 2.200241000000000113e+00 -1.394444790062503714e-01
-6.934099999999999930e+00 1.329199999999999875e+02 4.175900000000000034e+01 1.546580999999999939e+01 1.741889596303599491e-02
-6.934099999999999930e+00 1.343199999999999932e+02 4.175900000000000034e+01 4.525183000000000177e+00 1.922252933117768806e-02
-6.923899999999999721e+00 1.255799999999999983e+02 3.090200000000000102e+01 1.061314999999999920e+01 -3.644781004458602647e-01
-6.921299999999999564e+00 1.268199999999999932e+02 2.900499999999999901e+01 -2.428291999999999895e+00 -3.643835907862433277e-01
-6.921299999999999564e+00 1.277600000000000051e+02 2.900499999999999901e+01 -1.141458000000000084e+01 -3.644855732036621498e-01
-6.916900000000000048e+00 1.370500000000000114e+02 4.542600000000000193e+01 1.040396999999999927e+01 -1.432426670698921101e-01
