5.458899999999999864e+01 3.213600000000000279e+01 -9.047900000000000276e+00 2.877225999999999928e+01 1.485521115465500072e-02
5.459300000000000352e+01 3.220199999999999818e+01 -6.994799999999999907e-01 3.370488999999999891e+01 6.143198588535555421e-02
5.459300000000000352e+01 2.602299999999999969e+01 8.749700000000000255e-01 2.239902000000000015e+01 2.288385727839152839e-01
5.459300000000000352e+01 3.759499999999999886e+01 -1.719399999999999906e+01 1.056015999999999977e+01 -2.161159519596735912e-01
5.460600000000000165e+01 3.603399999999999892e+01 9.677099999999999369e+00 9.129697000000000173e+00 3.358771827983091096e-02
5.461299999999999955e+01 2.703399999999999892e+01 -4.126699999999999813e-01 1.827890000000000015e+01 1.924569391049917033e-01
5.462299999999999756e+01 3.047100000000000009e+01 -4.998999999999999666e+00 1.557255999999999929e+01 1.173093280041573039e-01
5.462400000000000233e+01 3.040399999999999991e+01 -1.666499999999999915e+01 -5.154018999999999684e-01 2.032016346220542613e-01
5.463199999999999790e+01 4.228999999999999915e+01 -1.311400000000000077e+01 6.841930999999999763e+00 1.129728419081450080e-02
5.463700000000000045e+01 2.218299999999999983e+01 -4.280499999999999972e+00 3.060272000000000148e+01 1.239522896421564324e-01
5.464999999999999858e+01 1.217099999999999937e+01 -4.116299999999999848e+00 1.499603000000000019e+00 1.968734165343442033e-01
5.465299999999999869e+01 3.095899999999999963e+01 -8.322300000000000253e+00 5.003020000000000067e+01 -8.865900694724712650e-02
5.465500000000000114e+01 4.143099999999999739e+01 -1.119100000000000072e+01 9.040501000000000786e+00 -7.776319543892756814e-02
5.465999999999999659e+01 3.000300000000000011e+01 -5.634900000000000020e+00 2.361113999999999891e+01 1.201119817293400394e-01
5.466799999999999926e+01 2.890399999999999991e+01 -7.529599999999999627e-01 1.683485999999999905e+01 2.125132122418010583e-01
5.467600000000000193e+01 4.035799999999999699e+01 2.672299999999999898e+00 -3.516793999999999976e+00 3.911169261357462235e-01
5.467600000000000193e+01 4.056700000000000017e+01 1.936299999999999910e+00 1.921307000000000098e+00 1.805666707309021846e-01
5.467799999999999727e+01 3.851700000000000301e+01 -1.526800000000000068e+01 2.225510999999999839e+01 1.073062993522495567e-01
5.467799999999999727e+01 3.991700000000000159e+01 -1.526800000000000068e+01 2.233686000000000149e+01 -1.486713115774452587e-01
5.467900000000000205e+01 4.771699999999999875e+01 -4.002299999999999969e+00 -4.917590999999999823e+00 -9.435012084717453451e-02
5.468099999999999739e+01 3.165500000000000114e+01 -4.292500000000000426e+00 1.698924999999999841e+01 2.487953379789674124e-01
5.469299999999999784e+01 4.044299999999999784e+01 -1.567099999999999937e+01 1.595767999999999986e+01 -1.333868673721733678e-01
5.469800000000000040e+01 4.521399999999999864e+01 -7.967699999999999783e+00 -5.904639000000000415e+00 -8.375911629517490686e-02
5.470700000000000074e+01 2.355000000000000071e+01 -2.102300000000000058e+00 6.135094999999999743e+00 1.679946615558355894e-01
5.470700000000000074e+01 2.454599999999999937e+01 8.503399999999999848e-01 6.884647000000000183e+00 2.265169147654859660e-01
5.471200000000000330e+01 9.125000000000000000e+00 -4.812000000000000277e+00 -6.372391999999999612e+00 -9.050401340799221761e-02
5.472999999999999687e+01 1.181400000000000006e+01 -1.087100000000000044e+01 8.704660000000000508e+00 2.488454547435188791e-01
5.473100000000000165e+01 4.127700000000000102e+01 -1.219299999999999962e+01 4.993735000000000035e+00 -6.308760960544508578e-02
5.473499999999999943e+01 4.169899999999999807e+01 -1.043299999999999983e+01 2.298285999999999873e+01 -7.664038626344076011e-02
5.473799999999999955e+01 5.319899999999999629e+00 -8.248900000000000787e+00 9.387010999999999550e-01 -7.324733596503342492e-02
5.473899999999999721e+01 3.121699999999999875e+01 -9.054899999999999949e+00 4.546255000000000024e+01 4.039728328215595743e-02
5.474399999999999977e+01 7.948000000000000398e+00 -1.057099999999999973e+01 -4.777440000000000020e-01 -1.133767555326044198e-03
5.474399999999999977e+01 9.298000000000000043e+00 -1.119800000000000040e+01 -6.589207999999999732e-01 -4.427002114257232168e-02
5.475099999999999767e+01 4.307900000000000063e+01 -9.666700000000000514e+00 2.277448999999999835e+00 -3.529872277091937460e-02
5.475099999999999767e+01 7.895299999999999763e+00 -5.635299999999999976e+00 -7.783588999999999647e-01 -7.178616255672101709e-02
5.475800000000000267e+01 3.061599999999999966e+01 -4.161999999999999922e+00 -2.385702999999999907e+00 1.131913351080239549e-01
5.476299999999999812e+01 3.331099999999999994e+01 -5.126400000000000290e+00 1.733776999999999902e+01 1.852293015923700270e-01
5.476400000000000290e+01 6.972699999999999676e+00 -6.974700000000000344e+00 5.289964000000000333e+00 -6.707563947901393209e-02
5.476400000000000290e+01 3.358899999999999864e+01 -8.076299999999999812e+00 1.998216999999999999e+01 2.626095058005263883e-01
5.476599999999999824e+01 3.777799999999999869e+01 1.012100000000000044e+01 9.820303999999999700e-01 9.314443336220940353e-03
5.476599999999999824e+01 3.882800000000000296e+01 1.012100000000000044e+01 -6.468117000000000338e+00 -1.449117801990077196e-03
5.477300000000000324e+01 4.737899999999999778e+01 -4.959399999999999586e+00 1.268636000000000097e+00 -9.539821997125851050e-02
5.477499999999999858e+01 3.225900000000000034e+01 -1.670100000000000051e+01 -1.403683999999999932e+00 -2.590066795019352330e-02
5.477600000000000335e+01 4.097299999999999898e+01 4.144300000000000317e+00 -1.686956999999999951e+01 1.532081350149704924e-01
5.478099999999999881e+01 5.648500000000000298e+00 -7.832499999999999574e+00 1.794540000000000024e+00 -6.673185280424319410e-02
5.478300000000000125e+01 1.039300000000000068e+01 -1.090399999999999991e+01 -3.239590999999999887e+00 -8.683452115498709045e-02
5.478900000000000148e+01 5.635900000000000354e+00 -9.009199999999999875e+00 1.532591999999999954e+00 -8.623255776631172376e-02
5.478900000000000148e+01 4.157999999999999829e+01 -1.289300000000000068e+01 -1.009291999999999945e+01 -2.790329697519082150e-02
5.481700000000000017e+01 6.952499999999999680e+00 -9.960000000000000853e+00 1.193810999999999956e+00 -1.232479079193171956e-01
5.481700000000000017e+01 4.116299999999999670e+01 -1.620499999999999829e+01 1.115201000000000064e+01 -1.179349643940403036e-01
5.481700000000000017e+01 4.286299999999999955e+01 -1.345500000000000007e+01 9.302607999999999322e+00 3.335509242225359605e-02
5.482099999999999795e+01 3.310000000000000142e+01 -5.877200000000000202e-01 3.803609999999999758e+01 4.868765171479383369e-02
5.482300000000000040e+01 3.372200000000000131e+01 6.631199999999999761e+00 -3.046668000000000154e-01 8.986784803226768870e-02
5.482800000000000296e+01 1.618700000000000117e+01 -1.533500000000000085e+01 -2.793804999999999872e+00 -9.827186511128575830e-02
5.483700000000000330e+01 3.919700000000000273e+01 9.271000000000000796e+00 -4.700857000000000063e+00 -1.584566611883474196e-02
5.484000000000000341e+01 5.951900000000000190e+00 -7.132500000000000284e+00 1.883070000000000022e+00 -5.745914076408274729e-02
5.484199999999999875e+01 4.103099999999999881e+01 6.679899999999999949e+00 -2.841038999999999959e+01 -1.334762170943658011e-01
5.485099999999999909e+01 3.500200000000000244e+01 -1.715599999999999881e+01 2.332392000000000021e+00 -2.143550702301794397e-01
5.485699999999999932e+01 2.091900000000000048e+01 -1.821900000000000119e+01 3.693928999999999974e+01 -5.947014435169074853e-03
5.485699999999999932e+01 2.178500000000000014e+01 -1.821900000000000119e+01 2.896946000000000154e+01 -2.389829962729311530e-01
5.486500000000000199e+01 3.497999999999999687e+01 3.520599999999999952e+00 -5.272503000000000384e+00 -1.079354124551660937e-01
5.486500000000000199e+01 3.497999999999999687e+01 4.992700000000000138e+00 -6.906960999999999906e+00 1.312617192278797695e-01
5.486500000000000199e+01 3.518900000000000006e+01 4.256700000000000372e+00 -1.095878000000000085e+01 -1.070910104054254575e-01
5.486599999999999966e+01 1.503700000000000081e+01 -5.356900000000000439e+00 8.512206000000000827e+00 2.010686280558867112e-01
5.486699999999999733e+01 4.731099999999999994e+01 -3.097700000000000120e+00 -4.523343999999999809e+00 -9.504058373642434998e-02
5.486899999999999977e+01 2.500000000000000000e+01 -1.915200000000000102e+01 4.137852999999999781e+00 -1.859149510859918197e-01
5.487199999999999989e+01 2.273900000000000077e+01 -1.835699999999999932e+01 1.347916999999999987e+01 -2.329417807839227750e-01
5.487400000000000233e+01 3.891199999999999903e+01 8.465299999999999159e+00 -7.868990999999999625e-01 -2.807500036344914851e-02
5.487500000000000000e+01 1.983800000000000097e+01 -1.932499999999999929e+01 2.545719000000000065e+01 -2.273345451570631115e-01
5.487800000000000011e+01 1.832199999999999918e+01 -5.585399999999999920e+00 2.504200000000000159e+01 9.971351425374776201e-02
5.488100000000000023e+01 4.641199999999999903e+01 -1.870100000000000051e+01 5.085150999999999755e+00 -1.603631120794642984e-01
5.488100000000000023e+01 4.677199999999999847e+01 -1.537800000000000011e+01 2.489646000000000114e+01 -1.569840731611790718e-01
5.488100000000000023e+01 4.773100000000000165e+01 -1.796600000000000108e+01 9.825270000000000437e+01 -1.865988989375578500e-01
5.488100000000000023e+01 4.773100000000000165e+01 -1.633599999999999852e+01 3.149061000000000021e+01 -1.835675876063417034e-01
5.488100000000000023e+01 4.796200000000000330e+01 -1.715099999999999980e+01 2.661328999999999922e+01 -1.903203678933599874e-01
5.488300000000000267e+01 2.869999999999999929e+01 -1.766100000000000136e+01 -3.599492000000000047e+01 3.007233042750305160e-02
5.489699999999999847e+01 2.780399999999999849e+01 -1.876099999999999923e+01 -2.657659999999999911e+01 3.281277053967067425e-02
5.489800000000000324e+01 4.559499999999999886e+01 -1.484500000000000064e+01 2.361352000000000118e+01 -2.670331064137068111e-01
5.489900000000000091e+01 2.562199999999999989e+01 5.679999999999999494e-01 5.491015000000000157e+01 2.202374594559638188e-01
5.490200000000000102e+01 2.462099999999999866e+01 -3.774599999999999955e+00 1.060063000000000066e+01 1.805747284333776570e-01
5.490200000000000102e+01 2.462099999999999866e+01 -2.909299999999999997e+00 1.102241000000000026e+00 1.631315101327655281e-01
5.490599999999999881e+01 3.252900000000000347e+01 -4.481399999999999828e+00 3.483871000000000162e+00 2.215967708202444264e-01
5.490800000000000125e+01 3.672399999999999665e+01 -1.730699999999999861e+01 1.155424000000000007e+01 -2.359629923320582523e-01
5.492000000000000171e+01 1.727400000000000091e+01 -1.947200000000000131e+01 4.052694999999999936e+00 -2.126730943423403297e-01
5.492199999999999704e+01 4.504099999999999682e+01 -1.806500000000000128e+01 6.772922000000000331e+00 -2.474225398872674231e-01
5.492699999999999960e+01 1.080000000000000071e+01 -4.795499999999999652e+00 -1.670158000000000031e+00 -1.333888048935843729e-01
5.492799999999999727e+01 2.970400000000000063e+01 -1.672400000000000020e+01 -8.078077999999999648e+00 2.030003808582395153e-01
5.493299999999999983e+01 3.500300000000000011e+01 9.931699999999999307e+00 1.326068999999999942e+00 5.456221339812454552e-02
5.494299999999999784e+01 3.813400000000000034e+01 -1.549600000000000044e+01 2.539568999999999832e+01 1.151030938288004346e-01
5.494899999999999807e+01 2.318199999999999861e+01 -4.895800000000000374e+00 1.332380999999999993e+01 1.165579764130707519e-01
5.495199999999999818e+01 2.758399999999999963e+01 -1.058699999999999974e+00 1.419588000000000072e+01 1.868953267161894694e-01
5.495199999999999818e+01 2.844900000000000162e+01 -1.058699999999999974e+00 2.270774000000000115e+01 2.042254162819551466e-01
5.495799999999999841e+01 2.628500000000000014e+01 -1.885900000000000176e+01 -1.590236999999999945e+01 -3.264881707120129151e-01
5.495900000000000318e+01 4.437400000000000233e+01 -1.429300000000000015e+00 -6.517862999999999829e+01 1.288863302577499537e-01
5.496399999999999864e+01 3.364300000000000068e+01 -1.647899999999999920e+01 -3.340634000000000103e+00 -9.751262776868495352e-02
5.496600000000000108e+01 4.092699999999999960e+01 -1.037599999999999945e+01 1.678744999999999976e+01 -1.151989512758519602e-01
5.496800000000000352e+01 3.331000000000000227e+01 6.964500000000000135e+00 -1.054621999999999948e+00 9.091797424235578684e-02
5.497099999999999653e+01 2.960399999999999920e+01 -6.946700000000000097e-01 1.520716999999999963e+01 2.263552264270089487e-01
5.497099999999999653e+01 3.130399999999999849e+01 -6.946700000000000097e-01 3.822625000000000028e+01 6.185574876276705991e-02
5.497500000000000142e+01 1.407900000000000063e+01 -4.429499999999999993e+00 -3.987035999999999802e+00 1.450428614572933372e-01
5.497999999999999687e+01 9.883900000000000574e+00 -4.776900000000000368e+00 -5.279284999999999783e+00 -1.036231800318373059e-01
5.498100000000000165e+01 4.391400000000000148e+01 -1.426600000000000001e+01 1.242468000000000039e+01 5.484195709706128630e-02
5.498100000000000165e+01 2.205699999999999861e+01 -4.819700000000000095e+00 3.495467000000000013e+01 1.120334186534586857e-01
5.498599999999999710e+01 5.437999999999999723e+00 -6.761099999999999888e+00 1.433229000000000086e+00 -5.185082075134549162e-02
5.498599999999999710e+01 6.303200000000000358e+00 -6.761099999999999888e+00 2.508344000000000129e+00 -5.159250093462110220e-02
5.498799999999999955e+01 4.474399999999999977e+01 -8.727700000000000458e+00 -2.992858000000000018e+00 -8.199344674263775445e-02
5.500200000000000244e+01 4.327100000000000080e+01 -1.758399999999999963e+01 8.287406999999999968e+00 -2.510623656385436164e-01
5.500300000000000011e+01 7.291100000000000136e+00 -6.122700000000000031e+00 5.415113999999999761e-01 -5.752270124133258833e-02
5.500500000000000256e+01 1.886400000000000077e+01 -1.959799999999999898e+01 3.867300999999999878e+00 -2.219884592828481884e-01
5.500500000000000256e+01 1.252800000000000047e+01 -3.820899999999999963e+00 4.762267999999999724e+00 2.038616329891036472e-01
5.501100000000000279e+01 2.026800000000000068e+01 -4.049000000000000377e+00 4.319068999999999825e+00 1.069660629246262928e-01
5.501100000000000279e+01 2.131800000000000139e+01 -4.049000000000000377e+00 1.600447000000000131e+01 1.109463541312848828e-01
5.501400000000000290e+01 1.462199999999999989e+01 -1.540399999999999991e+01 -1.104560999999999904e+00 -1.003392836895787565e-01
5.502000000000000313e+01 4.285499999999999687e+01 -1.330899999999999972e+00 -1.421718000000000082e+01 7.408479188786684655e-02
5.502100000000000080e+01 2.617099999999999937e+01 -2.161700000000000010e-01 9.043165000000000120e+00 2.005702628729399417e-01
5.502499999999999858e+01 4.216700000000000159e+01 -9.675900000000000389e+00 1.779344999999999999e+01 8.011341561803315969e-02
5.502799999999999869e+01 3.341799999999999926e+01 9.799300000000000566e+00 8.560031999999999641e-01 7.002863186975485932e-02
5.503000000000000114e+01 1.989000000000000057e+01 -1.655399999999999849e+01 8.104008000000000322e+00 8.592576482647337754e-02
5.503399999999999892e+01 3.440599999999999881e+01 2.547499999999999876e+00 3.979356000000000115e+00 5.833781680412540582e-02
5.504099999999999682e+01 8.365000000000000213e+00 -4.875300000000000189e+00 -1.079404999999999948e+00 -6.609806943920701339e-02
5.504200000000000159e+01 2.022500000000000142e+01 -1.858099999999999952e+01 1.689009000000000071e+01 -2.652352893942189205e-01
5.504500000000000171e+01 1.307199999999999918e+01 -1.509699999999999953e+01 1.677893999999999997e+00 9.088518856387799161e-02
5.504899999999999949e+01 3.274499999999999744e+01 -1.642599999999999838e+01 -6.511311000000000071e+00 -4.425185082797849362e-02
5.504999999999999716e+01 1.222600000000000087e+01 -1.246899999999999942e+01 3.501008000000000120e+00 2.952873377866889817e-02
5.504999999999999716e+01 1.222600000000000087e+01 -1.160399999999999920e+01 5.008718000000000004e+00 1.089176085213391107e-03
5.505599999999999739e+01 4.172200000000000131e+01 -5.726299999999999724e-01 5.985348000000000113e+00 1.744870734053599048e-01
5.505700000000000216e+01 4.089900000000000091e+01 -1.231799999999999962e+01 7.554014999999999702e+00 -8.310546134891894088e-02
5.505899999999999750e+01 5.167399999999999771e+00 -7.328400000000000247e+00 4.955842999999999776e+00 -5.596867749830667510e-02
5.506400000000000006e+01 3.306600000000000250e+01 -8.999900000000000233e+00 2.259808999999999912e+01 1.085595244323181718e-01
5.506400000000000006e+01 2.308999999999999986e+01 -1.475999999999999979e+00 4.024757000000000140e+00 -1.474579483694348284e-02
5.506400000000000006e+01 2.308999999999999986e+01 2.240000000000000047e-01 2.259536999999999907e+00 2.105017084949447059e-01
5.506600000000000250e+01 4.144299999999999784e+01 4.904300000000000104e+00 -2.022316000000000003e+01 1.560107995054796359e-01
5.506600000000000250e+01 4.144299999999999784e+01 5.843700000000000117e+00 -2.984461999999999904e+01 1.497741754527599500e-01
5.506799999999999784e+01 1.135599999999999987e+01 -4.403299999999999770e+00 2.851150000000000073e+00 -1.340592095991804400e-01
5.508599999999999852e+01 1.109299999999999997e+01 -1.084500000000000064e+01 6.551164000000000431e-01 -1.159606282001072186e-01
5.508700000000000330e+01 1.663200000000000145e+01 -5.953700000000000436e+00 1.605674000000000134e+01 6.645701111949947615e-02
5.509100000000000108e+01 3.830299999999999727e+01 9.271000000000000796e+00 5.760975000000000179e+00 -8.916785291809397598e-04
5.509499999999999886e+01 1.662000000000000099e+01 -1.603500000000000014e+01 -3.046902000000000221e+00 -9.895190425780618637e-02
5.509599999999999653e+01 3.407300000000000040e+01 1.758499999999999952e+00 9.968685999999999936e+00 5.747020931581903191e-02
5.509799999999999898e+01 4.490699999999999648e+01 -1.959699999999999998e+00 -4.324284999999999712e+01 1.573339853361571394e-01
5.510600000000000165e+01 4.834299999999999820e+00 -8.330000000000000071e+00 2.968360000000000110e+00 -6.874254190818049337e-02
5.511599999999999966e+01 4.120199999999999818e+01 -1.301800000000000068e+01 6.352909999999999613e+00 -4.720595336751363946e-02
5.512299999999999756e+01 1.168099999999999916e+01 -3.820899999999999963e+00 3.630716000000000054e+00 2.283378092846675145e-01
5.512599999999999767e+01 4.496699999999999875e+01 -1.475099999999999945e+01 1.641177000000000064e+01 -2.661249167618258693e-01
5.512800000000000011e+01 3.018900000000000006e+01 -6.971099999999999852e+00 4.938864999999999839e+01 -1.638185344692713041e-01
5.513199999999999790e+01 4.108599999999999852e+01 1.203999999999999959e+00 5.585404999999999731e+00 3.656250684290423547e-01
5.513199999999999790e+01 3.899499999999999744e+01 -1.494400000000000084e+01 1.373647000000000062e+01 -3.076336289488199732e-02
5.513199999999999790e+01 3.985999999999999943e+01 -1.494400000000000084e+01 1.524704999999999977e+01 6.154674013040749639e-03
5.513300000000000267e+01 3.651800000000000068e+01 9.562099999999999156e+00 9.454573999999999145e+00 3.539106366100640277e-02
5.513499999999999801e+01 2.272100000000000009e+01 -6.260000000000000009e-01 6.697301000000000393e+00 -1.343486215776347990e-02
5.513499999999999801e+01 3.164999999999999858e+01 -9.545799999999999841e+00 2.907239999999999824e+01 1.055254651894083247e-02
5.514399999999999835e+01 2.408200000000000074e+01 -1.875799999999999912e+01 4.025799000000000127e+00 -2.235986553508910735e-01
5.514699999999999847e+01 4.351200000000000045e+01 -9.175800000000000622e+00 -2.281191000000000191e+00 -8.466107703078926128e-02
5.514900000000000091e+01 2.407999999999999829e+01 3.316000000000000059e-01 3.755892999999999926e+00 2.134082540390524196e-01
5.515100000000000335e+01 2.960699999999999932e+01 -6.067599999999999660e+00 2.560976000000000141e+01 -1.631968089372960173e-01
5.515100000000000335e+01 2.960699999999999932e+01 -5.202300000000000146e+00 1.341371000000000002e+01 -1.728337656215923335e-01
5.515500000000000114e+01 3.104899999999999949e+01 -3.671100000000000030e+00 2.194548999999999950e+01 2.746020399207903528e-01
5.515800000000000125e+01 1.343099999999999916e+01 -3.842400000000000038e+00 3.839538000000000117e+00 1.809621376620853817e-01
5.517000000000000171e+01 4.121900000000000119e+01 -9.513500000000000512e+00 1.389033000000000051e+01 6.069721635606861732e-02
5.517099999999999937e+01 3.051699999999999946e+01 -8.787599999999999412e+00 5.848483000000000231e+01 -8.368607148942330820e-02
5.517499999999999716e+01 2.343900000000000006e+01 -1.841499999999999915e+01 5.362236000000000224e+00 -2.220764380546333128e-01
5.517699999999999960e+01 5.202700000000000102e+00 -9.179999999999999716e+00 1.690328999999999970e+00 -8.146500390538533032e-02
5.517699999999999960e+01 2.033399999999999963e+01 -1.748400000000000176e+01 2.918682000000000087e+01 -1.485196319613136216e-02
5.517699999999999960e+01 4.546000000000000085e+01 -6.951999999999999957e+00 -3.799072999999999922e+01 -8.876209615720347113e-02
5.517699999999999960e+01 4.566899999999999693e+01 -6.215900000000000425e+00 5.385051999999999950e+00 -9.217312213249269359e-02
5.518599999999999994e+01 4.201299999999999812e+01 -1.338400000000000034e+01 8.605574999999999974e+00 -2.735284377250677031e-03
5.518699999999999761e+01 2.827400000000000091e+01 -1.800100000000000122e+01 -2.886430999999999969e+01 1.894647742587664274e-02
5.519100000000000250e+01 2.991600000000000037e+01 -4.429400000000000226e+00 2.820406000000000191e+00 -1.872406700239663546e-02
5.519400000000000261e+01 3.399399999999999977e+01 1.008899999999999908e+00 2.904889000000000010e+01 5.182380749762570404e-02
5.519599999999999795e+01 3.380199999999999960e+01 -5.522999999999999687e+00 2.210962999999999923e+01 2.546113836145849629e-01
5.519599999999999795e+01 3.401100000000000279e+01 -6.259000000000000341e+00 2.325766000000000133e+01 2.552558038924623296e-01
5.519899999999999807e+01 4.141400000000000148e+01 5.656400000000000317e-01 5.273518000000000150e+00 3.609327984494187236e-01
5.520700000000000074e+01 3.736699999999999733e+01 9.385899999999999466e+00 1.338561999999999941e+01 1.978366584628770547e-02
5.520700000000000074e+01 2.233800000000000097e+01 -1.812399999999999878e+01 7.872155000000000236e+00 -2.248482504881526844e-01
5.520799999999999841e+01 4.027300000000000324e+01 3.011699999999999822e+00 -7.765751999999999988e+00 1.879475404405434313e-01
5.520799999999999841e+01 4.048199999999999932e+01 2.275599999999999845e+00 -1.975373000000000046e+00 1.609574451083838342e-01
5.521399999999999864e+01 8.538000000000000256e+00 -1.090799999999999947e+01 -3.888860000000000205e+00 -1.601635928236503151e-02
5.522099999999999653e+01 4.011200000000000188e+01 6.610299999999999621e+00 -2.028631000000000029e+01 -1.412826994760919483e-02
5.522599999999999909e+01 2.704400000000000048e+01 -1.882400000000000162e+01 -1.801249999999999929e+01 1.948309925165391671e-02
5.523499999999999943e+01 4.342399999999999949e+01 -1.417600000000000016e+01 1.216334999999999944e+01 4.539536686487492811e-02
5.523899999999999721e+01 2.062600000000000122e+01 -1.655399999999999849e+01 1.276418999999999926e+01 -2.315633025610865439e-02
5.524300000000000210e+01 3.150000000000000000e+01 -1.652700000000000102e+01 -2.961005000000000109e+00 -1.862756727169428278e-02
5.524499999999999744e+01 1.674899999999999878e+01 -1.862199999999999989e+01 2.762636000000000092e+00 -1.034711646067751900e-01
5.525300000000000011e+01 2.388200000000000145e+01 -4.837500000000000355e+00 -4.815578000000000358e+00 1.830142018576540186e-02
5.525399999999999778e+01 3.359000000000000341e+01 -1.911200000000000121e-01 5.515099000000000018e+01 3.881282444408959420e-02
5.525399999999999778e+01 3.379999999999999716e+01 5.449100000000000055e-01 5.465144999999999698e+01 4.695160059879570358e-02
5.525699999999999790e+01 6.187999999999999723e+00 -9.826299999999999812e+00 2.040022000000000002e+00 -1.007990165041466185e-01
5.525699999999999790e+01 4.055799999999999983e+01 -1.083399999999999963e+01 1.398418000000000028e+01 -1.119480785398138112e-01
5.525699999999999790e+01 4.192799999999999727e+01 -1.633899999999999864e+01 9.341373000000000815e+00 -1.097365387146606031e-01
5.526400000000000290e+01 1.668599999999999994e+01 -1.686599999999999966e+01 8.606473000000000040e-01 -1.006945639397605757e-01
5.527499999999999858e+01 4.655100000000000193e+01 -5.464400000000000368e+00 1.040170999999999957e+00 -9.564728564299036784e-02
5.527499999999999858e+01 1.005700000000000038e+01 -1.100600000000000023e+01 -1.010105000000000075e+01 -7.068475696446976930e-02
5.527700000000000102e+01 1.930499999999999972e+01 -5.130200000000000315e+00 2.342826000000000164e+01 6.726330575683397983e-02
5.527700000000000102e+01 1.211899999999999977e+01 -1.339899999999999913e+01 1.271128999999999953e+00 5.084419888478158844e-02
5.528000000000000114e+01 1.905399999999999849e+01 -1.633599999999999852e+01 2.465739999999999821e+00 9.600468672383696833e-02
5.528799999999999670e+01 4.361399999999999721e+01 -1.366000000000000103e+00 -6.300558000000000192e+01 1.033003329810961574e-01
5.528799999999999670e+01 3.499600000000000222e+01 1.571299999999999919e+00 2.652583999999999875e+01 -4.805463748884780846e-03
5.528900000000000148e+01 1.812399999999999878e+01 -1.954299999999999926e+01 3.042346999999999912e+00 -2.173996191836137792e-01
5.529299999999999926e+01 4.652100000000000080e+01 -2.680400000000000116e+00 -1.668171999999999855e+01 -9.804522759187819791e-02
5.529299999999999926e+01 1.888200000000000145e+01 -5.411299999999999777e+00 2.342826000000000164e+01 7.262251354195649322e-02
5.529599999999999937e+01 4.060499999999999687e+01 -1.540300000000000047e+01 1.128810999999999964e+01 4.580834880353421706e-02
5.529800000000000182e+01 1.945799999999999841e+01 -1.585399999999999920e+01 4.944836000000000231e-01 8.537885281068269272e-02
5.529800000000000182e+01 2.032300000000000040e+01 -1.585399999999999920e+01 4.065859999999999808e+00 7.362522468139447163e-02
5.529800000000000182e+01 2.132999999999999829e+01 -1.748400000000000176e+01 3.160310000000000130e+01 9.685052622760485092e-03
5.529899999999999949e+01 4.597899999999999920e+01 -1.534200000000000053e+01 1.873460000000000036e+01 -2.673441984845059682e-01
5.530199999999999960e+01 3.211800000000000210e+01 -3.854999999999999982e+00 1.510824000000000034e+01 2.439758448735650231e-01
5.531199999999999761e+01 1.071299999999999919e+01 -4.310100000000000264e+00 -1.990450000000000053e+00 -1.070559609421282837e-01
5.531300000000000239e+01 2.676699999999999946e+01 -8.452899999999999858e-01 -3.832141000000000020e+01 1.805508256457296623e-01
5.531300000000000239e+01 3.275200000000000244e+01 8.980299999999999727e+00 1.364830999999999905e+00 8.147630817090548150e-02
5.531700000000000017e+01 1.532199999999999918e+01 -1.534600000000000009e+01 -1.136607000000000034e-01 -9.852689013200530144e-02
5.531900000000000261e+01 1.453299999999999947e+01 -5.164500000000000313e+00 2.135967000000000074e-02 1.109782011275930874e-01
5.532000000000000028e+01 4.034700000000000131e+01 -1.201299999999999990e+01 1.475492000000000026e+01 -1.226375566286374008e-01
5.532200000000000273e+01 4.032200000000000273e+01 3.797099999999999920e+00 -1.027932000000000023e+01 1.798187193491586622e-01
5.532300000000000040e+01 4.215500000000000114e+01 -1.272599999999999953e+00 1.024210000000000065e+01 4.119396959763880345e-02
5.532999999999999829e+01 1.240600000000000058e+01 -1.427800000000000047e+01 2.401578000000000213e+00 7.140294221639550964e-02
5.534000000000000341e+01 2.509700000000000131e+01 -1.671199999999999908e-01 1.364939999999999998e+01 2.033309539260572119e-01
5.534000000000000341e+01 3.045400000000000063e+01 -6.238899999999999446e-01 4.197811000000000092e+01 2.658057342193789196e-01
5.534000000000000341e+01 1.409399999999999942e+01 -1.560599999999999987e+01 6.725381000000000276e-01 -1.005021818289044272e-01
5.534899999999999665e+01 2.801699999999999946e+01 -1.549600000000000088e+00 5.101728999999999736e+00 1.959783204498642128e-01
5.534899999999999665e+01 4.772200000000000131e+01 -3.608299999999999841e+00 -1.823593999999999937e+01 -9.633710794978905811e-02
5.535600000000000165e+01 4.473300000000000054e+00 -6.876000000000000334e+00 2.190300000000000136e+00 -5.258290426121380035e-02
5.535799999999999699e+01 3.786999999999999744e+01 8.570999999999999730e+00 1.304946999999999946e+01 9.015868719781139004e-03
5.535999999999999943e+01 4.563700000000000045e+01 -1.840500000000000114e+01 2.309519999999999840e+01 -2.493256616721909180e-01
5.535999999999999943e+01 4.718699999999999761e+01 -1.840500000000000114e+01 2.705544000000000082e+01 -1.739356356934037284e-01
5.535999999999999943e+01 4.718699999999999761e+01 -1.589700000000000024e+01 7.501049999999999329e+01 -1.673155202107022566e-01
5.535999999999999943e+01 3.740899999999999892e+01 -1.669600000000000151e+01 1.990624000000000038e+01 -2.363656364552358391e-01
5.535999999999999943e+01 2.921300000000000097e+01 -1.712000000000000099e+01 -1.393045000000000044e+01 1.837753846821917059e-01
5.535999999999999943e+01 3.040399999999999991e+01 -1.645599999999999952e+01 4.250939000000000245e-01 1.692252171329003685e-01
5.536500000000000199e+01 3.851500000000000057e+01 8.032700000000000173e+00 1.257717000000000063e+01 -7.297607251897627115e-03
5.536699999999999733e+01 1.950600000000000023e+01 -1.745299999999999940e+01 1.691769999999999996e+01 1.021858261169815013e-01
5.537100000000000222e+01 4.412100000000000222e+01 -1.765500000000000114e+01 1.090000000000000036e+01 -2.487524414969272402e-01
5.537199999999999989e+01 3.887899999999999778e+01 7.312000000000000277e+00 6.462966999999999906e+00 -1.321102134269946070e-02
5.537599999999999767e+01 3.585199999999999676e+01 -1.748100000000000165e+01 9.025149000000000754e+00 -2.088217929558263408e-01
5.537599999999999767e+01 3.764300000000000068e+01 -1.589199999999999946e+01 2.222619999999999862e+01 1.243210904694150576e-01
5.537700000000000244e+01 2.248999999999999844e+01 -5.310599999999999987e+00 1.819398999999999944e+01 9.499734838025931938e-02
5.538300000000000267e+01 3.421500000000000341e+01 9.985799999999999343e+00 -2.957603999999999900e+00 6.849674236637307012e-02
5.538799999999999812e+01 1.952599999999999980e+01 -1.865500000000000114e+01 1.719368000000000052e+01 -8.913903946974241141e-03
5.538900000000000290e+01 2.361499999999999844e+01 -6.260000000000000009e-01 1.827875999999999834e+01 1.979986585302361823e-01
5.539600000000000080e+01 3.457200000000000273e+01 5.296299999999999564e+00 5.191316000000000264e-01 -1.063882499969234924e-01
5.540100000000000335e+01 3.575999999999999801e+01 9.642300000000000537e+00 1.293721000000000032e+01 5.433285254752652504e-02
5.540400000000000347e+01 3.200399999999999778e+01 -9.620499999999999607e-01 3.885719999999999885e+01 4.763836885547566291e-02
5.540899999999999892e+01 3.490999999999999659e+01 3.070399999999999796e+00 2.074280000000000013e-01 -1.059876691677009014e-01
5.540899999999999892e+01 3.511899999999999977e+01 3.806400000000000006e+00 -6.381749000000000116e+00 -1.049578951908614888e-01
5.540999999999999659e+01 4.782900000000000063e+01 -4.396399999999999864e+00 -1.226179999999999914e+01 -1.925271129927692282e-01
5.541599999999999682e+01 1.745299999999999940e+01 -5.996599999999999930e+00 1.836321999999999832e+01 7.168394108867513770e-02
5.542699999999999960e+01 4.841700000000000337e+00 -6.025999999999999801e+00 6.040593000000000323e+00 -4.532580551396760138e-02
5.542699999999999960e+01 5.892299999999999649e+00 -6.025999999999999801e+00 1.048870999999999931e+01 -3.859486473668664874e-02
5.542900000000000205e+01 3.434300000000000352e+01 -1.674599999999999866e+01 2.373171000000000141e+00 -6.712446924755080535e-02
5.543200000000000216e+01 3.394700000000000273e+01 -7.420099999999999696e+00 2.285756999999999906e+01 1.255394074130286586e-01
5.543900000000000006e+01 3.094999999999999929e+01 -9.487600000000000477e+00 3.547767999999999944e+01 2.076264045590034413e-02
5.543900000000000006e+01 3.235000000000000142e+01 -9.487600000000000477e+00 2.231393999999999878e+01 1.003774309824016428e-02
5.544100000000000250e+01 2.479400000000000048e+01 -3.826900000000000190e+00 3.326964999999999950e+00 1.809444774108095455e-01
5.544200000000000017e+01 4.420600000000000307e+01 -1.469999999999999929e+01 1.086370999999999931e+01 4.741803416900140788e-02
5.544599999999999795e+01 3.317799999999999727e+01 -1.593500000000000050e+01 -1.695336999999999961e+01 -1.068818113101256684e-01
5.544599999999999795e+01 4.283700000000000330e+01 -9.173299999999999343e+00 4.101357999999999948e-01 1.016523713035072801e-01
5.544700000000000273e+01 2.906400000000000006e+01 -1.451500000000000012e+00 7.378960000000000186e+00 2.180684129905757496e-01
5.544800000000000040e+01 2.387300000000000111e+01 -1.539400000000000102e+00 6.657610000000000028e+00 1.835729461386976791e-01
5.544899999999999807e+01 9.125000000000000000e+00 -4.487099999999999866e+00 -3.354524000000000061e+00 -6.612407382435520065e-02
5.545400000000000063e+01 2.870599999999999952e+01 -1.730099999999999838e+01 -3.945127000000000095e+01 1.786708156435456718e-01
5.545799999999999841e+01 4.527700000000000102e+01 -8.297100000000000364e+00 -5.127839999999999954e+00 -8.520227501936089576e-02
5.545799999999999841e+01 4.550399999999999778e+01 -7.498000000000000220e+00 -3.510054999999999836e+01 -8.772373690515394840e-02
5.546399999999999864e+01 3.364800000000000324e+01 -8.379699999999999704e+00 1.860221999999999909e+01 2.719899522063709552e-01
5.547899999999999920e+01 2.442099999999999937e+01 -6.720800000000000107e-01 9.320176000000000016e+00 1.953014732672656295e-01
5.548299999999999699e+01 1.152599999999999980e+01 -1.133600000000000030e+01 1.000016999999999934e+00 -1.187133916542300049e-01
5.548499999999999943e+01 4.271399999999999864e+01 -1.677100000000000080e+01 1.043077000000000076e+01 -1.096197708635887891e-01
5.548799999999999955e+01 6.605999999999999872e+00 -6.028999999999999915e+00 4.598224000000000089e+00 -3.703383412265020408e-02
5.549499999999999744e+01 2.074500000000000099e+01 -4.857099999999999973e+00 2.082524000000000086e+01 8.858723271453430859e-02
5.549699999999999989e+01 3.573199999999999932e+01 1.571299999999999919e+00 2.494443000000000055e+01 1.136334573742208819e-03
5.550000000000000000e+01 2.448999999999999844e+01 -4.526900000000000368e+00 -6.400948999999999778e+00 -1.075165085316463209e-01
5.550300000000000011e+01 2.087099999999999866e+01 -1.603399999999999892e+01 2.034956999999999905e+00 -1.444593941361025681e-02
5.550999999999999801e+01 2.303800000000000026e+01 -1.818199999999999861e+01 6.691644000000000148e+00 -2.137180611698831778e-01
5.552000000000000313e+01 1.211299999999999955e+01 -3.330000000000000071e+00 3.043953000000000131e+00 2.369766578609417973e-01
5.552000000000000313e+01 1.294299999999999962e+01 -3.330000000000000071e+00 4.052003000000000021e+00 2.122789020016355721e-01
5.552000000000000313e+01 1.593200000000000038e+01 -5.686300000000000132e+00 9.841665000000000774e+00 1.983148416907459244e-01
5.553799999999999670e+01 3.310600000000000165e+01 9.405699999999999505e+00 -2.437312000000000090e-01 8.027289778045376689e-02
5.553799999999999670e+01 4.064699999999999847e+01 1.903699999999999948e+00 3.340840999999999950e-01 1.521581652800791662e-01
5.554099999999999682e+01 1.182900000000000063e+01 -1.203599999999999959e+01 1.040993999999999975e+00 2.765708946345916130e-01
5.554200000000000159e+01 3.713000000000000256e+01 8.761100000000000776e+00 1.806698000000000093e+01 3.394260402697260592e-02
5.555199999999999960e+01 7.720799999999999663e+00 -5.225999999999999979e+00 -1.150118999999999891e+00 -4.466747435775662856e-02
5.555599999999999739e+01 3.456300000000000239e+01 8.713300000000000489e-01 2.519465999999999894e+01 4.130765531997850071e-02
5.555599999999999739e+01 3.542900000000000205e+01 8.713300000000000489e-01 2.265613000000000099e+01 2.884786150550316952e-01
5.555599999999999739e+01 3.542900000000000205e+01 2.271300000000000097e+00 9.166491999999999862e+00 1.561374019223094566e-02
5.556000000000000227e+01 5.488000000000000433e+00 -9.768000000000000682e+00 1.469497000000000053e+00 -8.910304266897162151e-02
5.556099999999999994e+01 2.056800000000000139e+01 -1.533399999999999963e+01 1.758219999999999894e+00 6.786845226547745524e-02
5.556499999999999773e+01 3.492199999999999704e+01 4.689300000000000246e+00 -2.239600999999999953e+00 -1.045982399176604016e-01
5.556900000000000261e+01 3.202799999999999869e+01 -1.632499999999999929e+01 -4.083551999999999738e-01 -3.801046392814078079e-02
5.557500000000000284e+01 1.954400000000000048e+01 -1.537599999999999945e+01 -1.184536000000000033e+00 8.393624266073029805e-02
5.557800000000000296e+01 1.075699999999999967e+01 -1.106400000000000006e+01 4.367039999999999811e-01 -9.641013028117936812e-02
5.558100000000000307e+01 1.817000000000000171e+01 -1.629299999999999926e+01 -8.713332999999999773e-01 1.074491677353193175e-01
5.558899999999999864e+01 1.851999999999999957e+01 -1.541900000000000048e+01 -1.227155999999999914e+01 9.973780337906952564e-02
5.559400000000000119e+01 4.268500000000000405e+00 -7.864700000000000024e+00 5.049357999999999791e+00 -5.965983012359574872e-02
5.560300000000000153e+01 4.051899999999999835e+01 -9.780900000000000816e+00 1.178467999999999982e+01 3.072609295778312016e-02
5.560300000000000153e+01 2.477700000000000102e+01 -2.544700000000000184e+00 -2.271018999999999899e+00 1.606678991380663946e-01
5.560600000000000165e+01 4.073899999999999721e+01 6.208199999999999719e+00 -2.496190999999999960e+01 9.923508986656743441e-03
5.560999999999999943e+01 4.615999999999999659e+01 -5.819300000000000139e+00 7.482401000000000302e+00 -9.522772858011765984e-02
5.562400000000000233e+01 1.121700000000000053e+01 -3.495200000000000085e+00 8.698733000000000715e+00 -9.615025163685396448e-02
5.563100000000000023e+01 3.304699999999999704e+01 7.195700000000000429e+00 -1.315391999999999895e+00 9.989238091576152501e-02
5.563900000000000290e+01 4.725200000000000244e+01 -5.307699999999999640e+00 -6.467437999999999576e+00 -9.632942554267477642e-02
5.563900000000000290e+01 4.725200000000000244e+01 -2.848300000000000054e+00 -3.468045000000000044e+01 -9.760634047714358830e-02
5.563900000000000290e+01 3.931199999999999761e+01 6.612000000000000099e+00 1.144815000000000005e+01 5.043445369844209644e-03
5.564300000000000068e+01 4.072800000000000153e+01 -1.353999999999999915e+01 6.626555000000000462e+01 -1.484990457177383372e-02
5.564699999999999847e+01 3.009600000000000009e+01 -7.776699999999999946e+00 9.240323999999999671e+01 -2.278093509733315758e-02
5.564999999999999858e+01 3.106500000000000128e+01 -3.273699999999999832e+00 3.148061999999999827e+01 2.752790250222746926e-01
5.565599999999999881e+01 4.110600000000000165e+01 5.373999999999999666e+00 -3.045692000000000021e+01 1.738204185693956183e-01
5.565599999999999881e+01 4.766599999999999682e+01 -1.762999999999999901e+01 1.942106000000000066e+01 -1.802812792521873431e-01
5.565599999999999881e+01 4.766599999999999682e+01 -1.667200000000000060e+01 5.492038999999999760e+01 -1.783815101202766706e-01
5.565699999999999648e+01 3.328099999999999881e+01 -5.025000000000000355e+00 2.272964999999999947e+01 1.880481809342768595e-01
5.565699999999999648e+01 2.751399999999999935e+01 -1.829100000000000037e+01 -1.887067000000000050e+01 1.456036775423095704e-03
5.566199999999999903e+01 2.502700000000000102e+01 -3.316899999999999959e+00 9.055455999999999506e-01 1.689950427849299663e-01
5.566199999999999903e+01 2.502700000000000102e+01 -8.330499999999999572e-01 -1.802356999999999987e+00 1.894740902901843327e-01
5.566700000000000159e+01 4.148799999999999955e+01 -1.567999999999999972e+01 6.929717000000000127e+00 6.786715732925460709e-02
5.566700000000000159e+01 4.253799999999999670e+01 -1.398000000000000043e+01 2.083076000000000150e+01 1.561240640901313294e-02
5.566899999999999693e+01 1.252800000000000047e+01 -2.629999999999999893e+00 7.458603000000000094e+00 2.312331548572499895e-01
5.567000000000000171e+01 3.931199999999999761e+01 -1.436500000000000021e+01 1.393830999999999953e+01 -4.581410011044490665e-02
5.567999999999999972e+01 1.858500000000000085e+01 -1.703300000000000125e+01 6.964849000000000068e+00 1.087484386597875607e-01
5.568099999999999739e+01 2.319000000000000128e+01 -5.252299999999999969e+00 -1.109079000000000015e+01 8.989856699675140284e-02
5.568200000000000216e+01 2.485699999999999932e+01 -1.894200000000000017e+01 3.046720000000000095e+00 -3.141892890064477695e-01
5.568599999999999994e+01 2.993199999999999861e+01 -4.032000000000000028e+00 2.471055000000000135e+01 -5.970219031664040880e-03
5.568599999999999994e+01 2.730399999999999849e+01 -1.512199999999999989e+00 -2.605405999999999977e+01 1.866449812185290713e-01
5.569400000000000261e+01 2.628500000000000014e+01 -1.864999999999999858e+01 9.290430999999999884e+00 -3.129574713195429347e-01
5.569599999999999795e+01 4.641199999999999903e+01 -1.846999999999999886e+01 4.505743999999999971e+00 -1.582031564883232266e-01
5.569599999999999795e+01 4.641199999999999903e+01 -1.583200000000000074e+01 3.115586000000000055e+01 -1.483760566941241810e-01
5.570000000000000284e+01 1.632100000000000151e+01 -1.613100000000000023e+01 9.886724999999999541e-01 -9.785776398307455270e-02
5.570100000000000051e+01 4.072399999999999665e+01 4.580300000000000260e+00 -1.858190000000000097e+01 1.846816524037626639e-01
5.570199999999999818e+01 4.352699999999999569e+00 -8.855299999999999727e+00 2.816113000000000088e+00 -7.089180037704902182e-02
5.570199999999999818e+01 2.471699999999999875e+01 -1.606000000000000094e+00 -6.574307000000000123e+00 1.778284666675535308e-01
5.570499999999999829e+01 1.350300000000000011e+01 -1.538000000000000078e+01 6.471780000000000310e-01 1.043854350085740706e-01
5.571200000000000330e+01 4.163900000000000290e+01 -8.860200000000000742e+00 1.334328000000000003e+01 9.028682272370294748e-02
5.571800000000000352e+01 8.183099999999999596e+00 -1.040600000000000058e+01 -1.345247000000000082e+00 -1.454642043622308145e-01
5.573100000000000165e+01 4.443299999999999983e+01 -1.678700000000000081e+00 -2.265655999999999892e+01 1.404620608403879811e-01
5.573599999999999710e+01 2.597100000000000009e+01 -7.250199999999999978e-01 -4.669191999999999787e+00 1.866411378120897413e-01
5.573599999999999710e+01 3.811500000000000199e+01 -1.505899999999999928e+01 1.740417000000000058e+01 9.070651325225263795e-02
5.573700000000000188e+01 4.570799999999999841e+01 -2.372199999999999864e+00 -3.896501000000000214e+00 1.839320029350501318e-01
5.573799999999999955e+01 4.111899999999999977e+01 -1.483000000000000007e+01 8.436588000000000420e+00 4.047403327318203903e-02
5.574099999999999966e+01 4.509599999999999653e+01 -1.772899999999999920e+01 2.979877000000000109e+01 -2.481026510883200253e-01
5.574600000000000222e+01 3.359000000000000341e+01 6.524099999999999788e+00 -6.817748000000000141e-01 1.086025771298979592e-01
5.574699999999999989e+01 4.155899999999999750e+01 -1.385999999999999943e+01 1.092840999999999951e+01 2.573488637754079572e-02
5.574799999999999756e+01 4.016100000000000136e+01 -1.040099999999999980e+01 1.855459000000000103e+01 -1.033334362518826682e-01
5.574900000000000233e+01 3.247800000000000153e+01 -1.599300000000000033e+01 -8.614435000000000286e+00 -5.639094755373959267e-02
5.574900000000000233e+01 3.387800000000000011e+01 -1.599300000000000033e+01 9.669005999999999990e-01 -8.492167521192507673e-02
5.575300000000000011e+01 1.025900000000000034e+01 -3.575000000000000178e+00 2.792040000000000077e+00 -7.046384586901074942e-02
5.575600000000000023e+01 4.145499999999999829e+01 -1.400099999999999956e-01 7.887115999999999794e+00 1.567435733415163124e-01
5.575600000000000023e+01 4.166400000000000148e+01 -8.760299999999999754e-01 4.494545000000000101e+01 1.128835527873785216e-02
5.576200000000000045e+01 3.290200000000000102e+01 -6.411900000000000377e-01 2.868063000000000073e+01 3.145277300519096902e-02
5.577000000000000313e+01 1.759900000000000020e+01 -1.894699999999999918e+01 3.072799999999999976e+00 -1.029543976051823240e-01
5.577000000000000313e+01 1.759900000000000020e+01 -1.724699999999999989e+01 1.097844999999999960e+00 -1.001307376982246977e-01
5.577000000000000313e+01 1.864900000000000091e+01 -1.894699999999999918e+01 2.841336000000000084e+00 -2.590354796882051169e-01
5.577700000000000102e+01 9.359199999999999520e+00 -1.098799999999999955e+01 -3.603187999999999835e+00 -4.009635944518721851e-02
5.577900000000000347e+01 4.005599999999999739e+01 -1.142300000000000004e+01 1.879744000000000170e+01 -1.169933399321915896e-01
5.578099999999999881e+01 4.316199999999999903e+01 -1.786899999999999933e+00 -4.140523000000000309e+01 9.420680285164419188e-02
5.578199999999999648e+01 7.038000000000000256e+00 -1.015099999999999980e+01 1.257061999999999902e+00 -1.103108232707705333e-01
5.578499999999999659e+01 1.394400000000000084e+01 -4.545899999999999608e+00 1.192478999999999978e+01 1.536204874606177662e-01
5.579299999999999926e+01 2.970400000000000063e+01 -1.672400000000000020e+01 -3.879992000000000107e+00 1.591768915378208304e-01
5.579500000000000171e+01 4.550600000000000023e+01 -1.577999999999999936e+01 2.131138999999999939e+01 -2.412309034517948203e-01
5.580400000000000205e+01 2.131800000000000139e+01 -5.328400000000000247e+00 1.493554999999999922e+01 7.130560087801993130e-02
5.580700000000000216e+01 1.164799999999999969e+01 -2.577199999999999935e+00 4.326233000000000217e+00 2.546915007487527416e-01
5.580799999999999983e+01 1.485299999999999976e+01 -1.577999999999999936e+01 5.271306999999999521e-01 -9.895736540692057215e-02
5.580899999999999750e+01 3.964900000000000091e+00 -6.317800000000000082e+00 3.522838999999999832e+00 -4.970972241385315099e-02
5.581099999999999994e+01 3.995100000000000051e+01 -1.244500000000000028e+01 3.637364000000000175e+01 -2.166145742783081030e-01
5.581700000000000017e+01 3.952300000000000146e+00 -7.373899999999999899e+00 2.748480999999999952e+00 -5.554515536543678383e-02
5.582099999999999795e+01 2.992899999999999849e+01 -1.219999999999999973e+00 1.778190000000000026e+01 2.304646277021425438e-01
5.583599999999999852e+01 1.669200000000000017e+01 -5.736900000000000333e+00 6.179494000000000042e+00 3.770623174537054284e-02
5.583700000000000330e+01 3.174699999999999989e+01 -3.254900000000000126e+00 1.838991000000000042e+01 2.554697792072608276e-01
5.584100000000000108e+01 1.723000000000000043e+01 -1.809700000000000131e+01 1.360969000000000095e+00 -1.017150489306258565e-01
5.584100000000000108e+01 1.901800000000000068e+01 -1.809700000000000131e+01 1.177796999999999983e+01 -2.580050742656255780e-01
5.584300000000000352e+01 4.240500000000000114e+01 -8.682399999999999451e+00 1.386913000000000018e+01 -8.659015716461443413e-02
5.584300000000000352e+01 2.863200000000000145e+01 -1.942399999999999904e+00 1.692197000000000173e+01 2.085717613021381978e-01
5.584799999999999898e+01 1.815299999999999869e+01 -5.729199999999999626e+00 5.805222999999999800e+00 6.238740986119419019e-02
5.585099999999999909e+01 2.933899999999999864e+01 -5.634900000000000020e+00 2.486001999999999867e+01 -1.481989305821694303e-01
5.585099999999999909e+01 2.954799999999999827e+01 -6.371000000000000441e+00 2.680809999999999960e+01 -1.428030144768415721e-01
5.585199999999999676e+01 4.359599999999999653e+01 -1.705900000000000105e+01 5.783468000000000053e+00 -1.134451413003167708e-01
5.585199999999999676e+01 4.464600000000000080e+01 -1.535899999999999999e+01 3.296323000000000292e+01 6.527419340380204160e-02
5.585399999999999920e+01 4.289300000000000068e+01 -1.477699999999999925e+01 1.172053000000000011e+01 5.842499156536299504e-02
5.585900000000000176e+01 3.678099999999999881e+01 -1.725199999999999889e+01 1.027696000000000076e+01 -2.076809848073127296e-01
5.586500000000000199e+01 3.997099999999999653e+01 -1.357300000000000040e+01 1.562571000000000083e+02 -4.976007141640705067e-02
5.586899999999999977e+01 3.488799999999999812e+01 9.816000000000000725e+00 6.651252999999999638e+00 7.180905442369907299e-02
5.587100000000000222e+01 3.045899999999999963e+01 -9.090999999999999304e+00 6.348716000000000292e+01 -7.900131154454484439e-02
5.587100000000000222e+01 3.164999999999999858e+01 -9.754899999999999238e+00 1.133422999999999981e+01 1.242889406654729828e-02
5.587299999999999756e+01 3.288000000000000256e+01 -4.013200000000000323e+00 1.249944999999999951e+01 2.149006845039760916e-01
