-6.447899999999999743e+00 -4.119100000000000250e+01 1.018499999999999961e+00 -6.294484999999999664e-01 -2.766500113732988098e-01
-6.437100000000000044e+00 -2.081400000000000006e+01 1.423700000000000010e+01 -1.253959000000000046e+01 -2.509455367291682504e-01
-6.437100000000000044e+00 -1.854899999999999949e+01 1.423700000000000010e+01 -9.008680999999999273e+00 -2.505723265484361972e-01
-6.425300000000000011e+00 -2.803300000000000125e+01 1.533799999999999919e+01 -2.557029999999999959e+01 -2.564190497101552224e-01
-6.424199999999999910e+00 -3.821200000000000330e+01 -2.125399999999999956e+00 -5.378288000000000402e+00 -2.769788793144903893e-01
-6.423099999999999810e+00 -3.129700000000000060e+01 9.058799999999999741e+00 -4.433482999999999841e+00 -2.568523082463025631e-01
-6.421199999999999797e+00 -2.821099999999999852e+01 1.242399999999999949e+00 -3.326026000000000149e+00 -2.766261195319606458e-01
-6.418499999999999872e+00 -3.388499999999999801e+01 1.201099999999999923e+01 -5.959449999999999470e-01 -1.361589054723180148e-01
-6.415899999999999714e+00 -2.424099999999999966e+01 1.496599999999999930e+01 -4.380310000000000059e+01 -2.531767559572691839e-01
-6.409299999999999997e+00 -1.732900000000000063e+01 1.171700000000000053e+01 -8.684150000000000702e+00 -2.483062029700819073e-01
-6.408000000000000362e+00 -4.244500000000000028e+01 -7.789800000000000058e-01 2.225942999999999949e-01 -2.708398549516911613e-01
-6.408000000000000362e+00 -4.244500000000000028e+01 1.789800000000000002e-01 -2.729928999999999828e+00 -2.716728052402558879e-01
-6.406500000000000306e+00 -1.366399999999999970e+01 1.308999999999999986e+01 7.820746999999999893e+00 -2.492353927910581357e-01
-6.402099999999999902e+00 -3.264800000000000324e+01 8.413000000000000256e+00 -3.022920000000000051e+00 -1.760847284399724988e-01
-6.399000000000000021e+00 -2.049099999999999966e+01 1.376500000000000057e+01 -1.261128000000000071e+01 -2.503427981911527378e-01
-6.384100000000000108e+00 -2.398100000000000165e+01 2.158700000000000063e+00 -2.798986000000000196e+00 -2.403701255205260845e-01
-6.384100000000000108e+00 -2.305000000000000071e+01 2.158700000000000063e+00 -2.759307999999999872e+00 -2.408840765707527254e-01
-6.384100000000000108e+00 -2.211899999999999977e+01 2.158700000000000063e+00 -2.222037999999999958e+00 -2.413689425043367420e-01
-6.357999999999999652e+00 -3.678399999999999892e+01 1.482300000000000040e+01 2.657748000000000221e+00 -1.431097693735527421e-01
-6.348600000000000243e+00 -3.082900000000000063e+01 8.198900000000000077e+00 -2.315606999999999971e+00 -2.569950342676702859e-01
-6.347100000000000186e+00 -3.922800000000000153e+01 8.425900000000000389e+00 -3.491022000000000070e+00 -2.174175480241694880e-01
-6.341999999999999638e+00 -2.946199999999999974e+01 3.229000000000000092e+00 7.139918000000000653e-02 -1.822358407102035172e-01
-6.341999999999999638e+00 -2.920799999999999841e+01 2.335300000000000153e+00 -1.400868999999999920e+00 -2.768525132812839074e-01
-6.341099999999999959e+00 -2.008999999999999986e+01 8.826000000000000512e+00 -5.457780999999999771e+00 -2.455002196042163354e-01
-6.331299999999999706e+00 -3.406700000000000017e+01 7.562999999999999723e+00 -3.039871999999999908e+00 -1.797268860326202422e-01
-6.331299999999999706e+00 -3.301700000000000301e+01 9.262999999999999901e+00 -3.687733000000000150e+00 -2.604211016840304316e-01
-6.331299999999999706e+00 -3.215100000000000335e+01 1.066300000000000026e+01 -9.876207000000000846e+00 -2.577690165111354292e-01
-6.322000000000000064e+00 -3.835699999999999932e+01 1.251399999999999935e+01 -3.909527999999999892e+00 -1.929964786053968984e-01
-6.318299999999999805e+00 -3.964399999999999835e+01 1.383299999999999974e+00 7.082973000000000185e-01 -2.807689154821918498e-01
-6.318299999999999805e+00 -3.794400000000000261e+01 1.383299999999999974e+00 -2.212494999999999878e-01 -2.825634540558320529e-01
-6.308300000000000018e+00 -3.390999999999999659e+01 1.538199999999999967e+01 1.647690000000000055e+01 -1.551617952670728828e-01
-6.306899999999999729e+00 -3.717699999999999960e+01 1.337199999999999989e+01 -1.019047000000000036e+00 -1.851351397527608023e-01
-6.302999999999999936e+00 -3.047899999999999920e+01 6.443599999999999994e+00 -1.025755999999999890e+00 -1.787959359372225110e-01
-6.301700000000000301e+00 -2.507700000000000173e+01 1.069800000000000040e+01 1.585562000000000005e+01 -2.449673080206088704e-01
-6.300399999999999778e+00 -1.536899999999999977e+01 1.127800000000000047e+01 -7.285872000000000348e+00 -2.481909692757252872e-01
-6.290700000000000180e+00 -4.065299999999999869e+01 -3.351700000000000124e+00 -3.431052000000000213e+00 -2.729603977253429181e-01
-6.290700000000000180e+00 -3.913300000000000267e+01 -3.351700000000000124e+00 -3.845727999999999813e+00 -2.749580118741742352e-01
-6.288899999999999935e+00 -3.554599999999999937e+01 1.545400000000000063e+01 3.316649000000000314e+01 -1.518584946052528861e-01
-6.286999999999999922e+00 -3.891199999999999903e+01 1.206499999999999950e+01 -3.601802999999999866e+00 -1.963956838452864118e-01
-6.286800000000000388e+00 -2.478699999999999903e+01 1.745900000000000007e+00 -2.442832000000000114e+00 -2.727419883172618187e-01
-6.286100000000000243e+00 -3.098699999999999832e+01 7.560999999999999943e+00 -1.772775999999999907e+00 -2.577648464685627916e-01
-6.283699999999999619e+00 -2.232799999999999940e+01 1.583600000000000030e+01 -4.782359999999999722e+00 -2.541436405251321085e-01
-6.273100000000000342e+00 -2.528699999999999903e+01 9.690199999999999925e-01 -7.030835999999999864e+00 -2.742701739888601109e-01
-6.272999999999999687e+00 -3.184799999999999898e+01 9.962999999999999190e+00 -7.350537000000000099e+00 -2.577222962170636067e-01
-6.270299999999999763e+00 -2.045899999999999963e+01 7.975999999999999979e+00 -2.464278999999999886e+00 -2.448104651886099659e-01
-6.270299999999999763e+00 -2.045899999999999963e+01 9.676000000000000156e+00 -1.038067000000000029e+01 -2.461280589695269416e-01
-6.261300000000000310e+00 -2.946900000000000119e+01 1.499799999999999933e+01 2.646160000000000068e+00 -2.558702436884860432e-01
-6.261300000000000310e+00 -2.087300000000000111e+01 1.485200000000000031e+01 -9.450891000000000375e+00 -2.520150874680655018e-01
-6.259199999999999875e+00 -1.235100000000000087e+01 1.226299999999999990e+01 -1.950099000000000160e+01 -2.488075395591742289e-01
-6.255799999999999805e+00 -3.692099999999999937e+01 1.420700000000000074e+01 4.071034000000000042e+00 -1.862370052446707391e-01
-6.245499999999999829e+00 -1.315600000000000058e+01 1.270599999999999952e+01 1.892509000000000086e+01 -2.490825079057028546e-01
-6.240099999999999980e+00 -2.136899999999999977e+01 6.887800000000000367e+00 1.496574000000000026e+01 -2.437151079204805948e-01
-6.238999999999999879e+00 -2.160200000000000031e+01 5.559999999999999609e+00 4.905522999999999634e+00 -2.428837882570651363e-01
-6.238999999999999879e+00 -2.160200000000000031e+01 6.425200000000000244e+00 1.503734999999999999e+01 -2.433285962616297537e-01
-6.230299999999999727e+00 -3.219700000000000273e+01 9.218700000000000117e+00 -1.644574000000000069e+01 -2.589668676375145306e-01
-6.222999999999999865e+00 -3.687100000000000222e+01 -1.905000000000000027e-01 1.356840000000000046e+00 -2.806426310877055408e-01
-6.216000000000000192e+00 -4.049699999999999989e+01 1.024900000000000055e+01 -2.220502999999999894e+00 -1.127722587721624870e-01
-6.216000000000000192e+00 -4.024300000000000210e+01 9.355299999999999727e+00 -3.254392999999999869e+00 -2.253313533992738482e-01
-6.216000000000000192e+00 -4.024300000000000210e+01 1.114300000000000068e+01 -3.737156999999999840e+00 -1.144016999088320052e-01
-6.213099999999999845e+00 -2.657700000000000173e+01 -7.929899999999999727e-01 -6.202333000000000318e+00 -2.766422910764510523e-01
-6.203100000000000058e+00 -2.963500000000000156e+01 3.940500000000000114e+00 -4.478981000000000212e-01 -1.817526828025512464e-01
-6.201399999999999579e+00 -3.705299999999999727e+01 4.968899999999999983e-01 1.633061000000000096e+00 -2.815900288477455327e-01
-6.196799999999999642e+00 -1.930900000000000105e+01 1.348399999999999999e+01 -1.092797999999999981e+01 -2.501315271875756419e-01
-6.181000000000000050e+00 -2.045700000000000074e+01 1.268500000000000050e+01 -2.824905000000000044e+01 -2.492979531347050970e-01
-6.181000000000000050e+00 -1.819200000000000017e+01 1.268500000000000050e+01 -1.062546999999999997e+01 -2.492988223823164873e-01
-6.174000000000000377e+00 -2.780699999999999861e+01 3.029400000000000148e-02 -9.680609000000000464e+00 -2.769746921096474246e-01
-6.174000000000000377e+00 -2.534700000000000131e+01 3.029400000000000148e-02 -1.901009000000000171e+01 -2.755342687203795604e-01
-6.167799999999999727e+00 -1.410399999999999920e+01 1.410800000000000054e+01 7.045762999999999998e+00 -2.500425580904606093e-01
-6.166299999999999670e+00 -3.173900000000000077e+01 8.305899999999999395e+00 -8.689923999999999538e+00 -2.587460612342934452e-01
-6.161999999999999922e+00 -2.572200000000000131e+01 1.863400000000000034e+01 2.046031000000000155e+00 -1.754908231834585997e-01
-6.157499999999999751e+00 -1.928300000000000125e+01 2.463099999999999845e+00 -3.963496999999999826e+00 -2.428832021413074305e-01
-6.151099999999999568e+00 -2.151599999999999824e+01 1.640700000000000047e+00 -2.006512999999999991e+00 -2.417236198336333575e-01
-6.143299999999999983e+00 -3.721800000000000352e+01 -1.239000000000000101e+00 -1.066834000000000060e+00 -2.790268752442398581e-01
-6.137699999999999712e+00 -2.634400000000000119e+01 1.508300000000000018e+01 -1.112883000000000067e+01 -2.552279860521408095e-01
-6.131000000000000227e+00 -2.092299999999999827e+01 1.052999999999999936e+01 -2.293005000000000138e+01 -2.469314418425982982e-01
-6.131000000000000227e+00 -2.092299999999999827e+01 1.139499999999999957e+01 -3.668023000000000167e+01 -2.478394704241023982e-01
-6.131000000000000227e+00 -2.059799999999999898e+01 1.213299999999999912e+01 -2.129853999999999914e+01 -2.487121530463331232e-01
-6.126999999999999780e+00 -1.714099999999999824e+01 1.629599999999999937e+01 -2.181875000000000142e+01 -1.711602713216869298e-01
-6.126999999999999780e+00 -1.562299999999999933e+01 1.629599999999999937e+01 -2.150737000000000165e+01 -2.658659440763594950e-01
-6.123700000000000365e+00 -2.526800000000000068e+01 1.500999999999999979e+01 -3.115862999999999872e+01 -2.544104393303076028e-01
-6.112000000000000099e+00 -4.196600000000000108e+01 -1.554000000000000048e+00 -1.938671000000000033e+00 -2.716641846612359301e-01
-6.112000000000000099e+00 -4.196600000000000108e+01 9.539800000000000502e-01 4.088442999999999827e+00 -2.746735120780819939e-01
-6.108699999999999797e+00 -2.228399999999999892e+01 1.360100000000000087e+00 -2.495162000000000074e-02 -2.413404472890816055e-01
-6.105299999999999727e+00 -1.291600000000000037e+01 7.755300000000000082e+00 -7.185558000000000334e+00 -2.466871059292495283e-01
-6.105299999999999727e+00 -1.139600000000000080e+01 7.755300000000000082e+00 -1.366067999999999927e+01 -2.468706794440251873e-01
-6.098300000000000054e+00 -2.050000000000000000e+01 4.626000000000000334e+00 -1.369310999999999945e+00 -2.431346858793104193e-01
-6.094899999999999984e+00 -2.423999999999999844e+01 1.054199999999999982e+01 -1.957509999999999906e+01 -2.456458309272374907e-01
-6.090300000000000047e+00 -2.591300000000000026e+01 1.085500000000000043e+01 5.609306000000000125e+01 -2.450182922937730601e-01
-6.088000000000000078e+00 -1.423300000000000054e+01 1.506600000000000072e+01 4.581523999999999930e+00 -2.507214500396459655e-01
-6.083099999999999952e+00 -1.651599999999999824e+01 1.164100000000000001e+01 -1.213185000000000002e+01 -2.485454332068477434e-01
-6.076999999999999957e+00 -3.172299999999999898e+01 7.560999999999999943e+00 -1.108099000000000028e-01 -1.780482116059634579e-01
-6.073400000000000354e+00 -3.535000000000000142e+01 8.587699999999999889e+00 -4.821448000000000178e+00 -1.810511329649170387e-01
-6.073400000000000354e+00 -2.565200000000000102e+01 1.793299999999999983e+01 -9.304402000000000506e-02 -1.744667624453520305e-01
-6.064700000000000202e+00 -3.075900000000000034e+01 -1.071900000000000075e+00 -4.775045999999999680e+00 -2.789460402807987793e-01
-6.064000000000000057e+00 -3.258400000000000318e+01 9.962999999999999190e+00 -1.740833999999999904e+01 -2.601329049063240695e-01
-6.057900000000000063e+00 -3.051000000000000156e+01 -3.963900000000000201e+00 -9.638130999999999782e-01 -2.789830157531442700e-01
-6.056000000000000050e+00 -1.136800000000000033e+01 1.078200000000000003e+01 -4.394934000000000118e+00 -2.481854379583448011e-01
-6.056000000000000050e+00 -1.102299999999999969e+01 9.999100000000000321e+00 -4.673302999999999940e+01 -2.478478009656173986e-01
-6.054000000000000270e+00 -3.164300000000000068e+01 -9.686999999999999389e+00 -6.082558999999999827e+00 -2.767983292618090840e-01
-6.048000000000000043e+00 -1.463000000000000078e+01 9.932700000000000529e+00 -5.526352000000000153e+00 -2.475960517639433645e-01
-6.042900000000000382e+00 -3.271500000000000341e+01 1.485399999999999920e+01 1.592828000000000088e+01 -1.561098646879944540e-01
-6.042900000000000382e+00 -3.007700000000000173e+01 1.485399999999999920e+01 1.221832999999999991e+01 -2.559830860306222533e-01
-6.039299999999999891e+00 -2.317399999999999949e+01 1.584800000000000075e+01 -8.070195000000000007e+00 -2.551272517584573518e-01
-6.036599999999999966e+00 -2.540800000000000125e+01 9.842000000000000526e+00 1.546793000000000085e+01 -2.440594832420043547e-01
-6.036599999999999966e+00 -2.454299999999999926e+01 9.842000000000000526e+00 1.213824999999999932e+01 -2.446690475144370769e-01
-6.032000000000000028e+00 -2.560999999999999943e+01 1.155499999999999972e+01 2.177111000000000018e+01 -2.465480988187011557e-01
-6.032000000000000028e+00 -2.474500000000000099e+01 1.155499999999999972e+01 -6.716584000000000110e+00 -2.470069550001708358e-01
-6.026699999999999946e+00 -2.058500000000000085e+01 1.670900000000000052e+00 -3.585040999999999922e+00 -2.422285435746462934e-01
-6.021899999999999586e+00 -3.431799999999999784e+01 1.011999999999999922e+01 -1.157534000000000063e+01 -1.755515511527619144e-01
-6.021899999999999586e+00 -3.431799999999999784e+01 1.151999999999999957e+01 -1.340513999999999939e+01 -1.374097651864718550e-01
-6.021899999999999586e+00 -3.345199999999999818e+01 1.011999999999999922e+01 -1.180212000000000039e+01 -1.391161694911885183e-01
-6.021899999999999586e+00 -3.345199999999999818e+01 1.151999999999999957e+01 -1.078787999999999947e+01 -1.396990171410297799e-01
-6.020999999999999908e+00 -3.213400000000000034e+01 -3.043299999999999894e+00 -2.992443999999999882e+00 -3.155931923475140399e-01
-6.020999999999999908e+00 -3.213400000000000034e+01 -1.992699999999999916e+00 -2.285794000000000104e+00 -2.799732750105045631e-01
-6.020999999999999908e+00 -2.938400000000000034e+01 -3.043299999999999894e+00 -3.663282000000000149e+00 -2.783868252223001827e-01
-6.020999999999999908e+00 -2.938400000000000034e+01 -1.992699999999999916e+00 -4.883142999999999567e+00 -2.782708814058254543e-01
-6.019499999999999851e+00 -3.707399999999999807e+01 8.466799999999999216e+00 -5.059497000000000355e+00 -2.032277064452482629e-01
-6.019300000000000317e+00 -2.467399999999999949e+01 1.545700000000000074e+01 -2.537103000000000108e+01 -2.554205509039247923e-01
-6.019300000000000317e+00 -2.380799999999999983e+01 1.545700000000000074e+01 -2.158399999999999963e+01 -2.548031663756569754e-01
-6.017299999999999649e+00 -1.876599999999999824e+01 1.477800000000000047e+01 -1.345786999999999978e+01 -2.515863912567132266e-01
-6.015500000000000291e+00 -3.630299999999999727e+01 1.520800000000000018e+01 8.563745000000000829e+00 -1.519681695684026723e-01
-6.004500000000000171e+00 -2.011400000000000077e+01 1.397000000000000064e+01 -1.178839999999999932e+01 -2.510037653376782640e-01
-6.004500000000000171e+00 -1.924899999999999878e+01 1.397000000000000064e+01 -1.118261000000000038e+01 -2.508463576799460082e-01
-5.982999999999999652e+00 -1.921000000000000085e+01 3.642300000000000093e+00 -3.470636999999999972e+00 -2.433956566179917846e-01
-5.982800000000000118e+00 -1.419699999999999918e+01 8.868100000000000094e+00 -4.803833000000000020e+00 -2.471098381796903443e-01
-5.979400000000000048e+00 -1.786599999999999966e+01 1.215700000000000003e+01 -1.010402000000000022e+01 -2.490091438621303277e-01
-5.978100000000000414e+00 -1.358799999999999919e+01 1.340600000000000058e+01 3.627869000000000010e+00 -2.496708823866634896e-01
-5.963700000000000223e+00 -3.462100000000000222e+01 1.082000000000000028e+01 -2.176606999999999914e+01 -1.754581966518328484e-01
-5.963700000000000223e+00 -3.314900000000000091e+01 1.082000000000000028e+01 -1.584275000000000055e+01 -1.402767881833778818e-01
-5.958599999999999675e+00 -1.198600000000000065e+01 1.168099999999999916e+01 -3.575095999999999918e+01 -2.486601644248140341e-01
-5.952399999999999913e+00 -3.930700000000000216e+01 1.203599999999999959e+01 -1.082503999999999955e+01 -2.010617629167533171e-01
-5.944899999999999629e+00 -2.733599999999999852e+01 -8.280800000000000383e-01 -5.308329999999999771e+00 -2.771252558663103160e-01
-5.925099999999999589e+00 -1.483799999999999919e+01 1.078400000000000070e+01 -6.245706000000000202e+00 -2.481537892522866495e-01
-5.921700000000000408e+00 -2.514799999999999969e+01 1.571799999999999997e+01 -7.856238000000000277e+00 -2.567193677787419359e-01
-5.921299999999999564e+00 -3.867399999999999949e+01 1.732099999999999973e+00 2.830382999999999871e+00 -2.831013631791680085e-01
-5.917300000000000004e+00 -3.803999999999999915e+01 1.281300000000000061e+01 -6.154602999999999824e+00 -1.940187048573612794e-01
-5.915300000000000225e+00 -2.147800000000000153e+01 1.576500000000000057e+01 -8.290518999999999750e+00 -2.540521380154426301e-01
-5.908100000000000129e+00 -2.661599999999999966e+01 1.863400000000000034e+01 -6.644869999999999943e-02 -1.776131883785287691e-01
-5.908100000000000129e+00 -2.482799999999999940e+01 1.863400000000000034e+01 -1.251250999999999891e+00 -1.752409166665046536e-01
-5.883700000000000152e+00 -2.581700000000000017e+01 -7.297099999999999698e-01 -6.461100000000000065e+00 -2.765500372821213526e-01
-5.870300000000000296e+00 -3.309499999999999886e+01 6.711000000000000298e+00 -2.296225999999999878e+00 -1.812449007517116795e-01
-5.870300000000000296e+00 -3.204500000000000171e+01 6.711000000000000298e+00 5.979370000000000518e-01 -1.801632475902425756e-01
-5.870300000000000296e+00 -3.117899999999999849e+01 6.711000000000000298e+00 8.527831999999999635e-01 -1.795667491324714204e-01
-5.868400000000000283e+00 -3.364800000000000324e+01 6.871400000000000396e+00 -2.934531999999999918e+00 -1.817376792143448605e-01
-5.864399999999999835e+00 -1.885800000000000054e+01 3.227700000000000014e+00 -3.776587000000000138e+00 -2.434684476741738324e-01
-5.860500000000000043e+00 -2.987300000000000111e+01 -3.951400000000000023e+00 -2.714551999999999854e+00 -2.787905326211818635e-01
-5.858299999999999841e+00 -3.731799999999999784e+01 1.026100000000000012e+00 2.149296000000000095e+00 -2.825504200550708611e-01
-5.855400000000000382e+00 -2.877799999999999869e+01 1.626700000000000035e+00 -2.290592999999999879e+00 -2.772752930668913596e-01
-5.840499999999999581e+00 -1.993199999999999861e+01 1.464399999999999924e+00 -3.803120999999999974e+00 -2.425693170439118251e-01
-5.838700000000000223e+00 -3.867000000000000171e+01 7.972900000000000098e+00 -3.847789999999999822e+00 -2.152077118407934309e-01
-5.838000000000000078e+00 -3.030799999999999983e+01 5.459900000000000198e+00 -2.311763000000000012e-01 -1.808590958694073492e-01
-5.838000000000000078e+00 -2.998000000000000043e+01 4.715099999999999625e+00 -4.459178999999999782e-01 -1.815735704828706498e-01
-5.837299999999999933e+00 -2.624699999999999989e+01 1.778399999999999892e+01 -1.867680999999999925e+00 -1.755586024818935331e-01
-5.837299999999999933e+00 -2.624699999999999989e+01 1.948400000000000176e+01 3.783573000000000075e-01 -1.789300729642634424e-01
-5.837299999999999933e+00 -2.519699999999999918e+01 1.948400000000000176e+01 -1.566113000000000088e-01 -1.771758108690961175e-01
-5.834600000000000009e+00 -2.319600000000000151e+01 1.369299999999999962e+00 -2.307945999999999831e+00 -2.411051855705209912e-01
-5.828700000000000436e+00 -2.876899999999999835e+01 1.526600000000000001e+01 -4.538269999999999804e+00 -2.588116390559427327e-01
-5.828700000000000436e+00 -2.017299999999999827e+01 1.458500000000000085e+01 -1.040236999999999945e+01 -2.519707455720211486e-01
-5.827099999999999724e+00 -1.857300000000000040e+01 2.422000000000000153e+00 -3.917844000000000104e+00 -2.433462982023936461e-01
-5.826999999999999957e+00 -3.244200000000000017e+01 -9.686999999999999389e+00 -4.511508000000000074e+00 -2.765499652965317523e-01
-5.826999999999999957e+00 -3.084400000000000119e+01 -9.686999999999999389e+00 -4.913669999999999760e+00 -2.151349074475936499e-02
-5.825599999999999667e+00 -2.429400000000000048e+01 1.284699999999999953e+00 -4.825040999999999691e+00 -2.732924169747576459e-01
-5.823100000000000165e+00 -3.762100000000000222e+01 1.307399999999999984e+01 -6.154602999999999824e+00 -1.920074275995787005e-01
-5.820999999999999730e+00 -4.118599999999999994e+01 -2.921100000000000030e+00 -3.043848000000000109e+00 -2.725227200094269553e-01
-5.820999999999999730e+00 -3.989300000000000068e+01 -3.641999999999999904e+00 -4.410262999999999600e+00 -2.740012964170780441e-01
-5.820999999999999730e+00 -3.860000000000000142e+01 -2.921100000000000030e+00 -7.740770999999999624e+00 -2.760494082926786552e-01
-5.816099999999999604e+00 -1.082799999999999940e+01 9.515900000000000247e+00 -3.530917999999999779e+01 -2.477584086547968967e-01
-5.815000000000000391e+00 -1.092600000000000016e+01 8.515299999999999869e+00 -1.643822000000000116e+01 -2.473431547545256737e-01
-5.807400000000000340e+00 -2.087800000000000011e+01 5.019099999999999895e+00 -1.152992000000000017e+00 -2.433675656781466579e-01
-5.807400000000000340e+00 -2.087800000000000011e+01 7.284399999999999764e+00 5.000925999999999760e+00 -2.446127082593649305e-01
-5.806000000000000050e+00 -3.491700000000000159e+01 7.887699999999999712e+00 -3.427350999999999814e+00 -1.824575584922827065e-01
-5.806000000000000050e+00 -2.521900000000000119e+01 1.723300000000000054e+01 -2.195799000000000056e+00 -1.737684601645257676e-01
-5.793000000000000149e+00 -4.042399999999999949e+01 1.245000000000000107e+00 1.974546000000000134e+01 -2.795971716795960238e-01
-5.784600000000000186e+00 -2.730999999999999872e+01 1.536599999999999966e+01 -2.066360999999999848e+01 -2.580370297101211019e-01
-5.783400000000000318e+00 -3.972699999999999676e+01 1.175300000000000011e+01 -9.031983999999999568e+00 -1.163629240725331249e-01
-5.780000000000000249e+00 -2.995299999999999940e+01 -1.034599999999999964e+00 -3.072668000000000177e+00 -2.786500804654944430e-01
-5.776600000000000179e+00 -1.784499999999999886e+01 1.601800000000000068e+01 -7.512896999999999714e+00 -2.527246146980575148e-01
-5.775900000000000034e+00 -1.215600000000000058e+01 7.692000000000000171e+00 -5.196499000000000201e+00 -2.469127714641541904e-01
-5.769999999999999574e+00 -3.604999999999999716e+01 8.646000000000000796e+00 -9.188309999999999533e+00 -1.842618994486404094e-01
-5.763700000000000045e+00 -3.211299999999999955e+01 -1.044699999999999918e+01 -4.306434999999999569e+00 -2.764559497022748280e-01
-5.763700000000000045e+00 -3.211299999999999955e+01 -8.926999999999999602e+00 -5.008032000000000039e+00 -2.769104230009139522e-01
-5.763700000000000045e+00 -3.117299999999999827e+01 -1.044699999999999918e+01 -4.293963999999999892e+00 -2.161243263708226975e-02
-5.763700000000000045e+00 -3.117299999999999827e+01 -8.926999999999999602e+00 -5.402813000000000088e+00 -2.060618345493901021e-02
-5.763300000000000090e+00 -1.475799999999999912e+01 1.591600000000000037e+01 -8.095674000000000703e+00 -2.655833409186790783e-01
-5.758200000000000429e+00 -2.482900000000000063e+01 5.000000000000000000e-01 -1.067788999999999966e+01 -2.748010293125061621e-01
-5.756300000000000416e+00 -1.894200000000000017e+01 1.572000000000000064e+00 -3.894185999999999925e+00 -2.430235242717111444e-01
-5.754599999999999937e+00 -3.388499999999999801e+01 1.082000000000000028e+01 -1.088860999999999990e+01 -1.396899539054910488e-01
-5.751999999999999780e+00 -3.471999999999999886e+01 1.556600000000000072e+01 7.893726000000000020e+00 -1.611017476779290913e-01
-5.748400000000000176e+00 -1.975700000000000145e+01 1.295199999999999996e+01 -1.111974000000000018e+01 -2.500606050251643064e-01
-5.748400000000000176e+00 -1.889199999999999946e+01 1.295199999999999996e+01 -1.081305000000000049e+01 -2.499918061049789253e-01
-5.745000000000000107e+00 -1.960900000000000176e+01 8.300700000000000855e+00 -4.738328000000000095e+00 -2.458347897142127148e-01
-5.739099999999999646e+00 -3.091799999999999926e+01 1.516200000000000081e+01 1.007473000000000063e+01 -2.595628310558424356e-01
-5.696299999999999919e+00 -3.160900000000000176e+01 -3.893299999999999983e+00 -2.227768000000000193e+00 -3.146894589584846580e-01
-5.696299999999999919e+00 -3.160900000000000176e+01 -1.142700000000000049e+00 4.492468999999999824e+00 -2.798642073770807870e-01
-5.690100000000000158e+00 -2.006099999999999994e+01 1.225200000000000067e+01 -1.236102999999999952e+01 -2.493627041086594054e-01
-5.689300000000000246e+00 -2.803300000000000125e+01 1.554700000000000060e+01 -5.180378000000000149e+00 -2.599343668738819391e-01
-5.682999999999999829e+00 -1.857700000000000173e+01 1.223399999999999999e+01 -1.045124000000000031e+01 -2.493436776372962016e-01
-5.681199999999999584e+00 -2.413100000000000023e+01 1.634499999999999886e+01 -7.938677000000000206e+00 -2.576960393477000233e-01
-5.680399999999999672e+00 -3.763700000000000045e+01 -1.930600000000000094e+00 -8.094867000000000701e+00 -2.780398469530728223e-01
-5.670600000000000307e+00 -1.728399999999999892e+01 1.146400000000000041e+01 -1.183815000000000062e+01 -2.487053478742037582e-01
-5.668300000000000338e+00 -2.280900000000000105e+01 6.250000000000000000e-01 -2.616605999999999987e+00 -2.729827822879354882e-01
-5.668300000000000338e+00 -2.175900000000000034e+01 6.250000000000000000e-01 6.437270000000000492e-01 -2.417548438900445351e-01
-5.664600000000000080e+00 -1.640200000000000102e+01 1.628000000000000114e+01 -1.265732999999999997e+01 -2.665528375726249899e-01
-5.658299999999999663e+00 -1.973499999999999943e+01 4.492300000000000182e+00 -8.652997000000000050e-01 -2.437421889941382980e-01
-5.654499999999999638e+00 -2.982799999999999940e+01 -4.454600000000000115e+00 5.465379000000000209e-01 -2.165863669403305519e-02
-5.654300000000000104e+00 -2.471499999999999986e+01 1.641799999999999926e+01 -5.997628999999999877e+00 -2.586339783705208784e-01
-5.647599999999999731e+00 -2.613100000000000023e+01 1.572700000000000031e+01 -6.933252999999999666e+00 -2.584119382114205554e-01
-5.647599999999999731e+00 -2.613100000000000023e+01 1.712699999999999889e+01 -1.463044999999999929e+00 -2.631037719251512197e-01
-5.640100000000000335e+00 -2.020100000000000051e+01 1.169999999999999929e+01 -1.143621000000000087e+01 -2.488142756371728159e-01
-5.639999999999999680e+00 -2.497599999999999909e+01 9.351100000000000634e+00 9.321146000000000598e+00 -2.444554892879734209e-01
-5.635399999999999743e+00 -2.517699999999999960e+01 1.204599999999999937e+01 -2.920911999999999864e+01 -2.484734359179969765e-01
-5.633000000000000007e+00 -4.274099999999999966e+01 -2.999999999999999889e-01 1.155348000000000042e+01 -2.709630439833518034e-01
-5.633000000000000007e+00 -4.250999999999999801e+01 -1.114900000000000002e+00 -3.075555999999999846e-01 -2.709697971143815165e-01
-5.633000000000000007e+00 -4.250999999999999801e+01 5.148800000000000043e-01 -1.107725999999999988e+00 -2.726611853951469433e-01
-5.633000000000000007e+00 -4.155100000000000193e+01 -2.073399999999999910e+00 -5.808881999999999657e+00 -2.724338379434717572e-01
-5.633000000000000007e+00 -4.119100000000000250e+01 1.250000000000000000e+00 1.161303000000000054e+02 -2.780814495204940173e-01
-5.621800000000000352e+00 -2.577499999999999858e+01 1.642299999999999827e+01 -4.279113999999999862e+00 -2.602276415312787528e-01
-5.618000000000000327e+00 -3.636800000000000210e+01 -9.143299999999999761e-01 5.071436999999999751e-01 -2.802374698885504167e-01
-5.618000000000000327e+00 -3.636800000000000210e+01 1.363300000000000067e-01 2.446768000000000054e+00 -2.816737622945096886e-01
-5.613900000000000112e+00 -3.874000000000000199e+01 1.275399999999999956e+01 -1.846460000000000079e+01 -2.014279204966319126e-01
-5.610199999999999854e+00 -3.341499999999999915e+01 1.512199999999999989e+01 3.639824000000000126e+01 -1.601290553223818913e-01
-5.610199999999999854e+00 -3.201500000000000057e+01 1.512199999999999989e+01 6.934464000000000183e+00 -1.625339023857823861e-01
-5.610199999999999854e+00 -2.937699999999999889e+01 1.512199999999999989e+01 -2.519979000000000191e+00 -2.592461134529712719e-01
-5.607599999999999696e+00 -3.443699999999999761e+01 6.978100000000000414e+00 -4.098012999999999906e+00 -1.836556920424158579e-01
-5.602500000000000036e+00 -2.821900000000000119e+01 -3.364800000000000013e-01 -7.309404999999999930e+00 -2.776696939980693446e-01
-5.602400000000000269e+00 -2.356599999999999895e+01 1.636400000000000077e+01 -9.183626000000000289e+00 -2.572479929311853875e-01
-5.602400000000000269e+00 -2.195499999999999829e+01 1.636400000000000077e+01 -9.389689999999999870e+00 -2.557398104435698594e-01
-5.600299999999999834e+00 -1.340600000000000058e+01 8.052099999999999369e+00 -4.380008000000000123e+00 -2.470149764059710318e-01
-5.599300000000000388e+00 -2.630999999999999872e+01 1.042200000000000060e+01 2.402366999999999919e+01 -2.450488236217841787e-01
-5.599300000000000388e+00 -2.630999999999999872e+01 1.128800000000000026e+01 3.293543999999999983e+01 -2.465514376168115585e-01
-5.591300000000000381e+00 -2.342500000000000071e+01 1.085299999999999976e+01 -2.614431000000000083e+01 -2.472261054084440579e-01
-5.588400000000000034e+00 -2.781800000000000139e+01 -8.600499999999999812e-01 -7.276723999999999748e+00 -2.775853747784792769e-01
-5.584500000000000242e+00 -2.009799999999999898e+01 1.025900000000000034e+01 -1.093823000000000079e+01 -2.474516729188044883e-01
-5.575899999999999856e+00 -2.062699999999999889e+01 1.551200000000000045e+01 -6.087193000000000076e+00 -2.536429599958693881e-01
-5.568500000000000227e+00 -2.378600000000000136e+01 1.013100000000000023e+01 -1.847647999999999868e+01 -2.461765835196422503e-01
-5.566699999999999982e+00 -2.256200000000000117e+01 1.656800000000000139e+01 -7.237203000000000053e+00 -2.566744933136375639e-01
-5.564600000000000435e+00 -1.951200000000000045e+01 9.442399999999999238e+00 -7.689004999999999868e+00 -2.468906607654675622e-01
-5.560599999999999987e+00 -3.797899999999999920e+01 1.765400000000000080e+00 3.184863000000000000e-01 -2.839125943700683830e-01
-5.559199999999999697e+00 -1.229299999999999926e+01 1.256600000000000072e+01 -7.532440000000000246e+00 -2.493262873587151207e-01
-5.558099999999999596e+00 -1.182900000000000063e+01 1.130300000000000082e+01 1.185661000000000076e+00 -2.486702350053048571e-01
-5.555799999999999628e+00 -3.718800000000000239e+01 1.377399999999999913e+01 -2.097793999999999937e+00 -1.928587017767208200e-01
-5.554899999999999949e+00 -2.828999999999999915e+01 7.606500000000000483e-01 -4.770355999999999597e+00 -2.774861759098339875e-01
-5.552100000000000257e+00 -2.432499999999999929e+01 1.723300000000000054e+01 7.327532999999999852e+00 -1.737960365593921030e-01
-5.545499999999999652e+00 -1.288799999999999990e+01 1.313899999999999935e+01 2.865863000000000160e-01 -2.496924753456511714e-01
-5.540099999999999802e+00 -2.131099999999999994e+01 5.719100000000000072e+00 1.322697999999999929e+01 -2.437434796067909915e-01
-5.540099999999999802e+00 -2.131099999999999994e+01 6.584399999999999586e+00 2.314470999999999989e+01 -2.442350018469317818e-01
-5.533000000000000362e+00 -2.372800000000000153e+01 1.155300000000000082e+01 -3.990489000000000175e+01 -2.482297123447912701e-01
-5.530100000000000016e+00 -2.898699999999999832e+01 -1.560000000000000053e+00 -2.976925000000000043e+00 -2.783404534154642063e-01
-5.526200000000000223e+00 -2.040200000000000102e+01 1.095899999999999963e+01 -1.622091999999999956e+01 -2.481397977789207288e-01
-5.525000000000000355e+00 -3.635699999999999932e+01 4.237000000000000099e+00 -4.933792000000000399e+00 -2.877483679592551802e-01
-5.519700000000000273e+00 -3.568399999999999750e+01 1.565300000000000047e+01 1.199367999999999945e+01 -1.634006401305824752e-01
-5.492499999999999716e+00 -1.532900000000000063e+01 1.118099999999999916e+01 -6.225018999999999636e+00 -2.486639022065214033e-01
-5.487199999999999633e+00 -1.319200000000000017e+01 1.383900000000000041e+01 -4.723187000000000246e+00 -2.501574670270750866e-01
-5.487000000000000099e+00 -2.004500000000000171e+01 1.874599999999999866e+01 -4.968141000000000140e+00 -2.682949628602523395e-01
-5.485800000000000232e+00 -2.936700000000000088e+01 -1.028899999999999926e+00 -2.314982999999999791e+00 -2.785147953639983132e-01
-5.480999999999999872e+00 -1.932499999999999929e+01 1.225200000000000067e+01 -1.052159999999999940e+01 -2.495674393366162924e-01
-5.480000000000000426e+00 -3.212700000000000244e+01 -3.609900000000000109e+00 -3.034946999999999839e+00 -3.147696752643055484e-01
-5.475999999999999979e+00 -3.705899999999999750e+01 1.473199999999999932e+01 2.626777999999999835e+00 -1.966957682082590142e-01
-5.475900000000000212e+00 -2.657700000000000173e+01 -1.117899999999999894e+00 -6.131236000000000352e+00 -2.771606028904937125e-01
-5.473200000000000287e+00 -2.361599999999999966e+01 6.009299999999999642e-01 -5.213917000000000357e+00 -2.737937624473833487e-01
-5.470299999999999940e+00 -3.952000000000000313e+01 8.043699999999999406e+00 -3.401460000000000150e+00 -2.167408971518767213e-01
-5.470299999999999940e+00 -3.782000000000000028e+01 8.043699999999999406e+00 -6.207104000000000177e+00 -2.110527532283125451e-01
-5.469699999999999562e+00 -2.928800000000000026e+01 2.760899999999999910e+00 3.721312999999999871e+00 -2.775679359740664265e-01
-5.460799999999999876e+00 -2.427700000000000102e+01 1.199799999999999933e+01 -5.037472000000000349e+01 -2.489444049239266099e-01
-5.458199999999999719e+00 -3.047500000000000142e+01 -9.010999999999999233e+00 -8.121439000000000519e+00 -2.340893220990031276e-02
-5.455099999999999838e+00 -2.712399999999999878e+01 1.807600000000000051e+01 4.422887999999999820e-01 -1.787896890423888441e-01
-5.442899999999999849e+00 -3.649399999999999977e+01 8.668300000000000338e+00 -8.246933999999999543e+00 -1.871699319930011374e-01
-5.441200000000000259e+00 -2.429700000000000060e+01 1.917599999999999838e+01 -1.773292999999999953e-01 -1.765457655416547977e-01
-5.438799999999999635e+00 -2.923400000000000176e+01 2.212000000000000188e+00 1.405168999999999890e+00 -2.777457627375280458e-01
-5.432299999999999685e+00 -2.701699999999999946e+01 1.924299999999999855e+01 -4.158956000000000111e-03 -1.814065214620754762e-01
-5.424199999999999910e+00 -1.482399999999999984e+01 9.503299999999999415e+00 -5.241473000000000049e+00 -2.477128757621138710e-01
-5.419599999999999973e+00 -2.426200000000000045e+01 1.816900000000000048e+01 -2.485282999999999909e+00 -1.752277866240116722e-01
-5.413999999999999702e+00 -2.528399999999999892e+01 -2.991099999999999870e-01 -1.885719999999999885e+01 -2.764152095133503018e-01
-5.412200000000000344e+00 -2.926599999999999824e+01 3.661599999999999966e+00 3.179583000000000048e+00 -1.828826791184641753e-01
-5.406399999999999650e+00 -3.093199999999999861e+01 5.937899999999999956e+00 5.114536000000000193e+00 -1.813818010894137911e-01
-5.405700000000000394e+00 -4.005199999999999960e+01 1.163400000000000034e+01 -4.433319000000000010e+00 -1.156875057398078360e-01
-5.404499999999999638e+00 -2.680799999999999983e+01 1.731500000000000128e+01 -1.485241999999999951e+00 -1.767096594048621627e-01
-5.401099999999999568e+00 -4.034499999999999886e+01 9.745400000000000063e+00 -1.920851000000000086e+00 -1.125805034817230765e-01
-5.388700000000000045e+00 -3.257000000000000028e+01 6.114899999999999558e+00 -9.987374999999999448e-01 -1.826418803895653586e-01
-5.388399999999999856e+00 -3.810900000000000176e+01 -2.524500000000000188e+00 -1.295490999999999993e+01 -2.770756723825869017e-01
-5.388300000000000090e+00 -1.971900000000000119e+01 1.532000000000000028e+01 -1.149147999999999925e+01 -2.531636258083955204e-01
-5.388300000000000090e+00 -1.885300000000000153e+01 1.532000000000000028e+01 -1.879867000000000132e+01 -2.527902704128979772e-01
-5.387999999999999901e+00 -2.687800000000000011e+01 1.585699999999999932e+01 -6.385248999999999953e+00 -2.604744101374160681e-01
-5.386999999999999567e+00 -2.328200000000000003e+01 -3.717000000000000082e+00 -7.092203999999999731e+00 -2.836191781890844837e-02
-5.386499999999999844e+00 -3.674199999999999733e+01 1.000499999999999945e+00 2.228593000000000046e+00 -2.830114830751668253e-01
-5.383399999999999963e+00 -3.113200000000000145e+01 -5.437300000000000466e-01 -2.509987999999999886e+00 -2.797426554625410122e-01
-5.383399999999999963e+00 -3.038599999999999923e+01 -5.437300000000000466e-01 -3.647482999999999809e+00 -2.791918963308434032e-01
-5.371699999999999697e+00 -3.110099999999999909e+01 -7.989099999999999646e+00 -5.645011000000000223e+00 -2.194413932518329835e-02
-5.371000000000000441e+00 -2.162600000000000122e+01 2.051999999999999957e+01 -5.428200000000000358e+00 -2.681608560682996467e-01
-5.364200000000000301e+00 -2.954100000000000037e+01 4.219400000000000261e+00 4.829926999999999637e+00 -1.825529670778902047e-01
-5.360400000000000276e+00 -3.972399999999999665e+01 1.512399999999999967e+00 1.660360000000000014e+01 -2.818590598704974748e-01
-5.355999999999999872e+00 -1.096499999999999986e+01 1.030300000000000082e+01 -3.890616000000000074e+00 -2.482970496714283770e-01
-5.355699999999999683e+00 -2.572200000000000131e+01 2.007999999999999829e+01 1.593674000000000035e+00 -1.802895510021458592e-01
-5.352899999999999991e+00 -1.379199999999999982e+01 1.461200000000000010e+01 -1.025003000000000025e-01 -2.507947131138555386e-01
-5.352599999999999802e+00 -3.262299999999999756e+01 -8.445100000000000051e+00 -5.639458000000000304e+00 -3.121263371902031625e-01
-5.351300000000000168e+00 -4.065299999999999869e+01 -3.351700000000000124e+00 -3.858890000000000153e+00 -2.732994386596444558e-01
-5.351300000000000168e+00 -3.913300000000000267e+01 -3.351700000000000124e+00 -5.086617000000000388e+00 -2.752699127571575088e-01
-5.347000000000000419e+00 -1.651599999999999824e+01 1.143200000000000038e+01 -1.400778000000000034e+01 -2.489329656871165919e-01
-5.339000000000000412e+00 -2.336100000000000065e+01 1.714900000000000091e+01 -5.033173999999999815e+00 -1.736116932280315495e-01
-5.336599999999999788e+00 -2.567599999999999838e+01 9.409399999999999764e+00 1.334844000000000008e+01 -2.445692628129496615e-01
-5.336599999999999788e+00 -2.427599999999999980e+01 9.409399999999999764e+00 3.826668999999999876e+00 -2.454108563392095876e-01
-5.333099999999999952e+00 -3.164300000000000068e+01 -1.098000000000000043e+01 -4.594031000000000198e+00 -2.278669756915775030e-02
-5.331999999999999851e+00 -2.587699999999999889e+01 1.198799999999999955e+01 -9.859850999999999477e-01 -2.487283994912449503e-01
-5.329699999999999882e+00 -2.657400000000000162e+01 1.655699999999999861e+01 -2.177687000000000150e+00 -2.627024886305512341e-01
-5.320400000000000240e+00 -2.090299999999999869e+01 9.018599999999999950e-01 -3.221818999999999988e+00 -2.423877129091185911e-01
-5.312199999999999811e+00 -2.030199999999999960e+01 7.324300000000000033e+00 8.300454000000000443e-01 -2.453188163441916425e-01
-5.306799999999999962e+00 -3.271500000000000341e+01 1.506300000000000061e+01 1.444780000000000086e+01 -1.628634167268349087e-01
-5.306799999999999962e+00 -3.007700000000000173e+01 1.506300000000000061e+01 -1.890545999999999893e-01 -2.603914129626837548e-01
-5.302999999999999936e+00 -2.898699999999999832e+01 -4.386999999999999567e+00 -3.760723000000000038e+00 -2.552968673112730388e-02
-5.301400000000000112e+00 -3.223199999999999932e+01 -1.482599999999999918e+00 1.515444000000000013e+00 -3.162081475717571921e-01
-5.298000000000000043e+00 -3.715599999999999881e+01 4.237000000000000099e+00 -4.328276999999999930e+00 -3.294631281972923431e-01
-5.298000000000000043e+00 -3.555799999999999983e+01 4.237000000000000099e+00 -4.026563999999999588e+00 -2.861582485228035821e-01
-5.293999999999999595e+00 -3.287299999999999756e+01 -1.015700000000000003e+01 -4.691851999999999911e+00 -2.763145331265028370e-01
-5.293999999999999595e+00 -3.287299999999999756e+01 -9.217299999999999827e+00 -4.987490000000000201e+00 -2.765931463983848926e-01
-5.293999999999999595e+00 -3.041300000000000026e+01 -1.015700000000000003e+01 -6.846782000000000146e+00 -2.472606543370329396e-02
-5.293300000000000338e+00 -3.689300000000000068e+01 -1.764299999999999979e+00 -2.219765000000000210e+00 -2.789804572646827352e-01
-5.291299999999999670e+00 -1.161400000000000077e+01 8.108100000000000307e+00 -1.196602000000000032e+01 -2.473577659175144328e-01
-5.285899999999999821e+00 -3.257500000000000284e+01 -2.517999999999999794e+00 -2.939578000000000024e+00 -3.154564462059914476e-01
-5.285899999999999821e+00 -2.894300000000000139e+01 -3.454200000000000159e+00 -7.681022999999999712e+00 -2.549455499034660247e-02
-5.285899999999999821e+00 -2.894300000000000139e+01 -2.588999999999999968e+00 -7.201616999999999713e+00 -2.785923985582644535e-01
-5.274700000000000166e+00 -1.946699999999999875e+01 9.758900000000000352e-01 -4.244693999999999967e+00 -2.429721443630157851e-01
-5.272700000000000387e+00 -2.018400000000000105e+01 1.610900000000000176e+01 -6.805678000000000338e+00 -2.544950362782129050e-01
-5.268799999999999706e+00 -2.053600000000000136e+01 1.969000000000000128e+01 -4.741056000000000381e+00 -2.678855383009933200e-01
-5.259199999999999875e+00 -1.717699999999999960e+01 1.636599999999999966e+01 -1.273117000000000054e+01 -2.672334828366101922e-01
-5.256000000000000227e+00 -3.016499999999999915e+01 -8.103999999999999204e+00 -3.778335999999999917e+00 -2.450062863942119307e-02
-5.251000000000000334e+00 -1.203700000000000081e+01 1.216900000000000048e+01 -9.110276000000000707e+00 -2.492593409316261610e-01
-5.247799999999999798e+00 -2.260999999999999943e+01 1.088700000000000045e+01 -4.208814999999999884e+01 -2.479832091591992194e-01
-5.239700000000000024e+00 -3.025600000000000023e+01 -5.147000000000000242e+00 -9.723777000000000115e-01 -2.311843562473673425e-02
-5.239700000000000024e+00 -2.931599999999999895e+01 -5.147000000000000242e+00 -1.573606000000000060e+00 -2.532661205650207220e-02
-5.238000000000000433e+00 -1.560800000000000054e+01 1.624099999999999966e+01 -9.630416000000000309e+00 -2.660772756382829840e-01
-5.238000000000000433e+00 -1.416200000000000081e+01 1.543500000000000050e+01 -5.322136000000000422e+00 -2.655548796538088063e-01
-5.234700000000000131e+00 -3.682699999999999818e+01 3.476999999999999869e+00 -3.541044999999999998e+00 -3.268367139256954101e-01
-5.234700000000000131e+00 -3.682699999999999818e+01 4.996999999999999886e+00 -4.852158000000000193e+00 -2.900850043387466770e-01
-5.234700000000000131e+00 -3.588700000000000045e+01 3.476999999999999869e+00 -3.349153999999999964e+00 -3.251966085933081230e-01
-5.233100000000000307e+00 -2.093900000000000006e+01 1.874599999999999866e+01 -5.176438000000000095e+00 -2.696129388698343954e-01
-5.233100000000000307e+00 -1.915099999999999980e+01 1.874599999999999866e+01 -5.016513999999999918e+00 -2.673174889241952679e-01
-5.231900000000000439e+00 -2.306200000000000117e+01 1.185899999999999999e+01 -5.123561000000000121e+01 -2.492679665390336863e-01
-5.230999999999999872e+00 -1.809199999999999875e+01 1.896700000000000053e+00 -4.065423000000000009e+00 -2.437073005266606196e-01
-5.230999999999999872e+00 -1.809199999999999875e+01 2.947299999999999809e+00 -3.045021000000000200e+00 -2.440345073557056710e-01
-5.228100000000000414e+00 -2.115200000000000102e+01 1.975199999999999889e+01 -5.005399999999999849e+00 -2.686648007220224788e-01
-5.225100000000000300e+00 -1.489700000000000024e+01 1.048099999999999987e+01 -5.020690000000000097e+00 -2.484010545963566963e-01
-5.217299999999999827e+00 -3.830700000000000216e+01 1.324499999999999922e+01 -2.787625999999999937e+00 -2.020200863544321934e-01
-5.203999999999999737e+00 -2.046999999999999886e+01 4.932699999999999640e+00 1.928241000000000094e+00 -2.439933006245568747e-01
-5.198299999999999699e+00 -1.910900000000000176e+01 4.135100000000000442e+00 -3.072062999999999988e+00 -2.441547811397305201e-01
-5.195400000000000240e+00 -2.754400000000000048e+01 1.731500000000000128e+01 -1.141037000000000079e+00 -1.785656752820142523e-01
-5.191399999999999793e+00 -1.824399999999999977e+01 1.160299999999999976e+01 -9.699730000000000629e+00 -2.491996952607222204e-01
-5.189499999999999780e+00 -2.291300000000000026e+01 1.018699999999999939e+01 -2.063328999999999880e+01 -2.471135017525352140e-01
-5.189099999999999824e+00 -1.602899999999999991e+01 1.123900000000000077e+01 -9.237975000000000492e+00 -2.489031393023471705e-01
-5.188799999999999635e+00 -2.132300000000000040e+01 1.634700000000000131e+01 -1.153304999999999936e+01 -2.557158388541219685e-01
-5.188399999999999679e+00 -2.847700000000000031e+01 -1.844500000000000028e+00 -3.876462000000000074e+00 -2.783341753086838177e-01
-5.186700000000000088e+00 -2.228399999999999892e+01 2.889399999999999955e-02 -4.282682999999999574e+00 -2.735723027578009781e-01
-5.185399999999999565e+00 -1.862099999999999866e+01 1.575699999999999967e+01 -1.817904000000000053e+01 -2.533291055632943545e-01
-5.185299999999999798e+00 -3.867399999999999949e+01 1.941200000000000037e+00 6.734084000000000181e+00 -2.842034596105774691e-01
-5.176099999999999923e+00 -2.660300000000000153e+01 1.991400000000000148e+01 2.813603000000000076e+00 -1.824948149654465890e-01
-5.171999999999999709e+00 -2.364000000000000057e+01 1.978000000000000114e+01 -3.800715999999999983e+00 -2.734257867875556913e-01
-5.168400000000000105e+00 -3.391499999999999915e+01 6.438699999999999868e+00 -5.799097999999999864e+00 -1.846594920658375938e-01
-5.167399999999999771e+00 -3.752300000000000324e+01 2.117900000000000116e+00 5.572702999999999962e-01 -2.851275222980151902e-01
-5.163199999999999790e+00 -3.567900000000000205e+01 4.953400000000000247e+00 -1.113475999999999999e+01 -2.868031640314795405e-01
-5.162300000000000111e+00 -2.057000000000000028e+01 1.789600000000000080e+01 -1.084209000000000067e+01 -2.699625249829983309e-01
-5.162300000000000111e+00 -1.951999999999999957e+01 1.789600000000000080e+01 -6.690762999999999572e+00 -2.685594080008731899e-01
-5.162300000000000111e+00 -1.951999999999999957e+01 1.959600000000000009e+01 -6.776646999999999643e+00 -2.668286092005723864e-01
-5.160000000000000142e+00 -2.408099999999999952e+01 -3.717000000000000082e+00 -1.439481999999999928e+01 -2.965726687482869023e-02
-5.160000000000000142e+00 -2.248300000000000054e+01 -3.717000000000000082e+00 -1.932150000000000034e+01 -2.900855354707643219e-02
-5.158299999999999663e+00 -3.704999999999999716e+01 1.458700000000000108e+00 2.346766000000000130e+00 -2.838651084994497364e-01
-5.157399999999999984e+00 -3.904299999999999926e+01 7.444700000000000095e+00 -4.758888999999999925e+00 -2.133192246603061726e-01
-5.157399999999999984e+00 -3.829699999999999704e+01 7.444700000000000095e+00 -1.177990999999999921e+01 -2.131460268714141237e-01
-5.155400000000000205e+00 -2.904500000000000171e+01 1.193999999999999950e+00 -5.856415000000000148e+00 -2.781492690271170631e-01
-5.153999999999999915e+00 -4.196600000000000108e+01 -1.554000000000000048e+00 -6.285943999999999976e-01 -2.722174549324206660e-01
-5.153999999999999915e+00 -4.196600000000000108e+01 9.539800000000000502e-01 1.563845000000000063e+01 -2.757288278389676273e-01
-5.152400000000000091e+00 -2.734499999999999886e+01 -1.086200000000000054e+00 -6.537377000000000216e+00 -2.776848528969398933e-01
-5.151299999999999990e+00 -3.653399999999999892e+01 1.558200000000000074e+01 9.789210000000000633e+00 -1.658137924839424571e-01
-5.147300000000000431e+00 -3.206900000000000261e+01 -7.852000000000000313e+00 -7.630974000000000146e+00 -3.122797848921409214e-01
