3.858000000000000096e+00 4.339600000000000080e+01 -1.562700000000000067e+01 -2.189243999999999968e+00 2.068322610040835841e-01
3.858800000000000008e+00 4.349300000000000210e+01 -1.981899999999999906e+01 3.563232999999999873e+00 -2.027732378938264524e-01
3.860700000000000021e+00 5.007900000000000063e+01 3.224000000000000199e+00 9.189856000000000691e+00 -2.401364642787685022e-01
3.860700000000000021e+00 5.007900000000000063e+01 4.924000000000000377e+00 1.109586000000000006e+01 6.019621562021233328e-04
3.861299999999999955e+00 4.807200000000000273e+01 7.687400000000000233e+00 9.083332000000000406e+00 5.123049696698425692e-03
3.862000000000000099e+00 3.315299999999999869e+01 -1.708299999999999841e+01 1.176323999999999970e+01 -1.191381757771818040e-01
3.876900000000000013e+00 5.015999999999999659e+01 -4.922299999999999898e+00 1.020035999999999987e+01 -2.543910781836929980e-01
3.879500000000000171e+00 4.902300000000000324e+01 6.031299999999999883e+00 7.779535000000000089e+00 8.991399330446456228e-02
3.879900000000000126e+00 2.435399999999999920e+01 -9.444699999999999207e+00 -1.366532000000000080e+00 7.894442858718865585e-02
3.890899999999999803e+00 4.339699999999999847e+01 -1.455799999999999983e+01 -1.685137999999999892e+01 1.491521785282718393e-01
3.893699999999999939e+00 2.329799999999999827e+01 -2.448700000000000099e+00 5.642911999999999928e+00 1.367091163012476053e-02
3.894000000000000128e+00 3.274600000000000222e+01 -2.174899999999999878e+01 -3.163450000000000095e+00 1.407499999722157391e-01
3.894000000000000128e+00 3.297299999999999898e+01 -2.094999999999999929e+01 -1.579814000000000007e+01 1.477200289829142532e-01
3.898000000000000131e+00 3.428600000000000136e+01 -1.632499999999999929e+01 1.675626999999999978e+00 -2.979005457761538939e-02
3.899500000000000188e+00 4.887599999999999767e+01 -8.656399999999999650e+00 5.255177999999999905e+00 -2.154792672468189285e-01
3.910800000000000054e+00 4.770600000000000307e+01 -1.053899999999999970e+01 3.756727999999999668e+01 -2.291943882017676570e-01
3.911700000000000177e+00 3.527900000000000347e+01 1.043299999999999983e+01 1.273286000000000051e+01 4.627877490947054223e-02
3.920599999999999863e+00 3.608200000000000074e+01 -2.408299999999999841e+01 -1.226084999999999953e-01 -8.133542323371076299e-02
3.921100000000000030e+00 2.316300000000000026e+01 -5.238699999999999690e+00 1.082691999999999988e+00 1.048066547610230909e-01
3.928700000000000081e+00 4.630799999999999983e+01 -1.147600000000000087e+01 2.017886000000000024e+01 2.700474167221939004e-01
3.934899999999999842e+00 3.647899999999999920e+01 -2.058800000000000097e+01 -1.039530000000000065e+01 6.446028449011861894e-03
3.935000000000000053e+00 4.837100000000000222e+01 6.924000000000000377e+00 9.082929000000000030e+00 4.752454645502060537e-02
3.935099999999999820e+00 4.641100000000000136e+01 1.297600000000000087e+01 -7.673721999999999710e+00 -1.368626959587570524e-01
3.935500000000000220e+00 4.098799999999999955e+01 -2.213200000000000145e+01 4.854527000000000037e+00 -2.606137176764168339e-01
3.940199999999999925e+00 3.228600000000000136e+01 -1.756099999999999994e+01 2.332285999999999859e+01 -2.460182431442086148e-01
3.942699999999999871e+00 3.969400000000000261e+01 1.293999999999999950e+01 -1.395176000000000016e+01 -8.371067413579723338e-02
3.947999999999999954e+00 4.667399999999999949e+01 1.215799999999999947e+01 -9.226962000000000330e+00 -1.767660898951042558e-01
3.949300000000000033e+00 4.487400000000000233e+01 -1.146299999999999919e+01 3.991937999999999676e+01 2.578912129442964551e-01
3.952900000000000080e+00 4.771800000000000352e+01 -9.618399999999999395e+00 -6.544704999999999551e-01 -2.338046552853702276e-01
3.961300000000000043e+00 4.951299999999999812e+01 -2.862899999999999889e-01 -4.404444999999999766e+01 -2.645180168557622058e-01
3.961500000000000021e+00 4.430199999999999960e+01 -1.171700000000000053e+01 6.529312000000000182e+01 2.525901087261113731e-01
3.990099999999999980e+00 2.722200000000000131e+01 -1.384400000000000075e+00 1.234917000000000087e+01 6.463271501355540016e-03
3.991999999999999993e+00 3.217799999999999727e+01 -2.541900000000000048e+01 -2.433230000000000115e-01 -1.392503673035269673e-01
3.994099999999999984e+00 4.700900000000000034e+01 1.063599999999999923e+01 8.704098999999999364e+00 -2.352470372594828163e-01
4.003199999999999648e+00 3.938900000000000290e+01 1.188100000000000023e+01 6.491308000000000078e-01 -5.029335135702840687e-02
4.010299999999999976e+00 5.042600000000000193e+01 -8.182299999999999685e+00 3.807634000000000185e+00 -2.063674571531644852e-01
4.022300000000000431e+00 4.012899999999999778e+01 1.566399999999999970e+01 -1.884413999999999945e+01 -1.411820506383977547e-01
4.026500000000000412e+00 3.763100000000000023e+01 -2.395899999999999963e+01 3.992853999999999903e+00 -8.621302968868791577e-03
4.036699999999999733e+00 2.848900000000000077e+01 2.669400000000000106e-01 1.344457000000000058e+01 -1.559308116469700356e-01
4.038000000000000256e+00 4.471800000000000352e+01 -1.858599999999999852e+01 -2.448529000000000178e+00 1.058917094286123718e-02
4.038000000000000256e+00 4.471800000000000352e+01 -1.753600000000000136e+01 -3.933567000000000036e+00 2.638517030759761628e-01
4.039299999999999891e+00 3.825600000000000023e+01 1.112299999999999933e+01 7.477603000000000222e+00 -3.564372816247804443e-01
4.049900000000000055e+00 2.433800000000000097e+01 -1.620799999999999841e+01 5.217940999999999718e+00 -2.143742725246273739e-01
4.051599999999999646e+00 3.390699999999999648e+01 -2.397599999999999909e+01 1.035943999999999976e+00 1.455633921766832095e-01
4.051700000000000301e+00 3.515299999999999869e+01 -2.398600000000000065e+01 1.261708000000000052e+00 -1.235604654902352217e-01
4.065199999999999925e+00 3.106400000000000006e+01 -1.840399999999999991e+01 1.067345000000000077e+01 -2.106172741506072421e-01
4.072199999999999598e+00 2.734100000000000108e+01 3.717200000000000060e+00 5.371088000000000306e+00 -2.616895825548821650e-02
4.089000000000000412e+00 2.410800000000000054e+01 -1.251600000000000001e+01 8.798279000000000849e+00 1.933263920553378035e-01
4.089900000000000091e+00 3.386699999999999733e+01 8.450400000000000134e+00 9.730040999999999940e+00 2.271552934063213736e-01
4.100399999999999601e+00 4.153499999999999659e+01 1.581000000000000050e+01 -1.674171000000000120e+01 -1.522827613589613494e-01
4.108999999999999986e+00 2.571999999999999886e+01 -1.649200000000000088e+01 1.244711999999999996e+01 -1.717619704838557193e-01
4.118699999999999584e+00 2.104500000000000171e+01 -1.453400000000000070e+01 2.055827999999999989e+00 1.699490042064601136e-01
4.124399999999999622e+00 4.448299999999999699e+01 -1.663800000000000168e+01 -1.912525000000000031e+00 2.589140302260173332e-01
4.125000000000000000e+00 2.720299999999999940e+01 4.597000000000000419e+00 1.026322000000000045e+01 -4.325172803575907249e-02
4.125000000000000000e+00 2.745700000000000074e+01 5.490700000000000358e+00 1.598911999999999978e+01 -6.574281707024978716e-02
4.126000000000000334e+00 4.246000000000000085e+01 -2.073699999999999832e+01 1.385401000000000060e+01 -2.216953899080876533e-01
4.130200000000000315e+00 3.305799999999999983e+01 -2.547200000000000131e+01 -2.587013000000000229e-01 1.468724140401069522e-01
4.130600000000000271e+00 2.964900000000000091e+01 7.687299999999999578e+00 -5.670136000000000287e+00 4.070178736844622808e-02
4.130600000000000271e+00 3.131899999999999906e+01 7.687299999999999578e+00 -2.435882000000000147e+01 4.327348058793801383e-02
4.136000000000000121e+00 4.872099999999999653e+01 1.618700000000000028e+00 1.433807000000000009e+01 -2.468645384948696953e-01
4.139400000000000190e+00 2.353600000000000136e+01 -8.353500000000000369e+00 7.287778000000000311e-01 1.444011996419538035e-01
4.143799999999999706e+00 4.512100000000000222e+01 1.541799999999999926e+01 7.660814000000000235e+00 2.504545955740904994e-01
4.146399999999999864e+00 2.742800000000000082e+01 -1.675499999999999901e+01 -4.137412999999999563e+00 -7.544035248261328486e-02
4.147899999999999920e+00 2.555799999999999983e+01 -1.666600000000000081e+00 2.950748000000000104e+01 -1.327649294994417417e-01
4.155599999999999739e+00 3.503399999999999892e+01 -2.016300000000000026e+01 -3.189918000000000120e+01 1.835632052665375491e-01
4.165700000000000180e+00 3.264600000000000080e+01 -2.454700000000000060e+01 6.778530999999999862e-01 -1.667008998152284260e-01
4.176400000000000112e+00 2.853600000000000136e+01 1.850400000000000045e+00 7.628004999999999924e+00 -1.504606868355103100e-01
4.176400000000000112e+00 2.874500000000000099e+01 1.114400000000000057e+00 1.495293000000000028e+01 -1.517500669086890852e-01
4.183500000000000441e+00 2.140899999999999892e+01 -1.547700000000000031e+01 1.411183000000000076e+00 1.633343506863765560e-01
4.187899999999999956e+00 2.239900000000000091e+01 -2.847599999999999909e+00 3.482346000000000164e+00 6.512238675417915228e-03
4.189300000000000246e+00 2.952199999999999847e+01 -1.807900000000000063e+01 5.588054999999999772e+00 -9.081699405934355596e-02
4.196900000000000297e+00 2.379100000000000037e+01 -7.526399999999999757e+00 1.125278999999999918e+00 1.456229926051464396e-01
4.197000000000000064e+00 4.869299999999999784e+01 6.430900000000000283e+00 5.856607000000000340e+00 7.316157871011827463e-02
4.200000000000000178e+00 4.967000000000000171e+01 -3.109199999999999964e+00 -1.684773000000000076e+00 -2.742679011736475214e-01
4.200999999999999623e+00 3.349199999999999733e+01 -2.467599999999999838e+01 7.937762999999999902e-01 1.430717000695807817e-01
4.204500000000000348e+00 3.291799999999999926e+01 7.788899999999999935e+00 1.145665999999999940e+01 2.203569755972897837e-01
4.207600000000000229e+00 2.264399999999999835e+01 -1.606800000000000139e+01 1.612454999999999972e+00 1.707587007633710185e-01
4.211400000000000254e+00 5.076400000000000290e+01 -5.551999999999999602e+00 9.892735000000000056e+00 -3.773247634446806609e-02
4.211999999999999744e+00 4.345499999999999829e+01 -1.383799999999999919e+01 -1.129038000000000075e+01 1.247278293020686324e-01
4.214999999999999858e+00 3.657300000000000040e+01 -1.682999999999999829e+01 -7.470075999999999716e+00 1.622287677269557693e-01
4.220299999999999940e+00 4.814999999999999858e+01 -8.918400000000000105e+00 9.325575000000000614e+00 -6.039323205816374968e-02
4.229000000000000092e+00 2.482600000000000051e+01 -1.120899999999999963e+01 -1.084492999999999929e+00 2.508780415701196698e-01
4.235999999999999766e+00 2.476200000000000045e+01 -1.025500000000000078e+01 1.225837000000000038e-01 8.137341215391222238e-02
4.241299999999999848e+00 3.281300000000000239e+01 -2.280999999999999872e+01 -1.069569999999999910e+00 1.304229762824412886e-01
4.243599999999999817e+00 3.298599999999999710e+01 -1.750300000000000011e+01 1.148535000000000039e+01 -2.764338919588259502e-01
4.245899999999999785e+00 3.128399999999999892e+01 -2.541900000000000048e+01 8.664941999999999922e-01 -1.183932042973997456e-01
4.245899999999999785e+00 3.291400000000000148e+01 -2.378900000000000148e+01 6.763662000000000285e-01 1.327060007316427093e-01
4.257299999999999862e+00 3.965299999999999869e+01 -2.345200000000000173e+01 -5.204973999999999990e-01 6.623328898118306662e-02
4.270699999999999719e+00 4.963900000000000290e+01 2.564999999999999947e+00 3.309734000000000176e+00 -2.394606591307940346e-01
4.279600000000000293e+00 3.846900000000000119e+01 -1.791400000000000148e+01 -2.355724999999999980e+01 -2.173087766532071519e-03
4.280899999999999928e+00 4.361299999999999955e+01 1.698600000000000065e+01 -2.809511000000000092e+00 -1.208852988049771149e-01
4.283500000000000085e+00 4.880499999999999972e+01 8.607000000000000206e-01 1.152097000000000016e+01 -2.529031769548087394e-01
4.283699999999999619e+00 3.740999999999999659e+01 1.113499999999999979e+01 7.572549999999999670e+00 -3.543624005222374002e-02
4.290700000000000180e+00 4.409599999999999653e+01 -1.589400000000000013e+01 -5.324739000000000111e+00 2.389542689308702117e-01
4.294599999999999973e+00 3.385300000000000153e+01 -1.681599999999999895e+01 5.412151999999999852e+00 -4.311669630443311363e-02
4.294599999999999973e+00 3.471900000000000119e+01 -1.681599999999999895e+01 -1.390344000000000024e+00 1.967100296184605412e-01
4.296800000000000175e+00 3.695000000000000284e+01 -2.409700000000000131e+01 3.267456999999999834e+00 -5.267716048357702630e-02
4.304100000000000037e+00 2.233200000000000074e+01 -3.895000000000000018e+00 1.639049999999999896e+00 -1.939267653150715184e-02
4.304400000000000226e+00 3.021399999999999864e+01 -1.854200000000000159e+01 8.379084000000000643e+00 -1.120705184235043089e-01
4.305500000000000327e+00 3.168299999999999983e+01 -1.816799999999999926e+01 1.947526999999999830e+01 -2.421919046906066963e-01
4.307800000000000296e+00 3.437899999999999778e+01 1.012500000000000000e+01 8.025102000000000402e+00 -4.878347689256654074e-02
4.309499999999999886e+00 4.946000000000000085e+01 -4.654899999999999594e+00 1.541905000000000037e+01 -2.533685854472042531e-01
4.309499999999999886e+00 4.946000000000000085e+01 -3.789600000000000080e+00 4.120383999999999602e+00 -2.651697035506330735e-01
4.312599999999999767e+00 2.386299999999999955e+01 -9.048099999999999810e+00 -4.427779000000000020e-01 5.446110874530284141e-02
4.312999999999999723e+00 2.756599999999999895e+01 3.021999999999999797e+00 5.760926999999999687e+00 -1.450868536835768774e-01
4.316699999999999982e+00 3.165299999999999869e+01 -2.626899999999999835e+01 4.937763000000000013e-01 -1.249439100891495402e-01
4.316699999999999982e+00 3.165299999999999869e+01 -2.456899999999999906e+01 2.827239000000000058e+00 -1.336829410115931427e-01
4.316699999999999982e+00 3.270300000000000296e+01 -2.626899999999999835e+01 2.509985000000000133e-01 -1.488788738596281969e-01
4.320000000000000284e+00 4.484300000000000352e+01 1.616300000000000026e+01 -1.213424999999999976e+01 -9.648300241074911354e-02
4.322000000000000064e+00 4.755100000000000193e+01 8.185399999999999565e+00 1.004171000000000014e+01 -3.274761515371200221e-02
4.323599999999999888e+00 4.965999999999999659e+01 5.615599999999999703e+00 5.117274000000000100e+00 9.718391324429789813e-02
4.334999999999999964e+00 5.095100000000000051e+01 -7.332300000000000040e+00 8.657854000000000383e+00 -2.114548071121413186e-01
4.334999999999999964e+00 5.095100000000000051e+01 -6.281699999999999839e+00 1.485180000000000078e+01 -4.924552594007414186e-02
4.337900000000000311e+00 3.816499999999999915e+01 -1.861400000000000077e+01 -1.190939999999999976e+01 3.670154342122516206e-02
4.337900000000000311e+00 3.816499999999999915e+01 -1.721399999999999864e+01 -8.305255000000000720e+00 5.306322730594471848e-02
4.339199999999999946e+00 3.437199999999999989e+01 -2.472899999999999920e+01 5.277918000000000331e-01 1.521757268203670077e-01
4.346099999999999852e+00 4.046200000000000330e+01 -2.258599999999999852e+01 -1.223990000000000045e+01 -2.770080626805755397e-01
4.348900000000000432e+00 3.938100000000000023e+01 1.505799999999999983e+01 -1.479845000000000077e+01 -1.483892849297184235e-01
4.352899999999999991e+00 3.354999999999999716e+01 -1.751599999999999824e+01 8.726366999999999763e+00 -1.386997869107068904e-01
4.353299999999999947e+00 3.538199999999999790e+01 -2.435099999999999909e+01 2.244918000000000191e+00 -1.230227028989589605e-01
4.356399999999999828e+00 2.454100000000000037e+01 -1.181600000000000072e+01 -4.582595999999999670e+00 2.183398629681785330e-01
4.357199999999999740e+00 3.429999999999999716e+01 9.150399999999999423e+00 1.010290999999999961e+01 2.211061359638210322e-01
4.362700000000000244e+00 4.419299999999999784e+01 -1.943599999999999994e+01 -8.518086999999999742e-01 2.375182727655753001e-02
4.363000000000000433e+00 3.340699999999999648e+01 -2.045899999999999963e+01 -1.640912000000000148e+01 1.498784200379939535e-01
4.367499999999999716e+00 3.577900000000000347e+01 -2.032100000000000151e+01 -1.115368999999999922e+01 1.991074175923272516e-01
4.367499999999999716e+00 3.717900000000000205e+01 -2.032100000000000151e+01 -1.152012999999999998e+01 3.076769584476866243e-02
4.374100000000000321e+00 2.795700000000000074e+01 -3.645999999999999797e-01 1.502271999999999963e+01 3.838914130151567516e-02
4.378700000000000259e+00 4.957600000000000051e+01 -8.253099999999999881e+00 3.311150000000000038e+00 -3.235681306096246240e-02
4.381999999999999673e+00 4.557399999999999807e+01 -1.119599999999999973e+01 1.987942999999999927e+01 2.652998933812326099e-01
4.386000000000000121e+00 5.092900000000000205e+01 3.548700000000000188e+00 2.516920999999999964e+01 -2.394614911216124686e-01
4.386000000000000121e+00 5.092900000000000205e+01 4.599300000000000388e+00 2.459582999999999942e+01 -7.470808632819928843e-04
4.393299999999999983e+00 3.580400000000000205e+01 1.102899999999999991e+01 3.999533999999999878e+01 -2.441886713279246557e-01
4.397300000000000431e+00 3.661399999999999721e+01 1.109900000000000020e+01 1.316334999999999944e+01 -2.295437305370187642e-01
4.408400000000000318e+00 4.718999999999999773e+01 1.005599999999999916e+01 2.037181999999999960e+01 -2.244230402588272555e-01
4.411900000000000155e+00 2.395799999999999841e+01 -6.594000000000000306e+00 8.495900999999999925e+00 9.784994807492655711e-02
4.418999999999999595e+00 2.270200000000000173e+01 -4.717699999999999783e+00 1.390886000000000067e+00 -3.749000448994134482e-02
4.418999999999999595e+00 2.370899999999999963e+01 -5.724999999999999645e+00 1.781333999999999973e+00 1.064181910745805315e-01
4.418999999999999595e+00 2.414799999999999969e+01 -2.124000000000000110e+00 1.897346999999999895e+01 -1.165447370484017364e-01
4.424000000000000377e+00 4.076700000000000301e+01 1.584200000000000053e+01 -1.981550999999999974e+01 -1.678463909100383344e-01
4.427299999999999791e+00 4.353600000000000136e+01 -1.286500000000000021e+01 1.286698999999999948e+01 3.721367541329281270e-01
4.431000000000000050e+00 4.909700000000000131e+01 2.318800000000000028e-01 -2.067145000000000010e+00 -2.567638302850627774e-01
4.431000000000000050e+00 5.004599999999999937e+01 -2.315100000000000158e+00 -2.373288000000000153e+01 -2.794919191187719698e-01
4.431000000000000050e+00 5.004599999999999937e+01 -7.168900000000000272e-01 -6.581237000000000137e+01 -2.614053739200244419e-01
4.431000000000000050e+00 5.027300000000000324e+01 -1.516000000000000014e+00 -2.178316999999999837e+01 -2.848251329259832709e-01
4.432500000000000107e+00 2.647700000000000031e+01 -1.659499999999999886e+01 2.555597999999999814e+00 -1.352765045574483571e-01
4.434000000000000163e+00 3.048400000000000176e+01 8.065099999999999270e+00 3.953927999999999887e+00 3.205572373062972463e-02
4.434000000000000163e+00 3.201899999999999835e+01 7.628999999999999559e+00 1.712374000000000152e+01 4.104757579433309517e-02
4.446200000000000152e+00 4.711599999999999966e+01 -1.130499999999999972e+01 9.923491999999999535e+00 -1.275438756946296326e-01
4.453899999999999970e+00 2.640700000000000003e+01 -1.350300000000000056e+00 3.525366000000000355e+01 -1.326740564622513755e-03
4.456699999999999662e+00 2.908999999999999986e+01 -1.737900000000000134e+01 -3.655260000000000176e+00 4.612095940649532308e-03
4.463199999999999612e+00 3.820199999999999818e+01 -2.369900000000000162e+01 6.583717999999999515e-01 8.721191747275095635e-03
4.469100000000000072e+00 4.301500000000000057e+01 -2.008399999999999963e+01 7.306606999999999630e+00 -2.099230628484757555e-01
4.470399999999999707e+00 4.751200000000000045e+01 9.152799999999999159e+00 1.072802000000000078e+01 -7.130975513619705608e-02
4.471000000000000085e+00 2.199899999999999878e+01 7.970000000000000417e-01 3.517834000000000128e+00 -4.308889449892579909e-02
4.474599999999999689e+00 2.711499999999999844e+01 -7.093099999999999739e+00 -3.716810000000000169e+00 -5.904793675999898614e-03
4.480999999999999872e+00 4.710499999999999687e+01 1.168800000000000061e+01 -1.154975999999999914e+01 -1.877114153467936142e-01
4.480999999999999872e+00 4.710499999999999687e+01 1.262800000000000011e+01 -2.209613999999999834e+01 -1.447534197067516515e-01
4.482099999999999973e+00 4.699399999999999977e+01 1.089100000000000001e+01 7.047283000000000186e+00 -2.245254507583392678e-01
4.485699999999999577e+00 3.575200000000000244e+01 -1.711400000000000077e+01 -5.071288000000000018e+00 1.761105938601805199e-01
4.488599999999999923e+00 2.348799999999999955e+01 -1.648699999999999832e+01 4.028893000000000058e+00 -1.936689370254435494e-01
4.490300000000000402e+00 2.840800000000000125e+01 -7.396899999999999586e+00 -9.748666000000000276e-01 9.449308595473484770e-03
4.511000000000000121e+00 2.194399999999999906e+01 -1.601000000000000156e+01 1.362689000000000039e+00 1.705083241245114456e-01
4.525699999999999612e+00 3.401700000000000301e+01 -2.552599999999999980e+01 1.775884999999999936e+00 1.509335435257551095e-01
4.527700000000000280e+00 4.173899999999999721e+01 -2.087500000000000000e+01 3.626872999999999791e+00 -2.342601360354919504e-01
4.528900000000000148e+00 4.511500000000000199e+01 -1.710300000000000153e+01 9.310926999999999953e-01 2.582776767783212524e-01
4.533000000000000362e+00 2.830999999999999872e+01 6.667699999999999960e+00 9.265783000000000769e+00 -1.065665896867120654e-01
4.538999999999999702e+00 4.462599999999999767e+01 -1.117600000000000016e+01 6.234035999999999689e+01 2.550476068594910717e-01
4.552200000000000024e+00 3.460099999999999909e+01 -1.967200000000000060e+01 -1.691161999999999921e+01 1.722570849083653322e-01
4.557299999999999685e+00 3.849199999999999733e+01 1.168200000000000038e+01 5.477070000000000327e+00 -5.516420196994916564e-02
4.562000000000000277e+00 3.428600000000000136e+01 -1.751599999999999824e+01 5.145760000000000112e+00 -1.523541561693095639e-02
4.573100000000000165e+00 3.389699999999999847e+01 -1.968499999999999872e+01 -1.526073000000000057e+01 1.600682432311355263e-01
4.574399999999999800e+00 2.190700000000000003e+01 -1.316499999999999915e+01 1.459365999999999941e+00 1.645793192529849402e-01
4.575000000000000178e+00 4.349300000000000210e+01 -1.193500000000000050e+01 5.564343999999999824e+01 3.738920326574342035e-01
4.575300000000000367e+00 2.164999999999999858e+01 -2.611000000000000210e+00 2.427267000000000063e+00 1.607627352873328141e-02
4.576900000000000190e+00 4.989300000000000068e+01 -5.354899999999999771e+00 1.324713999999999992e+01 -2.930782735786268550e-02
4.578700000000000436e+00 4.548199999999999932e+01 1.429499999999999993e+01 1.691559000000000168e+01 2.305016934551146757e-01
4.579900000000000304e+00 2.429500000000000171e+01 -9.748100000000000875e+00 2.557504999999999917e-01 5.516078131295045622e-02
4.588199999999999612e+00 2.932400000000000162e+01 7.510900000000000354e+00 5.683831999999999773e+00 2.717769806208581995e-01
4.592600000000000016e+00 2.329299999999999926e+01 -1.282799999999999940e+01 2.701159999999999783e+00 2.055963242740801999e-01
4.600999999999999979e+00 3.943599999999999994e+01 1.554899999999999949e+01 -1.137845000000000084e+01 -1.627462977708974967e-01
4.608600000000000030e+00 2.312699999999999889e+01 -8.878899999999999793e+00 8.541547999999999918e-01 1.668465766800308336e-01
4.608999999999999986e+00 3.908299999999999841e+01 1.418800000000000061e+01 -7.724185999999999552e-01 -1.374828380370061720e-01
4.608999999999999986e+00 2.804500000000000171e+01 2.246999999999999886e+00 7.465690999999999633e+00 -1.417934383435576484e-01
4.610299999999999621e+00 4.285300000000000153e+01 1.692299999999999827e+01 -2.167453000000000074e+00 -1.397598166257625896e-01
4.610299999999999621e+00 4.437299999999999756e+01 1.692299999999999827e+01 -1.234430000000000049e+01 -1.119243932079191095e-01
4.610500000000000043e+00 3.426599999999999824e+01 -1.897200000000000131e+01 -3.176743000000000094e+00 1.689045975576920489e-01
4.612599999999999589e+00 2.490500000000000114e+01 -1.633999999999999986e+01 7.248412000000000077e+00 -2.054971287676859715e-01
4.613699999999999690e+00 2.205999999999999872e+01 -1.906099999999999905e+00 3.829899999999999860e+00 3.599850101465616042e-02
4.623700000000000365e+00 4.366599999999999682e+01 -1.478700000000000081e+01 -9.354630000000000223e+00 1.837181686021833460e-01
4.629699999999999704e+00 4.918399999999999750e+01 6.034299999999999997e+00 2.709271000000000207e+00 8.682544433378047710e-02
4.632399999999999629e+00 3.928300000000000125e+01 -1.769600000000000151e+01 -1.563532999999999973e+01 -1.254786012908186421e-01
4.633600000000000385e+00 2.195400000000000063e+01 -3.425899999999999945e+00 1.687094000000000094e+00 -7.073685126774543683e-03
4.634900000000000020e+00 3.534700000000000131e+01 -1.962099999999999866e+01 -9.924600999999999118e+00 1.862217219643949040e-01
4.634900000000000020e+00 3.761200000000000188e+01 -1.962099999999999866e+01 -1.104757999999999996e+01 -5.187162505573483795e-02
4.640200000000000102e+00 3.255400000000000205e+01 -1.799299999999999855e+01 1.300882999999999967e+01 2.418959799886798503e-02
4.640200000000000102e+00 3.341899999999999693e+01 -1.799299999999999855e+01 6.226461999999999719e+00 -6.916325248431835944e-03
4.641499999999999737e+00 4.479399999999999693e+01 -1.574600000000000044e+01 -5.090225000000000222e+00 2.312599080578039423e-01
4.642699999999999605e+00 3.942699999999999960e+01 1.250699999999999967e+01 -1.048286999999999969e+00 -8.824867608878463054e-02
4.642699999999999605e+00 3.942699999999999960e+01 1.337299999999999933e+01 -3.762322000000000166e+00 -1.198620563973030045e-01
4.646300000000000097e+00 3.481900000000000261e+01 1.102699999999999925e+01 8.316762999999999906e+00 -2.810100908199214542e-02
4.651399999999999757e+00 2.333299999999999841e+01 -2.066600000000000215e+00 1.062434000000000012e+01 3.174873605737695698e-02
4.652899999999999814e+00 3.293800000000000239e+01 -2.121799999999999997e+01 -1.990531000000000006e+01 1.343075168238413164e-01
4.652899999999999814e+00 4.745000000000000284e+01 -1.005100000000000016e+01 7.953822999999999865e+00 -1.056919616488868341e-01
4.652899999999999814e+00 4.765999999999999659e+01 -9.314999999999999503e+00 9.409200000000000230e+00 -9.009876512699785400e-02
4.666800000000000281e+00 4.758400000000000318e+01 -1.104400000000000048e+01 1.320176000000000016e+01 -1.139088910431143020e-01
4.670899999999999608e+00 3.647899999999999920e+01 -2.037900000000000134e+01 -1.167881000000000036e+01 2.125052900604171013e-01
4.673899999999999721e+00 3.211299999999999955e+01 -2.394300000000000139e+01 4.549028999999999989e+00 1.281732038500370818e-01
4.682100000000000151e+00 4.887599999999999767e+01 -8.311400000000000787e+00 5.177392000000000216e+00 -4.540880058662989660e-02
4.683200000000000252e+00 2.791000000000000014e+01 5.999100000000000321e+00 1.884286000000000172e+01 -8.472940672594195255e-02
4.690699999999999648e+00 3.897899999999999920e+01 -1.839600000000000080e+01 -3.919630000000000081e+01 1.908545846980866031e-02
4.690999999999999837e+00 2.071399999999999864e+01 -2.611000000000000210e+00 2.021294999999999842e+00 1.788476454437330082e-02
4.691200000000000259e+00 3.356799999999999784e+01 -2.603800000000000026e+01 5.054583000000000270e-01 1.495884256100546150e-01
4.697300000000000253e+00 4.140200000000000102e+01 1.627599999999999980e+01 -6.593145999999999951e+00 -1.824252646949852952e-01
4.699399999999999800e+00 2.914399999999999835e+01 -7.396899999999999586e+00 -1.120946999999999960e+01 -7.984113230175154952e-02
4.699799999999999756e+00 4.543900000000000006e+01 -1.658200000000000074e+01 -3.050457999999999892e+00 2.428531906790730999e-01
4.701600000000000001e+00 3.618699999999999761e+01 -2.425199999999999889e+01 6.283773999999999749e-01 -1.015824522574920313e-01
4.702499999999999680e+00 2.118400000000000105e+01 7.970000000000000417e-01 6.038336000000000148e+00 -1.851897368687273060e-01
4.702499999999999680e+00 2.281400000000000006e+01 7.970000000000000417e-01 5.447574000000000360e+00 -4.184305628910807429e-02
4.710700000000000109e+00 5.040400000000000347e+01 2.698700000000000099e+00 2.759647000000000183e+00 -2.388995016049494935e-01
4.710700000000000109e+00 5.040400000000000347e+01 5.449300000000000033e+00 5.480245000000000033e+00 3.154190057821953941e-01
4.719000000000000306e+00 1.941700000000000159e+01 -3.125999999999999890e+00 1.932269999999999932e+00 -2.105828756585935158e-01
4.720600000000000129e+00 3.788300000000000267e+01 1.165099999999999980e+01 6.012777999999999956e+00 -6.165430131294306199e-02
4.722299999999999720e+00 3.986200000000000188e+01 1.609700000000000131e+01 -4.493790999999999869e+00 -1.727949661567254602e-01
4.726899999999999658e+00 2.436499999999999844e+01 -1.068800000000000061e+01 -3.010689000000000171e+00 5.091441877059003224e-02
4.729000000000000092e+00 3.884000000000000341e+01 -2.363899999999999935e+01 -2.526247999999999827e+00 2.573501264102034947e-02
4.729000000000000092e+00 4.013300000000000267e+01 -2.291799999999999926e+01 -2.606478000000000073e+00 -2.857758178735478882e-01
4.732199999999999740e+00 3.241599999999999682e+01 -2.324299999999999855e+01 1.440819999999999990e+00 1.226443905573841170e-01
4.732400000000000162e+00 4.917799999999999727e+01 1.861699999999999910e+00 3.386878999999999973e+00 -2.398134003093478628e-01
4.734499999999999709e+00 3.773299999999999699e+01 -1.910500000000000043e+01 -1.320880999999999972e+01 -5.779963136057254813e-02
4.734499999999999709e+00 3.773299999999999699e+01 -1.672299999999999898e+01 -3.046828999999999787e+00 3.283441229673589867e-01
4.741399999999999615e+00 4.787299999999999756e+01 7.455000000000000071e+00 7.848912000000000333e+00 1.143582028729819323e-02
4.741999999999999993e+00 2.754700000000000060e+01 -6.393099999999999561e+00 4.578701999999999828e+00 -2.072396446104442930e-02
4.745000000000000107e+00 2.068799999999999883e+01 -1.505899999999999928e+01 1.482046999999999892e+00 1.625691957055909742e-01
4.745000000000000107e+00 2.068799999999999883e+01 -1.400900000000000034e+01 1.298240000000000061e+00 2.082615617901434901e-01
4.746199999999999974e+00 3.484199999999999875e+01 -1.832600000000000051e+01 -8.029073000000000349e+00 1.776288069614704590e-01
4.757699999999999818e+00 2.797599999999999909e+01 -6.696900000000000297e+00 1.696406000000000081e+00 -9.746973216819915242e-03
4.757699999999999818e+00 2.884100000000000108e+01 -6.696900000000000297e+00 -4.243003999999999998e+00 -2.589465264710121874e-03
4.758300000000000196e+00 3.916799999999999926e+01 -1.700199999999999889e+01 -2.152012000000000036e+00 -1.665308580656584270e-01
4.766000000000000014e+00 4.570100000000000051e+01 -1.581400000000000006e+01 -4.526883999999999908e+00 1.193442842613407287e-02
4.767000000000000348e+00 2.151999999999999957e+01 2.199999999999999872e-02 4.469165000000000276e+00 7.586542430818955796e-02
4.767000000000000348e+00 2.151999999999999957e+01 1.572000000000000064e+00 4.372116000000000113e+00 -1.845670239884753816e-01
4.767000000000000348e+00 2.247800000000000153e+01 2.199999999999999872e-02 5.161205999999999960e+00 -4.563025753325390677e-02
4.767000000000000348e+00 2.247800000000000153e+01 1.572000000000000064e+00 3.506717000000000084e+00 -3.604987483073542054e-02
4.770800000000000374e+00 3.737199999999999989e+01 -2.376300000000000168e+01 5.675983000000000001e-01 -4.247176432261922513e-02
4.771300000000000097e+00 4.663499999999999801e+01 1.338799999999999990e+01 -1.209215000000000018e+01 -1.062654109091661636e-01
4.777800000000000047e+00 3.028200000000000003e+01 -3.880700000000000038e+00 -2.249307999999999907e+01 9.266111505930897663e-02
4.789200000000000124e+00 3.237800000000000011e+01 -2.215800000000000125e+01 1.750099999999999989e-01 1.237834846689139789e-01
4.789900000000000269e+00 3.360000000000000142e+01 8.882999999999999119e+00 6.298403000000000418e+00 2.103207023861665692e-01
4.790399999999999991e+00 3.908599999999999852e+01 -1.624099999999999966e+01 6.983660999999999675e+00 -2.463214635694993826e-01
4.796599999999999753e+00 4.048400000000000176e+01 -2.216100000000000136e+01 -2.370408000000000115e+01 -2.740310867759433444e-01
4.798300000000000232e+00 3.217799999999999727e+01 -2.686499999999999844e+01 1.055763000000000007e+00 -1.368444735411174507e-01
4.801300000000000345e+00 3.106400000000000006e+01 -1.861299999999999955e+01 7.175367999999999746e+00 7.094753007296522584e-02
4.806700000000000195e+00 2.746600000000000108e+01 -7.611999999999999877e-01 2.031006999999999962e+01 3.246834338415024307e-02
4.814600000000000435e+00 4.627400000000000091e+01 -1.146299999999999919e+01 1.183275000000000077e+01 1.832662539703451554e-01
4.814899999999999736e+00 2.993900000000000006e+01 -4.437899999999999956e+00 -3.830230999999999852e+01 1.861006442992134413e-01
4.817700000000000315e+00 3.531900000000000261e+01 -1.771000000000000085e+01 -7.897738000000000369e+00 2.058887445498975843e-01
4.819600000000000328e+00 3.503399999999999892e+01 -1.897200000000000131e+01 -8.629787999999999570e+00 1.792694506045309777e-01
4.820599999999999774e+00 4.033400000000000318e+01 1.633299999999999841e+01 -6.621718000000000437e+00 -1.806109843197352682e-01
4.824499999999999567e+00 2.378300000000000125e+01 -1.210599999999999987e+01 1.652398000000000033e+00 2.222509440159758098e-01
4.830599999999999561e+00 4.514600000000000080e+01 -1.815200000000000102e+01 -1.274316999999999922e+00 -1.962755937869146549e-03
4.830599999999999561e+00 3.158699999999999974e+01 8.119899999999999451e+00 6.822992000000000168e+00 2.136805214458376567e-01
4.832799999999999763e+00 2.646699999999999875e+01 -6.458700000000000330e+00 8.568668999999999869e+00 -3.146476751001787281e-02
4.841999999999999638e+00 3.080300000000000082e+01 -2.594399999999999906e+01 7.470546000000000131e-01 -1.129081067310068465e-01
4.841999999999999638e+00 3.080300000000000082e+01 -2.489399999999999835e+01 1.915019999999999945e+00 -1.142273272864410688e-01
4.842399999999999594e+00 4.392600000000000193e+01 -1.123499999999999943e+01 1.082280999999999977e+02 2.465887189653662992e-01
4.842399999999999594e+00 4.532600000000000051e+01 -1.123499999999999943e+01 3.596824000000000154e+01 1.607834553291410673e-01
4.847299999999999720e+00 2.414399999999999835e+01 -1.138400000000000034e+01 -9.254451000000000205e-01 2.070400087851156923e-01
4.851600000000000357e+00 2.221099999999999852e+01 -4.321100000000000385e+00 1.057428000000000035e+00 -3.111780549453277422e-02
4.851600000000000357e+00 2.321799999999999997e+01 -5.328400000000000247e+00 1.490769000000000011e+00 3.034633344501825869e-01
4.851600000000000357e+00 2.484799999999999898e+01 -1.856600000000000028e+00 2.374012000000000100e+01 -1.207128753023069823e-01
4.852400000000000269e+00 2.600300000000000011e+01 -7.186899999999999622e+00 3.802140000000000075e+00 -1.719620174302818882e-02
4.857999999999999652e+00 2.881899999999999906e+01 -8.289300000000000779e+00 -6.868617999999999668e+00 -7.997875742539008181e-02
4.861600000000000144e+00 3.385399999999999920e+01 9.776099999999999568e+00 1.179349999999999987e+01 2.116949851038356645e-01
4.864700000000000024e+00 2.118199999999999861e+01 -3.483299999999999841e+00 8.310504000000000502e-02 -5.007488215825603960e-03
4.864700000000000024e+00 2.118199999999999861e+01 -1.738699999999999912e+00 7.199580000000000091e+00 4.097139536750908639e-02
4.869699999999999918e+00 2.268199999999999861e+01 -1.630900000000000105e+01 1.644458999999999893e+00 1.790813360469327986e-01
4.872099999999999653e+00 2.662900000000000134e+01 -8.033400000000000318e+00 -2.152502999999999833e+00 -7.700148649211938090e-02
4.874299999999999855e+00 3.094399999999999906e+01 8.310399999999999565e+00 2.255676000000000059e+01 2.272529138761946732e-01
4.876400000000000290e+00 2.847800000000000153e+01 6.817800000000000527e-01 8.325150000000000716e+00 -1.465486340594782388e-01
4.882200000000000095e+00 2.983999999999999986e+01 8.293200000000000571e+00 1.254363999999999990e+01 2.483521470603099746e-01
4.882799999999999585e+00 2.437300000000000111e+01 -1.645499999999999829e+01 5.762423000000000073e+00 -2.004014259403595621e-01
4.886599999999999611e+00 2.028099999999999881e+01 -3.540799999999999947e+00 -1.218333000000000110e+00 -2.515176552229735421e-02
4.887999999999999901e+00 4.478900000000000148e+01 -1.895499999999999829e+01 -7.709867999999999721e-01 1.141917187892923201e-02
4.889300000000000423e+00 2.839000000000000057e+01 -1.711199999999999832e+01 1.380341000000000033e-02 -3.134539727634074596e-02
4.889300000000000423e+00 2.958099999999999952e+01 -1.777599999999999980e+01 4.525412000000000212e+00 -1.172335585174016509e-01
4.895999999999999908e+00 2.259299999999999997e+01 -1.288599999999999923e+01 1.912358999999999920e+00 2.038269938405578574e-01
4.896399999999999864e+00 2.787399999999999878e+01 -8.317099999999999937e+00 -4.164283000000000179e+00 -7.876659336460470340e-02
4.896499999999999631e+00 5.022999999999999687e+01 -7.750300000000000189e+00 6.814274000000000164e-01 -3.179746217452335266e-02
4.896899999999999586e+00 2.352299999999999969e+01 -7.958999999999999631e+00 2.759352999999999945e+00 1.246429610170157048e-01
4.900000000000000355e+00 4.961200000000000188e+01 -2.805800000000000072e+00 -1.113766999999999996e+01 -2.728999675287656634e-01
4.904499999999999638e+00 3.264999999999999858e+01 8.221600000000000463e+00 1.265367999999999959e+01 2.009286578823406555e-01
4.911599999999999966e+00 2.199899999999999878e+01 -7.539099999999999691e-01 7.855655999999999750e+00 6.878914066319001541e-02
4.914600000000000080e+00 1.985000000000000142e+01 -2.196200000000000152e+00 2.059766999999999904e+00 -1.945006363049397446e-01
4.918300000000000338e+00 3.711200000000000188e+01 1.156000000000000050e+01 1.222744999999999926e+01 -6.325874330521859268e-02
4.918400000000000105e+00 2.589300000000000068e+01 -1.629899999999999949e+01 4.744371000000000116e+00 -1.794796638535566535e-01
4.930200000000000138e+00 3.414200000000000301e+01 1.078800000000000026e+01 1.190311999999999948e+01 -5.332268602032125271e-02
4.930299999999999905e+00 2.483500000000000085e+01 -7.215099999999999625e+00 3.210202000000000311e+01 1.434447052846609394e-01
4.931099999999999817e+00 5.046999999999999886e+01 -6.807000000000000384e+00 6.934052999999999578e+00 8.914579731842185717e-02
4.932199999999999918e+00 2.679100000000000037e+01 -1.652700000000000102e+01 1.227557000000000009e+00 -1.263478832174152189e-01
4.950999999999999623e+00 3.657300000000000040e+01 -1.703900000000000148e+01 -6.130701000000000178e+00 3.503459639190330543e-01
4.958700000000000330e+00 4.969800000000000040e+01 -4.394600000000000173e-01 -2.307576999999999856e+01 -2.557599391491608976e-01
4.972900000000000098e+00 1.852299999999999969e+01 -3.125999999999999890e+00 2.441507999999999790e+00 -2.025064664377314860e-01
4.974999999999999645e+00 2.752799999999999869e+01 5.122300000000000075e+00 7.297424999999999606e+00 -5.326003932107267053e-02
4.979599999999999582e+00 4.331199999999999761e+01 -1.336400000000000077e+01 -2.237415000000000020e+01 8.189330201117829555e-02
4.979599999999999582e+00 4.352100000000000080e+01 -1.409999999999999964e+01 -5.652873999999999732e+00 1.531203297419346798e-01
4.980999999999999872e+00 3.944899999999999807e+01 -1.915599999999999881e+01 -2.151035999999999859e+01 -2.507571714616564917e-01
4.986900000000000333e+00 2.954599999999999937e+01 -3.880700000000000038e+00 -2.142954999999999899e+01 3.006860485054030363e-02
4.986900000000000333e+00 3.101800000000000068e+01 -3.880700000000000038e+00 -3.314791000000000043e+00 6.557202204860623773e-02
4.987099999999999866e+00 4.698799999999999955e+01 -1.180899999999999928e+01 -1.634814999999999907e+00 1.998482566241870373e-01
4.993000000000000327e+00 4.650000000000000000e+01 -1.581400000000000006e+01 -1.397488000000000063e+01 5.499983949677959491e-03
4.998099999999999987e+00 4.046600000000000108e+01 -2.121699999999999875e+01 -2.438935999999999993e+01 -2.637691049810983457e-01
4.999100000000000321e+00 4.334300000000000352e+01 -1.985200000000000031e+01 1.867302000000000128e-01 -2.079439643049306452e-01
4.999500000000000277e+00 3.982200000000000273e+01 -1.624099999999999966e+01 4.938213999999999970e+01 -2.267656384435812189e-01
5.000700000000000145e+00 4.213400000000000034e+01 -2.014699999999999847e+01 -1.661413999999999946e+00 -2.212570018159850382e-01
5.009500000000000064e+00 4.919299999999999784e+01 -4.222299999999999720e+00 1.745742999999999867e+01 -2.565571953127345206e-01
5.009500000000000064e+00 4.940200000000000102e+01 -4.958300000000000374e+00 1.908644999999999925e+01 -1.162279489518948938e-01
5.009500000000000064e+00 4.940200000000000102e+01 -3.486200000000000188e+00 1.310792999999999964e+01 -2.650221472974197967e-01
5.012599999999999945e+00 2.359499999999999886e+01 -9.480700000000000571e+00 1.359966999999999926e+00 2.435383454037652259e-02
5.015699999999999825e+00 2.018900000000000006e+01 -1.760999999999999899e+00 3.455039999999999889e+00 -1.859103385281726251e-01
5.023799999999999599e+00 4.125200000000000244e+01 -2.033399999999999963e+01 -3.624158000000000240e-02 -2.364367745345172800e-01
5.024000000000000021e+00 2.920299999999999940e+01 -4.437899999999999956e+00 -2.227262999999999948e+01 2.594705472131554266e-02
5.025299999999999656e+00 4.205700000000000216e+01 1.674299999999999855e+01 -1.015892000000000017e+01 -1.638693413039672142e-01
5.026600000000000179e+00 3.316299999999999670e+01 -1.856500000000000128e+01 8.654422999999999533e+00 -2.692984105601182662e-02
5.035000000000000142e+00 4.009300000000000352e+01 -1.700799999999999912e+01 2.791381000000000157e+01 -1.850857214685396601e-01
5.036400000000000432e+00 4.009700000000000131e+01 -1.950700000000000145e+01 -7.077257999999999605e+00 -2.446353792608839117e-01
5.037899999999999601e+00 3.703300000000000125e+01 -1.678099999999999881e+01 -4.801178000000000168e+00 3.412638597268360940e-01
5.043700000000000294e+00 1.889199999999999946e+01 -3.975999999999999979e+00 1.509948000000000068e+00 -2.212010760349988892e-01
5.043700000000000294e+00 1.889199999999999946e+01 -2.275999999999999801e+00 7.217967999999999940e+00 -1.894301420848013562e-01
5.043700000000000294e+00 1.994200000000000017e+01 -3.975999999999999979e+00 3.700568000000000191e-01 -2.188426082779797166e-02
5.045200000000000351e+00 2.984900000000000020e+01 -3.180699999999999861e+00 -1.617191000000000045e+01 1.087457121198639187e-01
5.045200000000000351e+00 3.071499999999999986e+01 -3.180699999999999861e+00 -9.931537999999999755e-01 8.595867362233322595e-02
5.045300000000000118e+00 2.835800000000000054e+01 6.680900000000000283e+00 7.973568000000000211e+00 -1.110933576384222909e-01
5.045300000000000118e+00 4.008200000000000074e+01 -2.010900000000000176e+01 -3.153630000000000155e+00 -2.544965648918974255e-01
5.048000000000000043e+00 2.289999999999999858e+01 -1.575700000000000101e+00 1.132208999999999932e+01 5.409974675148319229e-02
5.056300000000000239e+00 4.436599999999999966e+01 -1.505400000000000027e+01 -8.299388999999999683e+00 2.080672493355920916e-01
5.056300000000000239e+00 4.523100000000000165e+01 -1.505400000000000027e+01 -1.329031999999999947e+01 9.778030629235237754e-04
5.056300000000000239e+00 4.617099999999999937e+01 -1.657400000000000162e+01 -5.468460999999999572e+00 2.199795394633466405e-02
5.056300000000000239e+00 4.617099999999999937e+01 -1.505400000000000027e+01 -1.457123999999999953e+01 -5.890830858379260578e-03
5.056400000000000006e+00 4.077000000000000313e+01 -2.051699999999999946e+01 7.839987000000000483e-01 -2.477623751936911811e-01
5.057000000000000384e+00 4.513100000000000023e+01 1.550000000000000000e+01 -2.848519000000000023e+00 -9.390837438217594646e-02
5.057800000000000296e+00 3.865299999999999869e+01 -1.554100000000000037e+01 9.805122000000000781e+00 4.961850810148495106e-02
5.057800000000000296e+00 3.951899999999999835e+01 -1.554100000000000037e+01 1.451847000000000065e+01 -2.562071280829331110e-01
5.059099999999999930e+00 2.940800000000000125e+01 -6.731900000000000439e+00 -1.687609000000000137e+01 1.995326838613604159e-01
5.061700000000000088e+00 3.891499999999999915e+01 1.505100000000000016e+01 -5.066454000000000235e+00 -1.644750183518202957e-01
5.062999999999999723e+00 3.334899999999999665e+01 -2.015599999999999881e+01 -1.053584000000000076e+00 1.435610576557639906e-01
5.063299999999999912e+00 3.973899999999999721e+01 -1.853699999999999903e+01 -1.978389999999999915e+01 -7.190288366710970158e-02
5.064899999999999736e+00 2.261499999999999844e+01 -8.622999999999999332e+00 1.389947999999999961e+00 1.424037873753312700e-01
5.067199999999999704e+00 2.836299999999999955e+01 1.649000000000000021e+00 1.129142000000000046e+01 -1.355979289243529062e-01
5.067499999999999893e+00 3.604699999999999704e+01 -1.988800000000000168e+01 -1.281450000000000067e+01 1.970665512914387407e-01
5.067499999999999893e+00 3.691199999999999903e+01 -1.988800000000000168e+01 -1.442215000000000025e+01 2.120459093835168063e-01
5.069700000000000095e+00 2.121300000000000097e+01 -1.590900000000000070e+01 1.253544999999999909e+00 1.720147921717728456e-01
5.069700000000000095e+00 2.121300000000000097e+01 -1.315900000000000070e+01 1.212469000000000019e+00 2.067731950251680273e-01
5.070800000000000196e+00 2.389900000000000091e+01 -1.018099999999999916e+01 -4.934209999999999985e-01 2.510431429497622657e-02
5.071699999999999875e+00 3.848700000000000188e+01 -1.906800000000000139e+01 -1.289467999999999925e+01 4.758476290200722159e-02
5.075300000000000367e+00 3.872699999999999676e+01 1.224000000000000021e+01 3.456551000000000151e+00 -8.684263479514299500e-02
5.080000000000000071e+00 4.361299999999999955e+01 1.721300000000000097e+01 -2.733342000000000027e+01 -1.324365037774201392e-01
5.080000000000000071e+00 4.490599999999999881e+01 1.649200000000000088e+01 -9.741263999999999257e+00 -1.054177066452643696e-01
5.084900000000000198e+00 3.346699999999999875e+01 -1.926500000000000057e+01 1.440487999999999991e+00 1.524681778152179867e-01
5.087600000000000122e+00 3.870700000000000074e+01 1.369800000000000040e+01 -2.194520999999999944e+00 -1.359616783624525427e-01
5.088000000000000078e+00 2.726999999999999957e+01 3.500999999999999890e+00 1.430339000000000027e+01 -7.942614694428419900e-03
5.088000000000000078e+00 2.750100000000000122e+01 2.686100000000000154e+00 7.982369000000000270e+00 -1.328734240795867438e-01
5.091400000000000148e+00 4.534899999999999665e+01 1.455000000000000071e+01 9.330581999999999709e+00 -8.207671596006625714e-02
5.091899999999999871e+00 3.903900000000000148e+01 1.598199999999999932e+01 -1.695353000000000110e+00 -1.738092929033644984e-01
5.095200000000000173e+00 2.948499999999999943e+01 -5.171599999999999753e+00 -2.627199999999999847e+01 1.973765379495919514e-01
5.095200000000000173e+00 3.039300000000000068e+01 -5.171599999999999753e+00 -3.575498000000000332e+01 7.704306033005395293e-02
5.099000000000000199e+00 3.221600000000000108e+01 -1.853200000000000003e+01 7.420747000000000426e+00 9.591929352526309266e-03
5.100100000000000300e+00 4.826800000000000068e+01 -8.813200000000000145e+00 3.145235000000000003e+00 -8.284178492908136904e-02
5.100999999999999979e+00 2.554500000000000171e+01 -8.157099999999999795e+00 5.160226999999999453e-01 7.677724203262395464e-02
5.102899999999999991e+00 2.543599999999999994e+01 -1.536699999999999955e+00 2.241707999999999856e+01 -1.179784486235301716e-01
5.106300000000000061e+00 2.259700000000000131e+01 -8.757200000000000539e-01 8.865164999999999296e+00 7.353129178749670536e-02
5.110100000000000087e+00 2.676599999999999824e+01 -8.194900000000000517e-01 8.692861000000000615e+01 -1.104281179221711512e-01
5.113599999999999923e+00 3.814000000000000057e+01 -1.625700000000000145e+01 -9.608278000000000096e-01 6.692383478616556469e-02
5.114799999999999791e+00 4.957600000000000051e+01 -8.044000000000000483e+00 4.730462999999999751e-01 -4.445304896564488545e-02
5.115999999999999659e+00 3.121399999999999864e+01 -2.400600000000000023e+01 5.004851000000000383e+00 -1.321767845127543306e-01
5.116299999999999848e+00 3.572500000000000142e+01 -2.469500000000000028e+01 1.864624000000000059e+00 -1.248796931765435020e-01
5.117399999999999949e+00 2.823900000000000077e+01 -6.031900000000000261e+00 -9.229720000000000368e+00 1.865082365818948942e-02
5.118999999999999773e+00 2.264399999999999835e+01 -5.021099999999999675e+00 1.169499999999999984e+00 -4.765409765190257996e-02
5.125600000000000378e+00 2.389499999999999957e+01 -7.120899999999999785e+00 8.649497999999999465e+00 2.836137324791760950e-01
5.125799999999999912e+00 3.574300000000000210e+01 -1.918799999999999883e+01 -8.894845999999999364e+00 1.890110788449058110e-01
