1.274099999999999966e+02 1.026200000000000045e+02 -2.002100000000000080e+02 1.354411999999999949e+01 -1.558203535846665877e-01
1.274099999999999966e+02 8.128499999999999659e+01 -1.931399999999999864e+02 7.279869999999999841e+00 -2.465752277229433242e-01
1.274099999999999966e+02 8.215000000000000568e+01 -1.931399999999999864e+02 -4.441602000000000050e-01 -2.462659206351800467e-01
1.274200000000000017e+02 8.095699999999999363e+01 -1.865200000000000102e+02 2.239897000000000027e+00 -2.176491868621756309e-01
1.274200000000000017e+02 9.196299999999999386e+01 -1.890500000000000114e+02 -2.897391999999999967e+01 -8.956512816244830213e-03
1.274300000000000068e+02 8.071999999999999886e+01 -1.874600000000000080e+02 -3.734158000000000199e-01 -1.193269960439728161e-01
1.274300000000000068e+02 8.540200000000000102e+01 -1.816500000000000057e+02 -1.824720999999999904e+01 -1.423627868739509861e-01
1.274300000000000068e+02 1.009300000000000068e+02 -2.061299999999999955e+02 -2.909243999999999986e+01 -3.499999999999999778e-01
1.274300000000000068e+02 1.009300000000000068e+02 -2.051899999999999977e+02 -4.396267000000000280e+01 -3.499999999999999778e-01
1.274300000000000068e+02 9.704999999999999716e+01 -1.823799999999999955e+02 -2.731075000000000141e+00 -3.619211599681152469e-01
1.274399999999999977e+02 8.361299999999999955e+01 -1.938899999999999864e+02 -1.994980999999999938e+01 -1.242823671177715472e-01
1.274399999999999977e+02 8.455299999999999727e+01 -1.938899999999999864e+02 -2.550931999999999888e+01 -1.235049747315247332e-01
1.274500000000000028e+02 1.077500000000000000e+02 -1.874900000000000091e+02 4.657390999999999615e+00 -3.633952085527630826e-01
1.274500000000000028e+02 9.342499999999999716e+01 -1.980600000000000023e+02 1.153545000000000087e+01 -3.499999999999999223e-01
1.274500000000000028e+02 8.031600000000000250e+01 -1.941500000000000057e+02 1.250295999999999985e+01 -2.449501413242551051e-01
1.274599999999999937e+02 1.076899999999999977e+02 -1.884799999999999898e+02 5.012336000000000347e+00 -3.636136072304775313e-01
1.274599999999999937e+02 9.080800000000000693e+01 -1.802599999999999909e+02 6.543031000000000041e+00 -1.747471307275630381e-01
1.274599999999999937e+02 9.116899999999999693e+01 -1.795300000000000011e+02 2.710694999999999855e+00 -1.818040852723692979e-01
1.274599999999999937e+02 8.663700000000000045e+01 -1.916100000000000136e+02 2.207252000000000081e+01 -2.417364905009678627e-02
1.274699999999999989e+02 1.011599999999999966e+02 -1.946599999999999966e+02 -2.142160000000000064e+00 -1.195383656619337237e-01
1.274699999999999989e+02 8.817000000000000171e+01 -1.901100000000000136e+02 9.680866999999999223e+00 -4.516797515666302887e-02
1.274699999999999989e+02 8.663200000000000500e+01 -1.808300000000000125e+02 -2.972296000000000049e+01 -2.573199433410897075e-01
1.274699999999999989e+02 7.992400000000000659e+01 -1.852199999999999989e+02 2.265598999999999918e+01 -2.131003787402682426e-01
1.274699999999999989e+02 9.970300000000000296e+01 -2.069499999999999886e+02 -1.360748999999999986e+00 -3.500000000000000333e-01
1.274800000000000040e+02 8.031399999999999295e+01 -1.866100000000000136e+02 2.335043000000000202e+00 -2.225422479254974273e-01
1.274800000000000040e+02 7.801800000000000068e+01 -1.819399999999999977e+02 1.149458000000000091e+00 -8.537866486205104855e-02
1.274899999999999949e+02 9.284099999999999397e+01 -1.896599999999999966e+02 -9.281806999999999697e-01 -5.017361419658029377e-03
1.274899999999999949e+02 9.284099999999999397e+01 -1.884199999999999875e+02 7.390277000000000207e+00 8.066972198806611960e-04
1.274899999999999949e+02 9.455700000000000216e+01 -1.988199999999999932e+02 1.244871999999999979e+01 -3.499999999999999223e-01
1.274899999999999949e+02 1.076200000000000045e+02 -1.833799999999999955e+02 2.703785999999999845e+01 -3.630495254293081286e-01
1.275000000000000000e+02 9.998900000000000432e+01 -1.952899999999999920e+02 -4.148439999999999905e+00 -1.203275941333397381e-01
1.275100000000000051e+02 9.943600000000000705e+01 -2.036100000000000136e+02 7.248213999999999935e+00 -3.499999999999999778e-01
1.275100000000000051e+02 7.578000000000000114e+01 -1.953300000000000125e+02 -2.581694999999999851e+00 -1.652573418765701518e-01
1.275100000000000051e+02 9.749599999999999511e+01 -1.997299999999999898e+02 1.304748999999999981e+01 -3.500000000000000333e-01
1.275100000000000051e+02 1.067000000000000028e+02 -1.823700000000000045e+02 2.718832000000000093e+01 -3.630214886391068263e-01
1.275199999999999960e+02 1.021299999999999955e+02 -2.002400000000000091e+02 6.246995000000000076e+00 -1.554660879454471401e-01
1.275199999999999960e+02 1.086400000000000006e+02 -1.855000000000000000e+02 3.752492999999999856e+00 -3.630443432460334074e-01
1.275199999999999960e+02 9.271599999999999397e+01 -1.978700000000000045e+02 1.050494999999999912e+01 -3.499999999999999778e-01
1.275199999999999960e+02 9.413700000000000045e+01 -1.947400000000000091e+02 3.985587000000000302e+01 -1.294472911288682693e-01
1.275300000000000011e+02 8.534199999999999875e+01 -1.825900000000000034e+02 -9.800727999999999662e-01 -2.001177878647756453e-02
1.275300000000000011e+02 8.088899999999999579e+01 -1.850699999999999932e+02 2.985163999999999973e+01 -1.175023388840501087e-01
1.275300000000000011e+02 9.434199999999999875e+01 -1.903700000000000045e+02 -2.806026999999999827e+00 -1.249807854550281372e-01
1.275300000000000011e+02 9.559099999999999397e+01 -1.877100000000000080e+02 2.955146000000000162e-01 -1.289696489635608900e-01
1.275300000000000011e+02 9.589400000000000546e+01 -1.870099999999999909e+02 -1.276631000000000071e+00 -1.219743908796354914e-01
1.275300000000000011e+02 7.723799999999999955e+01 -1.959199999999999875e+02 -5.179411000000000431e-01 -2.430845556804007435e-01
1.275300000000000011e+02 1.071899999999999977e+02 -1.896800000000000068e+02 5.089580999999999689e-01 -3.639018790877781018e-01
1.275300000000000011e+02 9.436199999999999477e+01 -1.876200000000000045e+02 1.052642999999999951e+01 -1.373546977666045832e-01
1.275400000000000063e+02 8.958299999999999841e+01 -1.892400000000000091e+02 6.378078000000000358e+00 -3.346647300130874136e-02
1.275400000000000063e+02 9.414799999999999613e+01 -1.860900000000000034e+02 -1.692641000000000062e+00 -1.278037306773153747e-01
1.275400000000000063e+02 7.856799999999999784e+01 -1.951999999999999886e+02 1.523930000000000007e+01 -2.438558430933626675e-01
1.275400000000000063e+02 8.220300000000000296e+01 -1.845999999999999943e+02 9.594288999999999845e+00 -9.944347656573626626e-02
1.275499999999999972e+02 9.190399999999999636e+01 -1.857100000000000080e+02 -5.166788999999999632e+00 -1.370680061967581576e-01
1.275499999999999972e+02 9.521899999999999409e+01 -1.861800000000000068e+02 -2.096712999999999827e+00 -1.190799601930664364e-01
1.275499999999999972e+02 7.270799999999999841e+01 -1.887199999999999989e+02 5.277492999999999768e+00 1.234561404275432983e-01
1.275600000000000023e+02 8.958499999999999375e+01 -1.881699999999999875e+02 1.431065000000000076e+01 -3.440165102030143945e-02
1.275600000000000023e+02 9.606100000000000705e+01 -1.884399999999999977e+02 7.490847999999999729e+00 -1.321298974877738730e-01
1.275600000000000023e+02 8.992799999999999727e+01 -1.871599999999999966e+02 9.977667000000000286e+00 -3.157797679269652019e-02
1.275600000000000023e+02 9.973900000000000432e+01 -2.043100000000000023e+02 -3.445638000000000201e+00 -3.499999999999999778e-01
1.275699999999999932e+02 7.445999999999999375e+01 -1.866899999999999977e+02 -8.006306000000000367e+00 2.246348823815179363e-01
1.275699999999999932e+02 9.779999999999999716e+01 -2.004300000000000068e+02 5.775240000000000151e+00 -3.500000000000000333e-01
1.275699999999999932e+02 8.429600000000000648e+01 -1.836899999999999977e+02 1.014974999999999961e+00 -1.335577326149721411e-01
1.275799999999999983e+02 8.494700000000000273e+01 -1.931800000000000068e+02 -5.206735000000000113e+00 -1.241007356600784400e-01
1.275799999999999983e+02 9.309600000000000364e+01 -1.856800000000000068e+02 -8.991120999999999697e-01 -1.392266884537324001e-01
1.275900000000000034e+02 8.503900000000000148e+01 -1.832899999999999920e+02 -9.981510000000000105e+00 -2.111048236363971195e-02
1.275900000000000034e+02 9.571299999999999386e+01 -2.071299999999999955e+02 7.507608000000000059e-01 -3.500000000000000333e-01
1.275900000000000034e+02 9.741299999999999670e+01 -2.071299999999999955e+02 1.214112999999999998e+00 -3.499999999999999778e-01
1.275900000000000034e+02 9.558499999999999375e+01 -1.934199999999999875e+02 -2.267755999999999883e+00 -1.227295363911056203e-01
1.275900000000000034e+02 7.590399999999999636e+01 -1.820000000000000000e+02 8.291720000000000201e-01 -9.037411241808462545e-03
1.275900000000000034e+02 9.936100000000000421e+01 -1.954699999999999989e+02 -1.228891999999999918e+01 -1.205973146055043382e-01
1.275999999999999943e+02 8.324899999999999523e+01 -1.931899999999999977e+02 -4.058044999999999902e+00 -1.255361781684819211e-01
1.275999999999999943e+02 1.057900000000000063e+02 -1.903300000000000125e+02 7.253942000000000334e+00 -3.641888348280761800e-01
1.276099999999999994e+02 9.375100000000000477e+01 -1.778400000000000034e+02 8.557638000000000744e+00 -1.608435753514457223e-01
1.276099999999999994e+02 9.530100000000000193e+01 -1.778400000000000034e+02 5.920353000000000065e+01 -2.665377917949435793e-01
1.276099999999999994e+02 7.322799999999999443e+01 -1.920800000000000125e+02 8.760947000000000040e-01 1.548513287384779835e-01
1.276200000000000045e+02 9.557200000000000273e+01 -1.925300000000000011e+02 -2.710628999999999955e+00 -1.212961175107481748e-01
1.276200000000000045e+02 1.020100000000000051e+02 -1.853899999999999864e+02 -8.374347999999999459e+00 -3.628599135175195611e-01
1.276299999999999955e+02 1.085900000000000034e+02 -1.845500000000000114e+02 1.992949000000000082e+00 -3.630513194844623426e-01
1.276299999999999955e+02 9.604300000000000637e+01 -2.018600000000000136e+02 8.351941000000000059e+00 -3.499999999999999778e-01
1.276299999999999955e+02 9.269899999999999807e+01 -1.890500000000000114e+02 -5.030797999999999881e+00 -2.303663390223220555e-03
1.276299999999999955e+02 9.643000000000000682e+01 -1.892899999999999920e+02 1.561710000000000065e+01 -1.149747463474131842e-01
1.276299999999999955e+02 7.406000000000000227e+01 -1.924799999999999898e+02 4.115758999999999723e+00 1.393690986809857993e-02
1.276299999999999955e+02 9.626399999999999579e+01 -1.866800000000000068e+02 -7.449723999999999791e-01 -1.175122514330262102e-01
1.276299999999999955e+02 8.532699999999999818e+01 -1.925600000000000023e+02 -3.640169999999999906e+00 -1.254782658370209025e-01
1.276299999999999955e+02 8.673499999999999943e+01 -1.909199999999999875e+02 2.919059000000000026e+01 -2.714879188798851109e-02
1.276400000000000006e+02 1.088599999999999994e+02 -1.861599999999999966e+02 8.737154999999999561e+00 -3.630917042037261067e-01
1.276500000000000057e+02 8.787399999999999523e+01 -1.813000000000000114e+02 -8.985276000000000707e+00 -1.664086446881936077e-01
1.276599999999999966e+02 9.754699999999999704e+01 -1.861200000000000045e+02 -1.551209999999999978e+00 -1.116151573383602907e-01
1.276599999999999966e+02 1.016700000000000017e+02 -1.860999999999999943e+02 -1.425799999999999912e+01 -3.632330182395095419e-01
1.276599999999999966e+02 9.009099999999999397e+01 -1.948000000000000114e+02 6.863849000000000089e+00 -1.345028630311976003e-01
1.276599999999999966e+02 9.114100000000000534e+01 -1.948000000000000114e+02 1.100009999999999977e+01 -1.325663063048838353e-01
1.276599999999999966e+02 9.845300000000000296e+01 -1.900399999999999920e+02 -2.776965000000000128e+00 -3.657642230912199199e-01
1.276700000000000017e+02 9.745799999999999841e+01 -1.900900000000000034e+02 -1.650876999999999928e+00 -1.135688382978137512e-01
1.276800000000000068e+02 9.635399999999999920e+01 -2.026299999999999955e+02 6.286311999999999678e+00 -3.499999999999999778e-01
1.276800000000000068e+02 1.025900000000000034e+02 -1.926399999999999864e+02 4.584412999999999982e+01 -3.651758157196111632e-01
1.276800000000000068e+02 9.973600000000000421e+01 -1.892100000000000080e+02 2.946575999999999951e+01 -3.650784638173177332e-01
1.276899999999999977e+02 1.010999999999999943e+02 -1.872100000000000080e+02 1.122226000000000035e+01 -3.638617793103619547e-01
1.276899999999999977e+02 9.673300000000000409e+01 -1.899900000000000091e+02 4.302528999999999937e-01 -1.143888662376993104e-01
1.276899999999999977e+02 9.914199999999999591e+01 -2.012100000000000080e+02 -3.382596000000000203e+01 -3.499999999999999778e-01
1.276899999999999977e+02 8.703900000000000148e+01 -1.902199999999999989e+02 1.475608000000000075e+01 -3.436933543812022152e-02
1.277000000000000028e+02 9.665999999999999659e+01 -2.022199999999999989e+02 1.208899000000000079e+01 -3.499999999999999778e-01
1.277000000000000028e+02 9.562199999999999989e+01 -1.909600000000000080e+02 -4.163259000000000043e+00 -1.184808698326619697e-01
1.277099999999999937e+02 1.042900000000000063e+02 -1.816699999999999875e+02 2.234269999999999978e+00 -3.627234746465468063e-01
1.277099999999999937e+02 1.059899999999999949e+02 -1.816699999999999875e+02 1.451004999999999967e+01 -3.629525472533042252e-01
1.277099999999999937e+02 7.962199999999999989e+01 -1.839499999999999886e+02 7.405293999999999599e+00 -1.410396356266264695e-01
1.277099999999999937e+02 9.523399999999999466e+01 -1.939000000000000057e+02 2.580349000000000004e+00 -1.241188569402521813e-01
1.277099999999999937e+02 1.084899999999999949e+02 -1.870099999999999909e+02 7.550364000000000075e+00 -3.632768601417615817e-01
1.277199999999999989e+02 9.562000000000000455e+01 -2.043400000000000034e+02 6.853229999999999933e+00 -3.500000000000000333e-01
1.277199999999999989e+02 9.558499999999999375e+01 -1.918799999999999955e+02 -2.741940000000000044e+00 -1.198219361461180660e-01
1.277199999999999989e+02 9.748099999999999454e+01 -2.010000000000000000e+02 1.885930000000000106e+01 -3.500000000000000333e-01
1.277300000000000040e+02 8.972199999999999420e+01 -1.956500000000000057e+02 6.534685999999999773e+00 -1.361333897911540247e-01
1.277500000000000000e+02 8.996699999999999875e+01 -1.965000000000000000e+02 4.880690999999999669e+00 -1.365823966722082283e-01
1.277500000000000000e+02 9.628300000000000125e+01 -2.033199999999999932e+02 9.848753000000000091e-01 -3.499999999999999778e-01
1.277500000000000000e+02 9.575700000000000500e+01 -1.812899999999999920e+02 7.365083000000000268e+00 -3.613939636359874696e-01
1.277500000000000000e+02 9.575700000000000500e+01 -1.804300000000000068e+02 2.053121000000000151e+01 -2.641012367313554932e-01
1.277500000000000000e+02 1.020999999999999943e+02 -1.996100000000000136e+02 1.645037999999999911e+01 -1.547670483718444623e-01
1.277500000000000000e+02 1.020999999999999943e+02 -1.980600000000000023e+02 1.456164000000000058e+01 -1.520110046803190007e-01
1.277500000000000000e+02 1.030600000000000023e+02 -1.996100000000000136e+02 1.702486000000000033e+01 -1.559674797789359635e-01
1.277500000000000000e+02 1.030600000000000023e+02 -1.980600000000000023e+02 -6.044265000000000221e+00 -1.535203912936912163e-01
1.277500000000000000e+02 1.046299999999999955e+02 -1.911699999999999875e+02 -2.588810000000000056e+00 -3.645403180706355273e-01
1.277500000000000000e+02 9.947100000000000364e+01 -2.019699999999999989e+02 -2.938034999999999997e+01 -3.500000000000000333e-01
1.277600000000000051e+02 9.412500000000000000e+01 -1.981200000000000045e+02 1.191742999999999952e+01 -3.499999999999999778e-01
1.277600000000000051e+02 9.164799999999999613e+01 -1.787500000000000000e+02 1.327183000000000002e+00 -2.877102386659175504e-01
1.277600000000000051e+02 7.510899999999999466e+01 -1.946299999999999955e+02 -5.619982000000000255e+00 -1.342512524798905038e-01
1.277699999999999960e+02 9.598199999999999932e+01 -1.903499999999999943e+02 -6.733094999999999608e+00 -1.161204812586965202e-01
1.277699999999999960e+02 9.256100000000000705e+01 -1.954300000000000068e+02 1.946753999999999962e+01 -3.499999999999999778e-01
1.277900000000000063e+02 8.925000000000000000e+01 -1.817400000000000091e+02 2.661927999999999983e+01 -1.594524125895960542e-01
1.277900000000000063e+02 1.034099999999999966e+02 -1.920099999999999909e+02 -6.594085999999999892e+00 -3.649221616536981183e-01
1.277900000000000063e+02 7.633499999999999375e+01 -1.812199999999999989e+02 3.274096000000000228e-01 -9.288363097471527552e-02
1.277900000000000063e+02 7.738500000000000512e+01 -1.812199999999999989e+02 -7.610563000000000189e-01 -9.807791706031880608e-02
1.277999999999999972e+02 1.025000000000000000e+02 -1.839799999999999898e+02 4.135089999999999932e+00 -3.624086989239150292e-01
1.277999999999999972e+02 7.508100000000000307e+01 -1.935999999999999943e+02 -6.341345999999999705e+00 -1.342796917297099102e-01
1.277999999999999972e+02 1.007300000000000040e+02 -1.880300000000000011e+02 1.987772000000000006e+01 -3.643419240530269554e-01
1.278100000000000023e+02 8.171699999999999875e+01 -1.926500000000000057e+02 3.475389999999999979e+00 -2.490926744150843142e-01
1.278100000000000023e+02 1.017699999999999960e+02 -1.988400000000000034e+02 7.105346000000000117e+01 -1.530715646678513231e-01
1.278100000000000023e+02 1.034000000000000057e+02 -1.988400000000000034e+02 -9.121613999999999223e+00 -1.553505219952046323e-01
1.278100000000000023e+02 9.770799999999999841e+01 -1.987599999999999909e+02 1.246344000000000030e+01 -3.499999999999999778e-01
1.278100000000000023e+02 9.087199999999999989e+01 -1.977800000000000011e+02 8.556385999999999825e+00 -1.368113531454912546e-01
1.278100000000000023e+02 9.192199999999999704e+01 -1.977800000000000011e+02 9.941103999999999274e+00 -1.357066345011720132e-01
1.278199999999999932e+02 7.925700000000000500e+01 -1.829799999999999898e+02 4.323559000000000374e+00 -1.653353746625677856e-01
1.278199999999999932e+02 9.821800000000000352e+01 -2.011699999999999875e+02 -1.677937000000000012e+01 -3.499999999999999778e-01
1.278199999999999932e+02 9.581100000000000705e+01 -1.861800000000000068e+02 -4.155346999999999902e+00 -1.140771517688149023e-01
1.278199999999999932e+02 9.561100000000000421e+01 -2.010500000000000114e+02 5.622548000000000101e+00 -3.499999999999999778e-01
1.278299999999999983e+02 9.036100000000000421e+01 -1.864600000000000080e+02 -1.332249999999999934e+00 -2.738970298694411859e-02
1.278400000000000034e+02 1.026299999999999955e+02 -1.830500000000000114e+02 1.828454999999999941e+00 -3.622918173095111549e-01
1.278400000000000034e+02 9.769100000000000250e+01 -2.020999999999999943e+02 2.526221999999999923e+01 -3.499999999999999778e-01
1.278499999999999943e+02 8.058499999999999375e+01 -1.934099999999999966e+02 8.432935000000000514e+00 -2.485730277765799134e-01
1.278499999999999943e+02 9.149599999999999511e+01 -1.955999999999999943e+02 1.444974999999999987e+01 -1.334710995890674989e-01
1.278499999999999943e+02 8.467600000000000193e+01 -1.926500000000000057e+02 -2.482209999999999894e+01 -1.243501660654639240e-01
1.278499999999999943e+02 9.865399999999999636e+01 -2.032500000000000000e+02 1.060788999999999938e+01 -3.499999999999999778e-01
1.278599999999999994e+02 8.408299999999999841e+01 -1.931999999999999886e+02 -2.003000000000000114e+01 -1.232701026795120641e-01
1.278599999999999994e+02 9.048399999999999466e+01 -1.810099999999999909e+02 4.356128000000000000e+00 -1.626489259658330799e-01
1.278599999999999994e+02 9.370600000000000307e+01 -1.898899999999999864e+02 -1.266242000000000090e+00 -1.275485882674193272e-01
1.278599999999999994e+02 9.370600000000000307e+01 -1.881899999999999977e+02 2.859990000000000165e+01 -1.290013160514783264e-01
1.278599999999999994e+02 9.475600000000000023e+01 -1.898899999999999864e+02 -9.374254999999999782e+00 -1.203396808560701914e-01
1.278599999999999994e+02 9.475600000000000023e+01 -1.881899999999999977e+02 1.116516000000000020e+01 -1.374598741730976292e-01
1.278599999999999994e+02 8.955299999999999727e+01 -1.873499999999999943e+02 2.032986999999999966e+01 -3.756639580969362013e-02
1.278700000000000045e+02 7.509399999999999409e+01 -1.862400000000000091e+02 -2.110688000000000031e+01 2.304098646903711689e-01
1.278799999999999955e+02 7.218300000000000693e+01 -1.906299999999999955e+02 2.597536999999999985e+00 1.352698384722757774e-01
1.278799999999999955e+02 7.218300000000000693e+01 -1.895699999999999932e+02 2.707120000000000193e+00 1.250634491029315176e-01
1.278799999999999955e+02 9.050300000000000011e+01 -1.969300000000000068e+02 8.250724999999999199e+00 -1.364979489398909784e-01
1.278900000000000006e+02 7.961599999999999966e+01 -1.944199999999999875e+02 1.307000999999999991e+01 -2.467204219468076831e-01
1.279000000000000057e+02 9.524200000000000443e+01 -2.001999999999999886e+02 9.374833999999999889e+00 -3.499999999999999778e-01
1.279000000000000057e+02 9.703000000000000114e+01 -2.001999999999999886e+02 3.689146000000000214e+01 -3.499999999999999778e-01
1.279000000000000057e+02 8.616200000000000614e+01 -1.813600000000000136e+02 -3.312210999999999927e+01 -1.393757039989663438e-01
1.279000000000000057e+02 8.710200000000000387e+01 -1.813600000000000136e+02 -6.749210999999999672e+01 -2.536038956635051078e-01
1.279000000000000057e+02 9.923300000000000409e+01 -2.064199999999999875e+02 -9.259150999999999243e+00 -3.500000000000000333e-01
1.279000000000000057e+02 1.001700000000000017e+02 -2.064199999999999875e+02 -1.491572000000000031e+01 -3.499999999999999778e-01
1.279000000000000057e+02 1.001700000000000017e+02 -2.049000000000000057e+02 -6.932711999999999364e+01 -3.499999999999999778e-01
1.279000000000000057e+02 1.080400000000000063e+02 -1.884399999999999977e+02 -9.784203999999999679e-01 -3.636034868352365779e-01
1.279099999999999966e+02 9.518800000000000239e+01 -2.062800000000000011e+02 9.927667000000000019e-01 -3.499999999999999778e-01
1.279099999999999966e+02 9.518800000000000239e+01 -2.052299999999999898e+02 1.997883000000000076e+00 -3.499999999999999778e-01
1.279200000000000017e+02 9.018099999999999739e+01 -1.817100000000000080e+02 1.478514000000000017e+01 -1.576057254796969509e-01
1.279200000000000017e+02 1.081099999999999994e+02 -1.837700000000000102e+02 2.391666000000000025e+01 -3.629960504289077572e-01
1.279300000000000068e+02 7.347700000000000387e+01 -1.917700000000000102e+02 1.430091999999999919e+00 3.941049544229595705e-03
1.279300000000000068e+02 9.333700000000000330e+01 -1.890399999999999920e+02 8.999613999999999336e+00 -1.310292516815055874e-01
1.279399999999999977e+02 9.896200000000000330e+01 -2.040399999999999920e+02 2.227302999999999855e+01 -3.499999999999999778e-01
1.279399999999999977e+02 1.015999999999999943e+02 -1.937100000000000080e+02 3.426771000000000011e+00 -1.174227147053800852e-01
1.279399999999999977e+02 9.752100000000000080e+01 -1.829199999999999875e+02 4.634082000000000257e+00 -3.618691544613864552e-01
1.279500000000000028e+02 8.869499999999999318e+01 -1.895200000000000102e+02 1.343637000000000015e+01 -4.360003650578422874e-02
1.279500000000000028e+02 9.667499999999999716e+01 -2.010399999999999920e+02 8.863167999999999935e+00 -3.500000000000000333e-01
1.279500000000000028e+02 1.077000000000000028e+02 -1.892500000000000000e+02 -2.762061000000000099e+00 -3.637952155218963091e-01
1.279500000000000028e+02 9.656300000000000239e+01 -2.071999999999999886e+02 1.791890999999999901e+00 -3.499999999999999778e-01
1.279599999999999937e+02 9.250000000000000000e+01 -1.852100000000000080e+02 1.596979000000000037e-01 -1.292627378484283995e-01
1.279599999999999937e+02 8.583299999999999841e+01 -1.821200000000000045e+02 -1.969390999999999892e+00 -1.461195562601575459e-01
1.279599999999999937e+02 9.928300000000000125e+01 -1.899399999999999977e+02 1.287330000000000085e+00 -3.655514246540384482e-01
1.279599999999999937e+02 1.081500000000000057e+02 -1.878600000000000136e+02 -4.324042000000000385e+00 -3.634777879638037001e-01
1.279599999999999937e+02 1.005000000000000000e+02 -2.056599999999999966e+02 -1.815562999999999860e+01 -3.499999999999999778e-01
1.279699999999999989e+02 9.118300000000000693e+01 -1.860200000000000102e+02 -7.848297999999999774e+00 -1.520394838331370554e-02
1.279699999999999989e+02 9.377700000000000102e+01 -1.976599999999999966e+02 1.401872999999999969e+01 -3.500000000000000333e-01
1.279699999999999989e+02 1.023400000000000034e+02 -1.848400000000000034e+02 2.666207999999999911e-01 -3.625909530321079766e-01
1.279800000000000040e+02 9.867199999999999704e+01 -2.019699999999999989e+02 -3.417994999999999894e+00 -3.499999999999999778e-01
1.279800000000000040e+02 9.815999999999999659e+01 -2.063899999999999864e+02 2.295237999999999889e+00 -3.500000000000000333e-01
1.279800000000000040e+02 9.807200000000000273e+01 -1.852700000000000102e+02 6.285600999999999772e+00 -1.053714287556468954e-01
1.279800000000000040e+02 9.807200000000000273e+01 -1.842199999999999989e+02 1.680536999999999992e+01 -3.623746930525973409e-01
1.279899999999999949e+02 9.089300000000000068e+01 -1.961100000000000136e+02 6.160366999999999926e+00 -1.352654713834911815e-01
1.279899999999999949e+02 9.190099999999999625e+01 -1.961100000000000136e+02 1.505972000000000044e+01 -1.338687527241442798e-01
1.279899999999999949e+02 9.061599999999999966e+01 -1.956500000000000057e+02 4.740668000000000326e+00 -1.351664494536693184e-01
1.279899999999999949e+02 9.562699999999999534e+01 -1.892899999999999920e+02 -2.553319000000000116e+00 -1.148849270758474789e-01
1.279899999999999949e+02 8.578700000000000614e+01 -1.919399999999999977e+02 2.720241000000000131e+00 -1.668434988097842325e-02
1.279899999999999949e+02 8.281600000000000250e+01 -1.926999999999999886e+02 8.832318000000000113e-01 -1.259444566373477126e-01
1.280000000000000000e+02 9.685099999999999909e+01 -2.033199999999999932e+02 1.279722000000000026e+00 -3.499999999999999778e-01
1.280000000000000000e+02 8.610099999999999909e+01 -1.828799999999999955e+02 -3.579431000000000029e+00 -3.462695826434881996e-02
1.280000000000000000e+02 8.379399999999999693e+01 -1.843000000000000114e+02 3.892026000000000097e-01 -2.613312685284853096e-02
1.280000000000000000e+02 9.647199999999999420e+01 -1.908100000000000023e+02 -1.135834999999999972e+01 -1.141347272945802960e-01
1.280000000000000000e+02 9.509799999999999898e+01 -1.993000000000000114e+02 1.108671000000000006e+01 -3.499999999999999778e-01
1.280000000000000000e+02 9.709999999999999432e+01 -1.993000000000000114e+02 1.305091999999999963e+01 -3.499999999999999778e-01
1.280099999999999909e+02 8.143600000000000705e+01 -1.844199999999999875e+02 2.062040000000000006e+01 -1.104401740822954225e-01
1.280099999999999909e+02 1.091599999999999966e+02 -1.870600000000000023e+02 1.816646000000000072e+01 -3.632810051070118340e-01
1.280099999999999909e+02 9.618999999999999773e+01 -1.819900000000000091e+02 2.130601000000000023e-01 -3.614234411001072123e-01
1.280200000000000102e+02 8.906399999999999295e+01 -1.886699999999999875e+02 8.394462000000000756e+00 -4.167940370603510913e-02
1.280200000000000102e+02 9.224399999999999977e+01 -1.969300000000000068e+02 1.493159999999999954e+01 -3.499999999999999778e-01
1.280200000000000102e+02 8.519199999999999307e+01 -1.838100000000000023e+02 -2.805771000000000015e+01 -3.197764493383394024e-02
1.280200000000000102e+02 9.926999999999999602e+01 -2.048199999999999932e+02 9.848468000000000222e-01 -3.499999999999999778e-01
1.280300000000000011e+02 9.792100000000000648e+01 -1.968100000000000023e+02 -9.583769000000000204e+00 -1.229570013510994098e-01
1.280300000000000011e+02 9.887000000000000455e+01 -1.958700000000000045e+02 -2.265731999999999857e+01 -1.205067447558111349e-01
1.280300000000000011e+02 9.669700000000000273e+01 -1.861899999999999977e+02 -1.451135999999999981e+00 -1.104692791481994008e-01
1.280300000000000011e+02 9.773999999999999488e+01 -1.907700000000000102e+02 -1.500277999999999956e+01 -1.121869143661855250e-01
1.280300000000000011e+02 7.676399999999999579e+01 -1.954799999999999898e+02 -1.505838000000000010e+00 -1.708407244865642050e-01
1.280300000000000011e+02 7.771200000000000330e+01 -1.954799999999999898e+02 2.351186000000000109e-01 -2.455797639808747213e-01
1.280399999999999920e+02 7.360200000000000387e+01 -1.878499999999999943e+02 -6.916625999999999941e+00 2.300856570833939296e-01
1.280399999999999920e+02 7.392700000000000671e+01 -1.871200000000000045e+02 -9.298809999999999576e-01 2.285834859920587159e-01
1.280399999999999920e+02 1.063700000000000045e+02 -1.899900000000000091e+02 2.133523999999999976e+00 -3.640806175465773897e-01
1.280399999999999920e+02 1.094899999999999949e+02 -1.862800000000000011e+02 2.613510000000000133e+01 -3.631226242180164987e-01
1.280399999999999920e+02 1.025799999999999983e+02 -1.988400000000000034e+02 6.525567999999999813e+01 -1.546018313166180047e-01
1.280500000000000114e+02 9.840999999999999659e+01 -2.027400000000000091e+02 1.490933999999999982e+00 -3.500000000000000333e-01
1.280500000000000114e+02 9.511100000000000421e+01 -1.889799999999999898e+02 2.451258000000000159e+00 -1.165703658194882919e-01
1.280500000000000114e+02 8.918800000000000239e+01 -1.877400000000000091e+02 1.490466999999999942e+01 -4.264669440324475591e-02
1.280500000000000114e+02 1.000999999999999943e+02 -1.951399999999999864e+02 -3.011518000000000139e+00 -1.188040841206076809e-01
1.280500000000000114e+02 7.866800000000000637e+01 -1.822400000000000091e+02 3.378490999999999911e+00 -1.905550030505092640e-01
1.280500000000000114e+02 8.833199999999999363e+01 -1.820600000000000023e+02 2.092626999999999882e+01 -1.561701493694198084e-01
1.280600000000000023e+02 9.789100000000000534e+01 -1.837400000000000091e+02 5.108176000000000272e+00 -3.621573881865725042e-01
1.280600000000000023e+02 8.615600000000000591e+01 -1.910900000000000034e+02 7.503950999999999816e+00 -2.180202054137588691e-02
1.280699999999999932e+02 8.744799999999999329e+01 -1.820900000000000034e+02 -1.126801999999999992e+01 -3.686498339237351263e-02
1.280699999999999932e+02 7.464900000000000091e+01 -1.929000000000000057e+02 9.506332000000000448e+00 1.122293910252841406e-02
1.280699999999999932e+02 8.596399999999999864e+01 -1.836399999999999864e+02 -7.101576999999999806e+00 -3.589737918336647488e-02
1.280800000000000125e+02 1.051599999999999966e+02 -1.905000000000000000e+02 -3.602542999999999829e+00 -3.643508845264117890e-01
1.280800000000000125e+02 1.030199999999999960e+02 -1.921500000000000057e+02 8.371567999999999898e+00 -3.650659316973358104e-01
1.280800000000000125e+02 9.793999999999999773e+01 -2.029199999999999875e+02 1.283469999999999978e+01 -3.499999999999999778e-01
1.280800000000000125e+02 8.730599999999999739e+01 -1.827599999999999909e+02 -7.367825000000000069e-01 -2.575520535234136071e-02
1.280900000000000034e+02 1.002699999999999960e+02 -1.887599999999999909e+02 1.138733000000000004e+02 -3.648381830878014709e-01
1.280900000000000034e+02 9.452599999999999625e+01 -1.775500000000000114e+02 -9.870903999999999456e+00 -1.536578059333448820e-01
1.280900000000000034e+02 9.584499999999999886e+01 -1.782800000000000011e+02 3.596374999999999744e+01 -2.544378477759018375e-01
1.280900000000000034e+02 9.607599999999999341e+01 -1.790999999999999943e+02 9.218106000000000222e+01 -2.448976675480378784e-01
1.280900000000000034e+02 8.747100000000000364e+01 -1.897299999999999898e+02 8.413190999999999420e+00 -4.356059744742536710e-02
1.280999999999999943e+02 1.093799999999999955e+02 -1.856599999999999966e+02 6.949927999999999884e+00 -3.630057921781269514e-01
1.280999999999999943e+02 7.549399999999999977e+01 -1.842800000000000011e+02 -7.805568999999999702e-02 2.171497879896762961e-01
1.281100000000000136e+02 1.107000000000000028e+02 -1.870600000000000023e+02 3.018676999999999921e+01 -3.632567517773291899e-01
1.281100000000000136e+02 7.546200000000000330e+01 -1.832199999999999989e+02 9.001508999999999761e-01 -1.974207240376497571e-02
1.281100000000000136e+02 1.024000000000000057e+02 -1.858199999999999932e+02 -1.212556000000000012e+01 -3.630748365342270634e-01
1.281100000000000136e+02 8.101699999999999591e+01 -1.927100000000000080e+02 4.581538000000000110e+00 -1.312625882464878990e-01
1.281200000000000045e+02 8.390900000000000603e+01 -1.926100000000000136e+02 -3.981279999999999930e+00 -1.237792235319924439e-01
1.281200000000000045e+02 1.092300000000000040e+02 -1.850500000000000114e+02 1.922992000000000035e+00 -3.630072551361665512e-01
1.281299999999999955e+02 1.030999999999999943e+02 -1.822899999999999920e+02 -3.489221000000000128e+00 -3.623127099961364617e-01
1.281299999999999955e+02 8.998600000000000421e+01 -1.866500000000000057e+02 6.946806999999999732e+00 -3.404028350554513804e-02
1.281399999999999864e+02 9.139700000000000557e+01 -1.969300000000000068e+02 1.014431000000000083e+01 -1.358111349131242984e-01
1.281399999999999864e+02 9.474399999999999977e+01 -1.943000000000000114e+02 2.080685000000000073e+01 -1.249762724101450007e-01
1.281500000000000057e+02 9.613599999999999568e+01 -2.001999999999999886e+02 1.200760000000000005e+01 -3.499999999999999778e-01
1.281500000000000057e+02 1.018299999999999983e+02 -1.929300000000000068e+02 2.658298999999999879e+01 -3.654631306050634687e-01
1.281500000000000057e+02 7.337199999999999989e+01 -1.884000000000000057e+02 1.607218000000000035e+00 2.321511654448903117e-01
1.281500000000000057e+02 7.904200000000000159e+01 -1.947199999999999989e+02 9.088706000000000174e+00 -2.474453032596501401e-01
1.281500000000000057e+02 8.004900000000000659e+01 -1.937199999999999989e+02 8.803468999999999767e+00 -2.495923734610980271e-01
1.281599999999999966e+02 1.007800000000000011e+02 -1.943700000000000045e+02 -4.711239999999999872e-01 -1.174166268173770372e-01
1.281699999999999875e+02 9.765800000000000125e+01 -1.975099999999999909e+02 2.727082000000000050e+01 -1.241543141860291383e-01
1.281699999999999875e+02 8.790500000000000114e+01 -1.823799999999999955e+02 6.086401999999999646e+00 -1.419490506155492993e-01
1.281800000000000068e+02 1.069699999999999989e+02 -1.826500000000000057e+02 2.607004999999999839e+01 -3.628915957204765785e-01
1.281800000000000068e+02 9.891299999999999670e+01 -2.053700000000000045e+02 -2.722646000000000122e+00 -3.500000000000000333e-01
1.281899999999999977e+02 9.423099999999999454e+01 -1.890399999999999920e+02 1.978924999999999912e+01 -1.211853756092989426e-01
1.281899999999999977e+02 8.663200000000000500e+01 -1.821200000000000045e+02 -2.131928999999999874e+01 -1.368844500146597087e-01
1.281899999999999977e+02 9.601900000000000546e+01 -1.913899999999999864e+02 -1.033301999999999943e+01 -1.152565195470205139e-01
1.281899999999999977e+02 9.970300000000000296e+01 -2.056599999999999966e+02 -2.491118000000000166e+01 -3.499999999999999778e-01
1.281999999999999886e+02 9.263700000000000045e+01 -1.961100000000000136e+02 2.128187000000000140e+01 -3.499999999999999778e-01
1.282100000000000080e+02 7.604699999999999704e+01 -1.949000000000000057e+02 -2.214717999999999964e-01 -1.705137258231595454e-01
1.282199999999999989e+02 1.099000000000000057e+02 -1.870600000000000023e+02 1.691179999999999950e+01 -3.632722275955910241e-01
1.282199999999999989e+02 1.040999999999999943e+02 -1.915999999999999943e+02 -5.134432000000000329e+00 -3.647672692463492794e-01
1.282299999999999898e+02 1.051400000000000006e+02 -1.813499999999999943e+02 3.359120000000000061e+01 -3.627315295668705475e-01
1.282299999999999898e+02 1.065900000000000034e+02 -1.821599999999999966e+02 2.504892999999999859e+01 -3.628665382235026216e-01
1.282299999999999898e+02 9.472400000000000375e+01 -1.984300000000000068e+02 1.429687000000000019e+01 -3.499999999999999778e-01
1.282299999999999898e+02 9.747400000000000375e+01 -1.984300000000000068e+02 1.437956999999999930e+01 -3.499999999999999778e-01
1.282400000000000091e+02 9.087300000000000466e+01 -1.800099999999999909e+02 2.895826999999999884e+01 -1.657712731099407477e-01
1.282400000000000091e+02 9.110399999999999920e+01 -1.791899999999999977e+02 2.178440000000000154e+00 -1.748156807738526497e-01
1.282400000000000091e+02 9.342700000000000671e+01 -1.950900000000000034e+02 8.438003999999999394e+01 -3.500000000000000333e-01
1.282500000000000000e+02 9.163599999999999568e+01 -1.852800000000000011e+02 -1.210496000000000016e+01 -1.402708800159411795e-01
1.282599999999999909e+02 1.102500000000000000e+02 -1.862400000000000091e+02 1.797997000000000156e+01 -3.631177845369156776e-01
1.282700000000000102e+02 9.310099999999999909e+01 -1.969699999999999989e+02 2.386578000000000088e+01 -3.500000000000000333e-01
1.282700000000000102e+02 8.872499999999999432e+01 -1.823300000000000125e+02 2.443460999999999927e+01 -2.703492277001134231e-02
1.282700000000000102e+02 8.977500000000000568e+01 -1.823300000000000125e+02 4.850260999999999711e+01 -2.779541418501039682e-02
1.282800000000000011e+02 7.685999999999999943e+01 -1.806200000000000045e+02 -2.832353000000000232e-01 2.235009807293022455e-01
1.282800000000000011e+02 8.220300000000000296e+01 -1.843899999999999864e+02 9.036861999999999284e+00 -1.295480529736595388e-01
1.282800000000000011e+02 9.704300000000000637e+01 -2.037199999999999989e+02 3.952541000000000082e+00 -3.499999999999999778e-01
1.282800000000000011e+02 9.809300000000000352e+01 -2.037199999999999989e+02 3.701348000000000127e+01 -3.500000000000000333e-01
1.282899999999999920e+02 1.111899999999999977e+02 -1.878600000000000136e+02 1.430936999999999903e+00 -3.633839117641720629e-01
1.283000000000000114e+02 8.686599999999999966e+01 -1.836999999999999886e+02 2.272644999999999804e+00 -3.814576798686929171e-02
1.283000000000000114e+02 9.112900000000000489e+01 -1.817400000000000091e+02 5.967623999999999818e+00 -2.786714358054714902e-01
1.283100000000000023e+02 9.448000000000000398e+01 -1.852299999999999898e+02 -6.107788000000000217e+00 -1.118561692627925847e-01
1.283199999999999932e+02 7.548499999999999943e+01 -1.815399999999999920e+02 1.389048000000000060e+00 -6.565637153221706712e-02
1.283199999999999932e+02 7.823499999999999943e+01 -1.815399999999999920e+02 3.002730000000000121e+00 -9.924453305020805582e-02
1.283400000000000034e+02 1.115199999999999960e+02 -1.870600000000000023e+02 1.153232000000000035e+01 -3.632508977861418908e-01
1.283400000000000034e+02 1.017600000000000051e+02 -1.866200000000000045e+02 2.084870000000000001e+00 -3.635360756161075679e-01
1.283400000000000034e+02 7.536499999999999488e+01 -1.825900000000000034e+02 8.830500000000000016e-01 4.849152417733389132e-04
1.283400000000000034e+02 1.056700000000000017e+02 -1.900500000000000114e+02 2.260629999999999917e+00 -3.642019600407904178e-01
1.283499999999999943e+02 8.052899999999999636e+01 -1.840300000000000011e+02 9.641698999999999131e+00 -1.497152600935879596e-01
1.283499999999999943e+02 9.088100000000000023e+01 -1.805800000000000125e+02 4.361343999999999710e+01 -1.589058668914779537e-01
1.283499999999999943e+02 8.773900000000000432e+01 -1.834600000000000080e+02 5.658248000000000388e+00 -3.344102618589479825e-02
1.283499999999999943e+02 9.939600000000000080e+01 -1.951999999999999886e+02 -1.291239999999999988e+01 -1.183024221847588653e-01
1.283499999999999943e+02 9.846200000000000330e+01 -2.045699999999999932e+02 3.404677000000000220e+01 -3.499999999999999778e-01
1.283600000000000136e+02 8.569799999999999329e+01 -1.844000000000000057e+02 -2.922120999999999924e+01 -4.052623950489889909e-02
1.283600000000000136e+02 8.656300000000000239e+01 -1.844000000000000057e+02 -9.017393999999999465e+00 -5.015969456952686090e-02
1.283600000000000136e+02 9.082500000000000284e+01 -1.824399999999999977e+02 1.318693999999999988e+01 -2.568182187782895309e-01
1.283600000000000136e+02 9.182500000000000284e+01 -1.830000000000000000e+02 7.982784999999999798e+00 -3.648315671141293404e-01
1.283600000000000136e+02 7.417700000000000671e+01 -1.920399999999999920e+02 2.209771999999999892e+01 6.514251216954218245e-04
1.283700000000000045e+02 9.859099999999999397e+01 -1.905200000000000102e+02 -4.300520999999999816e+00 -1.100911512938271136e-01
1.283700000000000045e+02 9.313899999999999579e+01 -1.782400000000000091e+02 2.985596999999999834e+00 -1.489332007301136518e-01
1.283799999999999955e+02 9.533899999999999864e+01 -1.811699999999999875e+02 6.928510000000000169e+00 -3.608165896828487429e-01
1.283799999999999955e+02 9.364199999999999591e+01 -1.850500000000000114e+02 -3.159673000000000065e-01 -1.215980308950399130e-01
1.283899999999999864e+02 9.242300000000000182e+01 -1.825200000000000102e+02 6.994551999999999659e+00 -3.637725956586325138e-01
1.283899999999999864e+02 8.677100000000000080e+01 -1.897899999999999920e+02 -6.507454000000000294e-01 -3.328106203383399131e-02
1.284000000000000057e+02 1.088499999999999943e+02 -1.875999999999999943e+02 1.165396999999999927e+01 -3.634105920118784194e-01
1.284000000000000057e+02 1.097199999999999989e+02 -1.875999999999999943e+02 1.771067000000000036e+01 -3.633823754658830341e-01
1.284000000000000057e+02 9.609900000000000375e+01 -1.993899999999999864e+02 1.432704999999999984e+01 -3.499999999999999778e-01
1.284000000000000057e+02 1.086500000000000057e+02 -1.842100000000000080e+02 1.603389999999999915e+01 -3.629454879907937359e-01
1.284000000000000057e+02 1.102199999999999989e+02 -1.878300000000000125e+02 5.970960999999999963e+00 -3.634090883862574062e-01
1.284000000000000057e+02 1.111800000000000068e+02 -1.862800000000000011e+02 2.971516000000000091e+01 -3.631266564030944943e-01
1.284000000000000057e+02 7.303300000000000125e+01 -1.909499999999999886e+02 6.217385000000000161e+00 -1.170669358826172818e-02
1.284000000000000057e+02 7.303300000000000125e+01 -1.892500000000000000e+02 7.025473999999999997e+00 2.355072285863220038e-01
1.284000000000000057e+02 8.281199999999999761e+01 -1.844799999999999898e+02 5.752601999999999993e-01 -1.397940744953083958e-01
1.284099999999999966e+02 9.215399999999999636e+01 -1.848100000000000023e+02 -2.258046999999999971e-01 -1.316539329601257302e-01
1.284099999999999966e+02 9.215399999999999636e+01 -1.838199999999999932e+02 6.442657999999999774e+00 -1.259649146900513883e-01
1.284199999999999875e+02 8.475900000000000034e+01 -1.843000000000000114e+02 -1.462252999999999936e+01 -3.898393512402566902e-02
1.284199999999999875e+02 9.541599999999999682e+01 -1.929799999999999898e+02 -5.909720000000000084e+00 -1.192960165339277817e-01
1.284199999999999875e+02 9.564300000000000068e+01 -1.921800000000000068e+02 -3.208902000000000143e+00 -1.168641661490749939e-01
1.284199999999999875e+02 9.812399999999999523e+01 -2.053799999999999955e+02 5.855528999999999762e+00 -3.499999999999999778e-01
1.284300000000000068e+02 1.071700000000000017e+02 -1.898000000000000114e+02 -1.499428999999999901e+00 -3.639803343628830179e-01
1.284399999999999977e+02 9.603799999999999670e+01 -2.065999999999999943e+02 1.917877999999999972e+00 -3.500000000000000333e-01
1.284399999999999977e+02 9.603799999999999670e+01 -2.049000000000000057e+02 2.096576000000000217e+00 -3.499999999999999778e-01
1.284399999999999977e+02 9.708799999999999386e+01 -2.065999999999999943e+02 8.290862000000000620e+00 -3.499999999999999223e-01
1.284399999999999977e+02 8.833799999999999386e+01 -1.830800000000000125e+02 1.315291999999999994e+01 -2.563760503601642676e-02
1.284399999999999977e+02 7.997799999999999443e+01 -1.833000000000000114e+02 1.150014999999999965e+01 -1.686848335019406064e-01
1.284399999999999977e+02 9.564199999999999591e+01 -1.818700000000000045e+02 6.345024999999999693e+00 -3.610203897442203491e-01
1.284399999999999977e+02 9.977100000000000080e+01 -1.895999999999999943e+02 9.874582000000000193e+00 -3.654076860465568233e-01
1.284499999999999886e+02 9.569899999999999807e+01 -1.801200000000000045e+02 5.421091999999999578e-01 -3.605989381241133662e-01
1.284499999999999886e+02 1.074099999999999966e+02 -1.833600000000000136e+02 6.612108000000000629e+01 -3.628521158493778209e-01
1.284499999999999886e+02 9.665600000000000591e+01 -2.044600000000000080e+02 2.167358999999999813e+00 -3.499999999999999778e-01
1.284499999999999886e+02 1.085499999999999972e+02 -1.883000000000000114e+02 -2.034292999999999907e+01 -3.635686127931198053e-01
1.284699999999999989e+02 8.829399999999999693e+01 -1.891500000000000057e+02 9.713406000000000873e+00 -5.144840070082630501e-02
1.284699999999999989e+02 9.692499999999999716e+01 -1.824300000000000068e+02 2.528743000000000052e+01 -3.613180635974282406e-01
1.284699999999999989e+02 7.266400000000000148e+01 -1.900999999999999943e+02 6.547290000000000276e+00 2.368424114457254037e-01
1.284799999999999898e+02 1.023400000000000034e+02 -1.920699999999999932e+02 1.711711999999999989e+01 -3.652688615136237549e-01
1.284799999999999898e+02 9.693600000000000705e+01 -1.913700000000000045e+02 -4.259078000000000230e+01 -1.117211129793405505e-01
1.284900000000000091e+02 1.083700000000000045e+02 -1.888799999999999955e+02 -1.086908999999999992e+01 -3.636977738131965676e-01
1.285000000000000000e+02 8.188599999999999568e+01 -1.923700000000000045e+02 4.181216000000000044e+00 -1.270819256691414212e-01
1.285000000000000000e+02 9.833700000000000330e+01 -1.963000000000000114e+02 -2.018531000000000120e+01 -1.206294815418159916e-01
1.285000000000000000e+02 1.007900000000000063e+02 -1.883400000000000034e+02 1.795217999999999847e+01 -3.645916141586091896e-01
1.285099999999999909e+02 7.445999999999999375e+01 -1.866899999999999977e+02 -1.124361999999999995e+01 2.355180118176790904e-01
1.285099999999999909e+02 9.566899999999999693e+01 -2.057500000000000000e+02 1.391882000000000064e+00 -3.500000000000000888e-01
1.285099999999999909e+02 9.722199999999999420e+01 -1.855900000000000034e+02 -1.447141999999999928e+00 -1.030925970686799725e-01
1.285099999999999909e+02 1.045699999999999932e+02 -1.908400000000000034e+02 -2.822606999999999999e+01 -3.645603361744471638e-01
1.285099999999999909e+02 1.119800000000000040e+02 -1.878199999999999932e+02 3.064305000000000057e+00 -3.633642663405162732e-01
1.285099999999999909e+02 1.010600000000000023e+02 -1.875000000000000000e+02 7.404053000000000218e+00 -3.641205694192234943e-01
1.285200000000000102e+02 8.434199999999999875e+01 -1.921200000000000045e+02 7.053321000000000174e-01 -1.227933502797940307e-01
1.285399999999999920e+02 7.552200000000000557e+01 -1.940500000000000114e+02 7.971382000000000190e+00 -1.416761185057602290e-01
1.285399999999999920e+02 8.602599999999999625e+01 -1.851599999999999966e+02 -2.469600000000000151e+01 1.783217172714531840e-01
1.285399999999999920e+02 1.100000000000000000e+02 -1.856800000000000068e+02 7.661506000000000149e+00 -3.630168886715559595e-01
1.285500000000000114e+02 9.304600000000000648e+01 -1.959699999999999989e+02 2.585919000000000167e+01 -3.499999999999999778e-01
1.285500000000000114e+02 1.033400000000000034e+02 -1.916599999999999966e+02 -2.793717000000000006e+00 -3.649736103387921649e-01
1.285500000000000114e+02 8.575900000000000034e+01 -1.906599999999999966e+02 1.004359999999999964e+01 -1.978886082516528172e-02
1.285600000000000023e+02 8.949500000000000455e+01 -1.870500000000000114e+02 7.920918000000000347e+00 -4.385637015731806698e-02
1.285699999999999932e+02 9.375100000000000477e+01 -1.778400000000000034e+02 6.751380000000000159e+00 -2.597534702677896101e-01
1.285699999999999932e+02 9.530100000000000193e+01 -1.778400000000000034e+02 7.719076000000000271e+00 -2.558742998033024518e-01
1.285800000000000125e+02 7.689700000000000557e+01 -1.949699999999999989e+02 2.197404000000000135e+00 -1.743667832870354206e-01
1.285900000000000034e+02 8.324500000000000455e+01 -1.923000000000000114e+02 1.088054999999999994e+00 -1.234148731506064384e-01
1.285900000000000034e+02 7.955800000000000693e+01 -1.941100000000000136e+02 9.102403999999999940e+00 -1.682309325564933511e-01
1.285900000000000034e+02 8.547400000000000375e+01 -1.914600000000000080e+02 8.238837000000000188e+00 -1.249779406398380532e-01
1.285900000000000034e+02 9.623199999999999932e+01 -1.856999999999999886e+02 -1.546140000000000070e+00 -1.034372874309317930e-01
1.285900000000000034e+02 9.519599999999999795e+01 -1.937899999999999920e+02 7.721924999999999706e+00 -1.210338551670692570e-01
1.285999999999999943e+02 9.315900000000000603e+01 -1.825200000000000102e+02 9.823176999999999381e+00 -3.628950759429422357e-01
1.285999999999999943e+02 1.023400000000000034e+02 -1.835200000000000102e+02 1.754992999999999970e-01 -3.621864247827156769e-01
1.285999999999999943e+02 1.025699999999999932e+02 -1.827199999999999989e+02 1.850159000000000109e-01 -3.620863638713414101e-01
