2.595700000000000074e+01 5.568599999999999994e+01 7.725600000000000023e+01 -2.840220000000000056e+01 9.680544589922446957e-03
2.595700000000000074e+01 5.662599999999999767e+01 7.725600000000000023e+01 -3.261265999999999821e+01 9.863903688834101124e-03
2.595700000000000074e+01 5.662599999999999767e+01 7.877599999999999625e+01 -6.191501999999999839e+01 -9.567573289762430766e-02
2.595700000000000074e+01 5.850399999999999778e+01 6.949599999999999511e+01 -3.166500000000000092e+00 -1.670404842434361492e-01
2.596000000000000085e+01 5.025399999999999778e+01 4.107399999999999807e+01 -5.899624000000000201e+00 -9.404385625457772901e-02
2.596099999999999852e+01 5.361800000000000210e+01 5.650399999999999778e+01 -2.897813000000000194e+00 -3.627731159709245423e-01
2.596199999999999974e+01 4.470900000000000318e+01 7.196999999999999886e+01 -2.409368999999999872e+00 -1.583165641554837022e-01
2.596399999999999864e+01 3.636899999999999977e+01 4.438199999999999790e+01 3.580871000000000137e+00 -3.837062286798481048e-01
2.596799999999999997e+01 4.559499999999999886e+01 7.518399999999999750e+01 6.221744000000000163e+00 -8.663314259155699415e-02
2.596900000000000119e+01 2.823300000000000054e+01 5.226700000000000301e+01 3.884126999999999885e+00 -1.149277159103585522e-01
2.596900000000000119e+01 2.823300000000000054e+01 5.331700000000000017e+01 6.940304000000000251e+00 -9.357834319131139167e-02
2.597700000000000031e+01 5.351299999999999812e+01 8.342900000000000205e+01 -8.098712000000000799e+00 -8.162203775471581213e-02
2.597899999999999920e+01 3.113200000000000145e+01 4.684899999999999665e+01 -2.434069000000000038e+00 -9.297075757898105863e-02
2.598000000000000043e+01 5.251700000000000301e+01 6.048100000000000165e+01 7.492938999999999794e+00 -3.624276058130451172e-01
2.598199999999999932e+01 5.658899999999999864e+01 5.666499999999999915e+01 -9.309718999999999411e+00 -2.983096434867825164e-01
2.598499999999999943e+01 3.244599999999999795e+01 9.062000000000000455e+01 4.445371000000000095e+01 -1.834028500388467653e-01
2.598799999999999955e+01 3.500600000000000023e+01 9.426900000000000546e+01 -7.119736999999999760e+00 -1.803979012572192453e-01
2.598900000000000077e+01 5.347599999999999909e+01 5.575800000000000267e+01 -3.338084999999999969e+00 -3.628229458627263426e-01
2.599099999999999966e+01 4.712400000000000233e+01 9.669199999999999307e+01 -1.793150000000000022e+00 -2.593825659012298224e-01
2.599500000000000099e+01 5.044599999999999795e+01 4.650600000000000023e+01 -1.275575000000000081e+01 -3.637288291156176578e-01
2.599699999999999989e+01 4.272800000000000153e+01 9.720999999999999375e+01 8.405018000000000100e+00 -2.587555647308741880e-01
2.599800000000000111e+01 5.390299999999999869e+01 5.731000000000000227e+01 -4.453498999999999874e+00 -3.627245468300303033e-01
2.600000000000000000e+01 5.498400000000000176e+01 9.053000000000000114e+01 -7.492950000000000443e+00 -2.613874537824825706e-01
2.600600000000000023e+01 5.456600000000000250e+01 7.996200000000000330e+01 -2.522602000000000011e+00 2.288183253786466725e-02
2.600700000000000145e+01 5.307600000000000051e+01 5.708100000000000307e+01 -8.334784000000000859e+00 -3.627077898842873127e-01
2.600900000000000034e+01 3.110099999999999909e+01 5.660199999999999676e+01 -1.573526999999999987e+01 -2.621425112645950906e-01
2.600900000000000034e+01 3.250099999999999767e+01 5.660199999999999676e+01 -7.887647000000000297e+00 -2.607533083389999562e-01
2.601099999999999923e+01 5.375500000000000256e+01 7.168500000000000227e+01 -1.101371999999999929e+01 -1.648703737782123702e-01
2.601200000000000045e+01 4.645600000000000307e+01 9.178700000000000614e+01 -8.551130999999999593e-01 -2.614025039177720333e-01
2.601300000000000168e+01 5.238100000000000023e+01 8.180500000000000682e+01 -1.271095000000000041e+01 -8.419089240399985075e-02
2.601300000000000168e+01 5.238100000000000023e+01 8.267100000000000648e+01 -9.997977000000000558e+00 -8.303484763579069283e-02
2.601800000000000068e+01 4.712800000000000011e+01 3.731099999999999994e+01 -1.386509000000000036e+01 -3.844298959288453554e-01
2.601999999999999957e+01 5.695499999999999829e+01 7.801600000000000534e+01 -3.545613999999999777e+01 -9.450666091073403607e-02
2.601999999999999957e+01 4.440599999999999881e+01 7.267000000000000171e+01 3.347337000000000007e+00 -1.588858739321057922e-01
2.602100000000000080e+01 6.071399999999999864e+01 6.466299999999999670e+01 -4.125855999999999746e+00 -2.074093796918411170e-01
2.602100000000000080e+01 3.357900000000000063e+01 8.986100000000000421e+01 1.600618000000000052e+01 -1.837458667352844244e-01
2.602199999999999847e+01 3.536500000000000199e+01 6.594599999999999795e+01 -8.160053000000000445e-01 -2.593067373509207463e-01
2.602199999999999847e+01 3.623100000000000165e+01 6.594599999999999795e+01 4.153769999999999962e-01 -2.586925140306085003e-01
2.602199999999999847e+01 2.930000000000000071e+01 4.597899999999999920e+01 -1.556218999999999930e+01 -9.325967930799931860e-02
2.602199999999999847e+01 2.930000000000000071e+01 4.749900000000000233e+01 7.955815000000000303e+00 -9.701599488477671840e-02
2.602199999999999847e+01 3.023999999999999844e+01 4.597899999999999920e+01 -2.126979000000000042e+01 -9.211388675316224683e-02
2.602199999999999847e+01 5.444700000000000273e+01 4.625000000000000000e+01 9.476905999999999608e+00 -3.636370663655263957e-01
2.602499999999999858e+01 5.059000000000000341e+01 4.184899999999999665e+01 -5.691725999999999885e+01 -9.464489278639981462e-02
2.602700000000000102e+01 4.139699999999999847e+01 9.678600000000000136e+01 9.377347999999999573e+00 -2.479036452507029920e-01
2.602899999999999991e+01 3.352300000000000324e+01 9.524200000000000443e+01 -1.605733000000000077e+00 -1.801029835633179976e-01
2.603500000000000014e+01 3.768599999999999994e+01 6.192600000000000193e+01 -2.446165999999999840e+00 -2.579195990314629983e-01
2.603500000000000014e+01 2.317500000000000071e+01 8.178300000000000125e+01 8.556388999999999356e+00 -3.148946435399994637e-01
2.603600000000000136e+01 2.354899999999999949e+01 7.779900000000000659e+01 4.309810999999999837e+00 -3.080502727993456036e-01
2.604100000000000037e+01 4.554699999999999704e+01 9.685099999999999909e+01 6.891695999999999600e+00 -2.591984584387686530e-01
2.604400000000000048e+01 3.074299999999999855e+01 4.837199999999999989e+01 6.572007000000000687e+01 -9.756115035372976696e-02
2.604400000000000048e+01 5.453199999999999648e+01 5.570600000000000307e+01 -4.032940999999999887e-01 -2.973327530463956148e-01
2.604799999999999827e+01 4.328300000000000125e+01 3.945300000000000296e+01 6.253767999999999994e+00 -3.842609700513423543e-01
2.604899999999999949e+01 3.671000000000000085e+01 9.402899999999999636e+01 -4.710144999999999804e+00 -1.802791275767214041e-01
2.605099999999999838e+01 3.517499999999999716e+01 5.823899999999999721e+01 -1.687043999999999988e+00 -2.585889171270009390e-01
2.605300000000000082e+01 4.911599999999999966e+01 4.021099999999999852e+01 9.245814999999999451e-01 -3.850715625205479165e-01
2.605399999999999849e+01 5.161500000000000199e+01 4.720600000000000307e+01 9.024285000000000778e+00 -3.636085190920804178e-01
2.605499999999999972e+01 3.461299999999999955e+01 9.037800000000000011e+01 -7.068221999999999561e+00 -1.831810565047568562e-01
2.605799999999999983e+01 5.473400000000000176e+01 7.733400000000000318e+01 -1.075331000000000081e+01 9.462854124982458121e-03
2.605900000000000105e+01 5.436699999999999733e+01 6.214000000000000057e+01 1.780418999999999841e+01 -2.963690472581386182e-01
2.606200000000000117e+01 4.688300000000000267e+01 7.466800000000000637e+01 1.228232999999999964e-01 -1.630058542339629102e-01
2.606500000000000128e+01 5.858899999999999864e+01 6.850600000000000023e+01 -7.257308000000000092e+00 -1.666060713632134260e-01
2.606599999999999895e+01 3.601700000000000301e+01 6.453199999999999648e+01 -3.791739000000000193e+00 -2.592100098386027063e-01
2.607400000000000162e+01 5.211399999999999721e+01 5.615299999999999869e+01 -1.793813000000000102e+01 -3.627410364412440580e-01
2.607499999999999929e+01 5.338499999999999801e+01 8.098000000000000398e+01 -1.570185000000000031e+01 -8.478475926783661520e-02
2.607999999999999829e+01 3.653399999999999892e+01 6.524599999999999511e+01 -3.157191000000000081e+00 -2.586843472709605685e-01
2.607999999999999829e+01 5.505700000000000216e+01 7.091899999999999693e+01 -4.193234999999999602e+00 -1.652683014644574233e-01
2.608299999999999841e+01 4.561200000000000188e+01 7.189499999999999602e+01 -6.178021000000000207e+00 -1.590042773560230716e-01
2.608299999999999841e+01 4.647699999999999676e+01 7.189499999999999602e+01 -7.236026999999999987e+00 -1.597756038171933013e-01
2.608399999999999963e+01 2.436799999999999855e+01 8.253400000000000603e+01 -1.009730999999999962e-01 -1.744229502072253413e-01
2.608399999999999963e+01 2.436799999999999855e+01 8.339900000000000091e+01 -1.624436999999999909e+00 -1.757950951953890228e-01
2.608500000000000085e+01 2.897100000000000009e+01 4.673899999999999721e+01 -5.645582000000000100e+00 -9.562335688262918465e-02
2.608599999999999852e+01 4.026899999999999835e+01 5.922299999999999898e+01 -1.053868999999999945e+00 -3.615580685991204857e-01
2.608599999999999852e+01 5.589200000000000301e+01 7.093999999999999773e+01 4.319368000000000052e+01 -1.658871501955901939e-01
2.608599999999999852e+01 5.694200000000000017e+01 7.093999999999999773e+01 1.743038999999999916e+01 -1.665985865505575925e-01
2.608800000000000097e+01 3.193299999999999983e+01 4.684100000000000108e+01 2.778481000000000023e+01 -9.239670905607724749e-02
2.609100000000000108e+01 5.570199999999999818e+01 7.881699999999999307e+01 -5.031130000000000280e+01 9.297027338433265162e-03
2.609900000000000020e+01 5.472299999999999898e+01 5.735399999999999920e+01 -7.687707999999999764e+00 -3.627511000538518049e-01
2.609900000000000020e+01 5.577300000000000324e+01 5.565400000000000347e+01 4.758491000000000248e+00 -2.979325379469735524e-01
2.609900000000000020e+01 5.577300000000000324e+01 5.735399999999999920e+01 -9.308932000000000428e+00 -2.978489566876008077e-01
2.610200000000000031e+01 3.044000000000000128e+01 4.767199999999999704e+01 2.098560999999999979e+02 -9.612646591149852371e-02
2.610200000000000031e+01 3.044000000000000128e+01 4.907200000000000273e+01 4.445676000000000272e+01 -1.001644149460414468e-01
2.610900000000000176e+01 2.912099999999999866e+01 7.284399999999999409e+01 -2.861219000000000179e+00 -3.961125900579353654e-01
2.611100000000000065e+01 3.925300000000000011e+01 4.370000000000000284e+01 1.784503000000000128e+01 -3.843333892037442134e-01
2.611499999999999844e+01 2.341199999999999903e+01 8.466800000000000637e+01 2.368298999999999932e+00 -1.765166986431612461e-01
2.611700000000000088e+01 5.228000000000000114e+01 5.802000000000000313e+01 -1.211530000000000058e+02 -3.625973930604211581e-01
2.612399999999999878e+01 4.683800000000000097e+01 7.240099999999999625e+01 -4.568647000000000347e+00 -1.606075726240195345e-01
2.612900000000000134e+01 3.678399999999999892e+01 6.198299999999999699e+01 -5.053804999999999659e+00 -2.583452822161088069e-01
2.613100000000000023e+01 3.666199999999999903e+01 9.080800000000000693e+01 -1.937381999999999849e+01 -1.825159415826683174e-01
2.613200000000000145e+01 3.468099999999999739e+01 6.547199999999999420e+01 -2.883096000000000103e+00 -2.600541502315166786e-01
2.613299999999999912e+01 5.241700000000000159e+01 5.545300000000000296e+01 -1.588335999999999970e+01 -3.628072854704744721e-01
2.613400000000000034e+01 4.040200000000000102e+01 6.080199999999999960e+01 1.748167999999999944e+00 -3.613310585900059158e-01
2.613599999999999923e+01 5.676299999999999812e+01 6.156300000000000239e+01 5.932169000000000025e+00 -2.976211150131030658e-01
2.613599999999999923e+01 5.535799999999999699e+01 7.801600000000000534e+01 -1.186783999999999928e+01 9.422244746572007099e-03
2.613700000000000045e+01 3.852700000000000102e+01 6.154800000000000182e+01 1.144949000000000083e+01 -2.576629468256423916e-01
2.613700000000000045e+01 5.109899999999999665e+01 9.243099999999999739e+01 1.346563000000000088e+01 -2.610799203200822594e-01
2.614300000000000068e+01 5.669599999999999795e+01 8.898300000000000409e+01 -3.876398999999999972e+01 -1.538743074549947243e-01
2.614300000000000068e+01 5.255400000000000205e+01 7.255700000000000216e+01 -1.482029999999999959e+00 -1.647188887084239661e-01
2.614300000000000068e+01 5.255400000000000205e+01 7.342199999999999704e+01 -2.838919999999999888e+00 -1.653310132455114712e-01
2.614600000000000080e+01 5.275099999999999767e+01 4.616700000000000159e+01 4.588244999999999685e+00 -3.636843884511463676e-01
2.615200000000000102e+01 5.695400000000000063e+01 8.818999999999999773e+01 -9.510647000000000517e+00 -1.541609063443494798e-01
2.615899999999999892e+01 2.505900000000000105e+01 7.734799999999999898e+01 6.053808000000000078e+00 -3.089216276366592573e-01
2.616100000000000136e+01 3.362500000000000000e+01 5.776500000000000057e+01 8.416805999999999344e+00 -2.598071926063419967e-01
2.616700000000000159e+01 3.779399999999999693e+01 9.156600000000000250e+01 -2.168643000000000143e+01 -1.818039019667511691e-01
2.616700000000000159e+01 3.779399999999999693e+01 9.243200000000000216e+01 -1.875818999999999903e+01 -1.812072183663167579e-01
2.616799999999999926e+01 3.555400000000000205e+01 6.280599999999999739e+01 -3.057160999999999795e+00 -2.592575720053901800e-01
2.616799999999999926e+01 3.555400000000000205e+01 6.374600000000000222e+01 -3.978209000000000106e+00 -2.595964160675200416e-01
2.617000000000000171e+01 5.435399999999999920e+01 5.650399999999999778e+01 3.766140000000000043e+00 -3.627945684828862705e-01
2.617000000000000171e+01 5.614200000000000301e+01 5.650399999999999778e+01 1.940440999999999860e+01 -2.980302406889470124e-01
2.617200000000000060e+01 2.856800000000000139e+01 9.062399999999999523e+01 -1.245557999999999943e+00 -1.774233531590441448e-01
2.617200000000000060e+01 3.164000000000000057e+01 7.072400000000000375e+01 -6.815108000000000388e+00 -2.943942671717598158e-01
2.617599999999999838e+01 2.835300000000000153e+01 5.472399999999999665e+01 5.326932000000000222e+00 -9.091044254976968220e-02
2.617699999999999960e+01 2.967800000000000082e+01 5.662599999999999767e+01 -1.423023000000000060e+01 -8.195470394796094959e-02
2.618799999999999883e+01 3.039600000000000080e+01 4.684899999999999665e+01 -1.477384999999999948e+00 -9.428468002882686716e-02
2.619000000000000128e+01 5.877400000000000091e+01 8.466100000000000136e+01 1.569679000000000002e+01 -1.553704237244159514e-01
2.619000000000000128e+01 5.877400000000000091e+01 8.649500000000000455e+01 2.612685000000000102e+01 -1.549373343944494275e-01
2.619300000000000139e+01 4.070499999999999829e+01 6.010199999999999676e+01 -9.133637999999999479e+00 -3.614677185882899102e-01
2.619500000000000028e+01 5.951700000000000301e+01 6.531100000000000705e+01 -2.051142000000000021e+00 -2.718678767574739252e-01
2.619600000000000151e+01 5.825300000000000011e+01 6.691299999999999670e+01 -1.438955999999999946e+01 -2.721784685648846458e-01
2.619999999999999929e+01 5.490899999999999892e+01 7.923499999999999943e+01 -1.788651999999999909e+00 9.017955538480042915e-03
2.620899999999999963e+01 3.254200000000000159e+01 6.970099999999999341e+01 -8.004398000000000124e+00 -2.963357264710210215e-01
2.620899999999999963e+01 3.275099999999999767e+01 6.896500000000000341e+01 1.595408000000000104e-01 -2.975579048610655919e-01
2.620899999999999963e+01 3.756799999999999784e+01 5.902199999999999847e+01 -1.317712999999999912e+00 -2.575675051469238364e-01
2.621399999999999864e+01 3.764200000000000301e+01 9.320399999999999352e+01 -1.683175999999999917e+01 -1.807279397695207013e-01
2.621499999999999986e+01 5.808700000000000330e+01 6.742100000000000648e+01 -1.046462000000000003e+01 -2.723660229040659742e-01
2.621600000000000108e+01 5.234000000000000341e+01 5.708100000000000307e+01 -3.451762000000000086e+01 -3.626725372930900138e-01
2.621799999999999997e+01 2.812999999999999901e+01 9.349299999999999500e+01 6.895566999999999780e+00 -1.738357956006299498e-01
2.622500000000000142e+01 5.440800000000000125e+01 4.962299999999999756e+01 3.144331000000000031e+01 -1.112814625562861676e-01
2.622500000000000142e+01 5.473599999999999710e+01 4.887800000000000011e+01 1.269463000000000008e+01 -1.118948707860835945e-01
2.622899999999999920e+01 2.845700000000000074e+01 5.567999999999999972e+01 5.996259000000000228e+00 -8.901772960872947338e-02
2.623000000000000043e+01 2.826399999999999935e+01 9.132399999999999807e+01 -9.760816999999999410e+00 -1.767473198339465923e-01
2.623199999999999932e+01 5.064300000000000068e+01 4.756700000000000017e+01 -1.213033000000000072e+01 -3.635793315561771655e-01
2.623300000000000054e+01 3.452600000000000335e+01 4.559100000000000108e+01 8.940153000000000461e+00 -3.833905410472938646e-01
2.623600000000000065e+01 5.293099999999999739e+01 6.115200000000000102e+01 6.745414000000000243e+00 -3.624051554287463506e-01
2.623799999999999955e+01 3.889999999999999858e+01 5.835300000000000153e+01 7.812400999999999929e-01 -2.572246788578565480e-01
2.624099999999999966e+01 3.067200000000000060e+01 7.196500000000000341e+01 -1.481090999999999935e+00 -3.959604019132747510e-01
2.624299999999999855e+01 2.748699999999999832e+01 8.866200000000000614e+01 1.552646999999999977e+01 1.459221124534596306e-02
2.624399999999999977e+01 2.626699999999999946e+01 8.949099999999999966e+01 1.265185000000000031e+02 1.037935800706444728e-01
2.624399999999999977e+01 3.814300000000000068e+01 9.786400000000000432e+01 -2.746774999999999878e+01 -2.458422609595272146e-01
2.624599999999999866e+01 3.156500000000000128e+01 4.754899999999999949e+01 4.635808999999999713e+01 -9.481063740567788334e-02
2.624699999999999989e+01 5.615599999999999881e+01 7.801600000000000534e+01 -1.567262000000000022e+01 9.591914483642856662e-03
2.624800000000000111e+01 2.237600000000000122e+01 7.847700000000000387e+01 1.996102000000000043e+00 -3.080682921623253412e-01
2.624800000000000111e+01 2.237600000000000122e+01 8.122700000000000387e+01 4.939396000000000342e+00 -1.854101345305016468e-01
2.625000000000000000e+01 4.478099999999999881e+01 9.695099999999999341e+01 -1.688248000000000104e+01 -2.590759043988610788e-01
2.625199999999999889e+01 4.457900000000000063e+01 9.480899999999999750e+01 9.689692000000000860e+00 -2.599978517026707570e-01
2.625400000000000134e+01 5.855599999999999739e+01 6.621299999999999386e+01 -3.970374000000000070e+00 -2.719160360613665506e-01
2.625600000000000023e+01 2.774599999999999866e+01 8.769799999999999329e+01 1.294519999999999982e+01 1.480334553713627196e-02
2.626099999999999923e+01 5.773499999999999943e+01 8.741800000000000637e+01 5.502004000000000339e+00 -1.545036118401706959e-01
2.626200000000000045e+01 4.893399999999999750e+01 4.070400000000000063e+01 -5.474835000000000118e-01 -3.851217451360536281e-01
2.626800000000000068e+01 4.541599999999999682e+01 3.736999999999999744e+01 -4.413370999999999711e+00 -3.842188573245332583e-01
2.626800000000000068e+01 3.950200000000000244e+01 9.722299999999999898e+01 -4.106051999999999680e+01 -2.467736621213845183e-01
2.627199999999999847e+01 3.598299999999999699e+01 4.470400000000000063e+01 2.228520000000000056e+00 -3.836534007344019059e-01
2.627400000000000091e+01 4.426700000000000301e+01 7.315399999999999636e+01 9.695404999999999163e+00 -1.592439099004072378e-01
2.627400000000000091e+01 4.426700000000000301e+01 7.401900000000000546e+01 7.335493999999999737e+00 -1.602830047786198697e-01
2.627499999999999858e+01 2.626399999999999935e+01 7.473699999999999477e+01 -3.099778000000000144e+00 -3.965138478686527912e-01
2.627700000000000102e+01 5.540400000000000347e+01 8.980200000000000671e+01 -2.286095999999999862e+01 -2.614775198961455382e-01
2.627899999999999991e+01 2.881200000000000117e+01 9.138599999999999568e+01 -1.456920000000000037e+01 -1.759596949745788064e-01
2.628000000000000114e+01 5.281300000000000239e+01 8.110500000000000398e+01 -7.397008999999999723e+00 -8.480389085284276152e-02
2.628000000000000114e+01 5.281300000000000239e+01 8.337099999999999511e+01 -6.717583000000000304e+00 -8.186932951869899111e-02
2.628600000000000136e+01 4.047099999999999653e+01 4.299600000000000222e+01 -6.317844000000000237e-01 -3.844330431736133757e-01
2.628900000000000148e+01 5.672500000000000142e+01 8.371299999999999386e+01 -1.336054999999999993e+01 -8.034982779205650238e-02
2.628900000000000148e+01 3.579800000000000182e+01 6.524599999999999511e+01 -2.538565000000000182e+00 -2.593770433082290272e-01
2.628900000000000148e+01 2.776099999999999923e+01 9.264300000000000068e+01 4.323544000000000276e-01 -1.754578491297734688e-01
2.628999999999999915e+01 2.947700000000000031e+01 7.236799999999999500e+01 -3.927614999999999856e+00 -3.961104391740499220e-01
2.629100000000000037e+01 3.501700000000000301e+01 9.865699999999999648e+01 -2.220263000000000098e+00 -2.441091513611121644e-01
2.629500000000000171e+01 3.889500000000000313e+01 6.084000000000000341e+01 1.370039000000000051e+01 -2.575431248567294218e-01
2.629700000000000060e+01 3.620700000000000074e+01 9.869400000000000261e+01 -2.867558999999999969e+00 -2.446293503483077392e-01
2.629899999999999949e+01 5.847899999999999920e+01 6.099499999999999744e+01 4.242758000000000251e+00 -2.983470100212647913e-01
2.630000000000000071e+01 2.951300000000000168e+01 5.013400000000000034e+01 3.712955000000000005e+00 -1.052604608660212271e-01
2.630399999999999849e+01 4.315800000000000125e+01 9.689799999999999613e+01 3.955299999999999816e+00 -2.589335392765078070e-01
2.630499999999999972e+01 4.479099999999999682e+01 9.216899999999999693e+01 -2.073529999999999873e+01 -2.611049304622089506e-01
2.630499999999999972e+01 3.270100000000000051e+01 9.683299999999999841e+01 -1.404600999999999988e+00 -2.646308461030374426e-01
2.630999999999999872e+01 5.331199999999999761e+01 7.465800000000000125e+01 -1.160752000000000006e+00 -9.145856451472199333e-02
2.630999999999999872e+01 5.356600000000000250e+01 7.555200000000000671e+01 2.098360000000000003e+00 -9.397039255271720515e-02
2.630999999999999872e+01 5.377499999999999858e+01 7.628799999999999670e+01 4.757366000000000206e+00 -9.596598227815218707e-02
2.631200000000000117e+01 3.310900000000000176e+01 9.775300000000000011e+01 -3.346312000000000175e+00 -2.436124856095221447e-01
2.631200000000000117e+01 2.976999999999999957e+01 4.673899999999999721e+01 -9.060364999999999114e+00 -9.505351232456625554e-02
2.631200000000000117e+01 3.328999999999999915e+01 6.629399999999999693e+01 -1.618203999999999976e+00 -2.612363007516440572e-01
2.631299999999999883e+01 4.510999999999999943e+01 9.619100000000000250e+01 1.626173999999999964e+01 -2.594323021984719091e-01
2.632000000000000028e+01 4.923700000000000188e+01 4.140400000000000347e+01 -1.139729999999999910e+00 -9.335655593051814249e-02
2.632300000000000040e+01 4.064399999999999835e+01 9.638200000000000500e+01 -1.439316999999999958e+01 -2.476897764879260888e-01
2.632400000000000162e+01 2.806800000000000139e+01 7.392600000000000193e+01 -7.865721999999999881e+00 -3.962551844215153052e-01
2.632799999999999940e+01 4.635499999999999687e+01 3.727100000000000080e+01 -8.910289999999999822e+00 -3.843196203032727687e-01
2.632900000000000063e+01 4.731600000000000250e+01 7.310200000000000387e+01 -3.835128999999999788e+00 -1.615936266618180350e-01
2.632900000000000063e+01 4.731600000000000250e+01 7.396800000000000352e+01 -2.241271999999999931e+00 -1.624481457808660267e-01
2.633099999999999952e+01 4.843900000000000006e+01 3.904500000000000171e+01 3.439235000000000042e+00 -3.848102630953652570e-01
2.633299999999999841e+01 2.867099999999999937e+01 8.950300000000000011e+01 1.154556000000000004e+01 -1.789353441606897632e-01
2.633999999999999986e+01 4.871300000000000097e+01 3.988600000000000279e+01 -3.123369999999999980e+00 -3.849660293535199229e-01
2.634100000000000108e+01 4.365800000000000125e+01 9.292799999999999727e+01 -3.493874000000000279e+01 -2.607026802431167134e-01
2.634100000000000108e+01 4.365800000000000125e+01 9.379300000000000637e+01 -1.075409999999999933e+01 -2.603401793528316577e-01
2.634400000000000119e+01 4.809700000000000131e+01 3.830299999999999727e+01 -4.692618999999999652e+00 -3.846631547141367014e-01
2.634499999999999886e+01 5.462199999999999989e+01 7.801600000000000534e+01 -8.365738999999999592e+00 9.267885338525622477e-03
2.634700000000000131e+01 5.497200000000000131e+01 4.710000000000000142e+01 2.637770000000000081e+01 -1.128570838172044677e-01
2.634700000000000131e+01 5.497200000000000131e+01 4.814999999999999858e+01 2.449125000000000085e+01 -1.123271412345343140e-01
2.634700000000000131e+01 5.149099999999999966e+01 4.777400000000000091e+01 8.655101999999999407e+00 -3.635265565931888321e-01
2.634799999999999898e+01 4.484199999999999875e+01 9.543200000000000216e+01 1.591871000000000080e+01 -2.597368678860768609e-01
2.635099999999999909e+01 2.393499999999999872e+01 8.183400000000000318e+01 5.106105000000000338e+00 -3.156412963517567505e-01
2.635200000000000031e+01 3.407699999999999818e+01 9.437999999999999545e+01 -4.857711000000000112e+00 -1.806202785463044969e-01
2.635900000000000176e+01 2.809900000000000020e+01 9.183299999999999841e+01 -1.146579999999999977e+01 -1.761866919190251679e-01
2.636299999999999955e+01 5.290999999999999659e+01 5.379099999999999682e+01 -1.211369000000000007e+01 -3.629445158117811654e-01
2.636700000000000088e+01 4.784599999999999653e+01 9.125199999999999534e+01 2.638093000000000021e+00 -2.615236742137855286e-01
2.637000000000000099e+01 5.044899999999999807e+01 4.355899999999999750e+01 -1.579580999999999946e+01 -9.537077084052600351e-02
2.637099999999999866e+01 4.107000000000000028e+01 4.025600000000000023e+01 5.586508000000000251e+00 -3.839906662353785305e-01
2.637199999999999989e+01 5.474099999999999966e+01 7.870699999999999363e+01 -5.333228000000000080e+00 9.119080181982697902e-03
2.637300000000000111e+01 5.007900000000000063e+01 9.140999999999999659e+01 8.941554999999999254e+00 -2.614186770226514245e-01
2.638299999999999912e+01 5.435699999999999932e+01 7.097700000000000387e+01 -1.267750999999999983e+01 -2.728138433795636031e-01
2.638899999999999935e+01 5.500300000000000011e+01 8.328000000000000114e+01 -1.507978999999999914e+01 -8.130290536094880727e-02
2.639099999999999824e+01 5.359700000000000131e+01 4.617900000000000205e+01 1.011410000000000053e+01 -3.636454386700735952e-01
2.639199999999999946e+01 2.242399999999999949e+01 8.714300000000000068e+01 1.789368999999999943e+01 -8.185955835961249150e-02
2.639199999999999946e+01 5.278799999999999670e+01 5.297500000000000142e+01 -3.668563000000000329e+01 -1.079216217959561852e-01
2.639300000000000068e+01 3.041900000000000048e+01 9.343899999999999295e+01 3.368484999999999729e+01 -2.700756001082620927e-01
2.639900000000000091e+01 4.217600000000000193e+01 9.695399999999999352e+01 5.032365999999999673e+00 -2.587929714710029971e-01
2.640200000000000102e+01 3.996900000000000119e+01 6.010199999999999676e+01 8.521819999999999951e-01 -3.614191137516552521e-01
2.640800000000000125e+01 3.835699999999999932e+01 4.380100000000000193e+01 1.672317999999999927e+01 -3.841116875682198395e-01
2.640899999999999892e+01 3.604899999999999949e+01 5.842999999999999972e+01 -3.264012999999999831e+00 -2.583353080664140267e-01
2.641300000000000026e+01 5.181700000000000017e+01 5.934899999999999665e+01 -1.063115999999999950e+01 -3.624661433933857868e-01
2.641400000000000148e+01 4.095000000000000284e+01 4.133599999999999852e+01 5.147915000000000241e+00 -3.841727618387472676e-01
2.641600000000000037e+01 5.913900000000000290e+01 8.525199999999999534e+01 9.441285999999999845e+00 -1.552242840886121633e-01
2.641600000000000037e+01 5.913900000000000290e+01 8.590399999999999636e+01 9.587227999999999639e+00 -1.550741970366502076e-01
2.641799999999999926e+01 3.401200000000000045e+01 9.035200000000000387e+01 1.382339999999999947e+01 -1.833422384273852290e-01
2.641900000000000048e+01 5.429200000000000159e+01 9.368300000000000693e+01 8.405110000000000525e+00 -2.604437683230076961e-01
2.642000000000000171e+01 4.517799999999999727e+01 7.248499999999999943e+01 -6.226619999999999600e+00 -1.591555444391481444e-01
2.642200000000000060e+01 5.277600000000000335e+01 5.209100000000000108e+01 -4.991682999999999737e+01 -1.084285742809201897e-01
2.642200000000000060e+01 5.277600000000000335e+01 5.462500000000000000e+01 -4.939316000000000173e+01 -3.628758386981602024e-01
2.642200000000000060e+01 2.838899999999999935e+01 8.663200000000000500e+01 1.015136000000000038e+01 1.460770577252400171e-02
2.642200000000000060e+01 5.240500000000000114e+01 4.678499999999999659e+01 9.809376000000000317e+00 -3.636121501210606843e-01
2.642399999999999949e+01 5.524799999999999756e+01 5.650399999999999778e+01 4.590903999999999741e+01 -2.974867814951853706e-01
2.642399999999999949e+01 5.735099999999999909e+01 6.742100000000000648e+01 -3.034123999999999821e+00 -2.719866499615627986e-01
2.642399999999999949e+01 4.505199999999999960e+01 3.807099999999999795e+01 -1.138397999999999932e+01 -3.842720814558820974e-01
2.642800000000000082e+01 4.078300000000000125e+01 9.503900000000000148e+01 1.490756000000000014e+01 -2.483097497117981445e-01
2.643400000000000105e+01 3.736200000000000188e+01 9.086599999999999966e+01 -2.015799000000000163e+01 -1.824108261928455710e-01
2.643599999999999994e+01 2.933800000000000097e+01 9.351600000000000534e+01 4.575833000000000261e+00 -2.706494128136663346e-01
2.643700000000000117e+01 5.343099999999999739e+01 5.076200000000000045e+01 -5.957576999999999856e+01 -1.097660204794842220e-01
2.643799999999999883e+01 4.072500000000000142e+01 4.214699999999999847e+01 3.351636000000000060e+00 -3.842912741173126756e-01
2.644800000000000040e+01 2.909499999999999886e+01 5.075699999999999790e+01 5.379887000000000086e+00 -1.081966430614597352e-01
2.644800000000000040e+01 3.263799999999999812e+01 4.667799999999999727e+01 1.901666000000000167e+01 -9.227155685474351665e-02
2.644900000000000162e+01 3.698599999999999710e+01 4.443699999999999761e+01 5.524178000000000033e+00 -3.838845368851820372e-01
2.644999999999999929e+01 3.196699999999999875e+01 5.615699999999999648e+01 -1.407867000000000068e+01 -2.614421924065903902e-01
2.645299999999999940e+01 3.305499999999999972e+01 9.049899999999999523e+01 2.767229000000000028e+01 -1.834130621023661312e-01
2.645299999999999940e+01 3.742099999999999937e+01 9.802500000000000568e+01 -1.303421999999999947e+01 -2.454654278076677798e-01
2.645799999999999841e+01 3.602400000000000091e+01 6.204599999999999937e+01 -2.707943000000000211e+00 -2.589517164242579605e-01
2.646099999999999852e+01 2.930300000000000082e+01 9.057999999999999829e+01 1.138374999999999915e+00 -1.764900300581289383e-01
2.646199999999999974e+01 5.162400000000000233e+01 9.328100000000000591e+01 7.022039000000000364e+00 -2.607044506378543014e-01
2.646199999999999974e+01 3.303199999999999648e+01 9.563899999999999579e+01 -1.304213999999999984e+00 -2.657688894220522902e-01
2.646499999999999986e+01 2.701000000000000156e+01 8.769799999999999329e+01 1.502204000000000050e+01 1.519585369641320363e-02
2.646499999999999986e+01 2.848199999999999932e+01 8.769799999999999329e+01 1.416001999999999938e+01 1.410512102035848050e-02
2.646999999999999886e+01 2.396600000000000108e+01 8.974200000000000443e+01 4.150184000000000317e+00 1.139867708390489981e-01
2.647299999999999898e+01 2.849500000000000099e+01 8.875400000000000489e+01 1.806822999999999979e+01 1.366249812410802802e-02
2.647500000000000142e+01 4.983899999999999864e+01 4.532500000000000284e+01 -4.816514999999999880e+00 -3.638473644391337358e-01
2.647500000000000142e+01 4.983899999999999864e+01 4.618999999999999773e+01 1.624959000000000131e+01 -3.637507879978804093e-01
2.647500000000000142e+01 5.349300000000000210e+01 6.191299999999999670e+01 9.380387999999999948e+00 -3.623901850821710235e-01
2.647700000000000031e+01 5.296200000000000330e+01 7.181600000000000250e+01 -9.633146999999999238e+00 -1.642353170603153278e-01
2.648100000000000165e+01 3.720900000000000318e+01 9.390399999999999636e+01 -1.264625000000000021e+01 -1.804286056479952605e-01
2.648199999999999932e+01 3.600999999999999801e+01 9.429699999999999704e+01 -6.272746999999999851e+00 -1.803701486047384894e-01
2.648199999999999932e+01 5.765400000000000347e+01 6.672100000000000364e+01 -4.219419999999999837e-01 -2.717158431260974782e-01
2.648199999999999932e+01 5.765400000000000347e+01 6.812099999999999511e+01 7.043751000000000317e+00 -2.724394896602025939e-01
2.648199999999999932e+01 5.765400000000000347e+01 6.982099999999999795e+01 8.986162999999999457e+00 -1.662783368619056845e-01
2.648300000000000054e+01 5.545900000000000318e+01 7.044899999999999807e+01 3.801663000000000014e+00 -2.728778376003013206e-01
2.648600000000000065e+01 3.310000000000000142e+01 5.691499999999999915e+01 -6.976201999999999792e+00 -2.604277578174583607e-01
2.648799999999999955e+01 3.531300000000000239e+01 9.064499999999999602e+01 -1.108315999999999946e+01 -1.829138731742402935e-01
2.648799999999999955e+01 2.954799999999999827e+01 9.138599999999999568e+01 -1.254527999999999999e+01 -1.749991040324934688e-01
2.648900000000000077e+01 4.609300000000000352e+01 7.234099999999999397e+01 -1.316150999999999982e+01 -1.597409474686418696e-01
2.648900000000000077e+01 4.609300000000000352e+01 7.472299999999999898e+01 6.719224999999999781e+00 -1.622626190985457795e-01
2.649099999999999966e+01 6.124699999999999989e+01 6.263400000000000034e+01 -6.905643000000000198e-01 -2.989223174452994014e-01
2.649099999999999966e+01 6.124699999999999989e+01 6.423199999999999932e+01 -1.068826999999999927e+01 -2.073316937428402729e-01
2.649099999999999966e+01 6.147399999999999665e+01 6.343299999999999983e+01 -1.896105999999999980e+01 -2.072594433595072727e-01
2.649699999999999989e+01 2.565599999999999881e+01 7.550600000000000023e+01 -2.853373000000000020e-02 -3.060271235036703397e-01
2.650900000000000034e+01 2.666700000000000159e+01 8.848799999999999955e+01 3.071088999999999913e+01 1.506650787742895223e-02
2.651500000000000057e+01 5.019299999999999784e+01 4.228199999999999648e+01 -4.002272999999999747e+00 -9.457043615882393395e-02
2.651899999999999835e+01 2.899899999999999878e+01 8.987999999999999545e+01 4.076975000000000016e+00 -1.778953904378250406e-01
2.652100000000000080e+01 5.204599999999999937e+01 6.013400000000000034e+01 3.189493999999999829e+00 -3.624203770551138182e-01
2.652199999999999847e+01 3.587899999999999778e+01 9.059900000000000375e+01 -1.659123999999999910e+01 -1.828532089891954648e-01
2.652400000000000091e+01 2.731400000000000006e+01 8.699800000000000466e+01 1.561209000000000024e+01 1.521835535626452594e-02
2.652499999999999858e+01 2.893599999999999994e+01 5.645499999999999829e+01 4.090695000000000192e+00 -8.555057923164174905e-02
2.652599999999999980e+01 3.147800000000000153e+01 7.200199999999999534e+01 -2.021676000000000073e+01 -3.959050576054399806e-01
2.652799999999999869e+01 3.237199999999999989e+01 7.071599999999999397e+01 -2.125355000000000061e+01 -2.950366742894636740e-01
2.653000000000000114e+01 3.447500000000000142e+01 5.783599999999999852e+01 3.011234999999999928e+01 -2.593729795173452812e-01
2.653099999999999881e+01 5.371600000000000108e+01 8.028700000000000614e+01 2.552401000000000053e+01 2.273266955127788147e-02
2.653300000000000125e+01 3.103900000000000148e+01 9.223600000000000421e+01 -1.221939000000000064e+01 -2.711602041661418938e-01
2.653500000000000014e+01 3.114000000000000057e+01 4.880499999999999972e+01 4.572256000000000142e+01 -9.923206660815378499e-02
2.653600000000000136e+01 3.001699999999999946e+01 4.964699999999999847e+01 8.002674000000000731e+00 -1.032423260161863254e-01
2.653699999999999903e+01 4.560600000000000165e+01 9.211199999999999477e+01 -8.390548000000000783e+00 -2.611183868978362854e-01
2.654200000000000159e+01 2.842099999999999937e+01 7.311199999999999477e+01 -4.312825000000000131e+00 -3.962666979449268601e-01
2.654599999999999937e+01 2.924500000000000099e+01 9.208599999999999852e+01 -1.732199999999999918e+01 -1.743870982519452884e-01
2.654799999999999827e+01 3.052400000000000091e+01 5.659199999999999875e+01 -5.319187999999999583e+00 -7.826404509414344735e-02
2.655300000000000082e+01 2.443199999999999861e+01 8.997799999999999443e+01 7.387898999999999994e+00 1.150614257130688767e-01
2.655300000000000082e+01 5.995400000000000063e+01 6.505100000000000193e+01 -8.705080000000000595e+00 -2.717627755857955907e-01
2.655300000000000082e+01 5.802300000000000324e+01 6.897100000000000364e+01 4.342479999999999762e+01 -1.661046288919121039e-01
2.655399999999999849e+01 3.078300000000000125e+01 9.269100000000000250e+01 -4.823032999999999682e+00 -2.707636507267721093e-01
2.655799999999999983e+01 2.247700000000000031e+01 8.787300000000000466e+01 2.008238000000000056e+01 -8.187274938905801658e-02
2.655999999999999872e+01 2.889399999999999835e+01 9.265399999999999636e+01 -2.933193999999999857e+00 -1.740389483773726043e-01
2.656299999999999883e+01 3.748400000000000176e+01 6.160000000000000142e+01 -1.940673000000000092e+00 -2.582760049919810563e-01
2.656299999999999883e+01 5.592699999999999960e+01 8.358400000000000318e+01 -1.141968999999999923e+01 -8.066651770312989467e-02
2.656500000000000128e+01 4.444200000000000017e+01 3.854500000000000171e+01 -2.348832999999999949e+00 -3.842563316971060461e-01
2.656500000000000128e+01 4.743999999999999773e+01 3.797500000000000142e+01 -1.704129999999999923e+00 -3.845350974064434824e-01
2.656500000000000128e+01 5.171699999999999875e+01 5.572099999999999653e+01 -1.037550000000000061e+01 -3.627502503333265294e-01
2.656599999999999895e+01 5.870499999999999829e+01 6.543399999999999750e+01 5.518594000000000221e+00 -2.714577825736489425e-01
2.656800000000000139e+01 5.228300000000000125e+01 7.261100000000000421e+01 3.752577999999999747e-01 -1.643495663407615881e-01
2.656800000000000139e+01 5.228300000000000125e+01 7.347700000000000387e+01 -3.874902000000000069e+00 -1.649642720700744691e-01
2.656899999999999906e+01 5.021600000000000108e+01 4.446099999999999852e+01 -3.108482000000000056e+01 -3.639151182607590074e-01
2.657300000000000040e+01 2.185099999999999909e+01 7.932699999999999818e+01 3.762773999999999841e+00 -3.090839241127151249e-01
2.657300000000000040e+01 2.185099999999999909e+01 8.037699999999999534e+01 6.412670999999999566e+00 -1.843773869065429283e-01
2.657400000000000162e+01 4.989900000000000091e+01 4.712899999999999778e+01 -4.432887000000000199e+01 -3.636300750292455475e-01
2.658399999999999963e+01 5.744500000000000028e+01 8.779399999999999693e+01 5.502004000000000339e+00 -1.542662125326825506e-01
2.658599999999999852e+01 3.206799999999999784e+01 7.141599999999999682e+01 -3.945306999999999675e+01 -2.940385628421323672e-01
2.658800000000000097e+01 3.989099999999999824e+01 9.634399999999999409e+01 -3.478491000000000355e+01 -2.473326338667573565e-01
2.659199999999999875e+01 2.435900000000000176e+01 7.761499999999999488e+01 1.103950999999999993e+01 -3.086386957697339062e-01
2.659199999999999875e+01 2.555000000000000071e+01 7.695099999999999341e+01 4.256567999999999685e+00 -3.087162235220775597e-01
2.659199999999999875e+01 2.575900000000000034e+01 7.621500000000000341e+01 3.521173000000000108e+00 -3.075403402307792522e-01
2.659199999999999875e+01 5.394700000000000273e+01 7.714600000000000080e+01 -3.529583999999999833e+00 -9.786494182770376360e-02
2.660099999999999909e+01 3.485399999999999920e+01 6.487800000000000011e+01 -3.083326000000000011e+00 -2.604610862649703873e-01
2.660099999999999909e+01 5.662700000000000244e+01 6.994799999999999329e+01 -8.923448000000000491e-01 -1.655630053157950143e-01
2.660200000000000031e+01 5.408500000000000085e+01 7.943699999999999761e+01 2.172401999999999944e+00 8.792577678668008281e-03
2.660200000000000031e+01 4.708200000000000074e+01 9.143000000000000682e+01 -1.293247999999999953e+00 -2.613978761075705926e-01
2.660800000000000054e+01 4.409100000000000108e+01 9.222799999999999443e+01 -3.189289000000000129e+01 -2.609624897287774470e-01
2.660800000000000054e+01 4.409100000000000108e+01 9.449299999999999500e+01 9.689692000000000860e+00 -2.600415798182501015e-01
2.660900000000000176e+01 3.554999999999999716e+01 4.529399999999999693e+01 -7.091650000000000453e-01 -3.836494574502856136e-01
2.661400000000000077e+01 5.583800000000000097e+01 8.921200000000000330e+01 -8.579903000000000191e+01 -1.534949873453210212e-01
2.661499999999999844e+01 5.201899999999999835e+01 5.853199999999999648e+01 -2.493046999999999969e+01 -3.625376609191311994e-01
2.662000000000000099e+01 5.483599999999999852e+01 6.257300000000000040e+01 8.325863000000000014e+00 -2.963525582382059431e-01
2.662300000000000111e+01 3.385000000000000142e+01 9.826399999999999579e+01 -2.401301000000000130e+00 -2.438423366509795132e-01
2.662300000000000111e+01 5.723100000000000165e+01 8.408199999999999363e+01 -2.134466000000000196e+00 -1.551604936368308763e-01
2.662399999999999878e+01 3.128900000000000148e+01 9.138599999999999568e+01 2.305761000000000038e+01 -1.727390195463608114e-01
2.662699999999999889e+01 2.268700000000000117e+01 8.609900000000000375e+01 7.868324000000000318e+00 -1.772180207074794678e-01
2.662699999999999889e+01 2.294099999999999895e+01 8.520499999999999829e+01 2.357254000000000183e+00 -1.763310061878178847e-01
2.662699999999999889e+01 2.394800000000000040e+01 8.419799999999999329e+01 2.814452999999999872e+00 -1.760702112320327584e-01
2.662800000000000011e+01 5.030899999999999750e+01 4.282800000000000296e+01 8.270678999999999448e+00 -9.493058385842362279e-02
2.662800000000000011e+01 2.576699999999999946e+01 7.434499999999999886e+01 -3.099778000000000144e+00 -3.966556786959289926e-01
2.662800000000000011e+01 2.566900000000000048e+01 8.974200000000000443e+01 1.713276000000000110e+01 1.036095930282235206e-01
2.663100000000000023e+01 2.765299999999999869e+01 8.663200000000000500e+01 1.255025999999999975e+01 1.503537749112038302e-02
2.663100000000000023e+01 2.912500000000000000e+01 8.663200000000000500e+01 1.928113000000000099e+01 1.387371919701452759e-02
2.663200000000000145e+01 5.020199999999999818e+01 4.782900000000000063e+01 -9.424822999999999951e+00 -3.635313015244843182e-01
2.663500000000000156e+01 3.846800000000000352e+01 5.884400000000000119e+01 -1.372117999999999949e+00 -2.576249148637640429e-01
2.663500000000000156e+01 3.933299999999999841e+01 5.884400000000000119e+01 2.605601000000000056e+00 -2.574681610339707993e-01
2.663500000000000156e+01 3.933299999999999841e+01 6.024399999999999977e+01 1.514896999999999938e+00 -3.613667744619646349e-01
2.663500000000000156e+01 2.312000000000000099e+01 8.139400000000000546e+01 8.045773999999999759e+00 -3.139224558090366046e-01
2.663599999999999923e+01 5.979200000000000159e+01 6.124900000000000233e+01 -5.477305999999999564e+00 -2.986403103661647296e-01
2.663599999999999923e+01 5.051800000000000068e+01 6.446299999999999386e+01 -2.260087000000000046e+01 -2.658236220212882861e-01
2.663700000000000045e+01 4.004699999999999704e+01 9.503900000000000148e+01 -3.593182000000000098e+00 -2.479348395795306637e-01
2.663700000000000045e+01 3.486500000000000199e+01 4.554899999999999949e+01 3.810595999999999872e+00 -3.834896151617608884e-01
2.663800000000000168e+01 4.437299999999999756e+01 9.619100000000000250e+01 -1.424404999999999921e+00 -2.593417936056572337e-01
2.663899999999999935e+01 5.379999999999999716e+01 7.863100000000000023e+01 -1.645580000000000043e+00 8.930859125073745824e-03
2.664199999999999946e+01 4.152400000000000091e+01 9.524500000000000455e+01 1.002502999999999922e+01 -2.485676246293203884e-01
2.664199999999999946e+01 4.198299999999999699e+01 3.989300000000000068e+01 5.743293999999999677e+00 -3.840858155363569004e-01
2.664600000000000080e+01 5.355400000000000205e+01 8.378499999999999659e+01 -1.442112999999999978e+01 -8.103102218460100925e-02
2.664699999999999847e+01 4.019400000000000261e+01 9.564400000000000546e+01 -8.200722999999999985e+00 -2.477626633817464064e-01
2.664699999999999847e+01 5.310000000000000142e+01 5.124399999999999977e+01 -6.266528999999999883e+01 -1.090636715145435059e-01
2.665399999999999991e+01 3.540599999999999881e+01 5.786599999999999966e+01 -3.923894999999999911e+00 -2.588519310622090508e-01
2.665700000000000003e+01 2.288299999999999912e+01 7.829699999999999704e+01 2.675278000000000045e+00 -3.083029507809255110e-01
2.665899999999999892e+01 3.515800000000000125e+01 6.417799999999999727e+01 -9.349638999999999811e+00 -2.602609923911102796e-01
2.665899999999999892e+01 2.334299999999999997e+01 8.906199999999999761e+01 6.811962000000000295e+00 -8.179090610801068029e-02
2.666000000000000014e+01 5.243900000000000006e+01 8.134099999999999397e+01 -3.794935999999999865e+00 -8.453689809681344536e-02
2.666000000000000014e+01 4.357399999999999807e+01 3.942799999999999727e+01 -6.301716000000000539e-01 -3.842699824492058491e-01
2.666100000000000136e+01 5.613700000000000045e+01 6.192000000000000171e+01 4.162480000000000402e+00 -2.970982501225790662e-01
2.666100000000000136e+01 5.761299999999999955e+01 6.123799999999999955e+01 3.641106000000000176e+00 -2.978522907738962444e-01
2.666199999999999903e+01 3.249099999999999966e+01 6.798600000000000421e+01 -1.440485999999999933e+00 -2.991725072574369926e-01
2.666499999999999915e+01 3.358200000000000074e+01 4.611099999999999710e+01 1.856111999999999895e+01 -3.831905699113631325e-01
2.666700000000000159e+01 5.163400000000000034e+01 5.674099999999999966e+01 -1.901599999999999824e+01 -3.626610771870769079e-01
2.667200000000000060e+01 2.669699999999999918e+01 7.424599999999999511e+01 -1.044716000000000022e+01 -3.965056077669230072e-01
2.667500000000000071e+01 4.878799999999999670e+01 9.101300000000000523e+01 9.932823000000000846e+00 -2.615158052050817750e-01
2.667500000000000071e+01 3.011899999999999977e+01 7.248300000000000409e+01 -1.409745000000000026e+01 -3.960716780196498199e-01
2.667699999999999960e+01 5.463199999999999790e+01 8.998699999999999477e+01 -6.869169000000000302e+00 -2.614348547858343919e-01
2.667899999999999849e+01 3.226500000000000057e+01 4.728199999999999648e+01 1.224330999999999925e+01 -9.442511678514807494e-02
2.667999999999999972e+01 3.275699999999999790e+01 5.618800000000000239e+01 -5.723901999999999823e+00 -2.608368086972495670e-01
2.668400000000000105e+01 4.181300000000000239e+01 9.625799999999999557e+01 -2.889390000000000014e-01 -2.590392813418470608e-01
2.668499999999999872e+01 3.258100000000000307e+01 9.619700000000000273e+01 -1.098205000000000098e+00 -2.655527393684716242e-01
2.668499999999999872e+01 3.258100000000000307e+01 9.724699999999999989e+01 -2.958463000000000065e+00 -2.644662336516588330e-01
2.668900000000000006e+01 2.994000000000000128e+01 9.266400000000000148e+01 -5.836598999999999648e+00 -1.727230176849210985e-01
2.668900000000000006e+01 2.795700000000000074e+01 8.593200000000000216e+01 2.768564999999999898e+01 1.500801673508330922e-02
2.668900000000000006e+01 2.882199999999999918e+01 8.593200000000000216e+01 2.742877000000000010e+01 1.432299151047971598e-02
2.668900000000000006e+01 2.882199999999999918e+01 8.733199999999999363e+01 1.365872000000000064e+01 1.384136300497329844e-02
2.669300000000000139e+01 3.963600000000000279e+01 5.954399999999999693e+01 1.819935999999999865e+01 -3.615041445184349334e-01
2.669300000000000139e+01 6.028099999999999881e+01 6.150300000000000011e+01 5.235916000000000181e-02 -2.987368260835929767e-01
2.669399999999999906e+01 4.648199999999999932e+01 3.789500000000000313e+01 -2.786583999999999950e+00 -3.844108208926139136e-01
2.669500000000000028e+01 4.035000000000000142e+01 9.433899999999999864e+01 -1.568242000000000047e+01 -2.483626613417720397e-01
2.669800000000000040e+01 5.410300000000000153e+01 7.793099999999999739e+01 -4.875314999999999621e+00 9.188627677930417958e-03
2.670400000000000063e+01 5.386399999999999721e+01 5.006199999999999761e+01 5.101312000000000069e+01 -1.103083016643070235e-01
2.670499999999999829e+01 5.471000000000000085e+01 9.094899999999999807e+01 1.352800000000000002e+00 -2.611710818934294687e-01
2.670700000000000074e+01 4.496699999999999875e+01 7.288700000000000045e+01 -2.469835999999999920e+00 -1.593163111434796053e-01
2.670700000000000074e+01 4.496699999999999875e+01 7.428700000000000614e+01 6.299691000000000152e+00 -1.608874591010594490e-01
