5.186699999999999644e-01 1.166699999999999959e-01 2.069399999999999906e+01 -2.693445000000000089e+00 -3.499999999999999778e-01
5.212900000000000311e-01 3.167699999999999960e+00 2.019600000000000151e+01 -1.356518999999999942e+01 -3.500000000000000333e-01
5.212900000000000311e-01 3.167699999999999960e+00 2.171600000000000108e+01 -1.531323000000000079e+01 -3.499999999999999778e-01
5.253700000000000037e-01 6.050200000000000244e+00 1.946099999999999852e+01 -1.032296999999999976e+01 -3.499999999999999778e-01
5.376699999999999813e-01 1.761599999999999966e+01 1.787199999999999989e+01 -7.923008999999999746e-01 -2.760980916045890354e-01
5.376699999999999813e-01 1.761599999999999966e+01 1.927199999999999847e+01 1.209440999999999988e+01 -2.779533071196381711e-01
5.455200000000000049e-01 1.678500000000000014e+01 2.712900000000000134e+01 -2.291234999999999911e+00 -4.585128207904200226e-02
5.529600000000000071e-01 1.758800000000000097e+01 1.188499999999999979e+01 -5.492926999999999893e+00 -1.699239581087275130e-01
5.540800000000000169e-01 1.971600000000000019e+00 2.214399999999999835e+01 -1.112245000000000061e+01 -3.499999999999999778e-01
5.542300000000000004e-01 6.666299999999999670e+00 2.019900000000000162e+01 -1.255649000000000015e+01 -3.499999999999999778e-01
5.625099999999999545e-01 2.727299999999999724e-01 8.942800000000000082e+00 -1.021665000000000045e+00 -7.421354019105956545e-02
5.659999999999999476e-01 -1.236100000000000065e+01 2.170200000000000173e+01 3.993507999999999836e+00 -1.651862235491814990e-01
5.659999999999999476e-01 -1.213000000000000078e+01 2.088700000000000045e+01 1.552656000000000036e+00 -1.648921845036865619e-01
5.659999999999999476e-01 -1.213000000000000078e+01 2.251699999999999946e+01 6.822695000000000398e+00 -1.654054548179308415e-01
5.659999999999999476e-01 -1.081099999999999994e+01 2.015200000000000102e+01 1.044716000000000022e+01 -2.604681388278774490e-01
5.711300000000000265e-01 1.074000000000000021e+01 2.355699999999999861e+01 -1.287365999999999921e+01 -4.793513151451000293e-02
5.835500000000000131e-01 2.041900000000000048e+01 1.701500000000000057e+01 -3.705996999999999986e+00 -2.779043889320430005e-01
5.895500000000000185e-01 3.511699999999999822e+00 4.479899999999999771e+00 9.356322000000000250e-01 -7.525001604734085636e-02
5.902899999999999814e-01 7.941699999999999982e+00 2.019699999999999918e+01 -1.586137000000000086e+01 -3.499999999999999778e-01
5.959600000000000453e-01 1.731299999999999883e+01 1.857199999999999918e+01 1.106577000000000055e+01 -2.770942059718354278e-01
5.988700000000000134e-01 1.966100000000000136e+01 2.266900000000000048e+01 -7.717177000000000398e+00 -8.859015660525657032e-02
6.106700000000000461e-01 9.516700000000000159e-01 2.195799999999999841e+01 -5.023197999999999830e+00 -3.499999999999999778e-01
6.122900000000000009e-01 1.254599999999999937e+01 3.143799999999999883e+01 -4.172558999999999685e+00 5.505364644702052251e-02
6.122900000000000009e-01 1.406600000000000072e+01 3.143799999999999883e+01 -2.287978999999999985e+01 -5.631589018984902578e-02
6.136399999999999633e-01 1.286399999999999988e+00 6.934800000000000075e+00 -6.652067000000000396e-01 -7.456510962746158711e-02
6.181699999999999973e-01 2.921699999999999853e-01 1.081199999999999939e+01 1.101258000000000070e+00 -7.380951665630629266e-02
6.199999999999999956e-01 1.922899999999999920e+01 2.408399999999999963e+01 -1.762969999999999970e+01 -8.637981095619887140e-02
6.199999999999999956e-01 1.955399999999999849e+01 2.334700000000000131e+01 -2.946439000000000163e+01 -8.751332164104415334e-02
6.202900000000000080e-01 1.851300000000000168e+01 1.798199999999999932e+01 -5.065241999999999578e+00 -2.774237764471618739e-01
6.209599999999999564e-01 2.008099999999999952e+01 1.776899999999999835e+01 -6.096040999999999821e-01 -2.793288460147952401e-01
6.353999999999999648e-01 1.320700000000000074e+01 2.306400000000000006e+01 -1.273194999999999943e+01 -1.390780857863544995e-01
6.382200000000000095e-01 2.043900000000000006e+01 1.604299999999999926e+01 -1.633475999999999928e+01 -2.751365421951915691e-01
6.493799999999999573e-01 1.541499999999999915e+01 2.827700000000000102e+01 2.221055000000000135e+01 -5.045872956043502555e-02
6.495100000000000318e-01 4.832099999999999618e+00 1.348099999999999987e+01 -2.386484000000000094e+01 -7.251317298932573319e-02
6.495100000000000318e-01 4.832099999999999618e+00 1.488100000000000023e+01 -6.575800000000000090e+00 -1.492214018507775075e-01
6.495100000000000318e-01 5.697300000000000253e+00 1.348099999999999987e+01 -2.298466000000000165e+01 -7.236143895114034719e-02
6.495100000000000318e-01 5.697300000000000253e+00 1.488100000000000023e+01 -1.150866000000000078e+01 -1.489220298482256122e-01
6.496600000000000152e-01 -7.319200000000000372e+00 2.194600000000000151e+01 -3.655342000000000091e+00 -1.641876413470158558e-01
6.693799999999999750e-01 1.223000000000000043e+01 1.111100000000000065e+01 1.591696000000000000e+00 -5.827471571439342413e-02
6.710000000000000409e-01 1.539999999999999980e-01 9.932000000000000384e+00 1.713300000000000045e+00 -7.397599637680102314e-02
6.720000000000000417e-01 2.010099999999999909e+01 1.525399999999999956e+01 -3.321209000000000344e+01 -1.643115748308697222e-01
6.824099999999999611e-01 2.124600000000000100e-01 1.189300000000000068e+01 -5.694285999999999515e-01 -7.362406506756956348e-02
6.860100000000000087e-01 -1.411600000000000077e-01 1.279100000000000037e+01 -9.033695999999999948e-01 -1.502539846297978321e-01
6.993500000000000272e-01 1.027500000000000036e+01 1.134900000000000020e+01 1.062317000000000000e+01 -5.805562495499646397e-02
6.993500000000000272e-01 1.167500000000000071e+01 1.134900000000000020e+01 1.030311999999999983e+01 -5.810004883989232372e-02
7.008799999999999475e-01 2.752699999999999925e+00 1.939999999999999858e+01 -9.795728999999999687e+00 -3.499999999999999778e-01
7.028999999999999693e-01 1.854400000000000048e+01 1.949200000000000088e+01 7.304016999999999982e+00 -2.790681543300692069e-01
7.028999999999999693e-01 1.947500000000000142e+01 1.949200000000000088e+01 5.050264999999999560e+00 -2.799096717494123920e-01
7.042899999999999716e-01 9.510999999999999233e+00 2.011700000000000088e+01 3.086439999999999984e+01 -3.499999999999999778e-01
7.077900000000000302e-01 4.528699999999999726e+00 1.418099999999999916e+01 -4.365192000000000405e+00 -1.491019669583246443e-01
7.077900000000000302e-01 6.000700000000000145e+00 1.418099999999999916e+01 -1.815234999999999843e+01 -5.830269746239569173e-02
7.179999999999999716e-01 -4.666000000000000369e+00 1.226999999999999957e+01 -2.276003000000000054e-01 -1.513053629881564444e-01
7.210199999999999942e-01 9.728999999999999204e+00 2.844000000000000128e+01 6.958518999999999899e+00 -4.914237248112628825e-02
7.212800000000000322e-01 1.887600000000000122e+01 2.462300000000000111e+01 -2.309894999999999854e+01 -5.291943800795412267e-02
7.253300000000000303e-01 7.443999999999999950e+00 2.792399999999999949e+01 -3.161700000000000177e+00 -4.577872926119488928e-02
7.278799999999999715e-01 -1.292800000000000060e-01 1.342699999999999960e+01 -1.287252000000000063e+00 -1.503791797739285063e-01
7.278999999999999915e-01 2.087699999999999889e+01 2.041000000000000014e+01 1.425755999999999968e-01 -9.321822628228013108e-02
7.278999999999999915e-01 2.087699999999999889e+01 2.152599999999999980e+01 1.873356999999999939e+00 -9.140084434428379090e-02
7.296700000000000408e-01 1.366999999999999882e-01 1.539799999999999969e+01 -1.964005999999999919e+00 -2.574871139371205375e-01
7.349299999999999722e-01 2.686300000000000132e+00 1.852400000000000091e+01 -1.018521999999999927e+01 -2.413832681090631593e-01
7.349299999999999722e-01 2.895399999999999974e+00 1.778800000000000026e+01 -1.811092999999999975e+01 -2.418758921523626315e-01
7.349299999999999722e-01 4.086299999999999599e+00 1.712399999999999878e+01 -9.455225000000000435e+00 -2.425122507957137574e-01
7.350100000000000522e-01 8.381999999999999673e+00 8.923099999999999810e+00 -4.262481000000000186e+00 -7.321774401411387800e-02
7.353699999999999681e-01 -9.972799999999999443e+00 2.380300000000000082e+01 2.144124999999999837e+00 -1.654772390931096571e-01
7.353699999999999681e-01 -9.025199999999999889e+00 2.380300000000000082e+01 6.540437999999999974e+00 -1.652945386087705248e-01
7.407099999999999795e-01 2.048300000000000054e+01 1.957100000000000151e+01 1.646314999999999973e+00 -9.383644939736889012e-02
7.409900000000000375e-01 1.157600000000000051e+01 2.338400000000000034e+01 -1.493961999999999968e+01 -1.390957058481737396e-01
7.418900000000000494e-01 7.314799999999999969e+00 2.512399999999999878e+01 -5.099338000000000370e+00 -4.431885948018542826e-02
7.552299999999999569e-01 1.061899999999999977e+01 2.931299999999999883e+01 1.401887999999999934e+01 -5.119652486176070466e-02
7.611900000000000333e-01 2.070899999999999963e+01 1.879200000000000159e+01 2.986243000000000092e-01 -2.808403999267440332e-01
7.637100000000000000e-01 1.310200000000000031e+01 1.961499999999999844e+01 -3.643794999999999895e+00 -2.739429096543551934e-01
7.725699999999999790e-01 1.201699999999999946e+01 3.128800000000000026e+01 -1.526354000000000044e-01 5.531454448278292496e-02
7.916199999999999903e-01 2.320600000000000218e+00 6.198000000000000398e+00 2.069722999999999979e-01 -7.459769524151850517e-02
7.994799999999999685e-01 3.216700000000000115e-01 1.133999999999999986e+01 -2.432010000000000005e-01 -7.363222937485389141e-02
8.013400000000000523e-01 7.081599999999999895e+00 7.096400000000000041e+00 -7.530725999999999809e-01 -7.395812251402569815e-02
8.013400000000000523e-01 7.081599999999999895e+00 7.961700000000000443e+00 -1.044583000000000084e+01 -7.358083957024560973e-02
8.050500000000000433e-01 1.804899999999999949e+01 1.857199999999999918e+01 6.359784000000000326e+00 -2.779001980438730590e-01
8.060000000000000497e-01 1.812500000000000000e+01 1.234500000000000064e+01 -3.934747000000000217e+00 -1.690676033268187495e-01
8.060000000000000497e-01 1.935000000000000142e+01 1.318999999999999950e+01 -1.270388999999999946e+01 -1.675599771898332313e-01
8.060000000000000497e-01 1.957700000000000173e+01 1.398900000000000077e+01 -3.448248999999999853e+01 -1.661814597809849192e-01
8.125099999999999545e-01 -1.222799999999999998e-01 1.443500000000000050e+01 -3.329238000000000142e+00 -1.505948934431926012e-01
8.196400000000000352e-01 1.219599999999999973e+01 1.906099999999999994e+01 -2.742562000000000055e-01 -2.431667023900336844e-01
8.212599999999999900e-01 7.129900000000000126e+00 2.096600000000000108e+01 -9.748955999999999733e+00 -3.499999999999999778e-01
8.238400000000000167e-01 2.095200000000000173e+01 1.773999999999999844e+01 -5.092915999999999555e-01 -2.803870958631219379e-01
8.349999999999999645e-01 1.074799999999999933e+01 3.027100000000000080e+01 7.852501000000000175e+00 -5.199833928366334040e-02
8.477400000000000491e-01 1.057000000000000028e+01 1.902100000000000080e+01 2.953209999999999980e+01 -2.428950945179006171e-01
8.483500000000000485e-01 7.833000000000000185e+00 2.074899999999999878e+01 -2.347992999999999952e+01 -3.499999999999999778e-01
8.499100000000000543e-01 2.624000000000000110e+00 5.498000000000000220e+00 6.744043999999999706e+00 -7.478581106724341288e-02
8.560499999999999776e-01 7.936700000000000088e+00 2.424699999999999989e+01 -3.952227000000000157e+00 -4.441615612930274043e-02
8.714300000000000379e-01 2.776800000000000157e+00 4.594500000000000028e+00 6.083454000000000361e-01 -7.509946555788706013e-02
8.729999999999999982e-01 1.423700000000000010e+01 9.881999999999999673e+00 2.932148000000000199e+00 -1.723576299593749528e-01
8.750000000000000000e-01 2.131800000000000139e+01 1.852599999999999980e+01 1.029017999999999944e+01 -2.813851924109336822e-01
8.760099999999999554e-01 5.757900000000000240e+00 2.017699999999999960e+01 -2.214197000000000060e+01 -3.499999999999999778e-01
8.777899999999999592e-01 4.058699999999999974e+00 3.760299999999999976e+00 3.540156999999999887e-01 -7.539844686698440879e-02
8.919399999999999551e-01 3.987800000000000011e+00 2.048699999999999832e+01 -1.876116000000000028e+01 -3.500000000000000333e-01
8.920000000000000151e-01 -8.634999999999999787e+00 1.954799999999999827e+01 7.617582999999999771e+00 -2.594565514505294823e-01
8.920000000000000151e-01 -7.316499999999999559e+00 2.028300000000000125e+01 9.124710999999999572e+00 -2.596168983135696551e-01
8.920000000000000151e-01 -7.084999999999999964e+00 2.109799999999999898e+01 1.331626999999999938e+01 -2.602488565012402999e-01
9.066400000000000015e-01 7.529600000000000293e+00 2.144900000000000162e+01 -1.457408999999999999e+01 -3.499999999999999778e-01
9.070000000000000284e-01 5.978900000000000325e+00 4.283000000000000362e+00 9.751820999999999628e+00 -7.519053961882191106e-02
9.070000000000000284e-01 6.986100000000000421e+00 5.290300000000000225e+00 4.720259999999999678e+00 -7.474741013999988692e-02
9.070000000000000284e-01 7.240000000000000213e+00 6.184000000000000163e+00 2.662071999999999861e+01 -7.431542156173977232e-02
9.163999999999999924e-01 1.588000000000000078e+01 2.784700000000000131e+01 1.891381000000000157e+01 -4.953252635085457489e-02
9.168800000000000283e-01 5.264700000000000379e+00 1.418099999999999916e+01 -2.044043999999999883e+01 -1.488349789794875255e-01
9.260000000000000453e-01 1.705999999999999872e+01 1.120299999999999940e+01 4.096072000000000379e+00 -1.708890351268080032e-01
9.270500000000000407e-01 4.547500000000000320e+00 1.706099999999999994e+01 -1.025357999999999947e+01 -2.426085888844348448e-01
9.270500000000000407e-01 5.738400000000000389e+00 1.772500000000000142e+01 -8.362681000000000253e+00 -2.423879592777251069e-01
9.270500000000000407e-01 5.738400000000000389e+00 1.919699999999999918e+01 -1.696460000000000079e+01 -3.499999999999999778e-01
9.270500000000000407e-01 5.947499999999999787e+00 1.846099999999999852e+01 -1.444292000000000087e+01 -2.418749095570095486e-01
9.275099999999999456e-01 8.653600000000000847e+00 2.407400000000000162e+01 -3.574539999999999829e+00 -4.500473074134744150e-02
9.340500000000000469e-01 -7.859499999999999709e+00 2.290099999999999980e+01 4.636035999999999824e+00 -1.646990991900670054e-01
9.370000000000000551e-01 6.061500000000000221e-02 1.765299999999999869e+01 -6.510182999999999609e+00 -2.560932330336323504e-01
9.392899999999999583e-01 6.087299999999999933e+00 2.093700000000000117e+01 -1.666434999999999889e+01 -3.499999999999999778e-01
9.395099999999999563e-01 -1.011100000000000065e+01 1.999699999999999989e+01 2.018288000000000082e+00 -2.602743061814653536e-01
9.518900000000000139e-01 2.697999999999999954e+00 2.224899999999999878e+01 -1.833814999999999884e+01 -2.436138878841807021e-01
9.619900000000000118e-01 -4.445000000000000062e-01 1.859799999999999898e+01 -1.619132999999999933e+00 -2.555674496706485388e-01
9.639999999999999680e-01 7.761999999999999567e+00 2.226399999999999935e+01 -5.489252999999999716e+00 -1.342860741518033252e-01
9.702800000000000313e-01 1.897700000000000031e+01 1.879200000000000159e+01 1.376186000000000043e+01 -2.790312820244306713e-01
9.702800000000000313e-01 1.997299999999999898e+01 1.879200000000000159e+01 1.930859999999999843e+01 -2.799793004293525955e-01
9.718900000000000317e-01 -5.559700000000000308e+00 1.226999999999999957e+01 2.264591000000000173e-02 -1.515122013802167600e-01
9.718900000000000317e-01 -3.772299999999999986e+00 1.226999999999999957e+01 4.226111999999999647e+00 -1.511208151952439793e-01
9.781400000000000095e-01 1.727599999999999980e+01 2.673199999999999932e+01 5.096025000000000027e+00 -4.483503622757657736e-02
9.886599999999999833e-01 1.844300000000000139e+01 2.532300000000000040e+01 -1.175390999999999941e+01 -5.691463198124206702e-02
9.909999999999999920e-01 3.927700000000000191e+00 2.142599999999999838e+01 -4.758192999999999984e+01 -3.499999999999999778e-01
9.990900000000000336e-01 1.236899999999999977e+01 2.337500000000000000e+01 -1.188161999999999985e+01 -1.392641234586049770e-01
1.010000000000000009e+00 1.973499999999999943e+01 1.474699999999999989e+01 -1.768497999999999948e+01 -1.647984562698021349e-01
1.010199999999999987e+00 1.719100000000000072e+00 6.443900000000000183e+00 2.237814000000000192e+00 -7.447979471790602823e-02
1.028000000000000025e+00 2.178900000000000003e-01 2.220400000000000063e+01 -4.956526000000000209e+00 -1.518890314013266185e-01
1.028399999999999981e+00 8.902200000000000557e+00 2.317599999999999838e+01 -4.807408999999999821e+00 -1.359734792884664256e-01
1.031500000000000083e+00 2.036100000000000065e+01 2.240099999999999980e+01 2.965688000000000102e+00 -8.836279342145125781e-02
1.037099999999999911e+00 2.115200000000000102e+01 1.722700000000000031e+01 3.916239000000000026e+00 -1.846220109050851765e-01
1.037300000000000111e+00 6.928700000000000081e+00 2.734900000000000020e+01 -5.121354000000000184e+00 -4.451367967381206908e-02
1.037400000000000100e+00 -8.240600000000000591e+00 2.375400000000000134e+01 1.548337000000000074e+00 -1.651292269277111757e-01
1.038999999999999924e+00 9.981099999999999639e+00 2.331299999999999883e+01 -6.116429000000000116e+00 -1.372104083683800546e-01
1.039700000000000069e+00 9.077299999999999258e+00 2.070599999999999952e+01 -8.533260000000000289e+00 -3.499999999999999778e-01
1.042699999999999960e+00 -5.191300000000000026e+00 1.141999999999999993e+01 -1.797922999999999882e-01 -1.513301585699567131e-01
1.042699999999999960e+00 -5.191300000000000026e+00 1.311999999999999922e+01 2.612902999999999754e-01 -2.586723268750931171e-01
1.042699999999999960e+00 -4.140699999999999825e+00 1.141999999999999993e+01 1.981411000000000033e+00 -1.510925715605242747e-01
1.042699999999999960e+00 -4.140699999999999825e+00 1.311999999999999922e+01 9.652089000000000363e-01 -1.513355491503438621e-01
1.044000000000000039e+00 -7.333300000000000374e-01 1.931899999999999906e+01 -1.548184999999999922e+00 -3.499999999999999778e-01
1.044000000000000039e+00 -7.333300000000000374e-01 2.036899999999999977e+01 -3.111533999999999800e+00 -2.566120084777225308e-01
1.044999999999999929e+00 -1.158600000000000030e+01 2.044800000000000040e+01 1.564108000000000054e+00 -2.610118545578022364e-01
1.044999999999999929e+00 -1.158600000000000030e+01 2.295599999999999952e+01 3.664730000000000132e+01 -1.654841395770111356e-01
1.047099999999999920e+00 8.294000000000000483e+00 2.813100000000000023e+01 -6.547321000000000168e+00 -4.645223780053815699e-02
1.050000000000000044e+00 6.918700000000000294e+00 2.602400000000000091e+01 -4.910898000000000430e+00 -4.388311902972544254e-02
1.053500000000000103e+00 1.807900000000000063e+01 2.620100000000000051e+01 4.539320000000000022e+00 -4.194482744750523823e-02
1.069600000000000106e+00 2.131899999999999906e+01 2.017399999999999949e+01 6.266397999999999691e+00 -9.342339663557182317e-02
1.082000000000000073e+00 1.330599999999999916e+01 3.172800000000000153e+01 -2.642849000000000004e+01 5.507874542238202359e-02
1.082000000000000073e+00 1.459900000000000020e+01 3.100700000000000145e+01 -2.788062000000000040e+01 -5.633406208232956403e-02
1.082000000000000073e+00 1.471499999999999986e+01 2.941000000000000014e+01 -6.915466000000000335e+00 -5.404841520063350530e-02
1.082000000000000073e+00 1.482600000000000051e+01 3.020799999999999841e+01 -3.488893999999999807e+01 -5.501300523140142257e-02
1.082000000000000073e+00 1.492399999999999949e+01 2.867399999999999949e+01 2.135718999999999923e+01 -5.271242959557069507e-02
1.084500000000000020e+00 2.187600000000000122e+01 1.938200000000000145e+01 1.074816000000000038e+01 -9.585553334552035509e-02
1.091299999999999937e+00 5.472900000000000542e-01 2.296399999999999864e+01 -8.643895999999999802e+00 -1.520694551390653626e-01
1.091299999999999937e+00 1.486699999999999910e+00 2.296399999999999864e+01 -1.218739000000000061e+01 -1.517479744188335311e-01
1.093099999999999961e+00 4.872899999999999565e+00 2.033200000000000074e+01 -9.002093999999999596e+00 -3.500000000000000333e-01
1.102000000000000091e+00 1.272100000000000009e+01 1.071400000000000041e+01 1.586417999999999995e-01 -5.794981449736652523e-02
1.106899999999999995e+00 2.160399999999999920e+01 2.098000000000000043e+01 2.932573000000000096e+00 -9.241618412365054658e-02
1.110899999999999999e+00 9.350100000000000078e-01 7.253999999999999559e+00 -1.762151999999999941e+00 -7.429511778434587377e-02
1.112000000000000099e+00 8.242899999999999672e-01 8.051299999999999457e+00 -1.155321000000000042e+00 -7.409318922506212546e-02
1.115699999999999914e+00 8.265599999999999170e+00 2.144900000000000162e+01 -1.199499999999999922e+01 -3.499999999999999778e-01
1.122600000000000042e+00 -2.221400000000000041e-01 2.136899999999999977e+01 -3.067388999999999921e+00 -2.575137138579638996e-01
1.128900000000000015e+00 2.221199999999999974e+01 1.852599999999999980e+01 6.301184000000000118e+00 -2.825897730132088670e-01
1.129199999999999982e+00 8.544000000000000483e+00 2.227899999999999991e+01 -6.257306999999999952e+00 -1.346485886904832674e-01
1.131999999999999895e+00 9.574699999999999989e+00 1.021599999999999930e+01 -3.484856999999999871e+00 -5.796791360683230254e-02
1.131999999999999895e+00 9.783799999999999386e+00 1.095199999999999996e+01 -2.727839000000000236e-01 -5.773484279982210587e-02
1.131999999999999895e+00 1.097499999999999964e+01 1.161599999999999966e+01 1.106713000000000058e+01 -5.750387091466609840e-02
1.153399999999999981e+00 1.375900000000000034e+01 2.058500000000000085e+01 -5.307368999999999559e+00 -3.499999999999999778e-01
1.153999999999999915e+00 3.317499999999999893e-01 9.103999999999999204e+00 -8.399288999999999783e-01 -7.390334018321793874e-02
1.159599999999999964e+00 6.564899999999999736e+00 2.156400000000000006e+01 -1.401571999999999996e+01 -3.499999999999999778e-01
1.159699999999999953e+00 9.400100000000000122e+00 9.296699999999999520e+00 -5.426772999999999847e+00 -7.268278736474131918e-02
1.159699999999999953e+00 1.127299999999999969e+01 3.112099999999999866e+01 1.634911999999999921e+00 -5.325359352089355930e-02
1.162600000000000078e+00 2.089099999999999824e+01 1.655799999999999983e+01 -2.242652999999999786e+00 -2.767455157594774229e-01
1.167599999999999971e+00 3.386299999999999866e+00 1.739099999999999824e+01 -1.333403999999999989e+01 -2.560374791783518456e-01
1.173999999999999932e+00 1.004400000000000048e+01 1.968599999999999994e+01 5.578455000000000297e+01 -3.500000000000000333e-01
1.177699999999999969e+00 2.123499999999999943e+01 2.182999999999999829e+01 3.711851999999999929e+00 -8.998379720221522104e-02
1.187699999999999978e+00 8.780099999999999127e+00 2.133299999999999841e+01 -9.843921999999999173e+00 -3.499999999999999778e-01
1.194900000000000073e+00 8.221000000000000085e+00 2.337399999999999878e+01 -3.468853000000000186e+00 -1.352932971413844665e-01
1.199699999999999989e+00 2.184299999999999997e+01 1.767599999999999838e+01 1.008410000000000001e-01 -1.858535912471286911e-01
1.217899999999999983e+00 6.868299999999999628e+00 2.226399999999999935e+01 -6.769089000000000134e+00 -1.333035499850554473e-01
1.221700000000000008e+00 1.217600000000000016e+00 6.455300000000000260e+00 1.245925999999999978e-01 -7.444346689127248617e-02
1.228599999999999914e+00 1.862600000000000033e+00 5.916999999999999815e+00 1.599504000000000037e+00 -7.453460299897948782e-02
1.231100000000000083e+00 -9.499000000000000554e+00 2.424200000000000088e+01 5.193628000000000355e+00 -1.655884719790107762e-01
1.233999999999999986e+00 7.781600000000000072e+00 8.229100000000000747e+00 -7.622703999999999702e+00 -7.310243279402628414e-02
1.260699999999999932e+00 8.907299999999999329e+00 8.512000000000000455e+00 -2.161214999999999886e+00 -7.293760334340103346e-02
1.275700000000000056e+00 1.881700000000000017e+01 1.275900000000000034e+01 -9.400339000000000667e+00 -1.680731632776450435e-01
1.281300000000000106e+00 3.458000000000000185e+00 1.972599999999999909e+01 -1.980275999999999925e+01 -3.499999999999999778e-01
1.281300000000000106e+00 3.458000000000000185e+00 2.218599999999999994e+01 -5.062635000000000218e+01 -3.499999999999999778e-01
1.286899999999999933e+00 2.165999999999999925e+00 5.216999999999999638e+00 6.939659999999999718e-01 -7.472064920894597173e-02
1.288699999999999957e+00 7.236699999999999910e+00 2.311400000000000077e+01 -5.103345000000000020e+00 -2.575262601345305602e-01
1.289600000000000080e+00 3.244299999999999962e+00 4.047299999999999898e+00 -2.245720999999999967e-01 -7.509594214432033232e-02
1.289700000000000069e+00 1.761100000000000065e+01 1.191600000000000037e+01 -7.077619999999999578e+00 -1.695826291268111574e-01
1.292200000000000015e+00 7.478200000000000180e+00 7.529099999999999682e+00 -9.915511999999999659e+00 -7.338344652910039345e-02
1.298300000000000010e+00 1.149799999999999933e+01 1.881400000000000006e+01 -1.797180999999999917e+00 -2.434281280657418500e-01
1.298300000000000010e+00 1.268900000000000006e+01 1.947800000000000153e+01 6.396682999999999675e-01 -3.500000000000000333e-01
1.307199999999999918e+00 1.074000000000000021e+01 2.334799999999999898e+01 -5.219782999999999618e+00 -1.377111953954532342e-01
1.320000000000000062e+00 1.961199999999999832e+01 2.364999999999999858e+01 1.365483000000000002e+00 -8.500915664553701512e-02
1.340999999999999970e+00 -1.206499999999999950e+01 2.122299999999999898e+01 1.614522999999999930e+00 -1.650157283097110350e-01
1.340999999999999970e+00 -1.206499999999999950e+01 2.218100000000000094e+01 2.564664000000000055e+00 -1.653251898640606399e-01
1.344799999999999995e+00 5.215900000000000425e+00 3.742300000000000182e+00 5.085757000000000083e+00 -7.517897343968074630e-02
1.348999999999999977e+00 1.637099999999999866e+01 2.744999999999999929e+01 2.582558999999999827e+01 -4.883489100009969636e-02
1.349699999999999900e+00 -7.260900000000000354e+00 2.224899999999999878e+01 3.865306999999999960e+01 -1.643088023504230555e-01
1.350800000000000001e+00 -1.096199999999999974e+01 2.343799999999999883e+01 1.712594999999999956e+01 -1.655619116982398331e-01
1.359699999999999909e+00 5.247499999999999609e+00 1.732799999999999940e+01 -1.388307000000000002e+01 -2.424695774161589878e-01
1.359699999999999909e+00 5.247499999999999609e+00 1.959299999999999997e+01 -2.402629999999999910e+01 -3.500000000000000333e-01
1.370999999999999996e+00 -9.410000000000000142e+00 1.984400000000000119e+01 1.829922999999999966e+00 -2.600824109249735283e-01
1.372300000000000075e+00 6.497600000000000264e+00 4.724499999999999922e+00 5.588030999999999970e+00 -7.471156746866158826e-02
1.379899999999999904e+00 -7.385299999999999976e+00 2.317999999999999972e+01 1.762741000000000113e+01 -1.647168396698546478e-01
1.380900000000000016e+00 -1.081099999999999994e+01 2.038299999999999912e+01 7.773307999999999884e-01 -2.608825412456025061e-01
1.397000000000000020e+00 1.272700000000000031e+01 2.328500000000000014e+01 -7.475964000000000276e+00 -1.391995229280901802e-01
1.397000000000000020e+00 1.391799999999999926e+01 2.262099999999999866e+01 -6.044439999999999813e+00 -1.380397076675201895e-01
1.397000000000000020e+00 1.412700000000000067e+01 2.188500000000000156e+01 -5.946711999999999776e+00 -1.366102245669328918e-01
1.398300000000000098e+00 1.338700000000000045e+01 1.020700000000000074e+01 1.398004000000000024e+00 -5.791066267391588307e-02
1.398300000000000098e+00 1.508699999999999974e+01 1.020700000000000074e+01 3.036080000000000112e+00 -1.720037940771584339e-01
1.423599999999999977e+00 4.627699999999999925e+00 2.115800000000000125e+01 -4.139278999999999797e+01 -3.499999999999999778e-01
1.430099999999999927e+00 2.295900000000000052e+00 2.276399999999999935e+01 -4.491187000000000040e+01 -2.439505896088643710e-01
1.430900000000000061e+00 2.013599999999999923e+01 1.552200000000000024e+01 -2.339519999999999911e+01 -1.631543429785436705e-01
1.432399999999999896e+00 1.948600000000000110e+00 4.633300000000000196e+00 1.434353999999999907e+00 -7.488756926588946428e-02
1.434900000000000064e+00 2.953699999999999992e+00 1.809100000000000108e+01 -1.849302000000000135e+01 -2.555511890157474708e-01
1.440600000000000103e+00 -8.210499999999999465e-01 1.810800000000000054e+01 -1.615836000000000050e+00 -2.558933831543768189e-01
1.440700000000000092e+00 -1.387100000000000000e-01 1.595199999999999996e+01 -5.816167000000000087e+00 -2.571848574421500278e-01
1.442499999999999893e+00 1.017900000000000027e+01 2.898499999999999943e+01 2.748209999999999908e+01 -4.924074179096961379e-02
1.450700000000000101e+00 -7.753700000000000259e+00 2.403000000000000114e+01 9.348170000000000091e-01 -1.651601423359104204e-01
1.451300000000000034e+00 1.646399999999999864e+01 1.072199999999999953e+01 3.777346999999999788e+00 -1.714679388801462756e-01
1.455100000000000060e+00 -1.258999999999999897e+00 1.984400000000000119e+01 -3.340069999999999983e-01 -2.564656400838687955e-01
1.456499999999999906e+00 -3.834500000000000131e-01 1.710000000000000142e+01 -8.176605999999999597e+00 -2.564748969900983999e-01
1.459000000000000075e+00 -2.552200000000000024e-01 1.254599999999999937e+01 -1.080718000000000067e+00 -1.502799728599003570e-01
1.463999999999999968e+00 5.582799999999999763e+00 2.130699999999999861e+01 -1.559032000000000018e+01 -3.500000000000000333e-01
1.468399999999999928e+00 2.036899999999999977e+01 1.603300000000000125e+01 -1.015198999999999963e+01 -2.738682956863829343e-01
1.485200000000000076e+00 8.532000000000000028e+00 2.807999999999999829e+01 -1.256406999999999918e+01 -4.608308531045234718e-02
1.485899999999999999e+00 -3.342800000000000216e-01 2.177100000000000080e+01 -4.830620999999999832e+00 -1.518611850191916302e-01
1.485899999999999999e+00 3.057300000000000018e-01 1.043599999999999994e+01 6.254808999999999841e+00 -7.347982005777149717e-02
1.491700000000000026e+00 -7.637100000000000222e+00 1.976999999999999957e+01 3.963890000000000136e+00 -2.594779029599000864e-01
1.495999999999999996e+00 1.429999999999999938e+00 5.216999999999999638e+00 6.208657999999999788e+00 -7.470286345687264518e-02
1.499500000000000055e+00 5.429099999999999898e-02 1.177299999999999969e+01 -7.104981999999999687e-01 -1.500424121278168821e-01
1.501500000000000057e+00 7.537600000000000300e+00 2.793599999999999994e+01 -8.834400999999999726e+00 -4.477311776487188921e-02
1.502099999999999991e+00 -8.732300000000000395e+00 2.427700000000000102e+01 -4.247791000000000317e+00 -1.654726979773429307e-01
1.514599999999999946e+00 1.541499999999999915e+01 2.827700000000000102e+01 2.720401999999999987e+01 -5.232620953595382846e-02
1.517500000000000071e+00 3.182199999999999918e+00 3.504399999999999959e+00 -1.056786999999999921e+00 -7.521746947838962860e-02
1.521900000000000031e+00 1.016999999999999904e+00 2.349699999999999989e+01 -1.671693000000000140e+01 -1.520867041574940903e-01
1.524299999999999988e+00 -4.666000000000000369e+00 1.082399999999999984e+01 1.529011999999999871e-01 -1.511713862394919727e-01
1.524299999999999988e+00 -4.666000000000000369e+00 1.371599999999999930e+01 4.646664000000000350e+00 -2.584378623543645004e-01
1.526499999999999968e+00 7.471499999999999808e+00 2.392500000000000071e+01 -4.419871999999999801e+00 -2.581136971583921635e-01
1.527900000000000036e+00 9.514300000000000423e+00 2.264399999999999835e+01 -6.443571999999999633e+00 -1.352127529028378794e-01
1.534899999999999931e+00 -1.129899999999999904e+00 1.888599999999999923e+01 -7.814607999999999555e-01 -3.499999999999999778e-01
1.548699999999999966e+00 3.025399999999999867e+00 1.902599999999999980e+01 -2.862482999999999933e+01 -3.499999999999999778e-01
1.551700000000000079e+00 1.406600000000000072e+01 3.143799999999999883e+01 -7.908325999999999567e+01 -5.851642946503264608e-02
1.552599999999999980e+00 1.753099999999999881e+01 2.680000000000000071e+01 1.509087000000000067e+01 -4.539904769902095710e-02
1.560999999999999943e+00 -2.127100000000000102e-01 2.267399999999999949e+01 -4.061664999999999637e+00 -1.521557544541364826e-01
1.564599999999999991e+00 1.027500000000000036e+01 1.134900000000000020e+01 7.566563999999999623e+00 -5.712345921732764342e-02
1.566000000000000059e+00 1.928699999999999903e+01 1.351900000000000013e+01 -3.107094000000000023e+01 -1.664270319249976371e-01
1.566999999999999948e+00 -1.027399999999999913e+01 2.417699999999999960e+01 1.951075000000000159e+01 -1.657282130013209565e-01
1.568000000000000060e+00 -6.041299999999999670e+00 1.174499999999999922e+01 1.560481999999999980e-01 -1.515885507005222954e-01
1.568000000000000060e+00 -6.041299999999999670e+00 1.279499999999999993e+01 4.116496000000000044e-01 -2.588390262335332759e-01
1.568000000000000060e+00 -3.290700000000000180e+00 1.174499999999999922e+01 6.142234000000000194e+00 -1.509698901354441236e-01
1.568000000000000060e+00 -3.290700000000000180e+00 1.279499999999999993e+01 2.743803999999999910e+00 -1.511309778511014390e-01
1.578200000000000047e+00 1.915599999999999881e+01 2.493199999999999861e+01 -9.835463999999999984e+00 -5.403974447310035123e-02
1.580300000000000038e+00 -4.748700000000000143e-01 1.380300000000000082e+01 -8.628118000000000176e-01 -1.506040127704290355e-01
1.584699999999999998e+00 4.158000000000000362e+00 1.978500000000000014e+01 -1.391397000000000084e+01 -3.499999999999999778e-01
1.585099999999999953e+00 4.240300000000000402e+00 3.462699999999999889e+00 -1.464706000000000063e+00 -7.517945620946528407e-02
1.586000000000000076e+00 1.326800000000000068e+01 2.018799999999999883e+01 -6.428612000000000215e+00 -3.499999999999999778e-01
1.609599999999999920e+00 5.971199999999999619e+00 2.225400000000000134e+01 -6.955763000000000140e+00 -3.499999999999999778e-01
1.614999999999999991e+00 1.880000000000000071e+01 2.578300000000000125e+01 2.082940999999999931e+00 -3.994378611160195186e-02
1.627099999999999991e+00 5.680100000000000371e+00 1.802799999999999869e+01 -1.478988999999999976e+01 -2.419595852304110006e-01
1.627099999999999991e+00 5.680100000000000371e+00 1.889300000000000068e+01 -1.440405999999999942e+01 -3.499999999999999778e-01
1.627299999999999969e+00 1.231000000000000050e+01 1.124000000000000021e+01 3.871252999999999833e+00 -5.702109033653581655e-02
1.637999999999999901e+00 2.220299999999999940e+01 2.051300000000000168e+01 7.380603999999999942e+00 -9.278620833734514683e-02
1.640300000000000091e+00 1.811599999999999966e+01 1.260299999999999976e+01 -1.760772000000000048e+01 -1.681679419574689249e-01
1.640600000000000058e+00 2.081599999999999895e+01 2.252199999999999847e+01 6.822635000000000227e-01 -8.658251349065690383e-02
1.642099999999999893e+00 1.642399999999999949e+01 1.732400000000000162e+01 -3.697556000000000065e+00 -2.412568851749268273e-01
1.643000000000000016e+00 9.400999999999999801e+00 2.091300000000000026e+01 -1.680267999999999873e+01 -3.499999999999999778e-01
1.643000000000000016e+00 9.610099999999999199e+00 2.017699999999999960e+01 -1.495757999999999921e+00 -3.499999999999999778e-01
1.658700000000000063e+00 -7.280999999999999694e+00 2.055399999999999849e+01 1.729991000000000057e+01 -2.600946096171992128e-01
1.661999999999999922e+00 -1.577099999999999946e+00 1.816499999999999915e+01 -1.474931999999999910e+00 -2.559322468421580954e-01
1.662600000000000078e+00 2.142399999999999949e+01 1.698400000000000176e+01 2.024710999999999927e+00 -1.838928846625941249e-01
1.663100000000000023e+00 4.547500000000000320e+00 1.726999999999999957e+01 -1.556349999999999945e+01 -2.422896274987821619e-01
1.665100000000000025e+00 1.934700000000000131e+01 1.445800000000000018e+01 -4.497438999999999965e+01 -1.647263550603146887e-01
1.667499999999999982e+00 -7.229400000000000048e+00 2.157700000000000173e+01 2.762106999999999744e+02 -1.640464801834601305e-01
1.670700000000000074e+00 8.467499999999999361e+00 7.852999999999999758e+00 -2.121535000000000171e+00 -7.289045765677874822e-02
1.678600000000000092e+00 9.176700000000000301e+00 2.176599999999999824e+01 -7.202218000000000231e+00 -3.500000000000000333e-01
1.683999999999999941e+00 -2.884999999999999787e+00 7.899000000000000021e+00 -1.624554999999999971e+00 -7.456524419628854372e-02
1.685000000000000053e+00 1.042300000000000004e+01 2.974599999999999866e+01 9.038496000000000308e+00 -4.986800460749748337e-02
1.685000000000000053e+00 1.067699999999999960e+01 3.064000000000000057e+01 5.700242000000000253e+00 -5.100876598502000758e-02
1.685000000000000053e+00 1.212299999999999933e+01 3.144600000000000151e+01 4.849275999999999698e+00 5.589105238285906052e-02
1.685300000000000020e+00 2.243599999999999994e+01 1.979200000000000159e+01 2.942810999999999844e+00 -9.461975999013275129e-02
1.687200000000000033e+00 2.362699999999999800e+00 3.701099999999999834e+00 -3.168838999999999961e-01 -7.510110936666783421e-02
1.689000000000000057e+00 1.593299999999999983e+01 2.804599999999999937e+01 3.009213000000000093e+01 -5.146134266409235769e-02
1.690199999999999925e+00 3.029600000000000001e-02 9.636599999999999611e+00 2.267510999999999832e+00 -7.360878908793547226e-02
1.696299999999999919e+00 4.253999999999999559e+00 2.200600000000000023e+01 -1.943957999999999942e+01 -3.500000000000000333e-01
1.699000000000000066e+00 -3.112999999999999989e+00 1.765299999999999869e+01 2.067130999999999830e+00 -2.563541155629355250e-01
1.703000000000000069e+00 2.208500000000000085e+01 2.150499999999999901e+01 2.578432999999999975e+00 -9.021344037767564661e-02
1.705999999999999961e+00 7.402899999999999814e+00 2.550799999999999912e+01 -4.568268999999999913e+00 -4.313919036218026581e-02
1.705999999999999961e+00 7.612000000000000099e+00 2.477199999999999847e+01 -5.081531000000000020e+00 -4.303377338619289449e-02
1.713300000000000045e+00 1.095400000000000063e+01 2.308200000000000074e+01 -6.221843999999999930e+00 -1.369631164028166370e-01
1.717300000000000049e+00 7.055799999999999628e+00 5.627699999999999925e+00 1.647641000000000133e+01 -7.402230819939190076e-02
1.721899999999999986e+00 7.297399999999999665e+00 6.416400000000000325e+00 2.479495000000000005e+01 -7.360462370557639689e-02
1.723400000000000043e+00 1.964999999999999858e+01 1.515799999999999947e+01 -5.421938999999999709e+01 -1.635134351253499652e-01
1.725000000000000089e+00 2.269300000000000139e+01 1.800100000000000122e+01 1.055174999999999974e+00 -1.870368811176325585e-01
1.725000000000000089e+00 2.269300000000000139e+01 1.905099999999999838e+01 8.757858000000000587e+00 -9.655654462413953976e-02
1.730900000000000105e+00 1.079800000000000004e+01 1.908099999999999952e+01 -3.497898000000000174e+00 -2.426716086557367258e-01
1.730900000000000105e+00 1.219800000000000040e+01 1.908099999999999952e+01 6.396682999999999675e-01 -2.434058115742621931e-01
1.735000000000000098e+00 -2.020599999999999952e+00 1.865599999999999881e+01 -1.196995000000000031e+00 -2.557156260968246886e-01
1.737600000000000033e+00 7.807300000000000351e-01 6.062800000000000189e+00 1.206422000000000105e+00 -7.440141919881031185e-02
1.749900000000000011e+00 5.362599999999999589e-01 5.216999999999999638e+00 5.945788000000000295e+00 -7.470336021522558378e-02
1.751700000000000035e+00 -1.471500000000000030e+00 1.767899999999999849e+01 -4.202096000000000053e+00 -2.562079286625353891e-01
1.755500000000000060e+00 1.727899999999999991e+01 1.720499999999999829e+01 3.436637000000000164e+00 -2.729329535022342323e-01
1.755700000000000038e+00 5.950999999999999623e+00 4.182699999999999640e+00 7.103513000000000410e+00 -7.474185123170921929e-02
1.758899999999999908e+00 1.280400000000000027e+01 1.089199999999999946e+01 1.170686000000000071e+01 -5.700447008500562907e-02
1.764000000000000012e+00 -3.722700000000000120e+00 1.085899999999999999e+01 7.717098000000000013e+00 -1.509673534791637350e-01
1.768699999999999939e+00 -3.820199999999999818e+00 1.372799999999999976e+01 6.420673999999999992e+00 -2.584745018951014606e-01
1.771800000000000042e+00 1.707199999999999918e+01 1.144800000000000040e+01 -2.879340000000000011e+00 -1.701863115893768597e-01
1.775600000000000067e+00 -2.245099999999999874e-01 1.463299999999999912e+01 -7.549072000000000005e-01 -2.580480261494212391e-01
1.775600000000000067e+00 -2.245099999999999874e-01 1.549799999999999933e+01 -1.731870000000000021e+00 -2.574961877533888943e-01
1.782000000000000028e+00 1.498199999999999932e+01 2.897700000000000031e+01 1.391305999999999976e+01 -5.470996084379302349e-02
1.782000000000000028e+00 1.498199999999999932e+01 2.984299999999999997e+01 -2.108153999999999861e+00 -5.602424995682788594e-02
1.782000000000000028e+00 1.498199999999999932e+01 3.057300000000000040e+01 -1.519591999999999921e+01 -5.709257816425435811e-02
1.784599999999999964e+00 1.991100000000000092e-01 2.351000000000000156e+01 -9.585769000000000872e+00 -1.523431636047459237e-01
1.786000000000000032e+00 9.757300000000000750e+00 8.836700000000000443e+00 -3.932392999999999805e+00 -7.227813069080293862e-02
1.793299999999999894e+00 -1.717200000000000060e+00 1.935600000000000165e+01 -1.655102999999999991e+00 -2.563063640957621292e-01
1.798799999999999955e+00 2.783199999999999896e+00 2.260300000000000153e+01 -7.055364000000000146e+01 -2.437101326880082297e-01
1.810000000000000053e+00 -1.168099999999999916e+00 1.697899999999999920e+01 -8.980536000000000740e+00 -2.566063603394673764e-01
1.812000000000000055e+00 8.825800000000000312e-01 6.882600000000000051e+00 1.196119999999999983e+01 -7.409834872699216923e-02
1.812000000000000055e+00 8.825800000000000312e-01 8.354699999999999349e+00 2.534257999999999900e+00 -7.368056775731143815e-02
1.812000000000000055e+00 1.091699999999999893e+00 7.618699999999999584e+00 3.597614999999999785e+00 -7.384390068117017980e-02
1.816999999999999948e+00 -2.265899999999999803e+00 1.765299999999999869e+01 -1.143537999999999943e+00 -2.562882832733645588e-01
1.820000000000000062e+00 -1.128999999999999915e+01 2.092699999999999960e+01 6.617385999999999546e-01 -1.647875499271944100e-01
1.820000000000000062e+00 1.936400000000000077e+01 2.385500000000000043e+01 2.197766000000000020e+01 -5.051751542388334404e-02
1.820699999999999985e+00 9.046699999999999742e-01 4.366999999999999993e+00 4.246766000000000041e+00 -7.492034921920633084e-02
1.829599999999999893e+00 1.342699999999999960e+01 2.301800000000000068e+01 -6.846224000000000309e+00 -1.389558792353927097e-01
1.829800000000000093e+00 7.057000000000000384e+00 2.654899999999999949e+01 -7.571805999999999592e+00 -1.533115972518755699e-01
1.832000000000000073e+00 9.842100000000000293e+00 9.783500000000000085e+00 2.674002999999999908e+00 -7.177665165381032220e-02
1.832000000000000073e+00 9.842100000000000293e+00 1.064899999999999913e+01 1.573665000000000092e+00 -5.707793366811495656e-02
1.851199999999999957e+00 1.568699999999999939e+01 1.732400000000000162e+01 -4.030977000000000032e+00 -2.418049379584576997e-01
1.851299999999999946e+00 1.776999999999999913e+00 2.343400000000000105e+01 -3.770577999999999719e+01 -1.517455085031470807e-01
1.853399999999999936e+00 1.370100000000000051e+01 2.088800000000000168e+01 -6.108236999999999917e+00 -3.499999999999999778e-01
1.868000000000000105e+00 1.097499999999999964e+01 1.140700000000000003e+01 8.439584999999999226e+00 -5.668769541469263762e-02
1.872700000000000031e+00 -2.644899999999999807e+00 1.852499999999999858e+01 -2.950976000000000155e-01 -2.560096377358899167e-01
1.873299999999999965e+00 -8.387099999999999556e-01 1.621900000000000119e+01 -1.882077999999999918e+00 -2.570598810720001182e-01
1.881099999999999994e+00 1.330599999999999916e+01 3.150100000000000122e+01 -2.008943999999999974e+01 5.531743861174788501e-02
1.883299999999999974e+00 1.596499999999999986e+01 1.061100000000000065e+01 1.807090000000000085e+00 -1.714474094594518605e-01
1.883999999999999897e+00 7.056000000000000050e+00 2.739000000000000057e+01 -1.001013000000000019e+01 -1.539560546777812011e-01
1.884500000000000064e+00 -1.162599999999999945e+01 2.170200000000000173e+01 4.458819000000000088e+00 -1.651132874703757636e-01
1.892700000000000049e+00 -5.516000000000000014e+00 1.089499999999999957e+01 1.564757999999999982e-01 -1.513993600291076991e-01
1.892700000000000049e+00 -5.516000000000000014e+00 1.364499999999999957e+01 3.776567000000000007e+00 -2.584829908345306348e-01
1.893999999999999906e+00 -8.041099999999999914e-01 2.073799999999999955e+01 -1.671219000000000010e+00 -2.573805228276257462e-01
1.893999999999999906e+00 -5.950199999999999934e-01 2.147400000000000020e+01 -6.021339000000000219e+00 -2.581577720246487906e-01
1.896200000000000108e+00 -1.141200000000000081e+01 2.252400000000000091e+01 2.588113999999999848e+01 -1.653535469905914601e-01
1.901000000000000023e+00 2.085999999999999943e+01 1.642999999999999972e+01 3.619604999999999961e+00 -2.753093785840733942e-01
1.909499999999999975e+00 1.599099999999999966e+01 1.662399999999999878e+01 1.329758999999999913e+00 -2.411971360766630712e-01
1.909499999999999975e+00 1.599099999999999966e+01 1.802400000000000091e+01 1.121279000000000003e+01 -2.421058126445436720e-01
1.909499999999999975e+00 1.685600000000000165e+01 1.662399999999999878e+01 5.177445999999999771e+00 -2.406161907364642860e-01
1.909499999999999975e+00 1.685600000000000165e+01 1.802400000000000091e+01 1.152050000000000018e+01 -2.742573491830495036e-01
1.911000000000000032e+00 -3.684099999999999930e+00 7.899000000000000021e+00 -3.026829999999999909e+00 -7.464007591681499909e-02
1.911000000000000032e+00 -2.085900000000000087e+00 7.899000000000000021e+00 -8.399233999999999867e+00 -7.433543998987456047e-02
1.917799999999999949e+00 9.231999999999999318e+00 2.834700000000000131e+01 4.739843999999999724e+00 -4.654770660134098514e-02
1.920900000000000052e+00 -4.233399999999999608e+00 1.033300000000000018e+01 -8.379037000000000290e-02 -1.510375809130540536e-01
1.923899999999999944e+00 6.399099999999999788e+00 2.305199999999999960e+01 -5.135138999999999676e+00 -2.569300694120930650e-01
1.932299999999999907e+00 -8.278999999999999915e+00 2.462600000000000122e+01 3.103743999999999836e+00 -1.655580113697666389e-01
1.932299999999999907e+00 2.754300000000000193e+00 2.811999999999999833e+00 -9.316050999999999638e-01 -7.534082733586552894e-02
1.932299999999999907e+00 3.693700000000000205e+00 2.811999999999999833e+00 -2.674802999999999820e+00 -7.531607297644961341e-02
1.939699999999999980e+00 1.827499999999999858e+01 2.663299999999999912e+01 8.682805999999999358e+00 -4.376877115144387626e-02
1.952900000000000080e+00 -4.006700000000000372e+00 1.765299999999999869e+01 2.600124000000000102e+00 -2.564297758838535723e-01
1.964499999999999913e+00 1.801500000000000057e+01 1.720499999999999829e+01 -1.101353999999999944e+00 -2.734593852100885569e-01
1.970399999999999929e+00 -9.364000000000000767e+00 2.006800000000000139e+01 2.329480999999999913e+00 -2.604355484361556838e-01
1.974299999999999944e+00 -3.354699999999999793e+00 7.139000000000000234e+00 -3.177547000000000121e+00 -7.471994088384187327e-02
1.974299999999999944e+00 -3.354699999999999793e+00 8.659000000000000696e+00 -3.997217000000000020e+00 -7.440601914049158050e-02
1.974299999999999944e+00 -2.415299999999999780e+00 7.139000000000000234e+00 -4.210245999999999711e+00 -7.454993888983900419e-02
1.974299999999999944e+00 -2.415299999999999780e+00 8.659000000000000696e+00 -5.121989000000000125e+00 -7.421552843602333138e-02
1.975999999999999979e+00 -6.903699999999999726e+00 2.265500000000000114e+01 2.881754000000000104e+01 -1.644017241841271293e-01
1.975999999999999979e+00 -6.903699999999999726e+00 2.370499999999999829e+01 1.937950999999999979e+01 -1.648513741644895836e-01
1.981300000000000061e+00 3.725400000000000045e+00 1.929400000000000048e+01 -2.823103000000000051e+01 -3.500000000000000888e-01
1.997999999999999998e+00 1.175999999999999979e+01 2.304500000000000171e+01 -4.574631000000000114e+00 -1.374564634393472262e-01
2.020500000000000185e+00 3.920100000000000140e+00 1.782700000000000173e+01 -4.016454000000000235e+01 -2.556678728821414337e-01
2.021399999999999864e+00 -1.813299999999999912e+00 1.689099999999999824e+01 -3.664114999999999789e+00 -2.567032805648378768e-01
2.022800000000000153e+00 1.771199999999999974e+01 1.650499999999999901e+01 -6.362101000000000561e-02 -1.625155905353292130e-01
2.022800000000000153e+00 1.771199999999999974e+01 1.790500000000000114e+01 1.289244000000000057e+01 -2.748192360698376024e-01
2.023699999999999832e+00 -3.638300000000000090e+00 1.680300000000000082e+01 3.507587000000000010e+00 -2.568551161947566497e-01
2.023699999999999832e+00 -3.638300000000000090e+00 1.850300000000000011e+01 2.825041999999999831e+00 -2.566219313812424518e-01
