1.770200000000000173e+01 -5.762999999999999901e+00 3.483800000000000008e+00 -2.714862000000000108e+00 -1.417730499408853817e-01
1.771799999999999997e+01 -6.269000000000000128e+00 -6.617799999999999905e+00 -9.594737999999999545e+00 -2.866182085943785873e-01
1.772599999999999909e+01 4.449699999999999767e-01 -2.377299999999999969e+00 1.917467999999999861e+01 -1.662340092676463099e-01
1.772599999999999909e+01 4.449699999999999767e-01 -1.120899999999999952e-01 8.133881999999999834e+00 -1.829760050383367476e-01
1.773100000000000165e+01 -1.066300000000000026e+01 -2.053999999999999915e+01 -1.896185000000000009e+00 -2.865660894092373900e-01
1.773100000000000165e+01 -9.612700000000000244e+00 -2.053999999999999915e+01 -1.648076000000000096e+00 -2.861871209248799675e-01
1.773499999999999943e+01 -8.992599999999999483e+00 -5.492600000000000371e+00 -2.578815000000000079e+00 -2.826309007734641998e-01
1.773499999999999943e+01 4.529799999999999938e-01 5.009199999999999875e+00 2.408136999999999972e+00 5.467977568572468527e-02
1.774599999999999866e+01 -5.176499999999999879e+00 7.001999999999999780e+00 -8.133105000000000473e+00 3.044582598769519574e-02
1.775900000000000034e+01 -1.210100000000000087e+01 -1.738800000000000168e+01 -8.155891999999999697e+00 -1.927497943034415795e-01
1.776999999999999957e+01 -9.374700000000000699e+00 -3.727700000000000014e+00 1.280329000000000050e+01 -2.790211076002283574e-01
1.777100000000000080e+01 -6.929299999999999571e+00 4.546999999999999709e+00 1.124438000000000049e+00 -1.392938661312558279e-01
1.777100000000000080e+01 -6.929299999999999571e+00 6.246999999999999886e+00 6.198025000000000340e+00 -7.754998901269355427e-02
1.777100000000000080e+01 1.408600000000000074e+00 1.786200000000000010e+00 3.138336999999999932e+01 1.266710052290084820e-01
1.778800000000000026e+01 2.049399999999999888e+00 -3.261699999999999822e+00 6.648477999999999888e+00 -1.523655035375415245e-01
1.779100000000000037e+01 8.243300000000000072e-01 -2.189799999999999969e+01 8.702961000000000169e-01 -7.163573468143816236e-02
1.779100000000000037e+01 8.243300000000000072e-01 -2.084799999999999898e+01 1.416489000000000109e+00 -1.482322902893574157e-01
1.779200000000000159e+01 -9.223699999999999122e+00 -4.721099999999999852e+00 6.920054000000000372e+00 -2.813739806239418106e-01
1.779500000000000171e+01 -1.540700000000000003e+01 -4.368999999999999773e+00 -4.353634999999999700e+00 -1.459234387591099025e-01
1.779500000000000171e+01 -1.096799999999999997e+01 -1.901099999999999923e+01 1.690246000000000137e+01 -1.927468025661373263e-01
1.779500000000000171e+01 -1.096799999999999997e+01 -1.814600000000000080e+01 -1.695389999999999953e-01 -1.924279590807082552e-01
1.780199999999999960e+01 -1.103200000000000003e+01 -1.969000000000000128e+01 8.373874000000000706e+00 -1.930053650844557600e-01
1.780799999999999983e+01 4.268900000000000361e+00 -6.009299999999999642e+00 -2.594285000000000174e+00 -1.237716324475840873e-01
1.783599999999999852e+01 3.070699999999999985e+00 -1.228200000000000003e+01 6.955312000000000161e+00 -1.413294302328546581e-01
1.784199999999999875e+01 3.574300000000000033e+00 -9.964900000000000091e+00 5.177849000000000146e+00 -1.373053651804591879e-01
1.784199999999999875e+01 -7.297699999999999854e+00 5.397000000000000242e+00 1.423141000000000034e+01 -5.557113554860883958e-02
1.787199999999999989e+01 3.464399999999999924e+00 -1.073099999999999987e+01 4.391175999999999746e+00 -1.387593700486972337e-01
1.789199999999999946e+01 -5.116900000000000226e+00 -2.265500000000000114e+01 9.272380999999999318e+00 -1.512131594695971804e-01
1.789699999999999847e+01 -5.881400000000000183e+00 6.384500000000000064e+00 -1.186558999999999919e+01 4.057833155310093531e-02
1.789799999999999969e+01 -9.225600000000000023e+00 -1.979599999999999937e+01 1.531352999999999964e+00 -2.862389902470323655e-01
1.789799999999999969e+01 -8.360300000000000509e+00 -1.979599999999999937e+01 -1.848181999999999992e+00 -2.858851353560715181e-01
1.790099999999999980e+01 -1.610900000000000176e+01 -4.479099999999999859e+00 -1.601712999999999942e+00 -1.496739930205876756e-01
1.790099999999999980e+01 -1.735000000000000142e+01 -8.158500000000000085e+00 -4.740579999999999572e+00 -1.663957453357742533e-01
1.790899999999999892e+01 -2.092600000000000016e+00 6.190999999999999837e+00 7.798852000000000118e+00 5.749394008262370681e-02
1.791199999999999903e+01 2.979999999999999982e+00 -3.291900000000000048e+00 7.096626999999999796e+00 -1.433708856398244746e-01
1.791300000000000026e+01 -1.324300000000000033e+01 -2.970299999999999940e+00 7.408158000000000243e+00 -1.303891083059562084e-01
1.791300000000000026e+01 -1.179700000000000060e+01 -2.164000000000000146e+00 3.713186000000000320e+01 -2.298114245750692564e-01
1.791300000000000026e+01 8.912799999999999612e-01 9.392000000000000348e-01 1.197992999999999952e+01 -5.292236621707837457e-02
1.793599999999999994e+01 -7.369699999999999918e+00 -7.060599999999999987e+00 1.481800999999999924e+01 -2.865248146489762782e-01
1.794300000000000139e+01 -1.880199999999999960e+01 -6.514000000000000234e+00 -7.726605000000000167e+00 -1.734572743115303795e-01
1.794300000000000139e+01 -1.857499999999999929e+01 -7.313100000000000378e+00 -3.514237000000000055e+00 -1.714316396597399261e-01
1.794300000000000139e+01 -1.857499999999999929e+01 -5.714900000000000091e+00 -6.661167999999999978e+00 -1.738638072523630007e-01
1.794300000000000139e+01 -1.735000000000000142e+01 -4.869500000000000384e+00 -2.340494999999999948e+01 -1.684386497542134098e-01
1.795100000000000051e+01 1.484799999999999898e+00 -1.484800000000000075e+01 6.526568000000000147e+00 -1.452668422989870645e-01
1.795100000000000051e+01 1.693899999999999961e+00 -1.558399999999999963e+01 6.196892000000000067e+00 -1.454777436249096723e-01
1.795100000000000051e+01 1.693899999999999961e+00 -1.411200000000000010e+01 7.865630000000000344e+00 -1.446190664250752711e-01
1.795100000000000051e+01 2.701099999999999834e+00 -1.310500000000000043e+01 5.093225999999999587e+00 -1.426842302050309041e-01
1.795100000000000051e+01 8.137699999999999934e-01 4.696399999999999686e+00 1.610089000000000103e+00 5.542220653087052973e-02
1.795100000000000051e+01 1.820999999999999952e+00 3.689099999999999824e+00 3.196172999999999931e+00 2.579969654228616571e-01
1.795200000000000173e+01 -1.615800000000000125e+01 -1.633299999999999841e+01 -7.372320999999999458e-01 -1.639757094507836022e-01
1.795200000000000173e+01 3.335300000000000153e+00 -1.168900000000000006e+01 2.955454000000000025e+00 -1.403209820524533025e-01
1.795599999999999952e+01 4.355299999999999727e+00 -4.212699999999999889e+00 -7.133123000000000102e-01 -1.170057150216232966e-01
1.795799999999999841e+01 -1.683299999999999841e+01 -1.177299999999999969e+01 -3.173929999999999807e-01 -1.646085755095090530e-01
1.795899999999999963e+01 -7.772499999999999964e+00 -2.049699999999999989e+01 -6.278116999999999948e+00 -2.856070131436550530e-01
1.796699999999999875e+01 4.484799999999999898e+00 -5.276600000000000179e+00 -9.465426999999999591e-01 -1.191744455739474073e-01
1.797200000000000131e+01 -8.502299999999999969e+00 -6.302299999999999791e+00 2.498970999999999876e+01 -2.849873149812244821e-01
1.797500000000000142e+01 -4.981799999999999784e+00 -5.591000000000000192e+00 -7.827473000000000347e+00 -1.815200672185362518e-01
1.798000000000000043e+01 1.826999999999999957e+00 2.472100000000000186e+00 2.598385000000000034e+01 1.137817382747345063e-01
1.798799999999999955e+01 -3.107200000000000184e+00 -2.445500000000000007e+00 1.225095999999999918e+01 -5.377233534508100293e-02
1.799299999999999855e+01 1.234299999999999981e-02 -1.677300000000000013e+00 1.221205999999999925e+01 -1.719953024199301350e-01
1.799299999999999855e+01 1.234299999999999981e-02 -8.120899999999999785e-01 1.083905999999999992e+01 -1.777371558643813243e-01
1.801699999999999946e+01 1.605799999999999894e+00 -1.640700000000000003e+01 1.145467999999999975e+01 -1.460075778389904044e-01
1.802199999999999847e+01 4.497700000000000031e-01 -1.998300000000000054e+01 1.229684999999999917e+01 -1.481815159023982809e-01
1.803500000000000014e+01 -3.807399999999999896e+00 2.238100000000000200e+00 -2.689379999999999882e+00 -1.611866664752728828e-01
1.803900000000000148e+01 -3.677999999999999936e+00 -2.551399999999999935e+01 7.858060000000000045e+00 -1.509751375873811807e-01
1.803900000000000148e+01 -2.720000000000000195e+00 -2.551399999999999935e+01 1.213427000000000078e+01 -1.506673394996300708e-01
1.804200000000000159e+01 -2.943099999999999827e+00 -3.556599999999999762e-01 1.525652999999999926e+00 -4.000000000000000777e-02
1.804200000000000159e+01 -2.733999999999999986e+00 -1.091699999999999893e+00 9.353630000000000777e+00 -5.430360650224258512e-02
1.804599999999999937e+01 -1.663100000000000023e+01 -1.260999999999999943e+01 -4.705947000000000102e+00 -1.642635895861883910e-01
1.805600000000000094e+01 -1.320300000000000029e+00 -2.347299999999999898e+01 4.247843999999999731e+00 -1.498423075025679119e-01
1.805699999999999861e+01 -6.530599999999999739e+00 -2.155699999999999861e+01 2.851790999999999965e+00 -1.931038483719851873e-01
1.806200000000000117e+01 -1.280100000000000016e+01 -1.744600000000000151e+01 -1.045592000000000077e+01 -1.933123060511022784e-01
1.806200000000000117e+01 -1.140099999999999980e+01 -1.744600000000000151e+01 -3.371264000000000038e+00 -1.924865544243188620e-01
1.806599999999999895e+01 -1.687099999999999866e+01 -1.068500000000000050e+01 -1.158031999999999950e+00 -1.646736434773370950e-01
1.807100000000000151e+01 -1.675000000000000000e+01 -9.807600000000000762e+00 -2.836751000000000134e-01 -1.643520595294318820e-01
1.809799999999999898e+01 4.694700000000000095e+00 -8.857699999999999463e+00 -1.655962999999999852e+01 -1.325108578875575094e-01
1.809799999999999898e+01 4.694700000000000095e+00 -7.918300000000000338e+00 -3.142117999999999967e+01 -1.296302564953801251e-01
1.809900000000000020e+01 -1.427699999999999925e+01 -1.787399999999999878e+01 -4.443318999999999797e+00 -1.943589219845161253e-01
1.810399999999999920e+01 -4.013899999999999579e+00 -2.473900000000000077e+01 7.063498000000000054e+00 -1.510081559258980854e-01
1.810399999999999920e+01 -2.384100000000000108e+00 -2.473900000000000077e+01 2.816309000000000040e+01 -1.504498650523264647e-01
1.811299999999999955e+01 -2.186300000000000132e+00 -2.388700000000000045e+01 4.259875000000000256e+01 -1.502468167039251457e-01
1.811499999999999844e+01 -2.808499999999999996e+00 -2.332600000000000051e+01 5.731356000000000250e+01 -1.503970320707172514e-01
1.811599999999999966e+01 2.989999999999999880e-01 -2.274800000000000111e+01 1.400778000000000079e+00 -1.490650520782668687e-01
1.813899999999999935e+01 -3.742900000000000116e+00 -2.397200000000000131e+01 6.450511000000000195e+01 -1.508335454679018972e-01
1.814699999999999847e+01 -1.573499999999999943e+01 -1.707700000000000173e+01 -7.961635999999999713e-01 -1.635911971590323366e-01
1.814799999999999969e+01 -1.669200000000000017e+01 -1.357600000000000051e+01 -9.534274999999999167e+00 -1.644459721526947416e-01
1.816499999999999915e+01 -8.368399999999999450e-02 5.449399999999999800e+00 -1.136171000000000042e+01 4.453709862094536176e-02
1.816600000000000037e+01 -3.653300000000000214e+00 1.532100000000000017e+00 -2.399519999999999875e+00 -1.619890279308833780e-01
1.816799999999999926e+01 -4.969500000000000028e+00 3.352799999999999780e+00 -4.603107999999999755e+00 -1.561609033312292838e-01
1.816900000000000048e+01 -1.691700000000000159e+01 -8.858499999999999375e+00 -2.150993000000000155e+00 -1.648510627423047104e-01
1.817200000000000060e+01 -1.013799999999999990e+01 -1.980499999999999972e+01 -1.656716000000000077e+00 -2.867637245970783288e-01
1.817699999999999960e+01 -1.681400000000000006e+01 -1.439199999999999946e+01 -9.575713000000000363e+00 -1.646874870188196338e-01
1.817699999999999960e+01 -1.658699999999999974e+01 -1.519100000000000072e+01 -2.233045000000000169e+00 -1.644123455232042175e-01
1.817800000000000082e+01 -4.290300000000000225e+00 7.198000000000000398e+00 3.336224000000000078e+00 1.819995717515063560e-01
1.817800000000000082e+01 -3.239700000000000024e+00 7.198000000000000398e+00 4.078345999999999805e+00 1.691698644575472255e-01
1.818299999999999983e+01 1.449999999999999956e+00 -2.612699999999999800e+00 4.847849000000000075e+00 -1.636416045562179566e-01
1.819099999999999895e+01 -2.719700000000000006e+00 -2.396399999999999864e+01 1.058589000000000055e+02 -1.504647695381638728e-01
1.819600000000000151e+01 -4.528599999999999959e+00 -4.379599999999999937e+00 2.488620000000000054e+00 -7.925186446470569579e-02
1.819699999999999918e+01 -3.648099999999999898e+00 5.517699999999999827e-01 -1.198831999999999898e+00 -1.589915326376189764e-01
1.819699999999999918e+01 -4.046299999999999564e+00 -2.327199999999999847e+01 1.924430999999999869e+01 -1.508817087676459501e-01
1.819999999999999929e+01 -6.454100000000000392e+00 5.476700000000000124e+00 -4.367690999999999768e+00 -1.565929266118492036e-01
1.820400000000000063e+01 -6.229300000000000281e+00 4.279600000000000293e+00 -3.857953999999999883e+00 -1.499260333397701705e-01
1.821000000000000085e+01 7.483300000000000507e-01 2.726700000000000235e-01 7.998985000000000234e+00 -1.881416614256252451e-01
1.822899999999999920e+01 -1.470700000000000074e+01 -3.985799999999999788e+00 -1.725606000000000151e+01 -1.415560127844824045e-01
1.823900000000000077e+01 -8.069699999999999207e+00 -7.002299999999999969e+00 2.998930999999999969e+01 -2.867991809579617524e-01
1.823900000000000077e+01 -6.669699999999999740e+00 -7.002299999999999969e+00 -3.026533000000000140e-01 -2.880542095131309877e-01
1.828099999999999881e+01 3.830000000000000071e+00 -3.362699999999999800e+00 2.368775999999999993e+00 -1.320267879373354103e-01
1.828900000000000148e+01 -4.810900000000000176e+00 6.470100000000000406e+00 -2.342280999999999835e+01 3.889810869380151692e-02
1.829200000000000159e+01 2.386500000000000010e-01 -1.916499999999999915e+01 8.027578999999999354e+00 -1.480974088106404851e-01
1.829200000000000159e+01 2.386500000000000010e-01 -1.829899999999999949e+01 2.769940000000000069e+00 -1.478224848933083480e-01
1.829299999999999926e+01 -1.063499999999999979e+01 -1.925700000000000145e+01 2.431900999999999868e+00 -2.871299967623096583e-01
1.829400000000000048e+01 -8.792899999999999494e+00 -1.930499999999999972e+01 2.719249000000000027e+00 -2.863950920090419516e-01
1.830300000000000082e+01 -5.852000000000000313e+00 -2.221399999999999864e+01 8.430583999999999634e+00 -1.515439373435572279e-01
1.830399999999999849e+01 2.945399999999999796e+00 -1.257900000000000063e+01 4.711110999999999827e+00 -1.420755864680989800e-01
1.832400000000000162e+01 -3.544599999999999973e+00 -2.332600000000000051e+01 4.311457999999999657e+01 -1.507110871094366200e-01
1.832999999999999829e+01 -7.660300000000000331e+00 -2.006299999999999883e+01 -6.278116999999999948e+00 -2.858352427120904871e-01
1.833200000000000074e+01 1.074899999999999967e+00 -1.731400000000000006e+01 5.137643999999999878e+00 -1.469117950938347850e-01
1.833500000000000085e+01 -3.198999999999999844e+00 -2.473900000000000077e+01 3.155018000000000100e+01 -1.507576170075075050e-01
1.834600000000000009e+01 -1.373399999999999999e+01 -3.366899999999999782e+00 1.075980000000000025e+01 -1.346673887003853876e-01
1.834600000000000009e+01 -1.086700000000000088e+01 -2.359599999999999920e+00 4.034343999999999930e+00 -2.757789935683711002e-01
1.835699999999999932e+01 -4.037300000000000111e+00 -3.354900000000000215e+00 5.119207000000000285e+00 -8.045671484319237565e-02
1.836499999999999844e+01 -2.885200000000000209e+00 6.400800000000000267e+00 1.762866999999999962e+00 6.236746347801346013e-02
1.837500000000000000e+01 -1.664600000000000080e+00 5.702200000000000379e+00 -1.707576999999999856e+01 5.136744885443731562e-02
1.837999999999999901e+01 -1.753700000000000037e+00 -2.318700000000000117e+01 1.672203999999999979e+01 -1.500027783159112171e-01
1.838299999999999912e+01 -3.241200000000000081e+00 -2.262600000000000122e+01 3.279035999999999973e+01 -1.505164370321196154e-01
1.838299999999999912e+01 -2.375900000000000123e+00 -2.262600000000000122e+01 2.099062999999999946e+01 -1.501598582530036530e-01
1.838400000000000034e+01 1.330100000000000060e+00 4.085700000000000109e+00 5.326996000000000286e+00 8.559933720823324765e-02
1.838800000000000168e+01 4.224999999999999645e+00 -9.617699999999999250e+00 -1.134980999999999973e+01 -1.357756133496682005e-01
1.839099999999999824e+01 2.279999999999999805e+00 -2.888599999999999834e+00 8.621824000000000154e-01 -1.572737172873725220e-01
1.839199999999999946e+01 -7.281600000000000072e+00 -2.089300000000000068e+01 -3.444001000000000090e+00 -2.856319535786248642e-01
1.841300000000000026e+01 -1.804200000000000159e+01 -7.743699999999999584e+00 -5.123575999999999908e+00 -1.690562633205989207e-01
1.841300000000000026e+01 -1.804200000000000159e+01 -5.284299999999999997e+00 -1.703503999999999863e+01 -1.718771079412952096e-01
1.842099999999999937e+01 -3.598100000000000076e+00 -2.842099999999999849e+00 6.707638000000000211e+00 -4.000000000000000777e-02
1.843799999999999883e+01 -1.264700000000000024e+01 -2.488700000000000134e+00 1.772666999999999859e+01 -1.222577997284312740e-01
1.845499999999999829e+01 1.149799999999999933e+00 -2.025100000000000122e+01 2.467747999999999831e+00 -1.480080219633516658e-01
1.845899999999999963e+01 7.300999999999999712e-01 -4.702999999999999958e-01 5.216560000000000308e+00 -1.841933258320838651e-01
1.846099999999999852e+01 8.426900000000000501e-01 -1.979200000000000070e+00 6.727108999999999561e+00 -1.715891062155362745e-01
1.846199999999999974e+01 -5.594500000000000028e+00 -6.119500000000000384e+00 -7.239530000000000243e+00 -1.800899938130683386e-01
1.846300000000000097e+01 2.230399999999999938e+00 -1.364199999999999946e+01 5.093225999999999587e+00 -1.439370539120765069e-01
1.846799999999999997e+01 -1.512700000000000067e+01 -1.780300000000000082e+01 -1.437656999999999963e+00 -1.950258257597285994e-01
1.846799999999999997e+01 -1.342699999999999960e+01 -1.780300000000000082e+01 -4.348607000000000333e+00 -1.939628742526330885e-01
1.847400000000000020e+01 -1.726999999999999957e+01 -1.224600000000000044e+01 -1.474259999999999904e+00 -1.654798376049599340e-01
1.847400000000000020e+01 -3.434000000000000163e+00 4.094300000000000023e-02 1.525652999999999926e+00 -3.999999999999999389e-02
1.847899999999999920e+01 -2.906499999999999861e+00 5.832300000000000040e+00 -9.695486000000000715e+00 6.686820988232297647e-02
1.848400000000000176e+01 4.089400000000000257e-01 -1.244699999999999918e+00 9.729782999999999404e+00 -1.771499069934949766e-01
1.849099999999999966e+01 -6.228500000000000369e+00 -6.927299999999999791e+00 -1.870382000000000033e+01 -1.782504492799096563e-01
1.849200000000000088e+01 -1.754299999999999926e+01 -1.117600000000000016e+01 -1.122050999999999910e+00 -1.661773722673391962e-01
1.849500000000000099e+01 -1.210100000000000087e+01 -1.717899999999999849e+01 -5.500545999999999935e+00 -1.929704946398302645e-01
1.849500000000000099e+01 -1.091000000000000014e+01 -1.784299999999999997e+01 6.562791999999999515e-01 -1.925432751276484056e-01
1.849500000000000099e+01 -1.070100000000000051e+01 -1.857900000000000063e+01 2.455813000000000024e+00 -1.927097403784788221e-01
1.849500000000000099e+01 -9.897000000000000242e+00 -3.182100000000000151e+00 9.000861999999999696e+00 -2.809527446850373367e-01
1.849899999999999878e+01 1.699699999999999989e+00 3.262999999999999901e+00 1.193349000000000082e+01 9.687164405597822880e-02
1.850300000000000011e+01 -3.765000000000000124e+00 6.347999999999999865e+00 -5.447391999999999790e+00 1.915037135026334547e-01
1.850700000000000145e+01 -3.474600000000000133e+00 5.771700000000000053e+00 -1.046171000000000006e+01 1.959618579958486428e-01
1.853000000000000114e+01 -9.404600000000000293e+00 -4.842299999999999827e+00 -3.812183999999999795e+00 -2.846594640932599840e-01
1.853500000000000014e+01 9.906500000000000306e-01 -2.228500000000000014e+01 1.188388999999999918e+00 -7.172343271575369605e-02
1.855000000000000071e+01 -9.512999999999999901e+00 -4.253000000000000114e+00 4.594966000000000328e+00 -2.838441157539017268e-01
1.855600000000000094e+01 1.522299999999999986e+00 1.563700000000000090e+00 2.448474999999999824e+01 1.318298705382715819e-01
1.855600000000000094e+01 1.357199999999999962e+00 -2.125700000000000145e+01 -3.329978000000000105e-01 -7.108504120833049333e-02
1.855699999999999861e+01 -1.726800000000000068e+01 -1.025200000000000067e+01 2.014847000000000055e+00 -1.656844912795197300e-01
1.856099999999999994e+01 4.384000000000000341e+00 -7.104000000000000092e+00 -2.555275999999999925e+01 -1.291655698353431081e-01
1.856800000000000139e+01 -9.634399999999999409e+00 -1.931400000000000006e+01 1.694471999999999978e+00 -2.869197215197767381e-01
1.857900000000000063e+01 -1.211899999999999977e+01 -2.278399999999999981e+00 7.719555999999999862e+00 -1.199857220104711686e-01
1.859100000000000108e+01 1.695300000000000029e+00 2.592600000000000016e+00 3.825036000000000058e+01 1.108788715437816624e-01
1.859400000000000119e+01 -4.479000000000000092e+00 -2.278099999999999881e+01 1.379175000000000040e+01 -1.510643523179069914e-01
1.859400000000000119e+01 -1.540700000000000003e+01 -4.142000000000000348e+00 -3.497972000000000037e+01 -1.456408518965464638e-01
1.859400000000000119e+01 -1.421599999999999930e+01 -3.478000000000000203e+00 1.076918000000000042e+01 -1.377340360336192782e-01
1.859600000000000009e+01 -3.677000000000000046e+00 3.572000000000000064e+00 -4.828534999999999577e+00 1.280730465431301757e-01
1.859799999999999898e+01 -8.092900000000000205e+00 -1.936299999999999955e+01 -3.851747000000000032e+00 -2.862918750641852972e-01
1.860200000000000031e+01 -5.419200000000000017e+00 4.040000000000000036e+00 -3.672667999999999822e+00 -4.000000000000000083e-02
1.860200000000000031e+01 -5.419200000000000017e+00 5.839999999999999858e+00 -1.122845000000000049e+01 4.758956765776724274e-02
1.862099999999999866e+01 6.085099999999999953e-01 -2.273699999999999832e+01 1.458342999999999945e+00 -7.189986142739744623e-02
1.862999999999999901e+01 -1.675700000000000145e+01 -4.768799999999999706e+00 -2.640839000000000070e+01 -1.648661662115368243e-01
1.863100000000000023e+01 1.741900000000000004e+00 -2.004299999999999926e+01 -9.522498000000000573e+00 -7.020251936500342127e-02
1.863700000000000045e+01 -8.970000000000000195e-01 5.636000000000000121e+00 -3.043303999999999832e+01 3.978907357730164518e-02
1.864099999999999824e+01 -5.510000000000000453e-01 -2.307300000000000040e+01 2.074816999999999911e+00 -1.495557978535178578e-01
1.865099999999999980e+01 1.752099999999999991e+00 -1.528100000000000058e+01 1.495357000000000047e+00 -1.455246240493203724e-01
1.865099999999999980e+01 1.752099999999999991e+00 -1.441499999999999915e+01 3.540125000000000188e+00 -1.450462584851220926e-01
1.865899999999999892e+01 -6.118000000000000327e+00 -8.752000000000000668e+00 1.420304000000000011e+00 -2.890174332768492560e-01
1.867200000000000060e+01 -8.560600000000000875e+00 -6.605699999999999683e+00 1.652174999999999949e+00 -2.875787007486428903e-01
1.867500000000000071e+01 -5.040099999999999802e+00 -5.287600000000000300e+00 -5.374219000000000079e+00 -1.829132855959914872e-01
1.867699999999999960e+01 -5.809300000000000352e+00 4.940000000000000391e+00 -6.319085000000000285e+00 -4.000000000000000083e-02
1.867699999999999960e+01 -4.126999999999999780e+00 3.257699999999999818e+00 -3.450966999999999896e+00 1.361918261793785556e-01
1.868100000000000094e+01 -4.982700000000000351e+00 -4.184599999999999653e+00 1.094156000000000084e+01 -1.840584249074735390e-01
1.868400000000000105e+01 -1.621300000000000097e+01 -1.649299999999999855e+01 -3.643817999999999779e-01 -1.640710398958623029e-01
1.868799999999999883e+01 -3.165500000000000203e+00 -2.142100000000000115e+00 1.208919000000000032e+01 -5.382799368792244576e-02
1.868900000000000006e+01 -4.660499999999999865e+00 -3.542100000000000026e+00 6.753401000000000209e+00 -7.918888302043126937e-02
1.869699999999999918e+01 -3.259300000000000086e+00 5.018299999999999983e+00 -1.011565000000000047e+01 1.063796395370118636e-01
1.870299999999999940e+01 -1.851200000000000045e+01 -6.983699999999999797e+00 -2.950711999999999779e+00 -1.715662962277779147e-01
1.870299999999999940e+01 -1.851200000000000045e+01 -6.044299999999999784e+00 -3.803863000000000216e+00 -1.729275015456145370e-01
1.871499999999999986e+01 -1.641799999999999926e+01 -1.561299999999999955e+01 -1.299535000000000107e+00 -1.642306866157000611e-01
1.872200000000000131e+01 1.582400000000000029e+00 -1.955099999999999838e+01 -1.128707999999999956e+01 -6.967303565431479107e-02
1.872500000000000142e+01 9.386499999999999844e-01 -1.943199999999999861e+01 -4.826455000000000162e+00 -1.478984870233405746e-01
1.873400000000000176e+01 -6.601399999999999935e+00 -2.196399999999999864e+01 1.266397999999999913e+00 -1.933765981707750992e-01
1.873499999999999943e+01 -4.430399999999999672e+00 5.922299999999999898e+00 -1.616189999999999927e+01 2.037048133401255789e-01
1.874599999999999866e+01 -2.473899999999999988e+00 5.132299999999999862e+00 -1.160416000000000025e+01 8.827162706608934761e-02
1.875199999999999889e+01 -1.732799999999999940e+01 -9.083700000000000330e+00 -9.863058999999999577e-01 -1.660763588069662233e-01
1.875700000000000145e+01 -5.116900000000000226e+00 -2.265500000000000114e+01 7.730323000000000278e+00 -1.513332265722733549e-01
1.876200000000000045e+01 -4.386800000000000033e+00 4.028200000000000003e+00 -7.063818000000000374e+00 1.359633931370537452e-01
1.876599999999999824e+01 -6.454100000000000392e+00 -7.511000000000000121e+00 -1.090501000000000076e+01 -1.784193699420191792e-01
1.877899999999999991e+01 -2.808499999999999996e+00 -2.213500000000000156e+01 1.126687000000000083e+01 -1.503359692628878919e-01
1.878300000000000125e+01 -1.047600000000000087e+01 -2.471999999999999975e+00 -1.963346999999999953e+00 -2.799821525881976969e-01
1.878699999999999903e+01 1.147799999999999931e+00 6.994899999999999451e-01 1.098194999999999943e+01 -5.200822743255861802e-02
1.879899999999999949e+01 -3.947900000000000187e+00 5.005799999999999805e+00 -1.314855000000000018e+01 1.205742819188974774e-01
1.880199999999999960e+01 3.406099999999999905e+00 -1.205799999999999983e+01 1.499786999999999981e+00 -1.412634850656240559e-01
1.880199999999999960e+01 3.660000000000000142e+00 -1.116399999999999970e+01 2.366696999999999829e+00 -1.398205755098668734e-01
1.880499999999999972e+01 -2.940999999999999837e+00 3.572000000000000064e+00 -9.233772000000000091e+00 1.213717784201163996e-01
1.880600000000000094e+01 2.979999999999999982e+00 -3.037999999999999812e+00 -5.035053999999999697e+00 -1.516578212744940368e-01
1.880600000000000094e+01 4.216999999999999638e+00 -6.367799999999999905e+00 -1.692896000000000001e+01 -1.286954222394717517e-01
1.880600000000000094e+01 4.426099999999999923e+00 -5.631700000000000372e+00 -1.716603000000000101e+00 -1.252299571207835804e-01
1.880600000000000094e+01 4.426099999999999923e+00 -3.844300000000000050e+00 -2.450371000000000077e+00 -1.239005571219208707e-01
1.880600000000000094e+01 4.679999999999999716e+00 -4.738000000000000433e+00 -7.868839999999999613e+00 -1.204081686710684052e-01
1.880699999999999861e+01 -1.732999999999999829e+01 -5.145800000000000374e+00 -7.178889999999999816e+01 -1.680760191899529632e-01
1.881800000000000139e+01 1.520000000000000018e+00 -2.495600000000000041e+00 -9.568404999999999827e-01 -1.668761318242694414e-01
1.883699999999999974e+01 2.688400000000000123e+00 -1.290099999999999980e+01 1.988710999999999895e+00 -1.430422746064441974e-01
1.884400000000000119e+01 -1.327299999999999969e+01 -2.845899999999999874e+00 9.106289000000000300e+00 -1.306600454616992091e-01
1.885800000000000054e+01 3.792400000000000215e+00 -1.031799999999999962e+01 1.166266999999999943e+00 -1.384732745620601835e-01
1.885800000000000054e+01 4.758000000000000007e+00 -9.187099999999999156e+00 -1.201276999999999973e+01 -1.343855057872498648e-01
1.885800000000000054e+01 4.758000000000000007e+00 -7.588899999999999757e+00 -5.658104999999999762e+01 -1.300808565768023228e-01
1.885800000000000054e+01 4.985000000000000320e+00 -8.387999999999999901e+00 -1.961173000000000144e+01 -1.318128873371962606e-01
1.886299999999999955e+01 -3.244400000000000173e+00 2.871999999999999886e+00 -4.164022000000000112e+00 1.310410498239327759e-01
1.886799999999999855e+01 -6.854000000000000092e+00 -8.752000000000000668e+00 7.297775999999999819e+00 -1.779379013594129255e-01
1.886799999999999855e+01 -5.381999999999999673e+00 -8.752000000000000668e+00 -5.791153000000000439e+00 -2.885722162797851320e-01
1.887000000000000099e+01 7.896100000000000341e-01 -1.862000000000000099e+01 -4.349185000000000301e+00 -1.477430751825639654e-01
1.889000000000000057e+01 -8.913399999999999324e+00 -5.791699999999999626e+00 -1.249047000000000018e+01 -2.876280353052338978e-01
1.890800000000000125e+01 -1.578599999999999959e+01 -1.739300000000000068e+01 -9.385154999999999470e-01 -1.955767453272284073e-01
1.891100000000000136e+01 -7.262299999999999756e+00 -7.431199999999999584e+00 2.846229999999999905e+01 -1.765608933009392423e-01
1.892599999999999838e+01 -1.697500000000000142e+01 -1.316699999999999982e+01 -2.175670999999999911e+00 -1.649221968433877694e-01
1.892599999999999838e+01 8.631799999999999473e-01 4.616500000000000270e+00 7.978546999999999834e+00 6.837963014401184092e-02
1.892599999999999838e+01 -6.550600000000000200e+00 -9.451999999999999957e+00 6.479866000000000348e+00 -1.788538116416871215e-01
1.892599999999999838e+01 -5.685399999999999565e+00 -9.451999999999999957e+00 4.927787999999999613e+00 -2.885267879519563539e-01
1.892800000000000082e+01 -1.280100000000000016e+01 -1.744600000000000151e+01 -7.188263000000000069e+00 -1.936673730731355847e-01
1.892800000000000082e+01 -1.140099999999999980e+01 -1.744600000000000151e+01 -1.191138000000000030e+00 -1.928374797117841655e-01
1.893499999999999872e+01 -1.030300000000000082e+01 -1.892299999999999827e+01 1.818059000000000092e+00 -2.875130863896070421e-01
1.894600000000000151e+01 -4.863000000000000433e+00 4.940000000000000391e+00 -2.155658999999999992e+01 -4.000000000000000083e-02
1.895599999999999952e+01 2.479099999999999859e+00 -2.004299999999999926e+01 -3.371731000000000034e+00 -7.038613261740903071e-02
1.897400000000000020e+01 -1.663400000000000034e+01 -1.487400000000000055e+01 -2.710586000000000162e+00 -1.644656898124160771e-01
1.897500000000000142e+01 -5.718099999999999739e+00 -7.511000000000000121e+00 -2.941634000000000171e+01 -1.808786425918858798e-01
1.898100000000000165e+01 -2.644899999999999807e+00 4.115999999999999659e+00 -1.431642000000000081e+01 1.133902051129858368e-01
1.898199999999999932e+01 -1.387500000000000000e+01 -3.171499999999999986e+00 -3.941437999999999886e-01 -1.351991844230368001e-01
1.898600000000000065e+01 1.797700000000000131e-01 -2.320400000000000063e+01 7.174587000000000048e-01 -1.493696234752517893e-01
1.899099999999999966e+01 1.326699999999999990e+00 -1.764999999999999858e+01 2.492268000000000150e+00 -1.470821297889770285e-01
1.899099999999999966e+01 -1.595100000000000051e+01 -8.114000000000000767e+00 -4.558081999999999745e+00 -1.616650118229899236e-01
1.899299999999999855e+01 -1.427699999999999925e+01 -1.812800000000000011e+01 -5.152743000000000073e+00 -1.947619732198082321e-01
1.899299999999999855e+01 -1.733699999999999974e+01 -8.070000000000000284e+00 -8.636386999999999148e+00 -1.664087708614788996e-01
1.901000000000000156e+01 -6.921999999999999709e+00 -8.269899999999999807e+00 7.873345999999999734e+00 -1.779670957721472824e-01
1.901200000000000045e+01 -1.664499999999999957e+01 -1.395899999999999963e+01 -1.825337999999999994e+01 -1.644146195968527180e-01
1.901899999999999835e+01 2.149700000000000166e+00 -2.080300000000000082e+01 -4.127952999999999761e+00 -7.086789589077595319e-02
1.901899999999999835e+01 2.149700000000000166e+00 -1.928300000000000125e+01 -2.719882999999999829e+00 -6.953487113655407170e-02
1.902700000000000102e+01 -1.470700000000000074e+01 -3.874600000000000044e+00 -2.795675999999999917e+01 -1.415781803383707460e-01
1.903000000000000114e+01 -8.792899999999999494e+00 -1.909600000000000009e+01 1.043145999999999907e+00 -2.869361927423293990e-01
1.903800000000000026e+01 -3.826999999999999957e+00 1.064000000000000057e+00 -2.297553000000000178e+00 -8.934873080089843211e-02
1.906299999999999883e+01 1.238299999999999956e+00 6.312500000000000056e-02 3.291619999999999990e+00 -5.142715488178727090e-02
1.906400000000000006e+01 -1.616700000000000159e+01 -4.432299999999999685e+00 -1.372777999999999921e+01 -1.499107175331061415e-01
1.907999999999999829e+01 -1.486299999999999955e+00 -2.275400000000000134e+01 4.066855999999999582e+00 -1.499345530588557240e-01
1.908200000000000074e+01 -1.799599999999999866e+01 -1.192500000000000071e+01 -7.074013999999999580e-01 -1.669593698753977506e-01
1.908200000000000074e+01 -1.799599999999999866e+01 -1.087500000000000000e+01 -3.105782999999999738e-01 -1.672702066675535726e-01
1.908299999999999841e+01 -3.508500000000000174e+00 -2.219300000000000139e+01 3.555635999999999797e+00 -1.506922357316066441e-01
1.908299999999999841e+01 -2.108499999999999819e+00 -2.219300000000000139e+01 6.005935000000000024e+00 -1.500984665339251956e-01
1.908399999999999963e+01 1.615099999999999980e+00 -1.675700000000000145e+01 4.621427999999999869e+00 -1.465350583739620516e-01
1.908399999999999963e+01 1.868999999999999995e+00 -1.586299999999999955e+01 -2.913031000000000148e+00 -1.459125174634302580e-01
1.908500000000000085e+01 1.087299999999999933e+00 -1.795600000000000085e+00 7.610946000000000211e+00 -1.751559872520522532e-01
1.908500000000000085e+01 1.087299999999999933e+00 -9.303299999999999903e-01 7.027833000000000219e+00 -1.835063881739311953e-01
1.909100000000000108e+01 -3.688800000000000079e+00 1.943799999999999972e+00 -2.494137999999999966e+00 1.407609329643532414e-01
1.910699999999999932e+01 -1.370000000000000107e-01 5.345699999999999896e+00 -5.529301999999999850e+01 3.569109093611218947e-02
1.913700000000000045e+01 1.730799999999999894e+00 -1.498300000000000054e+01 -8.380342000000000346e-02 -1.456101246825039774e-01
1.915200000000000102e+01 -1.082000000000000028e+01 -1.807900000000000063e+01 1.673591000000000051e+00 -1.928412243267937920e-01
1.915500000000000114e+01 -3.452100000000000168e+00 -1.038299999999999987e-02 -9.008833000000000535e-01 -8.653475275618835449e-02
1.916000000000000014e+01 -7.576699999999999768e+00 -1.980199999999999960e+01 7.055643999999999805e-01 -2.863742423608844345e-01
1.916100000000000136e+01 1.365299999999999958e+00 -2.226099999999999923e+01 -1.853159999999999918e+00 -7.165043019200117991e-02
1.917299999999999827e+01 -1.775199999999999889e+01 -7.274000000000000021e+00 -1.696155999999999864e+01 -1.683281652280455842e-01
1.917299999999999827e+01 -1.775199999999999889e+01 -5.753999999999999559e+00 -2.908145999999999987e+01 -1.696928295382937324e-01
1.917299999999999827e+01 -1.714900000000000091e+00 5.421899999999999942e+00 -7.470733000000000068e+00 4.998610112325509863e-02
1.917399999999999949e+01 -3.164299999999999891e+00 -1.626800000000000024e+00 1.258665000000000056e+01 -3.999999999999999389e-02
1.917599999999999838e+01 -5.852599999999999802e+00 -2.262900000000000134e+01 3.556649999999999867e+00 -1.931430425943912454e-01
1.919000000000000128e+01 1.710599999999999898e+00 -1.408500000000000085e+01 3.295917999999999903e+00 -1.451915133935727242e-01
1.919999999999999929e+01 -1.521499999999999986e+01 -8.114000000000000767e+00 -1.520818000000000003e+00 -1.486333460497031300e-01
1.921000000000000085e+01 1.578999999999999959e+00 1.005600000000000049e+00 1.363996000000000031e+01 -5.171178390827176063e-02
1.922100000000000009e+01 2.279999999999999805e+00 -2.888599999999999834e+00 -1.754416999999999893e+00 -1.610616575649767568e-01
1.922200000000000131e+01 -1.204800000000000004e+01 -1.733899999999999864e+01 -2.038848000000000049e-01 -1.933015396123495544e-01
1.922299999999999898e+01 -9.488899999999999224e+00 -1.900100000000000122e+01 1.436434999999999906e+00 -2.873764536660730062e-01
1.922599999999999909e+01 1.838100000000000067e+00 1.774999999999999911e+00 1.466714999999999947e+01 -5.216587188321791801e-02
1.923000000000000043e+01 -9.672000000000000597e+00 -4.409699999999999953e+00 1.306545999999999985e+01 -2.872635283330863820e-01
1.923000000000000043e+01 -9.462899999999999423e+00 -5.145699999999999719e+00 -2.540422999999999831e+01 -2.880391524231463163e-01
1.923300000000000054e+01 1.789299999999999891e+00 -2.162000000000000099e+01 -3.776927999999999841e+00 -7.130823528460691896e-02
1.923600000000000065e+01 -1.808099999999999952e+01 -6.514000000000000234e+00 -9.123874999999999957e+00 -1.703415953976230024e-01
1.925499999999999901e+01 -7.169299999999999784e+00 -2.160999999999999943e+01 1.358802999999999983e+00 -1.938826879347293475e-01
1.926200000000000045e+01 -1.125099999999999945e+01 -2.176000000000000156e+00 -1.744951000000000008e+01 -1.671589669585185622e-01
1.926200000000000045e+01 -9.932499999999999218e+00 -2.911099999999999799e+00 1.114450999999999965e+02 -2.853795768796230092e-01
1.926200000000000045e+01 -9.701000000000000512e+00 -3.725999999999999979e+00 9.426967999999999392e+01 -2.868029241947690489e-01
1.926399999999999935e+01 1.358999999999999986e+00 3.800600000000000200e+00 1.342928999999999995e+01 8.985381263128637552e-02
1.926699999999999946e+01 -1.706099999999999994e+01 -9.173700000000000188e+00 9.445584000000000202e-01 -1.652985867167710288e-01
1.926800000000000068e+01 -8.007099999999999440e+00 -7.103500000000000369e+00 2.334299999999999820e+00 -1.752131916565481118e-01
1.926999999999999957e+01 1.813800000000000079e+00 -1.852700000000000102e+01 -1.695442999999999856e+01 -1.472283466654631945e-01
1.927799999999999869e+01 -1.553200000000000003e+01 -8.852499999999999147e+00 2.715644999999999865e+00 -1.498406008224054120e-01
1.928699999999999903e+01 -4.383499999999999730e+00 -2.781000000000000139e+00 4.423865000000000158e+00 -7.963566197531418700e-02
1.928999999999999915e+01 -7.342299999999999827e+00 -2.058099999999999952e+01 1.957081999999999988e+00 -2.862406539345608847e-01
1.929299999999999926e+01 -1.561800000000000033e+01 -7.246800000000000352e+00 -1.467088000000000036e+01 -1.491731148294337117e-01
1.929599999999999937e+01 -2.544399999999999995e+00 3.139299999999999979e+00 -5.204207000000000249e+00 1.266509720506432679e-01
1.929700000000000060e+01 -1.641199999999999903e+01 -8.891000000000000014e+00 -9.804640000000000022e-01 -1.633821456686310181e-01
1.930000000000000071e+01 2.945399999999999796e+00 -1.257900000000000063e+01 7.131364000000000279e-03 -1.427899847262067978e-01
1.930099999999999838e+01 -5.397300000000000431e+00 -3.831700000000000106e+00 6.219960999999999629e+00 -1.855709213866881258e-01
1.930300000000000082e+01 -5.531900000000000261e+00 -4.877399999999999736e+00 -2.487807000000000102e+00 -1.838600260540719789e-01
1.930699999999999861e+01 -1.673699999999999832e+01 -7.289799999999999613e+00 -2.598517999999999972e+01 -1.644065656091234229e-01
1.932300000000000040e+01 -6.118000000000000327e+00 -9.942899999999999849e+00 7.625062999999999924e+00 -2.893634041077055019e-01
1.932799999999999940e+01 4.224999999999999645e+00 -9.617699999999999250e+00 -2.509368999999999872e+01 -1.371799705062190511e-01
1.932999999999999829e+01 -4.479000000000000092e+00 -2.257199999999999918e+01 7.426124999999999865e+00 -1.511634661063622764e-01
1.933099999999999952e+01 3.830000000000000071e+00 -3.362699999999999800e+00 -1.525158000000000014e+00 -1.419402246665125433e-01
1.934499999999999886e+01 -5.505399999999999849e+00 -6.438100000000000378e+00 -1.751692999999999856e+01 -1.829159461992214686e-01
1.934499999999999886e+01 -5.296299999999999564e+00 -5.702099999999999724e+00 -8.340529000000000082e+00 -1.840807341999138314e-01
1.935900000000000176e+01 -7.250600000000000378e+00 -9.184599999999999653e+00 4.346354999999999968e+00 -1.782098525804734490e-01
1.935900000000000176e+01 -4.985400000000000276e+00 -9.184599999999999653e+00 1.708120999999999867e+01 -1.963606451322562341e-01
1.936299999999999955e+01 2.170399999999999885e+00 -1.334099999999999930e+01 2.597716999999999832e+00 -1.443527879418717297e-01
1.937199999999999989e+01 -8.502299999999999969e+00 -6.302299999999999791e+00 -1.693628999999999962e+01 -1.733448219223300835e-01
1.939699999999999847e+01 -2.126700000000000035e+00 4.585700000000000109e+00 -1.881183000000000050e+01 1.018768022089309583e-01
1.939999999999999858e+01 4.341899999999999871e+00 -7.104300000000000281e+00 -2.780881000000000114e+01 -1.321632953158142221e-01
1.940599999999999881e+01 1.593099999999999961e+00 2.982699999999999907e+00 3.700688000000000244e+01 1.017027187335208804e-01
1.940700000000000003e+01 -1.747100000000000009e+01 -1.277500000000000036e+01 -1.007001999999999953e+00 -1.658228108517591781e-01
1.942000000000000171e+01 -1.759600000000000009e+01 -9.969200000000000728e+00 1.355704000000000020e+00 -1.665926765555037770e-01
1.943599999999999994e+01 -1.338700000000000045e+01 -2.656800000000000050e+00 1.545571999999999946e+00 -1.427652559971562263e-01
1.943599999999999994e+01 -8.970000000000000195e-01 5.408999999999999808e+00 -1.947612000000000165e+01 3.755694222557152268e-02
1.946099999999999852e+01 -1.514899999999999913e+01 -1.795400000000000063e+01 -8.097952999999999957e-01 -1.954589281511930343e-01
1.946300000000000097e+01 -1.728200000000000003e+01 -6.514000000000000234e+00 -5.843334999999999724e+01 -1.668887213564669292e-01
1.946600000000000108e+01 -7.586800000000000210e+00 -7.943599999999999994e+00 1.392886000000000024e+01 -1.773009723228101131e-01
1.946600000000000108e+01 -5.321500000000000341e+00 -7.078400000000000247e+00 -2.542158999999999835e+01 -1.833892077600124959e-01
1.947200000000000131e+01 -2.248299999999999965e+00 3.683399999999999785e+00 -1.679251000000000005e+01 1.196719227874403629e-01
1.947299999999999898e+01 -1.649800000000000111e+01 -1.588100000000000023e+01 -1.857938000000000089e+00 -1.643766996128170343e-01
1.947700000000000031e+01 -1.206600000000000072e+01 -2.258199999999999985e+00 -9.387437000000000212e-03 -1.690211411372488370e-01
1.948600000000000065e+01 8.399999999999999689e-01 -2.311100000000000065e+01 -8.596555000000000168e-01 -7.199560508227124955e-02
1.948900000000000077e+01 2.909699999999999953e+00 -2.051300000000000168e+01 -6.719018000000000157e+00 -7.081332789428651520e-02
1.948900000000000077e+01 2.909699999999999953e+00 -1.957300000000000040e+01 -1.122001999999999988e+01 -6.999582397685126522e-02
1.949500000000000099e+01 -1.634700000000000131e+01 -1.687399999999999878e+01 -4.522621000000000002e-01 -1.961634851504339694e-01
1.951099999999999923e+01 -1.700000000000000000e+01 -5.892999999999999794e+00 -5.268341999999999814e+01 -1.658872696693249327e-01
1.951200000000000045e+01 -9.046399999999999997e-01 -2.320599999999999952e+01 1.465753000000000084e+00 -1.498695155103934029e-01
1.951500000000000057e+01 -3.999499999999999833e+00 -2.258999999999999986e+01 7.426124999999999865e+00 -1.510035051318613653e-01
1.951500000000000057e+01 -2.808499999999999996e+00 -2.192599999999999838e+01 3.753385000000000193e+00 -1.504421978443294117e-01
1.951599999999999824e+01 -1.467399999999999949e+01 -3.525100000000000122e+00 4.823855000000000004e+00 -1.410294535941359340e-01
1.951800000000000068e+01 -1.342699999999999960e+01 -1.780300000000000082e+01 -1.508537000000000017e+00 -1.943896653612454395e-01
1.952499999999999858e+01 -1.274799999999999933e+01 -1.739699999999999847e+01 -3.856383999999999812e+00 -1.938744654633621500e-01
1.952499999999999858e+01 -1.134800000000000075e+01 -1.739699999999999847e+01 4.761328000000000227e-01 -1.930421746126888272e-01
1.953900000000000148e+01 4.529799999999999938e-01 5.009199999999999875e+00 -1.809324000000000154e+01 3.892243566025163637e-02
1.956299999999999883e+01 -2.976999999999999869e+00 2.439299999999999802e+00 -4.757659000000000304e+00 1.401515478541784099e-01
1.957999999999999829e+01 -6.644000000000000128e+00 -2.246000000000000085e+01 7.043658000000000419e-01 -1.936844541379825479e-01
1.958500000000000085e+01 -4.882699999999999818e+00 -8.324400000000000688e+00 -2.451792000000000193e+00 -1.974138074648937868e-01
1.958699999999999974e+01 -1.637500000000000000e+01 -6.581599999999999895e+00 -4.864580999999999733e+01 -1.629428553034476257e-01
1.961199999999999832e+01 4.254299999999999748e+00 -6.083099999999999952e+00 7.282023999999999830e+00 -1.317833785051544804e-01
1.961199999999999832e+01 3.475800000000000001e+00 -1.172000000000000064e+01 5.023105000000000153e+00 -1.415732719606266898e-01
1.961799999999999855e+01 4.694700000000000095e+00 -8.857699999999999463e+00 -4.517347999999999786e+01 -1.353706032228908507e-01
1.961799999999999855e+01 4.694700000000000095e+00 -7.918300000000000338e+00 -8.881414999999999793e+01 -1.334374213710954882e-01
1.962600000000000122e+01 -4.871999999999999886e+00 -2.981700000000000017e+00 3.651597999999999900e+00 -7.832229421801827074e-02
1.962600000000000122e+01 -6.817999999999999616e+00 -9.884600000000000719e+00 8.282052000000000191e+00 -1.797236942467145826e-01
1.962600000000000122e+01 -5.418000000000000149e+00 -9.884600000000000719e+00 1.047366000000000064e+01 -1.966486923250213570e-01
1.963899999999999935e+01 -1.546199999999999974e+01 -4.335600000000000342e+00 -2.627260000000000062e+01 -1.464267149089632514e-01
1.964499999999999957e+01 -1.647599999999999909e+01 -1.515199999999999925e+01 -3.432726999999999862e+00 -1.962335285068148027e-01
1.965299999999999869e+01 -1.027399999999999913e+01 -1.866600000000000037e+01 3.234126999999999974e+00 -2.880709014735886031e-01
1.965599999999999881e+01 4.355299999999999727e+00 -5.263300000000000090e+00 4.044061000000000128e+00 -1.308630407539644325e-01
1.965599999999999881e+01 4.355299999999999727e+00 -4.212699999999999889e+00 -1.409731999999999985e+00 -1.327501879542300200e-01
1.966199999999999903e+01 -8.971999999999999531e+00 -5.542300000000000004e+00 -2.605480000000000018e+01 -1.718732502538287965e-01
1.969099999999999895e+01 -1.481799999999999962e+01 -8.546599999999999753e+00 2.338274999999999881e+00 -1.924223764748125842e-01
1.969099999999999895e+01 -1.481799999999999962e+01 -7.681400000000000006e+00 -6.158807000000000365e+00 -1.473316983000235170e-01
1.969399999999999906e+01 -1.597899999999999920e+01 -9.381899999999999906e+00 5.026906000000000319e+00 -1.622993431743655068e-01
1.969999999999999929e+01 2.979999999999999982e+00 -3.291900000000000048e+00 1.363546000000000014e+01 -1.541353708889507679e-01
1.970299999999999940e+01 8.264799999999999924e-01 4.278100000000000236e+00 -1.189600999999999908e+00 7.559463250256012734e-02
1.970499999999999829e+01 -3.822000000000000064e+00 -2.059699999999999864e+00 1.382946999999999926e+00 -8.095732859892389166e-02
1.970899999999999963e+01 1.767600000000000060e+00 -2.526800000000000157e+00 5.301128000000000284e+00 -1.687286292792042897e-01
1.971199999999999974e+01 -1.658699999999999974e+01 -1.365600000000000058e+01 -3.336072000000000148e+00 -1.643219654748408198e-01
1.971199999999999974e+01 -1.637800000000000011e+01 -1.439199999999999946e+01 -5.261039000000000243e+00 -1.961380114543631314e-01
1.972299999999999898e+01 -8.042299999999999116e+00 -1.944900000000000162e+01 2.211022999999999961e+00 -2.870188957741580671e-01
1.974099999999999966e+01 -1.047600000000000087e+01 -2.471999999999999975e+00 8.919019999999999726e+00 -2.869519098405343693e-01
1.976000000000000156e+01 3.524999999999999911e+00 -1.075000000000000000e+01 6.127322000000000379e+00 -1.406830396953546725e-01
1.976200000000000045e+01 -5.179000000000000270e+00 -2.283999999999999986e+01 4.599857000000000085e+00 -1.515215728327261591e-01
1.977899999999999991e+01 2.701499999999999790e+00 -1.289000000000000057e+01 -7.689658999999999800e-01 -1.437294968145308993e-01
1.977899999999999991e+01 2.439999999999999947e+00 -2.127299999999999969e+01 -4.787138999999999811e+00 -7.114660421067227347e-02
1.977899999999999991e+01 2.439999999999999947e+00 -1.881299999999999883e+01 -2.798010000000000019e+01 -6.896218761185876622e-02
1.980099999999999838e+01 -1.282300000000000040e+01 -2.304199999999999804e+00 -4.309995999999999938e+00 -1.718303604736573509e-01
