3.191799999999999926e+01 1.385299999999999976e+01 9.411400000000000432e+00 3.047043999999999997e+01 -7.129562192822894162e-02
3.192299999999999827e+01 1.468900000000000006e+01 -3.243700000000000028e+00 9.333183999999999259e+00 -5.333894457005433631e-02
3.193299999999999983e+01 1.390000000000000036e+01 8.439999999999999503e+00 9.565360999999999336e+00 -5.367924319781286480e-02
3.193799999999999883e+01 1.045899999999999963e+01 4.177999999999999936e+00 9.018734999999999502e+00 -5.325139791589961202e-02
3.195100000000000051e+01 1.407900000000000063e+01 1.450599999999999890e+00 -4.229368000000000016e-01 -1.619173885461622497e-01
3.196499999999999986e+01 1.803500000000000014e+01 2.661900000000000155e+00 1.431912999999999947e+01 -1.536060533800644168e-01
3.196900000000000119e+01 1.230199999999999960e+01 2.897299999999999986e+00 1.494420999999999999e+01 -1.658790692968076241e-01
3.198699999999999832e+01 1.788400000000000034e+01 3.655299999999999994e+00 5.721141000000000254e+00 -1.515782924762958672e-01
3.199599999999999866e+01 6.456599999999999895e+00 -1.213799999999999990e+01 6.394961000000000118e-01 -6.359857683539597850e-02
3.200099999999999767e+01 9.465999999999999304e+00 2.474000000000000199e+00 2.700262000000000029e+01 -6.821044665610273561e-02
3.200200000000000244e+01 1.460299999999999976e+01 -1.172600000000000087e+01 -8.395664999999999933e-01 -6.372262154251760735e-02
3.201800000000000068e+01 1.088499999999999979e+01 3.305699999999999861e+00 1.141451999999999956e+01 -1.698116019847191738e-01
3.203300000000000125e+01 1.328299999999999947e+01 -5.980699999999999683e+00 -4.382325999999999944e+00 -6.384982698053279226e-02
3.203399999999999892e+01 1.628900000000000148e+01 5.252299999999999969e+00 3.160063000000000066e+00 -1.560251606440767602e-01
3.203799999999999670e+01 1.748999999999999844e+01 1.353499999999999981e-01 -7.971635000000000026e+00 -1.591560536714908269e-01
3.208800000000000097e+01 1.191900000000000048e+01 3.350099999999999856e+00 1.027581999999999951e+01 -5.313941131368771220e-02
3.209499999999999886e+01 9.596700000000000230e+00 1.162700000000000067e+01 -9.389528999999999570e+00 -7.589250259266436260e-02
3.209499999999999886e+01 9.596700000000000230e+00 1.227899999999999991e+01 -2.088108000000000075e+01 -7.566014691475284049e-02
3.210399999999999920e+01 1.845700000000000074e+01 -1.345400000000000063e+01 3.804902999999999924e+00 -6.367696663709139504e-02
3.210399999999999920e+01 1.950700000000000145e+01 -1.345400000000000063e+01 2.076685000000000159e+01 -6.367190418880104563e-02
3.210399999999999920e+01 1.950700000000000145e+01 -1.175399999999999956e+01 -3.269639999999999702e+01 -6.369366565417597381e-02
3.211299999999999955e+01 1.046799999999999997e+01 9.128500000000000725e+00 6.046368000000000187e+00 -5.425675936253983311e-02
3.211999999999999744e+01 1.546000000000000085e+01 -1.136999999999999922e+01 1.594257000000000035e+00 -6.372230957925596739e-02
3.212199999999999989e+01 1.750400000000000134e+01 -9.783099999999999241e+00 -4.422111000000000125e+00 -6.373615695938708581e-02
3.212899999999999778e+01 1.255899999999999928e+01 -1.445599999999999952e+01 2.314265000000000072e-01 -6.365707926351180101e-02
3.213600000000000279e+01 1.791300000000000026e+01 -3.183600000000000207e+00 8.878268000000000271e+00 -5.364275545229858777e-02
3.214300000000000068e+01 1.433300000000000018e+01 -4.065999999999999837e+00 7.725738999999999912e+00 -6.385444454139437009e-02
3.214600000000000080e+01 1.822500000000000142e+01 -7.768299999999999983e+00 2.692833999999999950e+00 -6.375458129033015342e-02
3.214800000000000324e+01 1.088100000000000023e+01 -1.001500000000000057e+01 3.400751999999999953e+01 -6.374166013395519970e-02
3.215299999999999869e+01 1.846099999999999852e+01 -3.940799999999999859e+00 2.466886999999999830e+00 -5.358220894473251367e-02
3.215500000000000114e+01 1.242500000000000071e+01 1.290199999999999925e+01 2.408474000000000004e+01 1.129016250656682818e-01
3.216499999999999915e+01 1.191699999999999982e+01 4.191499999999999559e+00 6.491051999999999822e+00 -5.315653334271001895e-02
3.217300000000000182e+01 9.289199999999999235e+00 -1.064199999999999946e+01 1.415555999999999948e+01 -6.369883350470925687e-02
3.217499999999999716e+01 1.987600000000000122e+01 -1.260399999999999920e+01 -3.787332999999999839e+00 -6.367857787835048966e-02
3.218099999999999739e+01 1.780699999999999861e+01 -1.048300000000000054e+01 -1.012504000000000071e+00 -6.372112882646673027e-02
3.218299999999999983e+01 1.770299999999999940e+01 -8.526300000000000878e+00 7.672204999999999941e+00 -6.374954444906873186e-02
3.219200000000000017e+01 1.135299999999999976e+01 4.177999999999999936e+00 1.157916999999999952e+01 -5.314033779457738582e-02
3.219500000000000028e+01 1.735600000000000165e+01 -6.860500000000000487e-01 -1.886862999999999957e+01 -5.331267287134590360e-02
3.219599999999999795e+01 1.500699999999999967e+01 -1.483300000000000063e+00 -9.220615999999999701e+00 -5.368673854799491801e-02
3.219599999999999795e+01 1.746699999999999875e+01 -1.483300000000000063e+00 -3.722068999999999761e+01 -5.345238786726104474e-02
3.220000000000000284e+01 8.945999999999999730e+00 -1.460399999999999920e+01 3.385673000000000155e+00 -6.360678358276769528e-02
3.220000000000000284e+01 1.057600000000000051e+01 -1.414100000000000001e+01 4.705680000000000085e+00 -6.364092652381933557e-02
3.221200000000000330e+01 1.070299999999999940e+01 1.305300000000000082e+01 3.883742999999999945e+00 -7.240864145286610154e-02
3.221500000000000341e+01 5.346700000000000230e+00 -1.428800000000000026e+01 1.081722999999999990e+00 -6.352068640285554735e-02
3.221500000000000341e+01 5.346700000000000230e+00 -1.323799999999999955e+01 1.614400999999999975e+00 -6.353085650089811132e-02
3.221800000000000352e+01 1.364700000000000024e+01 2.150599999999999845e+00 1.103484000000000087e+01 -1.641097053516892557e-01
3.221900000000000119e+01 1.421000000000000085e+01 -4.977599999999999802e+00 -3.656480000000000175e+00 -6.383987862557513604e-02
3.222399999999999665e+01 9.796200000000000685e+00 1.011700000000000088e+01 4.842196999999999640e+00 -5.492539420172598552e-02
3.223700000000000188e+01 1.350600000000000023e+01 8.669299999999999784e+00 9.720575000000000188e+00 -5.362126293802056687e-02
3.224900000000000233e+01 1.490399999999999991e+01 -2.424700000000000077e+00 4.164447000000000010e-01 -5.350058836632472919e-02
3.224900000000000233e+01 1.158500000000000085e+01 4.992899999999999672e+00 7.467398000000000202e+00 -5.317395358938493966e-02
3.225500000000000256e+01 1.525699999999999967e+01 -7.110499999999999599e-01 -4.721147000000000205e+00 -5.352391326706075481e-02
3.225900000000000034e+01 6.722000000000000419e+00 -1.520899999999999963e+01 1.158041000000000098e+00 -6.354678097536056725e-02
3.225999999999999801e+01 1.728600000000000136e+01 -1.275099999999999945e+01 1.360698000000000008e+01 -6.368728793627226326e-02
3.225999999999999801e+01 1.833599999999999852e+01 -1.105100000000000016e+01 -7.436162999999999634e+00 -6.370642478172711121e-02
3.228199999999999648e+01 1.526800000000000068e+01 5.866299999999999848e+00 -3.178128000000000064e+00 -5.327563618109763810e-02
3.228799999999999670e+01 1.524600000000000044e+01 9.105599999999999805e-02 -3.170110000000000205e+00 -5.331967282050538437e-02
3.229500000000000171e+01 1.381000000000000050e+01 7.969299999999999606e+00 -3.254261999999999944e+01 -5.348114883275717490e-02
3.231199999999999761e+01 1.735900000000000176e+01 4.505300000000000082e+00 8.959396999999999167e+00 -1.515726818645029284e-01
3.231600000000000250e+01 1.779500000000000171e+01 -2.293499999999999872e+00 -3.785016000000000158e+00 -5.353319210036737441e-02
3.232500000000000284e+01 1.312400000000000055e+01 2.677000000000000046e+00 2.105386000000000024e+01 -5.307165900155443039e-02
3.234100000000000108e+01 1.205499999999999972e+01 -9.518200000000000216e+00 8.119744999999999990e+00 -6.374981420085365502e-02
3.237400000000000233e+01 1.265300000000000047e+01 4.191499999999999559e+00 1.431696999999999997e+00 -5.309781244759800151e-02
3.237899999999999778e+01 1.685500000000000043e+01 -1.198399999999999999e+01 1.584125000000000050e+01 -6.369669122090407254e-02
3.239000000000000057e+01 1.278800000000000026e+01 3.451999999999999957e+00 5.916938999999999993e+01 -5.306773006425191674e-02
3.241100000000000136e+01 1.827899999999999991e+01 -1.277299999999999969e+01 -6.261919999999999709e-01 -6.367818406780591245e-02
3.241199999999999903e+01 1.400200000000000067e+01 7.497600000000000264e+00 -1.658521000000000001e+01 -5.337548629461831562e-02
3.241499999999999915e+01 1.334500000000000064e+01 -1.381000000000000050e+01 -5.841473999999999833e+00 -6.366260087628911046e-02
3.242300000000000182e+01 1.475999999999999979e+01 -1.142800000000000082e+01 -8.249769000000000130e-01 -6.370965607659571928e-02
3.242399999999999949e+01 1.097100000000000009e+01 8.313599999999999213e+00 6.589766000000000234e-01 -5.360935176863131091e-02
3.242900000000000205e+01 1.898199999999999932e+01 -1.260399999999999920e+01 -8.800435000000000230e+00 -6.367655101118971372e-02
3.243299999999999983e+01 1.234999999999999964e+01 4.891499999999999737e+00 -4.555600000000000094e+00 -5.310558152822025813e-02
3.244700000000000273e+01 1.869099999999999895e+01 -1.184800000000000075e+01 -1.325370999999999988e+01 -6.368739530950442984e-02
3.246399999999999864e+01 1.883999999999999986e+01 -6.573699999999999655e+00 -1.249691000000000107e+00 -6.374569363042974224e-02
3.246600000000000108e+01 1.259800000000000075e+01 -7.331999999999999851e+00 -1.892822000000000005e+00 -6.379102173737613568e-02
3.246600000000000108e+01 1.282499999999999929e+01 -6.532899999999999707e+00 -1.211612000000000045e+01 -6.380650481158736675e-02
3.248599999999999710e+01 1.377800000000000047e+01 -5.677599999999999980e+00 -1.517463000000000051e+01 -6.381391928494255239e-02
3.249900000000000233e+01 1.467800000000000082e+01 9.515500000000000069e-01 -9.108308999999999989e-01 -1.628738800289540323e-01
3.251500000000000057e+01 1.366799999999999926e+01 -1.277899999999999991e+01 -1.052825999999999951e+01 -6.367892489348267460e-02
3.254200000000000159e+01 1.346299999999999919e+01 1.075600000000000023e+01 4.066479999999999961e+01 -7.118392056239433718e-02
3.255100000000000193e+01 6.942099999999999937e+00 -1.173099999999999987e+01 6.637737000000000220e-01 -6.358416083416565390e-02
3.256199999999999761e+01 1.801599999999999824e+01 1.246599999999999930e+00 1.078552000000000000e+01 -1.567115654264095714e-01
3.256400000000000006e+01 1.541099999999999959e+01 -3.069999999999999840e+00 1.919094000000000078e+00 -5.344520069305539606e-02
3.258500000000000085e+01 1.781099999999999994e+01 -1.190099999999999980e+01 -1.446615999999999902e+00 -6.368676934191037919e-02
3.260000000000000142e+01 8.367200000000000415e+00 -1.076699999999999946e+01 6.148182000000000258e+00 -6.364201542816458335e-02
3.260699999999999932e+01 1.607100000000000151e+01 -4.929999999999999938e-01 -3.976726000000000028e+01 -5.328482554106096780e-02
3.260799999999999699e+01 1.248799999999999955e+01 -8.818199999999999150e+00 -1.152107999999999910e+00 -6.374920905909073343e-02
3.261999999999999744e+01 1.640500000000000114e+01 -1.131700000000000017e+01 6.109631000000000256e+00 -6.369973411132398566e-02
3.262199999999999989e+01 1.510800000000000054e+01 -3.770000000000000018e+00 3.507598999999999734e+01 -5.330245918007313344e-02
3.262299999999999756e+01 1.337800000000000011e+01 1.161800000000000033e+01 1.014195999999999920e+01 1.027346719554265569e-01
3.263000000000000256e+01 8.090400000000000702e+00 -1.454599999999999937e+01 1.811873000000000067e+00 -6.357079789277843285e-02
3.263499999999999801e+01 1.718599999999999994e+01 -9.186299999999999244e+00 1.674030000000000129e+01 -6.372626374946852024e-02
3.263700000000000045e+01 1.002500000000000036e+01 -1.029400000000000048e+01 1.703197000000000116e+01 -6.368794707740524363e-02
3.264399999999999835e+01 1.135500000000000043e+01 -9.576499999999999346e+00 4.067895999999999646e+01 -6.372234427844657156e-02
3.264999999999999858e+01 1.179499999999999993e+01 6.654499999999999638e+00 -5.630944999999999645e+00 -5.313377316818874985e-02
3.266599999999999682e+01 1.576699999999999946e+01 -1.193000000000000060e+00 -1.057911000000000001e+01 -5.345614191615433164e-02
3.266599999999999682e+01 1.576699999999999946e+01 2.069999999999999896e-01 -8.754712000000000049e-01 -5.312665421676594779e-02
3.267300000000000182e+01 1.701800000000000068e+01 -1.031799999999999962e+01 1.457921999999999940e+01 -6.370991856946899012e-02
3.267999999999999972e+01 1.157499999999999929e+01 1.322700000000000031e+01 5.147579999999999600e+00 1.388376282817138652e-01
3.267999999999999972e+01 1.302100000000000080e+01 1.242099999999999937e+01 1.640908999999999907e+01 1.052089486459228951e-01
3.268200000000000216e+01 1.884600000000000009e+01 -4.266600000000000392e+00 -3.212104000000000070e+00 -5.356284493069122382e-02
3.268599999999999994e+01 1.385999999999999943e+01 2.676499999999999879e+00 2.156249000000000038e+01 -5.300743283859984251e-02
3.268800000000000239e+01 1.748799999999999955e+01 -1.114400000000000013e+01 2.296318999999999999e+00 -6.369524252084633742e-02
3.269500000000000028e+01 1.424600000000000044e+01 1.837699999999999889e+00 1.360420000000000051e+01 -5.300820957750521784e-02
3.269599999999999795e+01 1.275999999999999979e+01 -1.437899999999999956e+01 -1.355743999999999971e+01 -6.363797587516491217e-02
3.270799999999999841e+01 1.186899999999999977e+01 5.732000000000000206e+00 -1.468785999999999925e+00 -5.302320867320906711e-02
3.272200000000000131e+01 1.832499999999999929e+01 2.193799999999999972e+00 5.968276999999999610e+00 -1.532476160721389646e-01
3.272800000000000153e+01 1.310999999999999943e+01 9.101900000000000546e+00 2.802935000000000176e+00 -5.348926687281219117e-02
3.272899999999999920e+01 1.543800000000000061e+01 -1.953000000000000069e+00 -1.591585999999999945e+00 -5.363246787459519105e-02
3.272899999999999920e+01 1.446799999999999997e+01 6.688799999999999635e+00 -1.788438999999999979e+01 -5.319480975514680188e-02
3.273499999999999943e+01 9.711899999999999977e+00 -1.439700000000000024e+01 8.154890999999999224e+00 -6.359971232659811236e-02
3.273499999999999943e+01 1.416699999999999982e+01 -1.191300000000000026e+01 -1.450752000000000042e+00 -6.368662022146319435e-02
3.273499999999999943e+01 1.851599999999999824e+01 -3.459900000000000198e+00 1.744106000000000023e+01 -5.356102446844024367e-02
3.273799999999999955e+01 1.426099999999999923e+01 -5.331900000000000084e+00 -1.622184999999999988e+00 -6.379534775359332888e-02
3.274000000000000199e+01 6.196699999999999875e+00 -1.461299999999999955e+01 1.113874000000000031e+00 -6.351737429492125553e-02
3.274399999999999977e+01 1.355599999999999916e+01 3.376500000000000057e+00 2.921646000000000143e+01 -5.299418726050662831e-02
3.275099999999999767e+01 1.831899999999999906e+01 3.175499999999999989e+00 6.492289000000000421e+00 -1.506166028154188319e-01
3.275999999999999801e+01 1.470599999999999952e+01 -4.491100000000000314e+00 1.984095999999999904e+01 -5.314695650114940190e-02
3.276400000000000290e+01 1.570599999999999952e+01 -2.711899999999999977e+00 -1.379110000000000058e+00 -5.353011510853784849e-02
3.276400000000000290e+01 1.676800000000000068e+01 -1.194099999999999939e+00 -2.518410000000000082e+01 -5.333163311605462059e-02
3.276500000000000057e+01 1.006600000000000072e+01 1.249200000000000088e+01 2.401650000000000063e+00 -7.436110933186089456e-02
3.279500000000000171e+01 9.654999999999999361e+00 1.045800000000000018e+01 4.091441999999999801e+00 -5.447333792287321896e-02
3.279500000000000171e+01 9.864000000000000767e+00 1.119400000000000084e+01 3.453650000000000109e+00 -7.532137673733470262e-02
3.281099999999999994e+01 5.828299999999999592e+00 -1.376299999999999990e+01 2.599660000000000082e+00 -6.350981333764946224e-02
3.281199999999999761e+01 6.090499999999999581e+00 -1.288899999999999935e+01 3.495347999999999900e+00 -6.352535267359868398e-02
3.282200000000000273e+01 1.707100000000000151e+01 -1.894099999999999895e+00 -3.382947999999999666e+01 -5.342496984065482624e-02
3.282200000000000273e+01 1.707100000000000151e+01 -4.941200000000000037e-01 -1.338402999999999921e+01 -5.314811470665752047e-02
3.283500000000000085e+01 1.044500000000000028e+01 8.767699999999999605e+00 2.508704999999999963e+00 -5.338488077181115232e-02
3.283700000000000330e+01 1.795499999999999829e+01 4.023699999999999832e+00 1.178777000000000008e+01 -1.497115205955407702e-01
3.284400000000000119e+01 1.312199999999999989e+01 8.083099999999999952e+00 -4.141731000000000051e+00 -5.326491837976464472e-02
3.285099999999999909e+01 7.172500000000000320e+00 -1.457699999999999996e+01 1.317285999999999957e+00 -6.353851872074048335e-02
3.288300000000000267e+01 1.764499999999999957e+01 -8.222899999999999210e+00 4.286133000000000237e+01 -6.372414281296812089e-02
3.290100000000000335e+01 1.148399999999999999e+01 7.772800000000000153e+00 2.653216999999999937e-01 -5.311648184438557546e-02
3.293599999999999994e+01 1.335800000000000054e+01 -6.102299999999999613e+00 -4.462827000000000055e+01 -6.377471309196117155e-02
3.295400000000000063e+01 1.918299999999999983e+01 -6.218300000000000161e+00 8.001718000000000330e+00 -5.338441087049661249e-02
3.295400000000000063e+01 1.918299999999999983e+01 -5.167699999999999960e+00 6.560020999999999880e+00 -5.348528495671717176e-02
3.295499999999999829e+01 7.570000000000000284e+00 -1.095400000000000063e+01 4.518532999999999689e+00 -6.358809789041115768e-02
3.295600000000000307e+01 1.623699999999999832e+01 -1.953000000000000069e+00 -3.334718000000000160e+01 -5.348668932416723865e-02
3.296099999999999852e+01 1.659600000000000009e+01 5.664299999999999891e+00 2.690036999999999789e+00 -1.524957060066918779e-01
3.296699999999999875e+01 1.739000000000000057e+01 4.250700000000000034e-01 4.841985000000000039e-02 -1.607170260600701006e-01
3.296699999999999875e+01 1.543500000000000050e+01 6.622299999999999853e-01 2.794760000000000022e-01 -5.299311878230038297e-02
3.297999999999999687e+01 1.058000000000000007e+01 -9.641000000000000014e+00 2.511274999999999835e+01 -6.368656744463961628e-02
3.299499999999999744e+01 1.335899999999999999e+01 3.834999999999999964e+00 1.336524000000000001e+01 -5.292490006181156670e-02
3.301700000000000301e+01 1.314000000000000057e+01 4.554700000000000415e+00 9.631047999999999831e-01 -5.292029649844137706e-02
3.302300000000000324e+01 1.600400000000000134e+01 -1.091999999999999993e+01 8.022228999999999388e+00 -6.369064928339482345e-02
3.303199999999999648e+01 1.816900000000000048e+01 -7.510100000000000442e+00 6.857692000000000121e+00 -6.372074545295045023e-02
3.305499999999999972e+01 1.580799999999999983e+01 -3.502600000000000158e+00 7.243488000000000149e+00 -5.341638185541815881e-02
3.306499999999999773e+01 9.119999999999999218e+00 -1.048000000000000043e+01 8.214278000000000191e+00 -6.363396742776553094e-02
3.307000000000000028e+01 1.804100000000000037e+01 -2.692299999999999915e+00 3.512673000000000201e+01 -5.342555123232917147e-02
3.307500000000000284e+01 1.840599999999999881e+01 1.671699999999999964e+00 7.526851999999999876e+00 -1.540453014087974082e-01
3.307900000000000063e+01 1.268900000000000006e+01 5.440999999999999837e+00 -8.835839999999999250e+00 -5.289550534463473980e-02
3.307900000000000063e+01 1.362899999999999956e+01 6.961000000000000298e+00 -5.267356999999999800e+01 -5.305766338668904680e-02
3.309400000000000119e+01 8.945999999999999730e+00 -1.434999999999999964e+01 6.112123999999999668e+00 -6.357023987269792842e-02
3.311500000000000199e+01 1.854700000000000060e+01 2.753299999999999859e+00 4.795862999999999765e+00 -1.506856840023341193e-01
3.311599999999999966e+01 1.358200000000000074e+01 1.026399999999999935e+01 1.745794000000000068e+01 -7.115208785939128311e-02
3.311599999999999966e+01 1.358200000000000074e+01 1.137599999999999945e+01 1.011622000000000021e+01 1.023204697887016151e-01
3.314200000000000301e+01 1.235999999999999943e+01 6.200999999999999623e+00 -3.586764000000000063e+00 -5.287729302741840665e-02
3.316799999999999926e+01 1.041200000000000081e+01 -1.413000000000000078e+01 1.237767999999999979e+00 -6.359599494349324478e-02
3.316799999999999926e+01 1.194699999999999918e+01 -1.456600000000000072e+01 -1.427383999999999875e-01 -6.360933669488734454e-02
3.316799999999999926e+01 1.324000000000000021e+01 -1.384500000000000064e+01 -3.808623000000000047e+01 -6.363182878037715318e-02
3.316799999999999926e+01 1.346700000000000053e+01 -1.304599999999999937e+01 -2.117416000000000054e+01 -6.364590441279796562e-02
3.316799999999999926e+01 1.367600000000000016e+01 -1.231000000000000050e+01 -2.050422999999999973e+01 -6.365895383162714638e-02
3.317099999999999937e+01 1.496100000000000030e+01 -5.064600000000000435e+00 1.859179999999999922e+01 -5.310541760046651183e-02
3.317699999999999960e+01 1.425600000000000023e+01 3.109199999999999964e+00 1.114784000000000042e+01 -5.291715569165322819e-02
3.318099999999999739e+01 6.650999999999999801e+00 -1.387800000000000011e+01 1.381359999999999921e+00 -6.351513006324120691e-02
3.320000000000000284e+01 1.205599999999999916e+01 6.900999999999999801e+00 -6.132881000000000027e-01 -5.286663313176660772e-02
3.320499999999999829e+01 1.072499999999999964e+01 1.290199999999999925e+01 1.606586000000000070e+01 -7.236316065227671457e-02
3.321300000000000097e+01 1.543999999999999950e+01 -4.210899999999999643e+00 1.436347999999999914e+01 -5.327498756184193690e-02
3.322299999999999898e+01 1.667000000000000171e+01 -2.653000000000000025e+00 2.590378999999999987e+00 -5.350926541805144099e-02
3.322399999999999665e+01 1.653300000000000125e+01 -9.987299999999999400e+00 2.626266999999999996e+01 -6.369401647291381141e-02
3.322599999999999909e+01 1.288799999999999990e+01 -6.862300000000000288e+00 -1.153721999999999959e+01 -6.374099391751059107e-02
3.322599999999999909e+01 1.268500000000000050e+01 6.968600000000000350e+00 -6.304793000000000092e+00 -5.292191295003063900e-02
3.322899999999999920e+01 1.657499999999999929e+01 -4.257999999999999979e-02 -1.033709999999999907e+00 -5.299200291024812326e-02
3.323400000000000176e+01 1.253200000000000003e+01 -8.542400000000000659e+00 1.595747000000000027e+00 -6.371197394138326808e-02
3.323499999999999943e+01 1.399300000000000033e+01 6.259900000000000020e+00 -1.495010000000000083e+01 -5.297426305801968688e-02
3.324799999999999756e+01 7.605100000000000193e+00 -1.408600000000000030e+01 1.665126000000000106e+00 -6.353586244545400552e-02
3.325399999999999778e+01 1.493099999999999916e+01 6.046400000000000219e+00 -8.181498000000000381e-01 -5.301646091568042868e-02
3.325600000000000023e+01 1.496700000000000053e+01 1.419699999999999962e+00 1.159793999999999947e+01 -5.293028463899340785e-02
3.326400000000000290e+01 1.932999999999999829e+01 -4.777400000000000091e+00 -3.234208999999999889e+00 -5.353108947834509662e-02
3.326599999999999824e+01 1.234699999999999953e+01 1.307000000000000028e+01 6.266350000000000087e+00 1.200386235125068535e-01
3.326700000000000301e+01 1.275399999999999956e+01 -7.785499999999999865e+00 -2.419455000000000078e-01 -6.372340426816974768e-02
3.327199999999999847e+01 1.918299999999999983e+01 -3.833299999999999930e+00 -2.228959000000000046e+01 -5.346663925494232750e-02
3.327900000000000347e+01 1.865800000000000125e+01 -7.068299999999999805e+00 1.171692999999999962e+01 -6.370998996128643399e-02
3.328600000000000136e+01 1.526399999999999935e+01 -1.100399999999999956e+01 -3.117643000000000164e+00 -6.367875866492528347e-02
3.330499999999999972e+01 9.537399999999999878e+00 -1.413700000000000045e+01 3.725232000000000099e+00 -6.357494885896483594e-02
3.331199999999999761e+01 1.621900000000000119e+01 -3.060799999999999965e+00 3.918518000000000168e+00 -5.351792694868014177e-02
3.332099999999999795e+01 1.460299999999999976e+01 2.297699999999999854e+00 1.555012999999999934e+01 -5.290116213783496724e-02
3.332999999999999829e+01 1.407000000000000028e+01 -5.963799999999999990e+00 -1.343843000000000032e+01 -6.374605729533619480e-02
3.333400000000000318e+01 1.099300000000000033e+01 8.169399999999999551e+00 3.099626000000000214e+00 -5.278391417431006760e-02
3.333899999999999864e+01 6.509599999999999831e+00 -1.339000000000000057e+01 2.611082999999999821e+00 -6.350629670184987363e-02
3.337599999999999767e+01 9.588900000000000645e+00 1.020500000000000007e+01 2.256974000000000036e+00 -5.332859566218198927e-02
3.338700000000000045e+01 1.338599999999999923e+01 6.156100000000000350e+00 -2.071089999999999876e+01 -5.286471969141327831e-02
3.339099999999999824e+01 1.713100000000000023e+01 -8.832200000000000273e+00 1.415675000000000061e+01 -6.369872888221958518e-02
3.339600000000000080e+01 9.723699999999999122e+00 9.185700000000000642e+00 2.068853999999999971e+00 -5.271797880476793846e-02
3.339999999999999858e+01 1.788100000000000023e+01 8.216700000000000115e-01 9.229062000000000765e+00 -1.579052709661169507e-01
3.342799999999999727e+01 1.305100000000000016e+01 9.405300000000000438e+00 4.443257000000000012e+00 -7.148244000130085651e-02
3.343500000000000227e+01 1.342099999999999937e+01 5.433399999999999785e+00 -9.944765000000000299e+00 -5.282304790302434772e-02
3.343800000000000239e+01 1.452899999999999991e+01 -5.764599999999999724e+00 -1.333707000000000065e+01 -6.373971765594854677e-02
3.345900000000000318e+01 9.983999999999999986e+00 -9.980999999999999872e+00 1.718977999999999895e+01 -6.363497667176964967e-02
3.345900000000000318e+01 1.127999999999999936e+01 -9.221999999999999531e+00 1.493257000000000012e+01 -6.367131108026150010e-02
3.346800000000000352e+01 9.821199999999999264e+00 1.117500000000000071e+01 3.507336000000000009e+00 -7.511882622603127668e-02
3.346800000000000352e+01 1.752799999999999869e+01 4.452300000000000146e+00 1.138275999999999932e+01 -1.503263360058412212e-01
3.347999999999999687e+01 6.973900000000000432e+00 -1.143500000000000050e+01 1.266448000000000018e+00 -6.352624687766866840e-02
3.347999999999999687e+01 8.419999999999999929e+00 -1.062899999999999956e+01 2.703149000000000157e+01 -6.358274786496211084e-02
3.347999999999999687e+01 6.579399999999999693e+00 -1.240900000000000070e+01 2.515063000000000049e+00 -6.350657126197140068e-02
3.348599999999999710e+01 1.574600000000000044e+01 5.988999999999999879e+00 6.876790999999999876e-01 -1.575720463304871033e-01
3.348599999999999710e+01 1.719200000000000017e+01 5.182699999999999640e+00 2.779294000000000153e+00 -1.500206886550756458e-01
3.349199999999999733e+01 1.610099999999999909e+01 6.926099999999999479e-01 -3.051123000000000030e-01 -5.294012279188127501e-02
3.349300000000000210e+01 1.225200000000000067e+01 7.668599999999999639e+00 -4.171965000000000146e+00 -5.279596374722698993e-02
3.350000000000000000e+01 1.470100000000000051e+01 -1.144899999999999984e+01 -6.426036999999999999e-01 -6.366193095772883226e-02
3.352700000000000102e+01 1.157499999999999929e+01 1.310899999999999999e+01 5.026213000000000264e+00 -7.096312447850110228e-02
3.353000000000000114e+01 1.019999999999999929e+01 1.205199999999999960e+01 1.198781999999999925e+01 -7.409889621851713237e-02
3.354599999999999937e+01 1.260299999999999976e+01 8.513899999999999579e+00 -4.813120000000000176e-01 -5.292422252506866209e-02
3.356199999999999761e+01 1.871300000000000097e+01 -3.073300000000000143e+00 4.615388000000000268e-01 -5.334394718160403309e-02
3.357099999999999795e+01 8.362600000000000477e+00 -1.413199999999999967e+01 1.811617000000000033e+00 -6.353851474960554857e-02
3.360099999999999909e+01 1.392999999999999972e+01 4.217999999999999972e+00 3.126923999999999815e+00 -5.279695417494399690e-02
3.362400000000000233e+01 1.286599999999999966e+01 1.284999999999999964e+01 1.055931999999999960e+01 1.098857290063861569e-01
3.363199999999999790e+01 1.442600000000000016e+01 5.769000000000000128e+00 -1.416873000000000049e+00 -5.285901937145794788e-02
3.363799999999999812e+01 1.118699999999999939e+01 -1.427599999999999980e+01 -4.105413000000000423e+00 -6.358537118119722553e-02
3.363799999999999812e+01 1.270700000000000074e+01 -1.427599999999999980e+01 -1.119988999999999990e+01 -6.360298661876147286e-02
3.366599999999999682e+01 1.204100000000000037e+01 -8.939000000000000057e+00 4.782121000000000066e+00 -6.367202178102174259e-02
3.367199999999999704e+01 1.404499999999999993e+01 5.411100000000000243e+00 -1.943861000000000061e+00 -5.280224583384544174e-02
3.369599999999999795e+01 1.364799999999999969e+01 -6.572000000000000064e+00 -4.733386000000000315e+00 -6.371329842298271984e-02
3.369599999999999795e+01 1.592099999999999937e+01 -3.843599999999999905e+00 9.194532000000000593e+00 -5.337409277247921052e-02
3.370199999999999818e+01 9.970000000000000639e+00 -1.364600000000000080e+01 2.472369000000000039e+00 -6.357112451331727032e-02
3.371900000000000119e+01 1.556000000000000050e+01 -4.565500000000000114e+00 2.529733999999999838e+01 -5.323927772545843096e-02
3.372099999999999653e+01 1.024900000000000055e+01 8.335699999999999221e+00 1.608654999999999946e+00 -5.221648943171230961e-02
3.375500000000000256e+01 1.799299999999999855e+01 3.699500000000000011e+00 5.391416999999999682e+00 -1.502626915339526081e-01
3.380400000000000205e+01 1.925400000000000134e+01 -6.586700000000000443e+00 2.211479000000000195e+00 -5.335122170315836909e-02
3.380400000000000205e+01 1.950799999999999912e+01 -5.692999999999999616e+00 1.180357000000000056e+01 -5.344771358186829746e-02
3.382000000000000028e+01 1.360800000000000054e+01 1.173199999999999932e+01 1.304742000000000068e+01 1.023561824879474641e-01
3.383400000000000318e+01 1.325399999999999956e+01 -7.284399999999999764e+00 -3.123575999999999908e+00 -6.369386586949038476e-02
3.385000000000000142e+01 1.617599999999999838e+01 -9.527300000000000324e+00 2.418815999999999988e+01 -6.367336202963769232e-02
3.387100000000000222e+01 1.577699999999999925e+01 -1.040099999999999980e+01 6.301722999999999963e+00 -6.366200960014248289e-02
3.387500000000000000e+01 1.792299999999999827e+01 -7.508700000000000152e+00 1.656869999999999976e+01 -6.368671398871403322e-02
3.389500000000000313e+01 9.119999999999999218e+00 -1.048000000000000043e+01 5.437115999999999616e+00 -6.357702676641094341e-02
3.391499999999999915e+01 1.512800000000000011e+01 -5.451699999999999768e+00 1.807323999999999842e+01 -5.307987068971727757e-02
3.391700000000000159e+01 1.644800000000000040e+01 -9.005499999999999616e+00 2.205028000000000077e+01 -6.367588893799197569e-02
3.392300000000000182e+01 1.693700000000000117e+01 -3.085599999999999898e+00 1.518253999999999948e+01 -5.341019765928776974e-02
3.392499999999999716e+01 1.847700000000000031e+01 1.303299999999999903e+00 1.059131000000000000e+01 -1.543772088903987705e-01
3.392499999999999716e+01 1.847700000000000031e+01 3.090700000000000003e+00 1.198048000000000002e+00 -1.497892877806601963e-01
3.392499999999999716e+01 1.873100000000000165e+01 2.197000000000000064e+00 1.164927999999999964e+00 -1.511983136224295809e-01
3.392600000000000193e+01 1.351200000000000045e+01 9.926299999999999457e+00 4.097514999999999574e+00 -7.109842717583891858e-02
3.392600000000000193e+01 1.376600000000000001e+01 1.082000000000000028e+01 1.433975000000000044e+01 -7.079286729496539476e-02
3.392799999999999727e+01 1.317699999999999960e+01 -1.351600000000000001e+01 -2.476045999999999836e+01 -6.360614051663655844e-02
3.393500000000000227e+01 1.512599999999999945e+01 5.827300000000000146e+00 -1.268896999999999942e+00 -5.283739470054771292e-02
3.393800000000000239e+01 1.058000000000000007e+01 -9.641000000000000014e+00 1.965743000000000151e+01 -6.361989010769938946e-02
3.396699999999999875e+01 1.194699999999999918e+01 -1.433900000000000041e+01 -1.110402000000000022e+01 -6.358128041441243883e-02
3.400300000000000011e+01 1.329800000000000004e+01 -1.261299999999999955e+01 -5.516201000000000221e+01 -6.361584922635724060e-02
3.400500000000000256e+01 7.570000000000000284e+00 -1.370400000000000063e+01 4.921331999999999596e+00 -6.350187433792844893e-02
3.400500000000000256e+01 7.570000000000000284e+00 -1.095400000000000063e+01 5.936213000000000406e+00 -6.351621855691855223e-02
3.400500000000000256e+01 9.269999999999999574e+00 -1.370400000000000063e+01 1.049266999999999950e+00 -6.354278015879750996e-02
3.400600000000000023e+01 1.705999999999999872e+01 3.874900000000000011e-01 1.951763999999999999e-01 -5.291231741794940463e-02
3.400999999999999801e+01 1.552200000000000024e+01 1.231700000000000017e+00 1.680758999999999892e+00 -5.283454290557839522e-02
3.401100000000000279e+01 1.659600000000000009e+01 5.664299999999999891e+00 7.995594999999999786e+00 -1.522234042160625633e-01
3.402199999999999847e+01 1.273799999999999955e+01 -8.255900000000000460e+00 2.060429000000000010e-01 -6.366555822329265923e-02
3.403199999999999648e+01 1.795299999999999940e+01 -2.782999999999999918e+00 5.224087000000000103e+01 -5.326288866039619041e-02
3.403199999999999648e+01 1.924599999999999866e+01 -3.503899999999999793e+00 -1.090165999999999968e+01 -5.329370206447442415e-02
3.403199999999999648e+01 1.947299999999999898e+01 -4.302999999999999936e+00 -1.915511000000000053e+01 -5.338723518670446255e-02
3.403999999999999915e+01 1.521499999999999986e+01 2.125999999999999890e+00 1.025535999999999959e+01 -5.280151309211783550e-02
3.404099999999999682e+01 1.070199999999999996e+01 1.274000000000000021e+01 8.612009999999999721e+00 -7.217959271831705936e-02
3.404500000000000171e+01 1.066300000000000026e+01 -1.358799999999999919e+01 -6.471670999999999729e+00 -6.356852563258044708e-02
3.405199999999999960e+01 1.438000000000000078e+01 -6.564400000000000013e+00 -1.565511000000000053e+01 -6.369219993735267260e-02
3.407999999999999829e+01 1.658500000000000085e+01 -3.439200000000000035e+00 3.458653999999999940e+01 -5.346708165095964693e-02
3.410499999999999687e+01 1.474499999999999922e+01 2.899500000000000188e+00 7.807601000000000013e+00 -5.274820298230893656e-02
3.410900000000000176e+01 1.478500000000000014e+01 -6.179100000000000037e+00 -1.740790000000000148e+01 -5.295777904288960503e-02
3.410999999999999943e+01 1.407600000000000051e+01 -7.264400000000000190e+00 -2.807425999999999888e+01 -6.368092676558755050e-02
3.411999999999999744e+01 1.224699999999999989e+01 1.329499999999999993e+01 4.073890999999999707e+00 1.236127583609461650e-01
3.413700000000000045e+01 1.015700000000000003e+01 1.158900000000000041e+01 6.023444999999999716e+00 -7.387714376504538050e-02
3.413700000000000045e+01 1.680499999999999972e+01 -8.182999999999999829e+00 5.255774999999999864e+00 -6.367351331817933113e-02
3.416400000000000148e+01 1.362199999999999989e+01 1.237400000000000055e+01 3.485634999999999817e+00 9.952288105416519370e-02
3.418699999999999761e+01 1.631700000000000017e+01 -4.276200000000000223e+00 4.797926999999999609e+00 -5.335328959310932373e-02
3.419299999999999784e+01 1.198499999999999943e+01 8.101200000000000401e+00 -3.071585000000000010e-01 -5.235215452523302865e-02
3.419899999999999807e+01 1.379499999999999993e+01 1.134500000000000064e+01 1.475888999999999918e+01 -1.686474030235328159e-01
3.424600000000000222e+01 9.398999999999999133e+00 9.711000000000000298e+00 2.406702000000000119e+00 -5.127002798734644345e-02
3.424600000000000222e+01 9.652900000000000702e+00 8.817299999999999471e+00 1.302619999999999889e+00 -5.123467019316731846e-02
3.424600000000000222e+01 9.652900000000000702e+00 1.060500000000000043e+01 1.156255999999999950e+01 -5.209021493528973729e-02
3.424600000000000222e+01 1.109900000000000020e+01 8.010999999999999233e+00 -1.122660999999999937e-01 -5.200790489837605474e-02
3.424600000000000222e+01 1.254499999999999993e+01 8.817299999999999471e+00 -1.110041000000000055e+00 -5.255168733791496655e-02
3.427100000000000080e+01 1.373099999999999987e+01 -1.191300000000000026e+01 1.041514000000000051e+00 -6.361676034914963418e-02
3.428099999999999881e+01 1.002500000000000036e+01 -1.029400000000000048e+01 4.273296000000000205e+00 -6.357792999436108483e-02
3.430899999999999750e+01 1.607400000000000162e+01 -9.121399999999999508e+00 4.013990999999999865e+00 -6.365719085552173917e-02
3.432900000000000063e+01 1.865800000000000125e+01 -7.068299999999999805e+00 1.109059000000000061e+01 -5.326577868922370562e-02
3.432999999999999829e+01 7.044699999999999740e+00 -1.285399999999999920e+01 5.684722999999999971e+00 -6.347395604662374458e-02
3.432999999999999829e+01 7.044699999999999740e+00 -1.180400000000000027e+01 1.887623000000000051e+00 -6.347548364174573909e-02
3.433599999999999852e+01 1.437100000000000044e+01 3.763700000000000045e+00 4.206580999999999904e+00 -5.265345656036458932e-02
3.433599999999999852e+01 1.437100000000000044e+01 4.814300000000000246e+00 1.349550999999999945e+00 -5.264165191534599109e-02
3.433599999999999852e+01 1.712099999999999866e+01 4.814300000000000246e+00 9.309226999999999919e+00 -1.512709850579050941e-01
3.433899999999999864e+01 1.515799999999999947e+01 -6.782700000000000173e+00 -2.198592000000000102e+00 -5.294925884519136039e-02
3.437199999999999989e+01 1.510299999999999976e+01 -1.094899999999999984e+01 2.350086000000000119e+00 -6.363229652794688551e-02
3.437400000000000233e+01 8.419999999999999929e+00 -1.377500000000000036e+01 2.202036999999999800e+00 -6.350608672658963894e-02
3.437400000000000233e+01 8.419999999999999929e+00 -1.088299999999999912e+01 4.554723000000000077e+00 -6.352215984805040239e-02
3.438000000000000256e+01 1.574600000000000044e+01 5.735100000000000087e+00 -6.874463999999999686e+00 -1.579750334880722362e-01
3.439800000000000324e+01 1.147700000000000031e+01 -1.380599999999999916e+01 -7.342086000000000112e+00 -6.356385257828083002e-02
3.439800000000000324e+01 1.241699999999999982e+01 -1.380599999999999916e+01 -2.007857999999999876e+01 -6.357624357735604248e-02
3.442399999999999949e+01 1.305100000000000016e+01 9.405300000000000438e+00 1.142249000000000070e+00 -7.126129574074301087e-02
3.445000000000000284e+01 1.618100000000000094e+01 8.216700000000000115e-01 1.808462000000000014e+00 -5.281084240006807956e-02
3.445000000000000284e+01 1.788100000000000023e+01 8.216700000000000115e-01 1.602722999999999898e+00 -1.576879421364103806e-01
3.445000000000000284e+01 1.788100000000000023e+01 3.572299999999999809e+00 4.378986000000000267e+00 -1.510469222088661745e-01
3.448100000000000165e+01 9.809499999999999886e+00 -1.294800000000000040e+01 5.173674000000000106e+00 -6.353880669007436199e-02
3.448899999999999721e+01 1.139700000000000024e+01 1.322400000000000020e+01 3.394546000000000063e+00 -7.066048751580031317e-02
3.448899999999999721e+01 1.309699999999999953e+01 1.322400000000000020e+01 9.210637999999999437e+00 1.048052229671494473e-01
3.449099999999999966e+01 1.589799999999999969e+01 -5.087200000000000166e+00 2.318607000000000085e+01 -5.321103999505309712e-02
3.449799999999999756e+01 1.606899999999999906e+01 -8.183500000000000441e+00 5.756413000000000224e+00 -6.365707772848692991e-02
3.449799999999999756e+01 9.350600000000000023e+00 -1.085299999999999976e+01 3.919576999999999867e+00 -6.354262341260882851e-02
3.450200000000000244e+01 1.719300000000000139e+01 -3.073300000000000143e+00 5.952255000000000074e+00 -5.327234761304053962e-02
3.450200000000000244e+01 1.871300000000000097e+01 -3.073300000000000143e+00 -1.921302000000000021e+01 -5.318096977481804460e-02
3.450699999999999790e+01 1.578899999999999970e+01 -1.004400000000000048e+01 1.301094999999999891e-01 -6.363868110560291780e-02
3.451100000000000279e+01 1.560899999999999999e+01 -5.977000000000000313e+00 1.545636999999999972e+01 -5.308183497923386895e-02
3.451100000000000279e+01 1.574699999999999989e+01 -7.191699999999999982e+00 4.713448999999999778e+00 -6.366391128059843696e-02
3.451800000000000068e+01 1.089400000000000013e+01 -1.302599999999999980e+01 -4.175849000000000366e+00 -6.355727087321924595e-02
3.454599999999999937e+01 1.216000000000000014e+01 -8.840299999999999159e+00 7.562312999999999619e+00 -6.361845942237004392e-02
3.457200000000000273e+01 1.334299999999999997e+01 -7.964199999999999946e+00 -1.094378999999999991e+00 -6.364043877902983426e-02
3.460699999999999932e+01 1.472499999999999964e+01 -7.482700000000000351e+00 -7.434553000000000189e+00 -6.365317031460746011e-02
3.463100000000000023e+01 1.076600000000000001e+01 -9.690699999999999648e+00 1.102037999999999940e+01 -6.357883189455587614e-02
3.463799999999999812e+01 1.642800000000000082e+01 -7.337600000000000122e+00 -7.692554000000000336e-01 -5.304611184119079059e-02
3.465400000000000347e+01 1.918299999999999983e+01 -6.218300000000000161e+00 9.357907000000000863e+00 -5.337416001432411516e-02
3.466400000000000148e+01 1.603699999999999903e+01 -6.637199999999999989e+00 -9.186980000000000146e-01 -5.306601140327884408e-02
3.469800000000000040e+01 1.780799999999999983e+01 -7.139100000000000001e+00 9.951171999999999684e+00 -5.319152978180267249e-02
3.471699999999999875e+01 1.005000000000000071e+01 -1.232900000000000063e+01 1.246338000000000079e+01 -6.353748395043833097e-02
3.475399999999999778e+01 9.765100000000000335e+00 -1.152299999999999969e+01 7.320354000000000028e+00 -6.353462313938014472e-02
3.475800000000000267e+01 1.264799999999999969e+01 -1.263000000000000078e+01 -1.386896999999999913e+01 -6.357671917370337489e-02
3.476599999999999824e+01 1.930399999999999849e+01 -4.993699999999999584e+00 -1.504343999999999903e+00 -5.337323610103146543e-02
3.477100000000000080e+01 1.024900000000000055e+01 8.335699999999999221e+00 1.343172000000000033e+00 -5.106147803956027909e-02
3.477100000000000080e+01 1.194899999999999984e+01 8.335699999999999221e+00 7.530879000000000323e-01 -5.199784883906780758e-02
3.477400000000000091e+01 1.354100000000000037e+01 1.019699999999999918e+01 2.650487000000000037e+00 -7.085287413600191431e-02
3.477499999999999858e+01 1.565600000000000058e+01 1.671699999999999964e+00 5.430365000000000109e+00 -5.271721618491764794e-02
3.477499999999999858e+01 1.840599999999999881e+01 1.671699999999999964e+00 7.112482000000000526e-02 -1.536702063713563382e-01
3.477499999999999858e+01 1.840599999999999881e+01 2.722300000000000164e+00 9.032873000000000374e+00 -1.509889977213106360e-01
3.477900000000000347e+01 1.531400000000000006e+01 -7.891700000000000159e+00 -1.536600999999999928e+01 -6.364362504371094686e-02
3.478900000000000148e+01 1.639300000000000068e+01 -5.195100000000000051e+00 7.435832000000000441e+00 -5.324934719810482664e-02
3.479200000000000159e+01 1.672299999999999898e+01 -3.833299999999999930e+00 -6.646094999999999864e+00 -5.337699585761416371e-02
3.479200000000000159e+01 1.918299999999999983e+01 -3.833299999999999930e+00 -6.613091000000000008e+01 -5.322234593360709864e-02
3.480400000000000205e+01 1.010599999999999987e+01 1.111299999999999955e+01 1.095996000000000059e+01 -7.331823097553025192e-02
3.481199999999999761e+01 1.194699999999999918e+01 -1.311400000000000077e+01 -1.079521000000000086e+01 -6.356035741527044092e-02
3.481900000000000261e+01 1.703099999999999881e+01 7.508899999999999464e-01 1.106084000000000067e+00 -1.614373379818950238e-01
3.483100000000000307e+01 1.795299999999999940e+01 -3.009999999999999787e+00 -1.552419000000000082e+01 -5.315322933025404956e-02
3.485399999999999920e+01 1.283500000000000085e+01 -8.660700000000000287e+00 6.573520000000000252e+00 -6.361155178289466805e-02
3.485499999999999687e+01 7.894700000000000273e+00 -1.317900000000000027e+01 4.613045999999999758e+00 -6.347280176921826778e-02
3.485499999999999687e+01 7.894700000000000273e+00 -1.147899999999999920e+01 5.249061000000000421e-01 -6.347522343865395766e-02
3.485499999999999687e+01 8.945299999999999585e+00 -1.317900000000000027e+01 -3.272030000000000216e-01 -6.350017579829163317e-02
3.485499999999999687e+01 8.945299999999999585e+00 -1.147899999999999920e+01 -2.414572000000000163e+00 -6.350765975097696914e-02
3.485600000000000165e+01 1.639199999999999946e+01 -5.977000000000000313e+00 6.145489000000000424e+00 -5.316685217559030674e-02
3.486099999999999710e+01 1.522100000000000009e+01 5.139000000000000234e+00 1.795930000000000026e+00 -5.261055348179464325e-02
3.486099999999999710e+01 1.627100000000000080e+01 5.139000000000000234e+00 -6.607418000000000458e-01 -1.555753728005418168e-01
3.486699999999999733e+01 1.660200000000000031e+01 -4.735599999999999810e+00 -1.355831999999999926e+00 -5.332110602268149563e-02
3.488300000000000267e+01 1.557099999999999973e+01 2.662300000000000111e+00 5.806670000000000442e+00 -5.267206762347646787e-02
3.488499999999999801e+01 1.679299999999999926e+01 4.373300000000000409e+00 -6.966558999999999946e-02 -1.545605089259462495e-01
3.489600000000000080e+01 1.442099999999999937e+01 -1.134900000000000020e+01 2.078406000000000198e+00 -6.360163796471915432e-02
3.490500000000000114e+01 1.027200000000000024e+01 -1.058099999999999952e+01 1.976558000000000037e+00 -6.354465057411570750e-02
3.492600000000000193e+01 7.526299999999999990e+00 -1.232900000000000063e+01 6.040926999999999936e+00 -6.345932805982665292e-02
3.492600000000000193e+01 9.313700000000000756e+00 -1.232900000000000063e+01 1.305485000000000007e+01 -6.351003464693813494e-02
3.492600000000000193e+01 1.078599999999999959e+01 -1.232900000000000063e+01 1.772752000000000105e+00 -6.354256669249125355e-02
3.492999999999999972e+01 1.380599999999999916e+01 1.099399999999999977e+01 5.748746999999999829e+00 -7.052826112284046878e-02
3.493200000000000216e+01 1.485200000000000031e+01 4.288999999999999702e+00 6.949163999999999675e+00 -5.255995538375349968e-02
3.494299999999999784e+01 1.709600000000000009e+01 3.673299999999999788e+00 1.258898999999999990e+00 -1.548559602448446593e-01
3.496300000000000097e+01 1.050099999999999945e+01 -1.152299999999999969e+01 5.413408999999999693e+00 -6.354072248705874837e-02
3.496900000000000119e+01 1.522499999999999964e+01 3.439099999999999824e+00 6.166743999999999559e+00 -5.260940255474964161e-02
3.498899999999999721e+01 1.567300000000000004e+01 -8.616099999999999426e+00 -1.651153000000000048e+01 -6.362939535386503975e-02
3.500900000000000034e+01 1.558000000000000007e+01 -1.035299999999999976e+01 -5.582360000000000433e+00 -6.361366061957082763e-02
3.500900000000000034e+01 1.580700000000000038e+01 -9.554000000000000270e+00 -1.984675000000000011e+01 -6.362157865281892200e-02
3.501400000000000290e+01 1.080100000000000016e+01 1.274300000000000033e+01 6.590709999999999624e+00 -7.142308479502103291e-02
3.501400000000000290e+01 1.224699999999999989e+01 1.354899999999999949e+01 -4.771368999999999971e+00 -1.735038525489929484e-01
3.501400000000000290e+01 1.369299999999999962e+01 1.274300000000000033e+01 2.985738999999999876e+01 -1.652895417410013834e-01
3.501400000000000290e+01 1.394699999999999918e+01 1.184900000000000020e+01 1.155845999999999929e+00 -1.636221439777920950e-01
3.504299999999999926e+01 1.184200000000000053e+01 -1.259299999999999997e+01 -1.248826999999999998e+01 -6.355354679105683358e-02
3.507099999999999795e+01 1.428700000000000081e+01 -7.936099999999999710e+00 -1.567409999999999926e+01 -6.362126196969457304e-02
3.507099999999999795e+01 1.142500000000000071e+01 -9.280699999999999505e+00 5.033952000000000204e+00 -6.356947874543771027e-02
3.507099999999999795e+01 1.312500000000000000e+01 -1.203100000000000058e+01 6.430931000000000175e+00 -6.357491001273662956e-02
3.507099999999999795e+01 1.044400000000000084e+01 1.193999999999999950e+01 3.373089999999999922e+00 -7.237922749768890829e-02
3.509599999999999653e+01 9.723699999999999122e+00 9.185700000000000642e+00 9.256870999999999849e-01 -5.021401690372114673e-02
3.509599999999999653e+01 9.723699999999999122e+00 1.023600000000000065e+01 5.657185000000000130e+00 -5.059202599751663060e-02
3.509599999999999653e+01 1.247400000000000020e+01 9.185700000000000642e+00 -1.175732999999999917e+00 -5.210553746800990205e-02
3.514000000000000057e+01 1.109900000000000020e+01 8.264900000000000801e+00 1.223689999999999944e+00 -5.133949227797176412e-02
3.517900000000000205e+01 1.728300000000000125e+01 -6.543000000000000149e+00 7.123745000000000438e+00 -5.319731794291452515e-02
3.517900000000000205e+01 1.833299999999999841e+01 -6.543000000000000149e+00 1.082083000000000084e+01 -5.328334529545386555e-02
3.517999999999999972e+01 8.419999999999999929e+00 -1.232900000000000063e+01 9.324443999999999511e-01 -6.347362897343793164e-02
3.518599999999999994e+01 1.574600000000000044e+01 4.288999999999999702e+00 8.560552000000000161e-01 -5.260710667771941601e-02
