1.912199999999999989e+01 -1.930799999999999983e+01 -3.213099999999999845e+00 -5.568362999999999730e+00 8.023281133850434371e-03
1.913899999999999935e+01 -1.364499999999999957e+01 -1.167900000000000027e+01 2.045644000000000062e+01 -1.606632513097661086e-01
1.915399999999999991e+01 1.864000000000000101e+00 -2.977600000000000247e-01 7.059271999999999991e+00 2.559506531324881248e-03
1.915700000000000003e+01 3.312100000000000044e+00 -5.501000000000000334e+00 -2.407412000000000063e+01 -8.296960514232293304e-02
1.916900000000000048e+01 -3.905299999999999994e+00 -2.028800000000000026e+01 8.441307999999999589e-01 -6.234900007278385697e-02
1.917399999999999949e+01 3.096699999999999786e+00 -3.826400000000000023e+00 -2.620727000000000118e+01 -8.615015514954817155e-02
1.919099999999999895e+01 -1.180400000000000027e+01 -1.599600000000000044e+01 5.986678000000000388e+00 -1.571439178809208859e-01
1.919099999999999895e+01 -1.180400000000000027e+01 -1.488400000000000034e+01 3.719167999999999807e+00 -1.575204912263257484e-01
1.919200000000000017e+01 3.043899999999999828e+00 -4.742099999999999760e+00 -4.197400999999999982e+01 -8.425652508445209687e-02
1.919300000000000139e+01 -1.754899999999999949e+01 -7.618400000000000283e+00 -3.403923999999999950e+00 -1.760099096428143217e-01
1.919300000000000139e+01 -1.754899999999999949e+01 -6.753099999999999881e+00 -3.291945999999999817e+00 2.500111689190924816e-02
1.919500000000000028e+01 -1.156199999999999939e+01 -1.678500000000000014e+01 4.809758999999999673e+00 -1.567575118808042234e-01
1.920200000000000173e+01 -1.175200000000000067e+01 -1.166099999999999959e+01 5.300572999999999979e+00 -1.590324382621189081e-01
1.920299999999999940e+01 -1.625299999999999967e+00 2.116699999999999804e+00 -3.975618000000000052e+01 -1.319723711299661539e-01
1.921499999999999986e+01 3.702500000000000235e-01 -9.625299999999999301e+00 2.594396999999999842e+00 -7.763957713438325581e-02
1.922200000000000131e+01 -1.180099999999999927e+00 -1.767999999999999972e+01 -1.722552999999999912e+01 -6.241335757476178248e-02
1.922700000000000031e+01 -1.090399999999999991e+01 3.396399999999999864e+00 -2.014286999999999850e+01 -1.633816008865569824e-01
1.923999999999999844e+01 -5.915300000000000225e+00 1.577800000000000091e+00 1.031339999999999968e+01 -7.190396846302671285e-02
1.924200000000000088e+01 -3.710999999999999854e-01 4.560899999999999954e-01 4.154156000000000404e+00 -1.054146051499831593e-01
1.924299999999999855e+01 -5.881400000000000183e+00 -2.259600000000000009e+01 -7.311341999999999786e+00 -1.532142304436504010e-01
1.925100000000000122e+01 1.502899999999999903e+00 -8.867100000000000648e+00 2.572166000000000174e+00 -7.869075069320084770e-02
1.925199999999999889e+01 -4.164500000000000313e+00 2.230700000000000127e+00 -1.322542999999999935e+01 -8.911957666389341837e-02
1.925400000000000134e+01 -1.422000000000000064e+01 4.345600000000000129e+00 -2.561437000000000186e+00 -1.215493816995665277e-01
1.925799999999999912e+01 3.423099999999999810e+00 -3.263799999999999812e+00 -1.386143000000000036e+01 -8.801033799482263498e-02
1.925900000000000034e+01 3.323999999999999844e+00 -7.442900000000000071e-01 -3.963255000000000194e+01 7.070640032495585647e-03
1.926300000000000168e+01 -1.654599999999999937e+01 -1.148199999999999932e+01 3.558609999999999829e+00 -1.750772179449748278e-01
1.928399999999999892e+01 -1.753800000000000026e+01 1.600000000000000033e-02 2.658943999999999974e+00 6.348799535242989275e-03
1.929899999999999949e+01 1.101199999999999957e-01 -1.764799999999999969e+01 -2.186787999999999954e+00 -6.270166404844235153e-02
1.930199999999999960e+01 3.669999999999999929e-01 3.741099999999999981e-01 1.156919000000000075e+01 -1.052432116532133477e-01
1.930199999999999960e+01 -1.565199999999999925e+00 1.177999999999999936e+00 -2.660904000000000025e+01 -1.253670408246276569e-01
1.933699999999999974e+01 -4.835099999999999731e+00 -2.131200000000000117e+01 -2.718790999999999869e+01 -6.258343006545503961e-02
1.934199999999999875e+01 -1.723400000000000176e+01 7.159999999999999698e-01 5.878067999999999849e+00 5.651475336635184560e-03
1.934499999999999886e+01 -1.270199999999999996e+01 3.988599999999999923e+00 -3.672082000000000068e+00 -1.007028459108870455e-01
1.934499999999999886e+01 -3.124099999999999877e+00 3.273299999999999876e+00 -1.325209000000000081e+01 -1.237409698830223698e-01
1.935300000000000153e+01 -1.893199999999999861e+01 -4.007200000000000095e+00 -3.387345999999999968e+00 2.232153852532161448e-02
1.937999999999999901e+01 -1.274499999999999966e+00 4.094999999999999751e-01 7.509036000000000044e+00 -1.053800738429804679e-01
1.938200000000000145e+01 2.416999999999999815e+00 -5.412799999999999834e+00 -4.262733000000000061e+01 -8.338484676057558720e-02
1.940099999999999980e+01 -3.114500000000000046e+00 -1.994800000000000040e+01 2.336634999999999796e+00 -6.259327517128732143e-02
1.941600000000000037e+01 -1.122700000000000031e+01 -2.029200000000000159e+01 -4.418337000000000181e+00 -1.559342924908020955e-01
1.943400000000000105e+01 -9.838699999999999335e+00 2.537900000000000045e+00 -1.313807000000000080e+01 -1.608063002904280836e-01
1.943499999999999872e+01 -1.546199999999999974e+01 4.820000000000000284e+00 -1.121743999999999986e+01 -4.171806392509351535e-03
1.944500000000000028e+01 2.654799999999999827e+00 -4.217999999999999972e+00 -4.376138000000000261e+01 -8.607548943201885627e-02
1.944999999999999929e+01 2.251399999999999846e+00 -6.268600000000000172e+00 -9.721075000000000799e+00 -8.220350569034662325e-02
1.947400000000000020e+01 -1.669200000000000017e+01 3.057300000000000129e+00 -1.666577999999999893e+00 2.050327710363141365e-03
1.947400000000000020e+01 -1.669200000000000017e+01 3.996700000000000141e+00 -1.891194000000000042e+00 -1.333264144991200964e-05
1.947500000000000142e+01 -1.949999999999999956e+00 -1.908599999999999852e+01 3.526209000000000149e-01 -6.270160444341769945e-02
1.947500000000000142e+01 -1.658099999999999952e+01 2.259999999999999787e+00 -1.043085999999999958e+00 3.356226588102871004e-03
1.948900000000000077e+01 -1.612700000000000022e+00 -1.837999999999999901e+01 1.316629999999999967e+00 -6.270776438504700734e-02
1.950199999999999889e+01 -7.013300000000000090e+00 -2.371499999999999986e+01 1.804990000000000094e+01 -1.538118271202061904e-01
1.950300000000000011e+01 -1.127299999999999969e+01 -1.402500000000000036e+01 3.116614999999999913e+00 -1.575646886648427170e-01
1.950300000000000011e+01 -1.106400000000000006e+01 -1.328899999999999970e+01 7.807323999999999931e-01 -1.576979755270631611e-01
1.951399999999999935e+01 1.865099999999999980e+00 -1.260699999999999932e+01 6.937746999999999664e-01 -7.776227444711673875e-02
1.951399999999999935e+01 2.119000000000000217e+00 -1.350099999999999945e+01 -3.679981999999999864e+00 -7.763665734026568843e-02
1.951599999999999824e+01 -7.367300000000000182e+00 1.826600000000000001e+00 1.146436000000000011e+00 -1.556000880923923413e-01
1.952499999999999858e+01 -4.800599999999999867e-01 -1.762199999999999989e+01 -4.898798000000000208e+00 -6.286845577065494628e-02
1.953900000000000148e+01 -1.680199999999999960e+01 1.503600000000000048e+00 -3.323254999999999959e-01 4.392304461511594219e-03
1.954500000000000171e+01 -2.005600000000000094e+01 -1.939599999999999991e+00 -2.507781000000000038e+00 7.443970692997144319e-03
1.954599999999999937e+01 -1.512599999999999945e+01 -1.289499999999999957e+01 2.568395999999999901e+00 -1.744344420192900369e-01
1.954899999999999949e+01 3.793699999999999850e+00 -2.443700000000000205e+00 -2.746273000000000053e+01 6.992007452738929416e-03
1.954899999999999949e+01 3.793699999999999850e+00 -1.504299999999999971e+00 -3.538000999999999863e+01 7.767560901937249455e-03
1.955300000000000082e+01 -1.775100000000000122e+01 4.153299999999999770e-01 2.658943999999999974e+00 5.771230830484892250e-03
1.955399999999999849e+01 -1.979799999999999827e+01 -1.147000000000000020e+00 -4.159641999999999840e+00 7.130527908688644514e-03
1.955499999999999972e+01 -1.979899999999999949e+01 -2.816500000000000004e+00 -3.544827999999999868e+00 7.637901137702256607e-03
1.958800000000000097e+01 2.564000000000000057e+00 -6.810100000000000042e-01 -3.664650999999999925e+01 5.060789149379791088e-03
1.958999999999999986e+01 1.584999999999999964e+00 -5.324600000000000222e+00 -8.237823999999999813e+00 -8.381227020730920574e-02
1.958999999999999986e+01 5.368199999999999639e-01 -1.078100000000000058e+01 -6.652377000000000429e-01 -7.802377272466443081e-02
1.958999999999999986e+01 -1.650100000000000122e+01 -1.197400000000000020e+01 1.610238000000000058e+00 -1.747404981390145717e-01
1.958999999999999986e+01 -1.020299999999999940e+01 3.238999999999999879e+00 -1.255011000000000010e+01 -1.581539479539931514e-01
1.959199999999999875e+01 1.774999999999999911e+00 -1.726599999999999824e+01 -9.970871999999999513e-01 -1.705421041366215196e-01
1.959600000000000009e+01 -6.610699999999999577e+00 1.603599999999999914e+00 3.116057000000000077e+00 -6.564827542995947673e-02
1.959600000000000009e+01 -5.210700000000000109e+00 1.603599999999999914e+00 4.238738000000000028e+01 -7.834430437401730674e-02
1.960200000000000031e+01 -4.338000000000000078e+00 -2.044300000000000139e+01 -3.263131000000000004e+00 -6.276117825913499204e-02
1.960800000000000054e+01 -2.023299999999999876e+00 3.410199999999999898e-01 3.735422999999999938e+00 -1.175623369064167922e-01
1.961400000000000077e+01 8.095200000000000173e-01 -1.151800000000000068e+01 -3.571771000000000029e+00 -7.789278372157767971e-02
1.961599999999999966e+01 -1.901099999999999923e+01 -4.539399999999999658e+00 -2.697026000000000145e+00 2.236933299098866831e-02
1.963400000000000034e+01 -1.245199999999999996e+01 -1.139400000000000013e+01 1.299837999999999916e+01 -1.600439241381630129e-01
1.963400000000000034e+01 -1.126099999999999923e+01 -1.205799999999999983e+01 -1.511417999999999928e+00 -1.585379216439619376e-01
1.963400000000000034e+01 -1.105199999999999960e+01 -1.279400000000000048e+01 -1.635561000000000043e+00 -1.579706888801897524e-01
1.963899999999999935e+01 -1.884100000000000108e+01 -5.681300000000000239e+00 -2.834652000000000172e+00 2.311561649801261581e-02
1.964000000000000057e+01 -1.755099999999999838e+01 -9.578300000000000480e+00 -1.327757000000000076e+00 -1.752103291658412831e-01
1.964099999999999824e+01 -2.015500000000000114e+01 -7.071199999999999708e-01 -1.543776000000000037e+00 6.949608288663540467e-03
1.964099999999999824e+01 -1.928999999999999915e+01 -7.071199999999999708e-01 -4.989741999999999678e+00 6.756507640079968333e-03
1.964799999999999969e+01 1.888400000000000079e+00 -4.624600000000000044e+00 -1.724156999999999940e+01 -8.556322913208101733e-02
1.964799999999999969e+01 -1.200200000000000067e+01 3.930400000000000116e+00 -1.131789000000000023e+01 -8.972933945342628781e-02
1.964999999999999858e+01 -1.378700000000000081e+01 4.836500000000000021e+00 -9.100930999999999216e+00 -1.213557549981470751e-01
1.965599999999999881e+01 6.208900000000000530e-01 -9.928800000000000736e+00 -8.782204999999999873e-02 -7.860964774947057365e-02
1.966199999999999903e+01 -2.263999999999999790e+00 3.344800000000000217e+00 -6.076457000000000441e+00 -1.359773595912055488e-01
1.966600000000000037e+01 -1.719899999999999984e+00 -3.589800000000000213e-01 8.525608999999999327e+00 -1.008374474499359186e-01
1.966600000000000037e+01 -8.546099999999999808e-01 -3.589800000000000213e-01 1.205696000000000012e+01 -1.016094882621148415e-01
1.967599999999999838e+01 -8.763700000000000045e+00 -2.299299999999999855e+01 3.254818999999999907e+00 -1.546037243604763134e-01
1.967599999999999838e+01 -6.372300000000000075e+00 -2.299299999999999855e+01 5.555674999999999919e-01 -1.535679920629441364e-01
1.968499999999999872e+01 -3.673599999999999977e+00 2.627299999999999969e+00 -1.192976999999999954e+01 -1.115865034211248330e-01
1.969600000000000151e+01 -2.135600000000000165e+01 -1.677000000000000046e+00 -1.291836999999999902e+00 7.438557089923626860e-03
1.970400000000000063e+01 -3.814499999999999780e+00 -2.000600000000000023e+01 6.664698000000000011e-01 -6.285199388914677887e-02
1.970499999999999829e+01 -1.179499999999999993e+01 -1.853099999999999881e+01 -9.408443000000000112e+00 -1.566448861224521427e-01
1.970499999999999829e+01 -1.158600000000000030e+01 -1.779500000000000171e+01 -1.783644999999999925e+00 -1.566909872786342306e-01
1.970599999999999952e+01 -1.169699999999999918e+01 -1.953200000000000003e+01 -1.745012999999999925e+00 -1.563887168646388437e-01
1.971099999999999852e+01 -9.211100000000000065e+00 -2.154899999999999949e+01 4.292399999999999771e+00 -1.548844704171941089e-01
1.971099999999999852e+01 -9.002000000000000668e+00 -2.228500000000000014e+01 4.722222000000000364e+00 -1.547469531792898256e-01
1.971699999999999875e+01 -1.137299999999999933e+01 3.830299999999999816e+00 -2.406691000000000003e+01 -7.931125942735571532e-02
1.973600000000000065e+01 -2.055899999999999839e+00 1.647000000000000020e+00 -3.809158999999999651e+01 -1.240287100559586131e-01
1.975199999999999889e+01 -7.567999999999999616e+00 -2.392599999999999838e+01 -3.096954000000000026e-02 -1.541069653491418667e-01
1.975199999999999889e+01 -1.014000000000000057e+01 -2.065599999999999881e+01 1.420350000000000001e+00 -1.554293884780352797e-01
1.975300000000000011e+01 -2.271300000000000097e+00 2.456300000000000150e+00 -3.409817000000000320e+01 -1.276110247291035171e-01
1.975400000000000134e+01 -2.079200000000000159e+01 -1.939599999999999991e+00 -5.858947999999999823e+00 7.377005361038939044e-03
1.976200000000000045e+01 -8.494199999999999307e+00 -2.344500000000000028e+01 1.237184000000000061e+00 -1.544980598084454981e-01
1.976300000000000168e+01 -2.053399999999999892e+01 -1.147000000000000020e+00 -5.896205000000000140e+00 7.078076194671560975e-03
1.976399999999999935e+01 -1.622200000000000131e+01 4.756700000000000372e+00 -6.868583000000000105e+00 -2.971137591117878167e-03
1.976599999999999824e+01 -8.625999999999999446e+00 2.532200000000000006e+00 -1.763844999999999885e+01 -1.541019108553007833e-01
1.977199999999999847e+01 -5.390600000000000058e+00 -2.187699999999999889e+01 -4.813920000000000421e+00 -6.300803091943776857e-02
1.978300000000000125e+01 -1.583299999999999985e-01 -2.220000000000000029e-01 1.240315000000000012e+01 -1.036025274517574923e-01
1.978300000000000125e+01 8.923299999999999566e-01 -2.220000000000000029e-01 1.282896000000000036e+01 -3.466843934249591043e-04
1.979899999999999949e+01 -1.835200000000000031e+01 -6.589400000000000368e+00 -2.756273999999999891e+00 2.379183291856903915e-02
1.981400000000000006e+01 -1.808500000000000085e+01 -8.714000000000000412e+00 -2.408144000000000062e+00 -1.752425762212061200e-01
1.982499999999999929e+01 -1.734799999999999898e+01 -1.018299999999999983e+01 1.293510000000000026e+01 -1.749331593878850621e-01
1.982900000000000063e+01 -1.710699999999999932e+01 -1.097199999999999953e+01 2.653093000000000146e+00 -1.747844745798915189e-01
1.984600000000000009e+01 -1.840899999999999892e+01 -7.946399999999999686e+00 -3.776100000000000012e+00 2.410479790879918940e-02
1.985500000000000043e+01 -2.746999999999999886e+00 3.863500000000000156e+00 -2.041268000000000082e+00 -1.335138526927485969e-01
1.985800000000000054e+01 -1.804799999999999827e+01 -7.289399999999999658e+00 -3.819313000000000180e+00 2.421923606998633779e-02
1.987500000000000000e+01 -2.071099999999999852e+01 -2.682500000000000107e+00 -3.249138999999999999e+00 7.464860817268765929e-03
1.989000000000000057e+01 -1.323300000000000054e+01 4.640900000000000247e+00 -7.508556999999999704e+00 -1.122126811575649974e-01
1.990800000000000125e+01 2.446099999999999941e+00 -1.537899999999999956e+01 1.135336999999999996e+01 -7.795285336440044288e-02
1.991199999999999903e+01 -1.961899999999999977e+01 -8.714000000000000412e+00 -3.744064999999999976e+00 2.338862078175158593e-02
1.991499999999999915e+01 -1.597600000000000087e+01 -1.282399999999999984e+01 1.407771000000000106e+00 -1.743136872374871915e-01
1.991499999999999915e+01 -1.427599999999999980e+01 -1.282399999999999984e+01 3.860863000000000156e+00 -1.740253172642698132e-01
1.991499999999999915e+01 -2.113800000000000168e+01 -7.163399999999999768e-01 -1.794464999999999977e+00 6.915957732838412704e-03
1.991700000000000159e+01 2.300300000000000011e+00 -1.641600000000000037e+01 -1.847040999999999933e+00 -7.778004283746862979e-02
1.992200000000000060e+01 -9.126800000000000468e-01 -1.811299999999999955e+01 -6.529416000000000331e+00 -6.327109590889321011e-02
1.992800000000000082e+01 1.810300000000000020e+00 -8.753299999999999415e+00 3.115137000000000045e-01 -8.057164068605521257e-02
1.993400000000000105e+01 -1.426200000000000045e+01 4.885100000000000442e+00 -2.038905000000000101e+01 -1.253603070840196287e-01
1.993599999999999994e+01 2.258199999999999985e+00 -3.785299999999999887e+00 -1.185604999999999976e+01 -8.882928999994373076e-02
1.993700000000000117e+01 -7.609700000000000131e+00 2.297299999999999898e+00 -1.396185999999999972e+01 -1.516842565368718143e-01
1.993900000000000006e+01 -4.832699999999999996e+00 1.781500000000000083e+00 9.812039000000000399e+00 -8.141379439855364608e-02
1.994999999999999929e+01 -2.225000000000000000e+01 -1.677000000000000046e+00 -3.691011000000000153e-01 -8.000000000000000167e-02
1.995100000000000051e+01 2.010000000000000068e-04 -1.813100000000000023e+01 -2.988663999999999987e+00 -6.343281591668621655e-02
1.996300000000000097e+01 1.983300000000000063e+00 -7.724400000000000155e+00 3.126110999999999862e+00 -8.173406665098681412e-02
1.997800000000000153e+01 -2.746999999999999886e+00 5.339000000000000412e+00 -1.075155000000000083e+00 -1.505546943570831020e-01
1.997899999999999920e+01 1.030699999999999950e+00 -1.743299999999999983e+01 2.826046999999999976e+00 -6.364417278127243449e-02
1.998000000000000043e+01 -1.216099999999999959e+00 -1.881299999999999883e+01 -4.948800000000000310e+00 -6.330772259667752366e-02
2.000100000000000122e+01 -1.198799999999999955e+01 -1.543999999999999950e+01 3.242230999999999863e+00 -1.577461267198900507e-01
2.000100000000000122e+01 -1.173399999999999999e+01 -1.633399999999999963e+01 4.171784999999999854e+00 -1.572766025348557306e-01
2.000100000000000122e+01 -1.173399999999999999e+01 -1.454599999999999937e+01 1.255068000000000072e+00 -1.579070662227853306e-01
2.000100000000000122e+01 -1.152500000000000036e+01 -1.707000000000000028e+01 1.318157999999999941e+00 -1.569321931830083838e-01
2.000499999999999901e+01 -2.447000000000000064e+00 -1.973000000000000043e+01 8.367554999999999854e-01 -6.323668781848409970e-02
2.001000000000000156e+01 1.897100000000000009e+00 -6.865999999999999659e+00 8.398242999999999681e-01 -8.287157285715146537e-02
2.001899999999999835e+01 3.033700000000000063e+00 -2.733999999999999986e+00 -2.688395999999999830e+01 5.445241614793338604e-03
2.002100000000000080e+01 -2.188100000000000023e+01 -2.527000000000000135e+00 -1.722328999999999999e+00 7.470146263885336750e-03
2.002100000000000080e+01 -2.188100000000000023e+01 -8.269999999999999574e-01 3.892203999999999997e+00 7.369018236312055610e-03
2.002100000000000080e+01 -1.067300000000000004e+01 3.771999999999999797e+00 -2.474624999999999986e+01 -6.843375754277161715e-02
2.002199999999999847e+01 -1.866100000000000136e+01 5.925400000000000111e-02 7.871550000000000491e-01 5.748690931478643226e-03
2.002299999999999969e+01 -1.882100000000000151e+01 -8.714000000000000412e+00 -3.128826000000000107e+00 2.387374801736093580e-02
2.002899999999999991e+01 -5.910700000000000287e+00 1.336300000000000043e+00 1.770000999999999935e+00 -7.267938459624309622e-02
2.003500000000000014e+01 -1.730499999999999972e+01 1.086500000000000021e+00 4.269998000000000182e+00 4.360148776590215200e-03
2.003500000000000014e+01 -4.828899999999999970e+00 -2.083999999999999986e+01 -2.631523999999999930e+01 -6.317947265108742050e-02
2.003900000000000148e+01 1.268999999999999906e+00 -1.212599999999999945e+01 -1.085374999999999979e+01 -7.861858807636711022e-02
2.004500000000000171e+01 -1.243500000000000050e+01 4.421299999999999564e+00 -1.058113999999999955e+01 -9.903505302723226988e-02
2.004500000000000171e+01 -3.182399999999999896e+00 3.576700000000000212e+00 -3.148465999999999987e+00 -1.232156682887759203e-01
2.006299999999999883e+01 -1.287199999999999900e+00 -8.498900000000000343e-01 1.620480999999999838e+01 -1.002952017872528606e-01
2.006700000000000017e+01 -1.315199999999999925e+01 -1.166099999999999959e+01 1.771405999999999992e+01 -1.737649624080656596e-01
2.006700000000000017e+01 -1.175200000000000067e+01 -1.166099999999999959e+01 7.062549999999999883e+00 -1.594148512013021379e-01
2.006800000000000139e+01 -1.916499999999999915e+01 -7.912600000000000300e+00 -4.480485999999999969e+00 2.339576277464453305e-02
2.007100000000000151e+01 2.853600000000000136e+00 -1.155799999999999939e+00 -6.274663000000000324e+01 5.933967654024632256e-03
2.008099999999999952e+01 1.188399999999999901e+00 -5.757200000000000095e+00 -4.151133999999999880e+00 -8.448315658222507740e-02
2.008099999999999952e+01 1.188399999999999901e+00 -4.892000000000000348e+00 -3.969140000000000157e+01 -8.619831313731088351e-02
2.008200000000000074e+01 -2.075100000000000122e+01 2.800000000000000058e-02 1.395817000000000085e+00 6.357478838609183572e-03
2.008200000000000074e+01 -1.970100000000000051e+01 2.800000000000000058e-02 2.335398999999999781e+00 6.033713363603463754e-03
2.008200000000000074e+01 3.363100000000000200e+00 -1.973999999999999977e+00 -5.256821000000000055e+01 6.651903042222122309e-03
2.009400000000000119e+01 -5.754500000000000171e+00 -2.235999999999999943e+01 -9.122301999999999467e+00 -1.533952930647933810e-01
2.009900000000000020e+01 -2.419900000000000162e+00 -9.160600000000000687e-02 6.155719999999999636e+00 -1.130325587875852938e-01
2.010300000000000153e+01 -1.883399999999999963e+01 -7.234099999999999753e+00 -3.952144999999999797e+00 2.340976799393639646e-02
2.010500000000000043e+01 -1.921199999999999974e+01 -6.296400000000000219e+00 -3.941638999999999893e+00 2.274923691237025133e-02
2.013700000000000045e+01 -3.114500000000000046e+00 -1.973900000000000077e+01 9.647460999999999842e+00 -6.331517891039875612e-02
2.013899999999999935e+01 -2.041799999999999926e+01 -8.714000000000000412e+00 -3.213900999999999897e+00 2.275157561692986094e-02
2.016300000000000026e+01 -9.058600000000000207e+00 3.023099999999999898e+00 -1.366957999999999984e+01 -1.511617943561398281e-01
2.016300000000000026e+01 -2.436199999999999921e+00 9.940099999999999492e-01 -2.389505000000000123e+01 -1.169102156991569663e-01
2.016600000000000037e+01 -1.710600000000000165e+01 3.527000000000000135e+00 -1.415302000000000060e+00 7.464827628154531913e-04
2.017399999999999949e+01 -3.290900000000000158e+00 4.572300000000000253e+00 -2.493050000000000210e+00 -1.282297638075265422e-01
2.017399999999999949e+01 -2.203100000000000058e+00 4.572300000000000253e+00 6.879056000000000060e-01 -1.486584987708770844e-01
2.017699999999999960e+01 -1.683899999999999864e+01 -1.189799999999999969e+01 1.836452999999999891e+00 -1.743613368086516791e-01
2.017999999999999972e+01 1.324999999999999956e+00 -7.129100000000000437e-01 3.079044000000000025e+01 1.576441810619605118e-03
2.018299999999999983e+01 -1.933200000000000074e+01 9.351000000000000867e+00 2.396857999999999933e+01 -9.807413553175457765e-02
2.018499999999999872e+01 -9.649499999999999744e+00 -2.105300000000000082e+01 3.975753000000000092e+00 -1.552691883435334264e-01
2.018599999999999994e+01 -1.682999999999999829e+01 4.390799999999999592e+00 -1.281723999999999997e+01 -1.208935706375905425e-03
2.020200000000000173e+01 -2.008899999999999864e+01 -9.474000000000000199e+00 -6.483805000000000263e+00 2.312936499889950079e-02
2.020200000000000173e+01 -2.008899999999999864e+01 -7.953999999999999737e+00 -1.529570000000000007e+01 2.268831905965747187e-02
2.020200000000000173e+01 -1.914900000000000091e+01 -9.474000000000000199e+00 -1.133244999999999969e+01 2.371727802083305886e-02
2.020200000000000173e+01 -1.828399999999999892e+01 -9.474000000000000199e+00 -1.521155999999999953e+00 -1.748122918557431515e-01
2.020700000000000074e+01 -2.114399999999999835e+01 -3.278000000000000025e+00 -3.591960999999999959e+00 7.417268245396166360e-03
2.020899999999999963e+01 -3.561900000000000066e+00 5.339000000000000412e+00 -3.505103000000000080e+00 -1.494275675999246489e-01
2.020899999999999963e+01 -1.932099999999999929e+00 5.339000000000000412e+00 3.784982999999999720e+01 -1.637255939693160467e-01
2.021499999999999986e+01 -4.380499999999999949e-01 -1.885200000000000031e+01 -6.115368000000000137e+00 -6.365413265364550099e-02
2.022400000000000020e+01 2.959999999999999853e-01 -9.571199999999999708e-01 9.139571999999999363e+00 -1.012168198220465970e-01
2.022700000000000031e+01 -2.452500000000000124e+00 2.079600000000000115e+00 -9.586384999999999934e+00 -1.221784281469295019e-01
2.023000000000000043e+01 -1.100900000000000034e+01 -1.993900000000000006e+01 1.390675000000000106e+00 -1.561075420311121842e-01
2.023000000000000043e+01 -1.650900000000000034e+01 -1.270500000000000007e+01 2.068122999999999934e+00 -1.741844590163810769e-01
2.023400000000000176e+01 -1.546199999999999974e+01 5.046999999999999709e+00 -1.889368999999999943e+01 -5.298634746474927860e-03
2.023799999999999955e+01 -1.040499999999999936e+01 -2.020599999999999952e+01 3.523810000000000109e+00 -1.557589292769616107e-01
2.024500000000000099e+01 -4.253099999999999881e+00 2.204400000000000137e+00 -9.489214999999999733e+00 -1.028169143549689385e-01
2.025300000000000011e+01 1.284999999999999920e+00 -9.603300000000000836e+00 1.400214999999999987e+00 -8.042090384943266501e-02
2.027400000000000091e+01 -3.225999999999999979e+00 6.113999999999999879e+00 -2.568681000000000214e+00 -1.640754229215310445e-01
2.027400000000000091e+01 -2.267999999999999794e+00 6.113999999999999879e+00 3.691516000000000020e+00 -1.677524675021654643e-01
2.027899999999999991e+01 1.577399999999999913e+00 -1.712000000000000099e+01 2.131209000000000131e+00 -6.410431581656018951e-02
2.028399999999999892e+01 -8.156299999999999883e+00 2.947999999999999954e+00 -5.393952999999999776e+01 -1.477609806629108791e-01
2.030199999999999960e+01 -1.687300000000000111e+01 1.786499999999999977e+00 2.384339000000000208e+00 2.931109222257615842e-03
2.030199999999999960e+01 -1.687300000000000111e+01 2.651800000000000157e+00 -4.101753999999999678e+00 1.743287465050709362e-03
2.030799999999999983e+01 -1.747000000000000108e+00 -1.967200000000000060e+01 -4.645234000000000307e+00 -6.360409357845635270e-02
2.031099999999999994e+01 -1.172499999999999964e+01 -1.902299999999999969e+01 -2.332168999999999937e+00 -1.566794274568452383e-01
2.031500000000000128e+01 -1.782700000000000173e+01 -9.806499999999999773e+00 6.967780000000000307e+00 -1.746257250848312625e-01
2.031599999999999895e+01 -1.929599999999999937e+01 -3.958400000000000141e+00 -7.638791000000000331e+00 7.296021486627134178e-03
2.032199999999999918e+01 -2.154299999999999926e+01 7.212499999999999467e-02 2.054800999999999878e+00 7.339106310490188870e-03
2.032499999999999929e+01 -5.297900000000000276e+00 -2.159900000000000020e+01 -1.295323999999999920e+01 -6.347038511420069473e-02
2.033099999999999952e+01 -1.382900000000000063e+01 5.376000000000000334e+00 -5.557947999999999666e+00 -1.249851640984600137e-01
2.033099999999999952e+01 -1.277899999999999991e+01 5.376000000000000334e+00 -5.415779999999999816e+00 -1.118076407191320454e-01
2.034199999999999875e+01 -1.887600000000000122e+01 8.537800000000000722e+00 1.649216999999999933e+00 -9.757749515634059345e-02
2.034499999999999886e+01 -6.546000000000000263e+00 -2.308500000000000085e+01 -1.686391999999999891e+00 -1.538290931396814332e-01
2.034799999999999898e+01 1.620999999999999996e+00 -4.192000000000000171e+00 3.503785000000000149e+00 -8.901375138502221063e-02
2.035000000000000142e+01 -9.913000000000000256e+00 3.708699999999999886e+00 -3.330317999999999756e+01 -1.504477525661364889e-01
2.035200000000000031e+01 -2.042899999999999849e+01 -3.200099999999999945e+00 -3.872501000000000193e+00 7.210223397526377247e-03
2.036100000000000065e+01 -2.157499999999999929e+01 -3.767599999999999838e+00 -3.732117999999999824e+00 7.465299512355437483e-03
2.036400000000000077e+01 1.794300000000000006e+00 -1.297600000000000087e+01 8.915262999999999494e+00 -7.902639540225926684e-02
2.036599999999999966e+01 -1.987200000000000077e+00 -7.916100000000000358e-01 3.174059999999999881e+00 -1.131163693801625347e-01
2.036799999999999855e+01 -8.082899999999999530e-01 -1.957300000000000040e+01 -4.066354999999999720e+00 -6.376451936175080160e-02
2.037000000000000099e+01 -1.245199999999999996e+01 -1.160299999999999976e+01 1.256433000000000000e+01 -1.733292969085438728e-01
2.039699999999999847e+01 -1.363299999999999912e+01 -1.244100000000000072e+01 6.690470000000000361e+00 -1.735633680578432259e-01
2.040500000000000114e+01 -1.185299999999999976e+01 -1.822800000000000153e+01 -2.041776000000000035e+00 -1.569585110578780862e-01
2.040700000000000003e+01 2.625900000000000123e+00 -1.973999999999999977e+00 -2.056507999999999825e+01 5.079169031437536300e-03
2.041199999999999903e+01 5.397499999999999520e-01 -1.782900000000000063e+01 -2.584572999999999787e+00 -6.403510593014688501e-02
2.041300000000000026e+01 8.296700000000000186e-01 -1.189999999999999947e+00 2.905768999999999824e+00 3.571917717413867544e-04
2.041300000000000026e+01 1.880300000000000082e+00 -1.189999999999999947e+00 7.682016000000000400e-01 3.396208087901212737e-03
2.041400000000000148e+01 -2.014699999999999847e+01 9.351000000000000867e+00 6.378148999999999624e+00 -9.812946376613114474e-02
2.041400000000000148e+01 -1.851699999999999946e+01 9.351000000000000867e+00 1.162104000000000070e+01 5.582974209649965019e-03
2.041700000000000159e+01 -1.129599999999999937e+01 -1.245700000000000074e+01 2.703256999999999799e+00 -1.586925226686000390e-01
2.042800000000000082e+01 -1.805799999999999983e+01 8.615299999999999514e+00 1.722984999999999989e+00 -3.350840582998242025e-03
2.043799999999999883e+01 -2.281599999999999895e+01 -2.142300000000000093e+00 -1.347749000000000086e+00 7.541109903586096404e-03
2.043900000000000006e+01 -1.794699999999999918e+01 8.473300000000000276e-01 1.768018999999999963e+01 4.366459415215578552e-03
2.044000000000000128e+01 -1.512599999999999945e+01 -1.314899999999999913e+01 2.856723000000000123e+00 -1.737767994990734310e-01
2.045100000000000051e+01 2.333699999999999886e+00 -3.001399999999999846e+00 -9.274257999999999669e+00 4.105356577143208334e-03
2.045299999999999940e+01 -2.538699999999999957e+00 2.888900000000000023e+00 -3.796984999999999832e+00 -1.258694809367357503e-01
2.045299999999999940e+01 -2.329600000000000115e+00 3.625000000000000000e+00 6.741742999999999597e+00 -1.343732115939049176e-01
2.045499999999999829e+01 -1.137299999999999933e+01 4.155199999999999783e+00 -1.847162000000000148e+01 -8.114559081688645092e-02
2.046199999999999974e+01 -6.610699999999999577e+00 1.603599999999999914e+00 -1.565506000000000064e+01 -6.624607686773134607e-02
2.046799999999999997e+01 -4.338000000000000078e+00 -2.044300000000000139e+01 -2.235200999999999993e+00 -6.358764968752479707e-02
2.047400000000000020e+01 1.809099999999999875e-01 -1.132499999999999929e+01 3.681541000000000174e+00 -7.940333004631586200e-02
2.047899999999999920e+01 -1.981099999999999994e+01 8.576000000000000512e+00 1.634872000000000014e+01 -9.791683023612737791e-02
2.047899999999999920e+01 -1.981099999999999994e+01 1.012599999999999945e+01 5.011116000000000348e+00 -9.772532679565151814e-02
2.047899999999999920e+01 -1.885300000000000153e+01 1.012599999999999945e+01 6.107546000000000141e+00 -9.686226139713813299e-02
2.048400000000000176e+01 -8.516999999999999460e+00 -2.380600000000000094e+01 2.294752999999999932e-01 -1.546794363508942338e-01
2.048499999999999943e+01 -2.248199999999999932e+01 -3.700000000000000178e+00 -3.279460999999999959e+00 7.469867274041334590e-03
2.049599999999999866e+01 -3.648400000000000087e+00 3.484700000000000131e+00 -3.188604000000000216e+00 -1.140026740506109720e-01
2.049699999999999989e+01 -7.406200000000000117e+00 -2.400000000000000000e+01 -4.783514999999999850e-01 -1.542303804245153398e-01
2.049899999999999878e+01 -1.106400000000000006e+01 -1.328899999999999970e+01 2.770474000000000103e+00 -1.581182134521658678e-01
2.050900000000000034e+01 -3.818099999999999827e+00 2.943000000000000060e+00 -5.948627000000000109e+00 -1.095988155099535399e-01
2.052299999999999969e+01 1.992799999999999905e+00 -1.395400000000000063e+01 1.718477999999999950e+00 -7.900525755117868143e-02
2.053200000000000003e+01 4.843000000000000083e-01 -1.202500000000000036e+01 -7.322300000000000475e-01 -7.927632183073694827e-02
2.054400000000000048e+01 -2.003900000000000148e+01 -7.363000000000000433e+00 -7.850009000000000015e+00 2.231248924450620133e-02
2.054599999999999937e+01 -2.273100000000000165e+01 -1.151699999999999946e+00 3.525328000000000017e+00 7.944515270458326825e-03
2.055799999999999983e+01 -1.944399999999999906e+01 -5.635600000000000165e+00 -5.237467999999999790e+00 2.193513513809363519e-02
2.055900000000000105e+01 -1.128100000000000058e+01 -1.403800000000000026e+01 2.306652000000000147e+00 -1.579856387257919104e-01
2.056099999999999994e+01 -7.406599999999999850e-01 -1.336200000000000054e+00 2.528746999999999900e+01 -1.002316139562618308e-01
2.056200000000000117e+01 -9.330700000000000216e+00 -2.198600000000000065e+01 3.514127999999999918e+00 -1.551449475733088501e-01
2.057600000000000051e+01 1.478699999999999903e+00 -6.509900000000000020e+00 2.661157999999999912e+00 -8.482808864376011060e-02
2.058200000000000074e+01 -1.739399999999999835e+01 -1.050699999999999967e+01 9.841716999999999160e+00 -1.742751679994568870e-01
2.060200000000000031e+01 -1.973600000000000065e+01 -6.663000000000000256e+00 -6.095543000000000156e+00 2.219429725117483959e-02
2.060200000000000031e+01 2.062300000000000022e+00 -1.459600000000000009e+01 4.245421999999999585e+00 -7.895122471768889483e-02
2.060200000000000031e+01 2.271399999999999864e+00 -1.533200000000000074e+01 1.596054000000000084e+00 -7.882147476931300467e-02
2.061599999999999966e+01 -3.814499999999999780e+00 -2.000600000000000023e+01 -1.050283999999999995e+00 -6.374925937253844710e-02
2.061799999999999855e+01 -1.852700000000000102e+01 -9.748200000000000642e+00 -1.443113000000000090e+00 -1.744600007773108585e-01
2.062000000000000099e+01 -1.366199999999999914e-01 -1.447999999999999954e+00 2.434365999999999985e+01 -1.001359289746596160e-01
2.063299999999999912e+01 -1.961899999999999977e+01 -1.000699999999999967e+01 -2.274608000000000185e+00 2.332132451819169880e-02
2.064000000000000057e+01 7.525300000000000322e-01 -1.028500000000000014e+01 -1.860751000000000044e+00 -8.055203722601175786e-02
2.064399999999999835e+01 2.100000000000000089e+00 -3.416999999999999815e+00 1.304402000000000044e+02 3.666057031677616602e-03
2.066700000000000159e+01 -1.476200000000000045e+01 5.314400000000000013e+00 -2.049755000000000038e+01 -2.559807442680319192e-02
2.067099999999999937e+01 -9.913700000000000401e+00 -2.060300000000000153e+01 1.632776000000000138e+01 -1.555845901595328262e-01
2.067200000000000060e+01 -2.084900000000000020e+01 -8.244300000000000850e+00 -4.250820000000000043e+00 2.206177799209188897e-02
2.067200000000000060e+01 -1.594100000000000072e+01 -1.320599999999999952e+01 5.270261000000000529e-01 -1.737495202035640451e-01
2.067699999999999960e+01 -2.301300000000000168e+01 -2.941100000000000048e+00 -1.929140000000000077e+00 -8.000000000000000167e-02
2.067899999999999849e+01 4.512499999999999845e-01 -5.145900000000000141e+00 -1.070575000000000010e+01 -8.733061890504847935e-02
2.069600000000000151e+01 -2.737999999999999989e+00 -1.977499999999999858e+01 5.658320999999999490e-01 -6.390181561491187212e-02
2.069699999999999918e+01 2.161999999999999922e+00 -1.589100000000000001e+01 -4.015761000000000358e+00 -7.878964238173846724e-02
2.069699999999999918e+01 -1.182000000000000028e+01 -1.653900000000000148e+01 5.783731999999999651e+00 -1.574979565286159233e-01
2.070100000000000051e+01 -1.179199999999999982e+01 -1.750199999999999889e+01 1.959245000000000014e-01 -1.572002121733132585e-01
2.071199999999999974e+01 -9.601100000000000634e+00 -2.138400000000000034e+01 2.551042999999999950e+00 -1.553620817792583653e-01
2.071199999999999974e+01 -2.328099999999999881e+01 -3.700000000000000178e+00 -2.237823000000000118e+00 -8.000000000000002942e-02
2.071300000000000097e+01 -2.746999999999999886e+00 6.657499999999999751e+00 2.100934000000000079e+00 -4.611060269882852336e-02
2.071499999999999986e+01 -8.625999999999999446e+00 3.480999999999999872e+00 -2.873200999999999894e+01 -1.813523868111484305e-01
2.073799999999999955e+01 7.546500000000000430e-01 -5.845900000000000318e+00 5.137048000000000059e+00 -8.618356141196328868e-02
2.073999999999999844e+01 -2.019600000000000151e+01 7.765999999999999570e-01 5.539670000000000272e+01 5.421068416483806017e-03
2.074200000000000088e+01 -2.229899999999999949e+01 -2.655500000000000083e-01 9.662193000000000254e+00 7.916969136316200778e-03
2.074200000000000088e+01 -1.864699999999999847e+01 7.890399999999999636e-01 6.888863999999999876e+00 4.491284874845146748e-03
2.074899999999999878e+01 -2.086199999999999832e+01 -3.690999999999999837e+00 -8.496850000000000236e+00 7.118571350072403110e-03
2.074899999999999878e+01 -1.999599999999999866e+01 -3.690999999999999837e+00 -1.025447999999999915e+01 7.010448025529918310e-03
2.074899999999999878e+01 2.156600000000000072e+00 -2.464199999999999946e+00 -1.597429999999999950e+01 4.011170049433944451e-03
2.075300000000000011e+01 -4.001000000000000334e+00 5.817999999999999616e+00 -4.729896000000000100e+00 -1.374386108980999721e-01
2.075300000000000011e+01 -1.493000000000000105e+00 4.860000000000000320e+00 1.652221000000000117e+01 -1.558334698412794650e-01
2.075300000000000011e+01 -1.493000000000000105e+00 5.817999999999999616e+00 9.322889999999999233e+00 -1.675993506733013394e-01
2.075400000000000134e+01 -7.396300000000000097e+00 2.657700000000000173e+00 -5.314744000000000312e+01 -6.988091483987998731e-02
2.076000000000000156e+01 8.209300000000000486e-01 -4.377500000000000391e+00 -6.436307000000000222e+00 -8.965418355619228508e-02
2.076500000000000057e+01 -5.910700000000000287e+00 1.545400000000000107e+00 -2.211493000000000109e+01 -7.215729063546659494e-02
2.076699999999999946e+01 -1.717599999999999838e+01 -1.233200000000000074e+01 1.998269000000000073e+00 -1.739407950389672552e-01
2.076699999999999946e+01 -2.111199999999999832e+01 6.113899999999999890e-01 8.771674000000000859e+00 6.835175841968741881e-03
2.077499999999999858e+01 -2.295200000000000173e+01 -4.459999999999999964e+00 -4.957887000000000377e+00 7.477462807875615187e-03
2.077499999999999858e+01 -2.201200000000000045e+01 -4.459999999999999964e+00 -9.046575000000000699e+00 7.389883084451739741e-03
2.077799999999999869e+01 1.881099999999999994e+00 -9.121700000000000585e+00 1.287951999999999986e+00 -8.221147052758924489e-02
2.077799999999999869e+01 1.881099999999999994e+00 -7.334299999999999820e+00 3.147974000000000050e+00 -8.428607936070695028e-02
2.077799999999999869e+01 2.134999999999999787e+00 -8.227999999999999758e+00 5.565682999999999936e+00 -8.324431337763019134e-02
2.078300000000000125e+01 8.872100000000000541e-01 -1.566999999999999948e+00 -6.209725999999999857e+00 9.267985602468625187e-04
2.078300000000000125e+01 -2.096999999999999886e+01 -9.114499999999999602e+00 -5.298503000000000185e+00 2.223231149285154196e-02
2.079299999999999926e+01 -1.635699999999999932e+01 4.836999999999999744e+00 -2.111968999999999852e+01 -3.089330544211333924e-03
2.079400000000000048e+01 -5.812800000000000189e+00 -2.205699999999999861e+01 -4.746088999999999558e+00 -6.387949023290309669e-02
2.079400000000000048e+01 -4.863999999999999879e+00 -2.110800000000000054e+01 -2.094634999999999891e+01 -6.388251780181025685e-02
2.079899999999999949e+01 -1.278000000000000025e+00 -2.010600000000000165e+01 -2.787475999999999843e+00 -6.413089047673799226e-02
2.079899999999999949e+01 -2.687199999999999811e+00 3.410199999999999898e-01 -5.097377999999999965e+00 -1.120152858385960737e-01
2.079899999999999949e+01 -2.478099999999999969e+00 -3.950099999999999723e-01 -1.300316999999999945e+00 -1.112391138612094099e-01
2.080499999999999972e+01 -4.832699999999999996e+00 1.781500000000000083e+00 -2.276463000000000036e+01 -1.165164750201367755e-01
2.080999999999999872e+01 -1.063899999999999935e+01 4.110199999999999854e+00 -3.497883000000000209e+01 -7.041367523784551608e-02
2.081200000000000117e+01 -1.330400000000000027e+01 5.972100000000000186e+00 1.524497999999999998e+01 -1.232416445252146192e-01
2.081299999999999883e+01 -1.719600000000000151e+01 8.679999999999999716e+00 6.070160999999999696e+00 -6.892398559062032012e-03
2.081599999999999895e+01 -1.183600000000000030e+01 -1.594400000000000084e+01 8.856726000000000099e+00 -1.577425112832911425e-01
2.082499999999999929e+01 -1.737399999999999878e+01 -1.146000000000000085e+01 1.337029000000000067e+01 -1.740003372190786490e-01
2.083500000000000085e+01 -1.803099999999999881e+01 9.905699999999999505e+00 1.704198999999999842e+01 1.113357936233226944e-02
2.083800000000000097e+01 -4.829399999999999665e-02 -1.928300000000000125e+01 -9.170092999999999606e+00 -6.433165754938233172e-02
2.084499999999999886e+01 1.030699999999999950e+00 -1.743299999999999983e+01 4.765067000000000164e+00 -6.462801751979639631e-02
2.084799999999999898e+01 -1.942000000000000171e+01 6.613599999999999479e-01 3.698333000000000226e+01 4.922944600171124015e-03
2.084900000000000020e+01 -1.176299999999999990e+01 -1.481700000000000017e+01 3.723660999999999888e+00 -1.581242478060542467e-01
2.085000000000000142e+01 -1.692999999999999972e+01 4.593399999999999928e+00 -8.805892999999999304e+00 -1.569404371362244279e-03
2.085200000000000031e+01 -1.938599999999999923e+01 7.959399999999999586e+00 2.918895000000000017e+00 -1.034075733954922848e-03
2.085600000000000165e+01 -1.192900000000000027e+01 5.051300000000000345e+00 -1.234826999999999897e+00 -9.463374019785905644e-02
2.086400000000000077e+01 -1.440700000000000092e+00 -1.277900000000000036e+00 3.301530999999999949e+01 -1.138563046009062052e-01
2.086499999999999844e+01 -1.967800000000000082e+01 -4.652400000000000091e+00 -1.322949999999999982e+01 7.140302427388427013e-03
2.088200000000000145e+01 -7.992600000000000371e+00 -2.450100000000000122e+01 -1.026502999999999943e+00 -1.545507773822001329e-01
2.088400000000000034e+01 -1.861499999999999844e+01 7.830000000000000071e+00 3.633288999999999991e+00 -4.408967252115857452e-03
2.088400000000000034e+01 -1.756500000000000128e+01 7.830000000000000071e+00 3.345835000000000115e+00 -9.721620205259188380e-03
2.088400000000000034e+01 -1.756500000000000128e+01 9.529999999999999361e+00 9.286870999999999654e+00 4.348285839762275687e-03
2.088899999999999935e+01 9.443300000000000027e-01 -1.265099999999999980e+01 -4.187173999999999729e+00 -7.974976997187878391e-02
2.089099999999999824e+01 -1.736199999999999832e+01 2.166399999999999881e+00 -1.823840999999999934e-01 2.487193342979403081e-03
2.091700000000000159e+01 -1.207799999999999940e+01 -1.831899999999999906e+01 2.143768999999999814e+00 -1.572100948358585160e-01
2.091799999999999926e+01 -2.228200000000000003e+01 3.527000000000000135e+00 2.399689000000000050e+01 1.153487118838905298e-02
2.091799999999999926e+01 -1.933200000000000074e+01 1.066999999999999993e+01 2.252580000000000027e+01 -9.624039851226115494e-02
2.092299999999999827e+01 -1.419699999999999918e+01 -1.291999999999999993e+01 1.435583999999999971e+00 -1.732734026033921904e-01
2.092699999999999960e+01 -2.719899999999999984e+00 1.647000000000000020e+00 -5.489285999999999888e+00 -1.161545218224806497e-01
2.092699999999999960e+01 -2.047299999999999898e+01 -6.663000000000000256e+00 -6.396848999999999563e+00 2.149349405345982178e-02
2.093199999999999861e+01 -1.176399999999999935e+01 -1.215700000000000003e+01 4.261847999999999637e+00 -1.726750039811550397e-01
2.094200000000000017e+01 -4.391300000000000203e+00 4.743900000000000006e+00 -4.221693000000000140e+00 -1.247223446594495772e-01
2.094699999999999918e+01 -2.505100000000000104e+00 2.429699999999999971e+00 3.476062000000000207e+00 -1.218312144405835074e-01
2.095100000000000051e+01 4.056299999999999906e-01 -1.837699999999999889e+01 -4.369582000000000299e+00 -6.456330349057355644e-02
2.095799999999999841e+01 -2.058599999999999852e+01 8.871999999999999886e+00 3.568051000000000084e+00 -9.761122693699869624e-02
2.095799999999999841e+01 -2.058599999999999852e+01 9.830000000000000071e+00 5.047947999999999880e+00 -9.746163799515947246e-02
2.096199999999999974e+01 -2.037900000000000134e+01 -9.943699999999999761e+00 -3.206126999999999949e+00 2.271594554125170098e-02
2.096499999999999986e+01 -2.156899999999999928e-01 -1.175699999999999967e+01 9.108765000000000001e+00 -7.996595310785414856e-02
2.096499999999999986e+01 -2.156899999999999928e-01 -1.089199999999999946e+01 1.037933999999999912e+00 -8.046811071973614116e-02
2.096499999999999986e+01 -9.367399999999999949e+00 -2.242999999999999972e+01 2.115874999999999950e+00 -1.552342412308197195e-01
2.098400000000000176e+01 -1.980299999999999949e+00 6.692999999999999616e+00 1.351479999999999926e+01 -4.468208944059273019e-02
2.098699999999999832e+01 -4.044999999999999929e+00 3.917300000000000004e+00 -3.889340999999999937e+00 -1.287546704532915309e-01
2.098799999999999955e+01 -1.745499999999999829e+01 2.978899999999999881e+00 -1.170493999999999923e+00 1.598173362059597622e-03
2.098999999999999844e+01 -2.100900000000000034e+01 -4.503000000000000114e+00 -4.948388999999999704e+00 7.171234192670329632e-03
2.098999999999999844e+01 -2.014399999999999835e+01 -5.902999999999999581e+00 -1.061067000000000071e+01 7.361296087688501237e-03
2.100199999999999889e+01 -2.186599999999999966e+01 6.051199999999999912e-01 2.219660000000000188e+00 7.823958945556038630e-03
2.104400000000000048e+01 -7.865999999999999659e+00 3.417699999999999960e+00 -5.210103999999999758e+01 -1.795512831588450819e-01
2.104500000000000171e+01 -9.238300000000000622e+00 -2.338800000000000168e+01 1.013609999999999900e+00 -1.551335280882430445e-01
2.104500000000000171e+01 -6.487700000000000244e+00 -2.338800000000000168e+01 -1.475257000000000041e+00 -1.539988803871713274e-01
2.104700000000000060e+01 -1.342600000000000016e+01 -1.219699999999999918e+01 1.346987000000000023e+01 -1.730258894421395355e-01
2.104899999999999949e+01 -1.983999999999999986e+01 -5.203000000000000291e+00 -1.713920999999999850e+01 7.167709666113952598e-03
2.104899999999999949e+01 -3.521999999999999797e+00 6.592999999999999972e+00 -6.651721999999999912e-01 -1.498819987909510432e-01
2.105399999999999849e+01 -1.866900000000000004e+00 4.028400000000000425e+00 2.789094000000000051e+01 -1.398816406399907009e-01
2.105699999999999861e+01 -1.670599999999999952e+01 -1.309200000000000053e+01 1.411717000000000111e+00 -1.736189043026022394e-01
2.106099999999999994e+01 -2.156299999999999883e+01 1.305099999999999927e+00 2.821274999999999977e+00 7.872597416703283266e-03
2.106200000000000117e+01 -2.180300000000000082e+01 2.751500000000000057e+00 3.235138000000000069e+00 9.643992985990598732e-03
2.106800000000000139e+01 -1.552100000000000080e+01 4.913400000000000212e+00 -5.721110000000000184e+01 -2.260946020476698945e-02
2.107199999999999918e+01 -4.400000000000000355e+00 2.481500000000000039e+00 -1.208872000000000035e+01 -1.211868131021794914e-01
2.107999999999999829e+01 -6.105599999999999916e+00 -2.263100000000000023e+01 -2.402471999999999941e+00 -1.538395970378788058e-01
2.108500000000000085e+01 2.195199999999999818e+00 -1.635500000000000043e+01 3.231355000000000199e-01 -7.916841487796176524e-02
2.109499999999999886e+01 -3.114500000000000046e+00 -1.973900000000000077e+01 -1.872638000000000037e-03 -6.426795544811968186e-02
2.110399999999999920e+01 -1.040499999999999936e+01 -2.020599999999999952e+01 8.666691999999999396e+00 -1.560052791248213722e-01
2.110600000000000165e+01 -1.169699999999999918e+01 -1.953200000000000003e+01 1.480250999999999983e+00 -1.567804902807466150e-01
2.110800000000000054e+01 -4.321699999999999875e+00 -2.042299999999999827e+01 -2.260644999999999794e+00 -6.419260501734330715e-02
