4.949099999999999966e+01 2.761100000000000065e+01 1.215300000000000047e+01 6.456578000000000372e+00 -2.174240328929781182e-02
4.949300000000000210e+01 3.111100000000000065e+01 1.510200000000000031e+01 2.413056000000000090e+00 -1.783042894888333119e-01
4.949300000000000210e+01 2.700600000000000023e+01 1.331099999999999994e+01 4.724675000000000402e+00 -2.113516981912192533e-02
4.949699999999999989e+01 4.834700000000000131e+01 3.508299999999999841e+01 -1.188362000000000052e+01 -2.157422532329593759e-02
4.949699999999999989e+01 4.989800000000000324e+01 3.353199999999999648e+01 -5.229866000000000348e+00 -3.428248965033867807e-02
4.950000000000000000e+01 4.875300000000000011e+01 2.049200000000000088e+01 -2.187136999999999887e+01 -5.118569754832665020e-02
4.950500000000000256e+01 4.569899999999999807e+01 3.031400000000000006e+01 -1.384216999999999942e+01 8.217809887777785538e-02
4.950699999999999790e+01 3.332399999999999807e+01 2.450199999999999889e+01 -4.707464000000000226e+01 -1.786790251138296037e-01
4.950900000000000034e+01 4.944700000000000273e+01 1.413799999999999990e+01 -1.797017999999999915e+01 -4.203251350964546523e-02
4.950999999999999801e+01 3.097899999999999920e+01 2.127299999999999969e+01 -1.224577999999999989e+01 -1.758751287671473373e-01
4.951100000000000279e+01 3.485199999999999676e+01 2.464900000000000091e+01 -1.700357999999999947e+01 -1.807711375584303004e-01
4.951299999999999812e+01 3.213700000000000045e+01 9.123699999999999477e+00 -1.910646000000000011e-01 -2.810529910727639913e-01
4.951299999999999812e+01 3.213700000000000045e+01 1.017399999999999949e+01 2.111082999999999821e+00 -2.812098142944178258e-01
4.951700000000000301e+01 3.642300000000000182e+01 2.818299999999999983e+01 -7.065601000000000020e+00 -1.978483413467457264e-01
4.951700000000000301e+01 4.701500000000000057e+01 3.378600000000000136e+01 -2.665724000000000160e+01 -3.297075018110941225e-02
4.951899999999999835e+01 5.032800000000000296e+01 2.194300000000000139e+01 -1.006048000000000009e+01 -5.593081787199048749e-02
4.952199999999999847e+01 3.949799999999999756e+01 2.953800000000000026e+01 -6.413287000000000404e+00 -3.479224612412207956e-02
4.953300000000000125e+01 4.525800000000000267e+01 2.939300000000000068e+01 -1.648477000000000103e+01 -6.775867961083884006e-02
4.953699999999999903e+01 5.138100000000000023e+01 1.393900000000000006e+01 -2.129643000000000086e+01 -4.402843978441413342e-02
4.954200000000000159e+01 3.846399999999999864e+01 2.852799999999999869e+01 -1.753835000000000122e+01 -2.035731621711685813e-01
4.954200000000000159e+01 4.650099999999999767e+01 3.015700000000000003e+01 -8.993347999999999232e+00 -7.105909700321200173e-02
4.954200000000000159e+01 4.755100000000000193e+01 3.015700000000000003e+01 1.833771999999999958e+00 -7.169385947892184530e-02
4.954500000000000171e+01 3.227100000000000080e+01 1.112500000000000000e+01 -1.277832000000000079e+00 -2.815014443197182414e-01
4.955400000000000205e+01 5.082699999999999818e+01 2.078500000000000014e+01 -1.440279999999999916e+01 -5.398533195966358222e-02
4.955700000000000216e+01 3.351200000000000045e+01 8.202899999999999636e+00 1.355823000000000000e+00 -2.815578315558747713e-01
4.956400000000000006e+01 4.243299999999999983e+01 1.995700000000000074e+01 3.810656000000000176e+01 -3.279849151815890373e-02
4.956400000000000006e+01 4.243299999999999983e+01 2.082199999999999918e+01 1.821177000000000135e+01 -3.405033014219678578e-02
4.956900000000000261e+01 4.639000000000000057e+01 2.578800000000000026e+01 -4.801368000000000080e+00 -6.018087640648073222e-02
4.957999999999999829e+01 3.675200000000000244e+01 2.742299999999999827e+01 -7.897167999999999743e+00 -1.944924026273376905e-01
4.957999999999999829e+01 3.675200000000000244e+01 2.894300000000000139e+01 -1.121277000000000079e+01 -2.033351312752816609e-01
4.958700000000000330e+01 4.637700000000000244e+01 2.775300000000000011e+01 -1.932674000000000092e+01 -6.543498916975029611e-02
4.959000000000000341e+01 4.277600000000000335e+01 1.877400000000000091e+01 1.234684999999999988e+01 -3.262675825760271570e-02
4.959000000000000341e+01 4.396699999999999875e+01 1.810999999999999943e+01 8.107316000000000855e+00 -3.576837805812817239e-02
4.959899999999999665e+01 4.936299999999999955e+01 3.201299999999999812e+01 2.099142000000000063e+00 2.554104885151088355e-01
4.960300000000000153e+01 4.614600000000000080e+01 2.690399999999999991e+01 -1.361808000000000085e+01 -6.269432228779979466e-02
4.960499999999999687e+01 4.752300000000000324e+01 2.502899999999999991e+01 5.166045999999999694e+00 -5.989537481470582486e-02
4.960900000000000176e+01 2.676399999999999935e+01 1.215300000000000047e+01 -9.350846999999999909e+00 -1.219900167316180506e-01
4.961200000000000188e+01 4.692099999999999937e+01 1.386100000000000065e+01 -5.144894999999999996e+00 -3.776536753641269312e-02
4.961299999999999955e+01 4.792000000000000171e+01 3.100700000000000145e+01 5.292316999999999716e+00 8.021448485299549624e-02
4.961399999999999721e+01 4.718399999999999750e+01 2.041199999999999903e+01 -3.586699000000000126e+01 -4.810984727721574761e-02
4.961399999999999721e+01 4.667300000000000182e+01 3.240599999999999881e+01 -9.312478999999999729e+00 8.424410351000934105e-02
4.961800000000000210e+01 4.857900000000000063e+01 2.503699999999999903e+01 6.071093000000000295e+00 -6.110821937306106649e-02
4.962199999999999989e+01 2.649200000000000088e+01 1.085800000000000054e+01 -3.119373999999999825e+01 -1.213523088583514237e-01
4.963900000000000290e+01 3.705599999999999739e+01 2.672299999999999898e+01 -8.557638999999999996e+00 -1.919787665568765123e-01
4.963900000000000290e+01 4.548700000000000188e+01 2.862800000000000011e+01 -2.669725999999999999e+01 -6.580287923420344298e-02
4.964000000000000057e+01 4.625699999999999790e+01 1.396100000000000030e+01 -3.921629999999999949e+00 -3.663588568233439730e-02
4.964300000000000068e+01 4.106900000000000261e+01 3.250800000000000267e+01 3.483709999999999862e-01 1.079071600382136842e-01
4.964600000000000080e+01 4.127499999999999858e+01 1.133799999999999919e+01 -2.926038000000000139e+01 -2.518262335676447680e-02
4.964600000000000080e+01 4.148400000000000176e+01 1.207399999999999984e+01 -9.564529000000000281e+00 -2.563517907399396473e-02
4.964600000000000080e+01 4.267499999999999716e+01 1.273799999999999955e+01 3.876113000000000142e+00 -2.838887828586883488e-02
4.964999999999999858e+01 3.668800000000000239e+01 2.598000000000000043e+01 -5.205727999999999689e+00 -1.883246218213187051e-01
4.966899999999999693e+01 4.751899999999999835e+01 3.460099999999999909e+01 -1.289499999999999957e+01 -2.437169912107411268e-02
4.967000000000000171e+01 4.878000000000000114e+01 3.423199999999999932e+01 -4.439229000000000269e+01 -2.824663043625824654e-02
4.967000000000000171e+01 4.973199999999999932e+01 3.286299999999999955e+01 5.729066000000000436e+00 2.543156509855628022e-01
4.967399999999999949e+01 4.709799999999999898e+01 2.147500000000000142e+01 -1.189164000000000065e+01 -5.012659009131981147e-02
4.967600000000000193e+01 4.512400000000000233e+01 1.320299999999999940e+01 1.259589000000000070e+00 -3.379404811036699346e-02
4.967900000000000205e+01 3.207000000000000028e+01 1.316099999999999959e+01 -1.034262999999999977e+01 -4.742293560308971818e-03
4.968099999999999739e+01 4.122500000000000142e+01 9.933299999999999130e+00 -9.538736000000000104e+00 -2.514551797507755954e-02
4.968699999999999761e+01 2.674899999999999878e+01 1.163299999999999912e+01 -3.775992999999999711e+01 -1.217154529981892830e-01
4.968699999999999761e+01 4.564999999999999858e+01 2.244399999999999906e+01 -1.098441000000000001e+00 -4.894232469367497396e-02
4.968800000000000239e+01 5.334400000000000119e+01 1.827700000000000102e+01 -3.299101999999999890e+01 -5.130612592153512008e-02
4.969299999999999784e+01 5.014999999999999858e+01 1.463899999999999935e+01 -1.646691999999999823e+01 -4.337152098026196556e-02
4.970900000000000318e+01 4.524799999999999756e+01 3.111299999999999955e+01 -5.113343999999999667e+00 8.538479667997075917e-02
4.971399999999999864e+01 4.496300000000000097e+01 3.031400000000000006e+01 -1.057105999999999923e+01 8.463458551105740302e-02
4.972599999999999909e+01 4.775099999999999767e+01 3.378600000000000136e+01 -2.661985999999999919e+01 -3.164845632575977868e-02
4.972899999999999920e+01 4.614600000000000080e+01 3.105999999999999872e+01 -3.441612999999999811e+00 8.333082713825398780e-02
4.973100000000000165e+01 3.876200000000000045e+01 2.953800000000000026e+01 -5.990730000000000111e+00 -2.097101855261783165e-01
4.973299999999999699e+01 3.184799999999999898e+01 1.662300000000000111e+01 1.866355000000000097e-01 -1.778762017400503936e-01
4.973299999999999699e+01 3.184799999999999898e+01 1.748799999999999955e+01 -1.258566999999999991e+00 -1.774619531152299423e-01
4.973299999999999699e+01 5.143200000000000216e+01 1.668499999999999872e+01 -1.151988000000000056e+01 -4.746708194914016354e-02
4.973599999999999710e+01 4.832399999999999807e+01 3.193400000000000105e+01 -3.579918999999999851e+00 2.580930889254270388e-01
4.974499999999999744e+01 5.158899999999999864e+01 1.950000000000000000e+01 -1.579349999999999987e+01 -5.199730265354871733e-02
4.975000000000000000e+01 4.995300000000000296e+01 2.280699999999999861e+01 -3.997139000000000220e+00 -5.694251747415368659e-02
4.975500000000000256e+01 3.853600000000000136e+01 9.016600000000000392e+00 -8.109189999999999898e+00 -2.054692289208144909e-02
4.977199999999999847e+01 4.833400000000000318e+01 3.367799999999999727e+01 -9.757296000000000191e+00 -3.226304599680844543e-02
4.978000000000000114e+01 3.780499999999999972e+01 2.950700000000000145e+01 -1.709205000000000041e+01 -2.086014474048782097e-01
4.979699999999999704e+01 3.285399999999999920e+01 2.374200000000000088e+01 -1.599577000000000027e+01 -1.783754389305546029e-01
4.980100000000000193e+01 4.485999999999999943e+01 1.256900000000000084e+01 4.127709000000000295e+00 -3.278917513789974397e-02
4.980299999999999727e+01 3.938700000000000045e+01 3.025600000000000023e+01 -3.309772999999999854e+00 1.113566531755275923e-01
4.980499999999999972e+01 4.390599999999999881e+01 2.208599999999999852e+01 -2.191085999999999867e+00 -4.211788847847344058e-02
4.980599999999999739e+01 4.799099999999999966e+01 3.286299999999999955e+01 -6.958935000000000315e+00 -3.888883810067451235e-02
4.981600000000000250e+01 4.621800000000000352e+01 1.928099999999999881e+01 -2.597980000000000089e+01 -4.345021746887330755e-02
4.983100000000000307e+01 4.286599999999999966e+01 2.152199999999999847e+01 1.130555999999999983e+01 -3.672199113043937702e-02
4.983599999999999852e+01 3.408400000000000318e+01 2.456500000000000128e+01 -1.522627999999999915e+01 -1.808296612578273455e-01
4.984499999999999886e+01 3.999600000000000222e+01 3.163700000000000045e+01 -3.464294999999999902e+00 1.127080315769023872e-01
4.984799999999999898e+01 4.675999999999999801e+01 2.000100000000000122e+01 -1.892767999999999873e+01 -4.598158877002359729e-02
4.986099999999999710e+01 3.969100000000000250e+01 3.095599999999999952e+01 -4.956771999999999956e+00 1.122482191859233980e-01
4.986200000000000188e+01 4.769299999999999784e+01 1.391999999999999993e+01 -3.597334000000000032e+00 -3.893843709636067574e-02
4.986200000000000188e+01 4.863300000000000267e+01 1.391999999999999993e+01 -5.539280999999999899e+00 -4.037813840854016095e-02
4.986699999999999733e+01 4.702600000000000335e+01 3.100700000000000145e+01 -2.018654000000000170e+00 8.216729613396750453e-02
4.986800000000000210e+01 4.756700000000000017e+01 3.240599999999999881e+01 -5.707289000000000279e+00 8.347345347378209990e-02
4.988799999999999812e+01 4.379500000000000171e+01 3.253600000000000136e+01 4.295478000000000129e+00 9.381278695839009862e-02
4.988799999999999812e+01 3.500800000000000267e+01 8.433099999999999596e+00 -9.752975999999999868e-01 -1.117587614181065198e-01
4.988799999999999812e+01 3.654299999999999926e+01 7.996999999999999886e+00 -2.893603000000000147e+00 -1.143582577404300971e-01
4.988799999999999812e+01 3.789300000000000068e+01 8.623799999999999244e+00 -6.014675999999999689e+00 -1.965918442241177885e-02
4.989500000000000313e+01 3.999300000000000210e+01 9.230900000000000105e+00 -4.219300999999999746e+00 -2.299778409995733783e-02
4.991700000000000159e+01 3.718599999999999994e+01 2.953300000000000125e+01 -2.353950999999999993e+01 -2.079281139648481713e-01
4.991799999999999926e+01 3.281499999999999773e+01 1.155000000000000071e+01 -2.106021999999999894e-01 -8.535779537653415128e-03
4.991799999999999926e+01 3.281499999999999773e+01 1.241600000000000037e+01 4.695503999999999678e+00 -7.262680981543864940e-03
4.992399999999999949e+01 4.883800000000000097e+01 3.286299999999999955e+01 -4.853576000000000334e+00 -3.754984821175354204e-02
4.992499999999999716e+01 4.729699999999999704e+01 3.170599999999999952e+01 -4.029670000000000307e+00 8.297913057799169434e-02
4.992900000000000205e+01 3.821900000000000119e+01 3.020700000000000074e+01 -4.022700999999999638e+00 -2.130750586728597240e-01
4.993099999999999739e+01 3.148799999999999955e+01 1.911899999999999977e+01 -7.445516999999999719e+00 -1.771995683413526979e-01
4.993099999999999739e+01 3.169699999999999918e+01 1.838299999999999912e+01 -3.091378999999999877e+00 -1.774442385898810648e-01
4.993200000000000216e+01 3.158699999999999974e+01 2.163899999999999935e+01 -9.775805000000000078e+00 -1.770683128751456281e-01
4.993200000000000216e+01 5.073499999999999943e+01 1.558399999999999963e+01 -1.110041999999999973e+01 -4.503511928165808420e-02
4.994299999999999784e+01 4.555700000000000216e+01 1.390300000000000047e+01 4.187263999999999986e-01 -3.502476055642589348e-02
4.994400000000000261e+01 3.555199999999999960e+01 2.491600000000000037e+01 -1.238132999999999928e+00 -1.840201243801969089e-01
4.995100000000000051e+01 3.272699999999999676e+01 2.266700000000000159e+01 -1.135213000000000072e+01 -1.778609260688673310e-01
4.995900000000000318e+01 4.143099999999999739e+01 1.718199999999999861e+01 1.944724000000000075e+01 -2.638635168892248736e-02
4.996600000000000108e+01 3.160500000000000043e+01 1.391399999999999970e+01 -3.594043000000000099e-01 -2.889788094831357082e-03
4.997099999999999653e+01 5.270499999999999829e+01 1.786799999999999855e+01 -4.985374000000000194e+00 -4.998156810398463740e-02
4.999900000000000233e+01 4.367900000000000205e+01 1.247600000000000087e+01 4.754198999999999842e+00 -3.029265679671999667e-02
5.001899999999999835e+01 4.696800000000000352e+01 2.564600000000000080e+01 -2.324485999999999830e+00 -5.922306200471303544e-02
5.002199999999999847e+01 4.326700000000000301e+01 1.837800000000000011e+01 7.287469999999999892e+00 -3.344528259103653894e-02
5.003600000000000136e+01 4.592000000000000171e+01 2.813700000000000045e+01 -1.399192000000000036e+01 -6.350383171975405860e-02
5.003799999999999670e+01 3.298700000000000188e+01 8.798999999999999488e+00 3.300381999999999927e+00 -2.818845396119200597e-01
5.004500000000000171e+01 4.536099999999999710e+01 1.858599999999999852e+01 2.217645999999999873e+01 -3.985049555767105484e-02
5.004999999999999716e+01 3.599199999999999733e+01 2.771300000000000097e+01 -6.950495000000000090e+00 -1.955353709896247016e-01
5.004999999999999716e+01 3.599199999999999733e+01 2.865299999999999869e+01 -6.382859999999999978e+00 -2.006462319780702719e-01
5.007200000000000273e+01 4.478699999999999903e+01 2.889600000000000080e+01 1.403761000000000037e+00 -6.250284182361130758e-02
5.007800000000000296e+01 3.400999999999999801e+01 8.663600000000000634e+00 4.819566000000000017e+00 -2.823525604896928720e-01
5.007900000000000063e+01 4.197500000000000142e+01 1.247100000000000009e+01 9.812671999999999173e+00 -2.662777953537416240e-02
5.008400000000000318e+01 3.731300000000000239e+01 3.025000000000000000e+01 -9.011907000000000778e+00 -2.123900499810427722e-01
5.008500000000000085e+01 4.202799999999999869e+01 3.320499999999999829e+01 5.503921000000000507e-01 1.045282102416942027e-01
5.009000000000000341e+01 4.952499999999999858e+01 2.361100000000000065e+01 -2.649720999999999993e+00 -5.749143077295711113e-02
5.009599999999999653e+01 3.282200000000000273e+01 1.053500000000000014e+01 1.003846000000000016e+00 -9.981498387923625620e-03
5.010099999999999909e+01 4.078099999999999881e+01 3.239699999999999847e+01 4.650895999999999919e-01 1.100392838817038782e-01
5.010799999999999699e+01 4.460600000000000165e+01 2.214499999999999957e+01 -5.078808999999999685e+00 -4.410389044240208001e-02
5.010900000000000176e+01 3.261800000000000210e+01 9.648999999999999133e+00 3.238296999999999981e-01 -2.819513729558704163e-01
5.012599999999999767e+01 4.802100000000000080e+01 2.548999999999999844e+01 7.163831999999999978e-01 -6.000756868230165686e-02
5.015699999999999648e+01 3.873100000000000165e+01 3.112800000000000011e+01 -4.518107999999999791e+00 1.194826886073124123e-01
5.015999999999999659e+01 3.484799999999999898e+01 2.465399999999999991e+01 -8.829290999999999556e+00 -1.831112278133361360e-01
5.016599999999999682e+01 5.192300000000000182e+01 1.708099999999999952e+01 -6.349127000000000187e+00 -4.802286149130173543e-02
5.016799999999999926e+01 4.069500000000000028e+01 1.718199999999999861e+01 1.897991000000000028e+01 -2.377496910613172837e-02
5.016799999999999926e+01 4.216700000000000159e+01 1.718199999999999861e+01 1.510527000000000086e+01 -2.871584312669051703e-02
5.017000000000000171e+01 4.939600000000000080e+01 2.456899999999999906e+01 2.759329000000000143e+00 -5.920728578716919627e-02
5.017499999999999716e+01 4.425999999999999801e+01 3.178300000000000125e+01 7.478070999999999913e+00 9.125948489144425357e-02
5.017799999999999727e+01 5.109799999999999898e+01 1.989699999999999847e+01 -1.305413000000000068e+01 -5.163693505605961714e-02
5.017999999999999972e+01 5.209499999999999886e+01 1.887900000000000134e+01 -1.265099000000000018e+01 -5.080041563535729610e-02
5.018500000000000227e+01 4.466400000000000148e+01 1.845299999999999940e+01 1.146969999999999956e+01 -3.760686917364595983e-02
5.018699999999999761e+01 4.023700000000000188e+01 3.193599999999999994e+01 -1.790162000000000031e+00 1.122605936211332478e-01
5.019100000000000250e+01 3.909000000000000341e+01 9.426899999999999835e+00 -8.553967000000000098e+00 -2.131403671994317600e-02
5.019899999999999807e+01 5.116799999999999926e+01 1.628399999999999892e+01 -1.190715999999999930e+01 -4.616974605557354339e-02
5.020499999999999829e+01 4.456700000000000017e+01 2.988200000000000145e+01 -5.844402999999999793e+00 8.663256277285287521e-02
5.020499999999999829e+01 4.456700000000000017e+01 3.074699999999999989e+01 -2.735670999999999964e+00 8.825592636273531244e-02
5.021200000000000330e+01 3.104700000000000060e+01 1.629299999999999926e+01 1.080098000000000003e+00 -1.787048043071909897e-01
5.021800000000000352e+01 4.055799999999999983e+01 9.559900000000000730e+00 -2.508557000000000059e+01 -2.388309324587975860e-02
5.021900000000000119e+01 5.038600000000000279e+01 2.224599999999999866e+01 -3.493587999999999916e+00 -5.520913320121911827e-02
5.022200000000000131e+01 3.111700000000000088e+01 1.993900000000000006e+01 -8.981294000000000111e+00 -1.776735350244905420e-01
5.022200000000000131e+01 3.111700000000000088e+01 2.087900000000000134e+01 -1.504534999999999911e+01 -1.776854043822729268e-01
5.022399999999999665e+01 4.629099999999999682e+01 2.190500000000000114e+01 -4.938730999999999760e+00 -4.813060287009600369e-02
5.022599999999999909e+01 4.099900000000000233e+01 1.648199999999999932e+01 1.693452999999999875e+01 -2.463919983762566032e-02
5.022599999999999909e+01 4.099900000000000233e+01 1.788200000000000145e+01 2.396156999999999826e+01 -2.502512350491303134e-02
5.022599999999999909e+01 4.186399999999999721e+01 1.648199999999999932e+01 2.456522999999999968e+01 -2.736118436689526784e-02
5.022599999999999909e+01 4.186399999999999721e+01 1.788200000000000145e+01 1.764847999999999928e+01 -2.810598891118024772e-02
5.024300000000000210e+01 4.912500000000000000e+01 1.459200000000000053e+01 -1.494616000000000078e+01 -4.151958662791686849e-02
5.024900000000000233e+01 3.141100000000000136e+01 1.709600000000000009e+01 6.678357000000000099e+00 -1.784540930865640695e-01
5.024900000000000233e+01 4.572699999999999676e+01 1.888500000000000156e+01 -1.892398000000000136e-01 -4.098169512505712986e-02
5.025399999999999778e+01 3.769400000000000261e+01 3.105699999999999861e+01 -6.338556999999999775e+00 -2.170932809859422163e-01
5.025399999999999778e+01 5.055899999999999750e+01 2.121699999999999875e+01 -1.022771000000000008e+01 -5.336293196990517240e-02
5.025399999999999778e+01 5.076800000000000068e+01 2.048100000000000165e+01 -1.166822999999999944e+01 -5.223183570639990808e-02
5.025800000000000267e+01 4.726100000000000279e+01 1.441099999999999959e+01 -2.682990000000000208e+00 -3.842306779820052476e-02
5.026400000000000290e+01 4.216599999999999682e+01 2.039000000000000057e+01 2.690468999999999866e+01 -3.149268794027688251e-02
5.026400000000000290e+01 4.237500000000000000e+01 1.965399999999999991e+01 1.992362999999999928e+01 -3.147585195311583539e-02
5.026400000000000290e+01 4.237500000000000000e+01 2.112600000000000122e+01 2.457854000000000028e+01 -3.335300996360442138e-02
5.026400000000000290e+01 4.356600000000000250e+01 2.178999999999999915e+01 -4.343294000000000210e+00 -3.933492409875992413e-02
5.026700000000000301e+01 3.361399999999999721e+01 2.403200000000000003e+01 -8.964088000000000278e+00 -1.809676297771774522e-01
5.026800000000000068e+01 3.634499999999999886e+01 2.603399999999999892e+01 -1.084652999999999956e+01 -1.896503697171643132e-01
5.026800000000000068e+01 3.634499999999999886e+01 2.689900000000000091e+01 -1.999966999999999828e+01 -1.929439719479579540e-01
5.027700000000000102e+01 4.147299999999999898e+01 1.601999999999999957e+01 2.343070000000000164e+01 -2.598204717249672641e-02
5.028399999999999892e+01 3.638799999999999812e+01 2.948300000000000054e+01 -1.531535000000000046e+01 -2.064085709491375320e-01
5.029099999999999682e+01 3.108500000000000085e+01 1.528500000000000014e+01 4.802546999999999677e+00 -1.792472015349369507e-01
5.029599999999999937e+01 3.228799999999999670e+01 2.179500000000000171e+01 -2.236420000000000030e+01 -1.782663564518850996e-01
5.030299999999999727e+01 4.641299999999999670e+01 2.647100000000000009e+01 -3.155404000000000053e+01 -5.925090687665453965e-02
5.032600000000000051e+01 4.396699999999999875e+01 1.831899999999999906e+01 1.572067000000000103e+00 -3.526350111219886396e-02
5.033899999999999864e+01 4.521999999999999886e+01 2.819600000000000151e+01 -4.544018000000000335e+00 -6.066380197828249304e-02
5.034599999999999653e+01 4.154200000000000159e+01 1.177100000000000080e+01 4.683097000000000065e+00 -2.557215810089416563e-02
5.035799999999999699e+01 3.578300000000000125e+01 8.287300000000000111e+00 -8.408232999999999180e+00 -1.138928957606488018e-01
5.035799999999999699e+01 3.730299999999999727e+01 8.287300000000000111e+00 -1.427105000000000068e+01 -1.891337120556360954e-02
5.035999999999999943e+01 4.795400000000000063e+01 1.480799999999999983e+01 -1.336619999999999919e+01 -3.991480313943851499e-02
5.035999999999999943e+01 4.956499999999999773e+01 1.480799999999999983e+01 -4.432443000000000133e+00 -4.226507892017559997e-02
5.037500000000000000e+01 4.669700000000000273e+01 1.441499999999999915e+01 -2.270928000000000058e+00 -3.734499263188653662e-02
5.037599999999999767e+01 4.506600000000000250e+01 1.350600000000000023e+01 7.973418999999999812e+00 -3.348194901383264033e-02
5.037800000000000011e+01 4.127100000000000080e+01 3.312199999999999989e+01 -5.804281999999999719e+00 1.091443511120814697e-01
5.038100000000000023e+01 3.471000000000000085e+01 8.605299999999999727e+00 -7.518118000000000301e-01 -2.829503658430702617e-01
5.038199999999999790e+01 4.267499999999999716e+01 1.252899999999999991e+01 9.568604999999999805e+00 -2.805859169797592784e-02
5.038700000000000045e+01 3.319100000000000250e+01 2.330799999999999983e+01 -8.243112999999999246e+00 -1.800765089934897589e-01
5.040599999999999881e+01 3.226400000000000290e+01 1.350399999999999956e+01 4.721280000000000143e+00 -4.948905176495802319e-03
5.041100000000000136e+01 4.633899999999999864e+01 2.741499999999999915e+01 -2.769587999999999894e+01 -6.095802320578573574e-02
5.044200000000000017e+01 4.249499999999999744e+01 3.309799999999999898e+01 -8.770718999999999710e+00 1.024040962111241460e-01
5.046200000000000330e+01 3.975200000000000244e+01 3.176699999999999946e+01 -5.667114999999999903e+00 1.149271927962106365e-01
5.046200000000000330e+01 5.230899999999999750e+01 1.830000000000000071e+01 -1.124155999999999977e+01 -4.974939404227632367e-02
5.047099999999999653e+01 4.146399999999999864e+01 1.097300000000000075e+01 -1.171468999999999916e+01 -2.538649215253012750e-02
5.047200000000000131e+01 4.743299999999999983e+01 2.580300000000000082e+01 -9.016875000000000639e+00 -5.881889955677128967e-02
5.048599999999999710e+01 4.073700000000000188e+01 1.601999999999999957e+01 1.748177000000000092e+01 -2.368654878194288022e-02
5.049399999999999977e+01 3.839000000000000057e+01 9.368600000000000705e+00 -6.886351000000000333e+00 -2.010954490111195592e-02
5.049499999999999744e+01 4.887100000000000222e+01 2.541900000000000048e+01 -3.271212999999999926e+00 -5.963761135555273318e-02
5.050399999999999778e+01 4.225000000000000000e+01 1.618599999999999994e+01 1.805733000000000033e+01 -2.824539510632777944e-02
5.051599999999999824e+01 4.615999999999999659e+01 1.958500000000000085e+01 -1.225655000000000072e+01 -4.280630137931389079e-02
5.054500000000000171e+01 4.103999999999999915e+01 1.532000000000000028e+01 1.181109000000000009e+01 -2.450111753127539455e-02
5.054500000000000171e+01 4.190500000000000114e+01 1.532000000000000028e+01 1.455038000000000054e+01 -2.691397696633784226e-02
5.054800000000000182e+01 4.670100000000000051e+01 2.030399999999999849e+01 -1.513560999999999979e+01 -4.526059613154748140e-02
5.054800000000000182e+01 4.670100000000000051e+01 2.116900000000000048e+01 -5.887108999999999703e+00 -4.690503685781346327e-02
5.054999999999999716e+01 5.208299999999999841e+01 1.746199999999999974e+01 -6.643736999999999782e+00 -4.827646639461788403e-02
5.055700000000000216e+01 3.309400000000000119e+01 2.269500000000000028e+01 -1.210153000000000034e+01 -1.799287250231142166e-01
5.058500000000000085e+01 4.556900000000000261e+01 2.192800000000000082e+01 -6.790892999999999624e+00 -4.556858030703648393e-02
5.059400000000000119e+01 4.462299999999999756e+01 1.254800000000000004e+01 4.576469999999999594e+00 -3.192326751114436117e-02
5.061200000000000188e+01 5.160399999999999920e+01 1.927599999999999980e+01 -1.456752999999999965e+01 -5.045577519604832473e-02
5.061399999999999721e+01 3.540299999999999869e+01 2.508099999999999952e+01 4.026809000000000083e+00 -1.863086579234766449e-01
5.062299999999999756e+01 4.371399999999999864e+01 3.226800000000000068e+01 5.767576000000000036e+00 9.553319381430518120e-02
5.062299999999999756e+01 4.143099999999999739e+01 1.837300000000000111e+01 2.466345000000000098e+01 -2.664541742320727935e-02
5.062299999999999756e+01 4.998799999999999955e+01 2.316600000000000037e+01 5.973139999999999894e+00 -5.580177539602704240e-02
5.063199999999999790e+01 5.168399999999999750e+01 1.689399999999999835e+01 -6.558138999999999719e+00 -4.705623714788360890e-02
5.063700000000000045e+01 3.329999999999999716e+01 9.275999999999999801e+00 2.780822999999999823e+00 -2.826969620720247711e-01
5.065299999999999869e+01 3.322299999999999898e+01 1.199699999999999989e+01 5.651272999999999991e-01 -8.887458456347623742e-03
5.065899999999999892e+01 4.029899999999999949e+01 1.674899999999999878e+01 1.781504999999999939e+01 -2.229984515546242635e-02
5.065899999999999892e+01 4.029899999999999949e+01 1.761499999999999844e+01 2.555772999999999939e+01 -2.233388664566331519e-02
5.065899999999999892e+01 4.256400000000000006e+01 1.674899999999999878e+01 1.571026999999999951e+01 -2.939075734435918005e-02
5.065899999999999892e+01 4.256400000000000006e+01 1.761499999999999844e+01 9.707660999999999873e+00 -2.997331448377119067e-02
5.066700000000000159e+01 4.420700000000000074e+01 2.177599999999999980e+01 -7.229036999999999935e+00 -4.091458430952433362e-02
5.067300000000000182e+01 5.004200000000000159e+01 1.540700000000000003e+01 -1.653583000000000025e+00 -4.331160191099465290e-02
5.067799999999999727e+01 4.599699999999999989e+01 1.435699999999999932e+01 -3.498900999999999817e-01 -3.577041874996935572e-02
5.067900000000000205e+01 3.436599999999999966e+01 2.419800000000000040e+01 -1.401557000000000031e+01 -1.833051054460571039e-01
5.068200000000000216e+01 3.338799999999999812e+01 1.248300000000000054e+01 9.023775000000000546e+00 -8.503909045102526348e-03
5.068699999999999761e+01 3.654299999999999926e+01 8.224000000000000199e+00 -1.761017000000000010e+01 -1.781929144017649694e-02
5.069599999999999795e+01 4.286599999999999966e+01 1.925700000000000145e+01 9.383974999999999511e+00 -3.243191379934222407e-02
5.069599999999999795e+01 4.286599999999999966e+01 2.152199999999999847e+01 1.720373999999999981e+01 -3.542538273986839403e-02
5.069700000000000273e+01 3.785300000000000153e+01 8.933299999999999130e+00 -2.275995999999999952e+01 -1.943451887493100744e-02
5.070400000000000063e+01 3.152799999999999869e+01 1.795700000000000074e+01 3.584165000000000045e+00 -1.789677391550665297e-01
5.072699999999999676e+01 3.165599999999999881e+01 1.423000000000000043e+01 4.189618000000000286e+00 -3.030585061073161855e-03
5.073499999999999943e+01 3.821900000000000119e+01 3.165299999999999869e+01 -4.347824000000000133e+00 -2.190996986379024070e-01
5.073799999999999955e+01 3.175000000000000000e+01 1.871399999999999864e+01 -2.031102000000000185e+00 -1.789159722408834030e-01
5.074099999999999966e+01 3.308500000000000085e+01 1.318299999999999983e+01 6.633901999999999965e+00 -7.023966859904156972e-03
5.075099999999999767e+01 4.467199999999999704e+01 1.889600000000000080e+01 -9.206976999999999522e-01 -3.758250517464606366e-02
5.075399999999999778e+01 3.192800000000000082e+01 2.110999999999999943e+01 -1.247549000000000063e+01 -1.791271618463437520e-01
5.075500000000000256e+01 3.154799999999999827e+01 2.040899999999999892e+01 -5.358043999999999585e+00 -1.789107714903343249e-01
5.075699999999999790e+01 4.838600000000000279e+01 1.529899999999999949e+01 1.231406999999999918e+01 -4.080948076168641747e-02
5.075900000000000034e+01 3.594899999999999807e+01 2.646699999999999875e+01 -8.665677999999999770e+00 -1.917741216338199328e-01
5.076500000000000057e+01 3.905199999999999960e+01 3.170799999999999841e+01 -4.270514999999999617e+00 1.189759865678803735e-01
5.077199999999999847e+01 3.562400000000000233e+01 2.589399999999999835e+01 -5.736610999999999905e+00 -1.893773406072534193e-01
5.077199999999999847e+01 4.472899999999999920e+01 2.859199999999999875e+01 7.129579999999999806e+00 -5.824553885968678651e-02
5.077900000000000347e+01 4.224199999999999733e+01 1.203800000000000026e+01 1.046006999999999998e+01 -2.693398406765598607e-02
5.077900000000000347e+01 3.684400000000000119e+01 3.073199999999999932e+01 -7.359929000000000165e+00 -2.137259839364104297e-01
5.078099999999999881e+01 3.582399999999999807e+01 2.736700000000000088e+01 -9.977707999999999799e+00 -1.951643976898442268e-01
5.078999999999999915e+01 3.181599999999999895e+01 1.964999999999999858e+01 -1.072566999999999915e+01 -1.789677402894873370e-01
5.078999999999999915e+01 3.508299999999999841e+01 8.554700000000000415e+00 -2.445856000000000030e+00 -1.545972692343087519e-02
5.079299999999999926e+01 3.313300000000000267e+01 1.013499999999999979e+01 5.324608000000000119e-02 -1.114787398056100477e-02
5.079599999999999937e+01 4.975399999999999778e+01 2.395799999999999841e+01 -6.945213999999999999e+00 -5.672710521812854984e-02
5.080499999999999972e+01 3.999199999999999733e+01 9.560900000000000176e+00 -9.701791999999999305e+00 -2.281499677136459778e-02
5.081000000000000227e+01 3.570199999999999818e+01 2.818299999999999983e+01 -2.445281999999999911e+01 -1.987191898106912824e-01
5.081000000000000227e+01 3.592900000000000205e+01 2.898199999999999932e+01 -1.692078000000000060e+01 -2.030916058438130278e-01
5.082399999999999807e+01 3.266199999999999903e+01 2.199500000000000099e+01 -8.574695000000000178e+00 -1.799449243506031082e-01
5.083299999999999841e+01 5.065100000000000335e+01 1.599000000000000021e+01 1.496837999999999891e+00 -4.460457566979603161e-02
5.083800000000000097e+01 4.451400000000000290e+01 2.945299999999999940e+01 1.906172999999999895e+00 -5.913115730349530891e-02
5.085699999999999932e+01 3.068499999999999872e+01 1.572499999999999964e+01 2.176254999999999828e+00 -1.798201252744555112e-01
5.085699999999999932e+01 3.068499999999999872e+01 1.677499999999999858e+01 4.438424000000000258e-01 -1.794908934375257226e-01
5.085999999999999943e+01 4.049099999999999966e+01 3.282399999999999807e+01 -3.731247999999999898e+00 1.133148757605827867e-01
5.086999999999999744e+01 4.356700000000000017e+01 1.898600000000000065e+01 -9.931933000000000789e+00 -3.427973808937064687e-02
5.087899999999999778e+01 4.179699999999999704e+01 3.358100000000000307e+01 -1.706182000000000087e+01 1.076408816295856274e-01
5.088300000000000267e+01 4.681900000000000261e+01 2.674899999999999878e+01 -3.755169000000000068e+01 -5.853467019781285335e-02
5.088900000000000290e+01 4.197800000000000153e+01 1.140700000000000003e+01 2.795884000000000036e+00 -2.631134638586000649e-02
5.090599999999999881e+01 5.113000000000000256e+01 2.004299999999999926e+01 -1.133923000000000059e+01 -5.083261976194702880e-02
5.090999999999999659e+01 4.313400000000000034e+01 1.220299999999999940e+01 5.700960000000000250e+00 -2.873648049540765068e-02
5.091199999999999903e+01 3.399799999999999756e+01 8.998699999999999477e+00 7.327496000000000009e-01 -1.357575008386159576e-02
5.091899999999999693e+01 4.312500000000000000e+01 3.281900000000000261e+01 -7.497143000000000335e+00 9.974962885205959640e-02
5.092600000000000193e+01 4.073100000000000165e+01 1.831500000000000128e+01 3.404614999999999725e+01 -2.396239756418832439e-02
5.092600000000000193e+01 4.213100000000000023e+01 1.831500000000000128e+01 1.144519999999999982e+01 -2.889490814694492538e-02
5.092699999999999960e+01 3.909000000000000341e+01 9.635999999999999233e+00 -9.046309000000000822e+00 -2.120488461701994926e-02
5.093099999999999739e+01 4.052000000000000313e+01 9.897100000000000009e+00 -8.494388000000000716e+00 -2.366243860634121773e-02
5.093299999999999983e+01 4.099000000000000199e+01 1.045299999999999940e+01 -9.522719000000000378e+00 -2.443659241105271274e-02
5.093999999999999773e+01 4.412599999999999767e+01 3.134299999999999997e+01 2.259338999999999942e+01 9.296606106924314161e-02
5.094100000000000250e+01 4.147299999999999898e+01 1.482900000000000063e+01 1.262271999999999927e+01 -2.551483165167633960e-02
5.095400000000000063e+01 5.082699999999999818e+01 2.078500000000000014e+01 -1.184614999999999974e+01 -5.168714390117277319e-02
5.096200000000000330e+01 4.427700000000000102e+01 3.035000000000000142e+01 3.361901000000000028e+00 9.065759578320106704e-02
5.096399999999999864e+01 4.243299999999999983e+01 1.995700000000000074e+01 4.040474999999999994e+01 -3.138435524195043458e-02
5.096399999999999864e+01 4.243299999999999983e+01 2.082199999999999918e+01 7.705549000000000603e+01 -3.238263656788144262e-02
5.096399999999999864e+01 4.807800000000000296e+01 2.584700000000000131e+01 -6.901112000000000357e+00 -5.825772574211900146e-02
5.096699999999999875e+01 3.388199999999999790e+01 2.359900000000000020e+01 -1.041769000000000034e+01 -1.827303821312608600e-01
5.097699999999999676e+01 4.260499999999999687e+01 1.558699999999999974e+01 1.790308999999999884e+01 -2.872250288384672195e-02
5.098100000000000165e+01 4.600099999999999767e+01 2.003699999999999903e+01 -4.003979000000000177e+00 -4.249142013312948857e-02
5.098100000000000165e+01 4.600099999999999767e+01 2.143700000000000117e+01 -5.663973000000000368e+00 -4.496973145329001553e-02
5.098599999999999710e+01 3.325200000000000244e+01 1.085599999999999987e+01 3.356015999999999999e-01 -1.053877160766674911e-02
5.099600000000000222e+01 4.008299999999999841e+01 1.564300000000000068e+01 3.105102000000000118e+01 -2.167538618707849987e-02
5.100000000000000000e+01 4.356600000000000250e+01 2.158099999999999952e+01 -2.703561000000000103e+00 -3.775627310387490165e-02
5.102000000000000313e+01 4.946699999999999875e+01 2.493799999999999883e+01 -4.073095999999999606e+00 -5.779545615062701286e-02
5.102499999999999858e+01 4.719100000000000250e+01 1.476399999999999935e+01 1.863064000000000053e+00 -3.806638814277549243e-02
5.103199999999999648e+01 4.374900000000000233e+01 1.228200000000000003e+01 3.716562000000000143e+00 -2.992955010361689205e-02
5.103900000000000148e+01 4.630499999999999972e+01 2.073699999999999832e+01 -4.421648000000000245e+00 -4.432531830305851822e-02
5.104200000000000159e+01 4.919200000000000017e+01 1.533600000000000030e+01 1.495181000000000004e+01 -4.178088943545487516e-02
5.104800000000000182e+01 4.528199999999999648e+01 1.935200000000000031e+01 -2.793756000000000128e+00 -3.951469918482418409e-02
5.105499999999999972e+01 4.038700000000000045e+01 1.494299999999999962e+01 1.771690999999999860e+01 -2.259902621863071198e-02
5.106400000000000006e+01 4.467600000000000193e+01 2.128500000000000014e+01 -6.039871999999999908e+00 -4.086201970378365578e-02
5.106600000000000250e+01 5.212899999999999778e+01 1.882499999999999929e+01 -1.305658999999999992e+01 -4.963102007335688792e-02
5.106900000000000261e+01 5.045700000000000074e+01 2.261499999999999844e+01 2.526496999999999993e+00 -5.428859515153729859e-02
5.106900000000000261e+01 5.071099999999999852e+01 2.172100000000000009e+01 -1.024277000000000015e+01 -5.296283309858122040e-02
5.107600000000000051e+01 4.512400000000000233e+01 1.320299999999999940e+01 1.065903999999999918e+01 -3.300983867590114029e-02
5.107900000000000063e+01 3.488400000000000034e+01 2.464000000000000057e+01 3.001930999999999905e+00 -1.859308028975035221e-01
5.107999999999999829e+01 3.228499999999999659e+01 2.040899999999999892e+01 -3.265662999999999982e+01 -1.797869655385701260e-01
5.110399999999999920e+01 3.736899999999999977e+01 3.158200000000000074e+01 -4.139981999999999829e+00 -2.176785333746245887e-01
5.111099999999999710e+01 4.550600000000000023e+01 1.396000000000000085e+01 4.989429999999999588e+00 -3.423038757340050864e-02
5.111099999999999710e+01 4.669700000000000273e+01 1.462400000000000055e+01 1.084111999999999965e+00 -3.699994053539241989e-02
5.113700000000000045e+01 3.103699999999999903e+01 1.755999999999999872e+01 2.212511000000000116e+00 -1.797476448142892591e-01
5.114399999999999835e+01 3.361999999999999744e+01 9.479599999999999582e+00 1.211562999999999946e+00 -1.264571924440685904e-02
5.114399999999999835e+01 3.361999999999999744e+01 1.156400000000000006e+01 2.893257999999999885e+00 -1.030452953521022660e-02
5.115699999999999648e+01 5.108800000000000097e+01 1.641300000000000026e+01 -2.717814999999999870e+00 -4.529974437157142236e-02
5.116199999999999903e+01 5.204099999999999682e+01 1.786799999999999855e+01 -8.633041000000000409e+00 -4.811493388874096833e-02
5.117799999999999727e+01 3.701200000000000045e+01 8.657899999999999707e+00 -1.156188000000000038e+01 -1.829286783069449668e-02
5.118299999999999983e+01 4.628000000000000114e+01 2.766499999999999915e+01 -2.784036000000000044e+01 -5.836298523513535480e-02
5.119500000000000028e+01 3.108500000000000085e+01 1.481900000000000084e+01 4.361177999999999777e+00 -1.805647945152743794e-01
5.120799999999999841e+01 4.103699999999999903e+01 3.351800000000000068e+01 -3.542889000000000177e+00 1.117656248719013784e-01
5.120799999999999841e+01 4.255700000000000216e+01 3.351800000000000068e+01 -8.843567999999999429e+00 1.041245543259128326e-01
5.120900000000000318e+01 4.765899999999999892e+01 1.529800000000000004e+01 2.339848999999999890e+01 -3.925738896091718333e-02
5.121500000000000341e+01 3.891899999999999693e+01 3.205599999999999739e+01 -4.270514999999999617e+00 1.202969253226619656e-01
5.121999999999999886e+01 4.762899999999999778e+01 2.610000000000000142e+01 -8.061840999999999369e+00 -5.736811327598796695e-02
5.124499999999999744e+01 4.217300000000000182e+01 1.488700000000000045e+01 1.879858000000000118e+01 -2.723640099976663495e-02
5.124600000000000222e+01 3.471000000000000085e+01 8.605299999999999727e+00 -2.340596000000000121e+00 -1.498589660635918017e-02
5.124900000000000233e+01 3.267999999999999972e+01 2.131800000000000139e+01 -6.357727999999999824e+00 -1.806412979929972740e-01
5.125699999999999790e+01 3.315299999999999869e+01 2.239099999999999824e+01 -6.730527999999999622e+00 -1.816274700643373263e-01
5.127799999999999869e+01 4.431900000000000261e+01 2.988800000000000168e+01 -4.047483999999999860e+00 9.057018870414842993e-02
5.128099999999999881e+01 3.221300000000000097e+01 1.921699999999999875e+01 3.296631999999999785e+00 -1.800269708424055426e-01
5.129599999999999937e+01 3.261599999999999966e+01 1.389400000000000013e+01 3.536541999999999852e+00 -5.569068041775009602e-03
5.130700000000000216e+01 4.270199999999999818e+01 1.171299999999999919e+01 2.096940999999999988e+01 -2.765309728917085888e-02
5.132500000000000284e+01 5.164200000000000301e+01 1.961299999999999955e+01 -2.699392999999999887e+01 -5.003545726625428097e-02
5.132900000000000063e+01 3.392099999999999937e+01 1.210500000000000043e+01 1.948622000000000076e+00 -1.021977430976410244e-02
5.133100000000000307e+01 4.514500000000000313e+01 2.058500000000000085e+01 -6.155685000000000073e+00 -4.064331354203815083e-02
5.135199999999999676e+01 3.997800000000000153e+01 3.242199999999999704e+01 -3.064556000000000058e+00 1.151606044140495444e-01
5.135900000000000176e+01 4.003099999999999881e+01 1.718199999999999861e+01 1.905959000000000003e+01 -2.136068911228849662e-02
5.135900000000000176e+01 4.024099999999999966e+01 1.791799999999999926e+01 3.130646000000000129e+01 -2.207668506531489799e-02
5.135900000000000176e+01 4.143099999999999739e+01 1.858200000000000074e+01 2.829945999999999984e+01 -2.642770093633661777e-02
5.135900000000000176e+01 3.839000000000000057e+01 9.368600000000000705e+00 -5.112715999999999816e+00 -2.012762199296048299e-02
5.136599999999999966e+01 4.148100000000000165e+01 1.084999999999999964e+01 -3.294923999999999964e+00 -2.525596224536887785e-02
5.137500000000000000e+01 4.514800000000000324e+01 2.832300000000000040e+01 -1.189439999999999920e+01 -5.631008788044027102e-02
5.139600000000000080e+01 4.313300000000000267e+01 1.969000000000000128e+01 -4.848436999999999664e+00 -3.316184678761341376e-02
5.139600000000000080e+01 4.313300000000000267e+01 2.108999999999999986e+01 1.373595000000000077e+01 -3.489961882560692341e-02
5.139600000000000080e+01 4.399799999999999756e+01 1.969000000000000128e+01 -1.631200000000000117e+01 -3.592264516815299458e-02
5.139600000000000080e+01 4.399799999999999756e+01 2.108999999999999986e+01 -3.476595000000000102e+00 -3.788502758815009280e-02
5.139900000000000091e+01 3.437299999999999756e+01 2.399599999999999866e+01 -1.650068000000000090e+00 -1.850042482915059683e-01
5.140100000000000335e+01 4.459899999999999665e+01 1.235299999999999976e+01 1.469194000000000067e+01 -3.141545968863937444e-02
5.140999999999999659e+01 3.179599999999999937e+01 1.431400000000000006e+01 5.727272000000000141e+00 -1.810452356355771730e-01
5.142900000000000205e+01 4.331600000000000250e+01 1.179100000000000037e+01 2.041307000000000116e+01 -2.880642825466646698e-02
5.143500000000000227e+01 4.448700000000000188e+01 2.023900000000000077e+01 -8.479644000000000403e+00 -3.809062424917909750e-02
5.144700000000000273e+01 3.530199999999999960e+01 2.545200000000000173e+01 -8.608521999999999563e-01 -1.893533998501831517e-01
5.145100000000000051e+01 4.081900000000000261e+01 1.445199999999999996e+01 5.687020999999999660e+00 -2.370544508817991336e-02
5.145400000000000063e+01 4.282999999999999829e+01 2.039000000000000057e+01 2.885210000000000008e+01 -3.285663741590055809e-02
5.147500000000000142e+01 3.350500000000000256e+01 2.320499999999999829e+01 -1.014146000000000036e+01 -1.832995345943675969e-01
5.147800000000000153e+01 5.169599999999999795e+01 1.713899999999999935e+01 -2.538126000000000104e+00 -4.650264961820921306e-02
5.148100000000000165e+01 3.631199999999999761e+01 8.599600000000000577e+00 -4.502646000000000370e+00 -1.731458831729013395e-02
5.148400000000000176e+01 3.405799999999999983e+01 1.302599999999999980e+01 8.178041000000000338e+00 -9.396211595962147486e-03
5.148499999999999943e+01 4.266299999999999670e+01 1.785699999999999932e+01 -4.539979000000000237e-02 -2.993796471458252256e-02
5.148700000000000188e+01 3.968699999999999761e+01 1.521000000000000085e+01 2.264947000000000088e+01 -2.063699713716442286e-02
5.148700000000000188e+01 3.968699999999999761e+01 1.607499999999999929e+01 1.771170000000000044e+01 -2.044241347773028197e-02
5.150200000000000244e+01 3.546699999999999875e+01 8.564999999999999503e+00 -3.174875999999999809e+00 -1.612386729584180250e-02
5.154099999999999682e+01 3.999199999999999733e+01 9.351800000000000779e+00 -4.611837999999999660e+00 -2.281905474822411295e-02
5.154299999999999926e+01 3.554500000000000171e+01 2.632499999999999929e+01 -6.535536999999999708e+00 -1.924451687600921834e-01
5.154500000000000171e+01 4.887100000000000222e+01 2.541900000000000048e+01 -1.366531999999999947e+01 -5.672581507714023752e-02
5.154999999999999716e+01 4.975000000000000000e+01 1.578899999999999970e+01 2.402697999999999823e+01 -4.259421107861189465e-02
5.156300000000000239e+01 3.785300000000000153e+01 8.933299999999999130e+00 -8.433108000000000715e+00 -1.948104582723388795e-02
5.156300000000000239e+01 4.869400000000000261e+01 1.579700000000000060e+01 2.638709000000000060e+01 -4.112621808204654922e-02
5.156600000000000250e+01 4.376899999999999835e+01 3.088299999999999912e+01 3.005425999999999931e+00 9.477078003843156240e-02
5.157000000000000028e+01 3.599199999999999733e+01 2.865299999999999869e+01 -1.304542000000000002e+01 -2.020850042734016194e-01
5.157099999999999795e+01 3.268200000000000216e+01 1.997599999999999909e+01 -8.901161999999999352e+00 -1.808539578998311914e-01
5.157099999999999795e+01 3.268200000000000216e+01 2.084199999999999875e+01 -9.467686000000000490e+00 -1.811548769935472925e-01
5.158299999999999841e+01 3.813300000000000267e+01 3.201700000000000301e+01 -4.163698000000000121e+00 -2.185445936519720411e-01
5.158899999999999864e+01 3.172100000000000009e+01 1.829100000000000037e+01 5.483643999999999963e+00 -1.804910094475753735e-01
5.160600000000000165e+01 5.118800000000000239e+01 2.034700000000000131e+01 -1.704328999999999894e+01 -5.033054595404974629e-02
5.160999999999999943e+01 4.291299999999999670e+01 1.705999999999999872e+01 5.610503999999999714e+00 -3.005532402307785692e-02
5.162700000000000244e+01 5.000399999999999778e+01 2.312300000000000111e+01 -2.284745000000000026e+00 -5.364137361689465255e-02
5.162899999999999778e+01 3.651899999999999835e+01 3.020700000000000074e+01 -8.096197999999999340e+00 -2.098152586046838075e-01
5.162899999999999778e+01 3.677300000000000324e+01 3.110099999999999909e+01 -4.777747999999999884e+00 -2.140945309736172197e-01
5.163100000000000023e+01 4.057900000000000063e+01 9.593700000000000117e+00 -1.139222000000000001e+01 -2.375169733804995825e-02
5.165299999999999869e+01 4.558800000000000097e+01 2.807900000000000063e+01 -1.467909000000000042e+01 -5.589094538951114993e-02
5.165299999999999869e+01 4.681300000000000239e+01 2.723400000000000176e+01 -4.962257000000000318e+01 -5.685730936532220475e-02
5.165299999999999869e+01 4.713799999999999812e+01 2.649699999999999989e+01 -2.440828000000000131e+01 -5.601794460896412919e-02
5.165500000000000114e+01 3.927799999999999869e+01 3.236399999999999721e+01 -9.132299999999999862e-01 1.185776875697695659e-01
5.165599999999999881e+01 4.615800000000000125e+01 1.446199999999999974e+01 1.835647000000000029e+00 -3.550139525096900062e-02
5.166299999999999670e+01 3.909000000000000341e+01 9.426899999999999835e+00 -1.105904999999999916e+01 -2.128099684993513610e-02
5.166400000000000148e+01 4.356600000000000250e+01 2.039000000000000057e+01 -5.182705999999999591e+00 -3.515092468224616934e-02
5.166899999999999693e+01 4.218099999999999739e+01 1.090799999999999947e+01 -1.409330000000000027e-01 -2.649362574889429361e-02
