-5.621900000000000119e+01 1.398900000000000077e+01 -2.163800000000000168e+01 1.082816000000000001e+00 -1.626223284128456292e-01
-5.620900000000000318e+01 1.545800000000000018e+01 -2.484799999999999898e+01 3.021583000000000130e+00 -2.193753769692350919e-01
-5.618999999999999773e+01 1.123700000000000010e+01 -2.685600000000000165e+01 -8.859279000000000792e+00 -2.408855089006971539e-01
-5.618200000000000216e+01 1.159299999999999997e+01 -2.612399999999999878e+01 -6.461832000000000242e+00 -2.432789733832099177e-01
-5.616499999999999915e+01 2.134600000000000009e+01 -2.592500000000000071e+01 1.297945999999999955e+01 -1.830087618790323667e-01
-5.615200000000000102e+01 1.568999999999999950e+01 -2.566300000000000026e+01 3.030231000000000119e+00 -2.100540265732130929e-01
-5.613900000000000290e+01 9.952999999999999403e+00 -3.078800000000000026e+01 -3.297517000000000031e+00 -2.491829829629184090e-01
-5.613400000000000034e+01 1.120800000000000018e+01 -2.390899999999999892e+01 -4.481972999999999985e+00 -1.678107921589749030e-01
-5.613400000000000034e+01 1.566699999999999982e+01 -2.426000000000000156e+01 4.499221000000000359e+00 -2.242349380000164261e-01
-5.611699999999999733e+01 2.224200000000000088e+01 -3.523799999999999955e+01 -4.433688000000000073e+01 -1.736454927603068021e-01
-5.610999999999999943e+01 1.083000000000000007e+01 -2.758800000000000097e+01 -1.007593999999999923e+01 -2.389064837800235208e-01
-5.610000000000000142e+01 1.985900000000000176e+01 -2.611199999999999832e+01 -1.383745999999999921e+00 -1.858115210625964631e-01
-5.608200000000000074e+01 1.489199999999999946e+01 -3.408500000000000085e+01 -1.106223999999999918e+01 -2.373130428062049102e-01
-5.607800000000000296e+01 2.101200000000000045e+01 -3.606099999999999994e+01 -1.875876999999999839e+01 -1.745951932765683057e-01
-5.607300000000000040e+01 1.853300000000000125e+01 -2.673600000000000065e+01 -4.406627000000000294e+01 -1.866270255843365811e-01
-5.606799999999999784e+01 2.239300000000000068e+01 -3.255499999999999972e+01 -5.379969000000000001e+00 -1.715364729403391630e-01
-5.603399999999999892e+01 1.971499999999999986e+01 -3.533100000000000307e+01 -7.892679000000000222e+00 -1.744603851493253255e-01
-5.602600000000000335e+01 1.558200000000000074e+01 -2.326999999999999957e+01 1.248732000000000042e+01 8.630669353842738631e-03
-5.601500000000000057e+01 2.225499999999999901e+01 -3.343500000000000227e+01 -1.855862000000000123e+01 -1.722517141063478752e-01
-5.598899999999999721e+01 2.222800000000000153e+01 -3.161100000000000065e+01 -1.073539000000000065e+01 -1.713043609194887795e-01
-5.598700000000000188e+01 1.661299999999999955e+01 -2.559400000000000119e+01 -1.179122999999999921e+00 -2.062450454714193082e-01
-5.596900000000000119e+01 1.335500000000000043e+01 -2.050700000000000145e+01 -1.431788999999999978e+00 -1.590118754634109455e-01
-5.593999999999999773e+01 2.208999999999999986e+01 -3.073300000000000054e+01 -7.655663999999999803e+00 -1.713991492446451381e-01
-5.593800000000000239e+01 1.595100000000000051e+01 -3.298899999999999721e+01 -2.265896000000000043e+01 -2.814720779886473734e-01
-5.593800000000000239e+01 1.735099999999999909e+01 -3.298899999999999721e+01 -1.364917999999999942e+01 -1.759111084076401821e-01
-5.590800000000000125e+01 1.166999999999999993e+01 -2.553999999999999915e+01 -5.741617999999999888e+00 -2.445833479275220379e-01
-5.590800000000000125e+01 1.166999999999999993e+01 -2.467500000000000071e+01 -5.481138999999999761e+00 -2.455512426322839781e-01
-5.588700000000000045e+01 9.929299999999999571e+00 -3.180300000000000082e+01 -3.293521000000000143e+00 -2.472937165677202564e-01
-5.585699999999999932e+01 1.191099999999999959e+01 -1.961100000000000065e+01 9.040257000000000431e+00 -1.882174266160574483e-01
-5.585499999999999687e+01 1.051999999999999957e+01 -2.138599999999999923e+01 -2.981840000000000046e+00 -1.618123828808628595e-01
-5.584199999999999875e+01 1.233200000000000074e+01 -3.439900000000000091e+01 -3.263536999999999910e+00 -2.407735297460435464e-01
-5.584199999999999875e+01 1.851599999999999824e+01 -3.354899999999999949e+01 -1.237697000000000003e+01 -1.745667843777959638e-01
-5.583299999999999841e+01 1.083399999999999963e+01 -2.307700000000000173e+01 -7.220048000000000243e+00 -1.657577205744647786e-01
-5.583299999999999841e+01 1.068200000000000038e+01 -2.211899999999999977e+01 -5.621686000000000405e+00 -1.635063224871642351e-01
-5.581700000000000017e+01 1.065700000000000003e+01 -2.045100000000000051e+01 4.151109000000000293e+01 -1.762280924261285520e-01
-5.581600000000000250e+01 2.246000000000000085e+01 -2.990099999999999980e+01 -1.871180999999999983e+01 -1.725327818706425265e-01
-5.580599999999999739e+01 1.635200000000000031e+01 -2.466499999999999915e+01 9.553349000000000757e+00 -2.162061069917943779e-01
-5.577199999999999847e+01 1.004499999999999993e+01 -3.273899999999999721e+01 -3.517590999999999912e+00 -2.456580665132493402e-01
-5.577199999999999847e+01 1.029899999999999949e+01 -3.363300000000000267e+01 -2.483006000000000046e+00 -2.441032962473039802e-01
-5.577199999999999847e+01 1.174499999999999922e+01 -3.443900000000000006e+01 -3.560970000000000191e+00 -2.415612371891510402e-01
-5.572699999999999676e+01 1.404700000000000060e+01 -3.438700000000000045e+01 -5.387013999999999747e+00 -2.389243796395934538e-01
-5.572699999999999676e+01 1.505400000000000027e+01 -2.226200000000000045e+01 4.363483999999999696e+00 -9.532091697102920702e-02
-5.571900000000000119e+01 2.328999999999999915e+01 -2.562399999999999878e+01 2.662487000000000048e+00 -1.841148131179229097e-01
-5.571900000000000119e+01 2.473600000000000065e+01 -2.821799999999999997e+01 -4.215211000000000041e+00 -1.770558463662454396e-01
-5.571900000000000119e+01 2.473600000000000065e+01 -2.642999999999999972e+01 -2.913966999999999974e+00 -1.812311802703359953e-01
-5.571900000000000119e+01 2.498999999999999844e+01 -2.732400000000000162e+01 -2.145366999999999802e+00 -1.790841773222394406e-01
-5.567699999999999960e+01 1.033900000000000041e+01 -2.798400000000000176e+01 -8.994789000000000811e+00 -2.377718511104160437e-01
-5.564800000000000324e+01 2.340500000000000114e+01 -2.914000000000000057e+01 -3.417302999999999713e+01 -1.746812320673842289e-01
-5.564699999999999847e+01 2.054200000000000159e+01 -3.552799999999999869e+01 -1.092933999999999983e+01 -1.750738520156005507e-01
-5.564699999999999847e+01 2.148199999999999932e+01 -3.552799999999999869e+01 -3.642945999999999884e+01 -1.748535769635241599e-01
-5.564000000000000057e+01 1.783299999999999841e+01 -2.646900000000000119e+01 -1.012828000000000017e+01 -1.934354670676574905e-01
-5.564000000000000057e+01 1.923300000000000054e+01 -2.646900000000000119e+01 -9.237206999999999724e+00 -1.877439669151836077e-01
-5.561200000000000188e+01 1.542500000000000071e+01 -3.365400000000000347e+01 -2.343158000000000030e+01 -2.817604481764110491e-01
-5.561200000000000188e+01 1.665099999999999980e+01 -3.293099999999999739e+01 -1.156450000000000067e+01 -1.783054899195179455e-01
-5.558400000000000318e+01 2.181099999999999994e+01 -3.476800000000000068e+01 -4.287744000000000000e+01 -1.743245257247259539e-01
-5.558400000000000318e+01 1.979899999999999949e+01 -3.457399999999999807e+01 -1.119640000000000057e+01 -1.747821171427172138e-01
-5.558200000000000074e+01 1.614499999999999957e+01 -2.368900000000000006e+01 5.764854999999999841e+00 1.044613689600755457e-02
-5.557500000000000284e+01 2.070899999999999963e+01 -2.578699999999999903e+01 3.611928999999999945e+01 -1.877056582653408023e-01
-5.555299999999999727e+01 9.712600000000000122e+00 -2.837999999999999901e+01 -6.283971000000000195e+00 -2.361963564194927423e-01
-5.552700000000000102e+01 2.190500000000000114e+01 -3.386599999999999966e+01 -3.671645999999999788e+01 -1.737862446222694923e-01
-5.552100000000000080e+01 1.113599999999999923e+01 -1.967599999999999838e+01 1.230710000000000015e+01 -1.863444162535712878e-01
-5.552100000000000080e+01 1.268599999999999994e+01 -1.967599999999999838e+01 -5.761093999999999937e+00 -1.931679894261295605e-01
-5.545900000000000318e+01 1.386700000000000088e+01 -2.090200000000000102e+01 6.403766000000000069e+00 -1.639543618992724272e-01
-5.545199999999999818e+01 1.314700000000000024e+01 -3.429699999999999704e+01 -2.663111999999999924e+00 -2.405887475877047377e-01
-5.544899999999999807e+01 2.169399999999999906e+01 -3.116499999999999915e+01 -8.881486999999999910e+00 -1.731231768198381038e-01
-5.544899999999999807e+01 2.169399999999999906e+01 -3.030000000000000071e+01 -5.867676000000000336e+00 -1.735129361858291364e-01
-5.544100000000000250e+01 1.735999999999999943e+01 -3.306499999999999773e+01 -1.364917999999999942e+01 -1.774068208167970950e-01
-5.542199999999999704e+01 1.120500000000000007e+01 -2.653200000000000003e+01 -6.164588000000000179e+00 -2.418480921087834135e-01
-5.542199999999999704e+01 1.152999999999999936e+01 -2.579500000000000171e+01 -1.223897999999999975e+01 -2.438884773878283174e-01
-5.542199999999999704e+01 1.152999999999999936e+01 -2.432300000000000040e+01 -5.723387999999999920e+00 -1.711618608444523404e-01
-5.542199999999999704e+01 1.173900000000000077e+01 -2.505900000000000105e+01 -5.877710000000000434e+00 -2.456365290418475456e-01
-5.540999999999999659e+01 1.077200000000000024e+01 -2.728399999999999892e+01 -7.374693999999999861e+00 -2.397677497951791192e-01
-5.540400000000000347e+01 9.539999999999999147e+00 -2.893700000000000117e+01 -4.223473000000000255e+00 -2.359372377512922725e-01
-5.537299999999999756e+01 1.739999999999999858e+01 -2.576899999999999835e+01 -4.904388000000000081e-01 -2.013365558034877767e-01
-5.535300000000000153e+01 1.124900000000000055e+01 -2.359600000000000009e+01 -5.645569000000000059e+00 -1.694698430242216058e-01
-5.535300000000000153e+01 2.295899999999999963e+01 -2.927899999999999991e+01 -8.370660000000000878e+00 -1.753259579994317641e-01
-5.534300000000000352e+01 2.152400000000000091e+01 -2.573000000000000043e+01 1.020452000000000048e+01 -1.870684746940289300e-01
-5.533700000000000330e+01 1.853300000000000125e+01 -2.652700000000000102e+01 -1.341386999999999929e+01 -1.911547273823701043e-01
-5.530199999999999960e+01 1.706500000000000128e+01 -2.513800000000000168e+01 1.147080000000000055e+01 -2.079484489676771408e-01
-5.528600000000000136e+01 1.595100000000000051e+01 -3.298899999999999721e+01 -2.716664000000000101e+01 -1.806635122880975164e-01
-5.528199999999999648e+01 1.574900000000000055e+01 -2.288299999999999912e+01 1.041708999999999996e+01 -9.265204880321298297e-02
-5.527400000000000091e+01 2.217399999999999949e+01 -2.932499999999999929e+01 -7.105379000000000111e+00 -1.753464456301334073e-01
-5.525800000000000267e+01 1.920200000000000173e+01 -3.390999999999999659e+01 -6.739756999999999998e+00 -1.756695934860721120e-01
-5.525500000000000256e+01 1.437899999999999956e+01 -2.127400000000000091e+01 2.789124000000000159e+00 -1.672481220657514311e-01
-5.524699999999999989e+01 1.089499999999999957e+01 -3.411399999999999721e+01 -2.345212000000000074e+00 -2.436586317051096240e-01
-5.521800000000000352e+01 2.206800000000000139e+01 -3.307999999999999829e+01 -1.937586999999999904e+01 -1.741962298651391072e-01
-5.521800000000000352e+01 2.206800000000000139e+01 -3.203000000000000114e+01 -9.783958999999999406e+00 -1.739279233326942731e-01
-5.521500000000000341e+01 2.247500000000000142e+01 -2.577599999999999980e+01 7.608880000000000088e+00 -1.858510382313817710e-01
-5.521000000000000085e+01 9.671900000000000830e+00 -2.976300000000000168e+01 -1.215213000000000099e+00 -2.363370527014493072e-01
-5.521000000000000085e+01 9.762999999999999901e+00 -3.134600000000000009e+01 -6.723034999999999602e-03 -2.493618849490814582e-01
-5.521000000000000085e+01 9.881000000000000227e+00 -3.219299999999999784e+01 -3.644463000000000008e+00 -2.475622501841804046e-01
-5.521000000000000085e+01 9.881000000000000227e+00 -3.049899999999999878e+01 2.289321000000000161e+00 -2.366080819451634176e-01
-5.520100000000000051e+01 2.137699999999999889e+01 -3.406799999999999784e+01 -1.998235000000000028e+01 -1.747647229073237551e-01
-5.519400000000000261e+01 2.414000000000000057e+01 -2.869900000000000162e+01 -4.371552000000000326e+00 -1.774164673637353973e-01
-5.519400000000000261e+01 2.414000000000000057e+01 -2.594900000000000162e+01 -1.297873999999999972e+00 -1.841372423842482786e-01
-5.516400000000000148e+01 1.015799999999999947e+01 -2.793599999999999994e+01 -6.111479000000000106e+00 -2.379298839254719022e-01
-5.516299999999999670e+01 1.255100000000000016e+01 -3.422200000000000131e+01 -3.430105000000000182e+00 -2.418570491065280270e-01
-5.514200000000000301e+01 1.489199999999999946e+01 -3.408500000000000085e+01 -1.934022999999999826e+01 -2.393828397482409831e-01
-5.513799999999999812e+01 1.805999999999999872e+01 -3.312299999999999756e+01 -1.151457000000000086e+01 -1.771519056049850049e-01
-5.508299999999999841e+01 2.134799999999999898e+01 -3.060000000000000142e+01 -1.356581000000000037e+00 -1.748105523866238242e-01
-5.507399999999999807e+01 1.539100000000000001e+01 -2.249200000000000088e+01 7.942603999999999775e-01 -9.399874795733290100e-02
-5.504999999999999716e+01 2.075799999999999912e+01 -3.403099999999999881e+01 -7.402243000000000350e+00 -1.752874389204313044e-01
-5.504200000000000159e+01 1.036100000000000065e+01 -2.092999999999999972e+01 -2.609761000000000220e+00 -1.779642798281605987e-01
-5.504200000000000159e+01 1.059200000000000053e+01 -2.174500000000000099e+01 -4.374290000000000234e+00 -1.661262796302313827e-01
-5.504200000000000159e+01 1.059200000000000053e+01 -2.011499999999999844e+01 -3.561427999999999816e-01 -1.837097527336929992e-01
-5.504200000000000159e+01 1.191099999999999959e+01 -1.937999999999999901e+01 -1.495155999999999930e+00 -1.944469135504958701e-01
-5.504200000000000159e+01 1.323000000000000043e+01 -2.011499999999999844e+01 -9.882405999999999580e+00 -8.003677238942200067e-02
-5.499099999999999966e+01 1.990899999999999892e+01 -3.407900000000000063e+01 -3.514949000000000101e+00 -1.759018866826121685e-01
-5.494299999999999784e+01 1.065300000000000047e+01 -2.708200000000000074e+01 -6.261510000000000353e+00 -2.399816776197680190e-01
-5.493999999999999773e+01 1.810000000000000142e+01 -2.603600000000000136e+01 -6.341641000000000084e+00 -1.971264117774682856e-01
-5.493999999999999773e+01 1.896499999999999986e+01 -2.603600000000000136e+01 -8.918371999999999744e+00 -1.938468719834133824e-01
-5.492499999999999716e+01 1.645499999999999829e+01 -2.379299999999999926e+01 9.894332000000000349e+00 -9.010772801538496912e-02
-5.492199999999999704e+01 1.036999999999999922e+01 -3.326400000000000290e+01 -3.117500000000000160e+00 -2.457410210495366842e-01
-5.491100000000000136e+01 2.049599999999999866e+01 -2.563400000000000034e+01 1.558915999999999968e+01 -1.913582650602719260e-01
-5.489699999999999847e+01 1.231700000000000017e+01 -2.458399999999999963e+01 -5.541578999999999589e+00 -1.746132342213800315e-01
-5.487700000000000244e+01 2.260699999999999932e+01 -2.883500000000000085e+01 -4.064539999999999820e-01 -1.777441374278769248e-01
-5.486899999999999977e+01 2.466499999999999915e+01 -2.784900000000000020e+01 5.851633999999999780e+00 -1.802058554084640662e-01
-5.486899999999999977e+01 2.466499999999999915e+01 -2.679899999999999949e+01 -7.787189999999999834e+00 -1.825669335255669656e-01
-5.485900000000000176e+01 1.198000000000000043e+01 -2.529700000000000060e+01 -1.861765000000000114e+01 -2.464445232843190114e-01
-5.484100000000000108e+01 2.147400000000000020e+01 -2.959299999999999997e+01 3.935081999999999880e+01 -1.768180209180788831e-01
-5.483800000000000097e+01 1.201399999999999935e+01 -2.388400000000000034e+01 -5.047659000000000340e+00 -1.733042863673673328e-01
-5.482500000000000284e+01 2.328999999999999915e+01 -2.876999999999999957e+01 -2.027179999999999982e+00 -1.781407518240046284e-01
-5.482500000000000284e+01 1.766400000000000148e+01 -2.545100000000000051e+01 -6.469121999999999595e+00 -2.029945791793220933e-01
-5.482200000000000273e+01 1.155899999999999928e+01 -2.344999999999999929e+01 -5.781335000000000335e+00 -1.714785304136433874e-01
-5.481300000000000239e+01 1.413199999999999967e+01 -3.414800000000000324e+01 -1.128858999999999924e+01 -2.408099178542754404e-01
-5.478600000000000136e+01 9.383900000000000574e+00 -2.863400000000000034e+01 -4.116265000000000285e+00 -2.363908255051140883e-01
-5.478300000000000125e+01 2.177499999999999858e+01 -2.550799999999999912e+01 -1.615180999999999978e+00 -1.894023676147059132e-01
-5.478099999999999881e+01 1.481799999999999962e+01 -2.176999999999999957e+01 -3.497310000000000141e+00 3.415979057052538626e-02
-5.477000000000000313e+01 2.334900000000000020e+01 -2.580499999999999972e+01 1.198812000000000033e+01 -1.862052212887276847e-01
-5.474199999999999733e+01 1.172100000000000009e+01 -3.410199999999999676e+01 2.291574999999999918e+00 -2.435583507092461963e-01
-5.469700000000000273e+01 1.534600000000000009e+01 -3.328999999999999915e+01 -1.361919999999999931e+01 -1.831183245056048903e-01
-5.469500000000000028e+01 1.378999999999999915e+01 -2.066199999999999903e+01 6.868870000000000253e+00 -8.225162614312693521e-02
-5.469299999999999784e+01 2.121799999999999997e+01 -3.340500000000000114e+01 -6.732587999999999795e+00 -1.758217494364441857e-01
-5.467900000000000205e+01 1.864499999999999957e+01 -2.574800000000000111e+01 -1.796592000000000056e+01 -1.973583009883092543e-01
-5.467900000000000205e+01 1.958299999999999841e+01 -2.574800000000000111e+01 -1.808923000000000059e+01 -1.940923906867131621e-01
-5.467799999999999727e+01 1.868599999999999994e+01 -3.347999999999999687e+01 -6.609058000000000099e+00 -1.776654444227694085e-01
-5.465599999999999881e+01 1.716400000000000148e+01 -2.482400000000000162e+01 -7.997258999999999618e-02 -2.092992013929251827e-01
-5.462599999999999767e+01 1.112700000000000067e+01 -2.256400000000000006e+01 -5.156274999999999942e+00 -1.697429852554470098e-01
-5.462400000000000233e+01 9.401699999999999946e+00 -2.946199999999999974e+01 -4.184910000000000352e+00 -2.364918282429350760e-01
-5.462199999999999989e+01 2.158699999999999974e+01 -3.255499999999999972e+01 -9.254972999999999672e+00 -1.757964064131933013e-01
-5.462100000000000222e+01 1.740299999999999869e+01 -3.273599999999999710e+01 -9.339304999999999524e+00 -1.797699251525959607e-01
-5.460399999999999920e+01 1.151699999999999946e+01 -2.605799999999999983e+01 -1.173141999999999996e+01 -2.438663499745264696e-01
-5.460000000000000142e+01 1.592999999999999972e+01 -2.294300000000000139e+01 4.492792999999999815e+00 -9.230214421948397530e-02
-5.459199999999999875e+01 2.095100000000000051e+01 -3.103200000000000003e+01 5.917513999999999719e+00 -1.765097018404206131e-01
-5.459199999999999875e+01 2.095100000000000051e+01 -3.016700000000000159e+01 1.757000999999999991e+01 -1.772989981440330209e-01
-5.457399999999999807e+01 2.190700000000000003e+01 -2.889300000000000068e+01 7.323045999999999722e+00 -1.788960969725946204e-01
-5.456300000000000239e+01 1.113599999999999923e+01 -1.967599999999999838e+01 7.655368000000000173e+00 -1.907594182777158365e-01
-5.456300000000000239e+01 1.268599999999999994e+01 -1.967599999999999838e+01 -7.058099999999999596e+00 -1.962250010782489729e-01
-5.455400000000000205e+01 2.038200000000000145e+01 -3.356300000000000239e+01 5.276792999999999623e-01 -1.765791876232267188e-01
-5.454800000000000182e+01 1.657400000000000162e+01 -3.239800000000000324e+01 -2.506250000000000000e+01 -1.817089477186789592e-01
-5.450699999999999790e+01 9.625099999999999767e+00 -3.009700000000000131e+01 -5.267150999999999778e-02 -2.369019553561816649e-01
-5.450399999999999778e+01 9.845700000000000784e+00 -3.086299999999999955e+01 2.722472999999999921e+00 -2.371207116551918015e-01
-5.449900000000000233e+01 9.878199999999999648e+00 -3.192299999999999827e+01 -3.270624000000000198e+00 -2.489736359040633784e-01
-5.446399999999999864e+01 9.891099999999999781e+00 -2.750400000000000134e+01 -4.815082000000000306e+00 -2.381479824599375683e-01
-5.444700000000000273e+01 1.534399999999999942e+01 -2.243799999999999883e+01 3.799135000000000151e-01 -9.400350139869587118e-02
-5.440599999999999881e+01 1.271400000000000041e+01 -2.501699999999999946e+01 -1.561921000000000070e+01 -1.881281163790159972e-01
-5.440599999999999881e+01 1.271400000000000041e+01 -2.415200000000000102e+01 -4.693586999999999954e+00 -1.759966958482597765e-01
-5.438199999999999790e+01 1.460200000000000031e+01 -3.361500000000000199e+01 -5.468308999999999997e+01 -2.416615669467211125e-01
-5.437400000000000233e+01 2.256500000000000128e+01 -2.557300000000000040e+01 3.547058000000000155e-01 -1.889424471782523152e-01
-5.436200000000000188e+01 1.691499999999999915e+01 -2.407600000000000051e+01 3.625417000000000112e+00 -8.942714039251478675e-02
-5.436099999999999710e+01 1.090000000000000036e+01 -3.395300000000000296e+01 -2.396942000000000128e+00 -2.450811047959627342e-01
-5.435499999999999687e+01 1.250799999999999912e+01 -3.400000000000000000e+01 -5.469056000000000139e+00 -2.434638314667483816e-01
-5.435300000000000153e+01 2.091100000000000136e+01 -3.157999999999999829e+01 1.312708999999999904e+00 -1.770433121473537208e-01
-5.434400000000000119e+01 2.381500000000000128e+01 -2.817399999999999949e+01 5.207201000000000413e+00 -1.808631516937378447e-01
-5.434400000000000119e+01 2.381500000000000128e+01 -2.647400000000000020e+01 1.058191000000000104e+00 -1.849631643172758022e-01
-5.432200000000000273e+01 1.366300000000000026e+01 -3.371399999999999864e+01 -6.616425999999999696e+00 -2.426506256564270880e-01
-5.430899999999999750e+01 1.953600000000000136e+01 -3.355100000000000193e+01 -3.799418000000000184e+00 -1.778208373066470782e-01
-5.429699999999999704e+01 1.443900000000000006e+01 -2.130399999999999849e+01 3.841850000000000165e+01 -1.668647958762815298e-01
-5.429500000000000171e+01 8.987299999999999400e+00 -2.820100000000000051e+01 -1.527889000000000053e+00 -2.361850622317984150e-01
-5.428199999999999648e+01 2.001599999999999824e+01 -2.525700000000000145e+01 -1.430296000000000056e+01 -1.961945711317004959e-01
-5.427300000000000324e+01 2.418400000000000105e+01 -2.732400000000000162e+01 -4.171406999999999754e-01 -1.828877457623104275e-01
-5.426700000000000301e+01 1.065700000000000003e+01 -2.140899999999999892e+01 -9.038963000000000747e+00 -1.803346718784529512e-01
-5.426700000000000301e+01 1.065700000000000003e+01 -2.045100000000000051e+01 -1.326966000000000090e+00 -1.853140039508239523e-01
-5.426100000000000279e+01 2.062199999999999989e+01 -3.078600000000000136e+01 7.115992999999999569e+00 -1.780819599368963224e-01
-5.425999999999999801e+01 1.812500000000000000e+01 -3.275900000000000034e+01 -6.286070999999999742e+00 -1.796487191575893150e-01
-5.424499999999999744e+01 1.587400000000000055e+01 -3.245600000000000307e+01 -2.728144999999999953e+01 -1.838084888027346764e-01
-5.423599999999999710e+01 1.191099999999999959e+01 -1.949200000000000088e+01 1.349084000000000039e+01 1.120560460708078521e-01
-5.422599999999999909e+01 1.496599999999999930e+01 -3.291400000000000148e+01 -2.868778000000000006e+01 -1.851688692138511727e-01
-5.422399999999999665e+01 9.355700000000000571e+00 -2.735099999999999909e+01 -3.637030999999999903e+00 -2.371515347958369213e-01
-5.422299999999999898e+01 1.765500000000000114e+01 -2.522100000000000009e+01 2.667597999999999914e+00 -2.046428117399635149e-01
-5.421300000000000097e+01 8.875999999999999446e+00 -2.893700000000000117e+01 -4.165335999999999927e+00 -2.360140976757774955e-01
-5.421000000000000085e+01 2.093799999999999883e+01 -3.266299999999999670e+01 -1.624683000000000099e+00 -1.771823658160650017e-01
-5.420499999999999829e+01 2.059400000000000119e+01 -2.484499999999999886e+01 -9.404835999999999530e+00 -1.966600428084281371e-01
-5.420499999999999829e+01 2.132400000000000162e+01 -2.484499999999999886e+01 -9.010844999999999771e+00 -1.947018622404207699e-01
-5.419200000000000017e+01 1.235299999999999976e+01 -2.583399999999999963e+01 -2.092071999999999932e+01 -1.873251071318347005e-01
-5.418800000000000239e+01 1.911400000000000077e+01 -2.531400000000000006e+01 -2.881473000000000084e+01 -1.989396535349999273e-01
-5.415999999999999659e+01 1.658899999999999864e+01 -2.335300000000000153e+01 4.886718000000000117e+00 -9.080899518364048129e-02
-5.414900000000000091e+01 1.110699999999999932e+01 -2.654299999999999926e+01 -6.334318999999999811e+00 -2.422638169766712646e-01
-5.414099999999999824e+01 2.141600000000000037e+01 -2.928900000000000148e+01 3.745051999999999737e+01 -1.799995797731848701e-01
-5.414099999999999824e+01 2.260699999999999932e+01 -2.862500000000000000e+01 2.069084000000000145e+01 -1.807137304792829913e-01
-5.408100000000000307e+01 1.391699999999999982e+01 -2.050799999999999912e+01 1.984113999999999933e+01 -8.155687181112877826e-02
-5.404899999999999949e+01 2.095899999999999963e+01 -2.414499999999999957e+01 -7.856740000000000279e+00 -1.990637916943565622e-01
-5.404599999999999937e+01 1.058099999999999952e+01 -2.669699999999999918e+01 -3.779358999999999913e+00 -2.406768321763990970e-01
-5.403300000000000125e+01 1.191900000000000048e+01 -2.301899999999999835e+01 -1.859855999999999954e+00 -1.735108058088154492e-01
-5.402600000000000335e+01 1.039799999999999969e+01 -3.294599999999999795e+01 -3.949291000000000107e+00 -2.473491063823389791e-01
-5.401899999999999835e+01 1.296299999999999919e+01 -3.377199999999999847e+01 -5.469056000000000139e+00 -2.438044594411266641e-01
-5.401400000000000290e+01 1.485299999999999976e+01 -2.204100000000000037e+01 1.721049000000000007e+01 3.382000211196769385e-02
-5.400099999999999767e+01 2.308800000000000097e+01 -2.628000000000000114e+01 5.477022999999999975e+00 -1.868989446186004599e-01
-5.398100000000000165e+01 2.307300000000000040e+01 -2.825300000000000011e+01 1.010458999999999996e+01 -1.818460092218854296e-01
-5.396800000000000352e+01 1.417399999999999949e+01 -3.292300000000000182e+01 -4.253880000000000194e+01 -2.437675518350274351e-01
-5.395600000000000307e+01 1.722200000000000131e+01 -2.452100000000000080e+01 -1.228272000000000030e+00 -2.100565185746388064e-01
-5.392000000000000171e+01 1.835500000000000043e+01 -2.527899999999999991e+01 -2.109959999999999880e+01 -2.019259751886069432e-01
-5.388000000000000256e+01 2.206200000000000117e+01 -2.484499999999999886e+01 -6.455956999999999724e+00 -1.936404090602381611e-01
-5.388000000000000256e+01 9.235400000000000276e+00 -2.984900000000000020e+01 -4.146861000000000352e+00 -2.368400498350853867e-01
-5.386999999999999744e+01 1.169699999999999918e+01 -3.380899999999999750e+01 -3.134959999999999969e+00 -2.451867229079817689e-01
-5.383599999999999852e+01 1.970200000000000173e+01 -2.483399999999999963e+01 -8.810143000000000058e+00 -1.998637667434096377e-01
-5.382900000000000063e+01 1.539899999999999913e+01 -3.242300000000000182e+01 -2.728144999999999953e+01 -1.856948015389033035e-01
-5.382900000000000063e+01 2.314699999999999847e+01 -2.731400000000000006e+01 1.474130000000000074e+01 -1.844203799550100942e-01
-5.382800000000000296e+01 2.006099999999999994e+01 -3.295499999999999829e+01 -1.205294000000000088e+00 -1.787205670640749922e-01
-5.382200000000000273e+01 2.016000000000000014e+01 -2.414499999999999957e+01 -5.810543000000000013e+00 -2.016981792509320304e-01
-5.382200000000000273e+01 2.175799999999999912e+01 -2.414499999999999957e+01 -6.249970000000000248e+00 -1.971555738384695167e-01
-5.381300000000000239e+01 1.338899999999999935e+01 -2.016600000000000037e+01 6.518923999999999808e+01 -7.951422041859598777e-02
-5.380400000000000205e+01 9.578300000000000480e+00 -3.129599999999999937e+01 -7.553014000000000117e-01 -2.371709710950465344e-01
-5.380400000000000205e+01 9.578300000000000480e+00 -3.043100000000000094e+01 -1.023816000000000059e+00 -2.373426140920162908e-01
-5.378699999999999903e+01 1.107199999999999918e+01 -1.993199999999999861e+01 -3.702479999999999993e+00 1.069272130067399906e-01
-5.378099999999999881e+01 1.122600000000000087e+01 -2.207600000000000051e+01 -6.819304999999999950e+00 -1.715159399548668584e-01
-5.377300000000000324e+01 1.728500000000000014e+01 -3.206799999999999784e+01 -8.762010999999999328e+00 -1.827679687051659285e-01
-5.377000000000000313e+01 1.884600000000000009e+01 -3.299099999999999966e+01 -3.738213000000000008e+00 -1.799872430830685155e-01
-5.377000000000000313e+01 2.022599999999999909e+01 -3.121900000000000119e+01 1.298831000000000069e+00 -1.796391373138247483e-01
-5.377000000000000313e+01 2.022599999999999909e+01 -3.035399999999999920e+01 1.606265000000000143e+01 -1.806044160778002006e-01
-5.375999999999999801e+01 1.305300000000000082e+01 -2.470100000000000051e+01 -4.201051999999999786e+00 -1.887250769260318539e-01
-5.375900000000000034e+01 2.048900000000000077e+01 -2.338500000000000156e+01 -8.468821999999999406e+00 -2.040071340629486529e-01
-5.375900000000000034e+01 2.142899999999999849e+01 -2.338500000000000156e+01 -1.888485000000000014e+01 -2.010991340900087354e-01
-5.375699999999999790e+01 2.042999999999999972e+01 -3.210499999999999687e+01 -2.135869000000000018e+00 -1.789286325386711951e-01
-5.375600000000000023e+01 1.305300000000000082e+01 -2.593400000000000105e+01 -9.069378999999999635e+00 -1.896025710337134462e-01
-5.374300000000000210e+01 9.881000000000000227e+00 -2.675499999999999901e+01 -8.224500999999999618e-01 -1.713666215701878381e-01
-5.371699999999999875e+01 1.198300000000000054e+01 -1.941199999999999903e+01 1.424028999999999989e+01 1.029207137491998242e-01
-5.371600000000000108e+01 1.330799999999999983e+01 -2.527599999999999980e+01 -6.351770000000000138e+00 -1.900954367314978966e-01
-5.369899999999999807e+01 8.505699999999999150e+00 -2.872599999999999909e+01 -3.332101000000000202e+00 -2.359097359565257290e-01
-5.369899999999999807e+01 8.505699999999999150e+00 -2.767599999999999838e+01 -1.203751000000000015e+00 -2.359432088038789233e-01
-5.369800000000000040e+01 1.275000000000000000e+01 -2.663400000000000034e+01 -1.215820000000000078e+01 -1.888974907849292617e-01
-5.366199999999999903e+01 2.183099999999999952e+01 -2.876999999999999957e+01 1.094336999999999982e+01 -1.823319708333299705e-01
-5.366199999999999903e+01 1.697299999999999898e+01 -2.377299999999999969e+01 4.952622999999999998e+00 -9.006786552409673519e-02
-5.364200000000000301e+01 1.601000000000000156e+01 -2.281400000000000006e+01 1.069594000000000023e+01 -9.242582911714816718e-02
-5.364099999999999824e+01 1.169800000000000040e+01 -2.669399999999999906e+01 -5.043376000000000303e+00 -2.439816979281535791e-01
-5.362800000000000011e+01 1.666900000000000048e+01 -3.205400000000000205e+01 -1.258069000000000059e+01 -1.842243932554716301e-01
-5.359599999999999653e+01 9.865199999999999747e+00 -3.240699999999999648e+01 -4.349450000000000038e+00 -2.491176874079434056e-01
-5.358200000000000074e+01 1.534399999999999942e+01 -2.243799999999999883e+01 1.092900000000000027e+01 -9.376768129624417358e-02
-5.356799999999999784e+01 2.238800000000000168e+01 -2.514799999999999969e+01 -1.865669000000000022e+00 -1.924882341801092411e-01
-5.354800000000000182e+01 1.345299999999999940e+01 -3.322399999999999665e+01 -9.624734999999999374e+00 -2.447808169013416246e-01
-5.354699999999999704e+01 1.419500000000000028e+01 -2.025700000000000145e+01 1.156406999999999918e+01 -8.127301076708058625e-02
-5.354599999999999937e+01 1.458600000000000030e+01 -2.109600000000000009e+01 7.442848999999999648e+01 3.479223189999976901e-02
-5.354399999999999693e+01 1.088400000000000034e+01 -3.373299999999999699e+01 -4.500938999999999801e+00 -2.464057965778543302e-01
-5.352600000000000335e+01 1.249799999999999933e+01 -3.376400000000000290e+01 -6.802188000000000123e+00 -2.449924374491386503e-01
-5.352300000000000324e+01 1.792200000000000060e+01 -2.478800000000000026e+01 -1.078960000000000008e+01 -2.059079268292443587e-01
-5.352300000000000324e+01 1.878800000000000026e+01 -2.478800000000000026e+01 -1.584767000000000081e+01 -2.031405554682715331e-01
-5.351200000000000045e+01 1.278899999999999970e+01 -1.964799999999999969e+01 9.977751999999999555e+01 1.030361053619403000e-01
-5.350200000000000244e+01 1.841400000000000148e+01 -3.229099999999999682e+01 -2.300551000000000013e+00 -1.815925938074649526e-01
-5.350200000000000244e+01 2.065800000000000125e+01 -2.965399999999999991e+01 2.770785000000000053e+01 -1.821348198970173526e-01
-5.348299999999999699e+01 1.314199999999999946e+01 -2.380799999999999983e+01 -3.187511999999999901e+00 -1.563829724745149918e-01
-5.346800000000000352e+01 8.880200000000000315e+00 -2.959100000000000108e+01 -4.532714000000000354e+00 -2.366535948358343133e-01
-5.344800000000000040e+01 2.253699999999999903e+01 -2.589099999999999824e+01 4.362504000000000381e+00 -1.900176778015139623e-01
-5.344599999999999795e+01 1.936599999999999966e+01 -2.437600000000000122e+01 -6.745392999999999972e+00 -2.032595399791200241e-01
-5.343699999999999761e+01 1.404100000000000037e+01 -3.217399999999999949e+01 -2.468386999999999887e+01 -2.460348361243290538e-01
-5.343699999999999761e+01 1.490700000000000003e+01 -3.217399999999999949e+01 -1.628706000000000031e+01 -1.877200121577581315e-01
-5.338799999999999812e+01 1.966900000000000048e+01 -2.367599999999999838e+01 -6.230343000000000409e+00 -8.729159299954428186e-02
-5.337400000000000233e+01 9.031000000000000583e+00 -2.682600000000000051e+01 -3.004100999999999910e+00 -1.705823210398380307e-01
-5.334899999999999665e+01 9.543200000000000571e+00 -3.172599999999999909e+01 -3.822617999999999849e+00 -2.507703125250906329e-01
-5.334300000000000352e+01 1.554700000000000060e+01 -3.220700000000000074e+01 -1.119487999999999950e+01 -1.866866395999341455e-01
-5.334300000000000352e+01 1.187100000000000044e+01 -2.262099999999999866e+01 -5.581387999999999572e+00 -1.739898123526107399e-01
-5.333899999999999864e+01 1.671000000000000085e+01 -2.287199999999999989e+01 -3.278611000000000164e-01 -9.143398704780078545e-02
-5.333800000000000097e+01 2.275100000000000122e+01 -2.680999999999999872e+01 2.761998000000000175e+01 -1.873035244557445245e-01
-5.332999999999999829e+01 2.232300000000000040e+01 -2.459900000000000020e+01 -1.776109999999999900e+01 -1.948904524967839669e-01
-5.332999999999999829e+01 2.115700000000000003e+01 -2.926399999999999935e+01 4.595250000000000057e+01 -1.829141947764898468e-01
-5.332900000000000063e+01 2.247700000000000031e+01 -2.772200000000000131e+01 1.085481999999999942e+02 -1.851984406922041471e-01
-5.332800000000000296e+01 2.095899999999999963e+01 -2.285200000000000031e+01 -7.764014999999999667e+00 -8.687269536864897224e-02
-5.331400000000000006e+01 1.491099999999999959e+01 -2.173799999999999955e+01 3.925576000000000221e+01 3.384257390705631974e-02
-5.331300000000000239e+01 9.181699999999999307e+00 -3.086299999999999955e+01 -4.326785000000000103e+00 -2.370383765547113553e-01
-5.330100000000000193e+01 1.231700000000000017e+01 -2.712500000000000000e+01 -9.740799000000000873e+00 -1.876377442643941129e-01
-5.328900000000000148e+01 2.218900000000000006e+01 -2.367500000000000071e+01 -1.532892999999999972e+01 -1.984008979025388142e-01
-5.328300000000000125e+01 1.114799999999999969e+01 -1.981400000000000006e+01 -3.702479999999999993e+00 9.900719766773728725e-02
-5.327000000000000313e+01 1.057799999999999940e+01 -3.358000000000000096e+00 -1.495697000000000054e+00 -2.077492528783329573e-01
-5.326500000000000057e+01 1.964199999999999946e+01 -3.251100000000000279e+01 -1.998901999999999957e+00 -1.807170238577849031e-01
-5.326500000000000057e+01 1.344999999999999929e+01 -2.636700000000000088e+01 4.188334000000000223e+00 -1.905814224075855212e-01
-5.322899999999999920e+01 1.767299999999999827e+01 -2.403999999999999915e+01 -1.303256000000000014e+01 -8.923394060859865529e-02
-5.322899999999999920e+01 1.853900000000000148e+01 -2.403999999999999915e+01 -8.888009000000000270e+00 -8.828762584486336829e-02
-5.322500000000000142e+01 1.370500000000000007e+01 -2.570899999999999963e+01 1.996402000000000143e+01 -1.911070188194411157e-01
-5.322500000000000142e+01 1.370500000000000007e+01 -2.484299999999999997e+01 6.196992999999999974e+00 -1.906707700719176835e-01
-5.321600000000000108e+01 1.270899999999999963e+01 -2.310800000000000054e+01 -6.701953999999999745e+00 -1.554730081599631220e-01
-5.317900000000000205e+01 1.893299999999999983e+01 -2.367599999999999838e+01 -7.150127000000000344e+00 -8.816300947903932261e-02
-5.317099999999999937e+01 1.737000000000000099e+01 -2.333999999999999986e+01 -1.681276000000000082e+01 -9.019132981200503330e-02
-5.313000000000000256e+01 1.972400000000000020e+01 -2.323100000000000165e+01 -8.510185999999999140e+00 -8.775479709738656653e-02
-5.309100000000000108e+01 8.750700000000000145e+00 -3.019900000000000162e+01 -5.045867999999999576e+00 -2.366887541265367267e-01
-5.307200000000000273e+01 1.040399999999999991e+01 -3.319899999999999807e+01 -4.654021000000000186e+00 -2.480401147316833588e-01
-5.307200000000000273e+01 1.169699999999999918e+01 -3.392000000000000171e+01 -5.632424999999999571e+00 -2.460765857760605080e-01
-5.307000000000000028e+01 1.995799999999999841e+01 -3.078600000000000136e+01 1.157321999999999917e+01 -1.824594906772216141e-01
-5.307000000000000028e+01 2.016700000000000159e+01 -3.005000000000000071e+01 2.155715000000000003e+01 -1.832943327360163910e-01
-5.306900000000000261e+01 1.362400000000000055e+01 -1.970499999999999829e+01 1.241879999999999917e+01 9.871841104131948152e-02
-5.305499999999999972e+01 1.498300000000000054e+01 -2.066300000000000026e+01 7.802317999999999643e+00 3.451582932909733753e-02
-5.303999999999999915e+01 1.447400000000000020e+01 -3.168299999999999983e+01 -1.623468000000000089e+01 -1.899713190369140270e-01
-5.303900000000000148e+01 1.982199999999999918e+01 -3.142399999999999949e+01 5.500460000000000349e+00 -1.819676838444936051e-01
-5.303900000000000148e+01 9.763099999999999667e+00 -3.358000000000000096e+00 5.653563000000000338e-02 -2.006274812937468843e-01
-5.303900000000000148e+01 1.139300000000000068e+01 -3.358000000000000096e+00 1.935872000000000170e+01 1.033986373200706903e-02
-5.303699999999999903e+01 1.728500000000000014e+01 -3.185900000000000176e+01 -6.146086000000000382e+00 -1.848285012871244137e-01
-5.302400000000000091e+01 1.306499999999999950e+01 -3.326400000000000290e+01 -8.785171000000000063e+00 -2.458553390115671422e-01
-5.300399999999999778e+01 1.334099999999999930e+01 -3.244200000000000017e+01 -4.104178999999999888e+01 -2.469033402922455045e-01
-5.299900000000000233e+01 2.019900000000000162e+01 -2.291499999999999915e+01 -8.923173000000000243e+00 -8.767834952824284100e-02
-5.299900000000000233e+01 2.171900000000000119e+01 -2.291499999999999915e+01 -2.570789999999999864e+01 -8.673907055832050239e-02
-5.299799999999999756e+01 1.161700000000000088e+01 -2.706700000000000017e+01 -1.511862000000000039e+00 -2.434731015259455345e-01
-5.299799999999999756e+01 1.301699999999999946e+01 -2.706700000000000017e+01 1.589674000000000031e+00 -1.893257473792122891e-01
-5.298899999999999721e+01 1.783599999999999852e+01 -5.288999999999999702e+00 -2.987410999999999817e+00 1.312510940388118309e-02
-5.298400000000000176e+01 1.461400000000000077e+01 -1.981299999999999883e+01 2.713324000000000069e+00 -8.105326630481782257e-02
-5.298100000000000165e+01 1.198300000000000054e+01 -1.920299999999999940e+01 -1.137221000000000065e-01 9.009488517445644884e-02
-5.297399999999999665e+01 1.009900000000000020e+01 -4.133000000000000007e+00 -1.420544000000000029e+00 -1.996466473535092878e-01
-5.297399999999999665e+01 1.009900000000000020e+01 -2.583000000000000185e+00 6.089925000000000477e-01 -2.042134430103175191e-01
-5.297399999999999665e+01 1.105700000000000038e+01 -4.133000000000000007e+00 -1.112187000000000037e+00 1.519038488995371437e-02
-5.297399999999999665e+01 1.105700000000000038e+01 -2.583000000000000185e+00 -2.566324999999999856e-01 1.322363737932037188e-02
-5.295100000000000051e+01 1.812399999999999878e+01 -2.331099999999999994e+01 -1.281358999999999959e+01 -8.944475594725381784e-02
-5.290999999999999659e+01 1.624699999999999989e+01 -3.194000000000000128e+01 -3.317105000000000192e+00 -1.867014988205759063e-01
-5.290200000000000102e+01 8.319200000000000372e+00 -2.908099999999999952e+01 -2.421003999999999934e+00 -2.363161317498293779e-01
-5.289000000000000057e+01 8.823100000000000165e+00 -3.139099999999999824e+01 -5.047085000000000043e+00 -2.367858354693384570e-01
-5.286699999999999733e+01 1.701999999999999957e+01 -5.318399999999999572e+00 -1.680174000000000056e+00 3.936767727832139914e-03
-5.285799999999999699e+01 9.146599999999999397e+00 -3.215899999999999892e+01 -4.834431999999999618e+00 -2.506533859659154651e-01
-5.284899999999999665e+01 8.180999999999999162e+00 -2.820100000000000051e+01 -3.758718000000000004e+00 -1.708131141100279193e-01
-5.284899999999999665e+01 8.434900000000000730e+00 -2.730699999999999861e+01 -9.591330000000000133e-01 -1.706357166591713770e-01
-5.284899999999999665e+01 9.881000000000000227e+00 -2.650100000000000122e+01 -1.222919000000000089e+00 -1.720235518867849478e-01
-5.284300000000000352e+01 1.683899999999999864e+01 -2.248100000000000165e+01 -6.928163999999999767e+00 -9.175340554723149245e-02
-5.283299999999999841e+01 1.738200000000000145e+01 -4.487599999999999589e+00 -2.154284000000000088e+00 1.551387039783346487e-02
-5.282600000000000051e+01 1.902400000000000091e+01 -2.328900000000000148e+01 -6.095256000000000007e+00 -8.860859188902528438e-02
-5.280400000000000205e+01 1.095899999999999963e+01 -2.181200000000000117e+01 -7.468141000000000140e+00 -1.844158392317665485e-01
-5.279699999999999704e+01 2.183099999999999952e+01 -2.876999999999999957e+01 9.732803999999999789e+00 -1.848168877969840751e-01
-5.278300000000000125e+01 1.200900000000000034e+01 -2.284100000000000108e+01 -7.031654999999999767e+00 -1.748315031265596509e-01
-5.278300000000000125e+01 1.319999999999999929e+01 -2.350499999999999901e+01 -2.474436999999999998e+00 -1.574515435415049791e-01
-5.278300000000000125e+01 1.777799999999999869e+01 -2.257999999999999829e+01 -5.278983000000000203e+00 -9.052970364219432853e-02
-5.277900000000000347e+01 1.961799999999999855e+01 -3.223400000000000176e+01 -1.998901999999999957e+00 -1.821479783405120512e-01
-5.276200000000000045e+01 1.863500000000000156e+01 -5.288999999999999702e+00 -2.841712999999999933e+00 1.534279046927144660e-02
-5.275600000000000023e+01 1.319400000000000084e+01 -1.636299999999999955e+01 -2.324362999999999957e+00 4.158130958295992718e-02
-5.273700000000000188e+01 1.377399999999999913e+01 -3.174200000000000088e+01 -1.948354000000000141e+01 -1.915158413994640929e-01
-5.273700000000000188e+01 1.517399999999999949e+01 -3.174200000000000088e+01 -6.895426999999999751e+00 -1.891487722281660622e-01
-5.271600000000000108e+01 1.658200000000000074e+01 -4.786999999999999922e+00 -2.286061000000000121e+00 3.745216734526708117e-03
-5.270000000000000284e+01 1.103400000000000070e+01 -2.065200000000000102e+01 -8.735131000000000867e+00 9.796488126039712419e-02
-5.269899999999999807e+01 1.736599999999999966e+01 -6.049000000000000377e+00 -1.247268999999999961e+00 -3.765030990724026194e-03
-5.269899999999999807e+01 1.830600000000000094e+01 -6.049000000000000377e+00 -1.712528999999999968e+00 4.658389340337717836e-03
-5.269899999999999807e+01 1.830600000000000094e+01 -4.528999999999999915e+00 -2.149096000000000117e+01 1.928625112643201495e-02
-5.267999999999999972e+01 1.874099999999999966e+01 -3.248499999999999943e+01 -2.770348999999999950e+00 -1.830993130359863108e-01
-5.265299999999999869e+01 1.580700000000000038e+01 -2.186100000000000065e+01 1.353239999999999998e+00 -9.359060801196152080e-02
-5.263700000000000045e+01 2.065800000000000125e+01 -2.965399999999999991e+01 6.863343999999999667e+00 -1.846450351088548270e-01
-5.263300000000000267e+01 2.245100000000000051e+01 -2.736599999999999966e+01 3.089112000000000080e+01 -1.877817684746856952e-01
-5.263300000000000267e+01 2.245100000000000051e+01 -2.625400000000000134e+01 2.663107000000000113e+01 -1.906709900871162433e-01
-5.262899999999999778e+01 2.220899999999999963e+01 -2.546499999999999986e+01 -5.645678000000000196e+00 -1.933035862291843376e-01
-5.262700000000000244e+01 1.315799999999999947e+01 -1.918700000000000117e+01 -5.647193999999999825e+00 8.788891846752919235e-02
-5.262700000000000244e+01 1.408900000000000041e+01 -1.918700000000000117e+01 -4.259655999999999665e+00 8.990631426712826502e-02
-5.262100000000000222e+01 1.819900000000000162e+01 -3.220900000000000318e+01 -4.728816000000000130e+00 -1.841198038448746133e-01
-5.260199999999999676e+01 1.093699999999999939e+01 -3.363000000000000256e+01 -9.143043000000000475e+00 -2.475539019539253205e-01
-5.260199999999999676e+01 1.245700000000000074e+01 -3.363000000000000256e+01 -1.681480000000000175e+01 -2.464135627102911896e-01
-5.260000000000000142e+01 8.354100000000000747e+00 -3.063200000000000145e+01 -9.937893000000000754e+00 -2.364766642137653141e-01
-5.259799999999999898e+01 2.221499999999999986e+01 -2.824299999999999855e+01 2.218728000000000122e+01 -1.860874549188001048e-01
-5.259100000000000108e+01 1.122899999999999920e+01 -2.694300000000000139e+01 7.223855000000000359e+00 -1.742486454400213047e-01
-5.258299999999999841e+01 1.108999999999999986e+01 -1.951099999999999923e+01 -7.370804999999999829e+00 8.734605482487599326e-02
-5.256799999999999784e+01 2.234199999999999875e+01 -2.330499999999999972e+01 -1.603531999999999869e+01 -1.996976286525183331e-01
-5.256700000000000017e+01 1.554899999999999949e+01 -2.112800000000000011e+01 -4.003475000000000228e-01 3.335015013848771637e-02
-5.256499999999999773e+01 1.231700000000000017e+01 -2.733399999999999963e+01 -1.605804999999999927e+00 -1.874147743703909463e-01
-5.256499999999999773e+01 1.350799999999999912e+01 -2.667000000000000171e+01 3.859344000000000108e+00 -1.901483497153297342e-01
-5.256499999999999773e+01 8.085900000000000531e+00 -3.139099999999999824e+01 -5.432547999999999710e+00 -2.361414538693054621e-01
-5.254800000000000182e+01 8.288399999999999324e+00 -2.969600000000000151e+01 -5.374399999999999622e+00 -2.365019113520747673e-01
-5.253499999999999659e+01 1.057799999999999940e+01 -4.676499999999999879e+00 -1.855993999999999922e+00 2.873884898900636031e-02
-5.253499999999999659e+01 1.057799999999999940e+01 -2.039499999999999869e+00 3.675019999999999953e+00 -2.998129484094620989e-01
-5.252900000000000347e+01 2.247899999999999920e+01 -2.414499999999999957e+01 -1.850964000000000098e+01 -1.969606427902088341e-01
-5.252499999999999858e+01 1.376299999999999990e+01 -2.601200000000000045e+01 1.674268000000000001e+01 -1.905937684126988718e-01
-5.252499999999999858e+01 1.397199999999999953e+01 -2.527599999999999980e+01 9.128519000000000716e+00 -1.908926830571715805e-01
-5.252499999999999858e+01 1.237899999999999956e+01 -1.636299999999999955e+01 -3.991500999999999966e+00 3.342874452822465481e-02
-5.252499999999999858e+01 1.400900000000000034e+01 -1.636299999999999955e+01 2.031385999999999914e+00 4.787458980917795592e-02
-5.250699999999999790e+01 9.749100000000000321e+00 -3.277199999999999847e+01 -4.884363999999999706e+00 -2.496383159692813769e-01
-5.250200000000000244e+01 8.415300000000000225e+00 -3.215100000000000335e+01 -5.901498000000000133e+00 -2.364910377915023787e-01
-5.249499999999999744e+01 9.323999999999999844e+00 -3.837000000000000188e+00 -1.000631000000000048e+00 -1.918189979375492238e-01
-5.249499999999999744e+01 9.323999999999999844e+00 -2.879000000000000004e+00 1.384937000000000085e+00 -1.960071522347893169e-01
-5.249499999999999744e+01 1.183200000000000074e+01 -2.879000000000000004e+00 1.731232999999999933e+01 1.280433177408472380e-02
-5.247399999999999665e+01 1.195899999999999963e+01 -3.752400000000000180e+00 1.969699999999999918e+01 1.276394893963793929e-02
-5.246399999999999864e+01 2.115700000000000003e+01 -2.926399999999999935e+01 1.228306000000000076e+01 -1.853093476109137216e-01
-5.246300000000000097e+01 1.151299999999999990e+01 -1.878699999999999903e+01 -1.150999999999999979e+01 7.776743886666018235e-02
-5.246300000000000097e+01 1.245299999999999940e+01 -1.878699999999999903e+01 -1.936410000000000053e+01 7.965544555164390250e-02
-5.246200000000000330e+01 1.568800000000000061e+01 -4.786999999999999922e+00 -7.635324999999999473e-01 -9.299608710500777142e-03
-5.246000000000000085e+01 1.271499999999999986e+01 -1.713800000000000168e+01 -2.222320999999999991e+00 5.269274162255858929e-02
