7.435299999999999443e+01 -2.659600000000000009e+01 -3.341199999999999903e+01 4.063441999999999865e+01 -1.571092155238299481e-01
7.435500000000000398e+01 -3.658100000000000307e+01 -1.779799999999999827e+01 3.711362999999999968e+00 3.033097232698124812e-01
7.437000000000000455e+01 -2.518199999999999861e+01 -1.481700000000000017e+01 -1.011350000000000016e+01 3.502239833191081453e-02
7.437000000000000455e+01 -2.373600000000000065e+01 -1.562299999999999933e+01 -1.137434999999999974e+01 -4.093945300632974293e-02
7.437500000000000000e+01 -1.411200000000000010e+01 -3.158299999999999841e+01 -1.363765000000000072e+01 -1.072561994762893933e-01
7.437999999999999545e+01 -1.585599999999999987e+01 -3.221000000000000085e+01 1.299250000000000016e+00 -1.318256750856542925e-01
7.437999999999999545e+01 -1.489799999999999969e+01 -3.221000000000000085e+01 -1.091134999999999966e+00 -1.206592000443779539e-01
7.438599999999999568e+01 -1.990099999999999980e+01 -1.913700000000000045e+01 1.873183999999999960e+00 -1.326435285956884536e-01
7.439000000000000057e+01 -3.765800000000000125e+01 -1.976099999999999923e+01 3.637415999999999983e+00 1.306510985367977939e-01
7.439600000000000080e+01 -2.390099999999999980e+01 -2.783899999999999864e+01 -2.765356000000000147e+00 2.010976133194313231e-01
7.440000000000000568e+01 -2.739799999999999969e+01 -1.528999999999999915e+01 -1.080622999999999934e+01 6.518595873240481953e-02
7.441100000000000136e+01 -3.232600000000000051e+01 -2.260999999999999943e+01 -9.281300999999999135e+00 6.793831572367745042e-02
7.441299999999999670e+01 -2.427100000000000080e+01 -2.711400000000000077e+01 -2.823240000000000194e+00 2.051617683332513375e-01
7.442100000000000648e+01 -3.358500000000000085e+01 -2.344200000000000017e+01 -7.816620999999999597e+00 1.712104046118906875e-01
7.442300000000000182e+01 -2.178999999999999915e+01 -2.957300000000000040e+01 8.147284000000000859e+00 1.444963874965191630e-01
7.442300000000000182e+01 -2.059900000000000020e+01 -2.890899999999999892e+01 1.006302999999999948e+01 1.111608208641305245e-01
7.444400000000000261e+01 -2.807199999999999918e+01 -3.248700000000000188e+01 -1.333088000000000051e+01 1.130488256592616370e-01
7.445300000000000296e+01 -2.485399999999999920e+01 -2.902199999999999847e+01 2.655441000000000162e+00 -6.552109618054498263e-02
7.449899999999999523e+01 -3.830100000000000193e+01 -2.259499999999999886e+01 1.068103000000000025e+00 2.473603815005162299e-01
7.449899999999999523e+01 -3.830100000000000193e+01 -2.154500000000000171e+01 2.693443999999999949e+00 1.478606994691055720e-01
7.450499999999999545e+01 -1.339799999999999969e+01 -3.110600000000000165e+01 -1.136237000000000030e+01 -9.494620432920439224e-02
7.457699999999999818e+01 -2.315800000000000125e+01 -3.185500000000000043e+01 5.704936000000000007e+00 1.526577422701101694e-01
7.457999999999999829e+01 -2.489900000000000091e+01 -3.183200000000000074e+01 8.055593999999999255e+00 -1.075098180177356949e-01
7.458400000000000318e+01 -3.790899999999999892e+01 -2.403300000000000125e+01 8.186980000000000368e-01 2.491107167365868291e-01
7.460800000000000409e+01 -2.891799999999999926e+01 -2.592899999999999849e+01 -2.446045999999999943e+00 2.039104119856801900e-01
7.460800000000000409e+01 -2.891799999999999926e+01 -2.487900000000000134e+01 1.304639000000000104e+00 1.804761800631019264e-01
7.461100000000000421e+01 -3.063100000000000023e+01 -1.973900000000000077e+01 -1.879779999999999873e+01 -9.383056127699448967e-02
7.461100000000000421e+01 -3.063100000000000023e+01 -1.887399999999999878e+01 -6.880372000000000376e+00 -9.421666547846287154e-02
7.461599999999999966e+01 -1.979200000000000159e+01 -2.225000000000000000e+01 -1.478850000000000087e+01 -1.042854097681367165e-01
7.461799999999999500e+01 -3.465800000000000125e+01 -1.807199999999999918e+01 8.569254000000000815e+00 1.780343500474590446e-01
7.462800000000000011e+01 -3.653399999999999892e+01 -2.495400000000000063e+01 2.040966999999999920e-01 2.313324646272832685e-01
7.463899999999999579e+01 -1.817899999999999849e+01 -3.082900000000000063e+01 2.080935999999999897e+00 1.441297446737947463e-01
7.464000000000000057e+01 -2.476899999999999835e+01 -2.638800000000000168e+01 -1.998961999999999906e+00 2.094170836348042131e-01
7.464499999999999602e+01 -3.296000000000000085e+01 -1.976099999999999923e+01 -1.369425999999999988e+01 1.192988050399375853e-02
7.464700000000000557e+01 -3.176399999999999935e+01 -2.049699999999999989e+01 -2.472221000000000046e+01 4.284298190931603439e-02
7.465200000000000102e+01 -2.754299999999999926e+01 -2.685000000000000142e+01 -1.192511000000000099e+00 2.296166124846582834e-01
7.465300000000000580e+01 -2.966700000000000159e+01 -1.601500000000000057e+01 3.332527999999999935e+00 -9.433459797126379776e-02
7.466400000000000148e+01 -3.803799999999999670e+01 -2.307499999999999929e+01 9.659805000000000197e-01 2.506565010136129756e-01
7.466500000000000625e+01 -1.290900000000000070e+01 -3.019800000000000040e+01 -2.658238000000000056e+01 -7.879703311605802674e-02
7.466500000000000625e+01 -1.290900000000000070e+01 -2.914799999999999969e+01 1.080533999999999928e+01 -3.402529789714461295e-01
7.467700000000000671e+01 -3.512299999999999756e+01 -2.416199999999999903e+01 1.926469999999999905e+00 1.793146888131387784e-01
7.468000000000000682e+01 -3.696000000000000085e+01 -1.788200000000000145e+01 1.352279000000000009e+00 3.036189223692997152e-01
7.469899999999999807e+01 -3.034499999999999886e+01 -2.223300000000000054e+01 -1.417647000000000013e+01 3.053171586121877085e-02
7.470000000000000284e+01 -2.862900000000000134e+01 -2.408500000000000085e+01 -3.444989999999999997e-01 1.656643734944223401e-01
7.470399999999999352e+01 -2.912800000000000011e+01 -2.323400000000000176e+01 -4.082021000000000122e+00 1.519492094340178789e-01
7.470699999999999363e+01 -1.767699999999999960e+01 -2.488599999999999923e+01 -6.510536999999999352e+01 -7.814466762197104510e-02
7.470900000000000318e+01 -1.428400000000000070e+01 -2.822700000000000031e+01 6.385459999999999781e+01 -6.625210349614545080e-02
7.472400000000000375e+01 -2.835600000000000165e+01 -3.464099999999999824e+01 -6.005078000000000138e+00 3.232149611244811843e-02
7.472400000000000375e+01 -2.835600000000000165e+01 -3.312100000000000222e+01 -1.620561999999999969e+01 8.295822834689800529e-02
7.472400000000000375e+01 -2.741600000000000037e+01 -3.464099999999999824e+01 -1.955853000000000064e+00 4.435481793551332430e-02
7.472400000000000375e+01 -2.741600000000000037e+01 -3.312100000000000222e+01 -2.662791999999999959e+01 9.494090494513771072e-02
7.473699999999999477e+01 -1.667899999999999849e+01 -3.173699999999999832e+01 2.701613000000000042e+00 -1.437857371168400622e-01
7.474200000000000443e+01 -2.619699999999999918e+01 -2.636700000000000088e+01 -2.075045999999999946e+00 -8.471883974312732768e-02
7.474500000000000455e+01 -1.912000000000000099e+01 -2.380000000000000071e+01 1.479462999999999973e+01 -9.335969586799455766e-02
7.475199999999999534e+01 -3.614800000000000324e+01 -1.730699999999999861e+01 1.791870000000000074e+00 3.691146563883206388e-01
7.475199999999999534e+01 -3.509799999999999898e+01 -1.730699999999999861e+01 2.422620000000000218e+00 1.703568640899137399e-01
7.475300000000000011e+01 -1.636400000000000077e+01 -2.720799999999999841e+01 5.410425999999999647e+01 -9.251717747533930170e-02
7.477500000000000568e+01 -2.310200000000000031e+01 -1.662600000000000122e+01 -5.574190999999999896e+00 -1.032319998453205268e-01
7.477500000000000568e+01 -2.191100000000000136e+01 -1.728999999999999915e+01 -2.503554999999999975e+00 -1.112926533871656937e-01
7.477599999999999625e+01 -3.431900000000000261e+01 -2.348699999999999832e+01 -4.907619999999999649e+00 1.760591250552299702e-01
7.477800000000000580e+01 -2.537900000000000134e+01 -3.092200000000000060e+01 4.337958999999999676e+00 -7.427615168505422028e-02
7.477800000000000580e+01 -2.537900000000000134e+01 -2.987199999999999989e+01 1.499006999999999978e-01 -3.843174760088729353e-02
7.477800000000000580e+01 -2.262900000000000134e+01 -3.092200000000000060e+01 2.985049000000000063e+00 1.696827201788679018e-01
7.478700000000000614e+01 -2.868499999999999872e+01 -3.388100000000000023e+01 -2.131374999999999886e+01 4.970122632501902671e-02
7.478700000000000614e+01 -2.708699999999999974e+01 -3.388100000000000023e+01 1.425691999999999950e+02 7.068323345627068599e-02
7.482200000000000273e+01 -2.400400000000000134e+01 -3.184299999999999997e+01 1.016524000000000072e+01 -1.121957297216485266e-01
7.483299999999999841e+01 -1.521499999999999986e+01 -2.819699999999999918e+01 1.972240000000000038e+01 -8.555355505323689047e-02
7.484399999999999409e+01 -3.183500000000000085e+01 -2.221399999999999864e+01 -1.699471000000000132e+01 7.416147619400134672e-02
7.485999999999999943e+01 -2.040200000000000102e+01 -1.802499999999999858e+01 -3.611528999999999989e+00 -1.313579652718093183e-01
7.488100000000000023e+01 -2.036899999999999977e+01 -2.076800000000000068e+01 7.503356000000000137e+00 -1.274275098440081633e-01
7.488100000000000023e+01 -2.036899999999999977e+01 -1.990200000000000102e+01 8.184808000000000305e+00 -1.416742191878805623e-01
7.488100000000000023e+01 -3.285900000000000176e+01 -2.304100000000000037e+01 -2.457666000000000039e+01 1.681310907941872546e-01
7.488599999999999568e+01 -2.254400000000000048e+01 -2.993199999999999861e+01 1.744574000000000069e+01 1.630909942503722398e-01
7.488700000000000045e+01 -2.350499999999999901e+01 -2.827100000000000080e+01 -4.550408000000000230e-01 1.874145974530518621e-01
7.488700000000000045e+01 -2.350499999999999901e+01 -2.740599999999999881e+01 -5.498249000000000386e+00 1.781454213531385722e-01
7.489000000000000057e+01 -2.009499999999999886e+01 -1.898999999999999844e+01 1.873183999999999960e+00 -1.378195936198399474e-01
7.489499999999999602e+01 -2.433200000000000074e+01 -1.514199999999999946e+01 -7.481923000000000323e-01 -5.320022791342925161e-02
7.489600000000000080e+01 -2.136599999999999966e+01 -2.913500000000000156e+01 1.452039000000000080e+01 1.225042006121849630e-01
7.489700000000000557e+01 -1.989900000000000091e+01 -2.917599999999999838e+01 9.915307999999999566e+00 9.019704444742265848e-02
7.489900000000000091e+01 -1.537700000000000067e+01 -3.179500000000000171e+01 -9.341979999999999507e+00 -1.287547628897407759e-01
7.491500000000000625e+01 -2.834900000000000020e+01 -1.560100000000000087e+01 -2.449977000000000071e+00 9.408498224219015438e-02
7.491899999999999693e+01 -2.001500000000000057e+01 -2.191600000000000037e+01 -3.498124999999999929e+00 -1.122803465181883009e-01
7.492799999999999727e+01 -1.975700000000000145e+01 -2.270799999999999841e+01 -1.435965999999999987e+01 9.658410610875570179e-02
7.493500000000000227e+01 -3.342799999999999727e+01 -1.900400000000000134e+01 1.834316999999999975e+00 1.066145028844986582e-02
7.495499999999999829e+01 -1.879799999999999827e+01 -3.009100000000000108e+01 2.899229000000000056e+00 1.317845152752544768e-01
7.496999999999999886e+01 -2.618799999999999883e+01 -1.499000000000000021e+01 -9.226604000000000028e+00 5.698238968112121633e-02
7.497199999999999420e+01 -2.228600000000000136e+01 -2.919900000000000162e+01 9.051802000000000348e+00 1.492538365336842643e-01
7.499699999999999989e+01 -1.720700000000000074e+01 -2.564600000000000080e+01 -2.267951000000000050e+01 -8.359125767336003654e-02
7.501399999999999579e+01 -2.788599999999999923e+01 -3.388100000000000023e+01 -6.744480000000000253e+00 5.847478432409527332e-02
7.503600000000000136e+01 -2.304599999999999937e+01 -2.884700000000000131e+01 4.670048999999999673e+00 1.728129063784276387e-01
7.504200000000000159e+01 -1.853300000000000125e+01 -2.461499999999999844e+01 4.035101000000000049e+00 -9.756550388253804051e-02
7.504399999999999693e+01 -3.219599999999999795e+01 -2.000700000000000145e+01 -9.257680999999999827e+00 4.300855385348192894e-02
7.504399999999999693e+01 -3.133099999999999952e+01 -2.000700000000000145e+01 -1.206634000000000029e+01 4.623035932829484135e-02
7.504999999999999716e+01 -3.770199999999999818e+01 -2.112399999999999878e+01 6.767402999999999835e+00 1.525919806678503465e-01
7.507500000000000284e+01 -1.437899999999999956e+01 -3.114999999999999858e+01 -6.334017000000000230e+00 -1.119737360154628714e-01
7.509000000000000341e+01 -1.592099999999999937e+01 -2.796099999999999852e+01 1.701463999999999999e+01 -9.982904934981835787e-02
7.509499999999999886e+01 -3.782000000000000028e+01 -2.207000000000000028e+01 3.515090999999999966e+00 2.502433886664768292e-01
7.510200000000000387e+01 -3.102799999999999869e+01 -1.930699999999999861e+01 -5.595900000000000318e+00 -9.384072315376770779e-02
7.510899999999999466e+01 -3.705899999999999750e+01 -2.435800000000000054e+01 2.799018999999999813e-01 2.465995921330836893e-01
7.510899999999999466e+01 -3.600900000000000034e+01 -2.435800000000000054e+01 1.129040999999999961e+00 1.893422853016727969e-01
7.511899999999999977e+01 -2.958999999999999986e+01 -2.278999999999999915e+01 -7.130227999999999788e+00 1.066337863868636882e-01
7.512099999999999511e+01 -3.062000000000000099e+01 -1.729899999999999949e+01 -2.359680999999999862e-01 -9.430020202913827476e-02
7.513100000000000023e+01 -3.471200000000000330e+01 -2.363599999999999923e+01 -3.578818999999999750e-01 1.785280406049857826e-01
7.513200000000000500e+01 -3.753499999999999659e+01 -2.287600000000000122e+01 1.802837999999999941e+00 2.527712675324146341e-01
7.513299999999999557e+01 -2.806800000000000139e+01 -2.625400000000000134e+01 -2.124957999999999902e+00 2.192295011115739656e-01
7.513299999999999557e+01 -2.701800000000000068e+01 -2.625400000000000134e+01 -3.149684999999999846e+00 2.119575017248954141e-01
7.513700000000000045e+01 -3.073900000000000077e+01 -1.818100000000000094e+01 -4.709203999999999724e+00 -9.392628988729231909e-02
7.513899999999999579e+01 -3.765599999999999881e+01 -2.020899999999999963e+01 3.937514000000000181e+00 1.426469371221189830e-01
7.514700000000000557e+01 -3.113500000000000156e+01 -2.215500000000000114e+01 -7.153998999999999775e+00 1.364578868054762764e-02
7.515399999999999636e+01 -2.393700000000000117e+01 -2.670599999999999952e+01 6.121659000000000406e-01 1.816363229914213506e-01
7.516200000000000614e+01 -2.808500000000000085e+01 -2.385399999999999920e+01 -6.111326000000000258e-01 1.599237176661551796e-01
7.516400000000000148e+01 -1.758299999999999841e+01 -3.130999999999999872e+01 2.812787999999999844e+00 1.511793526548502187e-01
7.517799999999999727e+01 -3.026300000000000168e+01 -1.649599999999999866e+01 3.331444999999999990e+00 -9.403437992177181293e-02
7.517799999999999727e+01 -2.881700000000000017e+01 -1.568999999999999950e+01 -2.648030000000000106e-01 1.063360627601570574e-01
7.518000000000000682e+01 -3.742799999999999727e+01 -2.350799999999999912e+01 1.228898000000000046e+00 2.539307796913078397e-01
7.518999999999999773e+01 -2.261100000000000065e+01 -1.714099999999999824e+01 1.451343999999999967e+00 -1.123545044769981988e-01
7.518999999999999773e+01 -1.375900000000000034e+01 -3.052299999999999969e+01 -4.760938000000000336e+00 -9.715134888075210862e-02
7.518999999999999773e+01 -1.375900000000000034e+01 -2.882300000000000040e+01 2.048979999999999890e+01 -7.048953538387452145e-02
7.520399999999999352e+01 -2.843700000000000117e+01 -2.540399999999999991e+01 1.239870999999999945e+00 1.946186325028029240e-01
7.520499999999999829e+01 -3.781000000000000227e+01 -1.925700000000000145e+01 4.291286000000000378e+00 2.829730004546468503e-01
7.520499999999999829e+01 -3.755599999999999739e+01 -1.836299999999999955e+01 7.718568000000000096e-01 3.038807833820859616e-01
7.521599999999999397e+01 -2.819200000000000017e+01 -2.455799999999999983e+01 5.997920999999999836e+00 1.739735036530662970e-01
7.521999999999999886e+01 -2.380699999999999861e+01 -1.599200000000000088e+01 5.041257999999999839e+01 1.781021986183253247e-01
7.521999999999999886e+01 -2.838800000000000168e+01 -2.315399999999999991e+01 -4.227271000000000001e+00 1.850688325673251755e-01
7.522400000000000375e+01 -3.389600000000000080e+01 -1.824599999999999866e+01 2.903881000000000157e+00 8.859496513814039617e-03
7.522700000000000387e+01 -3.359000000000000341e+01 -2.320899999999999963e+01 -6.490975999999999857e+00 1.711354931170706029e-01
7.522700000000000387e+01 -2.546099999999999852e+01 -2.604599999999999937e+01 8.609817999999999638e-02 2.903159432000079060e-02
7.523300000000000409e+01 -3.562299999999999756e+01 -1.671099999999999852e+01 2.209232999999999780e+00 1.534202148130014154e-01
7.524800000000000466e+01 -1.592699999999999960e+01 -3.141799999999999926e+01 -3.745976000000000194e+00 -1.382388415161862338e-01
7.526099999999999568e+01 -1.339000000000000057e+01 -2.967299999999999827e+01 6.924427999999999805e+00 -7.997676116609275798e-02
7.526399999999999579e+01 -2.518199999999999861e+01 -1.507099999999999973e+01 -1.019843999999999973e+01 -6.477320195751171128e-02
7.526900000000000546e+01 -1.714600000000000080e+01 -2.691400000000000148e+01 1.114893000000000001e+01 -1.130754318433956768e-01
7.527500000000000568e+01 -1.474900000000000055e+01 -2.871499999999999986e+01 1.422383999999999915e+01 -8.843493933455540135e-02
7.527700000000000102e+01 -3.424799999999999756e+01 -1.763200000000000145e+01 5.583336000000000077e+00 1.752584292320081838e-01
7.529500000000000171e+01 -1.494899999999999984e+01 -3.116300000000000026e+01 -6.936079999999999579e+00 -1.224536910631204012e-01
7.529999999999999716e+01 -2.106099999999999994e+01 -1.761499999999999844e+01 7.211961999999999540e-01 -1.200511036535182041e-01
7.530299999999999727e+01 -2.452899999999999991e+01 -3.124699999999999989e+01 7.978995000000000282e+00 -8.957090105775041000e-02
7.530299999999999727e+01 -2.452899999999999991e+01 -2.954700000000000060e+01 8.783655000000000213e-01 -7.005467461121217543e-02
7.530299999999999727e+01 -2.347899999999999920e+01 -3.124699999999999989e+01 8.269047000000000480e+00 1.912762782394299976e-01
7.530299999999999727e+01 -2.347899999999999920e+01 -2.954700000000000060e+01 -1.402498999999999940e+00 1.908213804301094607e-01
7.531300000000000239e+01 -3.226899999999999835e+01 -2.270400000000000063e+01 -7.876584000000000252e+00 6.485256306838869944e-02
7.531799999999999784e+01 -2.215899999999999892e+01 -2.868499999999999872e+01 9.051802000000000348e+00 1.348078180573753504e-01
7.532099999999999795e+01 -3.710600000000000165e+01 -1.754799999999999827e+01 1.719514999999999905e+00 3.006188401056569814e-01
7.532899999999999352e+01 -1.584699999999999953e+01 -2.850199999999999889e+01 1.480475999999999992e+01 -1.104304567633527523e-01
7.534499999999999886e+01 -3.269200000000000017e+01 -1.932799999999999940e+01 2.477711000000000219e+00 4.670078885785352435e-02
7.534499999999999886e+01 -3.182700000000000173e+01 -1.932799999999999940e+01 -3.048637999999999959e+00 5.018193003661751417e-02
7.537399999999999523e+01 -2.489799999999999969e+01 -3.039699999999999847e+01 1.001337000000000010e+01 -4.759072239572614826e-02
7.537399999999999523e+01 -2.310999999999999943e+01 -3.039699999999999847e+01 2.632757999999999932e+00 1.783001059326428384e-01
7.537600000000000477e+01 -1.930300000000000082e+01 -2.951599999999999824e+01 5.030695999999999835e+00 1.176677525608896824e-01
7.540200000000000102e+01 -2.052400000000000091e+01 -2.146600000000000108e+01 -4.046124999999999972e+01 -1.267213047822862149e-01
7.541400000000000148e+01 -2.346399999999999864e+01 -1.671900000000000119e+01 9.030568999999999846e+00 -1.077022175486218591e-01
7.543500000000000227e+01 -3.541199999999999903e+01 -2.369399999999999906e+01 4.237801000000000151e+00 1.865062267191811007e-01
7.543999999999999773e+01 -3.703699999999999903e+01 -2.207000000000000028e+01 7.600192999999999977e+00 2.482077538428174857e-01
7.544499999999999318e+01 -1.917800000000000082e+01 -2.410300000000000153e+01 2.334910999999999959e+01 -1.065920086771168923e-01
7.544899999999999807e+01 -2.317699999999999960e+01 -2.782199999999999918e+01 2.785172000000000203e+00 1.620621819130886876e-01
7.544899999999999807e+01 -2.231200000000000117e+01 -2.782199999999999918e+01 1.706859999999999999e+01 1.292533400496450602e-01
7.544899999999999807e+01 -2.106700000000000017e+01 -2.848900000000000077e+01 2.053275000000000006e+01 9.709190999652998755e-02
7.545799999999999841e+01 -2.754299999999999926e+01 -2.540399999999999991e+01 -1.194186000000000014e+01 1.922621582059441947e-01
7.548199999999999932e+01 -1.459399999999999942e+01 -3.036599999999999966e+01 -8.503018000000000853e+00 -1.111732466816081899e-01
7.548900000000000432e+01 -1.810800000000000054e+01 -3.046000000000000085e+01 2.646910000000000096e+00 1.419123484501564891e-01
7.550799999999999557e+01 -2.373300000000000054e+01 -1.767099999999999937e+01 -1.314286999999999983e+00 -1.175404184487323089e-01
7.551500000000000057e+01 -2.414300000000000068e+01 -1.828000000000000114e+01 -9.276472000000000051e-01 -1.207241739223099408e-01
7.551500000000000057e+01 -1.428400000000000070e+01 -2.967299999999999827e+01 3.105408999999999864e+00 -9.689293326065531731e-02
7.552200000000000557e+01 -1.680699999999999861e+01 -2.776500000000000057e+01 6.032856999999999914e+00 -1.246248879051096853e-01
7.553100000000000591e+01 -3.020899999999999963e+01 -2.264199999999999946e+01 -5.524663000000000324e+00 3.068584173718573102e-02
7.553300000000000125e+01 -1.673300000000000054e+01 -3.138100000000000023e+01 1.687102000000000102e+00 -1.531193884794130322e-01
7.553700000000000614e+01 -3.662500000000000000e+01 -2.356500000000000128e+01 6.908493999999999469e-01 2.485456809824054258e-01
7.557399999999999807e+01 -2.660699999999999932e+01 -2.551899999999999835e+01 -9.852774000000000254e-02 3.859393761515949456e-02
7.558299999999999841e+01 -3.694899999999999807e+01 -2.280799999999999983e+01 3.382582000000000089e-01 2.520380327094277062e-01
7.558700000000000330e+01 -2.344699999999999918e+01 -2.710300000000000153e+01 5.812157000000000018e-01 1.614247898893587940e-01
7.559099999999999397e+01 -2.723000000000000043e+01 -1.533699999999999974e+01 -3.894003999999999799e+00 9.268233501252075290e-02
7.559300000000000352e+01 -2.811700000000000088e+01 -1.554100000000000037e+01 -1.668083999999999900e+00 1.063708206147207652e-01
7.560200000000000387e+01 -3.647299999999999898e+01 -1.678200000000000003e+01 8.194525999999999755e-01 2.941089591723733965e-01
7.560200000000000387e+01 -3.477300000000000324e+01 -1.678200000000000003e+01 7.940997000000000305e+00 1.624997112795905085e-01
7.561700000000000443e+01 -2.882100000000000151e+01 -2.266300000000000026e+01 -9.589672000000000196e+00 1.715436528101048907e-01
7.562000000000000455e+01 -2.017099999999999937e+01 -2.228000000000000114e+01 -1.612769000000000119e+01 8.460945767506879156e-02
7.562500000000000000e+01 -2.053600000000000136e+01 -1.951500000000000057e+01 -4.560916999999999888e-01 -1.499132476945234937e-01
7.562500000000000000e+01 -2.053600000000000136e+01 -1.846499999999999986e+01 2.043649999999999878e+01 -1.453299854451913786e-01
7.562800000000000011e+01 -2.400400000000000134e+01 -3.039699999999999847e+01 6.558319000000000010e+00 -7.652337632125053024e-02
7.564000000000000057e+01 -1.534299999999999997e+01 -2.931599999999999895e+01 4.703959000000000223e+00 -1.148074375083822513e-01
7.564900000000000091e+01 -2.073100000000000165e+01 -2.032199999999999918e+01 -2.561756000000000033e-01 -1.506845140719802190e-01
7.565099999999999625e+01 -3.154500000000000171e+01 -1.846699999999999875e+01 3.232749000000000095e+00 -9.411235696555361741e-02
7.565300000000000580e+01 -2.768799999999999883e+01 -2.342099999999999937e+01 -7.707013000000000336e-01 1.818151898042628112e-01
7.565999999999999659e+01 -2.762399999999999878e+01 -2.437500000000000000e+01 -1.487397999999999998e+00 2.898349604432915935e-02
7.566899999999999693e+01 -2.191100000000000136e+01 -1.754400000000000048e+01 -7.189950999999999759e+00 -1.228584302517397725e-01
7.567400000000000659e+01 -1.862500000000000000e+01 -2.466499999999999915e+01 1.866368999999999900e+01 -1.082887430161427050e-01
7.568699999999999761e+01 -2.496000000000000085e+01 -1.806700000000000017e+01 -3.232717000000000063e+00 1.977218085535172032e-01
7.568899999999999295e+01 -1.642000000000000171e+01 -2.850900000000000034e+01 9.903753000000000029e+00 -1.296232550413138340e-01
7.569499999999999318e+01 -2.005000000000000071e+01 -2.318299999999999983e+01 7.285229000000000177e+00 7.803778939893163402e-02
7.570300000000000296e+01 -2.966700000000000159e+01 -1.601500000000000057e+01 1.999522000000000022e+00 -9.147051510424554499e-02
7.570999999999999375e+01 -3.303399999999999892e+01 -2.285800000000000054e+01 -1.015682999999999936e+01 1.682943922701249928e-01
7.571099999999999852e+01 -2.454799999999999827e+01 -2.611299999999999955e+01 5.251396000000000397e-01 1.868904486521819064e-01
7.571099999999999852e+01 -1.536299999999999955e+01 -3.031299999999999883e+01 6.977349000000000467e-01 -1.271282602795761885e-01
7.571500000000000341e+01 -2.553399999999999892e+01 -1.525399999999999956e+01 -1.134520000000000017e+01 7.196700569774305833e-02
7.571899999999999409e+01 -1.985800000000000054e+01 -2.886299999999999955e+01 9.743710000000000093e+00 6.725189707843667875e-02
7.572100000000000364e+01 -1.761499999999999844e+01 -2.649200000000000088e+01 4.413904000000000138e+01 -1.241146328836408574e-01
7.572499999999999432e+01 -2.710999999999999943e+01 -2.470400000000000063e+01 8.744836000000000276e-01 2.788263961248944531e-02
7.574500000000000455e+01 -2.465700000000000003e+01 -1.566699999999999982e+01 -2.699896999999999991e+00 1.928795522568410303e-01
7.575199999999999534e+01 -2.036700000000000088e+01 -2.854799999999999827e+01 1.867036999999999836e+01 7.303474824191984183e-02
7.575499999999999545e+01 -2.291900000000000048e+01 -1.759299999999999997e+01 -2.058136000000000132e-01 -1.216318302291694853e-01
7.576800000000000068e+01 -2.331299999999999883e+01 -1.843199999999999861e+01 -9.033109000000000277e-01 -1.271512556891548629e-01
7.577800000000000580e+01 -1.858200000000000074e+01 -2.965399999999999991e+01 1.584938000000000002e+01 1.311955593024006494e-01
7.580899999999999750e+01 -3.706000000000000227e+01 -2.071499999999999986e+01 6.647757000000000360e+00 1.943892693252186610e-01
7.581600000000000250e+01 -3.093900000000000006e+01 -2.257199999999999918e+01 -5.573380000000000223e+00 1.400356792559018584e-02
7.581900000000000261e+01 -2.449399999999999977e+01 -1.919200000000000017e+01 1.704963000000000051e+01 1.642257542841484841e-01
7.581900000000000261e+01 -2.362900000000000134e+01 -1.919200000000000017e+01 1.229302999999999990e+01 -1.299730069218479334e-01
7.582099999999999795e+01 -3.323199999999999932e+01 -1.857199999999999918e+01 8.234531999999999741e+00 1.336131077768311012e-02
7.583599999999999852e+01 -3.669200000000000017e+01 -2.139000000000000057e+01 4.880397000000000318e+00 2.013283475657873522e-01
7.586700000000000443e+01 -3.471200000000000330e+01 -2.342699999999999960e+01 -5.443386000000000280e+00 1.791509680918933478e-01
7.587300000000000466e+01 -2.941199999999999903e+01 -2.262099999999999866e+01 -7.062354000000000021e+00 9.743607278663976579e-02
7.587999999999999545e+01 -1.829100000000000037e+01 -2.520499999999999829e+01 3.197175999999999974e+01 -1.150293274933074095e-01
7.589799999999999613e+01 -2.481099999999999994e+01 -1.728800000000000026e+01 -1.348709999999999987e+01 2.009659055870314237e-01
7.592000000000000171e+01 -2.290299999999999869e+01 -2.727700000000000102e+01 4.288187999999999889e+00 1.341571372648536209e-01
7.592000000000000171e+01 -2.812099999999999866e+01 -2.272100000000000009e+01 -5.974433000000000327e+00 1.638890115507619094e-01
7.593099999999999739e+01 -3.664099999999999824e+01 -2.250300000000000011e+01 2.216952000000000034e+00 2.125941370898284666e-01
7.595499999999999829e+01 -1.750700000000000145e+01 -2.749800000000000111e+01 7.898024999999999629e+00 -1.462283882483205733e-01
7.595999999999999375e+01 -2.637999999999999901e+01 -1.526600000000000001e+01 -8.855672999999999462e+00 8.978399453722273049e-02
7.596299999999999386e+01 -1.961700000000000088e+01 -2.388299999999999912e+01 3.509338999999999942e+01 7.501141689727386375e-02
7.596299999999999386e+01 -2.447500000000000142e+01 -1.651300000000000168e+01 1.022914000000000101e+00 1.997701041563512414e-01
7.598900000000000432e+01 -3.368699999999999761e+01 -2.323999999999999844e+01 -4.505734000000000350e+00 1.700721065927584541e-01
7.599299999999999500e+01 -3.101800000000000068e+01 -1.769200000000000017e+01 8.621043999999999929e-01 -9.310799231761769656e-02
7.601399999999999579e+01 -1.725799999999999912e+01 -3.078500000000000014e+01 5.482618999999999687e+00 1.572676091940799215e-01
7.601399999999999579e+01 -1.620799999999999841e+01 -3.078500000000000014e+01 3.590123000000000175e+00 -1.495191804030076010e-01
7.601399999999999579e+01 -1.620799999999999841e+01 -2.908500000000000085e+01 1.393992000000000075e+01 -1.372365187404517850e-01
7.601600000000000534e+01 -3.624900000000000233e+01 -2.307499999999999929e+01 6.908493999999999469e-01 2.043064654703898031e-01
7.604399999999999693e+01 -3.761500000000000199e+01 -1.871799999999999997e+01 3.733290999999999915e+00 3.007193570463935206e-01
7.605500000000000682e+01 -3.748499999999999943e+01 -1.978200000000000003e+01 1.281406999999999963e+00 1.798690725897275633e-01
7.606699999999999307e+01 -2.498999999999999844e+01 -1.609299999999999997e+01 3.037155999999999745e-01 2.046447238359863086e-01
7.607200000000000273e+01 -2.881700000000000017e+01 -1.594400000000000084e+01 4.541604000000000418e+00 1.244706313603851644e-01
7.608499999999999375e+01 -1.583900000000000041e+01 -2.993499999999999872e+01 4.886203000000000074e+00 -1.382422576597004960e-01
7.608799999999999386e+01 -3.366499999999999915e+01 -1.787199999999999989e+01 9.050280000000000769e+00 1.767378738445640196e-01
7.609199999999999875e+01 -2.168900000000000006e+01 -2.053999999999999915e+01 4.756836999999999982e+00 9.071768317146776395e-02
7.610099999999999909e+01 -3.024099999999999966e+01 -1.675600000000000023e+01 1.747867999999999977e+00 -9.166263419514406041e-02
7.610599999999999454e+01 -1.911599999999999966e+01 -2.426800000000000068e+01 8.383128999999999564e+01 -1.168593381778309237e-01
7.612399999999999523e+01 -3.253199999999999648e+01 -1.862999999999999901e+01 3.965440000000000254e+01 4.831777162833851558e-02
7.612699999999999534e+01 -3.706900000000000261e+01 -1.726300000000000168e+01 2.497147000000000006e+00 2.949725183729571265e-01
7.612699999999999534e+01 -3.562299999999999756e+01 -1.645700000000000074e+01 7.012678000000000189e+00 1.425951949861379298e-01
7.612699999999999534e+01 -3.417699999999999960e+01 -1.726300000000000168e+01 1.223375000000000057e+01 1.707566156150389924e-01
7.614300000000000068e+01 -3.233400000000000318e+01 -2.259100000000000108e+01 -4.972374000000000294e+00 2.809299341763478175e-01
7.614900000000000091e+01 -2.204500000000000171e+01 -2.739000000000000057e+01 1.099277999999999977e+01 9.671526257851012498e-02
7.615000000000000568e+01 -1.759100000000000108e+01 -2.828399999999999892e+01 6.135021000000000058e+00 -1.642223396481128639e-01
7.615000000000000568e+01 -2.243599999999999994e+01 -1.814000000000000057e+01 -1.677430999999999894e+00 -1.328936139908698799e-01
7.615000000000000568e+01 -2.138599999999999923e+01 -2.123999999999999844e+01 -4.440061000000000146e-01 7.305418794942260263e-02
7.615000000000000568e+01 -2.138599999999999923e+01 -1.983999999999999986e+01 6.845723999999999698e+00 -1.559667581684074100e-01
7.615000000000000568e+01 -2.138599999999999923e+01 -1.814000000000000057e+01 -8.412950000000000372e+00 -1.365348510108907176e-01
7.615099999999999625e+01 -2.722800000000000153e+01 -2.394200000000000017e+01 -1.270942999999999934e+00 1.845609913043167183e-01
7.615099999999999625e+01 -1.900700000000000145e+01 -2.903699999999999903e+01 3.476328000000000173e+01 1.174903536274502641e-01
7.615399999999999636e+01 -2.551000000000000156e+01 -2.573900000000000077e+01 8.108803999999999235e+00 1.068617342051924116e-02
7.615800000000000125e+01 -2.641000000000000014e+01 -2.497100000000000009e+01 2.997176000000000062e+00 1.540591803944156915e-02
7.616500000000000625e+01 -1.792599999999999838e+01 -2.605799999999999983e+01 2.066043000000000163e+01 -1.309288570357532988e-01
7.616500000000000625e+01 -1.720100000000000051e+01 -2.906299999999999883e+01 5.693247999999999642e+00 -1.632397875324535785e-01
7.617400000000000659e+01 -2.779200000000000159e+01 -1.584200000000000053e+01 4.375257999999999647e+00 1.163470615096728611e-01
7.617799999999999727e+01 -1.981899999999999906e+01 -2.866900000000000048e+01 4.314351000000000269e+00 9.463147237948385526e-02
7.619100000000000250e+01 -2.360900000000000176e+01 -2.663800000000000168e+01 2.832561000000000107e+00 1.478570835800895877e-01
7.620600000000000307e+01 -2.110200000000000031e+01 -2.810699999999999932e+01 5.857385999999999981e+00 7.261174024315729392e-02
7.620999999999999375e+01 -1.764900000000000091e+01 -2.993100000000000094e+01 2.853238999999999859e+00 1.519333075282771617e-01
7.620999999999999375e+01 -2.050799999999999912e+01 -2.271399999999999864e+01 -1.253811999999999927e+01 3.488964781200498133e-01
7.621500000000000341e+01 -2.406200000000000117e+01 -1.968299999999999983e+01 1.765137000000000000e+01 1.535433343181110133e-01
7.622100000000000364e+01 -2.280499999999999972e+01 -1.898999999999999844e+01 4.156909999999999772e-01 -1.368523960784148175e-01
7.622100000000000364e+01 -2.101699999999999946e+01 -1.898999999999999844e+01 -3.589700000000000113e+00 -1.570754274832997788e-01
7.622400000000000375e+01 -2.076599999999999824e+01 -2.211400000000000077e+01 -3.762780999999999665e+01 3.546915916612262132e-01
7.626000000000000512e+01 -2.530699999999999861e+01 -1.876800000000000068e+01 4.131370000000000431e+00 1.723331298014909863e-01
7.627200000000000557e+01 -3.137600000000000122e+01 -2.251099999999999923e+01 -5.203985999999999557e+00 -1.897652150569862240e-03
7.627899999999999636e+01 -2.310800000000000054e+01 -1.969000000000000128e+01 1.055682999999999971e+01 -1.376465420334418988e-01
7.628400000000000603e+01 -1.803999999999999915e+01 -2.725600000000000023e+01 1.618778999999999968e+01 -1.626307198181147773e-01
7.628799999999999670e+01 -1.807199999999999918e+01 -2.907499999999999929e+01 8.461788000000000309e+00 1.450590431292328730e-01
7.631900000000000261e+01 -2.500300000000000011e+01 -1.946799999999999997e+01 2.664864999999999995e+01 1.596941969810710960e-01
7.632699999999999818e+01 -3.629599999999999937e+01 -2.182300000000000040e+01 -9.786719999999999864e-01 2.054811670246325384e-01
7.632699999999999818e+01 -3.629599999999999937e+01 -2.095799999999999841e+01 4.242967999999999740e-01 1.966688897665317404e-01
7.633899999999999864e+01 -1.673300000000000054e+01 -2.993499999999999872e+01 7.034351000000000020e+00 -1.614593262866142742e-01
7.634699999999999420e+01 -3.017999999999999972e+01 -2.276399999999999935e+01 -5.676019000000000148e+00 2.278333896191157490e-02
7.635299999999999443e+01 -2.882100000000000151e+01 -2.245400000000000063e+01 -2.743400000000000105e+01 1.563356363328296250e-01
7.635299999999999443e+01 -2.762999999999999901e+01 -2.311799999999999855e+01 -1.080319999999999947e+00 1.617658224919955035e-01
7.635899999999999466e+01 -2.035300000000000153e+01 -2.320599999999999952e+01 1.767922000000000082e+01 3.437442698061323187e-01
7.643399999999999750e+01 -3.624799999999999756e+01 -2.252799999999999869e+01 -1.312491000000000074e+00 2.064830528044478974e-01
7.643399999999999750e+01 -3.592300000000000182e+01 -2.326599999999999824e+01 -1.813093000000000066e+00 1.978163055178197849e-01
7.644100000000000250e+01 -2.690500000000000114e+01 -1.586200000000000010e+01 1.665691999999999950e+01 1.117783139910394352e-01
7.644100000000000250e+01 -2.585500000000000043e+01 -1.586200000000000010e+01 5.943878000000000128e+01 2.190405026304783065e-01
7.644700000000000273e+01 -1.852799999999999869e+01 -2.826200000000000045e+01 2.737237999999999971e+01 1.348586456249025456e-01
7.646699999999999875e+01 -3.150900000000000034e+01 -1.808899999999999864e+01 1.028251999999999988e+01 -9.295298258326624430e-02
7.646699999999999875e+01 -3.049800000000000111e+01 -1.723000000000000043e+01 4.126045999999999658e+00 -9.137443804591675878e-02
7.647499999999999432e+01 -2.191100000000000136e+01 -1.898999999999999844e+01 -3.783669999999999867e+00 -1.441524655523567788e-01
7.649800000000000466e+01 -2.224599999999999866e+01 -2.707000000000000028e+01 1.099277999999999977e+01 8.910410703506084495e-02
7.649899999999999523e+01 -2.569000000000000128e+01 -1.846300000000000097e+01 -6.127049000000000412e+00 1.782681692701782172e-01
7.651200000000000045e+01 -2.548600000000000065e+01 -1.671199999999999974e+01 1.755748000000000086e+00 2.174139792427368933e-01
7.652100000000000080e+01 -3.296500000000000341e+01 -1.813899999999999935e+01 1.636109000000000080e+01 9.594666455398336014e-02
7.652400000000000091e+01 -2.573100000000000165e+01 -1.755799999999999983e+01 -6.282016999999999740e+00 2.153765020230936078e-01
7.655299999999999727e+01 -2.934199999999999875e+01 -1.653999999999999915e+01 3.498594000000000204e+00 -8.889726641389369965e-02
7.655299999999999727e+01 -2.829200000000000159e+01 -1.653999999999999915e+01 2.142221999999999937e+01 1.263418178640933753e-01
7.656999999999999318e+01 -1.944000000000000128e+01 -2.833699999999999974e+01 3.379527999999999821e+01 1.005126306392042368e-01
7.657500000000000284e+01 -2.025199999999999889e+01 -2.817800000000000082e+01 1.175878999999999941e+01 4.100417211254477751e-02
7.657599999999999341e+01 -3.303399999999999892e+01 -2.285800000000000054e+01 -8.228360000000000340e+00 2.800758821737946436e-01
7.657800000000000296e+01 -2.223400000000000176e+01 -1.974699999999999989e+01 1.481635999999999953e+01 -1.447899106561277016e-01
7.657999999999999829e+01 -1.867699999999999960e+01 -2.476399999999999935e+01 1.516586000000000070e+02 -1.255505028831988557e-01
7.658299999999999841e+01 -2.208599999999999852e+01 -2.097299999999999898e+01 1.260959000000000074e+01 3.771782599586670504e-01
7.658400000000000318e+01 -3.726200000000000045e+01 -1.921900000000000119e+01 1.219546000000000063e+01 1.012190221355873387e-01
7.660200000000000387e+01 -2.434400000000000119e+01 -2.619699999999999918e+01 2.487153999999999865e+00 1.615860374887367890e-01
7.660800000000000409e+01 -2.729200000000000159e+01 -1.660600000000000165e+01 2.715885999999999800e+00 1.181411595110418017e-01
7.661100000000000421e+01 -2.660099999999999909e+01 -2.429899999999999949e+01 8.421412000000000342e-01 -8.213524910780384963e-04
7.661799999999999500e+01 -1.833599999999999852e+01 -2.556700000000000017e+01 5.770839000000000141e+01 -1.386600696354143847e-01
7.662399999999999523e+01 -2.166300000000000026e+01 -2.738599999999999923e+01 9.745734000000000563e+00 6.770005188354102921e-02
7.662699999999999534e+01 -1.992099999999999937e+01 -2.390599999999999881e+01 8.293398000000000536e+01 3.366652595275126392e-01
7.665200000000000102e+01 -3.647299999999999898e+01 -1.678200000000000003e+01 4.117524999999999658e+00 2.882665081436002752e-01
7.665200000000000102e+01 -3.477300000000000324e+01 -1.678200000000000003e+01 4.969126000000000154e+00 1.592707006446701101e-01
7.667000000000000171e+01 -3.674000000000000199e+01 -2.018799999999999883e+01 2.089839000000000002e+00 1.518879624513438109e-01
7.667600000000000193e+01 -2.354100000000000037e+01 -2.018100000000000094e+01 1.784834000000000032e+01 1.415628425878421859e-01
7.667900000000000205e+01 -1.883099999999999952e+01 -2.743700000000000117e+01 3.609725000000000250e+01 1.291327372013361952e-01
7.668000000000000682e+01 -3.537299999999999756e+01 -2.352700000000000102e+01 -4.699720000000000120e+00 1.864482874319058348e-01
7.670499999999999829e+01 -3.067599999999999838e+01 -2.277799999999999869e+01 -4.965244000000000213e+00 7.909334454739864323e-03
7.671200000000000330e+01 -3.389800000000000324e+01 -1.746399999999999864e+01 5.907504000000000310e+00 1.728283533134560845e-01
7.671500000000000341e+01 -2.457000000000000028e+01 -1.995899999999999963e+01 3.819633000000000322e+01 1.480790766582202600e-01
7.675100000000000477e+01 -2.570299999999999940e+01 -1.919999999999999929e+01 -8.390826000000000562e+00 1.641064011021019231e-01
7.676600000000000534e+01 -2.637999999999999901e+01 -1.671199999999999974e+01 2.261833000000000027e+01 2.255452519993958460e-01
7.676900000000000546e+01 -2.111100000000000065e+01 -2.271900000000000119e+01 -1.468590999999999980e+00 3.464280558059894544e-01
7.678600000000000136e+01 -2.812099999999999866e+01 -2.272100000000000009e+01 -3.639726000000000017e+00 1.483010249584590934e-01
7.681399999999999295e+01 -2.151899999999999835e+01 -2.177499999999999858e+01 -4.407195999999999891e+00 3.716741355339368003e-01
7.682099999999999795e+01 -2.941199999999999903e+01 -2.262099999999999866e+01 -5.046562999999999910e+00 5.854834655815210898e-02
7.685800000000000409e+01 -2.635200000000000031e+01 -2.466799999999999926e+01 8.421412000000000342e-01 -4.886750388427086970e-03
7.686299999999999955e+01 -3.367199999999999704e+01 -2.339900000000000091e+01 -1.022110999999999947e+01 1.665660259352282069e-01
7.686899999999999977e+01 -2.794699999999999918e+01 -1.723799999999999955e+01 2.463786000000000032e-01 1.116212306050552439e-01
7.687800000000000011e+01 -2.703399999999999892e+01 -2.359900000000000020e+01 -1.336191999999999935e-01 1.562366506981630043e-01
7.687900000000000489e+01 -3.233400000000000318e+01 -2.280000000000000071e+01 -5.955325000000000202e+00 2.841538870340813427e-01
7.688500000000000512e+01 -2.970499999999999829e+01 -1.719399999999999906e+01 5.359649000000000107e+00 -8.953785600991345794e-02
7.689499999999999602e+01 -2.267899999999999849e+01 -2.657900000000000063e+01 1.404073999999999955e+01 8.611792095563172711e-02
7.694100000000000250e+01 -3.220900000000000318e+01 -1.835600000000000165e+01 1.727664000000000044e+01 2.572785437597290698e-02
7.694599999999999795e+01 -3.091300000000000026e+01 -1.774899999999999878e+01 2.079666999999999888e+01 -9.177751434794929886e-02
7.695099999999999341e+01 -2.694699999999999918e+01 -1.732499999999999929e+01 -2.147536000000000111e+00 3.158487611374261039e-01
7.697700000000000387e+01 -3.699799999999999756e+01 -1.868199999999999861e+01 3.276625000000000121e+00 2.953874408821382525e-01
7.697700000000000387e+01 -3.699799999999999756e+01 -1.763200000000000145e+01 3.644197000000000131e+00 2.919939930071367984e-01
7.699399999999999977e+01 -2.881700000000000017e+01 -1.727499999999999858e+01 1.713049000000000044e+00 1.130286159800005102e-01
7.700799999999999557e+01 -3.137600000000000122e+01 -2.271999999999999886e+01 -5.381428999999999796e+00 -1.320236930196397318e-02
7.701900000000000546e+01 -2.526999999999999957e+01 -1.989999999999999858e+01 3.863741000000000270e+01 1.491181232890684549e-01
7.702100000000000080e+01 -3.562299999999999756e+01 -1.671099999999999852e+01 5.840024999999999800e+00 2.855714982378801392e-01
7.702200000000000557e+01 -2.264900000000000091e+01 -2.020899999999999963e+01 1.060190000000000055e+01 4.963422658199509452e-02
7.703600000000000136e+01 -2.067899999999999849e+01 -2.341900000000000048e+01 3.260748999999999853e+01 3.388153780119336211e-01
7.703700000000000614e+01 -2.407999999999999829e+01 -2.028000000000000114e+01 2.689936000000000149e+01 1.389963898098516282e-01
7.704000000000000625e+01 -2.616799999999999926e+01 -1.794999999999999929e+01 -9.717783999999999978e+00 1.883594211753792103e-01
7.705599999999999739e+01 -2.077700000000000102e+01 -2.758200000000000074e+01 8.813297000000000381e+00 2.811167477608792972e-02
7.705599999999999739e+01 -1.972700000000000031e+01 -2.758200000000000074e+01 3.490366000000000213e+01 8.590293979811390590e-02
7.705899999999999750e+01 -1.922100000000000009e+01 -2.432499999999999929e+01 1.233190000000000026e+02 -1.346453657076217003e-01
7.712699999999999534e+01 -2.349399999999999977e+01 -2.652199999999999847e+01 3.538974000000000064e+00 1.109767312805610695e-01
7.713400000000000034e+01 -3.618999999999999773e+01 -2.062900000000000134e+01 -2.594467999999999996e+00 1.506667014067445964e-01
7.713400000000000034e+01 -3.609199999999999875e+01 -2.216300000000000026e+01 -8.780927000000000149e+00 2.039097605495730769e-01
7.713400000000000034e+01 -3.598100000000000165e+01 -2.136499999999999844e+01 -6.206972000000000378e+00 2.155930277773914217e-01
7.713400000000000034e+01 -3.586500000000000199e+01 -2.296199999999999974e+01 -4.116221999999999603e+00 1.975934108305360815e-01
7.713400000000000034e+01 -3.457200000000000273e+01 -2.368299999999999983e+01 -2.880602999999999803e+00 1.727779289269603669e-01
7.714499999999999602e+01 -3.017999999999999972e+01 -2.265299999999999869e+01 -5.315877000000000407e+00 7.546685880572868987e-03
7.714700000000000557e+01 -2.548799999999999955e+01 -2.558800000000000097e+01 2.758011999999999908e+00 -1.847167048634646563e-02
7.715800000000000125e+01 -1.913599999999999923e+01 -2.689499999999999957e+01 5.797536000000000200e+01 1.162566346286992014e-01
7.717700000000000671e+01 -3.338000000000000256e+01 -1.790599999999999881e+01 1.159145000000000003e+01 2.111610982458535513e-01
7.719100000000000250e+01 -2.883599999999999852e+01 -2.261899999999999977e+01 -3.486816999999999833e+00 1.446337815218913803e-01
7.719199999999999307e+01 -2.496999999999999886e+01 -2.583999999999999986e+01 -1.015670999999999990e+00 -3.014261738955818087e-02
7.719799999999999329e+01 -2.197899999999999920e+01 -2.663800000000000168e+01 8.555820000000000647e+00 4.950037644368716211e-02
7.726300000000000523e+01 -2.612800000000000011e+01 -1.851300000000000168e+01 -4.031801000000000101e+01 1.757079495054222340e-01
7.726600000000000534e+01 -2.751399999999999935e+01 -1.772899999999999920e+01 -2.941836999999999946e+01 2.811571978691911888e-01
7.727200000000000557e+01 -2.587000000000000099e+01 -1.930499999999999972e+01 -2.219150000000000134e+01 1.593632551857313562e-01
7.728199999999999648e+01 -3.013800000000000168e+01 -1.768400000000000105e+01 1.132612000000000023e+02 -9.023903911795191912e-02
7.728300000000000125e+01 -3.639800000000000324e+01 -1.983599999999999852e+01 -8.541442999999999952e-02 1.410717541401760589e-01
7.728300000000000125e+01 -2.214399999999999835e+01 -2.127599999999999980e+01 1.084340999999999999e+00 3.737862783049835658e-01
7.729200000000000159e+01 -3.667199999999999704e+01 -1.899500000000000099e+01 3.712549000000000099e+00 2.447374630854629307e-01
7.730599999999999739e+01 -2.106400000000000006e+01 -2.692999999999999972e+01 2.300198999999999927e+01 2.057274680062797997e-02
7.731999999999999318e+01 -3.279899999999999949e+01 -2.331899999999999906e+01 -4.815544000000000047e+00 2.840942806186829150e-01
7.733899999999999864e+01 -2.766100000000000136e+01 -2.279700000000000060e+01 -1.951745999999999981e+00 1.318097331375798209e-01
7.734000000000000341e+01 -2.478000000000000114e+01 -2.022200000000000131e+01 1.643000999999999934e+01 1.394319364733510036e-01
7.735500000000000398e+01 -1.874200000000000088e+01 -2.605799999999999983e+01 5.286200000000000188e+01 1.453541938639554831e-01
7.735500000000000398e+01 -1.874200000000000088e+01 -2.510000000000000142e+01 9.538927999999999940e+01 -1.508596502083130453e-01
7.739000000000000057e+01 -2.932100000000000151e+01 -1.776599999999999824e+01 2.011338999999999899e+01 1.036401974244534341e-01
7.739499999999999602e+01 -3.493299999999999983e+01 -1.714000000000000057e+01 7.398449000000000275e+00 1.557877811890272246e-01
7.740500000000000114e+01 -3.180900000000000105e+01 -2.321099999999999852e+01 -2.834356000000000098e+00 -2.436203488349431706e-02
7.746500000000000341e+01 -3.139300000000000068e+01 -1.816400000000000148e+01 3.617148000000000252e+01 -9.227828473893325001e-02
7.746899999999999409e+01 -2.117000000000000171e+01 -2.302199999999999847e+01 8.289740000000000109e+00 3.411435689522812065e-01
7.747199999999999420e+01 -2.601300000000000168e+01 -2.473799999999999955e+01 -9.708928000000000003e-01 -2.754070362046301401e-02
7.747400000000000375e+01 -2.141100000000000136e+01 -2.223400000000000176e+01 -3.418661000000000172e+00 3.660108098975408120e-01
7.747499999999999432e+01 -2.637000000000000099e+01 -2.392500000000000071e+01 -1.389361999999999986e+00 1.375934248639905655e-01
7.747599999999999909e+01 -2.340299999999999869e+01 -2.041100000000000136e+01 1.239433999999999969e+01 3.585850084176336883e-01
