6.037100000000000222e+01 3.249799999999999756e+01 2.022100000000000009e+01 -1.580325999999999986e+01 5.960344173172472948e-02
6.037199999999999989e+01 1.047600000000000087e+01 3.304500000000000171e+01 5.423931999999999753e+00 -2.771969468457549657e-01
6.038100000000000023e+01 8.526600000000000179e+00 2.627899999999999991e+01 3.289741999999999944e+00 -3.089064781055227416e-01
6.038700000000000045e+01 5.101899999999999658e+00 1.249000000000000021e+01 -1.434952999999999967e+01 -3.442648427297658187e-01
6.038700000000000045e+01 6.700099999999999945e+00 1.249000000000000021e+01 -2.906343000000000032e+01 -8.726186223805675740e-04
6.039699999999999847e+01 1.946399999999999864e+01 3.834300000000000352e+01 2.331488999999999923e+00 -3.071261956299352613e-01
6.040200000000000102e+01 1.534600000000000009e+01 1.242200000000000060e+01 -5.637572000000000116e+01 5.433541618498518438e-02
6.040200000000000102e+01 1.674599999999999866e+01 1.242200000000000060e+01 -2.677324000000000126e+01 5.249014041317736495e-02
6.040500000000000114e+01 3.143900000000000006e+01 2.053999999999999915e+01 -1.982411000000000101e+01 6.026601818132352323e-02
6.040800000000000125e+01 9.281599999999999184e+00 1.083799999999999919e+01 -2.811101999999999990e+01 6.027451762032273036e-02
6.040800000000000125e+01 9.281599999999999184e+00 1.170400000000000063e+01 -2.621693000000000140e+01 7.717973079557215177e-02
6.041499999999999915e+01 1.441699999999999982e+01 9.003800000000000026e+00 -3.267723000000000155e+01 2.644457828062766330e-02
6.041599999999999682e+01 1.192699999999999960e+01 3.467600000000000193e+01 9.457073000000000285e-01 -3.102428729882774627e-01
6.041700000000000159e+01 1.146799999999999997e+01 3.320799999999999841e+01 5.959052999999999933e+00 -3.112327156086396318e-01
6.042799999999999727e+01 3.240699999999999648e+01 3.791199999999999903e+00 5.237017999999999951e+00 1.454734980214763586e-02
6.043099999999999739e+01 1.212700000000000067e+01 5.101300000000000168e+00 8.481241000000000696e+00 1.810041409976636817e-01
6.043399999999999750e+01 1.714399999999999835e+01 4.325999999999999801e+01 1.449897999999999954e+01 -3.818724217705979918e-01
6.043900000000000006e+01 2.145400000000000063e+01 -3.820699999999999985e+00 -3.956007000000000273e-01 -1.452170318811245309e-01
6.044500000000000028e+01 2.496900000000000119e+01 1.068100000000000049e+00 5.309365000000000334e-01 -1.524864923631368552e-01
6.044599999999999795e+01 1.820200000000000173e+01 4.419699999999999740e+00 7.570711000000000013e+01 1.989334541872444240e-01
6.044800000000000040e+01 1.080199999999999960e+01 4.243500000000000050e+00 1.065065000000000062e+01 1.834058267521087582e-01
6.045000000000000284e+01 5.431300000000000239e+00 1.173000000000000043e+01 -4.010532999999999682e+00 9.495156138798038423e-03
6.045000000000000284e+01 6.370700000000000252e+00 1.173000000000000043e+01 -7.961988999999999983e+00 -1.171562005833439411e-02
6.045100000000000051e+01 1.555000000000000071e+01 7.380200000000000315e+00 -1.701964999999999861e+01 1.825450209871606888e-01
6.045100000000000051e+01 1.555000000000000071e+01 8.245499999999999829e+00 -2.017834999999999823e+01 1.794436635388101386e-01
6.045100000000000051e+01 2.301099999999999923e+01 -3.710700000000000109e+00 -9.655756999999999479e+00 -1.459086575022616183e-01
6.045700000000000074e+01 2.176200000000000045e+01 1.010899999999999910e+00 -2.367032000000000025e+00 -1.532142150377059087e-01
6.046099999999999852e+01 1.297799999999999976e+01 3.344700000000000273e+01 -2.080076000000000036e+00 -3.103526321183293635e-01
6.046300000000000097e+01 6.571600000000000108e+00 2.135699999999999932e+01 1.552519999999999989e+01 -3.499489432856953686e-01
6.046500000000000341e+01 3.038899999999999935e+01 2.252100000000000080e+01 -7.153948999999999891e+00 6.243748597238477777e-02
6.046500000000000341e+01 3.038899999999999935e+01 2.338599999999999923e+01 -1.720660000000000167e+01 6.312200218802307972e-02
6.046500000000000341e+01 3.073400000000000176e+01 2.173900000000000077e+01 -1.100017000000000067e+01 6.160680757515607509e-02
6.046500000000000341e+01 7.038499999999999979e+00 4.440800000000000125e+01 7.738055000000000350e-01 -1.810800111302789395e-01
6.046699999999999875e+01 3.285199999999999676e+01 1.709499999999999886e+01 -1.818706999999999852e+01 -2.729765774494959454e-02
6.046800000000000352e+01 3.296300000000000097e+01 1.789199999999999946e+01 -3.587767000000000195e+01 -2.678888906947494639e-02
6.046999999999999886e+01 3.342499999999999716e+01 1.970299999999999940e+01 3.266996999999999818e-01 -2.570249006000242115e-02
6.046999999999999886e+01 1.328100000000000058e+01 4.456600000000000250e+01 -1.028698999999999941e+01 -3.960426148643964028e-01
6.047599999999999909e+01 3.331900000000000261e+01 1.862399999999999878e+01 -1.914904999999999902e+01 -2.632310388624780131e-02
6.047999999999999687e+01 2.033299999999999841e+01 2.294999999999999929e+00 -2.464924999999999855e+01 1.997514481620373678e-02
6.048299999999999699e+01 1.740200000000000102e+01 1.354899999999999949e+01 -1.602768000000000015e+01 5.697254875481737313e-02
6.048299999999999699e+01 1.740200000000000102e+01 1.441499999999999915e+01 -9.597343999999999653e+00 6.055552907996859802e-02
6.048499999999999943e+01 6.944399999999999906e+00 4.827600000000000335e+01 4.265666999999999653e+00 -1.800931287782691625e-01
6.049000000000000199e+01 8.836700000000000443e+00 2.778099999999999881e+01 4.332743999999999929e+00 -3.082485063238301626e-01
6.049000000000000199e+01 3.974199999999999733e+01 7.719999999999999751e+00 -2.180567999999999884e+01 1.132944715970237229e-02
6.049000000000000199e+01 1.844099999999999895e+01 3.636099999999999888e+00 1.894677000000000078e+01 2.015452852119772875e-01
6.049099999999999966e+01 6.585399999999999920e+00 1.337800000000000011e+01 -3.055308000000000135e+01 1.183914925467178560e-02
6.049399999999999977e+01 9.593400000000000816e+00 4.481900000000000261e+01 -3.098365999999999953e+00 -3.966961881605448603e-01
6.049399999999999977e+01 1.045899999999999963e+01 4.481900000000000261e+01 2.384734000000000020e-01 -3.965262179185397029e-01
6.049399999999999977e+01 1.205499999999999972e+01 4.481900000000000261e+01 -3.078009999999999913e+00 -3.962437474648244917e-01
6.049600000000000222e+01 1.420899999999999963e+01 6.584800000000000431e+00 -6.266400000000000148e+01 1.806986468135149126e-01
6.049699999999999989e+01 1.762600000000000122e+01 6.897999999999999687e+00 8.078438000000000230e+00 1.896611970824825244e-01
6.050500000000000256e+01 2.590800000000000125e+01 9.689999999999999725e-01 -6.079871999999999943e+00 -1.522930152318506258e-01
6.050999999999999801e+01 3.830999999999999961e+00 1.873900000000000077e+01 1.631294999999999940e+00 4.305354190438930202e-03
6.051100000000000279e+01 2.961199999999999832e+01 2.445400000000000063e+01 -1.246832000000000029e+01 6.434948655556749220e-02
6.051100000000000279e+01 2.678200000000000003e+01 1.115900000000000070e+01 1.773723000000000027e+01 1.826509197022390674e-01
6.051100000000000279e+01 8.143900000000000361e+00 4.780599999999999739e+01 4.132418000000000369e+00 -3.969583671934110991e-01
6.051200000000000045e+01 9.230700000000000571e+00 1.384800000000000031e+00 8.605485000000000495e-01 1.289500670796852599e-01
6.051400000000000290e+01 3.699900000000000233e+01 9.349000000000000199e+00 -3.041281000000000034e+01 1.092094618863675634e-02
6.051899999999999835e+01 1.626899999999999835e+01 1.517300000000000004e+01 1.094786000000000023e-02 6.584167162488235858e-02
6.052100000000000080e+01 1.585699999999999932e+01 4.371000000000000085e+01 4.613043000000000227e+00 -3.956886588182458864e-01
6.052300000000000324e+01 3.538799999999999812e+01 1.178999999999999915e+01 -4.390297000000000338e+00 2.885655650356836466e-01
6.052400000000000091e+01 8.986299999999999955e+00 5.390000000000000346e-01 4.634028000000000036e-01 -6.988758869098304904e-02
6.052700000000000102e+01 7.360999999999999766e+00 2.453500000000000014e+01 6.952884000000000064e+00 -3.093590365418502630e-01
6.052700000000000102e+01 2.457400000000000162e+01 1.034299999999999997e+01 1.800024000000000157e+01 1.915252403219792066e-01
6.052799999999999869e+01 9.468099999999999739e+00 4.694800000000000040e+01 6.575294000000000416e+00 -3.967191499011809563e-01
6.053799999999999670e+01 2.243499999999999872e+01 3.884599999999999653e+01 -1.829571999999999932e+01 -3.068372066567843781e-01
6.054299999999999926e+01 2.066199999999999903e+01 1.534999999999999920e+00 -3.616123999999999938e+01 2.705699441460396315e-02
6.054500000000000171e+01 1.042200000000000060e+01 -4.401800000000000157e-01 1.469359999999999999e+00 -7.261701493577438216e-02
6.055199999999999960e+01 9.289999999999999147e+00 4.551899999999999835e+01 -7.805719999999999326e-02 -3.967646273269561652e-01
6.055700000000000216e+01 2.741700000000000159e+01 2.564000000000000057e+01 -1.627353000000000094e+01 -1.490737635415473050e-01
6.056400000000000006e+01 2.530699999999999861e+01 -1.998899999999999899e+00 4.776772000000000240e+00 2.510741819933800037e-02
6.056400000000000006e+01 2.624299999999999855e+01 -1.998899999999999899e+00 1.914914999999999878e+01 2.408139871526764411e-02
6.056600000000000250e+01 3.417399999999999949e+01 4.375399999999999956e+00 3.773287999999999975e+00 1.376444488601216362e-02
6.056799999999999784e+01 1.142300000000000004e+01 3.386099999999999710e+01 1.213751000000000024e+00 -3.109963622077154266e-01
6.056799999999999784e+01 1.243099999999999916e+01 3.386099999999999710e+01 -2.585063000000000222e-01 -3.104811408522465399e-01
6.056900000000000261e+01 1.431600000000000072e+01 4.425300000000000011e+01 -1.109937000000000040e+01 -3.959065321944529869e-01
6.057099999999999795e+01 3.583700000000000330e+01 1.151500000000000057e+01 7.913227000000000011e+00 2.890617864447808660e-01
6.057099999999999795e+01 7.042300000000000004e+00 1.420700000000000074e+01 -2.476824999999999832e+01 -3.406620259496698777e-01
6.057099999999999795e+01 7.907499999999999751e+00 1.420700000000000074e+01 -2.194565000000000055e+01 -3.576809057731537237e-03
6.057399999999999807e+01 8.652699999999999392e+00 3.158200000000000074e+01 4.057088000000000250e+00 -2.769244491228112226e-01
6.057699999999999818e+01 3.441599999999999682e+01 5.269999999999999574e+00 1.902281000000000111e+00 1.319687881370483137e-02
6.057999999999999829e+01 3.695799999999999841e+01 7.753000000000000114e+00 -2.726625999999999905e+01 1.160565236809706427e-02
6.058400000000000318e+01 9.613599999999999923e+00 4.628699999999999903e+01 -8.314162999999999970e-01 -3.967035458333019182e-01
6.058400000000000318e+01 2.277400000000000091e+01 3.128099999999999881e+01 -7.187039000000000399e+00 -4.500000000000000111e-01
6.058800000000000097e+01 8.564999999999999503e+00 4.148199999999999932e+01 -5.097807000000000033e-02 -3.969858685602337678e-01
6.058899999999999864e+01 2.078300000000000125e+01 3.884700000000000131e+01 -5.799464000000000397e+00 -3.070022720442803776e-01
6.059499999999999886e+01 9.354699999999999349e+00 -3.109999999999999987e-01 7.095871999999999735e-01 -7.126695581296704773e-02
6.059700000000000131e+01 7.213199999999999612e+00 1.268800000000000061e+01 -1.827833000000000041e+01 -1.132999240670159481e-02
6.059700000000000131e+01 8.078400000000000247e+00 1.268800000000000061e+01 -1.746236000000000033e+01 -2.518404151926863579e-02
6.059700000000000131e+01 1.210699999999999932e+01 1.399900000000000033e-01 7.786220999999999837e-01 -7.281800643292489494e-02
6.059899999999999665e+01 2.395400000000000063e+01 3.874799999999999756e+01 -2.603943999999999903e+01 -3.412086352995135630e-01
6.060000000000000142e+01 2.405300000000000082e+01 3.622800000000000153e+01 -1.402910999999999930e+01 -3.407532496714948400e-01
6.060099999999999909e+01 2.096600000000000108e+01 8.349999999999999645e-01 -4.540273000000000003e+00 -1.427788281969783468e-01
6.060099999999999909e+01 2.579700000000000060e+01 2.923699999999999832e+01 2.461448999999999998e+00 -3.414838809277210840e-01
6.060300000000000153e+01 1.572899999999999920e+01 1.516600000000000037e+01 -3.546660999999999841e+00 6.706057569045577316e-02
6.060499999999999687e+01 2.958299999999999841e+01 1.097300000000000075e+01 1.192528000000000077e+01 1.890686542860676722e-01
6.060499999999999687e+01 2.052599999999999980e+01 7.381000000000000227e+00 7.549212999999999951e+00 1.923551430656748606e-01
6.060799999999999699e+01 8.447599999999999554e+00 2.571499999999999986e+01 5.907733000000000345e+00 -3.089247601423169565e-01
6.060900000000000176e+01 7.022899999999999920e+00 2.188500000000000156e+01 9.325537000000000631e+00 -3.488546125112816365e-01
6.060900000000000176e+01 7.022899999999999920e+00 2.275100000000000122e+01 7.543584000000000067e+00 -3.107188320997379960e-01
6.061800000000000210e+01 3.114000000000000057e+01 7.444200000000000372e+00 -1.161137000000000086e+00 1.250282969922107343e-02
6.062599999999999767e+01 1.220400000000000063e+01 3.320799999999999841e+01 9.975735000000000019e-01 -3.109524204984234208e-01
6.062700000000000244e+01 3.139799999999999969e+01 6.651699999999999946e+00 6.976786000000000376e-01 1.297369773588672413e-02
6.062899999999999778e+01 8.210900000000000531e+00 1.350699999999999967e+01 -2.736748000000000047e+01 -1.574283252317400933e-02
6.063700000000000045e+01 3.198000000000000043e+01 4.357599999999999696e+00 3.922874000000000194e+00 1.440282010353943418e-02
6.064000000000000057e+01 1.090900000000000070e+01 3.374499999999999744e+01 2.844723999999999808e+00 -2.770548149424550965e-01
6.064000000000000057e+01 3.601899999999999835e+01 7.653900000000000148e+00 -7.718233999999999817e+00 1.177587476283267591e-02
6.064099999999999824e+01 1.130400000000000027e+01 3.552400000000000091e+01 1.375072999999999990e+00 -3.102718549508018397e-01
6.064300000000000068e+01 3.728699999999999903e+01 8.512999999999999901e+00 -3.351563999999999766e+01 1.129405230539240468e-02
6.064800000000000324e+01 1.488000000000000078e+01 1.313499999999999979e+01 -3.760463000000000022e+01 5.911323440639095622e-02
6.064999999999999858e+01 1.082399999999999984e+01 4.551899999999999835e+01 -3.843412999999999968e+00 -3.964912633369068184e-01
6.066700000000000159e+01 2.713899999999999935e+01 2.727799999999999869e+01 -1.802449999999999974e+01 -1.464617378903430300e-01
6.066899999999999693e+01 1.717899999999999849e+01 1.312199999999999989e+01 -1.721995000000000076e+01 5.497640171882135773e-02
6.067000000000000171e+01 1.103299999999999947e+01 3.467600000000000193e+01 1.042573999999999890e+00 -2.769383186549495557e-01
6.067099999999999937e+01 2.420100000000000051e+01 2.967200000000000060e+01 -1.049243000000000059e+01 -3.417072760883524962e-01
6.067099999999999937e+01 3.060000000000000053e+00 4.691199999999999903e+01 -1.601007999999999987e+00 -1.810855842873079491e-01
6.067099999999999937e+01 3.313899999999999846e+00 4.601800000000000068e+01 1.715756999999999977e-01 -1.817623293816031382e-01
6.067099999999999937e+01 3.313899999999999846e+00 4.780599999999999739e+01 -1.178663999999999934e+00 -1.804681578483726401e-01
6.067099999999999937e+01 4.645100000000000229e+00 4.509599999999999653e+01 2.756646999999999847e-01 -1.822483161412350727e-01
6.067099999999999937e+01 4.759999999999999787e+00 4.861200000000000188e+01 1.250581000000000031e+01 -1.800231364709060367e-01
6.067199999999999704e+01 1.120700000000000074e+01 3.650800000000000267e+01 3.692441000000000084e+00 -3.098918098213397920e-01
6.067199999999999704e+01 3.100700000000000145e+01 2.123999999999999844e+01 -1.541712000000000060e+01 6.095899907685482788e-02
6.067600000000000193e+01 3.488600000000000279e+01 6.895599999999999952e+00 -1.221771000000000029e+01 1.229894165631722699e-02
6.067999999999999972e+01 1.877299999999999969e+01 3.883200000000000074e+01 -1.019837000000000060e+01 -3.072373993008324922e-01
6.068500000000000227e+01 2.673999999999999844e+01 -1.451400000000000023e+00 1.477487999999999957e+01 2.296240947704905958e-02
6.068599999999999994e+01 1.454299999999999926e+01 1.384800000000000075e+01 -2.123854000000000042e+01 6.413484222857511463e-02
6.068599999999999994e+01 3.309799999999999898e+01 2.027299999999999969e+01 -5.871038000000000423e+00 -2.554806931216178217e-02
6.070000000000000284e+01 2.385000000000000142e+01 7.668300000000000338e+00 1.554364999999999997e+00 1.943908485090780069e-01
6.070100000000000051e+01 3.445000000000000284e+01 6.335099999999999731e+00 -1.371344999999999992e+01 1.267189690703331498e-02
6.070300000000000296e+01 2.301200000000000045e+01 3.452000000000000313e+01 -3.584136999999999773e+01 -4.500000000000000111e-01
6.070499999999999829e+01 1.604599999999999937e+01 1.236400000000000077e+01 -5.679377000000000209e+01 5.225691720429036236e-02
6.070799999999999841e+01 3.213900000000000290e+01 2.048199999999999932e+01 -1.270867999999999931e+01 5.982403539569482176e-02
6.071399999999999864e+01 4.362599999999999589e+00 1.492900000000000027e+01 -2.459916999999999909e+00 -3.610683868210302072e-01
6.071800000000000352e+01 5.295099999999999696e+00 2.015800000000000125e+01 -7.070076000000000138e-02 -3.531386750437958133e-01
6.071800000000000352e+01 1.111999999999999922e+01 3.756900000000000261e+01 1.693068999999999935e+00 -3.093932554931027590e-01
6.071800000000000352e+01 1.511700000000000088e+01 6.680200000000000138e+00 -2.982142999999999944e+01 1.834013156415168211e-01
6.071800000000000352e+01 1.511700000000000088e+01 8.945499999999999119e+00 -2.703161000000000058e+01 2.735088944404749298e-02
6.071900000000000119e+01 1.028500000000000014e+01 4.023499999999999943e+01 3.015085000000000015e+00 -3.083937956260403013e-01
6.072699999999999676e+01 1.075799999999999912e+01 3.916199999999999903e+01 -1.386117999999999961e+00 -3.087344431043331783e-01
6.072699999999999676e+01 1.096700000000000053e+01 3.842600000000000193e+01 7.666332999999999620e-01 -3.090175509054513547e-01
6.073100000000000165e+01 6.138899999999999579e+00 2.065700000000000003e+01 1.244307000000000052e+01 -3.506800808802310598e-01
6.073299999999999699e+01 3.059600000000000009e+01 8.285500000000000753e+00 -4.627356999999999942e+00 2.883172447877800360e-01
6.073700000000000188e+01 3.405700000000000216e+01 5.769700000000000273e+00 -8.945415999999999812e+00 1.307405186654060289e-02
6.075000000000000000e+01 1.757700000000000173e+01 -4.245300000000000296e+00 4.660862000000000060e-01 -2.604949966442620668e-01
6.075000000000000000e+01 1.927700000000000102e+01 -4.245300000000000296e+00 -3.362028000000000016e+00 -2.586236680432077994e-01
6.075300000000000011e+01 9.877599999999999270e+00 3.281499999999999773e+01 3.534940999999999889e+00 -2.769317109507133945e-01
6.075500000000000256e+01 2.419600000000000151e+01 1.027600000000000069e+00 3.254605999999999710e+01 -1.527387276592414023e-01
6.075900000000000034e+01 1.766900000000000048e+01 4.049399999999999977e+01 -2.359544999999999959e+01 -3.069826472636111303e-01
6.075900000000000034e+01 1.766900000000000048e+01 4.135999999999999943e+01 1.853094000000000108e+01 -3.067843648124600198e-01
6.075900000000000034e+01 1.766900000000000048e+01 4.240999999999999659e+01 2.345564999999999856e+01 -3.818461206221011039e-01
6.075900000000000034e+01 1.130599999999999916e+01 5.058399999999999785e+00 1.071444999999999936e+01 1.737978038216145826e-01
6.076100000000000279e+01 1.002599999999999980e+01 4.551899999999999835e+01 3.154132999999999937e-02 -3.966574536334461776e-01
6.076400000000000290e+01 8.899699999999999278e+00 1.064600000000000080e+01 -1.836062000000000083e+01 5.512241376642441903e-02
6.077199999999999847e+01 1.164000000000000057e+01 4.554800000000000182e+01 -3.315917999999999921e+00 -3.963724834866066971e-01
6.077300000000000324e+01 2.231299999999999883e+01 5.663800000000000168e+00 4.718028999999999584e+00 1.969336812770509371e-01
6.077600000000000335e+01 2.679599999999999937e+01 2.827700000000000102e+01 -1.642239999999999966e+01 -1.448006355780323828e-01
6.077900000000000347e+01 8.988699999999999690e+00 4.756000000000000227e+01 8.164953000000000571e+00 -3.968437242598955028e-01
6.078000000000000114e+01 2.256099999999999994e+01 8.016199999999999992e-01 6.793582999999999927e+00 -1.528625115517966981e-01
6.078399999999999892e+01 9.880000000000000782e+00 8.111000000000000654e+00 -2.594825000000000159e+00 -1.746888825012618898e-02
6.078499999999999659e+01 1.551800000000000068e+01 1.382899999999999963e-01 -1.443651000000000018e+00 -7.269739401008377955e-02
6.078499999999999659e+01 1.867200000000000060e+01 3.282900000000000151e+00 1.839743999999999957e+01 2.020811547569172917e-01
6.078600000000000136e+01 1.263299999999999912e+01 5.406500000000000306e+00 8.834872000000000725e+00 1.796532336216784542e-01
6.079299999999999926e+01 2.228600000000000136e+01 3.327300000000000324e+01 -9.472357000000000582e+00 -4.500000000000000111e-01
6.080199999999999960e+01 3.621099999999999852e+01 1.065000000000000036e+01 1.493796000000000035e+01 1.060402067016912205e-02
6.080299999999999727e+01 7.184700000000000308e+00 1.194800000000000040e+01 -8.746681999999999846e+00 -2.926622924927991740e-02
6.080400000000000205e+01 2.628600000000000136e+01 1.042999999999999972e+01 1.803293999999999997e+01 1.924664768526049285e-01
6.080599999999999739e+01 1.036999999999999922e+01 4.632000000000000028e+01 -1.977514999999999912e+00 -3.966021899086972780e-01
6.081000000000000227e+01 1.217900000000000027e+01 8.827199999999999491e+00 -2.510447999999999880e+01 1.478713534056020663e-02
6.081300000000000239e+01 9.226599999999999469e+00 2.654599999999999937e+01 1.851863000000000170e+01 -3.085859034896801800e-01
6.081300000000000239e+01 9.226599999999999469e+00 2.741100000000000136e+01 1.536848999999999954e+01 -3.082360511367523426e-01
6.081400000000000006e+01 2.748199999999999932e+01 1.121700000000000053e+01 1.397236000000000011e+01 1.835993137213922100e-01
6.081499999999999773e+01 2.323000000000000043e+01 3.051999999999999957e+01 -3.349569000000000329e+01 -3.419636288308491312e-01
6.081900000000000261e+01 2.085699999999999932e+01 6.638799999999999812e+00 6.201815999999999995e+00 1.940246279264261908e-01
6.081900000000000261e+01 2.376899999999999835e+01 6.638799999999999812e+00 4.618731999999999616e+00 1.958172984740295663e-01
6.082000000000000028e+01 2.714699999999999847e+01 2.664300000000000068e+01 -1.871538999999999930e+01 -1.473108202841610093e-01
6.082099999999999795e+01 1.426800000000000068e+01 8.425799999999999956e-01 -1.681044999999999900e+00 1.052843549220870145e-01
6.082099999999999795e+01 1.639999999999999858e+01 4.342699999999999960e+01 1.873117999999999839e+01 -3.956722625293401796e-01
6.082200000000000273e+01 1.355799999999999983e+01 6.293800000000000061e+00 -1.836971000000000132e+01 1.782296250195678222e-01
6.082300000000000040e+01 8.650299999999999656e+00 8.934300000000000352e+00 -8.694086999999999676e+00 1.879670772475669157e-04
6.082300000000000040e+01 2.458500000000000085e+01 -2.301400000000000112e+00 1.117871999999999977e+00 -1.485882967290403645e-01
6.083100000000000307e+01 2.527400000000000091e+01 1.040099999999999980e+01 1.926441000000000159e+01 1.917969710345320544e-01
6.083100000000000307e+01 8.322900000000000631e+00 3.062600000000000122e+01 -8.326354999999999729e-01 -3.116147522303341910e-01
6.083800000000000097e+01 7.474899999999999878e+00 1.350699999999999967e+01 -2.152107000000000170e+01 -7.792339670320032677e-03
6.084100000000000108e+01 8.581599999999999895e+00 1.197100000000000009e+01 -1.109210999999999991e+01 -4.781241868377098664e-02
6.084100000000000108e+01 8.185000000000000497e+00 2.963100000000000023e+01 -1.071795999999999971e+00 -3.103316623385327655e-01
6.084100000000000108e+01 8.453799999999999315e+00 2.868499999999999872e+01 1.361652000000000085e+00 -3.086592737794146002e-01
6.084300000000000352e+01 1.963200000000000145e+01 2.452399999999999913e+00 -2.130170999999999992e+01 1.265850220567680817e-01
6.085300000000000153e+01 2.225499999999999901e+01 3.207500000000000284e+01 6.041533000000000042e-01 -4.500000000000000111e-01
6.085399999999999920e+01 6.144999999999999574e+00 4.856000000000000227e+01 3.361228000000000105e+00 -1.803420944365776157e-01
6.086699999999999733e+01 3.160800000000000054e+01 5.224700000000000344e+00 2.578866999999999798e+00 1.403780094730906237e-02
6.086699999999999733e+01 3.309400000000000119e+01 1.609499999999999886e+01 1.957781999999999911e+01 1.874134486384012033e-01
6.087199999999999989e+01 3.001599999999999824e+01 1.027299999999999969e+01 7.649627999999999872e+00 1.146132185641451640e-01
6.087500000000000000e+01 8.015000000000000568e+00 2.501500000000000057e+01 6.756859999999999644e+00 -3.088270480211915969e-01
6.087800000000000011e+01 8.095299999999999940e+00 4.224199999999999733e+01 -1.354251000000000005e+01 -3.971489974178671889e-01
6.087800000000000011e+01 1.789099999999999824e+01 5.104099999999999859e+00 2.416510999999999854e+01 1.954812770494623597e-01
6.088100000000000023e+01 5.900999999999999801e+00 1.119699999999999918e+01 -3.901971000000000078e+00 -2.779391994574488198e-02
6.088100000000000023e+01 1.330100000000000016e+01 8.871100000000000207e+00 -3.968193000000000126e+01 2.014390316095702321e-02
6.088400000000000034e+01 3.406799999999999784e+01 1.518900000000000006e+01 -1.692466999999999899e+01 1.896041466740202852e-01
6.088600000000000279e+01 7.738800000000000345e+00 4.392199999999999704e+01 -3.335417000000000076e+00 -1.814616154557784078e-01
6.088700000000000045e+01 4.793899999999999828e+00 1.421700000000000053e+01 -4.728830000000000311e+00 -3.537873333888738037e-01
6.088900000000000290e+01 6.338499999999999801e+00 4.461599999999999966e+01 7.671314000000000188e-01 -1.818480324753397603e-01
6.089900000000000091e+01 8.884999999999999787e+00 1.127100000000000080e+01 -1.699057000000000173e+01 6.778737357256825469e-02
6.090299999999999869e+01 3.517799999999999727e+01 7.642999999999999794e+00 -5.574767999999999724e+00 1.201386207196748594e-02
6.090400000000000347e+01 4.732599999999999696e+00 1.315600000000000058e+01 -1.120942999999999934e+01 -3.496991337574776315e-01
6.090800000000000125e+01 2.888299999999999912e+01 1.103100000000000058e+01 1.446396999999999977e+01 1.868746947819460991e-01
6.091599999999999682e+01 1.670200000000000173e+01 1.468200000000000038e+01 -2.732171999999999823e+00 6.209403636346453453e-02
6.092000000000000171e+01 4.671299999999999564e+00 1.201999999999999957e+01 -8.113412000000000290e+00 -3.440010043468934020e-01
6.092099999999999937e+01 2.336499999999999844e+01 3.533400000000000318e+01 -4.825019999999999953e+01 -3.406982075088831885e-01
6.092099999999999937e+01 2.225100000000000122e+01 -4.001000000000000334e+00 -8.725365000000000482e-01 -1.458596995422485332e-01
6.092099999999999937e+01 2.354400000000000048e+01 -3.280100000000000016e+00 -2.843938000000000077e+00 -1.471961814964730109e-01
6.092499999999999716e+01 9.551600000000000534e+00 2.370000000000000107e+00 3.368686999999999987e+00 1.077953850065407754e-01
6.092699999999999960e+01 2.159299999999999997e+01 3.891700000000000159e+01 -4.827218000000000231e+00 -3.071089585144377576e-01
6.092900000000000205e+01 9.793200000000000571e+00 3.158700000000000063e+00 1.226454999999999984e+01 8.968347475128811419e-02
6.092900000000000205e+01 1.811700000000000088e+01 7.294599999999999973e+00 1.550672999999999924e+01 1.886874378769023142e-01
6.093099999999999739e+01 1.983999999999999986e+01 7.373300000000000409e+00 7.751349000000000267e+00 1.911744253036893326e-01
6.093599999999999994e+01 2.543799999999999883e+01 1.502000000000000002e+00 6.157356999999999969e-01 -1.531311925169168420e-01
6.093699999999999761e+01 3.625099999999999767e+01 9.627100000000000435e+00 -8.309554000000000329e+00 1.106509378103474016e-02
6.093999999999999773e+01 1.129400000000000048e+01 4.627900000000000347e+01 -2.200844999999999985e+01 -3.964655494808552172e-01
6.094299999999999784e+01 3.031200000000000117e+01 2.418700000000000117e+01 -2.682250000000000156e+01 6.356096109673108063e-02
6.094400000000000261e+01 9.901699999999999946e+00 4.053399999999999892e+00 1.195822000000000074e+01 6.935253873620528253e-02
6.095199999999999818e+01 1.517200000000000060e+01 4.391499999999999915e+01 8.624655999999999878e+00 -3.958550241482608478e-01
6.095199999999999818e+01 9.266099999999999781e+00 4.132600000000000051e+01 -7.795434999999999448e-01 -3.968866067873298986e-01
6.095499999999999829e+01 1.384699999999999953e+01 4.389600000000000080e+01 5.157725000000000115e+00 -3.960333827509769922e-01
6.095600000000000307e+01 3.078600000000000136e+01 2.295400000000000063e+01 -2.662346000000000146e+01 6.237117528444652281e-02
6.095600000000000307e+01 3.113100000000000023e+01 2.217099999999999937e+01 -1.353049999999999997e+01 6.157387712280175396e-02
6.095600000000000307e+01 3.489699999999999847e+01 1.218699999999999939e+01 -1.695023000000000124e+01 2.872056597281230084e-01
6.095799999999999841e+01 2.814399999999999835e+01 1.119200000000000017e+01 1.497938000000000081e+01 1.848755664058228942e-01
6.096000000000000085e+01 2.573900000000000077e+01 -1.508000000000000007e+00 6.927554000000000212e-01 2.409945069216523975e-02
6.096699999999999875e+01 2.681500000000000128e+01 -2.653800000000000048e-01 -1.421452999999999989e+01 2.160914303984798682e-02
6.097399999999999665e+01 1.700499999999999901e+01 1.398199999999999932e+01 -6.091503000000000334e+00 5.850780521119573752e-02
6.097500000000000142e+01 2.666799999999999926e+01 6.787100000000000355e-01 -2.048008000000000095e+01 -1.521462751981890738e-01
6.098199999999999932e+01 3.655199999999999960e+01 8.720000000000000639e+00 -1.639293999999999940e+01 1.143433185263623836e-02
6.098299999999999699e+01 1.947299999999999898e+01 3.877400000000000091e+01 -1.000297999999999909e+00 -3.073550162408352215e-01
6.099000000000000199e+01 2.790800000000000125e+01 2.524299999999999855e+01 -1.906843999999999895e+01 -1.500854005191283869e-01
6.099099999999999966e+01 1.271400000000000041e+01 4.465400000000000347e+01 -1.660431999999999908e+00 -3.962250835047426145e-01
6.099199999999999733e+01 3.176800000000000068e+01 3.866600000000000037e+00 7.047019999999999840e+00 1.502587590205338788e-02
6.099799999999999756e+01 2.139799999999999969e+01 3.440900000000000070e-01 1.590413999999999994e+01 -1.527489966048349301e-01
6.100000000000000000e+01 1.529700000000000060e+01 1.467500000000000071e+01 -6.172857999999999734e+00 6.521238276947563528e-02
6.100000000000000000e+01 1.616199999999999903e+01 1.467500000000000071e+01 -4.294010000000000105e+00 6.304545638129199769e-02
6.100200000000000244e+01 3.000799999999999912e+01 2.488700000000000045e+01 -1.620313000000000159e+01 -1.523005479738782086e-01
6.100600000000000023e+01 1.824699999999999989e+01 3.949699999999999989e+01 -7.863768000000000313e+01 -3.073164633381871291e-01
6.100699999999999790e+01 3.084299999999999997e+01 2.374800000000000111e+01 -2.993673000000000073e+01 6.292518575645297818e-02
6.101200000000000045e+01 9.734500000000000597e+00 4.102799999999999869e+01 1.232760000000000078e+00 -3.967890849850638224e-01
6.101299999999999812e+01 3.471399999999999864e+01 7.283699999999999619e+00 -1.545261999999999958e+01 1.230804183914175655e-02
6.101299999999999812e+01 2.279400000000000048e+01 3.416400000000000148e+01 -2.133740999999999843e+01 -4.500000000000000111e-01
6.102000000000000313e+01 2.400799999999999912e+01 8.465700000000000003e+00 9.398718999999999824e+00 1.931038400429704593e-01
6.102900000000000347e+01 3.365200000000000102e+01 1.937600000000000122e+01 -1.894631999999999983e-01 -2.624453639118614484e-02
6.102900000000000347e+01 3.369200000000000017e+01 3.952199999999999935e+00 6.684212999999999738e+00 1.439999655147517280e-02
6.103000000000000114e+01 1.140700000000000003e+01 -1.273799999999999932e-01 1.186650999999999900e+00 -7.142391772336625921e-02
6.103199999999999648e+01 7.645999999999999908e+00 4.826599999999999824e+01 6.922602999999999618e+00 -1.806320128838380668e-01
6.103399999999999892e+01 2.026599999999999824e+01 1.102400000000000047e+00 -7.676268000000000313e+00 2.579205817285869576e-02
6.103499999999999659e+01 2.980999999999999872e+00 1.736400000000000077e+01 1.552899000000000029e+01 -1.902575105433608471e-01
6.103499999999999659e+01 3.234900000000000109e+00 1.646999999999999886e+01 -5.006478999999999790e-02 -3.687290159612123253e-01
6.103499999999999659e+01 3.234900000000000109e+00 1.825799999999999912e+01 5.176172000000000217e+00 2.002706247431901634e-02
6.103499999999999659e+01 2.678900000000000148e+01 -8.935100000000000264e-01 -3.507286999999999821e+00 2.238379503867480094e-02
6.103900000000000148e+01 8.039600000000000080e+00 4.323299999999999699e+01 -1.204633999999999983e+00 -3.971670040155786396e-01
6.103999999999999915e+01 1.667000000000000171e+01 -2.637599999999999945e+00 6.281780999999999615e-01 -2.687852942071417561e-01
6.103999999999999915e+01 3.386599999999999966e+01 2.019800000000000040e+01 5.558323999999999820e+00 -2.578934484881609951e-02
6.104800000000000182e+01 3.356300000000000239e+01 5.445999999999999730e+00 3.681308000000000025e+00 1.353546596374679591e-02
6.104800000000000182e+01 2.405199999999999960e+01 9.363599999999999923e+00 2.176689999999999969e+01 1.919291886252726953e-01
6.105100000000000193e+01 8.381399999999999295e+00 1.045599999999999952e+01 -8.608283000000000129e+00 5.145613732597992263e-02
6.105199999999999960e+01 1.063899999999999935e+01 8.075900000000000745e+00 -3.567248000000000197e+00 -9.991785081151415004e-03
6.105799999999999983e+01 1.499300000000000033e+01 1.397499999999999964e+01 -1.569576999999999956e+01 6.247114937057490769e-02
6.105799999999999983e+01 2.636799999999999855e+01 2.890099999999999980e+01 -1.117088999999999999e+01 -3.413274213392579193e-01
6.106700000000000017e+01 1.012400000000000055e+01 4.686999999999999744e+01 -1.597078999999999915e+00 -3.966881751908307718e-01
6.106900000000000261e+01 2.319399999999999906e+01 3.903799999999999670e+01 -1.919034999999999869e+01 -3.413793477892897443e-01
6.106900000000000261e+01 2.448699999999999832e+01 3.671900000000000119e+01 -1.074822999999999951e+01 -3.407052643770113187e-01
6.106900000000000261e+01 2.448699999999999832e+01 3.831700000000000017e+01 -3.424419999999999931e+01 -3.409824209725940136e-01
6.106900000000000261e+01 2.471399999999999864e+01 3.751800000000000068e+01 -4.600730000000000075e+01 -3.408019300719775102e-01
6.107099999999999795e+01 1.181400000000000006e+01 5.320100000000000051e+00 1.836326000000000036e+01 1.416321584256305111e-01
6.107300000000000040e+01 3.857600000000000140e+00 1.573099999999999987e+01 -1.478893000000000013e+00 -3.641315925058698499e-01
6.107300000000000040e+01 2.069900000000000162e+01 -3.526699999999999946e+00 5.142124000000000139e-01 -2.598301718278658301e-01
6.107500000000000284e+01 1.705199999999999960e+01 -3.395300000000000207e+00 2.212979999999999947e+00 -2.651269601360762840e-01
6.107600000000000051e+01 9.880000000000000782e+00 -9.071099999999999719e-01 7.801542999999999672e-01 -7.192533983329837954e-02
6.107999999999999829e+01 1.027299999999999969e+01 4.561499999999999666e+00 1.333811999999999998e+01 6.145360885507146487e-02
6.108100000000000307e+01 8.794000000000000483e+00 2.584600000000000009e+01 1.400103000000000009e+01 -3.084551254254183084e-01
6.108299999999999841e+01 7.596499999999999808e+00 1.121400000000000041e+01 -4.166684000000000054e+00 -5.817706909011847310e-02
6.108800000000000097e+01 1.659100000000000108e+01 -1.939000000000000057e+00 5.113244000000000122e-01 -2.717234343423362009e-01
6.109899999999999665e+01 9.502700000000000813e+00 3.190700000000000003e+01 2.347046000000000188e+00 -2.768073933195910885e-01
6.110199999999999676e+01 1.561400000000000077e+01 1.285500000000000043e+01 -4.296860000000000213e+01 5.479692870127803733e-02
6.110199999999999676e+01 1.647899999999999920e+01 1.285500000000000043e+01 -2.164758000000000138e+01 5.362379046591893295e-02
6.110199999999999676e+01 3.467300000000000182e+01 1.301699999999999946e+01 -1.892679000000000045e+01 2.859911711070063367e-01
6.110499999999999687e+01 3.170700000000000074e+01 2.097299999999999898e+01 -1.097347000000000072e+01 6.025436399029573259e-02
6.110499999999999687e+01 3.257200000000000273e+01 2.097299999999999898e+01 -8.938112999999999531e+00 5.993363299204070710e-02
6.110499999999999687e+01 3.353000000000000114e+01 2.097299999999999898e+01 -1.124513999999999925e+01 5.961489410583571680e-02
6.110799999999999699e+01 8.148999999999999133e+00 1.127100000000000080e+01 -4.691040000000000099e+00 7.317338219379967978e-02
6.111299999999999955e+01 9.119999999999999218e+00 8.174300000000000566e+00 -2.269769000000000148e+00 -2.399737069712171850e-02
6.111800000000000210e+01 3.100100000000000122e+01 6.219000000000000306e+00 2.568207999999999824e+00 1.365117169608497105e-02
6.111899999999999977e+01 1.842699999999999960e+01 -4.316099999999999604e+00 3.040473000000000203e-01 -2.600187053331755038e-01
6.111999999999999744e+01 8.504699999999999704e+00 1.367100000000000086e-02 3.697912999999999895e-01 -8.483165997723056406e-02
6.111999999999999744e+01 8.504699999999999704e+00 1.064300000000000024e+00 4.043978999999999768e-01 1.390205809710182705e-01
6.112400000000000233e+01 1.356799999999999962e+01 7.842900000000000427e-01 2.140852999999999895e+00 1.076977281828161159e-01
6.112500000000000000e+01 3.075499999999999901e+01 6.928499999999999659e+00 2.182017999999999791e+00 1.322728047413570217e-02
6.112800000000000011e+01 3.213900000000000290e+01 3.358499999999999819e+00 7.008492000000000388e+00 1.533914124742977170e-02
6.112899999999999778e+01 4.559999999999999609e+00 1.971699999999999875e+01 1.228040999999999938e+00 2.339253207630466978e-03
6.113499999999999801e+01 3.460999999999999943e+01 1.431199999999999939e+01 -4.114614000000000260e+01 1.908136904810714685e-01
6.113600000000000279e+01 2.495400000000000063e+01 2.938400000000000034e+01 7.630188999999999666e+00 -3.415213746057902400e-01
6.113700000000000045e+01 3.031899999999999906e+01 7.782199999999999562e+00 3.250820000000000043e+00 1.188244350727561682e-01
6.114900000000000091e+01 6.659900000000000375e+00 1.116200000000000081e+01 -5.764130999999999894e+00 -4.796717491402091582e-02
6.114999999999999858e+01 1.265799999999999947e+01 3.069000000000000061e-01 8.273116000000000358e-01 1.145114404038702488e-01
6.115100000000000335e+01 1.441699999999999982e+01 9.212899999999999423e+00 -2.499285000000000068e+01 2.683554420662773166e-02
6.115100000000000335e+01 1.560800000000000054e+01 7.076800000000000423e+00 -1.583713000000000015e+01 1.825572359876738715e-01
6.115100000000000335e+01 1.560800000000000054e+01 8.548899999999999721e+00 -1.283282999999999952e+01 1.776067217479994909e-01
6.115100000000000335e+01 1.581700000000000017e+01 7.812899999999999956e+00 -6.032689000000000412e+00 1.806374601415965953e-01
6.115299999999999869e+01 1.630000000000000071e+01 -1.098600000000000021e+00 -9.984060000000000157e-01 -1.633543836109233038e-01
6.115699999999999648e+01 6.844999999999999751e+00 4.850200000000000244e+01 6.522257999999999889e+00 -1.807607418056616233e-01
6.115800000000000125e+01 1.498099999999999987e+01 8.051700000000000523e-01 -5.839338999999999835e+00 1.035250165303720493e-01
6.115999999999999659e+01 1.531000000000000050e+01 1.355499999999999972e+01 -1.935523999999999845e+01 5.918501762129833865e-02
6.115999999999999659e+01 1.678200000000000003e+01 1.355499999999999972e+01 -1.069383999999999979e+01 5.656925642387276854e-02
6.116299999999999670e+01 2.141300000000000026e+01 5.738800000000000345e+00 4.381228000000000122e+00 1.959312281957390212e-01
6.116299999999999670e+01 2.321300000000000097e+01 5.738800000000000345e+00 2.940300000000000136e+00 1.967479421945085294e-01
6.116299999999999670e+01 3.140299999999999869e+01 2.167299999999999827e+01 -1.294186999999999976e+01 6.095341641824443546e-02
6.116599999999999682e+01 3.023600000000000065e+01 8.976499999999999702e+00 3.045138999999999818e+00 1.165439651495087936e-01
6.116799999999999926e+01 3.269500000000000028e+01 1.746000000000000085e+01 -1.277875000000000050e+01 -2.760466181454914597e-02
6.116799999999999926e+01 3.290400000000000347e+01 1.672400000000000020e+01 -3.797070999999999863e+00 -2.804099160184269149e-02
6.116799999999999926e+01 3.290400000000000347e+01 1.819600000000000151e+01 -2.717454000000000036e+01 -2.711057279749519780e-02
6.117999999999999972e+01 2.006500000000000128e+01 1.862400000000000055e+00 -1.290869000000000000e+01 1.275284777961221971e-01
6.118699999999999761e+01 3.039300000000000068e+01 2.524299999999999855e+01 -1.110188999999999915e+01 -1.520449248713525436e-01
6.118699999999999761e+01 1.045599999999999952e+01 3.419299999999999784e+01 1.680309000000000053e+00 -2.766806340964728106e-01
6.118999999999999773e+01 2.874200000000000088e+01 2.510500000000000043e+01 -1.305701999999999963e+01 -1.509952538413573131e-01
6.118999999999999773e+01 1.849899999999999878e+01 3.939499999999999780e+00 1.908695000000000164e+01 1.992061518141848286e-01
6.119599999999999795e+01 3.910000000000000142e+00 4.553699999999999903e+01 3.327626000000000195e-01 -1.828849159425368076e-01
6.119599999999999795e+01 3.910000000000000142e+00 4.828699999999999903e+01 -2.449431000000000136e+00 -1.808854412986762583e-01
6.119700000000000273e+01 1.768499999999999872e+01 5.729400000000000048e+00 1.192817999999999934e+01 1.924555201400094950e-01
6.119700000000000273e+01 1.768499999999999872e+01 6.594599999999999795e+00 8.514632999999999896e+00 1.895722354613272320e-01
6.120000000000000284e+01 7.489700000000000024e+00 2.416499999999999915e+01 9.353977999999999682e+00 -3.086768644704619424e-01
6.120300000000000296e+01 3.321999999999999886e+01 3.311900000000000066e+00 5.874807999999999808e+00 1.504327252150753844e-02
6.121000000000000085e+01 2.598400000000000176e+01 1.020599999999999952e+01 1.337015000000000065e+01 1.922646352440240125e-01
6.121000000000000085e+01 5.141000000000000014e+00 1.125999999999999979e+01 -3.474196000000000062e+00 -1.904815780877941803e-02
6.121099999999999852e+01 3.074399999999999977e+01 2.488700000000000045e+01 -1.647975999999999885e+01 -1.527680207875819485e-01
6.121099999999999852e+01 2.704899999999999949e+01 1.072600000000000087e+01 1.223349999999999937e+01 1.822825792167255821e-01
6.121300000000000097e+01 2.326099999999999923e+01 1.068999999999999950e+00 1.337789000000000073e+01 -1.532836234903305062e-01
6.121699999999999875e+01 1.600900000000000034e+01 -2.583099999999999841e-01 -1.738242000000000065e+00 -7.223299254309319128e-02
6.122099999999999653e+01 6.110000000000000320e+00 2.030900000000000105e+01 5.514915000000000234e+00 -3.499839977631244992e-01
6.122599999999999909e+01 1.981700000000000017e+01 -3.488500000000000156e+00 5.007630999999999943e+00 -2.610400212507428819e-01
6.122599999999999909e+01 2.654599999999999937e+01 5.641000000000000014e+00 9.523101999999999734e+00 1.171897173369531170e-01
6.122800000000000153e+01 3.366100000000000136e+01 6.202300000000000146e+00 -2.619316999999999851e+01 1.317460404152404584e-02
6.123299999999999699e+01 1.881700000000000017e+01 7.352899999999999991e+00 1.091709999999999958e+01 1.893408071954137684e-01
6.123700000000000188e+01 7.094400000000000261e+00 2.323100000000000165e+01 8.893758999999999304e+00 -3.091292615146217782e-01
6.124199999999999733e+01 2.064099999999999824e+01 6.303600000000000314e+00 6.277777000000000385e+00 1.940786495183228211e-01
6.124300000000000210e+01 1.147899999999999920e+01 8.559900000000000730e+00 -9.299004000000000048e+00 5.804994646979779599e-03
6.124499999999999744e+01 5.395100000000000229e+00 4.848100000000000165e+01 7.081029000000000018e+00 -1.808355706130239660e-01
6.125200000000000244e+01 2.015700000000000003e+01 6.906100000000000350e+00 6.970804000000000222e+00 1.922332795958279772e-01
6.125500000000000256e+01 1.306700000000000017e+01 5.897199999999999775e+00 -5.952695000000000292e+00 1.769001732796903759e-01
6.125600000000000023e+01 2.409400000000000119e+01 -2.697999999999999954e+00 -3.361369000000000162e-01 -1.483887064797587974e-01
6.125699999999999790e+01 2.747599999999999909e+01 2.594300000000000139e+01 -2.470635000000000048e+01 -1.485923097138689142e-01
6.125699999999999790e+01 2.747599999999999909e+01 2.680799999999999983e+01 -3.482768000000000086e+01 -1.473738331867446572e-01
6.125699999999999790e+01 2.747599999999999909e+01 2.774800000000000111e+01 -3.566971000000000203e+01 -1.461456800642549625e-01
6.125800000000000267e+01 1.314700000000000024e+01 4.395400000000000063e+01 4.613653000000000226e+00 -3.961938609076661733e-01
6.126400000000000290e+01 2.503900000000000148e+01 -1.566300000000000026e+00 2.823074000000000083e+00 -1.498775140835761355e-01
6.126400000000000290e+01 3.576200000000000045e+01 8.328900000000000858e+00 -1.085818000000000083e+01 1.181614401957675753e-02
6.126500000000000057e+01 2.619800000000000040e+01 1.438700000000000090e+00 -1.457473000000000019e+00 -1.530774705477045972e-01
6.126599999999999824e+01 1.055199999999999960e+01 3.520100000000000051e+01 1.728202000000000016e+00 -2.765537698782348230e-01
6.126700000000000301e+01 1.572899999999999920e+01 1.397499999999999964e+01 -1.332085000000000008e+01 6.020341417185184202e-02
6.127600000000000335e+01 1.914099999999999824e+01 2.849000000000000199e+00 5.074531999999999599e+00 2.023718971355265295e-01
6.128399999999999892e+01 2.271499999999999986e+01 3.097800000000000153e+01 -2.542511999999999972e+01 -3.420553162763846355e-01
6.128399999999999892e+01 2.366400000000000148e+01 3.002899999999999991e+01 -4.101012999999999664e+01 -3.417586212425474113e-01
6.128399999999999892e+01 2.437099999999999866e+01 7.355900000000000105e+00 3.410922999999999927e+00 1.946695514454313547e-01
6.129699999999999704e+01 3.131200000000000117e+01 2.298900000000000077e+01 -1.799259999999999948e+01 6.200149005847555017e-02
6.130100000000000193e+01 2.069800000000000040e+01 4.023800000000000154e-01 -7.579282999999999992e-01 -1.436862839683704651e-01
6.130100000000000193e+01 2.209799999999999898e+01 4.023800000000000154e-01 1.235309999999999953e+01 -1.528134557434494556e-01
6.130299999999999727e+01 1.021400000000000041e+01 3.344299999999999784e+01 2.286804000000000059e+00 -2.766720780079272579e-01
6.130499999999999972e+01 2.931599999999999895e+01 1.053999999999999915e+01 9.653636000000000550e+00 1.122360570762918897e-01
6.130799999999999983e+01 8.505900000000000460e+00 2.541199999999999903e+01 1.172247999999999912e+01 -3.082805554652247593e-01
6.130899999999999750e+01 7.290199999999999569e+00 2.231800000000000139e+01 9.026707999999999288e+00 -3.099062753566059758e-01
6.131199999999999761e+01 3.088800000000000168e+01 5.549599999999999866e+00 3.564995000000000136e+00 1.426263699634900371e-02
6.131400000000000006e+01 1.400099999999999945e+01 6.338499999999999801e+00 -3.051681999999999917e+01 1.790370875822110686e-01
6.131600000000000250e+01 3.357699999999999818e+01 1.558500000000000085e+01 1.562773999999999930e+01 1.878914208695339483e-01
6.133200000000000074e+01 3.157999999999999829e+01 2.374800000000000111e+01 -9.035766999999999882e+00 6.242682030301573842e-02
6.133299999999999841e+01 1.692800000000000082e+01 4.280799999999999983e+01 1.629867000000000132e+01 -3.068790793231740421e-01
6.133500000000000085e+01 2.941799999999999926e+01 2.537999999999999901e+01 -1.101103999999999949e+01 -1.511209002883089070e-01
6.133500000000000085e+01 9.691399999999999793e+00 4.757000000000000028e+01 9.327484000000000108e+00 -3.968021992036830925e-01
6.133500000000000085e+01 8.346000000000000085e+00 4.820799999999999841e+01 9.248184000000000182e+00 -1.807500498074828821e-01
6.134100000000000108e+01 2.591499999999999915e+01 5.887100000000000222e+00 5.299343000000000359e+00 1.149663978104453477e-01
6.134300000000000352e+01 3.075799999999999912e+01 2.594300000000000139e+01 -9.189821999999999491e+00 -1.513410451917176769e-01
6.135199999999999676e+01 2.437600000000000122e+01 1.568400000000000016e+00 8.192966999999999445e+00 -1.536358491008669724e-01
6.135499999999999687e+01 2.771099999999999852e+01 1.070100000000000051e+01 1.094660000000000011e+01 1.836604169359089822e-01
6.135499999999999687e+01 2.857600000000000051e+01 1.070100000000000051e+01 1.029898999999999987e+01 1.856769258831669211e-01
6.135499999999999687e+01 1.718799999999999883e+01 4.188499999999999801e+01 2.398351999999999862e+01 -3.070616914341902648e-01
6.135600000000000165e+01 1.099499999999999922e+01 5.233600000000000030e+00 4.073612999999999928e+00 1.417121576624695012e-01
