-2.327899999999999991e+01 1.331400000000000006e+01 -1.985999999999999988e+00 3.724218000000000028e+00 -2.935780150046558012e-01
-2.327899999999999991e+01 1.496199999999999974e+01 -1.985999999999999988e+00 5.121237999999999957e+00 -2.921167353723776450e-01
-2.327700000000000102e+01 3.265000000000000124e+00 -3.750999999999999890e+00 4.035118999999999900e+00 -2.182391359835356703e-01
-2.327700000000000102e+01 4.222999999999999865e+00 -3.750999999999999890e+00 9.223126000000000602e+00 -2.180796618459219238e-01
-2.327700000000000102e+01 4.222999999999999865e+00 -2.201000000000000068e+00 3.130013999999999896e+01 -2.151991398952456946e-01
-2.327299999999999969e+01 2.639000000000000057e+01 1.227599999999999980e+01 5.507283000000000150e+00 -1.552660789637321237e-01
-2.325700000000000145e+01 1.424699999999999989e+01 6.855199999999999960e+00 1.993271999999999977e+01 1.301819932166473348e-01
-2.324099999999999966e+01 3.081099999999999994e+01 -8.037900000000000489e+00 1.247860000000000014e+01 -1.480654822557759265e-01
-2.323900000000000077e+01 3.475399999999999778e+01 -6.434999999999999609e+00 -4.101738999999999891e+01 -3.229086778740906105e-01
-2.323199999999999932e+01 2.260900000000000176e+01 1.180799999999999983e+01 2.778805000000000192e+00 2.266060174737484501e-01
-2.323100000000000165e+01 3.101200000000000045e+01 -9.525999999999999801e+00 -4.733702000000000254e+01 -3.220484129748233393e-01
-2.322700000000000031e+01 2.371999999999999886e+00 -1.159000000000000030e+00 5.333474999999999966e+00 -2.142757421464259182e-01
-2.322500000000000142e+01 1.901399999999999935e+01 1.040399999999999991e+01 2.313963000000000214e+00 1.840938249671134896e-01
-2.319900000000000162e+01 1.750900000000000034e+01 8.605999999999999872e+00 -1.912876999999999938e+01 -1.589286231215936707e-01
-2.319600000000000151e+01 3.074399999999999977e+01 -8.767099999999999227e+00 -5.451716000000000228e+00 -3.216151058235234284e-01
-2.319200000000000017e+01 1.187899999999999956e+01 -8.400999999999999801e+00 1.788043000000000049e+01 -2.913799683248947670e-01
-2.318299999999999983e+01 3.730599999999999739e+01 -1.435699999999999976e+00 1.244650999999999996e+01 -1.533782101050562841e-01
-2.318299999999999983e+01 3.756000000000000227e+01 -5.420000000000000373e-01 1.059361999999999959e+01 -1.542373397020403436e-01
-2.317500000000000071e+01 3.360999999999999943e+01 1.030199999999999960e+01 -2.779027999999999921e+01 -1.457636042705851287e-01
-2.316799999999999926e+01 2.463999999999999968e+00 -2.209299999999999820e+00 4.506226999999999983e+00 -2.165807491384995342e-01
-2.316700000000000159e+01 1.072899999999999920e+01 3.861299999999999955e+00 2.672646999999999995e+00 3.942833618039142535e-02
-2.316700000000000159e+01 1.072899999999999920e+01 4.800699999999999967e+00 1.925106999999999902e+00 -8.034863608866767495e-03
-2.315899999999999892e+01 2.508800000000000097e+01 1.264899999999999913e+01 4.757772000000000112e+00 2.135938783184269385e-01
-2.313899999999999935e+01 3.536299999999999955e+01 6.562299999999999578e+00 5.513368999999999964e+00 -1.659986991732995687e-01
-2.312600000000000122e+01 1.715200000000000102e+01 -1.093599999999999994e+01 6.476376999999999828e-01 -2.899168017609233816e-01
-2.312000000000000099e+01 2.673000000000000043e+01 1.188599999999999923e+01 7.303373999999999810e+00 -1.550810045421756600e-01
-2.311499999999999844e+01 3.384700000000000131e+01 -4.967399999999999594e+00 3.398353000000000179e+00 -1.503159068730279269e-01
-2.310500000000000043e+01 1.548700000000000010e+01 -1.076299999999999990e+01 1.291482999999999937e+00 -2.901954626420916727e-01
-2.309600000000000009e+01 3.128999999999999915e+01 -7.261999999999999567e+00 3.702566000000000201e+01 -1.487444335919790861e-01
-2.309600000000000009e+01 3.768900000000000006e+01 1.183799999999999991e-01 1.104846000000000039e+01 -1.550810023843914587e-01
-2.309100000000000108e+01 2.035699999999999932e+01 1.119899999999999984e+01 5.121101000000000347e+00 2.221325547027804548e-01
-2.309100000000000108e+01 2.122299999999999898e+01 1.119899999999999984e+01 6.567809999999999704e+00 2.202764124838508530e-01
-2.308299999999999841e+01 2.659499999999999886e+01 -1.258699999999999974e+01 -5.682593999999999923e+00 -3.168482455345750792e-01
-2.307000000000000028e+01 1.422600000000000087e+01 -1.985999999999999988e+00 -2.732605000000000173e-01 -2.930520049501598168e-01
-2.306899999999999906e+01 1.346000000000000085e+01 -1.014100000000000001e+01 5.551117999999999775e+00 -2.906413960206444824e-01
-2.306500000000000128e+01 3.388799999999999812e+01 8.627599999999999270e+00 8.659138000000000446e+00 -1.464167087457580174e-01
-2.305300000000000082e+01 2.007199999999999918e+01 -1.210399999999999920e+01 -2.484204000000000079e+00 -3.251369990364747498e-01
-2.304899999999999949e+01 3.264400000000000190e+00 -1.078799999999999981e+00 2.738774000000000086e+01 -2.132433293470487601e-01
-2.304400000000000048e+01 2.179899999999999949e+01 -1.185699999999999932e+01 1.585951000000000111e+00 -3.223516658957913394e-01
-2.303099999999999881e+01 3.007499999999999929e+01 -8.037900000000000489e+00 2.568988999999999834e+01 -1.484582824110193822e-01
-2.301599999999999824e+01 3.756000000000000227e+01 1.076300000000000034e+00 8.276215999999999795e+00 -1.563204448227858423e-01
-2.301300000000000168e+01 3.314500000000000313e+01 1.117900000000000027e+01 5.389153000000000304e+00 -1.455432528952801952e-01
-2.301200000000000045e+01 2.808399999999999963e+01 1.122000000000000064e+01 -1.296302999999999983e+01 -1.530237580363529304e-01
-2.300799999999999912e+01 1.595800000000000018e+01 7.602899999999999991e+00 1.429810000000000025e+00 1.418697211926224777e-01
-2.300600000000000023e+01 3.680499999999999972e+01 3.124600000000000044e+00 -2.312250000000000139e+00 -1.592563687730024491e-01
-2.299800000000000111e+01 1.898199999999999932e+01 -1.191399999999999970e+01 -4.198849000000000053e+00 -2.895814962051371788e-01
-2.299599999999999866e+01 1.557099999999999929e+00 -1.159000000000000030e+00 1.033638000000000012e+01 -2.166325970665034517e-01
-2.299399999999999977e+01 2.407600000000000051e+01 -1.223099999999999987e+01 -2.438143000000000171e+00 -3.194542008542424205e-01
-2.298400000000000176e+01 3.368500000000000227e+01 9.426600000000000534e+00 7.932066999999999979e+00 -1.461775745961982897e-01
-2.297500000000000142e+01 3.208599999999999852e+01 -6.002399999999999736e+00 2.352843000000000018e+01 -1.497584332089007542e-01
-2.297299999999999898e+01 3.037800000000000011e+01 -7.337900000000000311e+00 3.770477000000000345e+01 -1.489088398571981886e-01
-2.297100000000000009e+01 1.308999999999999986e+01 5.992700000000000138e+00 7.111418999999999713e+00 1.557258521033449694e-01
-2.297100000000000009e+01 3.014600000000000080e+01 1.246599999999999930e+01 1.796097999999999928e+01 -1.475170697828170341e-01
-2.296499999999999986e+01 1.947200000000000131e+01 1.116600000000000037e+01 1.612605999999999984e+00 2.159535066015531302e-01
-2.296199999999999974e+01 1.178100000000000058e+01 6.149000000000000021e+00 -8.697188000000000141e-01 -8.071683624655340283e-02
-2.295799999999999841e+01 3.169200000000000017e+01 -6.540899999999999714e+00 3.653806000000000154e+01 -1.494490828358988610e-01
-2.295299999999999940e+01 3.313000000000000256e+01 -5.201100000000000279e+00 1.133065000000000033e+01 -1.504259538954435815e-01
-2.293799999999999883e+01 2.995100000000000051e+01 -8.758399999999999963e+00 2.398987999999999943e+01 -1.483879675301011669e-01
-2.293100000000000094e+01 1.893000000000000016e+00 -1.933999999999999941e+00 4.234689000000000370e+00 -2.174486330844737358e-01
-2.293100000000000094e+01 1.893000000000000016e+00 -3.840000000000000080e-01 1.145514999999999972e+01 -2.147219416885318422e-01
-2.293100000000000094e+01 2.850999999999999979e+00 -3.840000000000000080e-01 4.420425999999999789e+01 -2.121567323986825182e-01
-2.291199999999999903e+01 2.984299999999999997e+01 1.176600000000000001e+01 3.840782999999999703e+01 -1.488338137368738767e-01
-2.290800000000000125e+01 3.553099999999999881e+01 -3.862400000000000055e+00 3.094797999999999938e+00 -1.517436599783858475e-01
-2.290599999999999881e+01 3.027499999999999858e+01 -9.525999999999999801e+00 -1.404981000000000080e+01 -1.482409394951754167e-01
-2.289600000000000080e+01 3.075400000000000134e+01 1.378500000000000014e+01 1.462145999999999901e+02 -1.450792312745022850e-01
-2.289600000000000080e+01 3.171199999999999974e+01 1.378500000000000014e+01 4.692508000000000123e+01 -1.443196270421195082e-01
-2.288899999999999935e+01 3.432399999999999807e+01 -4.406799999999999606e+00 2.238080000000000069e+00 -1.512509769520188063e-01
-2.288899999999999935e+01 3.518999999999999773e+01 -4.406799999999999606e+00 -3.981450999999999740e-01 -1.513446690643969750e-01
-2.287600000000000122e+01 1.301399999999999935e+01 -9.443400000000000460e+00 1.648515000000000086e+01 -2.910371181415769004e-01
-2.287199999999999989e+01 1.111299999999999955e+01 2.532700000000000173e+00 6.617645999999999695e+00 6.344961322964552675e-02
-2.287000000000000099e+01 1.860000000000000142e+01 9.476300000000000168e+00 4.093917000000000250e+00 -1.475693406220785764e-01
-2.285800000000000054e+01 1.206000000000000050e+01 -2.982000000000000206e+00 2.245747000000000071e+01 -2.951953140654127727e-01
-2.285699999999999932e+01 2.181599999999999895e+01 1.203899999999999970e+01 3.883173000000000208e+00 2.387051910514146891e-01
-2.283800000000000097e+01 3.744000000000000217e+00 -4.294500000000000206e+00 5.110206999999999944e+00 -2.195383835096402780e-01
-2.283099999999999952e+01 3.041799999999999926e+01 1.300999999999999979e+01 4.208328000000000202e+01 -1.463694726710099980e-01
-2.283099999999999952e+01 3.204800000000000182e+01 1.300999999999999979e+01 6.223026000000000124e+01 -1.448412380348845507e-01
-2.282799999999999940e+01 3.921899999999999942e+00 -1.492499999999999938e+00 9.261755000000000848e+00 -2.148419732390007275e-01
-2.282400000000000162e+01 2.078999999999999915e+01 1.189899999999999913e+01 6.004090999999999845e+00 2.436161571159438655e-01
-2.282000000000000028e+01 2.565599999999999881e+01 1.255599999999999916e+01 6.567117999999999789e+00 2.071207745474004658e-01
-2.281400000000000006e+01 3.588799999999999812e+01 5.712299999999999933e+00 3.421464999999999890e+01 -1.645672493061489661e-01
-2.281299999999999883e+01 1.241900000000000048e+01 -8.049599999999999866e+00 5.455626999999999782e+01 -2.917374937572866922e-01
-2.281299999999999883e+01 1.241900000000000048e+01 -7.184400000000000119e+00 5.605534999999999712e+01 -2.921548923505198903e-01
-2.280099999999999838e+01 2.936199999999999832e+01 -9.445600000000000662e+00 1.092756999999999934e+01 -1.484313303585656496e-01
-2.280099999999999838e+01 1.194299999999999962e+01 -3.908399999999999874e+00 3.526683999999999930e+00 -2.945976629938596991e-01
-2.280000000000000071e+01 2.330900000000000105e+01 1.207499999999999929e+01 2.051143000000000161e+00 2.225097195106184034e-01
-2.279799999999999827e+01 2.490000000000000213e+00 -3.455000000000000071e+00 3.433981000000000172e+00 -2.191539232933185366e-01
-2.279799999999999827e+01 4.998000000000000220e+00 -3.455000000000000071e+00 6.255020000000000024e+00 -2.940807935965865094e-01
-2.279799999999999827e+01 4.998000000000000220e+00 -2.496999999999999886e+00 6.744584999999999830e+00 -2.951204939258799675e-01
-2.279599999999999937e+01 1.169899999999999984e+01 3.009999999999999898e-01 2.203959999999999919e+00 -2.985885945895848104e-01
-2.278699999999999903e+01 1.195700000000000074e+01 -5.333299999999999708e-01 2.883792000000000133e+00 -2.975391823326117291e-01
-2.278300000000000125e+01 1.633699999999999974e+01 -1.097000000000000064e+01 2.314369999999999816e+00 -2.901732773656546804e-01
-2.278200000000000003e+01 2.386899999999999977e+01 1.234699999999999953e+01 1.548373999999999917e+00 2.209350647285128200e-01
-2.277899999999999991e+01 3.214699999999999847e+01 1.210399999999999920e+01 4.127933000000000163e+01 -1.456165195653053857e-01
-2.277799999999999869e+01 3.601700000000000301e+01 4.702499999999999680e+00 1.367249999999999943e+01 -1.627593710820046113e-01
-2.277100000000000080e+01 1.193099999999999916e+01 -4.791900000000000048e+00 2.788212000000000135e+00 -2.939198979481483787e-01
-2.275700000000000145e+01 2.596999999999999886e+01 3.254500000000000171e+00 8.829368000000000549e+00 1.287066208894554753e-01
-2.274200000000000088e+01 1.180899999999999928e+01 -5.607999999999999652e+00 2.491588000000000136e+00 -2.933969923592055773e-01
-2.274099999999999966e+01 2.249899999999999878e+01 -1.191499999999999915e+01 3.398000000000000131e+00 -3.217155428712750731e-01
-2.273699999999999832e+01 2.586400000000000077e+01 -1.275500000000000078e+01 -1.216822999999999944e+01 -3.180050806997685720e-01
-2.273199999999999932e+01 2.098900000000000077e+01 -1.198300000000000054e+01 -1.576300000000000034e+00 -3.240285838819201847e-01
-2.272599999999999909e+01 1.418699999999999939e+01 -1.033500000000000085e+01 1.253997000000000028e+01 -2.906704348113691716e-01
-2.271099999999999852e+01 2.249899999999999789e+00 -2.756499999999999950e+00 3.324047000000000196e+00 -2.187313884761123983e-01
-2.269800000000000040e+01 2.769300000000000139e+01 -1.091600000000000037e+01 8.171175999999999995e-01 -3.152747782839676605e-01
-2.269399999999999906e+01 2.712500000000000000e+01 -1.182600000000000051e+01 -2.009055000000000035e+01 -3.163418596784202119e-01
-2.268799999999999883e+01 2.722100000000000009e+01 1.149000000000000021e+01 -3.611077999999999788e-01 1.888340109769905961e-01
-2.267699999999999960e+01 3.085800000000000054e+01 -6.562500000000000000e+00 1.548978999999999928e+02 -1.500187622052832626e-01
-2.267599999999999838e+01 1.825700000000000145e+01 8.748900000000000787e+00 -3.765595999999999943e+00 -1.663524031023250749e-01
-2.267200000000000060e+01 1.478700000000000081e+01 -1.049600000000000044e+01 3.639390999999999821e+00 -2.905644321550499010e-01
-2.267099999999999937e+01 2.448799999999999955e+01 1.279199999999999982e+01 1.831830000000000069e+00 2.197746895044013216e-01
-2.266799999999999926e+01 1.378999999999999915e+01 6.050900000000000389e+00 9.533941000000000443e+00 1.344224062549888576e-01
-2.264399999999999835e+01 1.195299999999999940e+01 -6.445199999999999818e+00 3.320082999999999895e+00 -2.928758909660316156e-01
-2.264099999999999824e+01 3.596300000000000097e+01 -3.162399999999999878e+00 4.021151999999999838e+00 -1.528674950665845356e-01
-2.264099999999999824e+01 1.148700000000000010e+01 1.668500000000000094e+00 5.620491999999999599e+00 -2.997023710359555948e-01
-2.264000000000000057e+01 1.663299999999999912e+01 8.131700000000000372e+00 -1.983834999999999837e+01 -1.897456995499868793e-01
-2.263800000000000168e+01 1.241600000000000037e+01 -2.159699999999999953e+00 1.692976000000000170e+01 -2.958735313443305870e-01
-2.263800000000000168e+01 1.241600000000000037e+01 -1.294399999999999995e+00 3.537310999999999872e+00 -2.965125469261829516e-01
-2.263299999999999912e+01 1.161999999999999922e+01 1.098000000000000087e+00 3.046422000000000185e+00 -2.995484517766066612e-01
-2.262500000000000000e+01 3.685300000000000153e+01 -1.944099999999999939e+00 5.532911000000000357e+00 -1.539897501050968009e-01
-2.262000000000000099e+01 3.638799999999999812e+01 -2.528700000000000170e+00 3.606742999999999810e+00 -1.534683605556453334e-01
-2.260900000000000176e+01 1.258099999999999952e+01 -8.743399999999999395e+00 2.137315999999999860e+01 -2.915492307252740001e-01
-2.260800000000000054e+01 1.982199999999999918e+01 1.197400000000000020e+01 3.524804000000000048e+00 2.455745535250757339e-01
-2.260699999999999932e+01 3.132600000000000051e+01 1.250999999999999979e+01 2.639392000000000138e+01 -1.459135324138928769e-01
-2.260000000000000142e+01 3.123300000000000054e+01 1.300999999999999979e+01 2.669651999999999958e+01 -1.454377099443126542e-01
-2.258500000000000085e+01 2.872700000000000031e+01 1.119800000000000040e+01 -2.187209000000000003e+01 -1.511350775927000067e-01
-2.257499999999999929e+01 1.546700000000000053e+01 7.206299999999999706e+00 1.278326000000000029e+01 1.227219933050041761e-01
-2.256099999999999994e+01 2.477599999999999980e+01 -1.249900000000000055e+01 -1.222962000000000105e+00 -3.192382418848009329e-01
-2.256099999999999994e+01 4.595100000000000406e+00 -1.655599999999999961e+00 -3.601662999999999837e+00 -2.162763997070456523e-01
-2.255300000000000082e+01 2.985200000000000031e+01 1.127399999999999913e+01 3.484467000000000070e+01 -1.491333182949034775e-01
-2.254799999999999827e+01 2.523400000000000176e+01 3.254500000000000171e+00 1.763697000000000159e+01 1.230676660678498707e-01
-2.254799999999999827e+01 2.670599999999999952e+01 3.254500000000000171e+00 6.107855999999999952e+00 1.292172554009388130e-01
-2.254100000000000037e+01 2.967800000000000082e+01 -7.605299999999999727e+00 1.714120000000000132e+01 -1.497307185032269450e-01
-2.253900000000000148e+01 3.479899999999999949e+01 6.881300000000000416e+00 4.117761999999999922e+00 -1.461857297951318913e-01
-2.253200000000000003e+01 3.628499999999999659e+01 3.587400000000000144e+00 1.308455000000000013e+01 -1.612729405879749500e-01
-2.253200000000000003e+01 3.724399999999999977e+01 2.628899999999999793e+00 -1.915228000000000108e+01 -1.593551814591350479e-01
-2.253099999999999881e+01 3.763799999999999812e+01 -6.393299999999999539e-01 7.287062999999999846e+00 -1.553927542426161990e-01
-2.251099999999999923e+01 1.833899999999999864e+01 -1.132799999999999940e+01 -1.488528000000000073e+00 -2.899144951138521442e-01
-2.250199999999999889e+01 2.968999999999999861e+00 -4.230000000000000426e+00 2.197560000000000180e+00 -2.202247797859327449e-01
-2.250199999999999889e+01 4.519000000000000128e+00 -4.230000000000000426e+00 9.641085000000000349e+00 -2.200638114372504561e-01
-2.249599999999999866e+01 2.260900000000000176e+01 1.201699999999999946e+01 3.197051000000000087e+00 2.266192004534146043e-01
-2.249200000000000088e+01 3.475699999999999790e+01 -3.915900000000000158e+00 -4.154949000000000003e-01 -1.524945052787071154e-01
-2.249200000000000088e+01 2.371999999999999886e+00 1.595100000000000129e-01 2.894088999999999956e+01 -2.142888571908195261e-01
-2.248900000000000077e+01 2.553800000000000026e+01 2.554499999999999993e+00 3.995830000000000126e+01 1.278958484333961310e-01
-2.248900000000000077e+01 2.553800000000000026e+01 3.954499999999999904e+00 7.663528000000000340e+00 1.192629695934895456e-01
-2.248900000000000077e+01 2.640299999999999869e+01 2.554499999999999993e+00 8.942902999999999381e+00 1.310762295686932477e-01
-2.248900000000000077e+01 2.640299999999999869e+01 3.954499999999999904e+00 4.920910000000000117e+00 1.234425920499378354e-01
-2.248699999999999832e+01 2.312199999999999989e+01 -1.229299999999999926e+01 1.356980999999999993e+00 -3.212814729184199636e-01
-2.248600000000000065e+01 2.841000000000000014e+01 -9.928699999999999193e+00 2.701385000000000147e+00 -4.158160996893638384e-01
-2.248499999999999943e+01 3.193100000000000094e+01 -5.798399999999999999e+00 2.577368999999999843e+01 -1.509767734114530469e-01
-2.247500000000000142e+01 3.237899999999999778e+01 1.145800000000000018e+01 2.116515000000000057e+01 -1.458550746466902581e-01
-2.247400000000000020e+01 2.026200000000000045e+01 1.273900000000000077e+01 7.332659999999999734e+00 2.703085689591531171e-01
-2.247400000000000020e+01 2.131200000000000117e+01 1.273900000000000077e+01 8.072440000000000282e+00 2.588066575673960701e-01
-2.247200000000000131e+01 2.639799999999999969e+01 1.238499999999999979e+01 4.031745999999999697e+01 1.997633741997253964e-01
-2.245200000000000173e+01 1.118000000000000105e+00 -1.637999999999999901e+00 3.216123000000000065e+00 -2.195297034982911788e-01
-2.245200000000000173e+01 1.118000000000000105e+00 -6.800199999999999578e-01 7.390868000000000215e+00 -2.188662537613406678e-01
-2.245200000000000173e+01 3.625999999999999890e+00 -6.800199999999999578e-01 5.337346000000000146e+00 -2.142608212662854006e-01
-2.245100000000000051e+01 1.431499999999999950e+01 6.557800000000000296e+00 1.195786000000000016e+01 1.073766908741232706e-01
-2.244699999999999918e+01 3.437100000000000222e+01 7.571900000000000297e+00 4.697477000000000125e+00 -1.462964150590427004e-01
-2.244699999999999918e+01 2.955499999999999972e+01 -8.325799999999999201e+00 1.935296999999999912e+01 -1.495867548872658603e-01
-2.243900000000000006e+01 1.705600000000000094e+01 -1.098000000000000043e+01 2.388258000000000048e-01 -2.901994367404491237e-01
-2.243599999999999994e+01 1.056099999999999994e+01 3.514899999999999913e+00 2.102806000000000175e+00 3.698076569276771003e-02
-2.241499999999999915e+01 3.357999999999999829e+01 -4.534799999999999720e+00 3.390827999999999953e+00 -1.521203300399637803e-01
-2.241300000000000026e+01 3.188800000000000168e+01 1.174200000000000088e+01 2.727674000000000021e+01 -1.460477028617209183e-01
-2.241000000000000014e+01 3.071799999999999997e+01 1.192200000000000060e+01 2.877167000000000030e+01 -1.471033792964672737e-01
-2.240800000000000125e+01 3.531499999999999773e+01 -3.609300000000000175e+00 2.056472999999999995e+00 -1.529354631928211694e-01
-2.240700000000000003e+01 1.043900000000000006e+01 4.331000000000000405e+00 7.809943000000000302e-01 1.104484982882693615e-03
-2.240700000000000003e+01 1.066600000000000037e+01 5.130099999999999660e+00 -5.368947000000000358e+00 -4.312980385215132995e-02
-2.240599999999999881e+01 3.019099999999999895e+01 -6.643399999999999750e+00 3.100294999999999845e+01 -1.505888699161783695e-01
-2.239099999999999824e+01 1.592300000000000004e+01 -1.100500000000000078e+01 1.569892999999999983e+00 -2.903935735004502527e-01
-2.236899999999999977e+01 1.372700000000000031e+01 -9.708399999999999253e+00 5.642233000000000054e+00 -2.911261830089024727e-01
-2.236700000000000088e+01 2.492299999999999827e+01 1.283600000000000030e+01 2.816902999999999935e+00 2.147802881832153454e-01
-2.234499999999999886e+01 1.195899999999999963e+01 5.948900000000000077e+00 -1.623787000000000091e+01 -8.053953931951210454e-02
-2.234400000000000119e+01 1.926399999999999935e+01 1.073799999999999955e+01 4.502482999999999791e+00 1.904291086283797507e-01
-2.233699999999999974e+01 3.731799999999999784e+01 -1.191300000000000026e+00 5.972406000000000326e+00 -1.552360966233568562e-01
-2.233500000000000085e+01 3.051300000000000168e+01 -6.067000000000000171e+00 2.964304999999999879e+01 -1.511396485135229617e-01
-2.233500000000000085e+01 3.137900000000000134e+01 -6.067000000000000171e+00 3.422500999999999749e+01 -1.511189672501230818e-01
-2.231700000000000017e+01 2.007199999999999918e+01 -1.231300000000000061e+01 -4.050862999999999658e+00 -3.260488714633044127e-01
-2.231099999999999994e+01 1.739300000000000068e+01 8.195000000000000284e+00 -4.057594000000000278e+01 -1.924268834527523564e-01
-2.230799999999999983e+01 2.179899999999999949e+01 -1.164799999999999969e+01 -3.315753000000000172e-01 -3.232134593204918915e-01
-2.228699999999999903e+01 1.928500000000000014e+01 9.836899999999999977e+00 1.969511999999999929e+01 1.629879805141562499e-01
-2.228200000000000003e+01 3.357099999999999795e+01 9.939399999999999125e+00 1.745221000000000089e+01 -1.457961763846280789e-01
-2.228099999999999881e+01 2.802700000000000102e+01 1.125600000000000023e+01 -2.651024999999999920e+01 1.838743119055419595e-01
-2.228000000000000114e+01 1.895299999999999940e+01 -1.217099999999999937e+01 -2.294144000000000183e+00 -2.897826734184088537e-01
-2.227199999999999847e+01 3.772699999999999676e+01 1.463400000000000034e+00 2.549087999999999798e+00 -1.581948367887298645e-01
-2.226200000000000045e+01 1.497600000000000087e+01 7.025299999999999656e+00 1.115883999999999965e+01 1.089846026797035572e-01
-2.225799999999999912e+01 2.407600000000000051e+01 -1.243999999999999950e+01 8.675654000000000421e-01 -3.203737551409974182e-01
-2.225199999999999889e+01 3.799499999999999744e+01 5.965300000000000047e-01 2.227101999999999915e+00 -1.571636991044643716e-01
-2.224399999999999977e+01 1.138499999999999979e+01 -1.293799999999999950e-01 2.868910000000000071e+00 -3.012251772790559001e-01
-2.224399999999999977e+01 1.895700000000000074e+01 9.016299999999999315e+00 8.563169000000000253e+00 1.402821416775164309e-01
-2.224299999999999855e+01 2.641900000000000048e+01 -1.216600000000000037e+01 -2.478403000000000134e+01 -3.176778859988486081e-01
-2.223900000000000077e+01 1.548700000000000010e+01 -1.076299999999999990e+01 9.414118000000000208e-01 -2.905845096834883678e-01
-2.222100000000000009e+01 2.097299999999999898e+01 1.358999999999999986e+01 3.029749999999999943e+00 2.574408339746143137e-01
-2.221499999999999986e+01 1.520899999999999919e+00 -2.479400000000000048e+00 1.257009999999999961e+00 -2.202932187010397391e-01
-2.221000000000000085e+01 1.172899999999999920e+01 -9.442599999999999882e-01 3.072623000000000104e+00 -2.993232973649042616e-01
-2.220700000000000074e+01 3.281099999999999994e+01 1.075799999999999912e+01 9.755297000000000274e-02 -1.459070659242535650e-01
-2.220599999999999952e+01 3.516199999999999903e+01 6.032799999999999940e+00 6.517363999999999713e+00 -1.458500501239204106e-01
-2.220299999999999940e+01 2.672800000000000153e+01 -1.139300000000000068e+01 -1.537705000000000055e+01 -3.170046770537277014e-01
-2.219399999999999906e+01 3.277499999999999858e+01 -4.725500000000000256e+00 9.275391000000000830e+00 -1.524463260000682996e-01
-2.219300000000000139e+01 2.044999999999999929e+01 1.331499999999999950e+01 5.439384000000000441e+00 2.555969524413237992e-01
-2.218900000000000006e+01 3.405700000000000216e+01 -3.974200000000000177e+00 -1.386028999999999956e+00 -1.530720383449813982e-01
-2.217599999999999838e+01 1.307199999999999918e+01 -9.140000000000000568e+00 1.076844000000000001e+01 -2.915682488118210847e-01
-2.217299999999999827e+01 2.437000000000000099e+01 3.486000000000000210e+00 7.562914000000000136e+00 1.124808196921698034e-01
-2.215700000000000003e+01 2.941900000000000048e+01 1.078299999999999947e+01 -1.016086000000000045e+00 -1.500135733566994867e-01
-2.215700000000000003e+01 3.050400000000000134e+01 1.133099999999999952e+01 5.930194000000000187e+01 -1.478496929330953280e-01
-2.215599999999999881e+01 1.596999999999999975e+00 9.497600000000000486e-02 9.574643999999999266e+00 -2.185366331762249870e-01
-2.215599999999999881e+01 3.146999999999999797e+00 9.497600000000000486e-02 -1.309482999999999997e+01 -2.143875156084013578e-01
-2.214999999999999858e+01 1.190199999999999925e+01 -2.613700000000000134e+00 7.632577999999999641e+00 -2.970645337273062347e-01
-2.214900000000000091e+01 3.529699999999999704e+01 5.173000000000000043e+00 9.102465999999999724e+00 -1.450714860875077783e-01
-2.214699999999999847e+01 1.201999999999999957e+01 -1.727000000000000091e+00 7.592469000000000356e+00 -2.979182704584345531e-01
-2.212999999999999901e+01 1.615099999999999980e+01 7.720600000000000129e+00 -6.314572000000000074e+00 1.176979383321106465e-01
-2.212699999999999889e+01 1.722699999999999898e+00 -3.100099999999999856e+00 1.994018999999999986e+00 -2.207267533713746510e-01
-2.211499999999999844e+01 2.467299999999999827e+01 2.786000000000000032e+00 3.222522000000000109e+00 1.184542671708085082e-01
-2.211499999999999844e+01 2.467299999999999827e+01 4.185999999999999943e+00 8.088827999999999463e+00 1.368115738068170217e-01
-2.211299999999999955e+01 1.247700000000000031e+01 -8.352999999999999758e+00 1.374526000000000003e+01 -2.920866443238225307e-01
-2.211299999999999955e+01 1.247700000000000031e+01 -6.881000000000000227e+00 8.234820000000000473e-01 -2.929068436330548586e-01
-2.211299999999999955e+01 1.268599999999999994e+01 -7.616999999999999993e+00 1.880764999999999887e+01 -2.924174428715841101e-01
-2.210000000000000142e+01 2.217699999999999960e+01 1.250799999999999912e+01 4.905260000000000176e+00 2.372904312442366825e-01
-2.209499999999999886e+01 3.579200000000000159e+01 -3.010299999999999976e+00 4.800779000000000019e-01 -1.540709659231296880e-01
-2.209299999999999997e+01 2.596999999999999886e+01 2.063600000000000101e+00 9.791294000000000608e+00 1.279266182104263350e-01
-2.208800000000000097e+01 3.384300000000000352e+01 8.986000000000000654e+00 2.144136999999999915e+01 -1.460427883920188130e-01
-2.208399999999999963e+01 1.290799999999999947e+01 5.745800000000000018e+00 -9.370801999999999410e+00 1.456366026650134926e-01
-2.208299999999999841e+01 1.176399999999999935e+01 -3.460999999999999854e+00 4.225465999999999944e+00 -2.963330387065488680e-01
-2.208299999999999841e+01 1.187599999999999945e+01 -4.267100000000000115e+00 3.124187000000000047e+00 -2.953456185598590245e-01
-2.208099999999999952e+01 3.529800000000000182e+01 4.360999999999999766e+00 1.100905999999999985e+01 -1.643541226046785209e-01
-2.207700000000000173e+01 5.135600000000000165e+00 -3.856700000000000017e+00 6.994493000000000293e+00 -2.206875128261956698e-01
-2.207700000000000173e+01 5.135600000000000165e+00 -2.095299999999999940e+00 -2.889419999999999877e+00 -2.190348963967587714e-01
-2.206299999999999883e+01 2.562300000000000111e+01 1.277800000000000047e+01 1.965984999999999872e+01 2.072928199332762789e-01
-2.205699999999999861e+01 2.710300000000000153e+01 3.687100000000000044e+00 5.964424000000000170e+00 1.234557612729367815e-01
-2.205399999999999849e+01 1.794099999999999895e+01 -1.122400000000000020e+01 -2.213861000000000079e+00 -2.901545284562677129e-01
-2.205300000000000082e+01 3.670000000000000284e+01 3.068000000000000060e+00 4.795085000000000264e+01 -1.612224887287479480e-01
-2.203600000000000136e+01 1.936199999999999832e+01 1.244699999999999918e+01 5.916293000000000246e-01 2.221225748465312511e-01
-2.202400000000000091e+01 2.321600000000000108e+01 1.266200000000000081e+01 2.989840000000000053e+00 2.278025507445311515e-01
-2.202299999999999969e+01 3.744000000000000217e+00 -4.525999999999999801e+00 2.229011999999999993e+00 -2.211237178472949816e-01
-2.202299999999999969e+01 3.560099999999999909e+01 3.661000000000000032e+00 1.673611000000000004e+01 -1.629926849952379186e-01
-2.202199999999999847e+01 1.104199999999999982e+01 2.164299999999999891e+00 4.835848999999999620e+00 -3.041550806188313416e-01
-2.200300000000000011e+01 2.918400000000000105e+01 -8.812300000000000466e+00 7.509799000000000113e+00 -1.503020720064490168e-01
-2.199299999999999855e+01 1.067800000000000082e+01 2.976999999999999869e+00 3.092839999999999812e+00 4.034106403171816568e-02
-2.199299999999999855e+01 2.694200000000000017e+01 1.194599999999999973e+01 5.368580999999999648e+01 1.924877970506306823e-01
-2.198300000000000054e+01 2.591499999999999915e+01 4.518699999999999939e+00 5.226268000000000136e+00 1.421017762573602017e-01
-2.198100000000000165e+01 2.512300000000000111e+01 -1.323600000000000065e+01 1.036345000000000072e+00 -3.197654289122688342e-01
-2.197299999999999898e+01 2.949099999999999966e+01 -6.910800000000000054e+00 1.047127000000000052e+01 -1.514417635946506968e-01
-2.197100000000000009e+01 1.926099999999999923e+01 1.142099999999999937e+01 1.528156000000000070e+00 -1.342007282014195391e-01
-2.194800000000000040e+01 2.505999999999999872e+01 2.041700000000000070e+00 8.305675000000000807e+00 1.230216418418659530e-01
-2.194300000000000139e+01 3.132600000000000051e+01 1.132000000000000028e+01 2.234018000000000015e+01 -1.467783560937563625e-01
-2.193799999999999883e+01 3.094600000000000151e+01 -5.575999999999999623e+00 2.291163999999999845e+01 -1.524121179982970697e-01
-2.193700000000000117e+01 1.119899999999999984e+01 5.560699999999999754e+00 -3.231490000000000151e+01 -7.316331450410600012e-02
-2.193599999999999994e+01 2.716100000000000136e+01 -1.069299999999999962e+01 -2.584802999999999962e+00 -3.164825881183808143e-01
-2.193199999999999861e+01 2.715899999999999892e+01 2.783700000000000063e+00 6.274693000000000076e+00 1.270320532523931401e-01
-2.192899999999999849e+01 2.325499999999999901e+01 -1.248300000000000054e+01 1.737441999999999931e+00 -3.217944276894189048e-01
-2.191900000000000048e+01 1.960900000000000176e+01 1.330599999999999916e+01 1.676890000000000047e-01 2.408077890093207052e-01
-2.191799999999999926e+01 2.758200000000000074e+01 -1.036100000000000065e+01 5.220460000000000100e+00 -3.159078896243985302e-01
-2.190200000000000102e+01 2.981299999999999883e+01 -6.334299999999999820e+00 1.384628999999999976e+01 -1.519955876248249294e-01
-2.189199999999999946e+01 3.395000000000000284e+01 8.058299999999999130e+00 3.107341999999999871e+01 -1.463420566322941319e-01
-2.188899999999999935e+01 2.369500000000000028e+01 1.351600000000000001e+01 -3.124624999999999764e-01 2.320793523080005305e-01
-2.187500000000000000e+01 2.249899999999999878e+01 -1.191499999999999915e+01 2.424682999999999922e+00 -3.227470093396246908e-01
-2.185800000000000054e+01 2.319500000000000117e+00 -3.643800000000000150e+00 1.824411000000000005e+00 -2.212764915065949245e-01
-2.185600000000000165e+01 2.100600000000000023e+01 -1.197700000000000031e+01 -5.249126000000000403e+00 -3.250599900621004013e-01
-2.185300000000000153e+01 2.589399999999999835e+01 -1.274300000000000033e+01 -1.882576000000000027e+00 -3.188838267274198834e-01
-2.185300000000000153e+01 2.871900000000000119e+01 1.084200000000000053e+01 -7.060769999999999413e+01 1.790344081954305111e-01
-2.185300000000000153e+01 3.011899999999999977e+01 1.084200000000000053e+01 4.547601000000000226e+01 -1.486402732555099915e-01
-2.185000000000000142e+01 2.395499999999999829e+01 2.850699999999999790e+00 3.232021000000000033e+00 1.112489500272212661e-01
-2.183099999999999952e+01 3.790599999999999881e+01 -2.067100000000000048e-01 1.823418999999999901e+00 -1.570810678563398510e-01
-2.182700000000000173e+01 1.196899999999999942e+01 -6.283400000000000318e+00 -3.020369000000000081e+00 -2.937566751723587055e-01
-2.182600000000000051e+01 1.960300000000000153e+01 -1.274699999999999989e+01 -2.119972999999999885e+00 -2.897506890142304004e-01
-2.182300000000000040e+01 2.343299999999999983e+01 1.428400000000000070e+01 -5.008825000000000083e-01 2.230463024802810668e-01
-2.182000000000000028e+01 1.692399999999999949e+01 7.761099999999999888e+00 -1.900160999999999945e+01 1.160965872028072166e-01
-2.181599999999999895e+01 1.193599999999999994e+01 -5.207300000000000040e+00 2.139745000000000008e+00 -2.946966989587628816e-01
-2.180000000000000071e+01 3.157000000000000028e+01 -5.214999999999999858e+00 2.721593000000000018e+01 -1.529743264902432009e-01
-2.179700000000000060e+01 4.682400000000000340e+00 -1.362000000000000099e+00 1.576464000000000087e+00 -2.188114732421351238e-01
-2.178900000000000148e+01 2.167299999999999827e+01 1.332199999999999918e+01 4.258150999999999797e+00 2.353650357664419102e-01
-2.178699999999999903e+01 1.837300000000000111e+01 -1.192399999999999949e+01 -4.157098999999999656e+00 -2.900576863594466759e-01
-2.178399999999999892e+01 1.427299999999999969e+01 -1.016600000000000037e+01 1.498664999999999914e+00 -2.911723094232185338e-01
-2.176999999999999957e+01 3.631700000000000017e+01 -2.160299999999999887e+00 3.510762999999999856e+00 -1.554540079925871010e-01
-2.176999999999999957e+01 1.127500000000000036e+01 5.553799999999999848e-01 2.227073999999999998e+00 -3.038124707962074345e-01
-2.176999999999999957e+01 1.127500000000000036e+01 1.420600000000000085e+00 4.097597000000000378e+00 -3.042573941046779473e-01
-2.176500000000000057e+01 1.100900000000000034e+01 -6.194399999999999906e-01 3.209718000000000071e+00 -3.029931915642104512e-01
-2.175900000000000034e+01 1.469999999999999929e+01 -1.060500000000000043e+01 8.163500999999999674e-01 -2.909692190705593928e-01
-2.175900000000000034e+01 1.782600000000000051e+01 7.737099999999999866e+00 -4.783674000000000426e+00 -1.990425360193530668e-01
-2.175900000000000034e+01 3.352000000000000313e+01 -4.414500000000000313e+00 -3.126996999999999804e+00 -1.536090772478764244e-01
-2.175700000000000145e+01 3.717900000000000205e+01 2.293000000000000149e+00 -9.979618000000000322e+00 -1.604495423628176654e-01
-2.175499999999999901e+01 2.447500000000000142e+01 -1.313400000000000034e+01 8.458439999999999515e+00 -3.206799224580233476e-01
-2.175199999999999889e+01 1.999599999999999866e+01 1.405000000000000071e+01 1.876864000000000088e+00 2.469032930525262015e-01
-2.175199999999999889e+01 2.104599999999999937e+01 1.405000000000000071e+01 1.539207999999999998e+01 2.452332202366337144e-01
-2.174399999999999977e+01 1.258099999999999952e+01 -8.743399999999999395e+00 1.038753999999999955e+01 -2.921058278324827340e-01
-2.173699999999999832e+01 1.438000000000000078e+01 6.543700000000000294e+00 1.098489999999999966e+01 9.049339604421274830e-02
-2.173699999999999832e+01 2.625799999999999912e+01 1.721300000000000052e+00 7.378346999999999767e+00 1.271503996241975798e-01
-2.173000000000000043e+01 2.284199999999999875e+01 1.402200000000000024e+01 4.247727000000000031e-01 2.292844647949007497e-01
-2.171999999999999886e+01 3.449099999999999966e+01 -3.483499999999999819e+00 -3.428390999999999966e+00 -1.544639649749631749e-01
-2.171900000000000119e+01 1.133200000000000074e+01 -1.376900000000000013e+00 5.091139000000000081e+00 -3.007300986901659812e-01
-2.171799999999999997e+01 2.510600000000000165e+01 4.676899999999999835e+00 4.127336999999999811e+00 1.402590172914261468e-01
-2.170799999999999841e+01 4.174299999999999677e+00 -6.511799999999999811e-01 -1.511022000000000087e+00 -2.178828453499810913e-01
-2.170299999999999940e+01 1.705600000000000094e+01 -1.118999999999999950e+01 -1.544380000000000086e+00 -2.904348086877877044e-01
-2.169099999999999895e+01 1.574000000000000021e+01 7.459500000000000242e+00 4.330497000000000263e+00 1.007173761611154933e-01
-2.169000000000000128e+01 3.472500000000000142e+01 5.559999999999999609e+00 2.843862000000000112e+00 -1.459597630695531334e-01
-2.168400000000000105e+01 3.677600000000000335e+01 -1.544200000000000017e+00 -2.753131999999999802e-01 -1.561667736167525189e-01
-2.168199999999999861e+01 2.397299999999999898e+01 3.918600000000000083e+00 7.910444000000000031e+00 1.334418822919559156e-01
-2.167999999999999972e+01 2.295899999999999963e+01 1.351600000000000001e+01 7.012308999999999903e-01 2.389332861104721817e-01
-2.167999999999999972e+01 2.661499999999999844e+01 4.460399999999999920e+00 5.301472000000000406e+00 1.438315518595634779e-01
-2.167699999999999960e+01 8.219999999999999529e-01 -1.159000000000000030e+00 8.825283000000000433e-01 -2.220550684619723436e-01
-2.167699999999999960e+01 1.053500000000000103e+00 -1.973899999999999988e+00 -2.203170000000000073e+00 -2.218625666616058645e-01
-2.167699999999999960e+01 1.053500000000000103e+00 -3.441199999999999815e-01 2.063274999999999970e+00 -2.218654090623918551e-01
-2.167699999999999960e+01 2.371999999999999886e+00 3.910000000000000142e-01 1.157368999999999915e+01 -2.189320075473610849e-01
-2.167699999999999960e+01 3.742999999999999883e+00 -2.449699999999999933e-01 -1.103481000000000023e+01 -2.174096186451212331e-01
-2.167399999999999949e+01 2.421900000000000119e+01 2.050899999999999945e+00 6.773043000000000369e+00 1.163469897368150929e-01
-2.167200000000000060e+01 3.430599999999999739e+01 7.235999999999999766e+00 5.214838000000000306e+01 -1.463073895463070373e-01
-2.166499999999999915e+01 1.075300000000000011e+01 5.012400000000000411e+00 -1.066878999999999955e+01 -5.139510102840300076e-02
-2.165899999999999892e+01 1.150500000000000078e+01 -2.181000000000000050e+00 4.055553999999999881e+00 -2.991223800388894127e-01
-2.165500000000000114e+01 1.592300000000000004e+01 -1.121400000000000041e+01 4.897608999999999990e-02 -2.906388167733761074e-01
-2.165500000000000114e+01 3.502700000000000102e+01 -3.144000000000000128e+00 -1.188846999999999987e+00 -1.548642213111958710e-01
-2.165399999999999991e+01 2.453600000000000136e+01 1.358399999999999963e+01 -9.182835999999999776e-01 2.218046994286727858e-01
-2.164799999999999969e+01 3.753699999999999903e+01 1.554999999999999938e+00 -9.017402000000000584e+00 -1.595385905654457537e-01
-2.164099999999999824e+01 2.321900000000000119e+01 2.850699999999999790e+00 1.187190999999999974e+01 1.279008892804471276e-01
-2.163500000000000156e+01 3.024599999999999866e+01 -5.634299999999999642e+00 1.233056000000000019e+01 -1.531399682707489385e-01
-2.162500000000000000e+01 1.351800000000000068e+01 -9.557000000000000384e+00 2.784108999999999945e+00 -2.916170922466041482e-01
-2.160600000000000165e+01 1.059500000000000064e+01 3.877499999999999947e+00 1.406422999999999979e+00 -3.390362574907378494e-04
-2.159600000000000009e+01 3.442900000000000205e+01 6.324399999999999800e+00 5.900954999999999728e+00 -1.464892038310794953e-01
-2.159600000000000009e+01 2.423199999999999932e+01 1.428400000000000070e+01 -1.209641000000000055e+01 2.122476585540914173e-01
-2.159499999999999886e+01 2.450300000000000011e+01 1.882700000000000173e+01 -1.635480999999999963e+00 1.854744138438069456e-01
-2.158999999999999986e+01 3.478999999999999915e+01 4.726300000000000168e+00 3.536459999999999937e+00 -1.452520986511739165e-01
-2.158999999999999986e+01 3.490100000000000335e+01 3.928399999999999892e+00 6.959797000000000011e+00 -1.445330353264338008e-01
-2.158200000000000074e+01 2.352199999999999847e+01 2.150700000000000056e+00 1.102819000000000038e+01 1.112016656713684937e-01
-2.158200000000000074e+01 2.352199999999999847e+01 3.550699999999999967e+00 9.596522000000000219e+00 1.306557896628078308e-01
-2.157199999999999918e+01 2.179899999999999949e+01 -1.185699999999999932e+01 -4.253092999999999790e+00 -3.241316597689652412e-01
-2.156700000000000017e+01 4.557199999999999918e+00 -4.367200000000000415e+00 1.042143000000000086e+01 -2.218373496514133014e-01
-2.156299999999999883e+01 2.852499999999999858e+01 -9.222300000000000608e+00 4.124185999999999908e+00 -1.152684349025448751e-01
-2.154400000000000048e+01 2.968999999999999861e+00 -4.230000000000000426e+00 2.084436000000000067e-01 -2.219306395984124158e-01
-2.154299999999999926e+01 2.635999999999999943e+01 -1.186299999999999955e+01 -4.690535999999999817e+00 -3.183308860043447264e-01
-2.153999999999999915e+01 3.753499999999999659e+01 -1.026799999999999935e+00 -3.868843000000000032e+00 -1.568229815565950758e-01
-2.153300000000000125e+01 2.296300000000000097e+01 1.504400000000000048e+01 -3.066870999999999903e+00 -1.046642987398165997e-01
-2.153300000000000125e+01 2.390299999999999869e+01 1.504400000000000048e+01 -4.010372000000000270e+00 -1.036192880882873535e-01
-2.153300000000000125e+01 2.368799999999999883e+01 -1.297400000000000020e+01 5.206024000000000207e+00 -3.218010757869941285e-01
-2.152100000000000080e+01 2.210600000000000165e+01 1.402200000000000024e+01 4.057542999999999900e+00 2.308195085162906557e-01
-2.151899999999999835e+01 2.650300000000000011e+01 1.244200000000000017e+01 1.215279000000000025e+02 1.972397199927236611e-01
-2.151200000000000045e+01 5.695800000000000196e+00 -3.636499999999999844e+00 1.059023999999999965e+01 -2.972644889040227945e-01
-2.151000000000000156e+01 1.911299999999999955e+01 1.319200000000000017e+01 -1.021257999999999999e+00 2.110901579070375289e-01
-2.150300000000000011e+01 2.667000000000000171e+01 -1.108999999999999986e+01 -4.476701000000000263e+00 -3.176746876801123110e-01
-2.150199999999999889e+01 1.846900000000000119e+01 7.913199999999999790e+00 5.387242999999999782e+00 -1.955162217555926896e-01
-2.149699999999999989e+01 1.884299999999999997e+01 -1.268399999999999928e+01 -3.130853999999999804e+00 -2.899550445419630806e-01
-2.149699999999999989e+01 2.036299999999999955e+01 -1.268399999999999928e+01 -4.756819000000000131e+00 -2.897442511337421367e-01
-2.148999999999999844e+01 5.891099999999999781e+00 -2.774000000000000021e+00 1.049183000000000021e+01 -2.994308536657669384e-01
-2.145700000000000074e+01 3.077100000000000080e+01 1.089899999999999913e+01 5.079753000000000185e+01 1.747325374376250684e-01
-2.144399999999999906e+01 1.964799999999999969e+01 1.022000000000000064e+01 5.257164999999999644e+00 1.695873555142570210e-01
-2.143100000000000094e+01 1.193099999999999916e+01 5.635600000000000165e+00 -1.406644000000000005e+01 -7.866807558215269114e-02
-2.142099999999999937e+01 2.941900000000000048e+01 1.057399999999999984e+01 -6.679617999999999611e+00 1.757208935390575377e-01
-2.141600000000000037e+01 2.802700000000000102e+01 1.125600000000000023e+01 -3.014304999999999879e+01 1.827764320530229913e-01
-2.141499999999999915e+01 2.440599999999999881e+01 4.618599999999999817e+00 6.347339999999999982e+00 1.376197392731551561e-01
-2.141300000000000026e+01 1.241900000000000048e+01 -8.049599999999999866e+00 1.315690999999999988e+01 -2.927241525887555040e-01
-2.141300000000000026e+01 1.241900000000000048e+01 -7.184400000000000119e+00 1.001285000000000025e+01 -2.932662342601157213e-01
-2.140800000000000125e+01 1.020599999999999952e+01 -5.620000000000000551e-01 3.273487999999999953e+00 -3.067019267515819214e-01
-2.140299999999999869e+01 3.200300000000000011e+01 -4.724099999999999966e+00 5.803374999999999950e+00 -1.542445284115735171e-01
-2.138299999999999912e+01 1.149699999999999989e+01 -3.028399999999999981e+00 3.797766000000000197e+00 -2.982056980396666224e-01
-2.138299999999999912e+01 1.160899999999999999e+01 -3.834499999999999797e+00 2.623029999999999973e+00 -2.969401969575083955e-01
-2.138200000000000145e+01 2.401000000000000156e+01 -1.403599999999999959e+01 3.410467000000000137e+00 -3.218343459117100624e-01
-2.137800000000000011e+01 1.913100000000000023e+01 1.381900000000000084e+01 -3.233365999999999740e-01 2.149238549545501031e-01
-2.136799999999999855e+01 2.751899999999999835e+01 3.426699999999999857e+00 6.559414000000000300e+00 1.427131830508484023e-01
-2.136799999999999855e+01 2.370400000000000063e+01 1.882700000000000173e+01 -4.057766999999999902e-01 1.853532512597114157e-01
-2.136799999999999855e+01 2.530199999999999960e+01 1.882700000000000173e+01 -1.123051999999999939e+00 1.837272809303470145e-01
-2.136400000000000077e+01 5.382399999999999629e+00 -1.629299999999999971e+00 5.482382999999999562e+00 -2.212092384858790339e-01
-2.136199999999999832e+01 1.739300000000000068e+01 7.246199999999999974e+00 -9.596882000000000801e+00 -2.093667519435753466e-01
-2.135900000000000176e+01 2.749299999999999855e+01 1.159500000000000064e+01 -8.247597000000000733e+00 1.865470338958840901e-01
-2.135399999999999920e+01 1.767299999999999827e+01 -1.165600000000000058e+01 -1.409362000000000004e+00 -2.903553832282575464e-01
-2.134299999999999997e+01 1.934199999999999875e+01 1.100000000000000000e+01 2.433771000000000129e+00 -1.794944658178397601e-01
-2.133999999999999986e+01 2.582600000000000051e+01 1.230399999999999938e+00 7.274761999999999951e+00 1.243679719114529625e-01
-2.133699999999999974e+01 1.057499999999999929e+01 -1.411999999999999922e+00 3.439545999999999992e+00 -3.031874559688104709e-01
-2.133699999999999974e+01 1.057499999999999929e+01 2.879999999999999782e-01 2.959407000000000121e+00 -3.076576534740794733e-01
-2.132300000000000040e+01 3.533400000000000318e+01 3.228400000000000158e+00 2.198599000000000103e+01 -1.639551490708428816e-01
-2.132199999999999918e+01 1.098399999999999999e+01 9.956099999999999950e-01 3.063150999999999957e+00 -3.066909047372373687e-01
-2.132199999999999918e+01 1.098399999999999999e+01 1.860899999999999999e+00 4.399132999999999960e+00 -3.068710843986363068e-01
-2.130999999999999872e+01 2.721600000000000108e+01 4.126699999999999591e+00 5.975038999999999767e+00 1.441657987878132152e-01
-2.130499999999999972e+01 2.403300000000000125e+01 1.806700000000000017e+01 -5.364786000000000277e-01 -1.268144389000000483e-01
-2.130499999999999972e+01 2.403300000000000125e+01 1.958699999999999974e+01 -6.730846000000000329e-01 1.769552444064046992e-01
-2.130499999999999972e+01 2.497299999999999898e+01 1.806700000000000017e+01 -6.580390999999999879e-01 -1.229669349497189701e-01
-2.130499999999999972e+01 2.497299999999999898e+01 1.958699999999999974e+01 -1.132144999999999957e+00 1.772353649563047640e-01
-2.130399999999999849e+01 1.388899999999999935e+01 6.147100000000000009e+00 8.171974000000000515e+00 9.962078555261444368e-02
-2.130399999999999849e+01 1.489600000000000080e+01 7.154399999999999871e+00 1.082000000000000028e+01 8.278143547692368154e-02
-2.130199999999999960e+01 2.540599999999999881e+01 1.306900000000000084e+01 2.099340000000000117e+01 2.081287435563519972e-01
-2.128699999999999903e+01 3.400000000000000000e+01 -3.880100000000000104e+00 -6.599806000000000061e+00 -1.550129839251967734e-01
