-1.270999999999999908e+00 -3.720199999999999818e+01 -7.702500000000000568e+01 4.582078000000000095e+00 6.779770068977829245e-02
-1.256299999999999972e+00 -2.459600000000000009e+01 -5.384499999999999886e+01 6.315433999999999770e+00 5.820687654958595081e-02
-1.256000000000000005e+00 -2.991400000000000148e+01 -6.009799999999999898e+01 -7.633289999999999687e+00 -4.383479206721025562e-02
-1.256000000000000005e+00 -2.991400000000000148e+01 -5.869800000000000040e+01 -4.051050000000000040e+00 -4.260987776069732891e-02
-1.256000000000000005e+00 -2.904799999999999827e+01 -6.009799999999999898e+01 -1.561711000000000027e+01 6.458522572137084805e-02
-1.256000000000000005e+00 -2.904799999999999827e+01 -5.869800000000000040e+01 -1.258527999999999913e+01 -4.516308782937410171e-02
-1.252499999999999947e+00 -3.805499999999999972e+01 -7.821699999999999875e+01 -1.193200000000000038e+00 5.102512037883429052e-02
-1.230299999999999949e+00 -2.531800000000000139e+01 -5.457000000000000028e+01 3.273581000000000074e+00 5.851439149322904681e-02
-1.227300000000000058e+00 -3.582699999999999818e+01 -7.610399999999999920e+01 5.783959000000000295e+00 6.820710334040414047e-02
-1.225000000000000089e+00 -2.345100000000000051e+01 -5.149000000000000199e+01 1.162100000000000044e+01 -6.214953356145667962e-02
-1.221899999999999986e+00 -1.734499999999999886e+01 -6.081000000000000227e+01 1.503758999999999979e+01 -1.436266446938392338e-01
-1.219500000000000028e+00 -3.599399999999999977e+01 -6.308200000000000074e+01 -5.909763999999999573e-01 -1.423022730533571312e-01
-1.215799999999999992e+00 -3.713199999999999790e+01 -6.702400000000000091e+01 -1.973186000000000107e+00 -3.790312739402722231e-02
-1.210299999999999931e+00 -2.732400000000000162e+01 -5.427900000000000347e+01 -9.303261000000000447e-01 -1.556147548411576376e-01
-1.209000000000000075e+00 -1.749399999999999977e+01 -7.284000000000000341e+01 1.473123999999999967e+01 -1.417171498251423301e-01
-1.206599999999999895e+00 -3.805199999999999960e+01 -7.933899999999999864e+01 -4.552571000000000256e-01 -5.682274670351770973e-02
-1.197699999999999987e+00 -2.874500000000000099e+01 -5.939800000000000324e+01 -2.379707000000000150e+01 6.384001219774915192e-02
-1.194299999999999917e+00 -3.490999999999999659e+01 -7.201399999999999579e+01 -3.341184000000000154e+00 6.757770771005514043e-02
-1.190199999999999925e+00 -4.397699999999999676e+01 -6.040699999999999648e+01 9.260779000000000094e-01 -3.499999999999999778e-01
-1.178299999999999903e+00 -2.734700000000000131e+01 -7.605700000000000216e+01 5.460920999999999692e-01 -1.463552490348498658e-01
-1.177999999999999936e+00 -1.097700000000000031e+01 -5.878399999999999892e+01 -5.445373000000000019e+00 -2.409315550220604563e-01
-1.177100000000000035e+00 -4.339200000000000301e+01 -5.905400000000000205e+01 3.723767000000000049e-01 -3.499999999999999778e-01
-1.168400000000000105e+00 -4.364999999999999858e+01 -5.984599999999999653e+01 -3.756173999999999902e-01 -3.499999999999999778e-01
-1.165999999999999925e+00 -4.295900000000000318e+01 -5.835000000000000142e+01 1.300329000000000068e+00 -3.499999999999999778e-01
-1.163999999999999924e+00 -2.759199999999999875e+01 -7.680899999999999750e+01 7.839637999999999884e-01 -1.462114745004779448e-01
-1.161399999999999988e+00 -2.897899999999999920e+01 -7.881799999999999784e+01 2.749348999999999821e-01 -1.460920374048870207e-01
-1.159599999999999964e+00 -1.448799999999999955e+01 -6.616599999999999682e+01 1.918994000000000000e+01 -1.381879773536454636e-01
-1.152700000000000058e+00 -2.181800000000000139e+01 -5.692600000000000193e+01 -2.032903999999999911e+01 -5.208483071189610319e-02
-1.151499999999999968e+00 -3.088299999999999912e+01 -5.432200000000000273e+01 -8.390672000000000130e-01 -1.391169703380028544e-01
-1.151499999999999968e+00 -2.948300000000000054e+01 -5.432200000000000273e+01 -5.861330000000000151e-01 -1.458259559244813874e-01
-1.151000000000000023e+00 -1.965599999999999881e+01 -7.712900000000000489e+01 -4.099316999999999922e+01 -1.426491421771302615e-01
-1.145699999999999941e+00 -1.768700000000000117e+01 -7.578000000000000114e+01 4.511259000000000241e-01 -1.418925029040050689e-01
-1.144800000000000040e+00 -1.925100000000000122e+01 -7.214499999999999602e+01 1.492572999999999972e+01 -1.428410843886790682e-01
-1.143000000000000016e+00 -3.384199999999999875e+01 -4.927499999999999858e+01 3.916887000000000008e+00 -2.682473347944456243e-01
-1.143000000000000016e+00 -3.384199999999999875e+01 -4.676700000000000301e+01 3.121536000000000044e+01 -2.717468465399037747e-01
-1.143000000000000016e+00 -3.229200000000000159e+01 -4.676700000000000301e+01 7.745277000000000100e+01 -2.686839660028915722e-01
-1.129999999999999893e+00 -3.794599999999999795e+01 -7.986899999999999977e+01 -1.841299999999999937e+00 -5.683210996055352432e-02
-1.106999999999999984e+00 -4.149499999999999744e+01 -6.215999999999999659e+01 4.869279999999999831e+00 -3.499999999999999778e-01
-1.102000000000000091e+00 -1.631200000000000117e+01 -7.485899999999999466e+01 7.382848000000000077e+00 -1.412841286646996930e-01
-1.102000000000000091e+00 -1.631200000000000117e+01 -7.380899999999999750e+01 2.982657000000000025e+01 -1.411864830606719134e-01
-1.101499999999999924e+00 -4.385300000000000153e+01 -6.181099999999999994e+01 2.907931000000000266e-01 -3.499999999999999778e-01
-1.098999999999999977e+00 -2.771000000000000085e+01 -7.780100000000000193e+01 3.119803000000000104e+00 -1.459689533932760908e-01
-1.098200000000000065e+00 -2.515599999999999881e+01 -7.543600000000000705e+01 -6.247224000000000110e+00 -1.456620515937533666e-01
-1.089699999999999891e+00 -3.162600000000000122e+01 -4.999900000000000233e+01 3.718299000000000021e+00 -3.499999999999999778e-01
-1.083099999999999952e+00 -2.989099999999999824e+01 -7.957999999999999829e+01 -2.069811999999999941e+01 -1.461396590808508589e-01
-1.082300000000000040e+00 -3.098999999999999844e+01 -4.872099999999999653e+01 1.392428999999999917e+01 -2.623693650282251655e-01
-1.078300000000000036e+00 -2.248900000000000077e+01 -7.795300000000000296e+01 -3.572729000000000044e-01 -1.439151681573845876e-01
-1.076699999999999990e+00 -1.923000000000000043e+01 -7.145000000000000284e+01 1.217151999999999923e+01 -1.429077031059990399e-01
-1.076699999999999990e+00 -1.923000000000000043e+01 -7.058400000000000318e+01 8.181383000000000294e+00 -1.430515049158511132e-01
-1.073700000000000099e+00 -3.768800000000000239e+01 -5.346600000000000108e+01 1.015114999999999945e+01 -3.499999999999999778e-01
-1.072999999999999954e+00 -2.220799999999999841e+01 -5.628699999999999903e+01 -4.993953000000000308e+00 -5.191875629292568017e-02
-1.072999999999999954e+00 -2.220799999999999841e+01 -5.542099999999999937e+01 8.220133000000000578e+00 -5.188582503750245600e-02
-1.071600000000000108e+00 -3.789900000000000091e+01 -6.098700000000000188e+01 5.968035999999999897e-01 -1.372546753889099524e-01
-1.071600000000000108e+00 -3.670799999999999841e+01 -6.032300000000000040e+01 -1.017092000000000063e+01 -1.382983996039610086e-01
-1.071600000000000108e+00 -3.551800000000000068e+01 -6.245900000000000318e+01 -3.284696000000000143e-02 -1.427611040028717027e-01
-1.071600000000000108e+00 -3.551800000000000068e+01 -6.098700000000000188e+01 7.389841999999999800e+00 -1.411960373712651817e-01
-1.071600000000000108e+00 -3.530799999999999983e+01 -6.172299999999999898e+01 2.358607000000000120e+00 -1.423823829935262075e-01
-1.065900000000000070e+00 -3.912100000000000222e+01 -5.422200000000000131e+01 -1.351948999999999934e+01 -3.500000000000000333e-01
-1.063900000000000068e+00 -2.613700000000000045e+01 -7.537199999999999989e+01 -2.934664999999999857e+00 -1.460965855997112262e-01
-1.061500000000000110e+00 -1.557900000000000063e+01 -6.831799999999999784e+01 1.275474999999999959e+01 -1.398600335291423913e-01
-1.043700000000000072e+00 -1.875700000000000145e+01 -5.882699999999999818e+01 9.165661000000000058e+00 -1.549362202265917865e-01
-1.042899999999999938e+00 -3.121900000000000119e+01 -8.034199999999999875e+01 -9.553966999999999876e-01 -1.462685750899053727e-01
-1.037500000000000089e+00 -3.236699999999999733e+01 -4.972599999999999909e+01 3.081885000000000208e+00 -3.499999999999999778e-01
-1.037099999999999911e+00 -3.434199999999999875e+01 -7.996899999999999409e+01 2.838986999999999838e+01 6.944909054114301039e-02
-1.036699999999999955e+00 -2.425400000000000134e+01 -7.541200000000000614e+01 -1.750301999999999936e+01 -1.452470637187538993e-01
-1.033900000000000041e+00 -3.567099999999999937e+01 -5.337899999999999778e+01 -1.562862999999999891e-01 -3.500000000000000333e-01
-1.032100000000000017e+00 -1.527200000000000024e+01 -6.742400000000000659e+01 3.575133999999999901e+01 -1.393238579677481825e-01
-1.021600000000000064e+00 -1.186800000000000033e+01 -5.878499999999999659e+01 -1.312335999999999947e+00 -2.427221255902953789e-01
-1.010999999999999899e+00 -3.694800000000000040e+01 -8.112300000000000466e+01 5.883633999999999986e+01 -5.692350978326057159e-02
-1.010999999999999899e+00 -3.539800000000000324e+01 -8.112300000000000466e+01 1.743903999999999899e+00 6.913187288150021703e-02
-1.009300000000000086e+00 -9.874499999999999389e+00 -5.948400000000000176e+01 4.934942999999999635e+00 -2.378995506915489722e-01
-1.004599999999999937e+00 -1.807199999999999918e+01 -6.975700000000000500e+01 9.739919999999999689e+00 -1.419864821155424062e-01
-1.003100000000000103e+00 -2.099599999999999866e+01 -7.818800000000000239e+01 -1.010588000000000042e+00 -1.432015368213482576e-01
-9.951299999999999590e-01 -3.423799999999999955e+01 -5.248700000000000188e+01 -4.993152000000000257e+00 -3.500000000000000333e-01
-9.935800000000000187e-01 -1.911400000000000077e+01 -7.630899999999999750e+01 -1.380456000000000039e+01 -1.423815871314989268e-01
-9.901100000000000456e-01 -1.305100000000000016e+01 -5.967699999999999960e+01 -3.993262999999999785e+00 -1.269755792964946950e-01
-9.886300000000000088e-01 -2.948100000000000165e+01 -5.939800000000000324e+01 -8.763973999999999265e+00 -4.490369346402929562e-02
-9.877099999999999769e-01 -3.410499999999999687e+01 -7.549500000000000455e+01 -2.368672000000000111e+01 6.891013877851015490e-02
-9.859400000000000386e-01 -1.469699999999999918e+01 -6.659199999999999875e+01 1.052594000000000030e+01 -1.384260799578317935e-01
-9.841600000000000348e-01 -2.042200000000000060e+01 -5.269599999999999795e+01 1.073157999999999923e+01 -5.259799742497863612e-02
-9.811299999999999466e-01 -3.289999999999999858e+01 -5.304099999999999682e+01 -3.139752000000000010e+01 -3.499999999999999778e-01
-9.790200000000000014e-01 -2.207700000000000173e+01 -5.013100000000000023e+01 1.408986999999999945e+01 -5.967602289971776081e-02
-9.790200000000000014e-01 -2.052700000000000102e+01 -5.013100000000000023e+01 4.902978999999999843e+01 -1.637741651252939135e-01
-9.728900000000000325e-01 -1.838800000000000168e+01 -5.967699999999999960e+01 5.492936000000000263e+00 -1.501829866520125734e-01
-9.528799999999999493e-01 -3.815100000000000335e+01 -6.513400000000000034e+01 -1.026348999999999956e+00 -5.312367050151386300e-02
-9.509900000000000020e-01 -1.017800000000000082e+01 -5.878399999999999892e+01 -2.973078999999999805e+00 -2.368531952545847030e-01
-9.498799999999999466e-01 -1.437899999999999956e+01 -6.043900000000000006e+01 3.084203000000000028e+00 -1.320389172548718792e-01
-9.415099999999999580e-01 -1.680099999999999838e+01 -7.290099999999999625e+01 1.640819000000000116e+01 -1.412648330196268620e-01
-9.402199999999999447e-01 -4.259400000000000119e+01 -5.775900000000000034e+01 6.302073000000000036e+00 -3.499999999999999778e-01
-9.397400000000000198e-01 -2.990800000000000125e+01 -5.164699999999999847e+01 2.108951999999999938e+00 -1.300202563193286476e-01
-9.397400000000000198e-01 -2.990800000000000125e+01 -4.875500000000000256e+01 7.978125000000000355e+00 -3.499999999999999778e-01
-9.356600000000000472e-01 -1.851500000000000057e+01 -7.214499999999999602e+01 4.634149999999999991e+00 -1.422012594305696320e-01
-9.340000000000000524e-01 -1.277299999999999969e+01 -6.471500000000000341e+01 4.596118000000000148e-01 -1.351243421033386793e-01
-9.330000000000000515e-01 -4.175999999999999801e+01 -5.592999999999999972e+01 -6.380326000000000164e+00 -3.500000000000000333e-01
-9.330000000000000515e-01 -4.153300000000000125e+01 -5.513100000000000023e+01 -1.320804000000000089e+00 -3.500000000000000333e-01
-9.269500000000000517e-01 -2.601800000000000068e+01 -5.462800000000000011e+01 -6.104238999999999749e+00 -5.499645829402617647e-02
-9.238600000000000145e-01 -3.512700000000000244e+01 -7.604600000000000648e+01 1.835308999999999968e-01 6.848022632247922903e-02
-9.203400000000000469e-01 -4.234499999999999886e+01 -6.214099999999999824e+01 1.604660999999999893e+00 -3.499999999999999778e-01
-9.173599999999999532e-01 -2.083699999999999974e+01 -5.775000000000000000e+01 -4.013653999999999833e+00 -5.233442683388687955e-02
-9.146100000000000341e-01 -1.971499999999999986e+01 -5.874699999999999989e+01 2.218713999999999942e+01 -1.593211449373608812e-01
-9.146100000000000341e-01 -1.808500000000000085e+01 -6.037700000000000244e+01 1.258765999999999963e+01 -1.471466275072249585e-01
-9.134999999999999787e-01 -3.128999999999999915e+01 -4.790100000000000335e+01 6.330203999999999809e+01 -2.640660724367805967e-01
-9.097199999999999731e-01 -3.201500000000000057e+01 -7.480200000000000671e+01 -4.766446000000000183e+00 6.999260799338941075e-02
-9.090000000000000302e-01 -3.645000000000000284e+01 -6.331799999999999784e+01 -2.063181999999999849e+00 -1.424443592964685923e-01
-9.067499999999999449e-01 -3.975000000000000000e+01 -6.253000000000000114e+01 5.595698999999999756e+00 -1.370860366492019922e-01
-9.015699999999999825e-01 -3.239000000000000057e+01 -7.246299999999999386e+01 -7.650536999999999921e+00 6.927591373771821437e-02
-9.003299999999999637e-01 -2.292599999999999838e+01 -5.064000000000000057e+01 1.165656000000000070e+01 -6.745371705707754739e-02
-8.960000000000000187e-01 -3.128300000000000125e+01 -5.072599999999999909e+01 1.535687999999999942e+00 -3.500000000000000333e-01
-8.960000000000000187e-01 -2.853300000000000125e+01 -5.072599999999999909e+01 6.720792999999999573e+00 -1.300223944389428399e-01
-8.960000000000000187e-01 -2.853300000000000125e+01 -4.967600000000000193e+01 2.067312999999999956e+00 -1.159154108705610503e-01
-8.931599999999999540e-01 -3.283400000000000318e+01 -7.981900000000000261e+01 1.019323999999999897e+00 7.008599899914376430e-02
-8.922400000000000331e-01 -1.405499999999999972e+01 -6.546599999999999397e+01 5.450288999999999717e+00 -1.370438155732285057e-01
-8.912400000000000322e-01 -4.030799999999999983e+01 -5.428600000000000136e+01 -2.461380000000000123e+01 -3.499999999999999778e-01
-8.877099999999999991e-01 -1.144699999999999918e+01 -5.802400000000000091e+01 -1.037600000000000078e+00 -2.388489521160948592e-01
-8.877099999999999991e-01 -1.050699999999999967e+01 -5.802400000000000091e+01 -2.634952000000000183e+00 -2.354689202995262076e-01
-8.841599999999999460e-01 -3.131599999999999895e+01 -5.362199999999999989e+01 -7.121254000000000417e+00 -1.356203138036756739e-01
-8.833100000000000396e-01 -3.264500000000000313e+01 -7.504900000000000659e+01 -6.239353000000000371e+00 6.963982621446011823e-02
-8.791200000000000125e-01 -3.618900000000000006e+01 -6.831999999999999318e+01 -3.348428000000000182e+00 4.889539180626210901e-02
-8.791200000000000125e-01 -3.597999999999999687e+01 -6.905599999999999739e+01 -8.939645000000000508e+00 4.916657080426357906e-02
-8.724399999999999933e-01 -2.082199999999999918e+01 -5.343699999999999761e+01 1.716809999999999903e+01 -5.253151541282723158e-02
-8.528599999999999515e-01 -2.349599999999999866e+01 -7.632500000000000284e+01 -8.531714000000000242e-01 -1.446445481869609861e-01
-8.528599999999999515e-01 -2.328699999999999903e+01 -7.706100000000000705e+01 1.631980999999999904e+00 -1.443987408740744771e-01
-8.481400000000000050e-01 -3.018299999999999983e+01 -5.438000000000000256e+01 -4.018031999999999826e+00 -1.451736532593078111e-01
-8.379999999999999671e-01 -3.778099999999999881e+01 -6.602800000000000580e+01 -1.058781999999999890e+00 -5.393253869536390743e-02
-8.293099999999999916e-01 -2.405199999999999960e+01 -5.228600000000000136e+01 6.220308000000000170e+00 -6.062093258543284346e-02
-8.269999999999999574e-01 -1.169200000000000017e+01 -6.414300000000000068e+01 7.059528999999999943e-01 -2.446282414079319345e-01
-8.269999999999999574e-01 -1.014199999999999946e+01 -6.452599999999999625e+01 2.195101999999999887e+00 -2.429452733119208951e-01
-8.269999999999999574e-01 -8.695899999999999963e+00 -6.371999999999999886e+01 1.925222999999999907e+00 -2.408108139739719711e-01
-8.269999999999999574e-01 -8.695899999999999963e+00 -6.193200000000000216e+01 1.254601000000000077e+01 -2.388914574414728043e-01
-8.269999999999999574e-01 -8.442000000000000171e+00 -6.282600000000000051e+01 6.750017999999999851e+00 -2.396654488533090377e-01
-8.235999999999999988e-01 -3.175700000000000145e+01 -7.406900000000000261e+01 -4.934707999999999650e+00 7.002372774394297061e-02
-8.212500000000000355e-01 -3.696099999999999852e+01 -5.335499999999999687e+01 4.050886000000000209e+00 -3.500000000000000333e-01
-8.149999999999999467e-01 -2.117899999999999849e+01 -5.424000000000000199e+01 1.505082999999999949e+01 -5.241312032704960322e-02
-7.957699999999999774e-01 -3.180099999999999838e+01 -7.317100000000000648e+01 -5.522719999999999629e+00 6.982258946423078316e-02
-7.773299999999999654e-01 -1.683699999999999974e+01 -7.570900000000000318e+01 2.363183999999999951e+00 -1.414468139163284344e-01
-7.743299999999999628e-01 -2.823499999999999943e+01 -7.865099999999999625e+01 9.139642000000000266e+00 -1.458867996519808696e-01
-7.624800000000000466e-01 -3.982099999999999795e+01 -5.428099999999999881e+01 -3.016458000000000084e+01 -3.500000000000000333e-01
-7.513900000000000023e-01 -1.773499999999999943e+01 -7.233199999999999363e+01 1.285737999999999914e+01 -1.416160288223389796e-01
-7.500299999999999745e-01 -3.403099999999999881e+01 -7.244899999999999807e+01 -3.658440999999999832e+00 6.814888746744898751e-02
-7.458900000000000530e-01 -3.753099999999999881e+01 -7.884099999999999397e+01 -6.245178999999999592e-01 -5.680761072847993753e-02
-7.399900000000000366e-01 -1.599399999999999977e+01 -7.279099999999999682e+01 3.981869000000000103e+00 -1.407670548287134893e-01
-7.381100000000000438e-01 -4.470100000000000051e+01 -6.172500000000000142e+01 3.904876999999999931e-01 -3.499999999999999778e-01
-7.304899999999999727e-01 -3.637100000000000222e+01 -5.343800000000000239e+01 6.394879999999999676e+00 -3.499999999999999223e-01
-7.188999999999999835e-01 -3.638499999999999801e+01 -7.655700000000000216e+01 9.011143000000000569e+00 6.795987973252881620e-02
-7.179499999999999771e-01 -3.167500000000000071e+01 -4.714000000000000057e+01 1.648776000000000153e+01 -2.671481997781988693e-01
-7.159400000000000208e-01 -4.444100000000000250e+01 -6.080199999999999960e+01 2.243465000000000042e+00 -3.499999999999999778e-01
-7.149999999999999689e-01 -3.742699999999999960e+01 -8.034799999999999898e+01 5.672509999999999941e+00 -5.683875447779605100e-02
-7.103800000000000114e-01 -4.029800000000000182e+01 -6.311399999999999721e+01 4.001573999999999742e+00 -1.374061448919761119e-01
-7.060699999999999754e-01 -4.370300000000000296e+01 -5.865200000000000102e+01 -1.488283000000000023e+00 -3.500000000000000333e-01
-7.000100000000000211e-01 -3.085099999999999909e+01 -5.161200000000000188e+01 2.069847999999999910e+00 -1.232722107528956279e-01
-6.969800000000000439e-01 -4.371800000000000352e+01 -5.957800000000000296e+01 -6.516113000000000044e-01 -3.499999999999999778e-01
-6.830000000000000515e-01 -2.004799999999999827e+01 -5.186399999999999721e+01 1.373503000000000007e+01 -5.187372947177489729e-02
-6.830000000000000515e-01 -2.004799999999999827e+01 -5.090599999999999881e+01 6.930024000000000228e+01 -5.027608255420449451e-02
-6.816200000000000037e-01 -2.978500000000000014e+01 -7.924299999999999500e+01 -7.362883000000000067e+00 -1.461644237826092430e-01
-6.751200000000000534e-01 -3.617300000000000182e+01 -8.118800000000000239e+01 2.946107000000000031e+00 -5.695640770172299971e-02
-6.748899999999999899e-01 -3.672099999999999653e+01 -7.754999999999999716e+01 8.976969000000000420e+00 -5.685522750729148089e-02
-6.733299999999999841e-01 -3.508800000000000097e+01 -5.269400000000000261e+01 5.583636000000000266e+00 -3.499999999999999778e-01
-6.733299999999999841e-01 -3.338799999999999812e+01 -5.269400000000000261e+01 -2.980193999999999832e+01 -3.500000000000000333e-01
-6.695699999999999985e-01 -1.624800000000000111e+01 -6.142000000000000171e+01 8.238450000000000273e+00 -1.382606370349612201e-01
-6.690000000000000391e-01 -3.575999999999999801e+01 -7.063899999999999579e+01 -2.848981999999999903e+00 4.983446191879345455e-02
-6.690000000000000391e-01 -3.550600000000000023e+01 -7.153300000000000125e+01 -2.241223000000000187e+00 5.008851343329610156e-02
-6.673299999999999788e-01 -4.433200000000000074e+01 -6.257500000000000284e+01 2.028949999999999920e-01 -3.499999999999999778e-01
-6.673299999999999788e-01 -4.328199999999999648e+01 -6.257500000000000284e+01 3.052602999999999955e+00 -3.500000000000000333e-01
-6.640000000000000346e-01 -3.461699999999999733e+01 -4.802100000000000080e+01 4.520181000000000004e+00 -2.712959696282483124e-01
-6.640000000000000346e-01 -3.438600000000000279e+01 -4.883599999999999852e+01 1.022430999999999912e+01 -2.700044622104678660e-01
-6.640000000000000346e-01 -3.438600000000000279e+01 -4.720600000000000307e+01 2.022935000000000016e+01 -2.723399344484735418e-01
-6.640000000000000346e-01 -3.306700000000000017e+01 -4.647099999999999653e+01 1.177522000000000020e+02 -2.722897368054476019e-01
-6.607100000000000195e-01 -1.381099999999999994e+01 -5.974000000000000199e+01 -9.845185000000000741e+00 -1.278650490162157038e-01
-6.530000000000000249e-01 -9.493999999999999773e+00 -5.979399999999999693e+01 1.213263000000000069e+01 -2.357043751517131636e-01
-6.530000000000000249e-01 -9.284900000000000375e+00 -6.053000000000000114e+01 1.042847000000000079e+01 -2.368359866298118954e-01
-6.530000000000000249e-01 -8.939899999999999736e+00 -6.131300000000000239e+01 6.031842000000000148e+00 -2.376743141106416046e-01
-6.449300000000000033e-01 -4.199000000000000199e+01 -5.690400000000000347e+01 3.397902999999999896e+00 -3.499999999999999778e-01
-6.440500000000000114e-01 -1.853000000000000114e+01 -7.171699999999999875e+01 9.337552000000000518e+00 -1.421834041680272998e-01
-6.440500000000000114e-01 -1.853000000000000114e+01 -7.031699999999999307e+01 1.404357000000000077e+01 -1.423102958200467560e-01
-6.431200000000000250e-01 -2.130199999999999960e+01 -5.006600000000000250e+01 2.067045999999999850e+01 4.927738005236782792e-02
-6.416300000000000336e-01 -3.828300000000000125e+01 -6.261800000000000210e+01 7.871630999999999823e+00 -1.397310206322233683e-01
-6.416300000000000336e-01 -3.828300000000000125e+01 -6.175300000000000011e+01 1.061944000000000088e+01 -1.385085380287060797e-01
-6.401200000000000223e-01 -2.468700000000000117e+01 -7.492100000000000648e+01 -1.587678000000000011e+01 -1.455434449509255823e-01
-6.393799999999999484e-01 -3.791700000000000159e+01 -6.409499999999999886e+01 4.515833000000000208e-01 -5.277991338396652299e-02
-6.393799999999999484e-01 -3.791700000000000159e+01 -6.322999999999999687e+01 2.548741999999999841e+00 -5.218819666083977793e-02
-6.389899999999999469e-01 -3.740800000000000125e+01 -6.059000000000000341e+01 -4.643628999999999785e+00 -1.381707577237578366e-01
-6.389899999999999469e-01 -3.600800000000000267e+01 -6.285600000000000165e+01 -9.172165000000000179e-02 -1.432238965869558345e-01
-6.389899999999999469e-01 -3.600800000000000267e+01 -6.059000000000000341e+01 3.008519000000000165e+00 -1.409048817279522914e-01
-6.359299999999999953e-01 -3.737899999999999778e+01 -6.685200000000000387e+01 -1.587053000000000047e+00 -5.469228639133059261e-02
-6.359200000000000408e-01 -3.296900000000000119e+01 -4.971600000000000108e+01 3.579629000000000172e+00 -2.671498182175389147e-01
-6.312600000000000433e-01 -2.683699999999999974e+01 -7.564000000000000057e+01 -8.839273999999999631e+00 -1.462418538900090437e-01
-6.312499999999999778e-01 -2.844699999999999918e+01 -5.381099999999999994e+01 1.657580000000000098e+01 -1.530631222102060429e-01
-6.300000000000000044e-01 -2.495299999999999940e+01 -5.338499999999999801e+01 4.622035000000000338e+00 -6.153849825109337923e-02
-6.284800000000000386e-01 -3.204099999999999682e+01 -5.321399999999999864e+01 -1.821714000000000055e+01 -1.298648562274881679e-01
-6.223300000000000498e-01 -1.677700000000000102e+01 -7.241200000000000614e+01 1.530686000000000035e+01 -1.410650824518281110e-01
-6.216699999999999449e-01 -1.623799999999999955e+01 -6.872799999999999443e+01 1.486103999999999914e+01 -1.401675947472266481e-01
-6.156199999999999450e-01 -1.919099999999999895e+01 -5.961999999999999744e+01 1.563622999999999941e+01 -1.535668057831502120e-01
-6.122900000000000009e-01 -3.074899999999999878e+01 -7.980899999999999750e+01 -7.318124000000000073e+00 -1.462579242167361404e-01
-6.110900000000000221e-01 -1.591499999999999915e+01 -7.337600000000000477e+01 7.775293999999999706e+00 -1.407555446238967223e-01
-6.098700000000000232e-01 -3.748400000000000176e+01 -7.939499999999999602e+01 -1.001362999999999914e+01 -5.680577162772200428e-02
-6.098599999999999577e-01 -3.670799999999999841e+01 -6.786499999999999488e+01 -1.662878999999999996e+00 4.894954603793337522e-02
-6.056000000000000272e-01 -3.714999999999999858e+01 -6.337700000000000244e+01 2.613771999999999984e+00 -5.303221064376645311e-02
-6.033500000000000529e-01 -3.904999999999999716e+01 -6.247099999999999653e+01 9.215199000000000140e+00 -1.383930858474847203e-01
-5.935099999999999820e-01 -1.261800000000000033e+01 -5.918599999999999994e+01 -1.558552000000000071e+01 -2.424243573991189393e-01
-5.857599999999999474e-01 -1.883399999999999963e+01 -7.101699999999999591e+01 1.241004000000000040e+01 -1.425067429721576795e-01
-5.799100000000000366e-01 -3.334499999999999886e+01 -7.510699999999999932e+01 -1.880173999999999879e+01 6.917806717765220825e-02
-5.767099999999999449e-01 -4.329500000000000171e+01 -5.791599999999999682e+01 -4.302781999999999663e+00 -3.500000000000000888e-01
-5.713300000000000045e-01 -2.905799999999999983e+01 -4.882600000000000051e+01 6.965817999999999621e+00 -9.487492032181985002e-02
-5.696099999999999497e-01 -1.886700000000000088e+01 -6.037700000000000244e+01 1.436331999999999987e+01 -1.500673405117084191e-01
-5.609499999999999487e-01 -1.841400000000000148e+01 -7.604200000000000159e+01 -5.195773000000000197e-01 -1.419844141187032449e-01
-5.553500000000000103e-01 -2.037099999999999866e+01 -5.855100000000000193e+01 3.740556000000000214e+00 -1.621550669606680040e-01
-5.541199999999999459e-01 -3.587599999999999767e+01 -6.970300000000000296e+01 -4.295175000000000409e+00 4.961613485411638103e-02
-5.533200000000000340e-01 -1.539700000000000024e+01 -6.685899999999999466e+01 2.020257000000000147e+01 -1.388326637564965826e-01
-5.530000000000000471e-01 -2.308500000000000085e+01 -7.747199999999999420e+01 8.640288000000000412e-01 -1.441994912162544440e-01
-5.530000000000000471e-01 -2.163899999999999935e+01 -7.827800000000000580e+01 -1.527010000000000034e-01 -1.434347547563159797e-01
-5.521800000000000042e-01 -3.168799999999999883e+01 -7.990800000000000125e+01 -6.270354000000000205e+00 -1.464398136470374812e-01
-5.431399999999999562e-01 -2.947500000000000142e+01 -5.213799999999999812e+01 3.156744000000000216e+00 -1.406571443947281508e-01
-5.377199999999999758e-01 -3.167899999999999849e+01 -5.042799999999999727e+01 4.829926000000000386e+00 -3.499999999999999778e-01
-5.314900000000000180e-01 -1.455599999999999916e+01 -6.560599999999999454e+01 7.617856999999999879e+00 -1.372951490432120225e-01
-5.303499999999999881e-01 -2.645100000000000051e+01 -5.413700000000000045e+01 -2.492586000000000190e+00 -1.671060273324516676e-01
-5.303499999999999881e-01 -2.558599999999999852e+01 -5.413700000000000045e+01 3.320440000000000058e+00 -6.035395959619262174e-02
-5.273799999999999599e-01 -4.110900000000000176e+01 -6.280799999999999983e+01 5.839043000000000205e+00 -1.362424645032153381e-01
-5.180099999999999705e-01 -1.765200000000000102e+01 -6.086800000000000210e+01 1.132557000000000080e+01 -1.441590687630644740e-01
-5.067199999999999482e-01 -1.726599999999999824e+01 -6.944899999999999807e+01 1.667141000000000162e+01 -1.409827923237167158e-01
-4.973400000000000043e-01 -3.047800000000000153e+01 -5.231400000000000006e+01 -4.650278999999999940e-01 -1.350329668027727692e-01
-4.952900000000000080e-01 -2.144500000000000028e+01 -5.738400000000000034e+01 -3.680360999999999905e+01 -5.208573847303863552e-02
-4.931300000000000128e-01 -9.625700000000000145e+00 -5.921699999999999875e+01 1.909008000000000038e+00 -2.336137456702313264e-01
-4.912300000000000000e-01 -3.463600000000000279e+01 -7.564900000000000091e+01 -6.375664000000000442e+00 6.856635491924044368e-02
-4.857199999999999851e-01 -3.484599999999999653e+01 -8.031699999999999307e+01 2.511239000000000132e+01 -5.705412446392534725e-02
-4.857199999999999851e-01 -3.365500000000000114e+01 -7.965300000000000580e+01 2.469473999999999947e+01 6.963763913351977974e-02
-4.675199999999999911e-01 -2.012999999999999901e+01 -7.754300000000000637e+01 -1.606945999999999941e+01 -1.427765505191831985e-01
-4.642899999999999805e-01 -1.336299999999999955e+01 -6.505200000000000671e+01 -1.768039999999999878e+01 -1.354845508843887103e-01
-4.632899999999999796e-01 -4.100000000000000000e+01 -5.470000000000000284e+01 -1.710893000000000086e+01 -3.499999999999999778e-01
-4.571100000000000163e-01 -1.097700000000000031e+01 -5.749099999999999966e+01 -4.108775999999999762e+00 -2.312022332295413651e-01
-4.526000000000000023e-01 -2.735900000000000176e+01 -5.389699999999999847e+01 2.049153000000000091e+01 -1.616304999770354356e-01
-4.517700000000000049e-01 -3.498899999999999721e+01 -7.237699999999999534e+01 -1.949570000000000025e+00 6.748112244644276225e-02
-4.516200000000000214e-01 -1.713100000000000023e+01 -6.131600000000000250e+01 1.139826000000000050e+01 -1.415755475251209705e-01
-4.515399999999999969e-01 -3.061599999999999966e+01 -5.388900000000000290e+01 -6.973136000000000223e+00 -1.440824683590765654e-01
-4.515399999999999969e-01 -2.975000000000000000e+01 -5.388900000000000290e+01 -4.544855000000000089e+00 -1.479048428809597859e-01
-4.365999999999999881e-01 -3.324499999999999744e+01 -7.239600000000000080e+01 -3.929856000000000016e+00 6.856181119037225991e-02
-4.365800000000000236e-01 -2.347899999999999920e+01 -7.560099999999999909e+01 -7.719310000000000116e+00 -1.447478325673872690e-01
-4.346400000000000263e-01 -3.640500000000000114e+01 -7.802599999999999625e+01 1.714624999999999844e+01 -5.686482430870929555e-02
-4.278199999999999781e-01 -3.887800000000000011e+01 -5.330499999999999972e+01 4.027053000000000438e+00 -2.719726447294080751e-01
-4.246500000000000274e-01 -3.739399999999999835e+01 -5.286399999999999721e+01 4.869924000000000142e+00 -2.711635405470728677e-01
-4.179999999999999827e-01 -1.220700000000000074e+01 -5.831400000000000006e+01 -4.384801999999999644e+00 -2.380996070898844241e-01
-4.179999999999999827e-01 -9.747299999999999187e+00 -5.831400000000000006e+01 -5.618445000000000356e+00 -2.305189475237214847e-01
-4.154399999999999760e-01 -3.070200000000000173e+01 -4.826400000000000290e+01 1.881551999999999936e+01 -2.632060320525808073e-01
-4.150900000000000145e-01 -4.278099999999999881e+01 -6.280799999999999983e+01 1.450376000000000110e+00 -2.618151894518060963e-01
-4.150900000000000145e-01 -4.191599999999999682e+01 -6.280799999999999983e+01 2.321451999999999849e+00 -2.618810244764123163e-01
-4.141299999999999981e-01 -4.399300000000000210e+01 -6.002400000000000091e+01 7.138379999999999725e-01 -3.500000000000000333e-01
-4.136699999999999822e-01 -2.005300000000000082e+01 -5.932300000000000040e+01 2.926248999999999967e+01 -1.576185889711418098e-01
-4.072299999999999809e-01 -3.384199999999999875e+01 -4.963600000000000279e+01 5.820814000000000377e+00 -2.688576409544312096e-01
-4.028999999999999804e-01 -3.562500000000000000e+01 -7.650600000000000023e+01 8.867283999999999722e+00 6.824255421165363600e-02
-3.932499999999999885e-01 -3.091900000000000048e+01 -5.318900000000000006e+01 -3.711082999999999910e+00 -1.387792152378131139e-01
-3.932499999999999885e-01 -2.944699999999999918e+01 -5.318900000000000006e+01 -1.640810000000000102e+00 -1.473240768222531805e-01
-3.829899999999999971e-01 -4.063000000000000256e+01 -6.358299999999999841e+01 9.815618000000000398e-01 -5.041406809156021712e-02
-3.750000000000000000e-01 -2.386700000000000088e+01 -5.190400000000000347e+01 1.070026000000000010e+01 -8.221890981511623120e-02
-3.750000000000000000e-01 -2.352199999999999847e+01 -5.112100000000000222e+01 4.652993999999999630e+00 -8.468774722075725347e-02
-3.750000000000000000e-01 -2.062999999999999901e+01 -5.290899999999999892e+01 1.898985000000000056e+01 -5.211802821710727340e-02
-3.716200000000000059e-01 -3.784100000000000108e+01 -6.128999999999999915e+01 9.367905000000000371e+00 -1.389753328003671962e-01
-3.716200000000000059e-01 -3.557600000000000051e+01 -6.215599999999999881e+01 3.826883000000000035e+00 -5.399706311780229362e-02
-3.716200000000000059e-01 -3.557600000000000051e+01 -6.128999999999999915e+01 5.229913999999999952e+00 -1.430691458945546890e-01
-3.668799999999999839e-01 -1.587100000000000044e+01 -7.440500000000000114e+01 7.178434000000000204e+00 -1.407816424348951878e-01
-3.638799999999999812e-01 -2.726899999999999835e+01 -7.634000000000000341e+01 -7.751401999999999459e-01 -1.461582828344048512e-01
-3.410000000000000253e-01 -1.982499999999999929e+01 -7.694499999999999318e+01 -1.498218999999999923e+01 -1.426440247688181839e-01
-3.367200000000000193e-01 -2.538700000000000045e+01 -7.498000000000000398e+01 -1.115118999999999971e+01 -1.458123060838304452e-01
-3.355899999999999994e-01 -3.670799999999999841e+01 -6.053199999999999648e+01 -4.291424000000000127e+00 -1.400162319360636898e-01
-3.338800000000000101e-01 -3.680400000000000205e+01 -5.294700000000000273e+01 3.986250000000000071e+00 -3.500000000000000333e-01
-3.338800000000000101e-01 -3.593900000000000006e+01 -5.294700000000000273e+01 4.652495000000000047e+00 -3.499999999999999778e-01
-3.203500000000000236e-01 -1.478299999999999947e+01 -6.088199999999999790e+01 -2.036023000000000138e+00 -1.322342599757196924e-01
-3.133400000000000074e-01 -2.798199999999999932e+01 -5.032300000000000040e+01 7.102180999999999855e+00 -1.377439589177513746e-01
-3.053299999999999903e-01 -2.442800000000000082e+01 -5.253499999999999659e+01 1.068553999999999959e+01 -6.941884469790945977e-02
-3.046499999999999764e-01 -1.780499999999999972e+01 -7.159000000000000341e+01 8.914168000000000092e+00 -1.414841328591132930e-01
-3.016699999999999937e-01 -1.099200000000000088e+01 -6.420099999999999341e+01 1.560168999999999917e+00 -2.423857707032134878e-01
-3.016699999999999937e-01 -9.291999999999999815e+00 -6.420099999999999341e+01 1.652504999999999891e+00 -2.405076334535726779e-01
-3.004899999999999793e-01 -3.725099999999999767e+01 -6.737000000000000455e+01 -1.611715000000000009e+00 -5.508768306645668578e-02
-2.969999999999999862e-01 -1.571299999999999919e+01 -6.787800000000000011e+01 1.519617000000000040e+01 -1.392797841683595106e-01
-2.877100000000000213e-01 -3.437199999999999989e+01 -7.506300000000000239e+01 -6.672206000000000081e+00 6.853889298159045185e-02
-2.750400000000000067e-01 -3.843999999999999773e+01 -6.554800000000000182e+01 -3.242065000000000197e+00 -5.328539112006965006e-02
-2.720000000000000195e-01 -1.775199999999999889e+01 -7.016899999999999693e+01 2.135586999999999946e+01 -1.414389182008519708e-01
-2.600000000000000089e-01 -4.154200000000000159e+01 -6.350800000000000267e+01 3.129253999999999891e+01 -2.625921304350569141e-01
-2.561899999999999733e-01 -3.671200000000000330e+01 -7.891400000000000148e+01 -2.999413000000000107e+00 -5.682704986344008086e-02
-2.520000000000000018e-01 -1.768700000000000117e+01 -7.603400000000000603e+01 1.740075999999999956e+00 -1.416182687947111773e-01
-2.520000000000000018e-01 -1.624099999999999966e+01 -7.522799999999999443e+01 1.109783999999999970e+01 -1.409942905827067938e-01
-2.489999999999999991e-01 -2.908500000000000085e+01 -7.897599999999999909e+01 7.873149999999999871e-01 -1.460075635459365251e-01
-2.489999999999999991e-01 -2.763899999999999935e+01 -7.817000000000000171e+01 1.539843000000000073e+00 -1.457740877824622028e-01
-2.489999999999999991e-01 -2.738500000000000156e+01 -7.727599999999999625e+01 -1.766750000000000043e+00 -1.459216386156853840e-01
-2.473499999999999865e-01 -1.966600000000000037e+01 -6.006700000000000017e+01 3.148733000000000004e+01 -1.535724338541867018e-01
-2.463599999999999957e-01 -1.810800000000000054e+01 -7.089000000000000057e+01 1.249361999999999995e+01 -1.417628168123835075e-01
-2.360200000000000076e-01 -3.665200000000000102e+01 -8.064400000000000546e+01 4.211611000000000438e+00 -5.685796442041839149e-02
-2.350099999999999967e-01 -2.175000000000000000e+01 -5.490500000000000114e+01 1.264154000000000089e+01 -5.187100274606043504e-02
-2.346499999999999975e-01 -2.887999999999999901e+01 -5.332000000000000028e+01 -4.970547999999999966e+00 -1.522891672252718875e-01
-2.346499999999999975e-01 -2.887999999999999901e+01 -5.192000000000000171e+01 4.434223000000000248e+00 -1.458296174169847192e-01
-2.327599999999999947e-01 -1.311899999999999977e+01 -5.932600000000000051e+01 -2.931709999999999994e+01 -1.231384517723501382e-01
-2.318900000000000128e-01 -3.247399999999999665e+01 -5.272299999999999898e+01 -1.212255000000000038e+01 -1.262511191874904903e-01
-2.318900000000000128e-01 -3.160900000000000176e+01 -5.272299999999999898e+01 -6.276403000000000176e+00 -1.314591311673959928e-01
-2.305200000000000027e-01 -1.554400000000000048e+01 -7.392600000000000193e+01 -2.682831999999999925e-02 -1.405186191668932882e-01
-2.290300000000000114e-01 -3.420900000000000318e+01 -5.225900000000000034e+01 1.168201999999999963e+01 -3.500000000000000333e-01
-2.185199999999999920e-01 -4.282399999999999807e+01 -5.727799999999999869e+01 -1.341240999999999950e+01 -3.499999999999999778e-01
-2.156899999999999928e-01 -3.031700000000000017e+01 -7.931799999999999784e+01 -3.264597000000000193e+00 -1.462435519123375660e-01
-2.139900000000000135e-01 -1.532900000000000063e+01 -7.311700000000000443e+01 -8.070399000000000100e+00 -1.402741131333882507e-01
-2.089999999999999913e-01 -3.758299999999999841e+01 -6.288600000000000279e+01 9.583078000000000429e+00 -5.237612362480663364e-02
-2.089999999999999913e-01 -3.671699999999999875e+01 -6.288600000000000279e+01 8.484807999999999240e+00 -5.326310071414781799e-02
-2.067499999999999893e-01 -3.948299999999999699e+01 -6.296200000000000330e+01 9.306765999999999650e+00 -5.079729917404109119e-02
-2.067499999999999893e-01 -3.861699999999999733e+01 -6.436199999999999477e+01 -5.628684999999999938e-02 -5.246535406556755710e-02
-2.067499999999999893e-01 -3.861699999999999733e+01 -6.296200000000000330e+01 7.945183000000000106e+00 -5.149317447080838106e-02
-2.049999999999999878e-01 -2.097500000000000142e+01 -5.814399999999999835e+01 -1.958724000000000132e+01 -5.208904575202719794e-02
-2.007400000000000018e-01 -1.260800000000000054e+01 -6.427500000000000568e+01 -3.270887000000000100e+00 -1.335463992592831051e-01
-1.910000000000000031e-01 -1.434399999999999942e+01 -6.017099999999999937e+01 -2.080569000000000113e+00 -1.290971169219536085e-01
-1.908499999999999919e-01 -2.837099999999999866e+01 -4.931000000000000227e+01 -1.948140999999999901e+00 -1.219026611239169694e-01
-1.890499999999999958e-01 -1.672899999999999920e+01 -6.912500000000000000e+01 1.901507000000000147e+01 -1.403421449915681074e-01
-1.857399999999999884e-01 -4.380700000000000216e+01 -6.317099999999999937e+01 3.285696000000000172e+00 -2.622689819447819870e-01
-1.850199999999999900e-01 -3.384199999999999875e+01 -4.676700000000000301e+01 2.607309000000000054e+01 -2.734203226491731531e-01
-1.841599999999999904e-01 -3.018299999999999983e+01 -5.318900000000000006e+01 -3.845717000000000052e+00 -1.452622743688861406e-01
-1.833200000000000107e-01 -3.377799999999999869e+01 -7.461599999999999966e+01 -5.473353000000000357e+00 6.874648757121344655e-02
-1.793700000000000017e-01 -3.569899999999999807e+01 -8.074899999999999523e+01 2.289563999999999933e+00 -5.693975036884890706e-02
-1.791200000000000014e-01 -3.624799999999999756e+01 -6.862399999999999523e+01 -2.545475000000000154e+00 4.952464118363217316e-02
-1.763599999999999890e-01 -2.918299999999999983e+01 -5.261999999999999744e+01 1.693232000000000070e+00 -1.481789114294857768e-01
-1.736000000000000043e-01 -3.130499999999999972e+01 -5.202300000000000324e+01 1.979832000000000036e+00 -1.281878721583419867e-01
-1.729999999999999871e-01 -4.146999999999999886e+01 -5.546000000000000085e+01 -2.010705999999999882e+00 -3.499999999999999778e-01
-1.714900000000000035e-01 -3.698799999999999955e+01 -7.986899999999999977e+01 -6.587915999999999883e+00 -5.680785106509921023e-02
-1.603199999999999903e-01 -4.415800000000000125e+01 -5.914800000000000324e+01 -1.827048999999999923e+00 -3.499999999999999778e-01
-1.594599999999999906e-01 -1.582799999999999940e+01 -6.168699999999999761e+01 -8.968738000000000099e+00 -1.362275815965761361e-01
-1.530400000000000094e-01 -2.695200000000000173e+01 -5.369800000000000040e+01 -2.136442000000000174e+00 -1.673177689162354265e-01
-1.530400000000000094e-01 -2.555199999999999960e+01 -5.369800000000000040e+01 7.818094999999999573e+00 -6.536651351744442173e-02
-1.507100000000000106e-01 -3.788600000000000279e+01 -6.218599999999999994e+01 1.391244000000000014e+01 -5.155072494188053106e-02
-1.507100000000000106e-01 -1.565799999999999947e+01 -7.235699999999999932e+01 -4.612254000000000076e+00 -1.402659605339410809e-01
-1.506500000000000061e-01 -3.837700000000000244e+01 -5.287299999999999756e+01 6.817447999999999730e+00 -2.719058080075195116e-01
-1.484600000000000086e-01 -3.978600000000000136e+01 -6.366199999999999903e+01 2.544502000000000042e+00 -5.110108842277151509e-02
-1.484600000000000086e-01 -3.831400000000000006e+01 -6.366199999999999903e+01 4.814657999999999660e+00 -5.227646732544734276e-02
-1.473700000000000010e-01 -2.082799999999999940e+01 -5.050500000000000256e+01 3.141226999999999947e+01 6.171150770040984002e-02
-1.443000000000000116e-01 -1.703200000000000003e+01 -7.177599999999999625e+01 1.441219000000000072e+01 -1.409115878648706521e-01
-1.419999999999999873e-01 -4.518200000000000216e+01 -6.225000000000000000e+01 2.919038999999999939e-01 -2.617102099995945452e-01
-1.419999999999999873e-01 -4.518200000000000216e+01 -6.120000000000000284e+01 4.629245000000000165e-01 -2.610781846131126627e-01
-1.413999999999999979e-01 -3.264800000000000324e+01 -7.963400000000000034e+01 1.681418000000000079e+00 7.004266769693180683e-02
-1.380000000000000115e-01 -3.783899999999999864e+01 -6.633100000000000307e+01 -1.577042000000000055e+00 -5.420467752236557413e-02
-1.370500000000000052e-01 -2.985099999999999909e+01 -4.839800000000000324e+01 2.707473999999999847e+01 -2.614175159322422171e-01
-1.360200000000000020e-01 -2.448600000000000065e+01 -7.464499999999999602e+01 -1.723596999999999824e+01 -1.454627444339887110e-01
-1.349799999999999889e-01 -4.236899999999999977e+01 -6.354099999999999682e+01 7.792949000000000126e+00 -2.626951297810761199e-01
-1.348900000000000099e-01 -1.412299999999999933e+01 -6.511499999999999488e+01 -1.042585000000000051e+01 -1.360111917545442917e-01
-1.327800000000000091e-01 -3.255100000000000193e+01 -4.643999999999999773e+01 2.713222999999999985e+01 -2.728406954468080570e-01
-1.309099999999999986e-01 -3.584100000000000108e+01 -7.691299999999999670e+01 7.746952000000000282e+00 -5.686392058783866499e-02
-1.277099999999999902e-01 -1.173700000000000010e+01 -5.755400000000000205e+01 -5.790198000000000178e+00 -2.309964569949364832e-01
-1.277099999999999902e-01 -1.021700000000000053e+01 -5.755400000000000205e+01 -1.342778999999999989e+01 -2.260038488301941706e-01
-1.116599999999999954e-01 -3.286200000000000188e+01 -7.445199999999999818e+01 -7.630114999999999981e+00 6.923562717935217992e-02
-1.069999999999999979e-01 -4.405499999999999972e+01 -5.820600000000000307e+01 -2.199708000000000219e+00 -3.499999999999999778e-01
-1.050999999999999990e-01 -3.217000000000000171e+01 -5.003199999999999648e+01 1.365512999999999977e+01 -2.664156819454331360e-01
-1.029999999999999943e-01 -3.122899999999999920e+01 -4.747699999999999676e+01 3.019397000000000020e+01 -2.667958416282950052e-01
-9.886499999999999455e-02 -1.525600000000000023e+01 -6.587300000000000466e+01 2.271325999999999823e+01 -1.378038769164847410e-01
-9.412299999999999833e-02 -3.121900000000000119e+01 -7.939300000000000068e+01 -7.214928999999999704e+00 -1.464293162009573657e-01
-8.696299999999999863e-02 -2.038800000000000168e+01 -5.134400000000000119e+01 2.826663999999999888e+01 -4.983595218750340450e-02
-7.738499999999999546e-02 -4.033599999999999852e+01 -6.393500000000000227e+01 9.789946999999999955e-01 -5.092125641914309331e-02
-6.267000000000000348e-02 -2.214499999999999957e+01 -5.625200000000000244e+01 -1.312389999999999946e+00 -5.171911677272977848e-02
-6.267000000000000348e-02 -2.193599999999999994e+01 -5.698799999999999955e+01 -1.766745999999999839e+01 -5.181521637866781660e-02
-5.309599999999999737e-02 -3.435499999999999687e+01 -7.992100000000000648e+01 2.544265000000000043e+01 -5.704923572766382872e-02
-4.700000000000000011e-02 -4.169200000000000017e+01 -5.618900000000000006e+01 -3.028350999999999793e+00 -3.499999999999999778e-01
-4.045599999999999891e-02 -1.824800000000000111e+01 -6.094800000000000040e+01 1.218989999999999974e+01 -1.460411056131326046e-01
-4.000200000000000283e-02 -3.367799999999999727e+01 -7.288700000000000045e+01 -2.279764000000000124e+00 6.833169539309338902e-02
-4.000200000000000283e-02 -3.281199999999999761e+01 -7.288700000000000045e+01 -2.359261000000000053e+00 6.888726355980821781e-02
-3.439400000000000096e-02 -8.891999999999999460e+00 -6.135399999999999920e+01 2.894210000000000171e+00 -2.353284620178465736e-01
-3.163599999999999746e-02 -2.080999999999999872e+01 -5.935799999999999699e+01 8.271838000000000690e+00 -1.592511075750406568e-01
-2.767100000000000115e-02 -2.248900000000000077e+01 -7.795300000000000296e+01 1.926183999999999896e+00 -1.437988129932408765e-01
-2.767100000000000115e-02 -2.078900000000000148e+01 -7.795300000000000296e+01 1.473948000000000036e+00 -1.430132751956254833e-01
-1.909800000000000039e-02 -3.916799999999999926e+01 -6.463500000000000512e+01 3.629339000000000176e-02 -5.224173467638922735e-02
-1.835300000000000126e-02 -1.922400000000000020e+01 -7.642900000000000205e+01 3.301025999999999794e+00 -1.423037542109549247e-01
-1.664799999999999960e-02 -1.252999999999999936e+01 -6.359100000000000108e+01 -2.232429000000000130e+01 -1.322973362354586124e-01
-1.664799999999999960e-02 -1.166499999999999915e+01 -6.359100000000000108e+01 1.366470000000000073e+00 -2.420165035641260454e-01
-1.292800000000000026e-02 -3.678600000000000136e+01 -6.812300000000000466e+01 -1.626246999999999998e+00 4.949523270196781038e-02
1.567100000000000090e-02 -3.799000000000000199e+01 -5.212899999999999778e+01 4.974078999999999695e+00 -2.719729296950007535e-01
1.567100000000000090e-02 -3.693999999999999773e+01 -5.212899999999999778e+01 5.754742000000000246e+00 -2.712637945762787495e-01
1.828600000000000017e-02 -3.250900000000000034e+01 -7.358700000000000330e+01 -2.965247000000000188e+00 6.924254795329871925e-02
2.299999999999999961e-02 -8.766700000000000159e+00 -6.335099999999999909e+01 2.943531999999999815e+00 -2.382224786782295989e-01
2.299999999999999961e-02 -8.766700000000000159e+00 -6.230100000000000193e+01 6.293121000000000187e+00 -2.366957251177072286e-01
2.665100000000000108e-02 -2.050700000000000145e+01 -6.005799999999999983e+01 3.778999999999999915e+01 -1.559019735454864608e-01
2.667100000000000026e-02 -3.622099999999999653e+01 -5.226100000000000279e+01 5.090263000000000204e+00 -2.706878894976900152e-01
2.867000000000000104e-02 -4.032800000000000296e+01 -5.431900000000000261e+01 -2.313256000000000157e+01 -2.726211377651619472e-01
