5.374099999999999966e+01 8.667999999999999261e+00 -2.181500000000000217e+00 4.988292000000000392e+00 3.484899846476100516e-01
5.374300000000000210e+01 -1.673499999999999943e+01 -7.879800000000000360e+00 -1.087410000000000032e+01 -1.593459624981752865e-01
5.375300000000000011e+01 -7.409600000000000186e+00 -1.963100000000000023e+01 -1.991046000000000094e+00 -3.826953581406852267e-01
5.375300000000000011e+01 1.811199999999999832e+01 2.193000000000000060e+00 8.046969000000000705e+00 -3.808620943607073928e-01
5.376200000000000045e+01 -7.683699999999999974e+00 -1.878999999999999915e+01 -1.249924999999999953e+00 -3.827888147052566081e-01
5.376299999999999812e+01 7.983599999999999586e-01 7.556000000000000050e+00 1.543593000000000082e+01 -1.729761166065519606e-01
5.376700000000000301e+01 -1.597499999999999964e+01 9.260199999999999321e+00 1.562656999999999963e+00 -2.375673470024190215e-01
5.377000000000000313e+01 8.780699999999999505e+00 -1.485599999999999987e+01 2.910449999999999982e+00 -4.521074540878020770e-02
5.377300000000000324e+01 5.549000000000000377e+00 3.439099999999999824e+00 1.582790999999999926e+01 7.590333900762476216e-02
5.377300000000000324e+01 8.721899999999999764e+00 -1.588899999999999935e+01 -4.237440999999999569e+00 -4.421009393630530304e-02
5.377400000000000091e+01 -1.614300000000000068e+01 -5.207399999999999807e+00 -2.416533000000000087e+01 -1.601691558987787256e-01
5.377499999999999858e+01 8.453900000000000858e+00 -1.679299999999999926e+01 -1.738532999999999973e+01 -4.351674306405516057e-02
5.378099999999999881e+01 -1.099200000000000088e+01 7.721400000000000041e+00 4.977231999999999879e+00 -1.016323957032028574e-01
5.378099999999999881e+01 -9.591699999999999449e+00 7.721400000000000041e+00 2.557710000000000150e+00 -1.164308251643612901e-01
5.379099999999999682e+01 1.357300000000000040e+01 -1.912000000000000099e+01 2.129805999999999955e+01 -3.838492247897035137e-01
5.379200000000000159e+01 5.338099999999999845e+00 -2.146799999999999997e+01 4.893480999999999881e+01 -1.664431871144908537e-01
5.379699999999999704e+01 1.779700000000000060e+01 -6.596000000000000085e+00 1.617468999999999990e-01 -3.997541941993140169e-01
5.379899999999999949e+01 5.538299999999999557e+00 -1.947500000000000142e+01 4.325764999999999816e+01 -1.681495940744965611e-01
5.380599999999999739e+01 7.648100000000000342e+00 -1.409699999999999953e+01 3.196553000000000200e+00 -4.659080694008004009e-02
5.380899999999999750e+01 -1.289400000000000013e+01 1.005199999999999960e+01 2.509561000000000064e+01 -2.791072298519526318e-01
5.381000000000000227e+01 -1.500999999999999979e+01 -6.830899999999999750e+00 -9.065568000000000737e+00 -1.639697222243501895e-01
5.381000000000000227e+01 -1.500999999999999979e+01 -5.965700000000000003e+00 -6.990399000000000029e+00 -1.639957443501900980e-01
5.381000000000000227e+01 -1.539899999999999913e+01 -1.218999999999999950e+01 -2.056449999999999945e-01 -3.500000000000000333e-01
5.381099999999999994e+01 -1.684600000000000009e+01 1.928700000000000081e+00 -2.357702000000000098e+01 -1.582099435222844297e-01
5.381400000000000006e+01 -1.331799999999999962e+01 4.421100000000000030e+00 7.650659000000000098e+00 -1.761914011021899762e-01
5.382800000000000296e+01 -1.231099999999999994e+01 1.709699999999999998e+00 1.447647000000000084e+01 -1.879382364299888586e-01
5.384799999999999898e+01 5.671999999999999709e+00 4.350999999999999979e+00 1.731391999999999953e+01 7.652683761932307926e-02
5.385300000000000153e+01 -6.388099999999999667e+00 1.184600000000000009e+01 1.575887999999999955e+01 -1.950831730308113243e-01
5.386200000000000188e+01 -7.162300000000000111e+00 -2.048100000000000165e+01 1.179267000000000065e+00 -3.826242295921482572e-01
5.386200000000000188e+01 1.394200000000000017e+01 -1.826999999999999957e+01 8.859787000000000745e+00 -3.837879738300278287e-01
5.386500000000000199e+01 1.835000000000000142e+01 -3.080999999999999961e+00 -2.674691999999999936e+01 -4.020784328615687464e-01
5.387199999999999989e+01 1.929400000000000048e+01 -5.015699999999999825e+00 -1.852129000000000048e+01 -4.011724318374262355e-01
5.387199999999999989e+01 1.929400000000000048e+01 -4.076299999999999812e+00 -4.189621999999999957e+01 -4.018060692326911321e-01
5.387800000000000011e+01 -1.766600000000000037e+01 9.776799999999999380e-02 -1.580245999999999995e+01 -3.640918298687979560e-01
5.389600000000000080e+01 1.010200000000000031e+01 9.858000000000000540e+00 -1.012026999999999965e+01 9.272289116833431349e-03
5.390200000000000102e+01 1.208799999999999919e+01 -1.247300000000000075e+01 -2.736342999999999970e-01 -2.888178939678635038e-01
5.390599999999999881e+01 -5.786999999999999922e+00 -2.140200000000000102e+01 2.626698000000000199e+00 -3.823895498360851408e-01
5.390699999999999648e+01 2.612999999999999989e+00 -2.110800000000000054e+01 1.082385000000000019e+01 -1.658642031248534765e-01
5.390800000000000125e+01 -1.564199999999999946e+01 6.857700000000000351e+00 -4.643243000000000009e+00 -2.561694975849209688e-01
5.390999999999999659e+01 4.556000000000000050e+00 -1.583300000000000018e+01 9.115989000000000786e+00 -1.721593799320595974e-01
5.391199999999999903e+01 2.429300000000000015e+00 3.931900000000000173e+00 1.710763999999999996e+01 8.838608690507102073e-02
5.391499999999999915e+01 -3.259099999999999775e-01 8.718899999999999650e+00 1.994019000000000119e+01 -2.881259267720160944e-01
5.391499999999999915e+01 -1.432499999999999929e+01 -1.337899999999999956e+01 -1.149664999999999937e+00 -8.813165621523091908e-02
5.391499999999999915e+01 -1.411599999999999966e+01 -1.411500000000000021e+01 9.450623999999999691e-01 -8.865726171497598229e-02
5.391599999999999682e+01 2.670799999999999841e+00 4.720699999999999896e+00 1.323961000000000077e+01 9.005198191319216394e-02
5.391799999999999926e+01 -3.369699999999999918e+00 -2.063800000000000168e+01 -4.442514000000000074e+00 -3.822768454178194775e-01
5.391899999999999693e+01 2.696400000000000130e+00 3.109500000000000153e+00 1.948327000000000098e+01 8.549873834796163641e-02
5.392600000000000193e+01 -1.513499999999999979e+01 5.543700000000000294e+00 4.605152000000000134e-01 -2.593058186792396858e-01
5.392600000000000193e+01 -1.221899999999999942e+01 5.543700000000000294e+00 1.312184000000000061e+01 -7.945750882966165496e-02
5.392699999999999960e+01 8.515800000000000480e+00 8.303399999999999892e+00 -5.483069000000000415e+00 -2.166993235299267268e-02
5.392999999999999972e+01 1.576900000000000013e+01 -1.075500000000000078e+01 2.031222000000000083e+00 -3.980982359316825314e-01
5.392999999999999972e+01 1.576900000000000013e+01 -9.889699999999999491e+00 -5.628154999999999575e+00 -3.982561529173394010e-01
5.393500000000000227e+01 8.872299999999999187e+00 9.034700000000000841e+00 7.103315999999999519e-01 -1.213958301616559904e-02
5.393500000000000227e+01 1.133200000000000074e+01 9.034700000000000841e+00 -2.272415000000000163e+01 -2.628350353544334772e-01
5.393900000000000006e+01 8.443500000000000227e+00 -1.795100000000000051e+01 -5.556363000000000163e+00 -4.286217762507096157e-02
5.394700000000000273e+01 9.215899999999999537e+00 -2.050799999999999912e+01 -9.266780000000000683e+00 -2.889782895800249163e-01
5.395000000000000284e+01 -9.961600000000000676e+00 1.789700000000000069e+00 3.416928000000000054e+01 -9.013612670096576851e-02
5.395100000000000051e+01 1.176299999999999990e+01 -2.003000000000000114e+01 7.540161000000000335e+00 -2.553563129462629311e-01
5.395100000000000051e+01 1.460200000000000031e+01 -1.496599999999999930e+01 -1.371353999999999962e+00 -3.973787422493777477e-01
5.395199999999999818e+01 -4.862599999999999589e+00 1.192800000000000082e+01 1.132394000000000034e+01 -1.789350975809731459e-01
5.395600000000000307e+01 2.530299999999999994e+00 5.802299999999999791e+00 5.591136999999999802e+00 9.535817898418313954e-02
5.395700000000000074e+01 -9.801000000000000156e+00 -1.815500000000000114e+01 -2.120057000000000080e+00 -1.209806130563665372e-01
5.395700000000000074e+01 -1.336599999999999966e+01 2.651699999999999946e+00 1.395242999999999967e+01 -1.791766810962793777e-01
5.395799999999999841e+01 -9.795299999999999230e+00 5.625300000000000189e+00 8.454548000000000840e+00 -1.146962731296232441e-01
5.395799999999999841e+01 1.019699999999999918e+01 -2.035000000000000142e+01 -2.539740000000000109e+00 -2.896209374936001835e-01
5.396099999999999852e+01 1.402500000000000036e+01 -1.689300000000000068e+01 -1.664823000000000164e+01 -3.837113953320559490e-01
5.396200000000000330e+01 -4.112700000000000244e+00 1.179400000000000048e+01 9.603984000000000520e+00 -1.725869944915172094e-01
5.396300000000000097e+01 3.887100000000000222e+00 2.264800000000000146e+00 2.107844000000000051e+01 2.021537598671548364e-01
5.396600000000000108e+01 -4.316200000000000259e+00 -2.060600000000000165e+01 -5.168276999999999788e+00 -3.822973576218698932e-01
5.396600000000000108e+01 -1.100300000000000011e+01 6.247899999999999565e+00 4.355709000000000053e+00 -1.047012089151581893e-01
5.396699999999999875e+01 1.828399999999999892e+01 4.220200000000000062e-01 6.753127999999999531e+01 -3.801594928070184953e-01
5.396699999999999875e+01 1.828399999999999892e+01 1.379999999999999893e+00 4.818939999999999912e+01 -3.805920160005792918e-01
5.397299999999999898e+01 -1.111500000000000021e+01 9.980599999999999472e-01 1.246864000000000061e+01 -8.256457779120393581e-02
5.399099999999999966e+01 4.268699999999999939e+00 -2.121600000000000108e+01 2.815377000000000152e+01 -1.665356954752070517e-01
5.401800000000000068e+01 1.629100000000000037e+01 -9.133499999999999730e+00 -1.011448000000000036e+01 -3.985910477831853260e-01
5.402400000000000091e+01 3.438999999999999835e-01 -2.083899999999999864e+01 -2.245343999999999784e+00 -1.654824894412896541e-01
5.402499999999999858e+01 1.148199999999999932e+01 -2.310600000000000154e-02 9.854507999999999157e+00 -1.447781527044093575e-01
5.402499999999999858e+01 8.969799999999999329e+00 4.232000000000000206e-01 -2.893574999999999897e-01 3.476246453292660132e-01
5.402600000000000335e+01 -1.431799999999999962e+01 4.461400000000000254e+00 1.096483000000000096e+00 -1.664770140200310666e-01
5.402600000000000335e+01 -1.410899999999999999e+01 3.725400000000000045e+00 6.506349000000000160e+00 -1.707037312201122314e-01
5.403000000000000114e+01 -1.371299999999999919e+01 -1.738599999999999923e+01 5.364389000000000074e+00 -3.499999999999999778e-01
5.403999999999999915e+01 1.442399999999999949e+01 -1.590600000000000058e+01 -5.172509999999999941e+00 -3.836226371490358278e-01
5.404099999999999682e+01 1.306199999999999939e+01 -1.921900000000000119e+01 2.462611000000000061e+01 -3.838924248599951405e-01
5.404299999999999926e+01 1.187800000000000011e+01 8.081300000000000594e+00 5.080111000000000487e-01 -2.592569092209032200e-01
5.404500000000000171e+01 1.352200000000000024e+01 -1.769000000000000128e+01 1.074535000000000018e+01 -3.837936642200883153e-01
5.404599999999999937e+01 -2.456999999999999851e+00 1.168599999999999994e+01 2.538216999999999857e+01 -1.838200036543082005e-01
5.404999999999999716e+01 1.034399999999999942e+01 3.820000000000000062e-01 4.093647999999999954e+00 1.048697039731626007e-01
5.405599999999999739e+01 1.265700000000000003e+01 -9.369100000000000206e-01 1.054853999999999914e+01 -3.780487439932646021e-01
5.406099999999999994e+01 -2.200000000000000178e+00 -2.166600000000000037e+01 -2.697912000000000088e+00 -3.823267146093740076e-01
5.406099999999999994e+01 -6.800000000000000488e-01 -2.166600000000000037e+01 -1.628109999999999857e+01 -3.823055053251043778e-01
5.406400000000000006e+01 1.185100000000000087e+01 -3.358499999999999819e+00 -9.792366999999999599e-01 -1.669625770839907875e-01
5.406900000000000261e+01 8.849099999999999966e+00 -2.135900000000000176e+01 -1.227457000000000065e+01 -2.885457127204908434e-01
5.406900000000000261e+01 1.890700000000000003e+01 -5.842600000000000016e+00 -8.149334999999999773e-01 -4.006573678377358116e-01
5.407200000000000273e+01 7.581000000000000405e+00 -2.221799999999999997e+01 -9.593005000000000004e-01 -2.876133954754958033e-01
5.407800000000000296e+01 -1.544299999999999962e+01 -7.530899999999999928e+00 -4.908619999999999983e+00 -1.631104168491551432e-01
5.407800000000000296e+01 -1.544299999999999962e+01 -5.265699999999999825e+00 -2.211066000000000198e+00 -1.629866975584425004e-01
5.408100000000000307e+01 4.625499999999999723e+00 -1.844999999999999929e+01 2.932161999999999935e+01 -1.692601571206215627e-01
5.408500000000000085e+01 -8.903000000000000469e+00 1.008900000000000041e+01 4.960365999999999609e+00 7.450183373365359442e-04
5.408500000000000085e+01 -8.785000000000000142e+00 9.241899999999999338e+00 5.017293999999999699e+00 -5.337431554311115357e-03
5.408500000000000085e+01 -8.649100000000000676e+00 1.098300000000000054e+01 8.512945000000000206e+00 -2.019527055188115039e-01
5.408500000000000085e+01 -7.203000000000000291e+00 1.178899999999999970e+01 1.440521999999999991e+01 -2.048311570198249887e-01
5.409100000000000108e+01 9.135899999999999466e+00 -2.953300000000000036e+00 3.294706999999999830e+00 9.934154171390349730e-02
5.409499999999999886e+01 7.291100000000000136e+00 -2.023999999999999844e+01 1.247557000000000027e+00 -1.687196464100982618e-01
5.409499999999999886e+01 8.481999999999999318e+00 -1.957600000000000051e+01 -9.624107000000000411e+00 -2.889224576575538106e-01
5.409499999999999886e+01 8.691100000000000492e+00 -1.883999999999999986e+01 -3.487995999999999874e+00 -2.893334140405172672e-01
5.410000000000000142e+01 1.039400000000000013e+01 -3.336500000000000021e+00 6.355002999999999957e+00 1.094570161182529811e-01
5.410099999999999909e+01 -1.731599999999999895e+01 1.168700000000000072e+00 -7.557938000000000045e+00 -1.590640891774482424e-01
5.410399999999999920e+01 1.563700000000000045e+01 6.627200000000000202e+00 -3.941736999999999824e+00 -3.786705845513457236e-01
5.410499999999999687e+01 -1.102999999999999936e+01 -1.902599999999999980e+01 -3.663898000000000099e+00 -3.835341759741671130e-01
5.410799999999999699e+01 1.319500000000000028e+01 6.455300000000000260e+00 1.897536000000000014e-02 -3.617544448039829996e-01
5.411500000000000199e+01 5.860299999999999621e+00 -1.456600000000000072e+01 4.523894000000000304e+00 -1.753313681862654072e-01
5.411999999999999744e+01 7.085700000000000109e+00 -2.203300000000000125e+01 1.804845999999999950e-01 -2.874069517068565394e-01
5.412299999999999756e+01 1.269999999999999929e+01 -1.957699999999999996e+00 9.453174000000000632e+00 -3.992560461074939893e-01
5.412299999999999756e+01 1.852700000000000102e+01 -6.746199999999999974e+00 1.160571999999999937e+00 -4.001129248994449439e-01
5.413199999999999790e+01 1.617099999999999937e+01 -1.336700000000000088e+01 1.011359999999999992e+01 -3.978549245864971273e-01
5.413199999999999790e+01 1.617099999999999937e+01 -1.157900000000000063e+01 -9.316010000000000124e-01 -3.981205458677782305e-01
5.413199999999999790e+01 1.642500000000000071e+01 -1.247300000000000075e+01 -3.243110000000000159e+00 -3.980281040707280282e-01
5.413199999999999790e+01 8.519700000000000273e+00 -2.211899999999999977e+01 -3.694221999999999895e+00 -2.881756014259530541e-01
5.413400000000000034e+01 -1.884199999999999875e+01 -2.023899999999999810e+00 -2.393456000000000028e+00 -3.643256337370430753e-01
5.413400000000000034e+01 -1.863299999999999912e+01 -2.759900000000000020e+00 -5.572392999999999930e+00 -3.643542266440346067e-01
5.414000000000000057e+01 1.698699999999999832e+01 7.253999999999999559e+00 -1.931054999999999922e+01 -3.799360362898764887e-01
5.414000000000000057e+01 1.828000000000000114e+01 6.533100000000000129e+00 -9.156640000000000157e+01 -3.822439034766135224e-01
5.414000000000000057e+01 1.850700000000000145e+01 5.733999999999999986e+00 -2.876504999999999868e+01 -3.826584529654323275e-01
5.414000000000000057e+01 -1.608599999999999852e+01 1.991999999999999993e+00 -4.158948999999999785e+01 -1.624393007991729865e-01
5.414200000000000301e+01 -1.884900000000000020e+01 -1.044899999999999940e+00 -3.408253000000000199e+00 -3.642499410515442904e-01
5.414500000000000313e+01 -1.809900000000000020e+01 -6.022300000000000431e-01 -2.225422999999999973e+01 -3.641391908404877920e-01
5.414699999999999847e+01 7.860599999999999810e+00 7.316099999999999604e+00 1.115560999999999936e+01 -2.904741164699884901e-02
5.414800000000000324e+01 6.621800000000000352e+00 6.524899999999999700e+00 1.172194000000000003e+01 7.687890463571106503e-02
5.415100000000000335e+01 -1.475600000000000023e+01 2.395900000000000141e+00 1.629428000000000099e+00 -1.695485472814722006e-01
5.415599999999999881e+01 -5.688100000000000378e+00 1.190499999999999936e+01 1.505893999999999977e+01 -1.900806111670734211e-01
5.416199999999999903e+01 1.882400000000000162e+01 -3.316300000000000026e+00 -2.674691999999999936e+01 -4.023348077197995143e-01
5.416700000000000159e+01 1.809100000000000108e+01 -2.359199999999999964e+00 -1.382578000000000085e+00 -4.027158260155244696e-01
5.416700000000000159e+01 1.809100000000000108e+01 -4.867500000000000160e-01 2.150978999999999886e+01 -3.797908472577140038e-01
5.417000000000000171e+01 6.230999999999999872e+00 -2.149299999999999855e+01 1.914267999999999859e+01 -1.673823681483591064e-01
5.417699999999999960e+01 -1.386400000000000077e+00 1.074799999999999933e+01 7.135406999999999833e+00 -1.922669890648530111e-01
5.419500000000000028e+01 1.289299999999999891e+00 7.159399999999999764e+00 8.924367999999999412e+00 -1.764175747563037355e-01
5.419599999999999795e+01 5.971000000000000085e+00 -1.996600000000000108e+01 5.741825999999999652e+01 -1.685706559622247025e-01
5.420300000000000296e+01 1.233999999999999986e+00 -2.060900000000000176e+01 7.637806999999999569e+00 -1.662299408429854242e-01
5.420300000000000296e+01 8.080700000000000216e+00 -1.458799999999999919e+01 5.588852000000000153e+00 -4.643533761678160510e-02
5.420400000000000063e+01 -1.847400000000000020e+01 -4.006300000000000416e+00 -1.452971000000000013e+00 -3.643837584946719721e-01
5.420700000000000074e+01 1.315900000000000070e+01 -1.826999999999999957e+01 2.854033000000000087e+01 -3.838507523721954584e-01
5.420900000000000318e+01 5.293000000000000149e+00 1.618900000000000006e+01 2.245617999999999892e+00 -3.617168219756825703e-02
5.420900000000000318e+01 5.293000000000000149e+00 1.908099999999999952e+01 1.639596000000000053e+00 -1.267912439033985206e-01
5.421300000000000097e+01 -1.148300000000000054e+01 8.118000000000000327e+00 1.107808999999999955e+01 -9.270765316336228301e-02
5.421300000000000097e+01 -1.029199999999999982e+01 7.454100000000000392e+00 1.095414000000000110e+00 -1.074008441689151550e-01
5.421300000000000097e+01 -9.100799999999999557e+00 8.118000000000000327e+00 2.817330000000000112e+00 -1.052568044178102576e-02
5.421399999999999864e+01 -1.658200000000000074e+01 -8.191900000000000404e+00 -1.372391000000000005e+01 -1.604665640942928850e-01
5.421600000000000108e+01 -1.498700000000000010e+01 1.029299999999999926e+01 1.255776000000000003e+00 -2.631484426810694055e-01
5.421999999999999886e+01 -1.610300000000000153e+01 7.625899999999999679e+00 1.506172000000000066e-01 -2.550918042122460871e-01
5.422399999999999665e+01 -1.266799999999999926e+01 -1.856800000000000139e+01 -1.149780000000000024e+00 -3.499999999999999778e-01
5.422500000000000142e+01 -1.754500000000000171e+01 -1.123499999999999943e+01 -3.798924000000000190e-01 -3.499999999999999778e-01
5.422500000000000142e+01 -1.609900000000000020e+01 -1.204100000000000037e+01 2.853946000000000094e+00 -3.499999999999999778e-01
5.422500000000000142e+01 -9.362700000000000244e+00 4.925300000000000011e+00 1.137880000000000003e+01 -9.695185369347132653e-02
5.422500000000000142e+01 9.342000000000000526e+00 9.794700000000000628e+00 -4.144377000000000422e+00 4.744571569579887974e-03
5.422500000000000142e+01 1.086200000000000010e+01 9.794700000000000628e+00 -3.254330000000000211e+01 -2.694825377787521403e-01
5.422800000000000153e+01 -8.060700000000000642e+00 -1.786400000000000077e+01 3.972888000000000197e+00 -3.829531069109678443e-01
5.422999999999999687e+01 -9.508399999999999963e+00 2.523000000000000131e+00 1.873519999999999897e+01 -9.408322467184064564e-02
5.423199999999999932e+01 4.838300000000000267e+00 -1.920799999999999841e+01 4.170933999999999742e+01 -1.688565476919052510e-01
5.424099999999999966e+01 -3.465800000000000214e+00 -1.996699999999999875e+01 -9.577171999999999130e+00 -3.822320093702563093e-01
5.424099999999999966e+01 -1.485100000000000087e+01 -1.271400000000000041e+01 -8.628145000000000397e-01 -8.700452237740127770e-02
5.424699999999999989e+01 -1.282699999999999996e+01 4.817700000000000315e+00 1.127392000000000039e+01 -1.798044168918188079e-01
5.425300000000000011e+01 3.917699999999999960e+00 1.710999999999999943e+01 2.160695000000000032e+00 -1.476899999486149494e-02
5.425300000000000011e+01 3.917699999999999960e+00 1.816000000000000014e+01 1.706808000000000103e+00 -1.643973685684701480e-01
5.425300000000000011e+01 6.668300000000000338e+00 1.710999999999999943e+01 1.853730000000000100e+00 2.022175068700528267e-02
5.425300000000000011e+01 6.668300000000000338e+00 1.816000000000000014e+01 1.779462000000000099e+00 -1.066876813010187303e-01
5.425300000000000011e+01 -1.729100000000000037e+01 -8.510999999999999233e+00 -1.434950000000000081e+01 -1.589460505327156270e-01
5.425600000000000023e+01 -1.624099999999999966e+01 9.452999999999999403e+00 4.027511999999999759e+00 -2.402132343199259723e-01
5.426200000000000045e+01 4.128000000000000114e+00 -1.745899999999999963e+01 2.105947000000000102e+01 -1.704727091191736710e-01
5.426200000000000045e+01 4.128000000000000114e+00 -1.659400000000000119e+01 1.436274000000000051e+01 -1.715621744629971801e-01
5.426400000000000290e+01 -1.634100000000000108e+01 8.430099999999999483e+00 7.783172999999999897e-01 -2.391456823235431628e-01
5.426800000000000068e+01 1.504899999999999949e+01 6.482400000000000162e+00 -3.828583000000000069e+00 -3.782477344343559977e-01
5.427199999999999847e+01 1.687099999999999866e+01 -8.680600000000000094e+00 -2.469224000000000085e+00 -3.989788679901150603e-01
5.427600000000000335e+01 3.463000000000000078e+00 -2.117899999999999849e+01 3.118014000000000152e+01 -1.667277996190183742e-01
5.428199999999999648e+01 1.797500000000000142e+01 -1.423000000000000043e+00 1.826713000000000164e+01 -3.794786644473438497e-01
5.428499999999999659e+01 -9.582600000000000007e-01 9.432800000000000296e+00 1.340127999999999986e+01 -1.920918367336790777e-01
5.429099999999999682e+01 1.822800000000000153e+01 2.742100000000000204e+00 -6.183733000000000146e+00 -3.812437136361329637e-01
5.429099999999999682e+01 1.833899999999999864e+01 3.540000000000000036e+00 -1.159379000000000026e+01 -3.816783138159147160e-01
5.430100000000000193e+01 -1.666100000000000136e+01 -5.094999999999999751e+00 -1.187608999999999959e+01 -1.593613315128812047e-01
5.431099999999999994e+01 -1.790899999999999892e+01 -1.038700000000000045e+01 -1.026216999999999935e+00 -3.500000000000000888e-01
5.432200000000000273e+01 -1.409500000000000064e+01 -1.650900000000000034e+01 8.699536000000000158e+00 -3.499999999999999778e-01
5.432200000000000273e+01 -1.409500000000000064e+01 -1.545899999999999963e+01 7.897574999999999790e+00 -8.894340550612624130e-02
5.432399999999999807e+01 1.540099999999999980e+01 -1.407199999999999918e+01 -2.923021000000000091e-01 -3.976968575081599178e-01
5.433400000000000318e+01 -1.374399999999999977e+01 1.037700000000000067e+01 3.091015000000000068e+00 -2.739608351567739963e-01
5.433400000000000318e+01 -1.229800000000000004e+01 9.570700000000000429e+00 3.572377999999999787e+01 -2.823615361756377506e-01
5.433700000000000330e+01 1.094999999999999929e+01 -2.028600000000000136e+01 -7.191960000000000020e-02 -2.555505766164413162e-01
5.434400000000000119e+01 -1.782199999999999918e+01 -9.329599999999999227e+00 -5.850541999999999909e+00 -3.500000000000000333e-01
5.434400000000000119e+01 3.129300000000000193e+00 2.799300000000000122e+00 1.714893000000000001e+01 8.496803091334401148e-02
5.434400000000000119e+01 4.529300000000000104e+00 2.799300000000000122e+00 1.892163000000000039e+01 8.079486475668164192e-02
5.434599999999999653e+01 -1.390000000000000036e+01 -1.465199999999999925e+01 2.511619000000000046e+00 -8.913173011004960067e-02
5.434799999999999898e+01 1.650000000000000078e-01 8.322300000000000253e+00 1.667918999999999841e+01 -1.706703841210706063e-01
5.435000000000000142e+01 5.214999999999999858e+00 -1.542300000000000004e+01 5.489797000000000260e+00 -1.739998274899077768e-01
5.435099999999999909e+01 -2.669700000000000184e+00 -2.090599999999999881e+01 -1.442999999999999972e+01 -3.822833231172663160e-01
5.435300000000000153e+01 9.644299999999999429e+00 4.402900000000000147e-01 9.939354000000000244e-01 9.717919490158942464e-02
5.436800000000000210e+01 1.115099999999999980e+01 -3.416799999999999837e+00 8.403417000000000525e-02 1.169888485308405446e-01
5.436800000000000210e+01 8.389900000000000801e+00 -1.545599999999999952e+01 7.097879999999999745e-01 -4.561829504335776497e-02
5.436800000000000210e+01 -8.892300000000000537e+00 -1.767299999999999827e+01 -1.938658999999999910e+00 -1.211827974441966604e-01
5.436999999999999744e+01 -1.154700000000000060e+01 1.489000000000000101e+00 1.146260000000000012e+01 -8.058375419847355059e-02
5.436999999999999744e+01 -1.068200000000000038e+01 1.489000000000000101e+00 2.372624000000000066e+01 -8.538872968988865664e-02
5.437500000000000000e+01 1.276200000000000045e+01 7.155300000000000438e+00 9.658744999999999692e+00 -3.615607946589735611e-01
5.438300000000000267e+01 1.896499999999999986e+01 -6.618000000000000327e+00 3.268951999999999969e-01 -4.004439143379440180e-01
5.438700000000000045e+01 -6.312299999999999578e+00 -2.080600000000000094e+01 2.679711999999999872e+00 -3.825215280216401892e-01
5.438700000000000045e+01 -5.261700000000000266e+00 -2.080600000000000094e+01 -6.895501000000000547e-01 -3.823582017440731451e-01
5.438900000000000290e+01 -1.029199999999999982e+01 -1.855199999999999960e+01 1.331437999999999899e+00 -1.219053870053530275e-01
5.439000000000000057e+01 -1.287500000000000000e+01 2.255100000000000104e+00 1.282934000000000019e+01 -1.829267112144979668e-01
5.439000000000000057e+01 -1.439999999999999947e+00 -2.172899999999999920e+01 -4.963860999999999968e-01 -3.823204664487737103e-01
5.439399999999999835e+01 1.063199999999999967e+01 4.767099999999999810e-02 8.409553999999999974e+00 1.110788588911600094e-01
5.439900000000000091e+01 -1.170299999999999940e+01 5.980599999999999916e+00 7.146847000000000172e+00 -9.814277385465983161e-02
5.439900000000000091e+01 -1.030300000000000082e+01 5.980599999999999916e+00 2.491486999999999785e+00 -1.087911344709019679e-01
5.440299999999999869e+01 6.324499999999999567e+00 5.652300000000000324e+00 5.192473999999999990e+01 7.851460383354005867e-02
5.441400000000000148e+01 7.427999999999999936e+00 6.616100000000000314e+00 2.242238000000000042e+01 7.486217443266911242e-02
5.441499999999999915e+01 -4.289000000000000278e-03 -2.088299999999999912e+01 -1.006736000000000075e+01 -1.659907637880206344e-01
5.441700000000000159e+01 4.929599999999999760e+00 -2.092399999999999949e+01 1.499174999999999969e+01 -1.677018722196368106e-01
5.442499999999999716e+01 2.097500000000000142e+00 6.363100000000000200e+00 1.222415999999999947e+01 1.023118867649206870e-01
5.443099999999999739e+01 -1.911999999999999922e+00 1.159800000000000075e+01 2.501816000000000173e+01 -1.915982646066427542e-01
5.444400000000000261e+01 -1.538599999999999923e+01 2.050300000000000011e+00 -1.796934999999999860e+01 -1.665687534346651510e-01
5.444500000000000028e+01 9.643200000000000216e+00 -2.112800000000000011e+01 -1.316690999999999967e+01 -2.892222498867006442e-01
5.445000000000000284e+01 -2.729800000000000004e+00 -1.996699999999999875e+01 -3.990775000000000183e+00 -3.822174134239621490e-01
5.445400000000000063e+01 1.859600000000000009e+01 -7.467999999999999972e+00 4.534364000000000061e+00 -3.999840279240864382e-01
5.445700000000000074e+01 -1.390900000000000070e+01 -1.386400000000000077e+01 -1.468245999999999940e+00 -8.899448326693895628e-02
5.446000000000000085e+01 -3.306999999999999940e+00 1.210200000000000031e+01 9.226461000000000467e+00 -1.825744836138215033e-01
5.446099999999999852e+01 1.234200000000000053e+01 -1.951999999999999957e+01 2.792286000000000001e+01 -2.550210445572001494e-01
5.446300000000000097e+01 8.566500000000000226e-01 7.859399999999999942e+00 1.032535000000000025e+01 -1.756974627594811988e-01
5.447099999999999653e+01 6.740400000000000169e+00 -1.440399999999999991e+01 6.216789999999999594e+00 -4.757033580037449416e-02
5.447500000000000142e+01 8.395599999999999952e+00 -1.648999999999999844e+01 -2.274075999999999986e+00 -4.477662103255818093e-02
5.447800000000000153e+01 8.490399999999999281e+00 -3.737699999999999911e-01 4.620026000000000188e+00 1.906106606849555241e-01
5.448899999999999721e+01 1.195700000000000074e+01 -6.695299999999999585e-01 1.268939999999999912e+01 -3.778966737690185873e-01
5.449099999999999966e+01 1.412199999999999989e+01 6.410599999999999632e+00 -3.044170999999999960e+00 -3.776560038666078589e-01
5.449699999999999989e+01 -7.243299999999999628e+00 -1.924399999999999977e+01 9.539676000000000267e-01 -3.827501501087985925e-01
5.449900000000000233e+01 5.270999999999999908e+00 -1.990800000000000125e+01 3.233596000000000004e+01 -1.688350541204235999e-01
5.450600000000000023e+01 5.529600000000000293e+00 3.912100000000000133e+00 2.148074000000000083e+01 7.962390611997646750e-02
5.450800000000000267e+01 -3.898499999999999854e+00 -1.926699999999999946e+01 -1.058754000000000062e+01 -3.821929936275133555e-01
5.450800000000000267e+01 -3.033199999999999896e+00 -1.926699999999999946e+01 -5.918656999999999613e+00 -3.821718629414504464e-01
5.450999999999999801e+01 -1.614300000000000068e+01 -4.998300000000000409e+00 2.973841000000000179e+00 -1.613471839595784219e-01
5.450999999999999801e+01 -1.495199999999999996e+01 -7.134299999999999642e+00 -8.535351000000000354e+00 1.048965590884465282e-01
5.450999999999999801e+01 -1.495199999999999996e+01 -5.662300000000000111e+00 2.063442000000000054e-01 1.078087120870450527e-01
5.450999999999999801e+01 -1.474300000000000033e+01 -6.398299999999999876e+00 -2.520948999999999884e+01 1.055586385422909446e-01
5.451700000000000301e+01 -1.588199999999999967e+01 -8.133599999999999497e+00 4.841436999999999991e+00 -1.625738537919661497e-01
5.452100000000000080e+01 -6.752299999999999969e+00 -2.004100000000000037e+01 9.163930999999999605e-01 -3.826331816614639281e-01
5.452100000000000080e+01 -1.198099999999999987e+01 8.923700000000000188e+00 1.840172000000000097e+01 -2.830292384260051919e-01
5.452300000000000324e+01 8.644999999999999574e+00 -2.556700000000000195e+00 6.676654000000000089e+00 3.482597567704956432e-01
5.452300000000000324e+01 9.835900000000000531e+00 -3.220699999999999896e+00 3.678726000000000163e+00 1.073890067638310075e-01
5.452799999999999869e+01 6.591099999999999959e+00 -1.997299999999999898e+01 1.653984000000000165e+01 -1.693739477417492700e-01
5.452799999999999869e+01 7.991100000000000314e+00 -1.997299999999999898e+01 -4.052754000000000190e+01 -2.886812278817764144e-01
5.453099999999999881e+01 -1.788700000000000045e+01 -4.920499999999999652e+00 -7.472012000000000098e-01 -3.643137124441784835e-01
5.454800000000000182e+01 8.341400000000000148e+00 -1.787300000000000111e+01 1.727773999999999921e+00 -4.375595649421107347e-02
5.454899999999999949e+01 -1.319299999999999962e+01 -1.771799999999999997e+01 -4.229525000000000090e-01 -3.499999999999999778e-01
5.455199999999999960e+01 -1.421199999999999974e+01 1.038000000000000078e+01 -2.042790999999999801e+00 -2.715560490157744589e-01
5.455199999999999960e+01 -1.576200000000000045e+01 1.022799999999999976e+01 1.184503999999999913e+01 -2.594768831532973108e-01
5.455400000000000205e+01 -4.874600000000000044e+00 -2.006200000000000117e+01 -6.313335000000000363e+00 -3.823347009413609610e-01
5.455499999999999972e+01 1.416300000000000026e+01 -1.607499999999999929e+01 -5.185016000000000069e+00 -3.836772766342803065e-01
5.456300000000000239e+01 8.050000000000000711e+00 -2.265200000000000102e+01 -1.675734000000000057e+00 -2.879710840453371667e-01
5.456799999999999784e+01 -8.131899999999999906e+00 1.156000000000000050e+01 2.314509999999999934e+01 -2.022802556141746477e-01
5.456799999999999784e+01 8.100099999999999412e+00 -1.736100000000000065e+01 1.623013000000000039e+00 -4.425756023966996577e-02
5.457099999999999795e+01 -1.655600000000000094e+01 1.459000000000000075e+00 -1.256087999999999916e+01 -1.620560938101621995e-01
5.457800000000000296e+01 4.442999999999999616e+00 1.626000000000000156e+01 3.573739000000000221e+00 -1.231296888455243356e-02
5.457800000000000296e+01 4.442999999999999616e+00 1.901000000000000156e+01 2.060508000000000006e+00 -1.304179294281628820e-01
5.457800000000000296e+01 6.142999999999999794e+00 1.626000000000000156e+01 1.972377999999999965e+00 7.081244375341235082e-03
5.457800000000000296e+01 6.142999999999999794e+00 1.901000000000000156e+01 1.544947000000000070e+00 -7.520710243573855425e-02
5.457800000000000296e+01 -1.760800000000000054e+01 -2.056300000000000072e-01 -8.286602000000000245e+00 -1.626402398406389671e-01
5.457800000000000296e+01 -1.739900000000000091e+01 5.303900000000000281e-01 -1.392375000000000007e+01 -1.612412717445944055e-01
5.458400000000000318e+01 -1.426500000000000057e+01 2.792499999999999982e+00 6.385790000000000077e+00 -1.719677857267135623e-01
5.458400000000000318e+01 -1.426500000000000057e+01 4.264499999999999957e+00 3.904288000000000203e+00 -1.678452447678610016e-01
5.458400000000000318e+01 -1.405599999999999916e+01 3.528500000000000192e+00 5.219666000000000139e+00 -1.716702382663219117e-01
5.458599999999999852e+01 -1.328400000000000070e+01 3.968999999999999861e+00 8.105907999999999447e+00 -1.769725981224289091e-01
5.459100000000000108e+01 1.182699999999999996e+01 -3.112000000000000099e+00 -3.614739999999999842e+00 -1.444696212862551787e-01
5.460199999999999676e+01 9.279700000000000060e+00 -2.182900000000000063e+01 -1.134482000000000035e+01 -2.888626767624832281e-01
5.460300000000000153e+01 6.721899999999999764e+00 -2.189000000000000057e+01 -2.525393999999999917e+00 -1.679455849654817035e-01
5.460499999999999687e+01 -3.987600000000000033e+00 1.232799999999999940e+01 5.271046000000000120e+00 -1.809039943593917787e-01
5.460600000000000165e+01 1.238799999999999990e+01 8.019500000000000739e+00 5.171287000000000411e+00 -2.576202143708586911e-01
5.460799999999999699e+01 -1.558300000000000018e+01 7.161100000000000243e+00 -2.733292000000000055e+00 -2.595131375388265438e-01
5.460999999999999943e+01 1.774699999999999989e+01 6.963700000000000223e+00 -4.648198000000000008e+01 -3.811714505330308089e-01
5.461099999999999710e+01 -1.192399999999999949e+01 -1.873499999999999943e+01 -3.598773000000000000e+00 -3.500000000000000333e-01
5.461200000000000188e+01 2.696600000000000108e+00 3.499299999999999855e+00 2.479107000000000127e+01 8.872628571102099404e-02
5.461200000000000188e+01 2.696600000000000108e+00 4.364600000000000257e+00 1.639313999999999893e+01 9.137340900832555124e-02
5.461299999999999955e+01 -2.680000000000000160e+00 1.210599999999999987e+01 1.894710999999999856e+01 -1.881951504832280742e-01
5.461399999999999721e+01 1.621900000000000119e+01 7.111100000000000421e+00 -5.035542999999999658e+00 -3.791734945877318075e-01
5.461500000000000199e+01 5.868000000000000327e+00 4.894899999999999807e+00 3.115882999999999825e+01 8.036194691451808980e-02
5.461800000000000210e+01 -9.425399999999999778e+00 3.104400000000000048e+00 1.756655999999999906e+01 -9.473529258348703519e-02
5.461800000000000210e+01 -9.425399999999999778e+00 3.969599999999999795e+00 1.378067000000000064e+01 -9.518949374644050665e-02
5.463199999999999790e+01 1.840800000000000125e+01 -2.798099999999999810e+00 -1.752150999999999925e+01 -4.028001772966364191e-01
5.463199999999999790e+01 1.935699999999999932e+01 -3.746900000000000119e+00 -5.355751000000000062e+01 -4.025030593423696845e-01
5.463900000000000290e+01 -1.539899999999999913e+01 -1.218999999999999950e+01 -2.000762000000000027e-02 -3.499999999999999778e-01
5.464000000000000057e+01 8.259999999999999787e+00 -1.165599999999999969e+00 3.838608999999999938e+00 1.904363728893540553e-01
5.464000000000000057e+01 2.092099999999999849e+00 -2.053399999999999892e+01 1.171177999999999919e+01 -1.673073964683235437e-01
5.464600000000000080e+01 -1.099200000000000088e+01 7.721400000000000041e+00 7.245982999999999841e+00 -9.784898837751097866e-02
5.464600000000000080e+01 -9.591699999999999449e+00 7.721400000000000041e+00 -1.010834000000000010e+00 -9.166880056098539523e-03
5.464800000000000324e+01 3.829299999999999926e+00 2.741000000000000103e+00 1.900291999999999959e+01 8.380377462237081909e-02
5.464800000000000324e+01 -4.478500000000000369e+00 -1.933800000000000097e+01 -1.658606999999999942e+01 -3.823020347230388083e-01
5.465599999999999881e+01 2.471999999999999975e+00 5.498899999999999899e+00 1.273265999999999920e+01 9.698025997693029976e-02
5.465699999999999648e+01 -1.330799999999999983e+01 2.955099999999999838e+00 1.079568000000000083e+01 -1.785996410033074133e-01
5.465899999999999892e+01 1.761499999999999844e+01 -8.514300000000000423e+00 2.593196999999999974e+00 -3.994039458699947809e-01
5.465999999999999659e+01 1.295599999999999952e+01 -1.734299999999999997e+01 1.556902000000000008e+01 -3.838348170770863321e-01
5.466299999999999670e+01 -1.020800000000000018e+01 2.255700000000000038e+00 2.670020999999999844e+01 -8.908280076177814422e-02
5.466499999999999915e+01 1.420900000000000052e+00 7.275999999999999801e+00 8.784872000000000014e+00 -1.783446680862528499e-01
5.466599999999999682e+01 -1.213499999999999979e+01 5.280599999999999739e+00 8.818908999999999665e+00 -7.998584763233423933e-02
5.466599999999999682e+01 -9.870100000000000762e+00 5.280599999999999739e+00 9.096486000000000294e-01 -1.111004080342292422e-01
5.466899999999999693e+01 1.223499999999999943e+01 8.541299999999999670e+00 6.262434999999999530e-01 -2.582211187042355860e-01
5.467499999999999716e+01 -1.426200000000000045e+01 -1.305000000000000071e+01 -5.621216000000000435e+00 -8.821612279477260288e-02
5.467600000000000193e+01 -1.116699999999999982e+01 2.244899999999999896e+00 2.114771000000000001e+01 -8.347793560931313084e-02
5.468900000000000006e+01 -7.349700000000000344e+00 -1.811400000000000077e+01 8.611231999999999331e+00 -3.828509156498957622e-01
5.468999999999999773e+01 -1.537599999999999945e+01 6.309000000000000163e+00 2.784270999999999940e+00 -2.608609552384674735e-01
5.469299999999999784e+01 -1.217500000000000071e+01 2.196899999999999853e+00 1.688436000000000092e+01 -7.740616570374572736e-02
5.469400000000000261e+01 -1.154899999999999949e+01 8.439999999999999503e+00 2.109161999999999892e+01 -8.881566865252846221e-02
5.469500000000000028e+01 8.582000000000000739e+00 8.564999999999999503e+00 -5.561878000000000100e+00 -1.153449920819757391e-02
5.469500000000000028e+01 8.808999999999999275e+00 9.364100000000000534e+00 -1.100064999999999932e-01 -1.596946108478958151e-03
5.469500000000000028e+01 1.010200000000000031e+01 1.008500000000000085e+01 -3.179423999999999850e+01 1.774195880043880069e-02
5.469800000000000040e+01 1.276299999999999990e+01 -1.870299999999999940e+01 6.025271000000000043e+01 -3.839071583179752278e-01
5.469800000000000040e+01 1.276299999999999990e+01 -1.783699999999999974e+01 1.804113999999999862e+01 -3.838714155363243119e-01
5.469899999999999807e+01 1.972100000000000009e+01 -4.581199999999999939e+00 -1.702886000000000166e+01 -4.020598636738754728e-01
5.470199999999999818e+01 -1.100300000000000011e+01 6.038899999999999935e+00 7.977979999999999627e+00 -1.022831682325011232e-01
5.471600000000000108e+01 -9.759299999999999642e+00 4.492700000000000138e+00 1.223986000000000018e+01 -9.604743826584916100e-02
5.471800000000000352e+01 -4.673499999999999877e-01 9.036199999999999122e+00 1.142210999999999999e+01 -1.946568035788018847e-01
5.472099999999999653e+01 4.229599999999999582e+00 -2.098199999999999932e+01 1.633609999999999829e+01 -1.678737021645058669e-01
5.472099999999999653e+01 5.629599999999999937e+00 -2.098199999999999932e+01 2.337289000000000172e+01 -1.684104466172249570e-01
5.472500000000000142e+01 4.662799999999999834e+00 -1.637000000000000099e+01 1.269168999999999947e+01 -1.730007448529929104e-01
5.472699999999999676e+01 -1.692000000000000171e+01 7.578799999999999981e-01 -2.628667000000000087e+01 -1.626812881530671218e-01
5.473299999999999699e+01 1.051699999999999946e+01 -2.077700000000000102e+01 -6.570203000000000237e+00 -2.555865225716093536e-01
5.473799999999999955e+01 1.569299999999999962e+01 -1.106600000000000072e+01 1.532440000000000069e+01 -3.983224943502557958e-01
5.474000000000000199e+01 1.945599999999999952e+01 -6.223900000000000432e+00 2.738961999999999897e+00 -4.009687286084598901e-01
5.474199999999999733e+01 1.813899999999999935e+01 -6.499099999999999877e-01 2.501930000000000121e+01 -3.798487209336894876e-01
5.474199999999999733e+01 1.813899999999999935e+01 2.451900000000000190e+00 3.973223999999999734e+01 -3.810417995837555027e-01
5.474199999999999733e+01 1.834900000000000020e+01 8.611699999999999910e-02 2.717805999999999855e+01 -3.801817719180340949e-01
5.474199999999999733e+01 1.834900000000000020e+01 1.715899999999999981e+00 2.219939000000000107e+01 -3.808739289538462525e-01
5.474199999999999733e+01 1.857999999999999829e+01 9.010000000000000231e-01 1.237807999999999993e+02 -3.806075570713167711e-01
5.475000000000000000e+01 -1.694900000000000162e+01 -1.171599999999999930e+01 5.835362000000000188e-02 -3.499999999999999778e-01
5.475099999999999767e+01 1.606500000000000128e+01 -9.106400000000000716e+00 -6.141369000000000078e+00 -3.988418781061729423e-01
5.475699999999999790e+01 1.456499999999999950e+01 -1.525099999999999945e+01 4.797049999999999592e+00 -3.975656184444505969e-01
5.475699999999999790e+01 1.491000000000000014e+01 -1.446799999999999997e+01 7.280668000000000362e+00 -3.976972846060282119e-01
5.476200000000000045e+01 -1.216999999999999993e+01 4.745099999999999874e+00 1.239029999999999987e+01 -7.915894090153915985e-02
5.476500000000000057e+01 -8.459699999999999775e+00 -1.718199999999999861e+01 7.963365999999999501e-01 -3.831163973179408377e-01
5.477000000000000313e+01 -1.871699999999999875e+01 -1.602999999999999980e+00 -1.189521999999999968e+00 -3.641231944005571264e-01
5.477199999999999847e+01 -1.512299999999999933e+01 5.299299999999999677e+00 5.767409000000000008e-01 -2.622878773374115458e-01
5.477400000000000091e+01 -8.829000000000000625e+00 1.013400000000000034e+01 4.691250000000000142e+00 -1.986746062190140605e-01
5.478799999999999670e+01 4.567400000000000126e+00 -1.722800000000000153e+01 1.714883000000000024e+01 -1.719210932938471659e-01
5.479500000000000171e+01 8.423700000000000188e+00 -1.927299999999999969e+01 -9.232039000000000328e+00 -4.307438441142991820e-02
5.480400000000000205e+01 1.536999999999999922e+01 7.059800000000000075e+00 6.802318000000000531e-01 -3.784094036639945036e-01
5.481199999999999761e+01 4.283399999999999985e-01 -2.039199999999999946e+01 -3.327984999999999971e+00 -1.671235280441021875e-01
5.482099999999999795e+01 -1.909699999999999953e+00 -2.119600000000000151e+01 -1.982525000000000048e+01 -3.822928442765506363e-01
5.482099999999999795e+01 -9.702899999999999858e-01 -2.119600000000000151e+01 -2.768121999999999971e+01 -3.822799166156194417e-01
5.482200000000000273e+01 4.961000000000000298e+00 3.333299999999999930e+00 2.245356999999999914e+01 8.193951716796790685e-02
5.482200000000000273e+01 4.401099999999999568e+00 -1.816400000000000148e+01 3.675591000000000008e+01 -1.707831634422831701e-01
5.482600000000000051e+01 1.158099999999999952e+01 9.424799999999999400e+00 -2.659207999999999927e+01 -2.639926033324644372e-01
5.482800000000000296e+01 -5.786999999999999922e+00 -2.007100000000000151e+01 -3.720345000000000013e+00 -3.825055089546320342e-01
5.483100000000000307e+01 7.291100000000000136e+00 -2.003099999999999881e+01 -2.443280999999999992e+01 -1.700950380518896909e-01
5.484599999999999653e+01 1.963100000000000023e+01 -5.636300000000000310e+00 -4.141132000000000146e-01 -4.014072228253081076e-01
5.484700000000000131e+01 7.918899999999999828e+00 7.012699999999999712e+00 2.218355000000000032e+01 -2.376565347254538246e-02
5.484700000000000131e+01 8.451000000000000512e+00 -1.973000000000000087e+00 6.031793999999999656e+00 3.481048721447644323e-01
5.484799999999999898e+01 1.136700000000000088e+01 -3.926499999999999990e-01 1.010257999999999967e+01 -1.086958796110357728e-01
5.485199999999999676e+01 1.065700000000000003e+01 -3.263599999999999834e+00 -2.751610999999999918e-01 1.155391401746524577e-01
5.485600000000000165e+01 8.280900000000000816e+00 7.707499999999999574e+00 4.943260000000000431e+00 -1.830003398267757500e-02
5.485799999999999699e+01 1.225900000000000034e+01 -2.411999999999999922e+00 1.085557000000000016e+01 -3.993424037673978799e-01
5.485799999999999699e+01 1.225900000000000034e+01 -1.546799999999999953e+00 1.239073999999999920e+01 -3.780325822199335772e-01
5.485900000000000176e+01 1.476600000000000001e+01 -1.015900000000000070e+01 5.958817999999999948e+00 -3.983220302070654695e-01
5.485900000000000176e+01 -1.289400000000000013e+01 1.005199999999999960e+01 5.405333999999999861e+01 -2.791751231925777565e-01
5.486299999999999955e+01 -1.117200000000000060e+01 -1.879100000000000037e+01 -6.537851999999999997e+00 -3.836125775164504481e-01
5.486399999999999721e+01 1.338400000000000034e+01 6.962699999999999889e+00 5.410002999999999895e-01 -3.618238587818788932e-01
5.486599999999999966e+01 -1.883699999999999974e+01 -3.356799999999999784e+00 -6.993371999999999922e-01 -3.642336910753362633e-01
5.486800000000000210e+01 6.307800000000000296e+00 -1.489499999999999957e+01 4.193182000000000187e+00 -4.769806903078495364e-02
5.486800000000000210e+01 7.173000000000000043e+00 -1.489499999999999957e+01 3.851878000000000135e+00 -4.737476651879792000e-02
5.488100000000000023e+01 1.183000000000000007e+01 -1.994999999999999929e+01 1.218448000000000064e+01 -2.551034731507806907e-01
5.488400000000000034e+01 -2.239100000000000090e+00 -2.043599999999999994e+01 -1.092780999999999914e+01 -3.822456721594194584e-01
5.488400000000000034e+01 -3.744499999999999940e+00 -1.866199999999999903e+01 -9.348703000000000429e+00 -3.822261596015008034e-01
5.488400000000000034e+01 -2.879199999999999982e+00 -1.866199999999999903e+01 -6.542709000000000330e+00 -3.821264488770051426e-01
5.489000000000000057e+01 -9.790699999999999292e+00 -1.813800000000000168e+01 4.659412999999999805e+00 -1.227483808986441771e-01
5.489200000000000301e+01 7.290000000000000036e+00 -2.258899999999999864e+01 -3.543784000000000045e+00 -2.877283987585455005e-01
5.489200000000000301e+01 8.810000000000000497e+00 -2.258899999999999864e+01 -7.459725999999999857e+00 -2.885140967844634363e-01
5.489399999999999835e+01 1.815399999999999991e+01 5.012999999999999901e+00 -2.823914999999999864e+01 -3.818563304721599994e-01
5.489800000000000324e+01 -1.706200000000000117e+01 -8.947599999999999554e+00 -5.225547999999999860e+00 -1.604370203945243989e-01
5.489999999999999858e+01 1.821699999999999875e+01 6.203700000000000436e+00 -1.018062000000000040e+02 -3.819600868912203517e-01
5.490800000000000125e+01 7.695599999999999774e+00 -1.535699999999999932e+01 2.474839999999999929e+00 -4.672398678757711671e-02
5.490899999999999892e+01 1.354700000000000060e+01 -1.649500000000000099e+01 -4.414674999999999905e+00 -3.837600413114338749e-01
5.491199999999999903e+01 -1.061600000000000099e+00 1.022199999999999953e+01 1.614108999999999838e+01 -1.962977541678340709e-01
5.491299999999999670e+01 -9.159100000000000463e+00 8.421400000000000219e+00 1.606454999999999966e+00 -3.368014475209585995e-03
5.491700000000000159e+01 1.506900000000000084e+01 -1.085899999999999999e+01 2.521054000000000173e+01 -3.982847871316409494e-01
5.491700000000000159e+01 1.506900000000000084e+01 -9.458999999999999631e+00 -2.344647000000000148e+00 -3.985601964986869028e-01
5.491799999999999926e+01 -1.361400000000000077e+01 -1.598399999999999999e+01 1.243978000000000073e+01 -8.977215410497133008e-02
5.492900000000000205e+01 -1.846699999999999875e+01 -4.415300000000000225e+00 -6.543778999999999568e-01 -3.642506204093434730e-01
