-1.095700000000000074e+01 1.113599999999999923e+01 -2.641199999999999903e+01 -5.633108000000000004e+00 -2.024704760947322879e-01
-1.095500000000000007e+01 1.471400000000000041e+01 -1.712099999999999866e+01 -1.239722000000000079e+01 4.641623641189758509e-02
-1.095400000000000063e+01 -1.083900000000000041e+01 -2.483099999999999952e+01 5.352738999999999692e+00 -2.086910285848429802e-01
-1.092999999999999972e+01 1.350500000000000078e+01 -1.359900000000000020e+01 1.582548999999999984e+00 4.599644086672443483e-02
-1.092999999999999972e+01 1.442099999999999937e+01 -1.803800000000000026e+01 -5.321138000000000368e+00 4.622105601255371843e-02
-1.089899999999999913e+01 -6.677699999999999747e+00 -1.868900000000000006e+01 -2.675507000000000080e+00 -6.545462203593668815e-02
-1.089899999999999913e+01 -6.677699999999999747e+00 -1.782400000000000162e+01 -2.462091000000000030e+00 3.239175035633924671e-02
-1.089899999999999913e+01 -6.677699999999999747e+00 -1.688400000000000034e+01 -1.969384999999999941e+00 3.191403253065474427e-02
-1.089799999999999969e+01 1.497199999999999953e+01 -1.369200000000000017e+01 3.327666999999999931e+00 -1.110481898062588846e-01
-1.088899999999999935e+01 -1.117500000000000071e+01 -2.405600000000000094e+01 5.820693000000000339e+00 -2.134942230257648177e-01
-1.088599999999999923e+01 -9.217800000000000438e+00 -2.496799999999999997e+01 -8.797323000000000448e+00 -2.015986220770334680e-01
-1.088599999999999923e+01 -8.352499999999999147e+00 -2.496799999999999997e+01 7.082225000000000215e+00 -1.982373580315259509e-01
-1.088599999999999923e+01 8.171300000000000452e+00 -2.997200000000000131e+01 -5.386763000000000190e+00 -2.001171484503411757e-01
-1.088599999999999923e+01 8.171300000000000452e+00 -2.903200000000000003e+01 -1.132394000000000034e+01 -2.005481125471236248e-01
-1.087599999999999945e+01 8.976300000000000390e-01 -4.068999999999999950e+00 -4.249623999999999846e+00 2.655428367616993746e-01
-1.085800000000000054e+01 1.622599999999999909e+01 -1.549000000000000021e+01 3.453900999999999755e+01 -1.116202262440592896e-01
-1.085800000000000054e+01 1.622599999999999909e+01 -1.453200000000000003e+01 2.937974000000000174e+01 -1.124314183166675168e-01
-1.085399999999999920e+01 1.058900000000000041e+01 -8.234500000000000597e+00 2.578116999999999948e+01 -1.600846538101831640e-01
-1.085399999999999920e+01 -1.090399999999999991e+01 -2.328900000000000148e+01 -2.424494000000000149e+00 -1.920921485159947373e-01
-1.084699999999999953e+01 9.400999999999999801e+00 -3.079500000000000171e+01 -1.898245999999999967e+01 -2.000227675304025454e-01
-1.082199999999999918e+01 1.091600000000000037e+01 -9.009999999999999787e+00 4.458973999999999904e+01 -1.588104800474514078e-01
-1.082000000000000028e+01 -5.886000000000000121e+00 -2.561499999999999844e+01 -3.169754999999999878e+00 -1.888201446420151863e-01
-1.081700000000000017e+01 -9.904099999999999682e+00 -2.486899999999999977e+01 -5.572041999999999717e+00 -2.044873901808112460e-01
-1.081000000000000050e+01 -4.570000000000000173e-01 -9.125099999999999767e+00 1.087855999999999934e+00 -1.190891880587237328e-01
-1.080899999999999928e+01 2.420900000000000052e+00 -4.358600000000000030e+00 -8.415221000000000728e+00 2.599727248200865426e-01
-1.080599999999999916e+01 1.241799999999999926e+01 -1.203299999999999947e+01 3.959262999999999977e+01 4.519152990054784574e-02
-1.080199999999999960e+01 9.471199999999999619e+00 -2.809600000000000009e+01 -1.649346999999999852e+01 -2.011855426999296925e-01
-1.080000000000000071e+01 -5.323299999999999699e+00 -1.346599999999999930e+01 6.284603999999999857e+00 -1.328793046322240268e-01
-1.079700000000000060e+01 1.040999999999999925e+00 -2.643100000000000094e+01 -1.124826999999999977e+01 -9.108932723012658217e-02
-1.079299999999999926e+01 1.342699999999999960e+01 -2.488599999999999923e+01 5.898551000000000322e+00 -3.836029769856413307e-01
-1.079299999999999926e+01 1.342699999999999960e+01 -2.309799999999999898e+01 1.029598000000000013e+01 -3.830667200790122684e-01
-1.079299999999999926e+01 1.368099999999999916e+01 -2.399200000000000088e+01 3.038297000000000025e+01 -3.832717019601132313e-01
-1.078800000000000026e+01 -1.044899999999999984e+01 -2.096999999999999886e+01 -3.852673999999999932e+00 -6.508898082720657174e-02
-1.078700000000000081e+01 1.069100000000000072e+01 -2.997100000000000009e+01 -1.060693000000000019e+01 -2.005501775596927327e-01
-1.078200000000000003e+01 -8.804999999999999716e+00 -1.935200000000000031e+01 -3.656918999999999897e+01 -6.554743613549843251e-02
-1.077399999999999913e+01 6.756199999999999983e-01 -8.366899999999999338e+00 -3.519953000000000110e+00 -1.622444105555086447e-01
-1.077399999999999913e+01 6.756199999999999983e-01 -7.501599999999999824e+00 -5.881470000000000198e+00 6.288554798495733789e-02
-1.076999999999999957e+01 -9.553900000000000503e+00 -2.405600000000000094e+01 -1.182849000000000039e+01 -2.059028397587961690e-01
-1.076800000000000068e+01 -1.017300000000000004e+01 -2.010600000000000165e+01 -9.790051999999999310e+00 -6.527793682656554686e-02
-1.075900000000000034e+01 6.620000000000000107e+00 -2.521900000000000119e+01 1.547498999999999958e+00 -2.028306915569673963e-01
-1.075600000000000023e+01 -3.820699999999999985e+00 -2.541300000000000026e+01 -2.339090000000000114e+00 -8.741174958398760519e-02
-1.073799999999999955e+01 -4.053700000000000081e+00 -1.244899999999999984e+01 1.408229000000000042e+01 -1.071790689229011051e-01
-1.073700000000000010e+01 4.360999999999999766e+00 -4.101899999999999658e+00 6.696303999999999590e+00 5.828201576036017018e-02
-1.073499999999999943e+01 -5.440900000000000070e+00 -1.445800000000000018e+01 1.078281000000000045e+00 -1.419898484970168739e-01
-1.073399999999999999e+01 -2.120699999999999807e+00 -1.066000000000000014e+01 -1.113912999999999975e+01 -1.572632611352014487e-01
-1.072799999999999976e+01 8.008200000000000429e+00 -4.809599999999999653e+00 3.270721999999999952e+01 -1.393404225058173795e-01
-1.071899999999999942e+01 9.592000000000000526e+00 -4.921000000000000263e+00 3.018712999999999980e+01 -1.209020182729117626e-01
-1.071400000000000041e+01 3.811100000000000043e-01 -4.266099999999999781e+00 -5.192844000000000015e+00 2.685468928881895589e-01
-1.070800000000000018e+01 3.221100000000000074e-01 -6.855699999999999683e+00 -1.844255999999999895e+00 5.644180721400092471e-02
-1.070500000000000007e+01 1.123300000000000054e+01 -1.034900000000000020e+01 5.101924000000000348e+01 -1.581189512562541366e-01
-1.070400000000000063e+01 1.333500000000000085e+01 -1.904400000000000048e+01 -7.507032999999999845e+00 -1.371921599446143114e-01
-1.069200000000000017e+01 -1.057600000000000051e+01 -2.198999999999999844e+01 1.505520999999999943e-01 -6.494532603031437368e-02
-1.068599999999999994e+01 -6.957100000000000506e-01 -2.794999999999999929e+01 -5.454628999999999728e+00 -8.777291113263607780e-02
-1.068599999999999994e+01 2.437100000000000100e-01 -2.794999999999999929e+01 -1.319144999999999968e+01 -8.870662393534700652e-02
-1.068599999999999994e+01 -8.805999999999999162e+00 -2.399699999999999989e+01 -3.318151999999999990e+00 -2.024016285001335458e-01
-1.067600000000000016e+01 -2.306700000000000195e+00 -2.546199999999999974e+01 3.303128000000000064e+00 -8.862711386017643744e-02
-1.066999999999999993e+01 6.507699999999999818e+00 -4.877699999999999925e+00 1.446714000000000055e+01 -1.657129374219534212e-01
-1.066699999999999982e+01 -1.052599999999999980e+01 -2.389699999999999847e+01 -1.155883000000000038e+01 -2.108943276030866565e-01
-1.066099999999999959e+01 1.583200000000000074e+01 -1.632700000000000173e+01 -6.257594000000000101e+00 -1.103751976028125581e-01
-1.065300000000000047e+01 1.026200000000000045e+01 -8.623599999999999710e+00 3.027178999999999931e+01 -1.620806006883963035e-01
-1.064400000000000013e+01 1.302299999999999969e+01 -1.965899999999999892e+01 -1.194154999999999944e+01 -1.366630545691871756e-01
-1.063000000000000078e+01 1.545100000000000051e+01 -1.712099999999999866e+01 -7.374128999999999934e+00 4.733761512981257691e-02
-1.062700000000000067e+01 1.420500000000000007e+01 -1.365700000000000003e+01 6.071269000000000027e+00 4.730357236052069869e-02
-1.062400000000000055e+01 -3.614100000000000090e+00 -1.212700000000000067e+01 4.351760999999999768e+00 -9.908254076866855609e-02
-1.062299999999999933e+01 5.731100000000000083e-01 -2.719000000000000128e+01 -2.865457999999999927e+01 -8.954661388229888386e-02
-1.060899999999999999e+01 -6.208000000000000185e+00 -1.612399999999999878e+01 -3.691139999999999866e+00 2.876915063392335159e-02
-1.059500000000000064e+01 1.788399999999999990e+00 -2.644999999999999929e+01 -4.985210999999999615e+00 -9.145428373793670906e-02
-1.059500000000000064e+01 1.056600000000000072e+01 -9.323600000000000776e+00 6.679712999999999568e+01 -1.604941363451290459e-01
-1.059299999999999997e+01 8.078900000000000858e+00 -2.487099999999999866e+01 -9.542738999999999194e+00 -2.030214322292423490e-01
-1.058799999999999919e+01 3.049299999999999788e-01 -2.643100000000000094e+01 -4.713553000000000281e+01 -8.996877067021444296e-02
-1.056700000000000017e+01 1.512199999999999989e+01 -1.788100000000000023e+01 -9.791667000000000343e+00 4.721506164581214249e-02
-1.056499999999999950e+01 -4.557100000000000151e+00 -2.544900000000000162e+01 -1.435205000000000064e+00 -1.848702031955733738e-01
-1.056199999999999939e+01 1.574699999999999989e+01 -1.375699999999999967e+01 7.360483000000000331e+00 -1.122763564165216443e-01
-1.054800000000000004e+01 -1.089800000000000102e+00 -2.723799999999999955e+01 -1.768936000000000064e+01 -8.763310431164413050e-02
-1.054499999999999993e+01 3.042499999999999982e+00 -4.605500000000000149e+00 3.359834000000000209e+00 2.597791470656007906e-01
-1.053999999999999915e+01 5.245300000000000296e+00 -2.602400000000000091e+01 -2.126999000000000084e+00 -9.482460301393400015e-02
-1.052999999999999936e+01 1.473600000000000021e+00 -2.573100000000000165e+01 -4.929454999999999920e+00 -9.189103859420669207e-02
-1.052299999999999969e+01 4.412700000000000067e+00 -2.642599999999999838e+01 -4.501176000000000066e+00 -9.372884776914294780e-02
-1.051900000000000013e+01 1.020899999999999963e+01 -2.605799999999999983e+01 -3.909378999999999937e+00 -2.022437926921691886e-01
-1.050900000000000034e+01 2.758900000000000130e+00 -2.641799999999999926e+01 -3.743519000000000041e+00 -9.227754034393956251e-02
-1.050699999999999967e+01 2.429999999999999938e-01 -9.066900000000000404e+00 -5.206598999999999533e-01 -1.411471614635111116e-01
-1.050399999999999956e+01 1.186899999999999977e+01 -2.613200000000000145e+01 -7.230000000000000426e+00 -3.829838717218347899e-01
-1.050300000000000011e+01 -9.121199999999999974e+00 -2.335600000000000165e+01 -3.595849999999999991e+00 -2.057950881261222109e-01
-1.049000000000000021e+01 -3.070600000000000065e-02 -6.041699999999999626e+00 -8.028639000000000081e+00 4.419341887640905464e-02
-1.049000000000000021e+01 -3.070600000000000065e-02 -5.102299999999999613e+00 -1.952819999999999823e+01 2.010971975204004988e-02
-1.048700000000000010e+01 1.244899999999999984e+01 -2.109600000000000009e+01 -1.661840000000000117e+01 -1.353957007181141869e-01
-1.048700000000000010e+01 1.265799999999999947e+01 -2.183200000000000074e+01 -8.930816000000000088e+00 -3.829051886153097550e-01
-1.048700000000000010e+01 1.265799999999999947e+01 -2.035999999999999943e+01 -2.435001000000000104e+01 -1.358359721416902421e-01
-1.048300000000000054e+01 9.284100000000000463e+00 -2.517099999999999937e+01 -3.002651000000000181e+00 -2.027434603053471507e-01
-1.048000000000000043e+01 -7.569099999999999717e+00 -2.531700000000000017e+01 -5.072175000000000294e-02 -1.932694812160532516e-01
-1.047700000000000031e+01 -8.070000000000000284e+00 -2.399699999999999989e+01 1.558146999999999949e+00 -1.983362657732435086e-01
-1.047700000000000031e+01 -7.958800000000000097e+00 -2.479500000000000171e+01 1.999255000000000004e+00 -1.957960655669452321e-01
-1.046599999999999930e+01 -7.377699999999999925e+00 -1.895599999999999952e+01 -7.556818999999999953e+00 -6.567763312157615108e-02
-1.045599999999999952e+01 -1.012299999999999933e+01 -2.319699999999999918e+01 1.029252999999999929e+01 -2.118334067983875246e-01
-1.045100000000000051e+01 1.199000000000000066e+00 -4.278999999999999915e+00 -4.319176000000000215e+01 2.201164954646420979e-01
-1.043999999999999950e+01 1.395199999999999996e+01 -1.847200000000000131e+01 -7.199473000000000233e+00 -1.364619011224700862e-01
-1.043900000000000006e+01 1.619899999999999951e-01 -2.593299999999999983e+01 -1.613007999999999953e+01 -9.010949220736860776e-02
-1.043800000000000061e+01 1.166600000000000037e+01 -1.104899999999999949e+01 2.229877000000000109e+01 4.543799838790432005e-02
-1.041900000000000048e+01 -8.373400000000000176e+00 -2.329700000000000060e+01 -2.383342999999999989e+00 -2.018110806027472448e-01
-1.041600000000000037e+01 8.931300000000000239e+00 -3.026200000000000045e+01 -3.300871000000000066e+01 -1.997782668713222465e-01
-1.041600000000000037e+01 8.931300000000000239e+00 -2.874200000000000088e+01 -7.056060999999999694e+01 -2.004348214674923356e-01
-1.041600000000000037e+01 9.870699999999999363e+00 -3.026200000000000045e+01 -4.693769999999999953e+01 -1.999918507004479207e-01
-1.041600000000000037e+01 9.870699999999999363e+00 -2.874200000000000088e+01 -9.676876000000000033e+01 -2.006252285883309838e-01
-1.040799999999999947e+01 -7.074300000000000033e+00 -1.825600000000000023e+01 -3.686332000000000164e+00 -6.568134891714041967e-02
-1.039600000000000080e+01 -2.260000000000000064e-01 -2.719000000000000128e+01 -4.149734000000000123e+01 -8.828362419544220907e-02
-1.038299999999999912e+01 5.756000000000000227e+00 -4.807599999999999874e+00 1.309584000000000081e+01 -1.832975473730838467e-01
-1.038100000000000023e+01 -1.412700000000000067e+00 -2.657799999999999940e+01 -6.635436000000000334e+00 -8.752106283652592855e-02
-1.038100000000000023e+01 4.653900000000000259e-01 -2.523300000000000054e+01 -4.143254999999999910e+00 -9.126334326384991091e-02
-1.038100000000000023e+01 1.330600000000000005e+00 -2.523300000000000054e+01 -1.584688000000000097e+00 -9.216060003538269207e-02
-1.037299999999999933e+01 5.632399999999999629e+00 -2.528000000000000114e+01 -2.179168999999999912e+00 -2.022907645516512365e-01
-1.036299999999999955e+01 1.019299999999999962e+01 -7.801899999999999835e+00 2.263364999999999938e+01 -1.597408812289662638e-01
-1.036299999999999955e+01 -1.050699999999999967e+01 -2.285699999999999932e+01 -1.655137999999999998e+00 -2.156710548984157594e-01
-1.035299999999999976e+01 8.601900000000000546e+00 -2.950199999999999889e+01 -1.135600999999999949e+01 -1.999607236073281669e-01
-1.035299999999999976e+01 1.019999999999999929e+01 -2.950199999999999889e+01 -2.427815000000000012e+01 -2.003125349107424680e-01
-1.033300000000000018e+01 -6.707200000000000273e+00 -2.548799999999999955e+01 -3.283952000000000204e+00 -1.896535050811821166e-01
-1.033200000000000074e+01 1.189799999999999969e+01 -1.157099999999999973e+01 4.716541000000000139e+01 4.636648678470615959e-02
-1.033200000000000074e+01 1.285699999999999932e+01 -1.252899999999999991e+01 2.090693999999999875e+01 4.741632238617262546e-02
-1.033099999999999952e+01 -1.604600000000000026e+00 -9.824500000000000455e+00 -8.751597999999999544e+00 -1.645820460411686059e-01
-1.032499999999999929e+01 7.320000000000000284e+00 -2.483599999999999852e+01 -1.009476000000000084e+01 -2.027483148872018526e-01
-1.028999999999999915e+01 8.778900000000000148e+00 -2.492899999999999849e+01 -3.861524999999999874e+00 -2.027185330283625131e-01
-1.028899999999999970e+01 -3.147800000000000153e+00 -2.540700000000000003e+01 -6.939665999999999890e-01 -8.671882238768957585e-02
-1.028100000000000058e+01 -7.337600000000000122e+00 -1.779100000000000037e+01 -3.128442000000000167e+00 -6.575610913705666472e-02
-1.026800000000000068e+01 1.283099999999999952e+01 -2.536700000000000088e+01 -6.796022999999999925e+00 -3.834922069402716405e-01
-1.026399999999999935e+01 -5.206000000000000405e+00 -2.535300000000000153e+01 -2.073094000000000214e+00 -1.853830390958866592e-01
-1.025600000000000023e+01 3.835700000000000109e+00 -4.698000000000000398e+00 6.190627000000000102e+00 2.607164200003470045e-01
-1.025600000000000023e+01 4.886300000000000310e+00 -4.698000000000000398e+00 1.118335000000000079e+01 -2.035831946024713179e-01
-1.024699999999999989e+01 9.975199999999999623e-01 -2.171300000000000097e+01 -4.949643000000000015e+00 -9.874187561289179960e-02
-1.024000000000000021e+01 8.817000000000000171e+00 -4.625000000000000000e+00 4.286641000000000190e+01 -1.287783652799143475e-01
-1.024000000000000021e+01 1.013599999999999923e+01 -5.360100000000000087e+00 5.187456999999999852e+01 -1.528199052210578723e-01
-1.024000000000000021e+01 1.036700000000000088e+01 -6.174999999999999822e+00 1.261223999999999990e+02 -1.533802940955531768e-01
-1.023799999999999955e+01 3.607000000000000206e+00 -2.638899999999999935e+01 -4.135610999999999926e+00 -9.270720348112798659e-02
-1.023499999999999943e+01 1.297400000000000020e+01 -2.258999999999999986e+01 1.219345999999999997e+01 -3.831109094737874532e-01
-1.023099999999999987e+01 6.418400000000000105e+00 -2.489300000000000068e+01 -7.065057999999999616e+00 -2.025463674359562760e-01
-1.023000000000000043e+01 1.377299999999999969e+01 -1.316600000000000037e+01 1.363848999999999911e+01 4.833580983881395621e-02
-1.022000000000000064e+01 -4.591000000000000192e+00 -1.305100000000000016e+01 6.803614999999999746e+00 -1.241729893298064297e-01
-1.021700000000000053e+01 1.071899999999999942e+01 -9.894700000000000273e+00 1.110448999999999984e+02 -1.584232710144873602e-01
-1.020700000000000074e+01 1.024200000000000088e+01 -7.001699999999999591e+00 3.362288999999999817e+01 -1.565792043598646099e-01
-1.019299999999999962e+01 -3.691100000000000048e+00 -2.546900000000000119e+01 -2.726131000000000082e+00 -8.573994461588010929e-02
-1.019200000000000017e+01 -3.123200000000000198e+00 -1.173099999999999987e+01 -1.307627000000000095e+00 -9.103373728496443051e-02
-1.018399999999999928e+01 -2.766700000000000159e+00 -1.099900000000000055e+01 -9.526721999999999468e+00 -7.636700139271275500e-02
-1.017399999999999949e+01 -4.966099999999999959e+00 -1.492200000000000060e+01 -4.326270000000000060e+00 -7.264848849915717111e-02
-1.017399999999999949e+01 -4.966099999999999959e+00 -1.399099999999999966e+01 -1.344615999999999867e-01 -1.377984802281550514e-01
-1.017200000000000060e+01 1.351900000000000013e+01 -1.917200000000000060e+01 -1.219542000000000037e+01 -1.353003308169140051e-01
-1.016900000000000048e+01 1.922400000000000109e+00 -2.371300000000000097e+01 4.702088999999999963e+00 -9.484486341147241317e-02
-1.016200000000000081e+01 9.865899999999999892e+00 -9.056200000000000472e+00 4.268484000000000123e+01 -1.631418695269437058e-01
-1.016200000000000081e+01 9.865899999999999892e+00 -8.191000000000000725e+00 3.643449999999999989e+01 -1.619939423520659061e-01
-1.016000000000000014e+01 -8.332100000000000506e+00 -1.900199999999999889e+01 -1.032165999999999961e+01 -6.589452934697462294e-02
-1.015700000000000003e+01 2.553599999999999870e+00 -4.803200000000000358e+00 -5.321113000000000426e+00 2.174724904488449240e-01
-1.015199999999999925e+01 -1.081700000000000017e+01 -2.096000000000000085e+01 -3.006613999999999898e+00 -6.524594438837963417e-02
-1.013899999999999935e+01 -7.065900000000000070e+00 -1.729200000000000159e+01 -1.176895000000000024e+01 3.343364158752342580e-02
-1.013899999999999935e+01 -6.740999999999999659e+00 -1.655499999999999972e+01 -2.480220000000000091e+00 3.111368439389255308e-02
-1.013899999999999935e+01 5.009100000000000108e+00 -2.550100000000000122e+01 -4.917226000000000319e+00 -2.017407232834832753e-01
-1.013799999999999990e+01 1.601599999999999824e+01 -1.666700000000000159e+01 -8.909115999999999147e+00 -1.102650506248930712e-01
-1.013599999999999923e+01 1.465199999999999925e+01 -1.841400000000000148e+01 -6.219975999999999949e+00 4.780135007029526206e-02
-1.013499999999999979e+01 1.578899999999999970e+00 -2.452799999999999869e+01 1.242425000000000068e+01 -9.304424317094014962e-02
-1.013100000000000023e+01 2.217499999999999805e+00 -2.556200000000000117e+01 -3.776298999999999850e+00 -9.218362786751035931e-02
-1.012899999999999956e+01 -6.586199999999999832e-01 -2.648999999999999844e+01 -1.332510000000000083e+01 -8.790420968786540057e-02
-1.012599999999999945e+01 9.400999999999999801e+00 -2.950199999999999889e+01 -3.019293000000000049e+01 -1.999545150481336908e-01
-1.010599999999999987e+01 -9.553900000000000503e+00 -2.286499999999999844e+01 -3.241557999999999939e+00 -2.092079738940041955e-01
-1.009900000000000020e+01 -1.048700000000000010e+01 -2.011700000000000088e+01 -3.528529999999999944e+00 -6.553538401907484101e-02
-1.009699999999999953e+01 1.588199999999999967e+01 -1.759100000000000108e+01 -3.853507000000000016e+00 4.840407134874907119e-02
-1.009399999999999942e+01 1.626399999999999935e+01 -1.586800000000000033e+01 -3.722605000000000164e+00 -1.111490585794523422e-01
-1.008799999999999919e+01 5.325099999999999945e+00 -2.474099999999999966e+01 -5.794227000000000238e+00 -2.024733692460985723e-01
-1.008399999999999963e+01 -5.886000000000000121e+00 -2.540599999999999881e+01 -4.442287999999999570e+00 -1.864363201177864360e-01
-1.008300000000000018e+01 1.497199999999999953e+01 -1.346100000000000030e+01 4.241575999999999880e+01 -1.109201647261449653e-01
-1.008300000000000018e+01 1.629100000000000037e+01 -1.419599999999999973e+01 -2.214228999999999914e+01 -1.126322167295641802e-01
-1.008300000000000018e+01 1.652199999999999847e+01 -1.501099999999999923e+01 -9.186372000000000426e-01 -1.122439957793879561e-01
-1.007399999999999984e+01 -4.570000000000000173e-01 -9.334199999999999164e+00 -5.637120000000000353e+00 -1.188883849740647314e-01
-1.007399999999999984e+01 7.339099999999999513e-01 -8.670299999999999230e+00 -1.124287999999999954e+01 1.552771668096085689e-01
-1.007399999999999984e+01 9.429999999999999494e-01 -7.934199999999999697e+00 -1.211993999999999971e+01 1.417915123356832674e-01
-1.007199999999999918e+01 1.114600000000000080e+01 -2.629200000000000159e+01 -1.350591000000000008e+01 -2.018575408074973487e-01
-1.005000000000000071e+01 9.775000000000000355e+00 -2.556700000000000017e+01 -3.482261999999999968e+00 -2.021185027240607890e-01
-1.004400000000000048e+01 -1.074300000000000033e+01 -2.194000000000000128e+01 -6.501293000000000433e+00 -6.511371886418849952e-02
-1.003800000000000026e+01 2.614900000000000002e-01 -2.171300000000000097e+01 -1.689132000000000033e+01 -9.785265442375025435e-02
-1.003800000000000026e+01 1.733500000000000041e+00 -2.171300000000000097e+01 -1.999390000000000001e+00 -9.883574243006082449e-02
-1.002899999999999991e+01 1.350300000000000056e+00 -2.252700000000000102e+01 -9.272451000000000221e+00 -9.657041564634750996e-02
-1.002200000000000024e+01 -8.805999999999999162e+00 -2.280600000000000094e+01 -1.521265999999999963e+01 -2.046439000842039113e-01
-1.001999999999999957e+01 7.292899999999999938e-01 -4.812000000000000277e+00 -2.453944999999999865e+01 3.065380989382112675e-01
-1.001399999999999935e+01 1.241799999999999926e+01 -2.566100000000000136e+01 -1.061369000000000007e+01 -3.833225405444718459e-01
-1.000999999999999979e+01 7.326299999999999812e+00 -5.123099999999999987e+00 3.119448999999999828e+01 -1.901777976709806417e-01
-1.000799999999999912e+01 3.803900000000000059e-01 -6.552299999999999791e+00 -2.440409999999999968e+00 4.861889644251721210e-02
-1.000500000000000078e+01 1.117500000000000071e+01 -1.065199999999999925e+01 2.905724000000000018e+01 4.662749319925366120e-02
-1.000500000000000078e+01 6.052999999999999936e+00 -2.430199999999999960e+01 -1.034235999999999933e+01 -2.028629069942382568e-01
-9.997999999999999332e+00 6.643499999999999961e-01 -7.068100000000000271e+00 -9.222936000000000689e+00 5.549781828633994218e-02
-9.986000000000000654e+00 -7.673399999999999999e+00 -2.356400000000000006e+01 -4.635011000000000436e+00 -1.957677362173649571e-01
-9.986000000000000654e+00 -7.562199999999999811e+00 -2.436199999999999832e+01 -1.314702999999999955e+00 -1.933177714185939089e-01
-9.986000000000000654e+00 -7.237300000000000288e+00 -2.510000000000000142e+01 -2.080160999999999927e+00 -1.906664927430327394e-01
-9.979699999999999349e+00 5.648900000000000032e-01 -2.241300000000000026e+01 -2.382574999999999932e+01 -9.609218575654250583e-02
-9.979699999999999349e+00 5.648900000000000032e-01 -2.101300000000000168e+01 5.788274999999999615e+00 -1.000158733580918113e-01
-9.979699999999999349e+00 1.430099999999999927e+00 -2.101300000000000168e+01 8.194747000000000003e-01 -1.004462458754873111e-01
-9.960200000000000387e+00 1.667999999999999927e+00 -4.712900000000000311e+00 -4.978697999999999979e+01 3.005936177137088494e-01
-9.959600000000000009e+00 1.186399999999999899e+00 -2.371300000000000097e+01 -4.141399999999999970e+00 -9.376574887228271427e-02
-9.959600000000000009e+00 2.658399999999999874e+00 -2.371300000000000097e+01 -5.983079000000000036e+00 -9.515385708851682722e-02
-9.948000000000000398e+00 -2.346100000000000130e-01 -2.550000000000000000e+01 -2.415758999999999990e+00 -8.918275594081211122e-02
-9.944000000000000838e+00 1.308099999999999952e+01 -1.996199999999999974e+01 -1.391367999999999938e+01 -1.342440415392417707e-01
-9.942999999999999616e+00 1.335599999999999987e+01 -2.451699999999999946e+01 1.259709999999999930e+01 -3.836379520855383030e-01
-9.942999999999999616e+00 1.335599999999999987e+01 -2.346699999999999875e+01 1.327848000000000006e+01 -3.833203104137495321e-01
-9.928499999999999659e+00 8.133000000000000229e-01 -2.458599999999999852e+01 -4.995241000000000042e+00 -9.174478884519719768e-02
-9.913600000000000634e+00 2.334900000000000198e+00 -2.447100000000000009e+01 -3.171230999999999911e-01 -9.350807523734805393e-02
-9.906299999999999883e+00 -5.398699999999999832e+00 -1.562199999999999989e+01 -1.355540000000000056e+01 2.314215707910028536e-02
-9.904299999999999216e+00 6.456000000000000405e+00 -5.210899999999999643e+00 3.236970999999999776e+01 -2.073323343614411340e-01
-9.899399999999999977e+00 1.334699999999999953e+01 -1.292600000000000016e+01 9.456402000000000641e+00 4.925926875967905766e-02
-9.894800000000000040e+00 1.029899999999999949e+01 -9.756199999999999761e+00 7.394164000000000669e+01 -1.594152964396660932e-01
-9.894299999999999429e+00 6.850299999999999834e+00 -2.430300000000000082e+01 -8.104637000000000313e+00 -2.027591516049858933e-01
-9.894299999999999429e+00 7.789699999999999847e+00 -2.430300000000000082e+01 -1.008042999999999978e+01 -2.028007283176136988e-01
-9.894299999999999429e+00 8.654999999999999361e+00 -2.430300000000000082e+01 -4.858297000000000310e+00 -2.028444794208007773e-01
-9.893700000000000827e+00 -2.297000000000000153e+00 -1.023900000000000077e+01 -2.952176999999999829e+00 -1.539842534620627368e-01
-9.881800000000000139e+00 3.352299999999999724e-01 -5.524399999999999977e+00 -3.535247000000000028e+00 2.106252077673632234e-02
-9.870499999999999829e+00 -7.863999999999999879e+00 -1.824500000000000099e+01 -1.249865000000000004e+00 -6.604245484355542040e-02
-9.857699999999999463e+00 4.952099999999999724e+00 -2.413700000000000045e+01 -5.909131999999999607e+00 -2.028431861831169469e-01
-9.856600000000000250e+00 -8.369999999999999662e-01 -9.681599999999999540e+00 -1.729295000000000115e+01 -1.034756431210561017e-01
-9.852999999999999758e+00 1.231300000000000061e+01 -1.208999999999999986e+01 1.218661000000000030e+02 4.882031830228168723e-02
-9.821400000000000574e+00 2.723599999999999799e+00 -2.319500000000000028e+01 -3.504280000000000062e+00 -9.594474333638766672e-02
-9.815300000000000580e+00 4.432000000000000384e+00 -5.433099999999999596e+00 8.348513000000000517e+00 5.053716985435341424e-02
-9.815300000000000580e+00 5.297200000000000131e+00 -5.433099999999999596e+00 1.090518999999999927e+01 -2.326363192173046546e-01
-9.809300000000000352e+00 -9.840400000000000702e+00 -1.953300000000000125e+01 -7.517510999999999832e+00 -6.597524092040477073e-02
-9.806699999999999307e+00 1.541200000000000081e+01 -1.835099999999999909e+01 -1.198384000000000071e+01 4.864965076719168779e-02
-9.805799999999999628e+00 -3.789699999999999847e+00 -1.266999999999999993e+01 1.847993999999999915e+00 -1.132747016642905169e-01
-9.787300000000000111e+00 1.271700000000000053e+01 -2.152899999999999991e+01 -3.417910000000000004e+00 -3.828603305265265155e-01
-9.787300000000000111e+00 1.271700000000000053e+01 -2.066300000000000026e+01 -6.658977000000000146e+00 -1.334876815625177238e-01
-9.773300000000000765e+00 -2.588999999999999968e+00 -2.567800000000000082e+01 6.705092999999999470e-02 -8.552579051803074761e-02
-9.763099999999999667e+00 2.420199999999999907e+00 -2.249500000000000099e+01 -2.677634999999999987e+00 -9.703302119555491656e-02
-9.760999999999999233e+00 8.041999999999999815e+00 -4.921000000000000263e+00 7.086804999999999666e+01 -1.748429679705255091e-01
-9.760999999999999233e+00 9.592000000000000526e+00 -4.921000000000000263e+00 3.737955999999999790e+01 -1.526026642154757473e-01
-9.760400000000000631e+00 -6.653599999999999959e+00 -2.537399999999999878e+01 -4.700107000000000035e+00 -1.874487697887769200e-01
-9.760400000000000631e+00 -5.118400000000000283e+00 -2.537399999999999878e+01 -5.786268999999999885e+00 -1.832516811285759273e-01
-9.760400000000000631e+00 -4.391099999999999781e+00 -2.520100000000000051e+01 -2.717242999999999853e+00 -8.385446472629666526e-02
-9.756700000000000372e+00 3.081700000000000106e+00 -2.579299999999999926e+01 7.167293999999999610e-01 -9.219027307524708947e-02
-9.756700000000000372e+00 4.132299999999999862e+00 -2.579299999999999926e+01 2.183030000000000026e+00 -9.320946327669016318e-02
-9.753500000000000725e+00 3.250999999999999890e+00 -5.266399999999999970e+00 -3.830004999999999882e+00 2.982101292629495415e-01
-9.744799999999999685e+00 7.358799999999999786e-01 -2.342899999999999849e+01 -2.852312999999999832e+01 -9.343797043815418868e-02
-9.739499999999999602e+00 1.421899999999999942e+01 -1.890500000000000114e+01 -1.189742000000000033e+01 -1.337420386180687981e-01
-9.726399999999999935e+00 6.503899999999999793e+00 -2.357199999999999918e+01 -1.500455000000000005e+01 -2.033234849780902742e-01
-9.718600000000000350e+00 -8.105999999999999872e+00 -2.286400000000000077e+01 -7.456090999999999802e+00 -1.989912602417641119e-01
-9.709500000000000242e+00 1.427200000000000024e+01 -1.330599999999999916e+01 5.424300999999999817e+01 -1.094225971358137456e-01
-9.708999999999999631e+00 -9.991600000000000037e+00 -2.260399999999999920e+01 -4.402080999999999911e+00 -2.120700714753268878e-01
-9.685900000000000176e+00 2.713299999999999823e+00 -2.494300000000000139e+01 1.168760999999999939e+00 -9.281224825511837084e-02
-9.685900000000000176e+00 4.500700000000000145e+00 -2.494300000000000139e+01 3.393531000000000120e+01 -2.016720194675494238e-01
-9.685299999999999798e+00 9.714499999999999247e+00 -7.476300000000000168e+00 3.663940000000000197e+01 -1.589243981983051723e-01
-9.680600000000000094e+00 1.980200000000000016e-01 -2.480000000000000071e+01 -6.589159000000000432e+00 -9.015060224308113490e-02
-9.669299999999999784e+00 -6.208000000000000185e+00 -1.612399999999999878e+01 -6.233265000000000278e+00 2.687411700185247596e-02
-9.663999999999999702e+00 5.502600000000000158e+00 -2.351999999999999957e+01 -7.610718000000000316e+00 -2.033267570626341725e-01
-9.641400000000000858e+00 2.429999999999999938e-01 -9.066900000000000404e+00 -1.220063999999999993e+01 1.696025943627905430e-01
-9.616199999999999193e+00 3.050699999999999967e+00 -2.413299999999999912e+01 -2.756966999999999945e+00 -9.426712365064468524e-02
-9.616199999999999193e+00 4.163299999999999557e+00 -2.413299999999999912e+01 -1.890266999999999920e+00 -2.025017720729003212e-01
-9.603999999999999204e+00 1.574699999999999989e+01 -1.375699999999999967e+01 7.440595000000000425e+01 -1.119446104230273908e-01
-9.592700000000000671e+00 9.301999999999999602e+00 -2.473600000000000065e+01 -2.833530999999999800e+00 -2.022514881525914188e-01
-9.590400000000000702e+00 4.519400000000000084e+00 -2.343700000000000117e+01 -6.482051000000000229e+00 -2.033692725676220781e-01
-9.583099999999999952e+00 9.975199999999999623e-01 -2.052199999999999847e+01 2.719204000000000065e-02 -1.010514708951694984e-01
-9.580299999999999372e+00 1.030799999999999983e+01 -2.599800000000000111e+01 -4.498939000000000021e+00 -2.015001664756541078e-01
-9.580299999999999372e+00 1.182799999999999940e+01 -2.599800000000000111e+01 -8.356771000000000171e+00 -3.830996478610448341e-01
-9.561999999999999389e+00 -1.115399999999999991e+01 -2.142999999999999972e+01 -3.258758999999999961e+00 -6.527273772869268686e-02
-9.561999999999999389e+00 -1.115399999999999991e+01 -2.048999999999999844e+01 -3.618637999999999799e+00 -6.550948207015339086e-02
-9.547100000000000364e+00 -1.351100000000000079e-01 -2.214499999999999957e+01 -3.693215000000000003e+01 -9.520809343650502021e-02
-9.547100000000000364e+00 -1.351100000000000079e-01 -2.128000000000000114e+01 -9.855980999999999881e+00 -9.783376373568873630e-02
-9.536500000000000199e+00 4.426400000000000112e+00 -6.105000000000000426e+00 3.593030999999999864e+00 5.427589739762284093e-02
-9.536500000000000199e+00 5.291599999999999859e+00 -6.105000000000000426e+00 1.163701000000000008e+01 7.400275436360340131e-02
-9.528000000000000469e+00 -8.962899999999999423e+00 -1.905199999999999960e+01 -2.402607000000000159e+00 -6.629495723670462970e-02
-9.517300000000000537e+00 1.066000000000000014e+01 -1.019800000000000040e+01 6.458437999999999590e+01 4.828264656748117167e-02
-9.510099999999999554e+00 2.220000000000000195e+00 -2.137300000000000111e+01 -2.835527999999999937e-01 -2.073651739994956666e-01
-9.497700000000000031e+00 8.222300000000000608e+00 -2.381200000000000117e+01 -1.821925999999999846e+01 -2.028549725782558544e-01
-9.493199999999999861e+00 1.381099999999999994e+01 -1.968400000000000105e+01 -7.297627999999999560e+00 -1.326627670772259626e-01
-9.480399999999999494e+00 -9.241200000000000525e-01 -2.605999999999999872e+01 -2.042282999999999848e+00 -8.653366922987094922e-02
-9.476399999999999935e+00 -4.273200000000000109e+00 -1.346700000000000053e+01 1.123350000000000071e+00 -2.007583803319218096e-01
-9.473699999999999122e+00 -4.907799999999999940e+00 -1.522499999999999964e+01 -7.142127999999999588e+00 1.940988479613738396e-02
-9.464999999999999858e+00 1.007099999999999973e+01 -6.653999999999999915e+00 2.797061000000000064e+01 -1.515254083443620670e-01
-9.464999999999999858e+00 1.007099999999999973e+01 -5.695999999999999730e+00 2.669697000000000031e+01 -1.479191318290826729e-01
-9.462099999999999511e+00 9.807600000000000762e+00 -9.359600000000000364e+00 5.112570000000000192e+01 -1.601015493935212808e-01
-9.456400000000000361e+00 -4.549500000000000099e+00 -1.428899999999999970e+01 -1.539822999999999942e+00 7.657770622895303247e-02
-9.451900000000000190e+00 1.916600000000000081e+00 -2.067299999999999827e+01 -1.162787000000000015e+00 -2.090776797693187083e-01
-9.450100000000000833e+00 7.334100000000000286e+00 -2.348400000000000176e+01 -1.018598000000000070e+01 -2.030969998978050250e-01
-9.447800000000000864e+00 6.089400000000000368e+00 -2.284299999999999997e+01 -3.937663999999999831e+00 -2.038556319700774444e-01
-9.432000000000000384e+00 3.607000000000000206e+00 -2.494300000000000139e+01 2.326811000000000007e+01 -9.332849386306076023e-02
-9.425100000000000477e+00 8.817000000000000171e+00 -4.856499999999999595e+00 6.242005999999999943e+01 -1.589893309816971523e-01
-9.423999999999999488e+00 -3.056999999999999940e+00 -1.146899999999999942e+01 -2.015550999999999870e+00 -8.971176063783872778e-02
-9.423999999999999488e+00 -2.830000000000000071e+00 -1.066999999999999993e+01 -9.973775000000000279e-01 -7.268081985986012128e-02
-9.423999999999999488e+00 -1.536999999999999922e+00 -9.948999999999999844e+00 -1.402393000000000001e+01 -8.583551366331707011e-02
-9.423999999999999488e+00 -3.460900000000000087e-01 -9.285000000000000142e+00 -1.231209999999999916e+01 1.853938394258383970e-01
-9.422700000000000742e+00 5.930699999999999861e+00 -5.807000000000000384e+00 1.313086999999999982e+01 -2.154461382410347015e-01
-9.404600000000000293e+00 1.629599999999999937e+01 -1.621399999999999864e+01 -1.996756999999999849e+01 -1.107362098243216825e-01
-9.395200000000000884e+00 -7.324900000000000411e+00 -1.737199999999999989e+01 -2.446626000000000190e+00 3.421172322494475670e-02
-9.391799999999999926e+00 7.030700000000000394e+00 -2.278399999999999892e+01 -1.900446999999999997e+00 -2.037982329463260689e-01
-9.378800000000000026e+00 1.472000000000000064e+01 -1.876500000000000057e+01 -2.682668999999999926e+01 -1.324595584769696077e-01
-9.378399999999999181e+00 1.290199999999999925e+01 -1.241600000000000037e+01 1.922284000000000148e+01 5.106236973827082970e-02
-9.374000000000000554e+00 6.756199999999999983e-01 -8.366899999999999338e+00 -2.248726999999999876e+01 1.516058314357500436e-01
-9.354699999999999349e+00 1.341699999999999982e+01 -2.039600000000000080e+01 -1.594528999999999996e+01 -1.320090049270884747e-01
-9.346899999999999764e+00 1.287500000000000000e+01 -2.399200000000000088e+01 -5.253474999999999895e+00 -3.837325157878944126e-01
-9.344599999999999795e+00 2.398899999999999810e+00 -5.285599999999999632e+00 -1.432718000000000025e+01 2.952236347175611342e-01
-9.342499999999999361e+00 7.515699999999999825e+00 -5.620300000000000296e+00 2.599275000000000091e+01 -1.822460517694116100e-01
-9.336999999999999744e+00 1.594500000000000028e+01 -1.792000000000000171e+01 -1.486822000000000088e+01 4.980998505547912236e-02
-9.336999999999999744e+00 1.617200000000000060e+01 -1.712099999999999866e+01 -2.868847999999999843e+01 -1.099782404911966716e-01
-9.329000000000000625e+00 2.177099999999999869e-01 -2.389900000000000091e+01 -2.753618000000000166e+01 -9.096488128137228402e-02
-9.329000000000000625e+00 2.177099999999999869e-01 -2.295899999999999963e+01 -5.938884000000000185e+01 -9.298449513306296377e-02
-9.321699999999999875e+00 -3.232400000000000162e+00 -1.240099999999999980e+01 -6.042697000000000429e+00 -1.072855080236184006e-01
-9.316300000000000026e+00 3.677999999999999936e+00 -2.342800000000000082e+01 -2.806992999999999849e+00 -2.030101135237147025e-01
-9.315899999999999181e+00 1.221100000000000030e+01 -2.255600000000000094e+01 -2.190294000000000185e+00 -3.835097220680596664e-01
-9.309599999999999653e+00 1.258999999999999986e+01 -2.479799999999999827e+01 -3.589598000000000155e+01 -3.837297760936668745e-01
-9.307999999999999829e+00 1.622599999999999909e+01 -1.453200000000000003e+01 -4.333135999999999655e+01 -1.119481142515795502e-01
-9.304700000000000415e+00 -5.506899999999999906e+00 -1.596799999999999997e+01 -1.544298000000000037e+01 2.225403249703267888e-02
-9.294999999999999929e+00 3.177700000000000191e+00 -2.278399999999999892e+01 -3.460179000000000116e+00 -2.040187714710525457e-01
-9.289999999999999147e+00 9.838300000000000267e+00 -2.523799999999999955e+01 -3.794077999999999840e+00 -2.016682275944121638e-01
-9.289999999999999147e+00 1.229800000000000004e+01 -2.523799999999999955e+01 -2.084058999999999884e+01 -3.835072460103051695e-01
-9.285999999999999588e+00 -8.805999999999999162e+00 -2.259700000000000131e+01 -5.263721000000000316e+00 -2.022788272258962683e-01
-9.285999999999999588e+00 -7.615099999999999980e+00 -2.326099999999999923e+01 -4.688933999999999713e+00 -1.929423285427845358e-01
-9.285999999999999588e+00 -7.405999999999999694e+00 -2.399699999999999989e+01 -1.055286000000000080e+01 -1.902420906250207044e-01
-9.285999999999999588e+00 -7.179000000000000270e+00 -2.479599999999999937e+01 -4.031657000000000046e+00 -1.879403670969647666e-01
-9.285999999999999588e+00 -5.886000000000000121e+00 -2.551699999999999946e+01 -3.144986999999999977e+00 -3.003477439638538860e-01
-9.279700000000000060e+00 2.975200000000000067e-01 -2.057999999999999829e+01 -2.628328000000000220e+00 -9.992262717115116266e-02
-9.271699999999999164e+00 -1.068399999999999928e+01 -1.973000000000000043e+01 -6.468188999999999744e+00 -6.609329338617217497e-02
-9.271000000000000796e+00 -1.078299999999999947e+01 -2.225000000000000000e+01 -5.600361999999999618e+00 -1.938677572626825441e-01
-9.259499999999999176e+00 5.006899999999999906e+00 -2.280600000000000094e+01 5.241982000000000141e+00 -2.037380155676714044e-01
-9.257699999999999818e+00 1.173499999999999943e+01 -1.162199999999999989e+01 2.983054999999999879e+01 5.099495257742316795e-02
-9.257600000000000051e+00 1.251399999999999935e+01 -2.325600000000000023e+01 -2.581519999999999815e+00 -3.836448140973474641e-01
-9.257600000000000051e+00 1.251399999999999935e+01 -2.185600000000000165e+01 -2.314179000000000208e+00 -3.831421449465403084e-01
-9.256399999999999295e+00 4.678300000000000125e+00 -6.551300000000000345e+00 -7.112146000000000301e-01 6.373709647085028240e-02
-9.256399999999999295e+00 5.543599999999999639e+00 -6.551300000000000345e+00 2.981682999999999861e+00 8.255175010034718208e-02
-9.250899999999999679e+00 1.106799999999999962e+01 -2.606099999999999994e+01 -6.995548000000000322e+00 -3.828849019510417451e-01
-9.247999999999999332e+00 -1.739000000000000101e+00 -2.600300000000000011e+01 2.108415999999999901e-01 -8.486063645952504619e-02
-9.247999999999999332e+00 -2.928899999999999837e-01 -2.519699999999999918e+01 2.117682999999999982e+00 -8.791632043943903296e-02
-9.246000000000000441e+00 6.214000000000000412e+00 -1.969800000000000040e+01 9.060810999999999726e-01 -1.727799243397047935e-01
-9.221999999999999531e+00 5.364999999999999769e-01 -7.241399999999999615e+00 -9.018509999999999138e+00 1.351180676138189207e-01
-9.209699999999999775e+00 1.635600000000000165e+01 -1.556600000000000072e+01 -1.102830999999999939e+01 -1.112426508699757288e-01
-9.194300000000000139e+00 8.922299999999999898e+00 -2.387000000000000099e+01 -5.004184000000000410e+00 -2.025324666435310283e-01
-9.189999999999999503e+00 1.099699999999999989e+01 -1.053500000000000014e+01 3.710320999999999714e+01 5.066939210400730337e-02
-9.171400000000000219e+00 -6.804999999999999716e+00 -1.689900000000000091e+01 -5.702276999999999596e+00 3.008619864228552834e-02
-9.163600000000000634e+00 6.320400000000000462e-01 -5.945700000000000429e+00 -7.472652000000000072e+00 1.011484033549537170e-01
-9.111399999999999721e+00 1.428700000000000081e+01 -1.946499999999999986e+01 -6.866276000000000046e+00 -1.313990797280502609e-01
-9.103899999999999437e+00 3.726399999999999935e+00 -5.837699999999999889e+00 -5.814328999999999859e+00 3.577755544981466723e-02
-9.099000000000000199e+00 2.745699999999999807e+00 -2.189799999999999969e+01 -9.469073000000000073e-01 -2.053930581528902177e-01
-9.095399999999999707e+00 9.531599999999999184e+00 -8.448299999999999699e+00 2.999553999999999832e+01 -1.585108524087913417e-01
-9.089299999999999713e+00 1.739500000000000046e+00 -5.305900000000000283e+00 -1.594716000000000022e+01 2.948597191544530816e-01
-9.086700000000000443e+00 1.303500000000000014e+01 -2.124699999999999989e+01 -5.523099000000000203e+00 -3.827268547578905333e-01
-9.055300000000000793e+00 1.483999999999999986e+00 -2.018199999999999861e+01 4.180746000000000184e-01 -2.100492536631462515e-01
-9.054299999999999571e+00 -3.665000000000000036e+00 -1.310100000000000087e+01 -2.031100999999999956e+01 -1.990124187567148262e-01
-9.042500000000000426e+00 -8.147999999999999687e+00 -2.271699999999999875e+01 -4.770338999999999885e+00 -1.962552168198085645e-01
-9.037000000000000810e+00 5.477999999999999758e+00 -1.969800000000000040e+01 1.686463000000000045e+00 -1.739142060554220992e-01
-9.037000000000000810e+00 6.950099999999999945e+00 -1.969800000000000040e+01 -1.386849999999999916e+01 -1.710039526024759449e-01
-9.024399999999999977e+00 -4.391099999999999781e+00 -2.541000000000000014e+01 -2.845715000000000217e+00 -2.973066595750331609e-01
-9.019199999999999662e+00 2.616600000000000037e+00 -2.094000000000000128e+01 -2.666955000000000187e+00 -2.073262205091671306e-01
-8.991400000000000503e+00 -8.369999999999999662e-01 -9.681599999999999540e+00 -1.699878999999999962e+01 -1.120192296230354823e-01
-8.989599999999999369e+00 1.207199999999999918e+01 -2.393499999999999872e+01 -2.955171999999999954e+01 -3.839559024986563540e-01
-8.986000000000000654e+00 8.337999999999999190e+00 -5.400000000000000355e+00 1.656448999999999927e+01 -1.638280172365010334e-01
-8.986000000000000654e+00 9.295999999999999375e+00 -5.400000000000000355e+00 2.993355999999999995e+01 -1.502425382922430441e-01
-8.984299999999999287e+00 -8.060000000000000497e+00 -1.781299999999999883e+01 2.362294000000000060e-01 -6.660243686019021170e-02
-8.980999999999999872e+00 9.319599999999999440e+00 -7.288700000000000401e+00 6.900746999999999787e+01 -1.569310767390492134e-01
-8.978699999999999903e+00 5.781399999999999650e+00 -2.039799999999999969e+01 -1.555752000000000024e+00 -2.068165177121504272e-01
-8.978699999999999903e+00 5.781399999999999650e+00 -1.899800000000000111e+01 -3.891525999999999819e+00 -1.723158264212960866e-01
-8.978699999999999903e+00 6.646700000000000053e+00 -2.209799999999999898e+01 4.236017000000000365e+00 -2.041546987426223758e-01
-8.978699999999999903e+00 6.646700000000000053e+00 -2.039799999999999969e+01 -2.250271000000000132e+00 -1.723777652752247480e-01
-8.978699999999999903e+00 6.646700000000000053e+00 -1.899800000000000111e+01 -8.281511000000000067e+00 -3.500000000000000333e-01
-8.954299999999999926e+00 -2.297000000000000153e+00 -1.023900000000000077e+01 -2.573662999999999812e+00 -7.209150160368113514e-02
-8.948199999999999932e+00 5.510500000000000398e+00 -2.199200000000000088e+01 7.031856999999999580e+00 -2.044017881002919701e-01
-8.941399999999999793e+00 -2.437599999999999836e-02 -8.634199999999999875e+00 -2.222894000000000148e+01 1.723003843777249078e-01
-8.930899999999999395e+00 4.121000000000000441e+00 -2.284900000000000020e+01 -3.237740000000000062e+00 -2.032525730943247899e-01
-8.923400000000000887e+00 1.050900000000000034e+01 -9.825400000000000134e+00 4.731188999999999822e+01 5.157969926581522369e-02
-8.921499999999999986e+00 8.002100000000000435e+00 -6.174999999999999822e+00 3.122382999999999953e+01 -1.708765376113853818e-01
-8.921499999999999986e+00 9.631899999999999906e+00 -6.174999999999999822e+00 5.877864000000000289e+01 -1.491472508013580445e-01
-8.920299999999999230e+00 1.363000000000000078e+01 -1.284299999999999997e+01 1.458483000000000018e+01 5.290371688137908424e-02
-8.912000000000000810e+00 3.098899999999999988e+00 -5.552999999999999936e+00 -2.103312999999999988e+01 2.951547727053817072e-01
-8.907000000000000028e+00 -1.096700000000000036e-01 -2.280699999999999861e+01 -2.242181000000000068e+01 -9.191483662130822685e-02
-8.884999999999999787e+00 1.417699999999999960e+01 -2.010600000000000165e+01 -3.951899000000000228e+01 -1.304434323256541406e-01
-8.878600000000000492e+00 1.123399999999999999e+01 -2.330799999999999983e+01 -2.496568999999999861e+01 -3.840008665631667872e-01
-8.877800000000000580e+00 1.127999999999999936e+01 -2.243700000000000117e+01 -1.801088000000000022e+01 -3.839230772082576904e-01
-8.871999999999999886e+00 -5.016000000000000014e+00 -1.557099999999999973e+01 -2.354540000000000077e+00 1.806874958913327542e-02
-8.867300000000000182e+00 1.541200000000000081e+01 -1.835099999999999909e+01 -1.794868999999999915e+01 5.049880940473747831e-02
-8.863200000000000855e+00 7.698699999999999655e+00 -6.875000000000000000e+00 9.211152999999999480e+00 -1.761705698177127299e-01
-8.859799999999999898e+00 5.110899999999999999e+00 -7.042200000000000237e+00 -8.909784999999999400e+00 7.829509911273926925e-02
-8.855299999999999727e+00 -5.990000000000000213e+00 -1.647700000000000031e+01 -1.971029000000000053e+01 2.386573351079305377e-02
-8.848900000000000432e+00 6.798000000000000043e+00 -6.880099999999999660e+00 -1.957839000000000107e+00 -1.911948771868455244e-01
-8.846999999999999531e+00 -4.024800000000000044e-01 -2.171300000000000097e+01 -1.590558000000000050e+01 -9.447873491101785315e-02
-8.846999999999999531e+00 -1.933900000000000063e-01 -2.097700000000000031e+01 -6.444302000000000419e+00 -9.718408478106768666e-02
-8.838200000000000500e+00 8.098600000000000243e-02 -6.356200000000000294e+00 -1.469038000000000066e+00 1.241463729113983366e-01
