9.943600000000000216e-01 -6.949800000000000466e+01 1.707999999999999829e+01 -4.201604999999999812e+00 -1.718265927884363165e-01
9.952900000000000080e-01 -7.629500000000000171e+01 6.745000000000000107e+00 -3.334941000000000155e+00 9.210081011270040627e-03
9.952900000000000080e-01 -7.535500000000000398e+01 6.745000000000000107e+00 -3.602818000000000076e+00 9.354952144591709845e-03
9.976699999999999458e-01 -9.528799999999999670e+01 1.214400000000000013e+01 -2.030031999999999837e+00 -6.671057696363227874e-02
9.976699999999999458e-01 -9.423799999999999955e+01 1.214400000000000013e+01 -1.201379999999999892e+00 -6.669579020866767127e-02
1.000099999999999989e+00 -8.840000000000000568e+01 2.501500000000000057e+01 2.370807999999999893e+01 -8.366751946465347811e-02
1.000099999999999989e+00 -8.692799999999999727e+01 2.501500000000000057e+01 1.871790999999999983e+01 -8.356218973220974622e-02
1.001300000000000079e+00 -7.349899999999999523e+01 7.169800000000000395e+00 -4.412665999999999755e+00 9.348794364734552137e-03
1.012399999999999967e+00 -8.106000000000000227e+01 7.795600000000000307e+00 -4.910091000000000427e+00 7.616733651842131150e-03
1.019099999999999895e+00 -7.643000000000000682e+01 9.586999999999999744e+00 -7.313293999999999961e+00 7.712095072578225088e-03
1.024299999999999988e+00 -7.256799999999999784e+01 7.058099999999999596e+00 -4.506219999999999892e+00 -1.722211771393480917e-01
1.024999999999999911e+00 -8.635800000000000409e+01 1.099499999999999922e+01 -5.864608999999999739e+00 -6.651981085381805658e-02
1.030399999999999983e+00 -7.062999999999999545e+01 1.783800000000000097e+01 1.475215000000000032e+01 -1.720990763185837602e-01
1.032399999999999984e+00 -6.906399999999999295e+01 2.162500000000000000e+01 2.239327000000000112e+01 -1.714621249591868624e-01
1.042699999999999960e+00 -9.230200000000000671e+01 1.446700000000000053e+01 -4.640895000000000437e+00 -6.675031771344694387e-02
1.047099999999999920e+00 -8.776900000000000546e+01 3.316899999999999693e+01 2.073926000000000158e+01 -8.339899680216442124e-02
1.047299999999999898e+00 -7.472799999999999443e+01 8.421900000000000830e+00 -1.509819000000000067e+01 8.526738944025235439e-03
1.056999999999999940e+00 -7.301900000000000546e+01 2.980699999999999861e+01 1.752662000000000120e+01 -5.096698242963755565e-02
1.066000000000000059e+00 -8.635599999999999454e+01 3.383400000000000318e+01 8.148376999999999981e+00 -8.666721613192032714e-02
1.066000000000000059e+00 -8.503700000000000614e+01 3.309899999999999665e+01 2.087149000000000001e+02 -8.660456117998194259e-02
1.066500000000000004e+00 -8.816599999999999682e+01 1.248799999999999955e+01 -6.335221999999999909e+00 -6.661750164796444162e-02
1.080699999999999994e+00 -6.932500000000000284e+01 2.069300000000000139e+01 2.055583000000000027e+01 -1.715654737845757616e-01
1.084699999999999998e+00 -9.182800000000000296e+01 2.455499999999999972e+01 2.693254000000000037e+00 -6.690672587572076002e-02
1.092400000000000038e+00 -8.606199999999999761e+01 1.025300000000000011e+01 -7.477615000000000123e+00 -6.647945698668766834e-02
1.093699999999999894e+00 -9.169299999999999784e+01 2.576999999999999957e+01 5.566828000000000110e+00 -8.385635774294844524e-02
1.097299999999999942e+00 -7.936499999999999488e+01 7.874900000000000233e+00 3.903220999999999830e+00 7.929969839486097211e-03
1.100600000000000023e+00 -8.440000000000000568e+01 9.273099999999999454e+00 -1.455123000000000033e+01 8.173075393182367004e-03
1.105699999999999905e+00 -6.524399999999999977e+01 1.094400000000000084e+01 -1.144913999999999987e+00 -1.710414442831085513e-01
1.105699999999999905e+00 -6.524399999999999977e+01 1.369400000000000084e+01 1.300228000000000073e+01 -1.708112043546139991e-01
1.107799999999999896e+00 -9.139199999999999591e+01 2.375499999999999901e+01 7.539092000000000127e+00 -6.689841844763601275e-02
1.112500000000000044e+00 -7.046099999999999852e+01 2.354100000000000037e+01 1.185397999999999996e+01 -1.717354456873914359e-01
1.114300000000000068e+00 -6.432500000000000284e+01 2.188100000000000023e+01 -3.389820999999999973e+00 -1.703204609392092173e-01
1.114300000000000068e+00 -6.432500000000000284e+01 2.434100000000000108e+01 -2.086906000000000105e+01 -1.703421405108924147e-01
1.114300000000000068e+00 -6.280499999999999972e+01 2.188100000000000023e+01 -4.107232999999999912e+00 -1.700016446047169782e-01
1.114300000000000068e+00 -6.280499999999999972e+01 2.434100000000000108e+01 -2.685596999999999923e+01 -1.700479577668198572e-01
1.116999999999999993e+00 -8.267499999999999716e+01 7.825000000000000178e+00 -7.244475000000000442e+00 7.821011669042896713e-03
1.120300000000000074e+00 -7.428799999999999670e+01 3.056700000000000017e+01 8.357466999999999757e+01 -5.074847638276573647e-02
1.120300000000000074e+00 -7.334799999999999898e+01 3.056700000000000017e+01 6.200634999999999764e+01 -5.101799156979110877e-02
1.132700000000000040e+00 -9.549500000000000455e+01 1.829200000000000159e+01 -2.726402999999999910e+00 -6.687299933407159225e-02
1.133899999999999908e+00 -6.652700000000000102e+01 1.425600000000000023e+01 5.574027000000000065e+00 -1.711423505798861655e-01
1.136500000000000066e+00 -8.015999999999999659e+01 7.774000000000000021e+00 -3.667316000000000020e+00 7.788499055117177258e-03
1.138600000000000056e+00 -8.962800000000000011e+01 1.222300000000000075e+01 -2.952894999999999825e-01 -6.663250357936940926e-02
1.141100000000000003e+00 -7.582500000000000284e+01 9.040100000000000691e+00 -1.336360999999999954e+01 8.025671618242222888e-03
1.141100000000000003e+00 -7.429000000000000625e+01 7.504999999999999893e+00 -9.488616999999999635e+00 9.035113647283708402e-03
1.147699999999999942e+00 -9.338200000000000500e+01 1.353700000000000081e+01 -1.652706999999999926e+00 -6.674000020564913038e-02
1.153200000000000003e+00 -9.011299999999999955e+01 3.025900000000000034e+01 5.641666999999999987e+00 -8.358593530296097585e-02
1.164299999999999891e+00 -6.704099999999999682e+01 9.386300000000000310e+00 -2.243553999999999959e+01 -1.675088940870254617e-01
1.168500000000000094e+00 -7.264300000000000068e+01 2.882400000000000162e+01 2.147450000000000081e+00 -5.090940712220652642e-02
1.180299999999999905e+00 -8.321099999999999852e+01 9.984999999999999432e+00 -5.946589999999999598e+00 7.683252242622446229e-03
1.180299999999999905e+00 -8.234600000000000364e+01 7.065000000000000391e+00 -4.496248999999999718e+00 7.808974295005185855e-03
1.180299999999999905e+00 -8.234600000000000364e+01 8.585000000000000853e+00 -9.607245999999999952e+00 7.588935021071127260e-03
1.180299999999999905e+00 -8.234600000000000364e+01 9.984999999999999432e+00 -6.875212999999999575e+00 7.417796732654563692e-03
1.180299999999999905e+00 -8.140600000000000591e+01 7.065000000000000391e+00 -6.939522000000000190e+00 7.860053252832299026e-03
1.193999999999999950e+00 -8.603300000000000125e+01 9.332000000000000739e+00 -6.556783000000000250e+00 -6.643062880714875607e-02
1.196800000000000086e+00 -7.026200000000000045e+01 1.995899999999999963e+01 2.684602999999999895e+01 -1.718509139902022753e-01
1.202599999999999891e+00 -9.090999999999999659e+01 2.343900000000000006e+01 7.758954000000000129e+00 -6.689461801963118848e-02
1.205100000000000060e+00 -7.360699999999999932e+01 3.379099999999999682e+01 1.517395999999999923e+01 -2.973687445951771480e-01
1.205100000000000060e+00 -7.360699999999999932e+01 3.642900000000000205e+01 1.782321999999999917e+01 -2.974482806525564627e-01
1.205999999999999961e+00 -9.025100000000000477e+01 2.937900000000000134e+01 1.192727999999999966e+01 -8.361950132253223589e-02
1.209000000000000075e+00 -7.758400000000000318e+01 3.297899999999999920e+01 2.666808999999999941e+01 -5.036086765304585017e-02
1.209200000000000053e+00 -8.766400000000000148e+01 2.501500000000000057e+01 4.820850000000000080e+01 -8.360643282285543099e-02
1.221100000000000074e+00 -9.165000000000000568e+01 2.288700000000000045e+01 4.641028000000000375e+00 -6.689707111599538236e-02
1.221300000000000052e+00 -7.002500000000000568e+01 7.368599999999999817e+00 -7.836787000000000170e+00 -1.699629042190165529e-01
1.233300000000000063e+00 -6.851399999999999579e+01 8.786599999999999966e+00 -1.142498999999999931e+01 -1.681111537255473576e-01
1.238599999999999923e+00 -8.351399999999999579e+01 9.285000000000000142e+00 -6.957143000000000299e+00 7.865513866151491867e-03
1.238599999999999923e+00 -8.204200000000000159e+01 9.285000000000000142e+00 -1.154443000000000019e+01 7.391877242575108260e-03
1.239700000000000024e+00 -9.132200000000000273e+01 2.669500000000000028e+01 7.177639000000000102e-01 -8.378515939492009457e-02
1.240599999999999925e+00 -9.671999999999999886e+01 1.717500000000000071e+01 -1.142719999999999914e+01 -6.684611460149744722e-02
1.245000000000000107e+00 -7.486100000000000421e+01 3.558899999999999864e+01 5.854877000000000109e+00 -2.978142582454129661e-01
1.245000000000000107e+00 -7.235299999999999443e+01 3.463100000000000023e+01 2.897703999999999880e+01 -2.969974441706763058e-01
1.245000000000000107e+00 -7.235299999999999443e+01 3.558899999999999864e+01 7.072653999999999996e+01 -2.970407823546067916e-01
1.250000000000000000e+00 -7.150100000000000477e+01 2.458299999999999841e+01 2.035817000000000210e+00 -1.719410932855929830e-01
1.256000000000000005e+00 -6.873000000000000398e+01 1.701399999999999935e+01 -1.770125000000000171e+01 -1.715955657470546736e-01
1.256000000000000005e+00 -6.743699999999999761e+01 1.629299999999999926e+01 -5.084219000000000221e+01 -1.712626955587537858e-01
1.256000000000000005e+00 -6.720999999999999375e+01 1.549399999999999977e+01 -1.886783000000000143e+01 -1.712480540038425758e-01
1.256000000000000005e+00 -6.700100000000000477e+01 1.475799999999999912e+01 -1.539760999999999935e+00 -1.712374869992998039e-01
1.257300000000000084e+00 -8.570399999999999352e+01 8.571999999999999176e+00 -6.380117000000000260e+00 -8.000000000000001554e-02
1.257300000000000084e+00 -8.476399999999999579e+01 8.571999999999999176e+00 -6.872804999999999609e+00 8.392227399409793800e-03
1.262199999999999989e+00 -7.888899999999999579e+01 3.505100000000000193e+01 5.741481999999999886e+01 -5.046193869237518281e-02
1.275600000000000067e+00 -9.195900000000000318e+01 2.216499999999999915e+01 -2.888460999999999945e+00 -6.689505576146667631e-02
1.288699999999999957e+00 -9.106499999999999773e+01 1.336599999999999966e+01 -2.310938999999999854e+00 -6.670629419879782473e-02
1.290000000000000036e+00 -9.405700000000000216e+01 5.878999999999999559e+00 -5.345259000000000427e+00 -5.252299550250844051e-02
1.290300000000000002e+00 -9.262600000000000477e+01 2.194500000000000028e+01 -2.468367999999999896e+01 -6.689919861506854470e-02
1.290999999999999925e+00 -8.314300000000000068e+01 8.583899999999999864e+00 -6.765939000000000370e+00 7.836929576184556087e-03
1.297800000000000065e+00 -7.019799999999999329e+01 1.713800000000000168e+01 1.338953000000000060e+00 -1.720211105788436168e-01
1.304599999999999982e+00 -7.751600000000000534e+01 7.811799999999999855e+00 -2.377264999999999961e+00 8.277802944954386344e-03
1.307700000000000085e+00 -6.598199999999999932e+01 1.048199999999999932e+01 -1.354594999999999949e+01 -4.509205950047144584e-02
1.308999999999999941e+00 -9.103100000000000591e+01 2.769399999999999906e+01 4.663990999999999970e-02 -8.372300303405286193e-02
1.310000000000000053e+00 -9.659099999999999397e+01 1.429899999999999949e+01 -4.010221999999999731e+00 -5.302838981389372541e-02
1.320000000000000062e+00 -7.757699999999999818e+01 3.387100000000000222e+01 3.720644999999999669e+01 -5.054425598472345182e-02
1.346999999999999975e+00 -8.367499999999999716e+01 3.233899999999999864e+01 -1.127378999999999998e+01 -1.900765837401741098e-01
1.368000000000000105e+00 -8.396699999999999875e+01 8.573100000000000165e+00 -6.212176000000000364e+00 8.106427404795338992e-03
1.371899999999999897e+00 -6.546999999999999886e+01 2.310099999999999909e+01 -2.075943000000000094e+00 -1.705488674829214735e-01
1.379899999999999904e+00 -9.336100000000000421e+01 1.243599999999999994e+01 4.116773000000000238e+00 -6.671069166109214188e-02
1.385000000000000009e+00 -8.068800000000000239e+01 3.506900000000000261e+01 7.865207999999999799e+01 -5.009458094900472863e-02
1.385000000000000009e+00 -7.973000000000000398e+01 3.506900000000000261e+01 1.011341000000000037e+02 -5.029462814645750679e-02
1.387799999999999923e+00 -7.770600000000000307e+01 3.157199999999999918e+01 2.280142999999999809e+00 -5.005403741345088031e-02
1.389899999999999913e+00 -9.074500000000000455e+01 2.112900000000000134e+01 6.762158000000000335e+00 -6.687650200257574951e-02
1.390700000000000047e+00 -9.080200000000000671e+01 1.261200000000000010e+01 -2.885750999999999955e+00 -6.667787680919180782e-02
1.394700000000000051e+00 -9.408599999999999852e+01 2.149899999999999878e+01 -3.211737000000000108e+01 -6.691011461828350049e-02
1.402300000000000102e+00 -9.325100000000000477e+01 5.878999999999999559e+00 -3.462054999999999882e+00 -5.255741756556514543e-02
1.407000000000000028e+00 -9.277599999999999625e+01 6.290000000000000036e+00 -3.462054999999999882e+00 -5.260215943788719428e-02
1.407699999999999951e+00 -9.090699999999999648e+01 2.444999999999999929e+01 1.677582999999999913e+01 -8.385883498155737026e-02
1.411699999999999955e+00 -9.017400000000000659e+01 2.343900000000000006e+01 7.698958000000000190e+00 -8.385728427643127092e-02
1.415399999999999991e+00 -9.622299999999999898e+01 1.345899999999999963e+01 -3.469062999999999786e+00 -5.298516589772348656e-02
1.419100000000000028e+00 -7.206199999999999761e+01 6.581000000000000405e+00 -3.035598999999999936e+00 -1.720076531105938777e-01
1.421399999999999997e+00 -7.835299999999999443e+01 7.828100000000000058e+00 -1.051237999999999895e+00 8.053312609010732440e-03
1.423999999999999932e+00 -9.789400000000000546e+01 1.528599999999999959e+01 -3.257838000000000012e+00 -6.677653969730898420e-02
1.423999999999999932e+00 -9.789400000000000546e+01 1.622599999999999909e+01 -3.559142000000000028e+00 -6.678707867334900128e-02
1.425899999999999945e+00 -7.582500000000000284e+01 6.211999999999999744e+00 -2.599358000000000057e+00 9.492626517665102293e-03
1.433999999999999941e+00 -9.104699999999999704e+01 2.205900000000000105e+01 3.343026000000000053e+00 -6.689073785276963835e-02
1.441999999999999948e+00 -9.032800000000000296e+01 1.228100000000000058e+01 -2.563598999999999961e+00 -6.665870566702281064e-02
1.443400000000000016e+00 -7.779500000000000171e+01 3.250300000000000011e+01 2.314890000000000114e+01 -5.023355510214454200e-02
1.447699999999999987e+00 -8.277800000000000580e+01 9.285000000000000142e+00 -8.968757000000000090e+00 7.589634914226278499e-03
1.451799999999999979e+00 -7.081799999999999784e+01 7.265200000000000102e+00 -5.206345999999999918e+00 -1.699737190301824352e-01
1.453000000000000069e+00 -8.997100000000000364e+01 3.086899999999999977e+01 2.875745000000000218e+00 -8.355087147265183312e-02
1.453000000000000069e+00 -8.971699999999999875e+01 3.176300000000000168e+01 5.132071999999999967e+00 -8.351366930033726765e-02
1.453000000000000069e+00 -8.838599999999999568e+01 3.268500000000000227e+01 1.326230999999999938e+01 -8.342525439422093791e-02
1.458900000000000086e+00 -9.123300000000000409e+01 2.139900000000000091e+01 4.501445999999999614e+00 -6.688659722431157528e-02
1.463200000000000056e+00 -9.362399999999999523e+01 6.729899999999999771e+00 -3.607871999999999968e+00 -5.258132907776620624e-02
1.464699999999999891e+00 -7.402899999999999636e+01 6.323000000000000398e+00 -2.700340999999999880e+00 9.658719662944823675e-03
1.464699999999999891e+00 -7.297899999999999920e+01 6.323000000000000398e+00 -1.012046999999999947e-01 9.768855358049784166e-03
1.465000000000000080e+00 -7.705500000000000682e+01 7.035300000000000331e+00 -2.367070000000000007e+00 8.755088703366756611e-03
1.469899999999999984e+00 -9.047700000000000387e+01 2.273900000000000077e+01 6.254698000000000313e+00 -6.689275221522174297e-02
1.469899999999999984e+00 -9.047700000000000387e+01 2.413899999999999935e+01 2.247841999999999985e+01 -8.384147529520383224e-02
1.474699999999999900e+00 -6.514199999999999591e+01 2.209499999999999886e+01 -2.189531000000000116e+00 -1.704644798136419614e-01
1.474699999999999900e+00 -6.514199999999999591e+01 2.412699999999999889e+01 -2.751838999999999924e+00 -1.704730928557235958e-01
1.479300000000000059e+00 -9.476300000000000523e+01 1.154800000000000004e+01 -8.250178000000000234e-01 -6.670111843577979094e-02
1.479999999999999982e+00 -8.242199999999999704e+01 3.265500000000000114e+01 -3.553195000000000103e+00 -1.898696944662178754e-01
1.492599999999999927e+00 -8.346899999999999409e+01 8.055999999999999162e+00 -5.690851999999999578e+00 7.997825162954110348e-03
1.502000000000000002e+00 -8.112300000000000466e+01 3.433500000000000085e+01 4.541250000000000142e+01 -1.897480265688321621e-01
1.521500000000000075e+00 -9.487199999999999989e+01 5.878999999999999559e+00 -1.743611000000000022e+00 -5.247930059372848260e-02
1.522100000000000009e+00 -6.356499999999999773e+01 2.472899999999999920e+01 -8.494305999999999912e+00 -1.701563768071152061e-01
1.522999999999999909e+00 -9.613800000000000523e+01 1.246899999999999942e+01 -1.879909000000000052e+00 -5.292828015512093115e-02
1.540999999999999925e+00 -7.438200000000000500e+01 3.385600000000000165e+01 3.363516999999999868e+00 -2.976598441832895015e-01
1.540999999999999925e+00 -7.438200000000000500e+01 3.636399999999999721e+01 5.652841999999999700e+00 -2.977092150908428048e-01
1.540999999999999925e+00 -7.283199999999999363e+01 3.636399999999999721e+01 1.872299999999999898e+01 -2.972406053781868618e-01
1.544999999999999929e+00 -8.713100000000000023e+01 3.353799999999999670e+01 4.052389999999999759e+01 -8.334552308945794574e-02
1.544999999999999929e+00 -8.558100000000000307e+01 3.353799999999999670e+01 3.397051999999999961e+00 -8.661001353255717849e-02
1.550899999999999945e+00 -7.381799999999999784e+01 3.110000000000000142e+01 9.297012000000000498e+00 -5.103287232202313728e-02
1.560000000000000053e+00 -6.597899999999999920e+01 1.413499999999999979e+01 3.228006000000000153e+00 -1.709497451851703653e-01
1.566899999999999959e+00 -8.057899999999999352e+01 7.262199999999999989e+00 -3.572166999999999870e+00 7.790723941216624870e-03
1.572799999999999976e+00 -6.948099999999999454e+01 8.208500000000000796e+00 -1.190775999999999968e+01 -1.685172599833758000e-01
1.576500000000000012e+00 -8.006499999999999773e+01 7.471599999999999575e+00 -3.667316000000000020e+00 7.795429597589220716e-03
1.577800000000000091e+00 -6.994199999999999307e+01 2.309900000000000020e+01 9.946941999999999950e+00 -1.716066679948932139e-01
1.580300000000000038e+00 -9.268200000000000216e+01 1.380400000000000027e+01 -2.487230999999999970e+00 -6.675777841888867747e-02
1.584000000000000075e+00 -6.356499999999999773e+01 2.159100000000000108e+01 -8.079558000000000462e+00 -1.700986405948731739e-01
1.584000000000000075e+00 -6.227199999999999847e+01 2.231200000000000117e+01 -7.363277000000000072e+00 -1.698419309607847316e-01
1.584000000000000075e+00 -6.227199999999999847e+01 2.391000000000000014e+01 -2.314312999999999931e+01 -1.698812939412011058e-01
1.584000000000000075e+00 -6.204500000000000171e+01 2.311100000000000065e+01 -3.244630999999999688e+01 -1.698169132650215463e-01
1.586000000000000076e+00 -9.453600000000000136e+01 6.653999999999999915e+00 -2.645967000000000180e+00 -5.253349925698379275e-02
1.590000000000000080e+00 -7.258799999999999386e+01 3.027700000000000102e+01 -1.488161000000000023e+01 -2.968663533560482182e-01
1.592700000000000005e+00 -9.612099999999999511e+01 1.793499999999999872e+01 -6.549460000000000282e-01 -6.688116474716956916e-02
1.594300000000000050e+00 -9.339300000000000068e+01 5.232099999999999973e+00 -1.024034999999999940e+01 -5.250935144441666591e-02
1.598999999999999977e+00 -9.000900000000000034e+01 2.112900000000000134e+01 3.108610999999999791e+00 -6.687568286464636025e-02
1.606999999999999984e+00 -9.055899999999999750e+01 2.850100000000000122e+01 -1.945955000000000101e+00 -8.365425965965155031e-02
1.610899999999999999e+00 -8.187600000000000477e+01 6.532000000000000028e+00 -5.201366000000000156e+00 7.861927800600330279e-03
1.612999999999999989e+00 -6.926699999999999591e+01 2.214300000000000068e+01 1.991957000000000022e+01 -1.714670018139417829e-01
1.616700000000000026e+00 -7.243899999999999295e+01 2.927599999999999980e+01 -9.676897000000000304e+00 -2.967407805402247911e-01
1.629399999999999959e+00 -7.096200000000000330e+01 1.882600000000000051e+01 1.200639999999999930e+01 -1.721143702876009873e-01
1.629399999999999959e+00 -7.075300000000000011e+01 1.956200000000000117e+01 1.994360999999999962e+01 -1.720026737113423965e-01
1.631000000000000005e+00 -6.464799999999999613e+01 1.142500000000000071e+01 3.985230000000000050e+00 -1.707617847494499186e-01
1.631000000000000005e+00 -6.439400000000000546e+01 1.231900000000000084e+01 -1.787582999999999922e+00 -1.706089180325939814e-01
1.633999999999999897e+00 -6.650799999999999557e+01 9.816900000000000404e+00 -1.225367999999999924e+01 -4.441947366314439455e-02
1.649999999999999911e+00 -8.310599999999999454e+01 7.355299999999999727e+00 -8.189030999999999949e+00 7.953118494121759474e-03
1.650199999999999889e+00 -9.031199999999999761e+01 2.194399999999999906e+01 1.116891000000000078e+00 -6.688928109698917546e-02
1.657299999999999995e+00 -9.117799999999999727e+01 2.042899999999999849e+01 1.976841999999999899e+01 -6.688157269303562913e-02
1.657299999999999995e+00 -9.031300000000000239e+01 2.042899999999999849e+01 1.755564999999999998e+01 -6.687234696226750097e-02
1.660900000000000043e+00 -9.188200000000000500e+01 6.290000000000000036e+00 -3.088492000000000015e+00 -6.634163623452048186e-02
1.661699999999999955e+00 -9.446299999999999386e+01 4.894099999999999895e+00 -5.038573000000000413e+00 -5.243552120263182681e-02
1.665899999999999936e+00 -6.781399999999999295e+01 9.054000000000000270e+00 -1.041280000000000072e+01 -1.674000137367425145e-01
1.667999999999999927e+00 -9.196999999999999886e+01 2.139900000000000091e+01 -1.323681000000000019e+01 -6.690048130397355242e-02
1.672199999999999909e+00 -9.239199999999999591e+01 2.167399999999999949e+01 -1.406657000000000046e+01 -6.690707409862226007e-02
1.675300000000000011e+00 -9.499800000000000466e+01 1.893799999999999883e+01 -1.065639000000000003e+00 -6.689872580174974215e-02
1.677999999999999936e+00 -9.102100000000000080e+01 1.211500000000000021e+01 -1.874651000000000067e+00 -6.667345049269204904e-02
1.679999999999999938e+00 -7.294599999999999795e+01 3.368599999999999994e+01 1.767379000000000033e+01 -2.971859807663997377e-01
1.681799999999999962e+00 -9.282399999999999807e+01 1.162100000000000044e+01 -1.853523000000000032e+00 -6.668279221301705306e-02
1.681899999999999951e+00 -8.152800000000000580e+01 3.355799999999999983e+01 8.759280000000000399e+00 -1.897819862598731366e-01
1.683499999999999996e+00 -9.387699999999999534e+01 1.156099999999999994e+01 2.349658999999999942e+00 -6.669739751095560276e-02
1.685000000000000053e+00 -9.455599999999999739e+01 2.073900000000000077e+01 -7.720285999999999760e+00 -6.691630130281130129e-02
1.687899999999999956e+00 -8.523399999999999466e+01 8.038999999999999702e+00 -7.516413000000000011e+00 -8.000000000000000167e-02
1.687999999999999945e+00 -7.711100000000000421e+01 3.073999999999999844e+01 -1.208671000000000006e+01 -5.005347930759321967e-02
1.688600000000000101e+00 -6.651000000000000512e+01 1.436100000000000065e+01 3.714137000000000022e+00 -1.710829662423596909e-01
1.692199999999999926e+00 -8.894299999999999784e+01 1.224699999999999989e+01 -3.770086999999999744e-01 -6.664416011493848324e-02
1.692199999999999926e+00 -8.754300000000000637e+01 1.224699999999999989e+01 -7.294132000000000282e+00 -6.662040797689060267e-02
1.712299999999999933e+00 -8.437500000000000000e+01 3.249499999999999744e+01 2.701817000000000135e+01 -1.902544964875485245e-01
1.714299999999999935e+00 -9.742400000000000659e+01 1.452599999999999980e+01 -5.773340000000000138e+00 -5.305726231499023615e-02
1.714299999999999935e+00 -9.742400000000000659e+01 1.698600000000000065e+01 -2.015988000000000113e+01 -6.681905126166447217e-02
1.715300000000000047e+00 -7.098199999999999932e+01 2.414199999999999946e+01 3.456236999999999782e+00 -1.718223107823499407e-01
1.716900000000000093e+00 -6.625300000000000011e+01 2.310099999999999909e+01 -1.608552999999999900e+00 -1.706959245974093153e-01
1.721300000000000052e+00 -9.176500000000000057e+01 1.363299999999999912e+01 -4.821689000000000114e+00 -6.674491826404869987e-02
1.724099999999999966e+00 -9.332599999999999341e+01 2.156200000000000117e+01 -4.057296000000000191e+01 -6.691569806236620510e-02
1.726199999999999957e+00 -9.166599999999999682e+01 2.069900000000000162e+01 5.104179000000000244e+00 -6.689208789117326304e-02
1.727000000000000091e+00 -8.646399999999999864e+01 8.862299999999999400e+00 -5.242958999999999925e+00 -6.642388516819029698e-02
1.727000000000000091e+00 -8.646399999999999864e+01 9.801700000000000301e+00 -7.052806000000000353e+00 -6.648033262269456567e-02
1.727000000000000091e+00 -8.646399999999999864e+01 1.066699999999999982e+01 -8.414009000000000071e+00 -6.652782543480587063e-02
1.730399999999999938e+00 -7.089799999999999613e+01 1.827100000000000080e+01 1.372212000000000032e+01 -1.721361179207626935e-01
1.730399999999999938e+00 -7.068800000000000239e+01 1.753500000000000014e+01 1.208395999999999937e+01 -1.721309776238843237e-01
1.730399999999999938e+00 -6.949800000000000466e+01 1.687099999999999866e+01 -1.307508999999999943e+01 -1.718182917040256830e-01
1.730599999999999916e+00 -9.405700000000000216e+01 4.328100000000000058e+00 -2.852489999999999970e+00 -5.241984121444798195e-02
1.731700000000000017e+00 -9.330100000000000193e+01 7.139999999999999680e+00 -1.203489000000000075e+01 -6.644087812958490713e-02
1.731700000000000017e+00 -9.225100000000000477e+01 5.440000000000000391e+00 -3.394296999999999898e+00 -5.257873776595434201e-02
1.731700000000000017e+00 -9.225100000000000477e+01 7.139999999999999680e+00 3.888926000000000105e+00 -6.641669215214869582e-02
1.733600000000000030e+00 -9.260999999999999943e+01 1.217500000000000071e+01 2.546644000000000130e-01 -6.670475327198933935e-02
1.734299999999999953e+00 -7.843399999999999750e+01 3.435399999999999920e+01 3.745488999999999891e+01 -5.047373695825028983e-02
1.753900000000000015e+00 -7.482299999999999329e+01 6.230500000000000149e+00 -2.104919000000000207e+00 9.536877044049683200e-03
1.755300000000000082e+00 -7.658499999999999375e+01 6.275299999999999656e+00 -7.535136000000000056e-01 9.221945798400885824e-03
1.768299999999999983e+00 -6.899299999999999500e+01 8.797000000000000597e+00 -7.305221999999999660e+00 -1.676036750680964527e-01
1.779600000000000071e+00 -9.293300000000000693e+01 1.293299999999999983e+01 6.072225000000000428e+00 -6.674078138821945561e-02
1.779600000000000071e+00 -9.146099999999999852e+01 1.293299999999999983e+01 -2.651542000000000066e+00 -6.671783262147547300e-02
1.780699999999999950e+00 -6.959300000000000352e+01 2.026000000000000156e+01 1.750834000000000046e+01 -1.716290427670392194e-01
1.786999999999999922e+00 -7.219799999999999329e+01 2.832799999999999940e+01 1.756437000000000026e+01 -2.965818992031156731e-01
1.786999999999999922e+00 -7.194400000000000261e+01 2.743400000000000105e+01 5.149613999999999692e+01 -5.094731052174800157e-02
1.787700000000000067e+00 -6.588400000000000034e+01 2.225100000000000122e+01 -8.506996999999999476e-01 -1.706062569860490596e-01
1.787700000000000067e+00 -6.588400000000000034e+01 2.395100000000000051e+01 -2.067254999999999843e+00 -1.706051949300254056e-01
1.789400000000000102e+00 -9.146399999999999864e+01 2.506299999999999883e+01 3.620855000000000157e+00 -8.385430735165502747e-02
1.804000000000000048e+00 -7.929699999999999704e+01 3.436899999999999977e+01 3.606134999999999735e+01 -5.028724587385417083e-02
1.805099999999999927e+00 -7.806499999999999773e+01 3.350399999999999778e+01 3.584241000000000099e+01 -5.040204753930192100e-02
1.818999999999999950e+00 -7.176800000000000068e+01 2.570299999999999940e+01 2.433855000000000146e+01 -5.064659569469145278e-02
1.820999999999999952e+00 -8.435699999999999932e+01 8.058699999999999974e+00 -6.993244999999999933e+00 8.263094114659500986e-03
1.827299999999999924e+00 -7.187699999999999534e+01 2.650400000000000134e+01 2.896594999999999942e+01 -5.078305664911732936e-02
1.833099999999999952e+00 -6.504999999999999716e+01 1.403700000000000081e+01 7.683602999999999961e-01 -1.706507226926743115e-01
1.838000000000000078e+00 -9.245900000000000318e+01 1.092099999999999937e+01 -5.581140000000000434e+00 -6.665199991958511982e-02
1.842400000000000038e+00 -7.834999999999999432e+01 3.269800000000000040e+01 1.977732999999999919e+01 -5.017222715109229819e-02
1.847699999999999898e+00 -9.561299999999999955e+01 1.161899999999999977e+01 -1.188727000000000089e+00 -6.673365385188112509e-02
1.851799999999999891e+00 -7.157099999999999795e+01 6.977599999999999802e+00 -6.212930000000000064e+00 -1.705534045332855464e-01
1.879899999999999904e+00 -7.936499999999999488e+01 7.529899999999999594e+00 8.574315000000000131e-01 7.803896617290889681e-03
1.880300000000000082e+00 -7.457800000000000296e+01 3.103699999999999903e+01 5.925785000000000302e+00 -5.084410251388299384e-02
1.880300000000000082e+00 -7.305800000000000693e+01 3.103699999999999903e+01 -1.199479000000000006e+01 -2.971174710500519844e-01
1.880900000000000016e+00 -8.635599999999999454e+01 3.360300000000000153e+01 -1.114635999999999960e+01 -8.664087542609240356e-02
1.881000000000000005e+00 -7.586799999999999500e+01 3.043299999999999983e+01 -2.012533000000000172e+01 -5.035171926852803626e-02
1.883499999999999952e+00 -8.986299999999999955e+01 1.176200000000000045e+01 -5.509346000000000521e-01 -6.664684036555916513e-02
1.888099999999999890e+00 -8.768600000000000705e+01 3.288499999999999801e+01 6.699203999999999937e+00 -8.337197351808334211e-02
1.897999999999999909e+00 -7.765300000000000580e+01 7.338599999999999568e+00 -7.619882999999999518e-01 8.299276593697234999e-03
1.902600000000000069e+00 -8.977700000000000102e+01 2.300700000000000145e+01 -1.038738000000000028e+01 -8.383130392472182280e-02
1.902600000000000069e+00 -8.977700000000000102e+01 2.387199999999999989e+01 -1.320384999999999920e+00 -8.378657603372104135e-02
1.905699999999999950e+00 -6.449599999999999511e+01 2.156099999999999994e+01 -1.812899999999999956e+00 -1.702686346823390484e-01
1.905999999999999917e+00 -9.040000000000000568e+01 2.979400000000000048e+01 1.395906000000000091e+00 -8.359151041752904687e-02
1.913899999999999935e+00 -8.029000000000000625e+01 3.428000000000000114e+01 4.777758999999999645e+01 -5.005906207062869179e-02
1.914099999999999913e+00 -9.465699999999999648e+01 1.967000000000000171e+01 -8.016946000000000794e+00 -6.691401588026127389e-02
1.925799999999999956e+00 -8.504000000000000625e+01 3.286200000000000188e+01 1.024458999999999946e+02 -8.657373237775439767e-02
1.930600000000000094e+00 -8.284499999999999886e+01 6.415000000000000036e+00 -3.152829000000000104e+00 7.959067060307396455e-03
1.939699999999999980e+00 -9.137999999999999545e+01 2.699800000000000111e+01 -1.231022999999999978e-01 -8.375302519218107145e-02
1.940299999999999914e+00 -8.111599999999999966e+01 6.595299999999999940e+00 -4.689006000000000007e+00 7.879203534474101683e-03
1.944499999999999895e+00 -7.193399999999999750e+01 3.510999999999999943e+01 2.557941999999999894e+01 -2.969379562452486576e-01
1.944700000000000095e+00 -6.939400000000000546e+01 2.106899999999999906e+01 2.755712000000000117e+01 -1.715281902900121780e-01
1.946299999999999919e+00 -7.350400000000000489e+01 5.726899999999999658e+00 -5.144729999999999581e-01 9.966539922098286569e-03
1.949999999999999956e+00 -7.144299999999999784e+01 2.488599999999999923e+01 2.455948999999999938e+00 -1.719003237546463947e-01
1.955000000000000071e+00 -9.185399999999999920e+01 1.211800000000000033e+01 -2.272679999999999811e+00 -6.670020774828029630e-02
1.955999999999999961e+00 -6.705400000000000205e+01 1.585899999999999999e+01 -1.464811000000000085e+01 -1.711233183732365770e-01
1.955999999999999961e+00 -6.694299999999999784e+01 1.506099999999999994e+01 -5.083760999999999974e+00 -1.711437133518385889e-01
1.958499999999999908e+00 -9.406300000000000239e+01 1.114499999999999957e+01 -1.804589999999999916e+00 -6.669553302758318702e-02
1.959600000000000009e+00 -8.710999999999999943e+01 1.154700000000000060e+01 -7.491209999999999702e+00 -6.659128525192924142e-02
1.959899999999999975e+00 -9.536799999999999500e+01 5.405199999999999783e+00 -1.174155999999999977e+00 -5.241341086682911599e-02
1.960299999999999931e+00 -6.598199999999999932e+01 1.048199999999999932e+01 -2.422719000000000023e+01 -1.712490441633460481e-01
1.960399999999999920e+00 -9.327500000000000568e+01 1.089199999999999946e+01 -2.695146999999999959e+00 -6.667077150620413784e-02
1.965899999999999981e+00 -6.465900000000000603e+01 2.460500000000000043e+01 -1.007418999999999976e+01 -1.703287218248628332e-01
1.966099999999999959e+00 -7.221500000000000341e+01 3.599099999999999966e+01 4.066183000000000192e+01 -2.970692338885808637e-01
1.977000000000000091e+00 -9.166500000000000625e+01 2.619200000000000017e+01 8.162483999999999851e-01 -8.380658129204350548e-02
1.978299999999999947e+00 -8.912099999999999511e+01 3.224399999999999977e+01 5.199874000000000329e+00 -8.345428544187380449e-02
1.978699999999999903e+00 -7.209099999999999397e+01 3.408700000000000330e+01 9.055298000000000513e+00 -2.969405917905529879e-01
1.988699999999999912e+00 -9.219700000000000273e+01 1.293299999999999983e+01 -7.813700999999999564e-01 -6.673915493063836690e-02
1.995600000000000041e+00 -8.824299999999999500e+01 1.230599999999999916e+01 -6.206965000000000288e+00 -6.664705887249121330e-02
2.000700000000000145e+00 -9.505500000000000682e+01 4.624299999999999855e+00 -1.065342999999999929e+00 -5.237684788756499094e-02
2.006699999999999928e+00 -9.135599999999999454e+01 1.162100000000000044e+01 -4.047424999999999606e+00 -6.667259062171046469e-02
2.006699999999999928e+00 -9.049099999999999966e+01 1.162100000000000044e+01 -2.215342999999999840e+00 -6.665712384226116227e-02
2.007499999999999840e+00 -8.230899999999999750e+01 6.041100000000000136e+00 -2.223014000000000046e+00 7.859921569538465616e-03
2.017300000000000093e+00 -8.599399999999999977e+01 8.102299999999999613e+00 -4.901370000000000005e+00 -8.000000000000000167e-02
2.020000000000000018e+00 -7.515699999999999648e+01 3.510999999999999943e+01 2.278928000000000154e+01 -2.979819137355085301e-01
2.020000000000000018e+00 -7.492600000000000193e+01 3.429500000000000171e+01 8.503121000000000151e+00 -2.978984303048364812e-01
2.020000000000000018e+00 -7.492600000000000193e+01 3.592499999999999716e+01 1.025187000000000026e+01 -2.979165588290642597e-01
2.020000000000000018e+00 -7.396699999999999875e+01 3.333700000000000330e+01 3.982232999999999912e+00 -2.975545713114513546e-01
2.020900000000000141e+00 -9.409499999999999886e+01 7.232499999999999929e+00 -1.293837000000000081e+01 -5.257128030826528631e-02
2.037799999999999834e+00 -8.200400000000000489e+01 3.302300000000000324e+01 3.732876999999999779e+00 -1.898654640888261524e-01
2.049500000000000099e+00 -7.270099999999999341e+01 3.643599999999999994e+01 4.995233000000000345e+01 -2.972435192918430613e-01
2.053700000000000081e+00 -6.280499999999999972e+01 2.188100000000000023e+01 -6.655078999999999745e+00 -1.698796271153659165e-01
2.053900000000000059e+00 -9.074500000000000455e+01 1.993799999999999883e+01 2.385604999999999976e+01 -6.688469032542261605e-02
2.061999999999999833e+00 -7.026200000000000045e+01 1.995899999999999963e+01 1.873717999999999861e+01 -1.718263181523872474e-01
2.064999999999999947e+00 -9.531100000000000705e+01 6.357999999999999652e+00 -1.291895000000000016e+00 -5.246869951251927067e-02
2.064999999999999947e+00 -9.165999999999999659e+01 1.092099999999999937e+01 -4.455594999999999750e+00 -6.664809658608319975e-02
2.068200000000000038e+00 -9.292799999999999727e+01 7.680100000000000371e+00 -2.969695999999999891e+00 -6.648356204133118452e-02
2.072099999999999831e+00 -7.022199999999999420e+01 7.959699999999999775e+00 -1.065028000000000041e+01 -1.683822910867322220e-01
2.088900000000000201e+00 -9.271099999999999852e+01 4.813699999999999868e+00 -3.030184999999999906e+00 -5.250519618680458273e-02
2.089900000000000091e+00 -8.961299999999999955e+01 2.069600000000000151e+01 4.169614000000000154e+00 -6.688258241622108136e-02
2.089900000000000091e+00 -8.961299999999999955e+01 2.156099999999999994e+01 4.893330000000000179e-01 -8.389244286515130933e-02
2.090599999999999792e+00 -9.557500000000000284e+01 1.842099999999999937e+01 1.369634000000000018e+00 -6.691252945380794792e-02
2.103299999999999947e+00 -7.193699999999999761e+01 6.506899999999999906e+00 -2.931542999999999996e-02 -1.712605391877994321e-01
2.103699999999999903e+00 -6.704099999999999682e+01 9.386300000000000310e+00 -2.962218999999999980e+01 -4.385323339416051514e-02
2.104099999999999859e+00 -8.975900000000000034e+01 2.206299999999999883e+01 -2.617290000000000116e+00 -8.387485968397377645e-02
2.107699999999999907e+00 -9.064000000000000057e+01 2.488299999999999912e+01 8.863621999999999446e+00 -8.379370018262434494e-02
2.125700000000000145e+00 -9.653700000000000614e+01 1.776399999999999935e+01 -5.672596999999999667e+00 -6.686966585986625633e-02
2.128299999999999859e+00 -9.292900000000000205e+01 1.016099999999999959e+01 -3.106640000000000068e+00 -6.663648060769003512e-02
2.128299999999999859e+00 -9.198900000000000432e+01 1.016099999999999959e+01 -3.831233000000000111e+00 -6.661852596627489131e-02
2.130599999999999827e+00 -8.346800000000000352e+01 4.328400000000000247e+00 -1.335766999999999927e+00 -8.000000000000001554e-02
2.131400000000000183e+00 -6.930700000000000216e+01 2.255799999999999983e+01 1.991957000000000022e+01 -1.714380709919338941e-01
2.134799999999999809e+00 -7.664000000000000057e+01 3.017999999999999972e+01 -7.847393999999999892e+01 -5.010001495014677897e-02
2.144899999999999807e+00 -8.367499999999999716e+01 3.222800000000000153e+01 -4.337321000000000026e+01 -1.901487213599836745e-01
2.154700000000000060e+00 -9.379600000000000648e+01 2.102899999999999991e+01 -9.684340999999999866e+00 -6.692959345850864328e-02
2.155699999999999950e+00 -6.446699999999999875e+01 1.340000000000000036e+01 -2.369626999999999928e+00 -1.704823878451731667e-01
2.155899999999999928e+00 -8.926699999999999591e+01 1.148099999999999987e+01 -3.201918000000000042e+00 -6.663489458982813085e-02
2.156299999999999883e+00 -6.524399999999999977e+01 1.094400000000000084e+01 4.554251999999999967e+00 -1.709392149565816255e-01
2.157999999999999918e+00 -8.391700000000000159e+01 4.839000000000000412e+00 1.122725999999999935e+01 8.714311669127818016e-03
2.158900000000000041e+00 -9.236599999999999966e+01 2.096699999999999875e+01 -1.935273000000000110e+01 -6.691671698308390703e-02
2.159899999999999931e+00 -8.469899999999999807e+01 3.228300000000000125e+01 3.092267999999999795e+00 -1.903521946974068013e-01
2.162399999999999878e+00 -6.588299999999999557e+01 1.432099999999999973e+01 4.788476000000000177e+00 -1.708476348527440680e-01
2.162399999999999878e+00 -7.886799999999999500e+01 3.356099999999999994e+01 1.536279000000000039e+01 -5.025452067528222988e-02
2.162999999999999812e+00 -7.019799999999999329e+01 1.713800000000000168e+01 8.964142999999999972e+00 -1.720049969380946231e-01
2.162999999999999812e+00 -6.873000000000000398e+01 1.713800000000000168e+01 -3.228079999999999838e+00 -1.715433787211542438e-01
2.164899999999999824e+00 -6.856000000000000227e+01 9.287900000000000489e+00 -7.262972000000000428e+00 -4.247581546672453412e-02
2.169900000000000162e+00 -9.020999999999999375e+01 2.457199999999999918e+01 -4.542047000000000168e-01 -8.377489622433702265e-02
2.170799999999999841e+00 -7.777299999999999613e+01 3.093799999999999883e+01 -5.635887999999999565e+00 -4.996236511867535590e-02
2.177700000000000191e+00 -9.484399999999999409e+01 3.948999999999999844e+00 3.864805000000000046e-01 -5.233516242178355704e-02
2.177700000000000191e+00 -9.379399999999999693e+01 3.948999999999999844e+00 -1.920995000000000008e+00 -5.238836321714029909e-02
2.180600000000000094e+00 -7.046399999999999864e+01 2.369999999999999929e+01 8.263265000000000526e+00 -1.716955530577267686e-01
2.184000000000000163e+00 -9.818399999999999750e+01 1.575600000000000023e+01 -1.262635000000000041e+01 -6.677612373407096347e-02
2.184000000000000163e+00 -9.795699999999999363e+01 1.495700000000000074e+01 -3.364571000000000200e+00 -6.677779793557289678e-02
2.184000000000000163e+00 -9.795699999999999363e+01 1.655499999999999972e+01 -6.317256999999999678e+00 -6.679576972584601313e-02
2.188600000000000101e+00 -7.717499999999999716e+01 6.611799999999999677e+00 3.615622000000000114e+00 8.736505223618695054e-03
2.201400000000000023e+00 -7.835299999999999443e+01 7.396899999999999586e+00 1.670421999999999940e+01 7.986141979195646862e-03
2.201999999999999957e+00 -8.106499999999999773e+01 3.403199999999999648e+01 9.412912999999999641e+00 -1.897746057217682414e-01
2.205400000000000027e+00 -6.681900000000000261e+01 2.356599999999999895e+01 -1.408914000000000000e+00 -1.707866274126281225e-01
2.214799999999999880e+00 -9.285699999999999932e+01 2.112800000000000011e+01 -1.692805999999999855e+01 -6.692465717361520405e-02
2.215700000000000003e+00 -7.349200000000000443e+01 3.162600000000000122e+01 -2.277235999999999905e+01 -2.973421473197862541e-01
2.217900000000000205e+00 -8.685999999999999943e+01 1.023399999999999999e+01 -6.646398999999999724e+00 -6.652874744030015663e-02
2.225000000000000089e+00 -7.582500000000000284e+01 5.985000000000000320e+00 7.010163999999999618e+00 9.398469327916313468e-03
2.233999999999999986e+00 -8.314499999999999602e+01 3.571000000000000174e+00 5.233651000000000053e+00 9.354713115008649049e-03
2.241000000000000103e+00 -7.256499999999999773e+01 3.342300000000000182e+01 2.001150000000000162e+01 -2.970914097209541582e-01
2.242100000000000204e+00 -9.062600000000000477e+01 2.902299999999999969e+01 4.338706999999999980e-01 -8.361841720324721117e-02
2.242599999999999927e+00 -7.883799999999999386e+01 3.277300000000000324e+01 4.407106999999999886e+00 -5.010363893804507807e-02
2.254100000000000215e+00 -7.109099999999999397e+01 2.436599999999999966e+01 3.899480000000000057e+00 -1.718268189277624702e-01
2.257000000000000117e+00 -9.140099999999999625e+01 5.764700000000000379e+00 -3.304533999999999860e+00 -6.630460249213895874e-02
2.257000000000000117e+00 -9.140099999999999625e+01 6.815299999999999692e+00 6.781868000000000229e+00 -6.639142349174169400e-02
2.259700000000000042e+00 -6.303799999999999670e+01 2.464999999999999858e+01 -1.393684999999999974e+01 -1.699681657264646428e-01
2.269299999999999873e+00 -6.535899999999999466e+01 2.165500000000000114e+01 -6.754042000000000101e-01 -1.704336443043894811e-01
2.269299999999999873e+00 -6.535899999999999466e+01 2.454700000000000060e+01 -2.515575000000000117e+00 -1.704487219835864320e-01
2.274099999999999788e+00 -9.092400000000000659e+01 1.092099999999999937e+01 -9.857917000000000485e+00 -6.664416528745757684e-02
2.275700000000000056e+00 -8.154999999999999716e+01 6.006000000000000227e+00 -2.463286999999999782e+00 7.974973529418189627e-03
2.281899999999999817e+00 -9.481999999999999318e+01 1.119100000000000072e+01 -1.199510000000000076e+00 -6.672579991823343604e-02
2.300699999999999967e+00 -8.029900000000000659e+01 6.808699999999999974e+00 -1.797763000000000000e+00 7.800896654633851339e-03
2.302400000000000002e+00 -8.343800000000000239e+01 5.614499999999999602e+00 1.436941999999999986e+01 8.292021684074446508e-03
2.302999999999999936e+00 -8.964600000000000080e+01 3.139399999999999835e+01 7.252400999999999875e+00 -8.349106841132895862e-02
2.305099999999999927e+00 -8.733499999999999375e+01 1.102500000000000036e+01 -7.703155999999999892e+00 -6.658304882029468519e-02
2.310500000000000220e+00 -7.985800000000000409e+01 3.378900000000000148e+01 1.710987000000000080e+01 -5.008474207781248022e-02
2.313000000000000167e+00 -6.673399999999999466e+01 2.257600000000000051e+01 8.524453999999999365e-02 -1.707638869402932635e-01
2.314700000000000202e+00 -7.435399999999999920e+01 5.797699999999999854e+00 -1.642781000000000047e+00 9.721793161780678538e-03
2.314700000000000202e+00 -7.265399999999999636e+01 5.797699999999999854e+00 4.170370999999999939e-01 -1.728318800510084130e-01
2.319999999999999840e+00 -8.683499999999999375e+01 3.305899999999999750e+01 3.667291999999999774e-02 -8.666251641079157630e-02
2.319999999999999840e+00 -8.587699999999999534e+01 3.305899999999999750e+01 -3.200500000000000256e+01 -8.660464417832289263e-02
2.324899999999999967e+00 -9.026300000000000523e+01 1.124399999999999977e+01 -2.858614999999999906e+00 -6.664983356566778205e-02
2.328399999999999803e+00 -6.979300000000000637e+01 2.348199999999999932e+01 6.640907000000000338e+00 -1.715251278981375915e-01
2.329400000000000137e+00 -7.069499999999999318e+01 1.925900000000000034e+01 1.226327000000000034e+01 -1.719937210353486567e-01
2.331199999999999939e+00 -8.279900000000000659e+01 5.538999999999999702e+00 5.060183000000000320e+00 8.017171114703548762e-03
2.331199999999999939e+00 -8.193300000000000693e+01 5.538999999999999702e+00 -3.669341999999999882e-01 8.153364489897318643e-03
2.332599999999999785e+00 -6.236399999999999721e+01 2.434600000000000009e+01 -1.700025000000000119e+01 -1.698192218896950600e-01
2.341400000000000148e+00 -7.822499999999999432e+01 3.130000000000000071e+01 -6.993661000000000350e+00 -4.994029144963450795e-02
2.350000000000000089e+00 -7.516800000000000637e+01 3.069999999999999929e+01 -9.444774999999999920e+00 -5.066253596380889540e-02
2.350000000000000089e+00 -7.416200000000000614e+01 3.155499999999999972e+01 -1.034051000000000009e+01 -5.111842341829507530e-02
2.350000000000000089e+00 -7.252500000000000568e+01 3.060600000000000165e+01 -5.107365999999999673e+01 -2.969303252273581828e-01
2.350000000000000089e+00 -7.229800000000000182e+01 2.980699999999999861e+01 -1.520204999999999984e+01 -2.967858181484193114e-01
2.352700000000000014e+00 -8.404200000000000159e+01 7.512999999999999901e+00 -4.808053000000000132e+00 8.154247599927940543e-03
2.357299999999999951e+00 -9.144499999999999318e+01 1.999599999999999866e+01 2.052165000000000106e+01 -6.690418270129164235e-02
2.357299999999999951e+00 -9.004500000000000171e+01 1.999599999999999866e+01 1.427707999999999977e+01 -6.688834137785300282e-02
2.357299999999999951e+00 -6.943300000000000693e+01 2.175600000000000023e+01 2.595760999999999896e+01 -1.714909570299278374e-01
2.361000000000000210e+00 -9.483199999999999363e+01 7.133000000000000007e+00 -7.224116999999999678e+00 -5.252427895397358132e-02
2.365400000000000169e+00 -6.956199999999999761e+01 2.001699999999999946e+01 1.092575000000000074e+01 -1.716091343667463520e-01
2.369299999999999962e+00 -9.505700000000000216e+01 1.882499999999999929e+01 2.356910000000000061e+00 -6.692478718484676237e-02
2.373000000000000220e+00 -9.667199999999999704e+01 1.373000000000000043e+01 -7.158277000000000001e+00 -5.304059093734688618e-02
2.373000000000000220e+00 -9.646299999999999386e+01 1.299399999999999977e+01 -1.350543000000000049e+00 -5.299650335679013946e-02
2.373000000000000220e+00 -9.620900000000000318e+01 1.209999999999999964e+01 3.182556000000000274e-01 -5.293765699716949935e-02
2.382800000000000029e+00 -8.977500000000000568e+01 3.043599999999999994e+01 2.927839000000000080e+00 -8.352074303182208115e-02
2.388399999999999856e+00 -6.429099999999999682e+01 1.264199999999999946e+01 -2.169602999999999948e+00 -1.704558133855462176e-01
2.388599999999999834e+00 -6.624299999999999500e+01 1.479400000000000048e+01 3.260469000000000062e+00 -1.709044974734181266e-01
2.389499999999999957e+00 -8.473199999999999932e+01 4.839000000000000412e+00 9.386908000000000030e+00 9.052376489289748474e-03
2.389499999999999957e+00 -8.310200000000000387e+01 4.839000000000000412e+00 1.069523000000000046e+01 -8.000000000000000167e-02
2.392199999999999882e+00 -8.867600000000000193e+01 1.181499999999999950e+01 -7.195161999999999836e+00 -6.664997354571693122e-02
2.392199999999999882e+00 -8.781000000000000227e+01 1.181499999999999950e+01 -8.630126999999999882e+00 -6.663392370828508104e-02
