-3.032499999999999929e+01 -2.952700000000000102e+01 -5.491699999999999804e+00 -4.495034000000000418e+00 1.489831391870397948e-03
-3.032499999999999929e+01 -4.214000000000000057e+01 8.426900000000000501e-01 1.552261999999999986e+01 4.335904873273782080e-03
-3.031200000000000117e+01 -1.737399999999999878e+01 9.326499999999999790e-01 3.331981999999999999e+01 -6.334339043118755556e-03
-3.030499999999999972e+01 -2.144699999999999918e+01 2.287000000000000099e+01 -8.804496999999999574e+00 9.359593814576566695e-02
-3.029899999999999949e+01 -4.243800000000000239e+01 6.632399999999999629e+00 -9.346752999999999645e+00 5.720501529847368469e-03
-3.029200000000000159e+01 -4.050800000000000267e+01 -2.814400000000000235e-01 2.283323000000000036e+01 2.798645598316223167e-03
-3.029100000000000037e+01 -3.644899999999999807e+01 2.705499999999999972e+01 6.641227999999999909e+00 9.901087584747564341e-02
-3.028300000000000125e+01 -2.209900000000000020e+01 -8.774499999999999744e+00 -9.540041000000000215e-01 -2.508034178805175762e-01
-3.027199999999999847e+01 -3.739200000000000301e+01 1.445199999999999996e+01 -1.450693999999999928e+00 9.827548478653662378e-02
-3.026999999999999957e+01 -3.932800000000000296e+01 5.132799999999999585e+00 -1.732302999999999926e+01 2.091122788309374321e-03
-3.026800000000000068e+01 -2.173199999999999932e+01 2.206400000000000006e+01 6.941010000000000346e+00 9.383031663521931853e-02
-3.026599999999999824e+01 -4.147599999999999909e+01 6.611600000000000144e+00 -3.453587999999999880e+01 4.892099098204652323e-03
-3.025799999999999912e+01 -3.844400000000000261e+01 5.103399999999999714e+00 -1.499380999999999986e+01 9.112113188973552328e-04
-3.025100000000000122e+01 -4.403600000000000136e+01 2.986699999999999910e+00 5.415415999999999563e+00 6.336996601463397438e-03
-3.024699999999999989e+01 -2.576599999999999824e+01 -6.144400000000000084e+00 -1.274258000000000024e+01 -1.084186010755872343e-01
-3.023799999999999955e+01 -2.130499999999999972e+01 2.111599999999999966e+01 4.041481000000000279e+01 9.476275405300818577e-02
-3.023400000000000176e+01 -4.358100000000000307e+01 1.780799999999999983e+01 -7.525187999999999988e+00 3.821388911614322656e-04
-3.022599999999999909e+01 -3.598199999999999932e+01 2.730900000000000105e+01 1.068723999999999918e+01 9.876354860356799381e-02
-3.022400000000000020e+01 -3.736399999999999721e+01 -4.514400000000000190e+00 9.584188999999999625e-01 -9.696436934224813946e-05
-3.021300000000000097e+01 -2.703600000000000136e+01 -5.372399999999999842e+00 -2.024476999999999904e+01 5.034053549391728430e-03
-3.021099999999999852e+01 -4.368500000000000227e+01 5.989700000000000024e+00 -2.257461000000000051e-01 6.802973715983014549e-03
-3.021000000000000085e+01 -4.162199999999999989e+01 2.150700000000000145e+01 -5.331794999999999618e+00 -5.420124109558322172e-04
-3.020899999999999963e+01 -1.685500000000000043e+01 -1.239999999999999991e-01 2.467808000000000135e+01 7.985135821737517417e-03
-3.020700000000000074e+01 -2.482300000000000040e+01 2.796000000000000085e+01 -3.860538000000000025e+00 9.388521058723546531e-02
-3.019600000000000151e+01 -1.976200000000000045e+01 1.749500000000000099e+01 -3.791028999999999982e+00 2.972852268531862574e-01
-3.019600000000000151e+01 -4.018099999999999739e+01 2.274899999999999878e+01 -6.742300000000000182e+00 -2.685561842874720044e-03
-3.019300000000000139e+01 -1.666900000000000048e+01 -1.836000000000000076e+00 1.475821999999999967e+01 -2.540569226460865915e-01
-3.019099999999999895e+01 -2.279200000000000159e+01 2.371600000000000108e+01 -2.919684000000000168e+00 9.284736918990540988e-02
-3.018499999999999872e+01 -1.677799999999999869e+01 -2.637000000000000011e+00 7.628611000000000253e+00 -2.523056134122627636e-01
-3.018100000000000094e+01 -3.076000000000000156e+01 -6.474499999999999922e+00 -2.530426999999999893e+01 3.692627275703715042e-03
-3.016900000000000048e+01 -3.823599999999999710e+01 7.075000000000000178e+00 -9.694350999999999274e+00 1.301925857022315095e-03
-3.016700000000000159e+01 -2.821099999999999852e+01 2.947899999999999920e+01 2.141862999999999850e+00 1.737148421339490267e-01
-3.016600000000000037e+01 -3.337299999999999756e+01 2.936299999999999955e+01 -9.214729000000000170e+00 1.745064797820607694e-01
-3.016199999999999903e+01 -3.994100000000000250e+01 5.353100000000000414e+00 -2.480126999999999882e+01 3.216764745067850293e-03
-3.015599999999999881e+01 -1.912999999999999901e+01 -8.566499999999999559e+00 -7.279030999999999807e+00 -2.479381212010914326e-01
-3.014399999999999835e+01 -3.226700000000000301e+01 3.005099999999999838e+01 -1.768433999999999884e+01 1.742443650628601182e-01
-3.014399999999999835e+01 -3.074699999999999989e+01 3.005099999999999838e+01 -5.985667000000000115e+01 1.740221564599185311e-01
-3.014000000000000057e+01 -4.126599999999999824e+01 1.852599999999999980e+01 1.002509000000000050e+01 -4.034318666843267299e-04
-3.014000000000000057e+01 -4.126599999999999824e+01 2.079200000000000159e+01 -1.445856999999999992e+01 -2.179181281038294340e-04
-3.013400000000000034e+01 -4.377300000000000324e+01 2.485700000000000021e+00 2.271507000000000165e+00 6.305997649592056178e-03
-3.013400000000000034e+01 -3.796800000000000352e+01 6.316099999999999604e+00 -7.746369999999999756e+00 8.360260945024285822e-04
-3.013400000000000034e+01 -3.796800000000000352e+01 7.833899999999999864e+00 -1.896930000000000049e+01 1.216146365008473730e-03
-3.013200000000000145e+01 -2.048900000000000077e+01 -9.208000000000000185e+00 -1.300174999999999947e+01 -2.489355928309411325e-01
-3.012500000000000000e+01 -2.578699999999999903e+01 -5.480100000000000193e+00 -3.492477999999999838e+01 -1.111774030969491234e-01
-3.012500000000000000e+01 -2.801200000000000045e+01 -5.122099999999999653e+00 -3.229054999999999787e+00 2.778415818296008435e-03
-3.011199999999999832e+01 -3.845199999999999818e+01 2.342099999999999937e+01 -8.055604000000000653e+00 2.576804341274261390e-01
-3.009900000000000020e+01 -4.158299999999999841e+01 1.282699999999999996e+01 -6.781179999999999986e+00 7.458666833620755839e-03
-3.007900000000000063e+01 -3.885000000000000142e+01 1.445800000000000018e+01 -2.308529000000000053e+01 -4.684076089993480241e-03
-3.007499999999999929e+01 -3.561999999999999744e+01 2.765299999999999869e+01 6.020782999999999774e+00 9.852946015208749464e-02
-3.007400000000000162e+01 -1.677599999999999980e+01 -6.406399999999999650e+00 8.435553999999999553e-01 -2.465834083868689020e-01
-3.006500000000000128e+01 -1.960200000000000031e+01 1.649899999999999878e+01 -4.287683999999999607e+00 2.986390946836006699e-01
-3.006099999999999994e+01 -2.452100000000000080e+01 -7.142100000000000115e+00 2.329257000000000133e+00 -9.873975556950476129e-02
-3.006099999999999994e+01 -2.419300000000000139e+01 -7.886899999999999800e+00 1.598916999999999966e+01 -9.451383286569811637e-02
-3.006099999999999994e+01 -2.287399999999999878e+01 -8.621999999999999886e+00 9.830313000000000301e+00 -8.641294141305064236e-02
-3.005699999999999861e+01 -1.635099999999999909e+01 -9.388800000000000479e-01 8.335532000000000608e+00 -2.559146068074243940e-01
-3.005600000000000094e+01 -1.996099999999999852e+01 1.427899999999999991e+01 -5.528696000000000055e+00 8.489722326916991635e-02
-3.005600000000000094e+01 -1.975199999999999889e+01 1.501500000000000057e+01 -5.723046000000000078e+00 9.863851937101970890e-02
-3.005099999999999838e+01 -2.234100000000000108e+01 2.287000000000000099e+01 -1.351577999999999946e+00 9.227565977644316964e-02
-3.004799999999999827e+01 -2.053200000000000003e+01 1.267300000000000004e+01 -7.081580999999999904e+00 6.320587599625052122e-02
-3.004599999999999937e+01 -3.722099999999999653e+01 1.130000000000000071e+01 -1.174363999999999963e+00 1.630837529764960631e-03
-3.004299999999999926e+01 -3.941799999999999926e+01 -3.541700000000000070e+00 -9.899712999999999985e-01 2.293589681552365284e-03
-3.003800000000000026e+01 -3.768999999999999773e+01 5.073999999999999844e+00 -6.352007000000000403e+00 5.059054964126816472e-04
-3.003699999999999903e+01 -4.049600000000000222e+01 -1.012000000000000011e+00 4.513595000000000113e+01 3.345972394855033227e-03
-3.003300000000000125e+01 -4.122599999999999909e+01 6.013600000000000279e+00 -1.048297999999999952e+01 5.131935604214074402e-03
-3.002299999999999969e+01 -3.389900000000000091e+01 -8.710499999999999687e+00 -2.107947000000000015e-01 6.595462139820188266e-03
-3.001699999999999946e+01 -4.313799999999999812e+01 6.313699999999999868e+00 -3.058244999999999880e+00 6.929632546637927437e-03
-3.001599999999999824e+01 -2.047899999999999920e+01 1.118699999999999939e+01 -2.575105999999999895e+00 5.241447416484312782e-02
-3.001200000000000045e+01 -1.793199999999999861e+01 -7.525999999999999801e+00 5.688170000000000393e+00 -2.470613219496856083e-01
-3.001200000000000045e+01 -2.092399999999999949e+01 2.031700000000000017e+01 9.260643000000000313e+01 9.445752892559619585e-02
-3.001200000000000045e+01 -2.059600000000000009e+01 1.957199999999999918e+01 2.088281999999999972e+00 9.657874276418901283e-02
-3.000000000000000000e+01 -1.611899999999999977e+01 -1.239999999999999991e-01 7.157909000000000077e+00 1.698424488162039031e-02
-3.000000000000000000e+01 -1.560500000000000043e+01 -5.489700000000000024e+00 -9.696752999999999290e+00 -3.625180531367471759e-01
-3.000000000000000000e+01 -1.560500000000000043e+01 -4.550300000000000011e+00 -1.713901999999999859e+01 -2.468868750661000477e-01
-2.999599999999999866e+01 -3.670600000000000307e+01 1.218999999999999950e+01 2.151723000000000052e+00 1.386013877648876276e-03
-2.998999999999999844e+01 -2.083599999999999852e+01 1.197300000000000075e+01 -1.021840000000000082e+01 6.060419822177071092e-02
-2.998699999999999832e+01 -3.739900000000000091e+01 6.004699999999999704e+00 -6.464602000000000182e+00 3.876836006438317043e-04
-2.998300000000000054e+01 -3.662299999999999756e+01 -6.199399999999999800e+00 1.315247999999999973e+00 -5.341273299614096160e-06
-2.998300000000000054e+01 -4.257300000000000040e+01 1.496400000000000041e+01 -1.492087000000000074e+01 -8.139534495486062038e-04
-2.998100000000000165e+01 -1.994300000000000139e+01 1.828500000000000014e+01 3.493440000000000101e+00 1.031595308756811241e-01
-2.998100000000000165e+01 -3.746099999999999852e+01 2.422700000000000031e+01 -7.012432000000000443e+00 2.579871040545765881e-01
-2.998100000000000165e+01 -3.725200000000000244e+01 2.496300000000000097e+01 3.169249000000000205e+00 9.969617575169785473e-02
-2.998000000000000043e+01 -3.885900000000000176e+01 4.373999999999999666e+00 -5.530174000000000234e+01 2.235303808452213711e-03
-2.998000000000000043e+01 -3.799300000000000210e+01 4.373999999999999666e+00 -6.347605999999999682e+01 1.048194393499768482e-03
-2.997899999999999920e+01 -4.019200000000000017e+01 -1.711999999999999966e+00 3.901570999999999856e+01 3.164103779030660001e-03
-2.997299999999999898e+01 -2.384700000000000131e+01 2.441199999999999903e+01 3.967937000000000047e+00 9.232953832390219939e-02
-2.996499999999999986e+01 -3.522500000000000142e+01 -8.173600000000000421e+00 7.531314999999999538e-01 4.339607847421573551e-03
-2.996399999999999864e+01 -3.444599999999999795e+01 2.849200000000000088e+01 2.910528999999999922e+00 9.785439606808417345e-02
-2.995700000000000074e+01 -3.693200000000000216e+01 -5.214400000000000368e+00 1.525875000000000092e+00 1.840000278988546134e-04
-2.995299999999999940e+01 -4.276599999999999824e+01 1.406300000000000106e+00 8.740548000000000428e+00 5.759874505485428585e-03
-2.995200000000000173e+01 -2.968199999999999861e+01 2.985600000000000165e+01 -3.915976999999999930e-01 1.736456707205706607e-01
-2.994999999999999929e+01 -2.470799999999999841e+01 -6.294999999999999929e+00 -3.518384999999999874e+00 -1.026589357247313095e-01
-2.993499999999999872e+01 -2.745100000000000051e+01 -4.642999999999999794e+00 -1.142567000000000021e+01 2.365571993725961667e-03
-2.993100000000000094e+01 -2.583099999999999952e+01 2.866700000000000159e+01 -5.306625999999999621e+00 1.729871774850289534e-01
-2.992899999999999849e+01 -4.145700000000000074e+01 -3.234899999999999998e-01 8.681459999999999511e+00 4.511171986354501999e-03
-2.992500000000000071e+01 -1.973499999999999943e+01 1.561299999999999955e+01 -5.119178999999999924e+00 1.090979614951281401e-01
-2.992099999999999937e+01 -3.806400000000000006e+01 -4.456100000000000172e+00 1.847746999999999862e-01 1.318518559692159232e-03
-2.991799999999999926e+01 -3.669899999999999807e+01 1.318800000000000061e+01 9.809798999999999936e+00 2.253906752779403447e-03
-2.990399999999999991e+01 -4.021399999999999864e+01 -2.734199999999999964e+00 1.979444000000000159e+01 3.325095330674608055e-03
-2.990299999999999869e+01 -3.649399999999999977e+01 -7.157300000000000217e+00 1.351272000000000029e+00 1.313719903708836147e-03
-2.990200000000000102e+01 -4.229500000000000171e+01 1.400699999999999967e+01 -2.657637000000000072e+01 -1.232325741194552609e-03
-2.989600000000000080e+01 -2.640299999999999869e+01 -4.711599999999999788e+00 -3.037231999999999843e+01 4.621491911616622608e-03
-2.989300000000000068e+01 -3.001800000000000068e+01 -5.888300000000000090e+00 -4.420912999999999649e+00 3.519067501252355016e-03
-2.989099999999999824e+01 -4.005499999999999972e+01 1.318299999999999983e+01 -1.643141999999999925e+01 6.810698320794244046e-03
-2.988800000000000168e+01 -2.500300000000000011e+01 -5.349199999999999733e+00 -2.026723000000000141e+01 -1.080982781734434184e-01
-2.988500000000000156e+01 -2.679899999999999949e+01 2.870799999999999841e+01 -1.465838999999999892e+00 1.731169334696315842e-01
-2.988100000000000023e+01 -1.972299999999999898e+01 8.622700000000000031e+00 -2.877006999999999870e+00 5.395687146138318513e-02
-2.988100000000000023e+01 -1.958699999999999974e+01 6.881899999999999906e+00 4.461369000000000362e+00 6.292697945411376836e-02
-2.988100000000000023e+01 -1.946900000000000119e+01 7.729000000000000092e+00 -1.129267000000000021e+00 5.811269073325077417e-02
-2.988100000000000023e+01 -1.937800000000000011e+01 6.145900000000000141e+00 1.092359000000000080e+01 2.576723142594525839e-01
-2.987800000000000011e+01 -4.114099999999999824e+01 -1.083800000000000097e+00 2.575797999999999988e+01 4.283460296937375081e-03
-2.987399999999999878e+01 -1.188100000000000023e+01 5.639999999999999458e-01 5.001782999999999646e+00 -2.479447541869117533e-01
-2.987000000000000099e+01 -4.479099999999999682e+01 5.219699999999999562e+00 2.589744000000000046e+00 8.145545007229647999e-03
-2.986899999999999977e+01 -4.195000000000000284e+01 6.120700000000000252e+00 -5.589907000000000181e+00 6.277710153941835555e-03
-2.986400000000000077e+01 -3.901700000000000301e+01 -4.350999999999999979e+00 1.678104000000000054e-02 2.349877589738023388e-03
-2.985900000000000176e+01 -2.042899999999999849e+01 1.018099999999999916e+01 -1.801582000000000017e+00 5.310477356577029268e-02
-2.985800000000000054e+01 -2.535500000000000043e+01 -4.780100000000000016e+00 -2.683754000000000062e+01 -1.122162420903594499e-01
-2.985699999999999932e+01 -2.876999999999999957e+01 -5.202300000000000146e+00 -2.031324999999999825e+00 2.874809594669192232e-03
-2.985099999999999909e+01 -1.774500000000000099e+01 5.332799999999999763e+00 -1.031073999999999913e+01 8.900224053152343273e-02
-2.984700000000000131e+01 -4.385600000000000165e+01 1.569800000000000040e+01 -3.797499999999999876e+00 5.746959631801370604e-04
-2.984199999999999875e+01 -2.307700000000000173e+01 2.287000000000000099e+01 -1.019104000000000010e+00 9.152651695426353151e-02
-2.983999999999999986e+01 -3.690100000000000335e+01 1.405599999999999916e+01 5.160277999999999921e+00 -6.722816979121339076e-03
-2.983699999999999974e+01 -2.014000000000000057e+01 1.332699999999999996e+01 -6.435908999999999658e+00 7.141200121609206364e-02
-2.982100000000000151e+01 -1.642299999999999827e+01 3.245699999999999807e+00 4.770171000000000272e-01 1.050162950515279581e-01
-2.982100000000000151e+01 -1.642299999999999827e+01 4.296299999999999564e+00 3.954003999999999852e-01 1.009420023851528014e-01
-2.980600000000000094e+01 -3.407800000000000296e+01 2.919999999999999929e+01 -2.063829000000000136e+00 1.742880656464335376e-01
-2.980399999999999849e+01 -1.655199999999999960e+01 8.057699999999999863e-01 7.662865000000000038e+00 7.596186215518128948e-03
-2.980300000000000082e+01 -4.311099999999999710e+01 1.834100000000000108e+01 -1.224071999999999960e+01 1.669437085300853885e-01
-2.980099999999999838e+01 -4.445100000000000051e+01 1.656599999999999895e+01 -2.472897999999999818e+00 1.298402057829109489e-03
-2.980099999999999838e+01 -4.442000000000000171e+01 5.664900000000000269e+00 2.346639000000000141e+00 8.174728074570532937e-03
-2.979899999999999949e+01 -3.974900000000000233e+01 2.323999999999999844e+01 -9.500515999999999295e+00 -2.897292943256689433e-03
-2.979299999999999926e+01 -3.716400000000000148e+01 2.564000000000000057e+01 5.200167999999999680e+00 9.949229070220476367e-02
-2.979299999999999926e+01 -3.690999999999999659e+01 2.653399999999999892e+01 2.929317999999999866e+00 9.921908951160848811e-02
-2.978399999999999892e+01 -2.277400000000000091e+01 2.217000000000000171e+01 2.802315000000000111e+00 9.125880412940755304e-02
-2.977899999999999991e+01 -3.765400000000000347e+01 1.059999999999999964e+01 -9.642640000000000100e+00 3.068523167180673469e-03
-2.977799999999999869e+01 -3.666299999999999670e+01 6.004699999999999704e+00 -2.731189999999999785e+00 -7.369323510652601799e-05
-2.977700000000000102e+01 -2.212900000000000134e+01 2.163200000000000145e+01 7.761279000000000039e+00 9.116696038892393994e-02
-2.977100000000000080e+01 -4.481099999999999994e+01 4.241399999999999615e+00 2.236310000000000020e+00 8.141981918895927622e-03
-2.976399999999999935e+01 -4.434100000000000108e+01 1.751800000000000068e+01 -2.719590999999999870e+00 1.695678927474286984e-03
-2.976300000000000168e+01 -4.454999999999999716e+01 3.440700000000000092e+00 4.404554000000000080e+00 7.818400106583777917e-03
-2.975199999999999889e+01 -1.607799999999999940e+01 -1.504299999999999971e+00 2.542828999999999784e+00 -2.533830106707611884e-01
-2.975100000000000122e+01 -1.675400000000000134e+01 2.484999999999999876e+00 3.326613000000000042e+00 -1.160677733358985407e-02
-2.974899999999999878e+01 -3.502300000000000324e+01 2.831700000000000017e+01 4.155420999999999587e+00 9.811708207214105137e-02
-2.974800000000000111e+01 -3.159600000000000009e+01 -7.653699999999999726e+00 -5.530433000000000376e+00 7.171789775241603146e-03
-2.974800000000000111e+01 -3.125100000000000122e+01 -6.871100000000000207e+00 -4.760667000000000115e+01 5.435365413412754712e-03
-2.974599999999999866e+01 -1.685500000000000043e+01 1.505800000000000027e+00 1.304330000000000034e+01 -1.527162979556075453e-03
-2.974599999999999866e+01 -1.522499999999999964e+01 -1.239999999999999991e-01 1.570626000000000033e+01 -2.566237815478281115e-01
-2.974299999999999855e+01 -1.271799999999999997e+01 5.473299999999999832e-01 8.104317999999999245e+00 -2.511703237362910013e-01
-2.974099999999999966e+01 -3.694800000000000040e+01 5.198999999999999844e+00 -3.749715000000000131e+00 3.965143084345311084e-04
-2.973900000000000077e+01 -2.451099999999999923e+01 2.542800000000000082e+01 1.179484000000000066e+01 9.205164466279405766e-02
-2.973600000000000065e+01 -3.731400000000000006e+01 7.077099999999999724e+00 -1.105746000000000073e+01 1.425966194070017951e-03
-2.972800000000000153e+01 -2.028200000000000003e+01 1.913599999999999923e+01 1.692506000000000066e+00 9.512578682516395490e-02
-2.972299999999999898e+01 -4.100399999999999778e+01 -1.781199999999999894e+00 2.402967999999999904e+01 4.456506262094648771e-03
-2.972100000000000009e+01 -3.802700000000000102e+01 9.600500000000000256e+00 -8.317503999999999564e+00 3.427582556287373135e-03
-2.972100000000000009e+01 -3.781799999999999784e+01 8.864499999999999602e+00 -7.434802999999999606e+00 2.841038777671227485e-03
-2.971999999999999886e+01 -3.696600000000000108e+01 6.704699999999999882e+00 -1.103866000000000014e+01 8.200449539288685386e-04
-2.971199999999999974e+01 -2.538599999999999923e+01 2.851899999999999835e+01 -1.186727999999999916e+01 1.724917291447888856e-01
-2.971000000000000085e+01 -3.632500000000000284e+01 2.734199999999999875e+01 1.490377000000000063e+00 9.883019546345930828e-02
-2.971000000000000085e+01 -1.607499999999999929e+01 -6.249699999999999811e+00 -8.885834999999999706e-01 -3.626293619278287417e-01
-2.971000000000000085e+01 -1.607499999999999929e+01 -3.790299999999999780e+00 -3.116368999999999900e+01 -2.481785559130958441e-01
-2.970700000000000074e+01 -4.196600000000000108e+01 1.825900000000000034e+01 -2.267222999999999900e+01 1.663824269648041809e-01
-2.970700000000000074e+01 -4.077499999999999858e+01 1.892299999999999827e+01 -9.978379999999999583e+00 1.650956838370118696e-01
-2.970700000000000074e+01 -4.077499999999999858e+01 2.039499999999999957e+01 -1.526556000000000068e+01 3.286850586734178510e-04
-2.970700000000000074e+01 -4.056600000000000250e+01 1.965899999999999892e+01 -1.261289999999999978e+01 1.646534874389798397e-01
-2.970299999999999940e+01 -2.351099999999999923e+01 2.389999999999999858e+01 7.194930000000000492e-01 9.117840972846112668e-02
-2.970100000000000051e+01 -4.079299999999999926e+01 5.418199999999999683e+00 -4.340117999999999654e+01 5.482979177114323879e-03
-2.968299999999999983e+01 -3.725099999999999767e+01 4.498999999999999666e+00 -1.614733999999999980e+01 9.691488628985984663e-04
-2.967500000000000071e+01 -1.559399999999999942e+01 -9.739999999999999769e-01 5.398619000000000057e+00 -2.541081451592847595e-01
-2.967500000000000071e+01 -1.559399999999999942e+01 7.259999999999999787e-01 1.263537999999999961e+01 2.027236808205457388e-02
-2.967399999999999949e+01 -3.150700000000000145e+01 3.034100000000000108e+01 -3.115921000000000163e+01 1.736135385404108111e-01
-2.967299999999999827e+01 -3.923400000000000176e+01 2.338599999999999923e+01 1.379641000000000062e-01 -3.368792737167894229e-03
-2.967000000000000171e+01 -3.289900000000000091e+01 2.980199999999999960e+01 -1.102614999999999945e+01 1.739056041041705802e-01
-2.966199999999999903e+01 -1.972899999999999920e+01 -8.917699999999999960e+00 -6.584789999999999921e+00 -2.478436293009703140e-01
-2.966100000000000136e+01 -4.216599999999999682e+01 1.331000000000000050e+01 -1.802797999999999945e+01 9.354803335102926387e-03
-2.965299999999999869e+01 -2.471900000000000119e+01 2.650199999999999889e+01 2.648449999999999971e+00 1.724837871216917395e-01
-2.965299999999999869e+01 -2.471900000000000119e+01 2.736799999999999855e+01 -5.058059999999999778e-01 1.723258331795268494e-01
-2.965099999999999980e+01 -2.421799999999999997e+01 -5.218300000000000161e+00 -8.272648999999999475e+00 -1.045720715109356574e-01
-2.964999999999999858e+01 -2.128600000000000136e+01 -9.027699999999999392e+00 -2.206001999999999796e+00 -2.493595171670360544e-01
-2.964699999999999847e+01 -3.814999999999999858e+01 1.472499999999999964e+01 -2.603254000000000179e+00 -3.827917382458083558e-03
-2.964300000000000068e+01 -3.757099999999999795e+01 8.266500000000000625e+00 -1.319963000000000086e+01 2.551330201674508781e-03
-2.964300000000000068e+01 -1.106600000000000072e+01 5.639999999999999458e-01 2.218471999999999866e+01 -2.438849213753067902e-01
-2.963599999999999923e+01 -2.021199999999999974e+01 1.213499999999999979e+01 -2.302700000000000102e+01 5.945749377740264935e-02
-2.963299999999999912e+01 -4.025699999999999790e+01 2.325100000000000122e+01 -1.062644000000000055e+01 -2.152212887129378339e-03
-2.962999999999999901e+01 -3.312899999999999778e+01 -8.688000000000000611e+00 6.761635000000000062e+00 8.186758897628616111e-03
-2.962500000000000000e+01 -4.189900000000000091e+01 1.255000000000000071e+01 -5.470150000000000290e+00 8.993836181354662035e-03
-2.962500000000000000e+01 -1.709100000000000108e+01 -7.195700000000000429e+00 5.880830999999999698e+00 -2.456808021016776977e-01
-2.962300000000000111e+01 -4.073299999999999699e+01 -2.606599999999999806e+00 1.230288000000000004e+01 4.393028389797534738e-03
-2.961400000000000077e+01 -1.337100000000000044e+01 5.634400000000000519e-01 4.573529999999999873e+00 -2.535933081111640952e-01
-2.961299999999999955e+01 -3.859100000000000108e+01 3.831100000000000172e+00 -6.623399000000000569e+01 2.942635388144624383e-03
-2.961299999999999955e+01 -3.772500000000000142e+01 3.831100000000000172e+00 -6.782349999999999568e+01 1.798339781583629992e-03
-2.961100000000000065e+01 -4.226800000000000068e+01 6.126200000000000534e-01 1.219285999999999959e+01 6.014200551029008808e-03
-2.960999999999999943e+01 -2.894999999999999929e+01 3.004899999999999949e+01 7.077383000000000202e+00 1.730550795842833167e-01
-2.959499999999999886e+01 -4.332300000000000040e+01 1.896600000000000064e+00 8.475057999999999758e-01 7.051534354780421114e-03
-2.959299999999999997e+01 -2.452100000000000080e+01 -4.518299999999999983e+00 -1.041829000000000072e+01 -1.093489700869384462e-01
-2.958699999999999974e+01 -2.375400000000000134e+01 -8.382600000000000051e+00 5.005846000000000018e+00 -8.873690801855133037e-02
-2.957799999999999940e+01 -3.596900000000000119e+01 -8.007300000000000750e+00 1.385598000000000107e+00 4.142295386552119138e-03
-2.957799999999999940e+01 -1.235999999999999943e+01 1.338999999999999968e+00 1.013385000000000069e+01 -2.517312433447870257e-01
-2.957799999999999940e+01 -1.140199999999999925e+01 -2.109999999999999931e-01 1.334478999999999971e+01 -2.439749625495318264e-01
-2.957799999999999940e+01 -1.140199999999999925e+01 1.338999999999999968e+00 3.668285000000000196e+01 -2.472066496172223293e-01
-2.957000000000000028e+01 -3.743299999999999983e+01 7.779200000000000337e+00 -1.204781000000000013e+01 2.454722334704020903e-03
-2.956599999999999895e+01 -4.264999999999999858e+01 6.178899999999999615e+00 -6.077805999999999820e+00 7.651952870178879533e-03
-2.955900000000000105e+01 -4.197500000000000142e+01 2.203699999999999903e+01 -4.241854000000000013e+00 2.503890368806336968e-04
-2.955799999999999983e+01 -3.957699999999999818e+01 4.670799999999999841e+00 -6.415697000000000116e+01 4.448737126660726529e-03
-2.955600000000000094e+01 -4.142199999999999704e+01 2.266799999999999926e+01 -8.093009000000000341e+00 -6.066924590351435937e-04
-2.955000000000000071e+01 -4.306400000000000006e+01 1.536100000000000065e+01 -1.268220999999999954e+01 7.526371714982683968e-04
-2.954899999999999949e+01 -1.835099999999999909e+01 -8.217599999999999127e+00 -1.546497000000000011e+00 -2.465302238000114943e-01
-2.954799999999999827e+01 -3.795199999999999818e+01 2.382999999999999829e+01 -8.302820999999999785e+00 -5.050742217062260085e-03
-2.954500000000000171e+01 -1.244400000000000084e+01 -2.154999999999999971e-01 1.007300000000000040e+01 -2.481955173288399874e-01
-2.953800000000000026e+01 -2.701800000000000068e+01 -4.152099999999999902e+00 -4.277713999999999572e+00 2.447724352791885195e-03
-2.953699999999999903e+01 -1.448900000000000077e+01 -1.239999999999999991e-01 8.876122000000000511e+00 -2.550999762993085285e-01
-2.953300000000000125e+01 -2.146799999999999997e+01 2.075600000000000023e+01 5.304382999999999981e+01 8.978093585509758223e-02
-2.952799999999999869e+01 -3.944200000000000017e+01 1.397499999999999964e+01 -3.104570999999999970e+01 7.775200036235547021e-03
-2.952499999999999858e+01 -3.481400000000000006e+01 -8.647000000000000242e+00 6.696492000000000555e-01 6.592666319688110683e-03
-2.952400000000000091e+01 -3.763199999999999790e+01 -4.947000000000000064e+00 2.530053000000000107e+00 1.852421980846309917e-03
-2.951000000000000156e+01 -4.168099999999999739e+01 2.120400000000000063e+01 -7.104181999999999775e+00 6.997936325063473057e-04
-2.949599999999999866e+01 -1.694800000000000040e+01 5.146300000000000097e+00 1.379631000000000052e+00 9.672836085870042955e-02
-2.949399999999999977e+01 -2.034799999999999898e+01 -9.083999999999999631e+00 -9.418993000000000393e+00 -2.482379961618533526e-01
-2.947899999999999920e+01 -1.474399999999999977e+01 -1.034899999999999931e+00 6.558031999999999861e+00 -2.521343941901443286e-01
-2.947400000000000020e+01 -4.387100000000000222e+01 1.827799999999999869e+01 -6.776754999999999640e+00 1.683899174201903270e-01
-2.946099999999999852e+01 -2.578699999999999903e+01 -4.289200000000000124e+00 -1.050826999999999956e+01 -1.144821643462376193e-01
-2.946000000000000085e+01 -2.952700000000000102e+01 -5.491699999999999804e+00 1.278478999999999866e-01 4.118803923121442875e-03
-2.945899999999999963e+01 -2.431099999999999994e+01 -6.727599999999999802e+00 -8.870337000000000360e-01 -9.676970372102981777e-02
-2.945599999999999952e+01 -1.909299999999999997e+01 1.691000000000000014e+01 -3.474572000000000216e+00 1.083852276548117610e-01
-2.945599999999999952e+01 -1.909299999999999997e+01 1.796000000000000085e+01 -2.625741000000000103e+00 9.993780595842528813e-02
-2.945299999999999940e+01 -2.749899999999999878e+01 2.897500000000000142e+01 9.472513999999999657e-01 1.725648706394221077e-01
-2.944800000000000040e+01 -1.888700000000000045e+01 5.749200000000000088e+00 1.455499999999999972e+01 8.575510934218746883e-02
-2.944200000000000017e+01 -1.650799999999999912e+01 -3.090300000000000047e+00 -9.768297000000000452e+00 -2.496335573696251697e-01
-2.944200000000000017e+01 -1.650799999999999912e+01 -2.225000000000000089e+00 6.199874000000000329e+00 -2.515643733042637331e-01
-2.943100000000000094e+01 -4.524300000000000210e+01 5.549999999999999822e+00 1.066106999999999916e+00 9.437880237056691171e-03
-2.942899999999999849e+01 -4.020900000000000318e+01 -3.381299999999999972e+00 1.767425999999999942e+00 4.342986093522460678e-03
-2.942500000000000071e+01 -3.853799999999999670e+01 -4.894499999999999851e+00 7.763507999999999520e-02 2.910461647677235232e-03
-2.941799999999999926e+01 -4.503900000000000148e+01 4.664100000000000357e+00 4.130907999999999802e+00 9.130955576102184681e-03
-2.941300000000000026e+01 -4.189399999999999835e+01 -7.962200000000000388e-01 1.848053000000000168e+01 5.958524059186762895e-03
-2.941199999999999903e+01 -3.073900000000000077e+01 3.040700000000000003e+01 -1.208760999999999974e+01 1.731793579760183277e-01
-2.940599999999999881e+01 -1.537500000000000000e+01 -1.466800000000000104e+00 3.568440999999999974e+00 -2.517025037463967996e-01
-2.940500000000000114e+01 -4.082699999999999818e+01 1.273300000000000054e+01 -6.635991999999999891e+00 8.901833859266973167e-03
-2.939399999999999835e+01 -1.544500000000000028e+01 -4.368599999999999817e+00 -5.991426999999999836e+00 -2.456196074767411086e-01
-2.939300000000000068e+01 -1.412700000000000067e+01 5.060000000000000053e-01 7.679727999999999888e+00 -2.559655610434040662e-01
-2.938599999999999923e+01 -1.480000000000000071e+01 8.184799999999999853e-01 5.807758999999999894e+00 -2.589510490661823816e-01
-2.938500000000000156e+01 -3.979200000000000159e+01 -4.054999999999999716e+00 5.327720000000000233e-01 4.069511550396132799e-03
-2.938299999999999912e+01 -2.039300000000000068e+01 9.879699999999999704e+00 -3.725592999999999932e+00 5.792262663990048466e-02
-2.937500000000000000e+01 -3.588799999999999812e+01 2.808599999999999852e+01 3.468538999999999928e-01 9.848898086424298648e-02
-2.936700000000000088e+01 -3.359899999999999665e+01 2.974399999999999977e+01 -5.060169000000000139e+00 1.737461174895386928e-01
-2.936299999999999955e+01 -1.380799999999999983e+01 -9.200000000000000400e-01 7.330047000000000423e+00 -2.505524777179340412e-01
-2.935999999999999943e+01 -4.487400000000000233e+01 6.400000000000000355e+00 3.196997999999999784e-01 9.624275074452594975e-03
-2.935900000000000176e+01 -1.378400000000000070e+01 -3.088799999999999879e-01 7.400295999999999985e+00 -2.527367379406056935e-01
-2.935600000000000165e+01 -1.969300000000000139e+01 1.471199999999999974e+01 -1.577716000000000030e+01 1.010043995583253251e-01
-2.935099999999999909e+01 -4.454699999999999704e+01 2.496399999999999952e+00 1.097803000000000084e+00 8.479334404065747705e-03
-2.935099999999999909e+01 -2.347400000000000020e+01 2.243700000000000117e+01 -2.791818999999999829e+00 8.960228376430734443e-02
-2.934600000000000009e+01 -1.974299999999999855e+01 1.289400000000000013e+01 -1.081203000000000003e+01 6.944912012732221140e-02
-2.934600000000000009e+01 -3.716299999999999670e+01 1.099699999999999989e+01 -7.022428999999999810e+00 4.264708048724969239e-03
-2.934199999999999875e+01 -1.969200000000000017e+01 1.382799999999999940e+01 -9.874402999999999153e+00 8.559037816057687986e-02
-2.932799999999999940e+01 -4.289000000000000057e+01 1.196600000000000108e+00 4.669387999999999650e+00 7.207488608274757562e-03
-2.932499999999999929e+01 -2.287399999999999878e+01 -8.831099999999999284e+00 -6.381700000000000150e-01 -2.506998387295742425e-01
-2.932400000000000162e+01 -1.973799999999999955e+01 1.131700000000000017e+01 -1.032521000000000022e+01 5.379691539423170354e-02
-2.932400000000000162e+01 -2.816600000000000037e+01 -4.694099999999999717e+00 5.011040000000000383e+00 3.623276870051211126e-03
-2.931899999999999906e+01 -3.005999999999999872e+01 3.049299999999999855e+01 -1.301617000000000024e+00 1.729229218628322573e-01
-2.931800000000000139e+01 -1.605399999999999849e+01 1.352300000000000058e+00 5.676808000000000298e+00 1.382054767693561247e-02
-2.931500000000000128e+01 -1.284699999999999953e+01 1.435799999999999965e+00 4.460409000000000290e+00 -2.539615530966910506e-01
-2.931099999999999994e+01 -1.947500000000000142e+01 1.213499999999999979e+01 -3.765438000000000063e+00 5.755092765994953424e-02
-2.930900000000000105e+01 -2.801399999999999935e+01 2.971799999999999997e+01 2.953495999999999899e+00 1.724466210648647468e-01
-2.930799999999999983e+01 -1.519100000000000072e+01 -5.061799999999999855e+00 -4.803506999999999749e+00 -3.624480532056900683e-01
-2.930099999999999838e+01 -3.061199999999999832e+01 -6.402400000000000091e+00 -4.438314000000000092e+00 6.068130513643450394e-03
-2.929899999999999949e+01 -1.544899999999999984e+01 -5.854300000000000281e+00 -9.482264000000000248e-01 -3.625753749544710636e-01
-2.929599999999999937e+01 -3.664800000000000324e+01 1.188700000000000045e+01 1.731357999999999953e+00 4.149681219973068089e-03
-2.929599999999999937e+01 -3.664800000000000324e+01 1.335899999999999999e+01 2.440343000000000018e+01 4.974040302294680492e-03
-2.929599999999999937e+01 -3.643900000000000006e+01 1.262299999999999933e+01 9.416767000000000110e+00 4.229267586143493213e-03
-2.928699999999999903e+01 -3.626599999999999824e+01 5.572000000000000064e+00 -6.800201000000000162e-02 1.071072532170597690e-03
-2.928699999999999903e+01 -3.626599999999999824e+01 6.437299999999999578e+00 -2.295684000000000058e+00 1.282669002020550347e-03
-2.928500000000000014e+01 -2.413800000000000168e+01 -7.769400000000000084e+00 4.562130999999999936e+00 -9.107966045082305229e-02
-2.928099999999999881e+01 -3.751899999999999835e+01 2.453000000000000114e+01 -9.653413000000000466e+00 -5.704212004683761363e-03
-2.927499999999999858e+01 -4.266599999999999682e+01 1.852599999999999980e+01 -5.700648000000000337e+01 1.681604865159311291e-01
-2.927499999999999858e+01 -4.126599999999999824e+01 1.852599999999999980e+01 -1.758709999999999951e+01 1.671285482806655898e-01
-2.927499999999999858e+01 -4.126599999999999824e+01 2.079200000000000159e+01 -8.824820000000000775e+00 1.050713231692274085e-03
-2.927199999999999847e+01 -4.494700000000000273e+01 3.008000000000000007e+00 -2.068591000000000069e+00 8.986027572160760341e-03
-2.926200000000000045e+01 -3.919700000000000273e+01 3.806999999999999940e+00 -6.301424000000000092e+01 4.733396090312419827e-03
-2.925000000000000000e+01 -3.655100000000000193e+01 4.766399999999999970e+00 -7.009646000000000043e+00 1.509738342241144764e-03
-2.924699999999999989e+01 -4.376400000000000290e+01 1.541900000000000048e+01 -3.231838000000000211e+00 1.212694659472139842e-02
-2.924599999999999866e+01 -2.047100000000000009e+01 1.950199999999999889e+01 8.587930999999999759e-01 8.813935692089829022e-02
-2.924500000000000099e+01 -3.865200000000000102e+01 2.377199999999999847e+01 5.277876000000000012e+00 -3.652006530171910455e-03
-2.924200000000000088e+01 -1.287400000000000055e+01 -8.635199999999999543e-01 1.564404000000000039e+01 -3.613729066880585483e-01
-2.923499999999999943e+01 -2.771799999999999997e+01 -4.210399999999999920e+00 1.068300999999999945e+01 2.680590744910211695e-03
-2.923499999999999943e+01 -2.631800000000000139e+01 -4.210399999999999920e+00 1.021636999999999906e+00 5.231643216084713721e-03
-2.923300000000000054e+01 -2.197400000000000020e+01 -8.978099999999999525e+00 -1.389812999999999965e+00 -2.496942683804387053e-01
-2.923000000000000043e+01 -1.913899999999999935e+01 -8.581200000000000827e+00 -4.331097999999999892e+00 -2.468772529036094010e-01
-2.922700000000000031e+01 -2.592800000000000082e+01 2.893499999999999872e+01 -3.720989999999999753e+01 1.717355502333609840e-01
-2.922500000000000142e+01 -1.946699999999999875e+01 1.517999999999999972e+01 -1.781361000000000061e+01 1.112213829143714194e-01
-2.922500000000000142e+01 -1.946699999999999875e+01 1.604500000000000171e+01 -1.208885000000000076e+01 1.150552702822200957e-01
-2.922299999999999898e+01 -3.219200000000000017e+01 -8.135300000000000864e+00 -3.194687000000000054e+00 8.928630657909353632e-03
-2.921999999999999886e+01 -3.230799999999999983e+01 3.018499999999999872e+01 -8.351266999999999996e+00 1.733206051908967038e-01
-2.921699999999999875e+01 -4.171000000000000085e+01 5.519700000000000273e+00 -2.694045000000000023e+00 7.662646944583408407e-03
-2.921499999999999986e+01 -4.238300000000000267e+01 1.209299999999999997e+01 -5.605259000000000214e+00 1.033760319932546662e-02
-2.921300000000000097e+01 -2.938299999999999912e+01 3.053999999999999915e+01 6.450533000000000072e+00 1.726393925484750458e-01
-2.920299999999999940e+01 -3.889399999999999835e+01 3.107000000000000206e+00 -5.514831000000000216e+01 4.431144896194351944e-03
-2.920299999999999940e+01 -3.802799999999999869e+01 3.107000000000000206e+00 -5.425330999999999904e+01 3.420434541308909997e-03
-2.920200000000000173e+01 -4.256199999999999761e+01 1.357399999999999984e+01 -1.530085000000000051e+01 1.099657279245941019e-02
-2.920200000000000173e+01 -4.256199999999999761e+01 1.443999999999999950e+01 -1.858230000000000004e+01 1.129248146636013111e-02
-2.919999999999999929e+01 -2.426000000000000156e+01 2.565099999999999980e+01 1.767384000000000066e+00 1.712644881731873181e-01
-2.919600000000000151e+01 -2.495400000000000063e+01 -4.027400000000000091e+00 -4.894046999999999592e+00 -1.117912203709014729e-01
-2.918599999999999994e+01 -1.380499999999999972e+01 1.356000000000000094e+00 1.336245000000000083e+01 -2.574488981332594961e-01
-2.917999999999999972e+01 -3.702499999999999858e+01 4.098499999999999588e+00 -2.111710000000000065e+01 2.349904698416430040e-03
-2.916900000000000048e+01 -2.461199999999999832e+01 2.796600000000000108e+01 -8.380449000000000481e+00 1.711760972128045510e-01
-2.916199999999999903e+01 -1.760699999999999932e+01 -8.051299999999999457e+00 9.794288999999999135e+00 -2.451789658575584119e-01
-2.916199999999999903e+01 -2.432199999999999918e+01 2.693499999999999872e+01 2.805565999999999893e-01 1.710638642152625122e-01
-2.916100000000000136e+01 -2.013299999999999912e+01 9.095599999999999241e+00 3.960536999999999974e+00 6.021319680400945284e-02
-2.916000000000000014e+01 -2.382100000000000151e+01 -5.650999999999999801e+00 -4.923352999999999646e+00 -9.801831684075795748e-02
-2.916000000000000014e+01 -2.382100000000000151e+01 -4.785700000000000287e+00 -7.135076999999999892e+00 -1.025454243891694983e-01
-2.915200000000000102e+01 -3.973199999999999932e+01 2.384700000000000131e+01 2.783606999999999942e+00 -2.387192378440911207e-03
-2.914900000000000091e+01 -2.679899999999999949e+01 2.891700000000000159e+01 -1.640105000000000146e+01 1.718769942022850827e-01
-2.914900000000000091e+01 -4.316700000000000159e+01 6.585300000000000153e+00 -2.427439000000000124e+00 9.187919971718435871e-03
-2.913899999999999935e+01 -1.188100000000000023e+01 -7.545100000000000140e-01 1.353139999999999965e+01 -3.612566780651371712e-01
-2.913899999999999935e+01 -1.188100000000000023e+01 1.882500000000000062e+00 1.797721999999999909e+01 -2.507839149021980352e-01
-2.913700000000000045e+01 -3.673299999999999699e+01 7.511800000000000033e+00 -9.333800000000000097e+00 2.994559461711801106e-03
-2.913599999999999923e+01 -4.018500000000000227e+01 5.036699999999999733e+00 -3.518155999999999750e+01 6.435356288925206392e-03
-2.913100000000000023e+01 -1.961799999999999855e+01 1.880999999999999872e+01 -3.056045000000000122e+00 8.818953122667325117e-02
-2.912000000000000099e+01 -4.266499999999999915e+01 1.799999999999999933e-01 1.066383000000000081e+01 7.317177071210453562e-03
-2.911499999999999844e+01 -2.334900000000000020e+01 -8.701800000000000423e+00 -5.014357000000000397e-01 -2.510500303504680786e-01
-2.909900000000000020e+01 -1.062700000000000067e+01 8.502400000000000235e-02 1.071401999999999965e+01 -2.397195719857467267e-01
-2.909900000000000020e+01 -1.062700000000000067e+01 1.042999999999999927e+00 2.621707999999999927e+01 -2.412522505587924027e-01
-2.909799999999999898e+01 -4.240500000000000114e+01 -7.432699999999999863e-01 1.233580000000000076e+01 7.020623575452336965e-03
-2.909299999999999997e+01 -3.743099999999999739e+01 2.520700000000000074e+01 -1.882686999999999999e+00 -5.987673499991953002e-03
-2.908899999999999864e+01 -3.931300000000000239e+01 -4.830000000000000071e+00 -5.561909999999999910e-01 4.301985865514404428e-03
-2.908399999999999963e+01 -2.842500000000000071e+01 3.046000000000000085e+01 3.594109999999999805e-01 1.722377592001393676e-01
-2.908399999999999963e+01 -2.304100000000000037e+01 2.173699999999999832e+01 -7.546026999999999596e+00 8.790690991467454973e-02
-2.907700000000000173e+01 -1.625600000000000023e+01 1.993300000000000072e+00 7.792016000000000275e+00 7.942235852160559745e-03
-2.907700000000000173e+01 -1.625600000000000023e+01 2.858600000000000030e+00 3.332594999999999974e+00 -2.253695910793767233e-03
-2.907300000000000040e+01 -2.376599999999999824e+01 2.513500000000000156e+01 1.386608999999999980e+00 1.707158291114405091e-01
-2.906599999999999895e+01 -1.941199999999999903e+01 6.489399999999999835e+00 1.200450000000000017e+01 2.607361573327015014e-01
-2.906599999999999895e+01 -4.311099999999999710e+01 1.866600000000000037e+01 -1.595208000000000048e+01 1.690179914112492354e-01
-2.906400000000000006e+01 -4.114500000000000313e+01 2.338100000000000023e+01 -7.409106999999999665e+00 -6.429457698755098238e-04
-2.905699999999999861e+01 -4.539800000000000324e+01 3.465599999999999792e+00 3.630212999999999912e-01 9.774143651665494897e-03
-2.905300000000000082e+01 -3.702799999999999869e+01 -5.895999999999999908e+00 1.903758999999999979e+00 2.450285863209280927e-03
-2.905300000000000082e+01 -3.681900000000000261e+01 -6.631999999999999673e+00 1.880139000000000005e+00 2.326023826185457700e-03
-2.905300000000000082e+01 -3.656499999999999773e+01 -7.525699999999999612e+00 2.026034999999999808e+00 3.659515275513290471e-03
-2.904599999999999937e+01 -3.403900000000000148e+01 -8.942999999999999616e+00 1.996337000000000028e+00 -2.164882560505568265e-02
-2.904100000000000037e+01 -4.273299999999999699e+01 1.288199999999999967e+01 -1.026617000000000068e+01 1.130327147250772234e-02
-2.903800000000000026e+01 -1.519899999999999984e+01 -1.770000000000000018e+00 7.021702000000000332e+00 -2.496786318807192318e-01
-2.903800000000000026e+01 -1.433300000000000018e+01 -1.770000000000000018e+00 1.072558000000000078e+01 -2.480210618302822745e-01
-2.903800000000000026e+01 -1.328299999999999947e+01 -1.770000000000000018e+00 1.447334000000000032e+01 -3.616309570745507296e-01
-2.903800000000000026e+01 -4.145600000000000307e+01 -2.237299999999999844e+00 1.144430000000000014e+01 6.259479623204484630e-03
-2.903300000000000125e+01 -2.353300000000000125e+01 2.350300000000000011e+01 -7.704879000000000033e-01 8.854342061554476562e-02
-2.903099999999999881e+01 -1.979400000000000048e+01 8.254300000000000637e+00 2.613214999999999932e+01 6.271705220652520896e-02
-2.903099999999999881e+01 -3.437400000000000233e+01 2.967899999999999849e+01 -5.897173000000000442e+00 9.757759375281016556e-02
-2.902700000000000102e+01 -2.206500000000000128e+01 2.104500000000000171e+01 -1.005718000000000067e+01 8.645981346203382434e-02
-2.902100000000000080e+01 -3.890699999999999648e+01 1.446400000000000041e+01 -1.706734000000000151e+01 9.323383620633568167e-03
-2.902100000000000080e+01 -3.750699999999999790e+01 1.446400000000000041e+01 6.804085999999999856e+00 7.900726464875724997e-03
-2.901000000000000156e+01 -3.812899999999999778e+01 9.542099999999999582e+00 -7.292453000000000074e+00 6.246240721307587569e-03
-2.901000000000000156e+01 -1.648300000000000054e+01 -6.888399999999999856e+00 4.987767999999999979e+00 -3.627270089892072891e-01
-2.901000000000000156e+01 -3.638300000000000267e+01 2.764499999999999957e+01 -3.732959000000000138e-01 9.872061553476392526e-02
-2.901000000000000156e+01 -1.580799999999999983e+01 -3.357699999999999907e+00 -3.762496000000000063e+00 -2.470368903239106295e-01
-2.901000000000000156e+01 -1.580799999999999983e+01 -1.957699999999999996e+00 3.493698000000000192e+00 -2.502098214031870937e-01
-2.900900000000000034e+01 -1.591799999999999926e+01 -6.613199999999999967e+00 1.136325999999999947e+00 -3.626901322181731446e-01
-2.900900000000000034e+01 -1.964300000000000068e+01 7.260900000000000354e+00 5.854071000000000247e+00 2.626664667902518513e-01
-2.900700000000000145e+01 -4.083400000000000318e+01 1.922599999999999909e+01 -8.784988000000000241e+00 1.674414915067030662e-01
-2.900700000000000145e+01 -4.083400000000000318e+01 2.009199999999999875e+01 -7.800447000000000131e+00 1.702301552915683972e-03
-2.900499999999999901e+01 -3.266799999999999926e+01 -8.307000000000000384e+00 2.068233000000000033e+01 -2.151344390174179250e-02
-2.900400000000000134e+01 -4.463100000000000023e+01 1.704799999999999827e+01 -1.193483999999999945e+01 1.366613672913307223e-02
-2.900400000000000134e+01 -4.440400000000000347e+01 1.624899999999999878e+01 -2.643603000000000147e+00 1.333006826019844313e-02
-2.900400000000000134e+01 -4.440400000000000347e+01 1.784700000000000131e+01 -7.779205000000000148e+00 1.700897517896087785e-01
-2.900300000000000011e+01 -2.377799999999999869e+01 2.433200000000000074e+01 7.055010000000000447e-01 1.706410973940361286e-01
-2.900000000000000000e+01 -4.530400000000000205e+01 2.564000000000000057e+00 2.546884999999999843e-01 9.621972987910029293e-03
-2.898999999999999844e+01 -1.436800000000000033e+01 1.309399999999999897e+00 8.613640999999999437e+00 -2.592250076139577253e-01
-2.898699999999999832e+01 -3.694700000000000273e+01 2.624899999999999878e+01 1.819795999999999969e+00 9.918836542072555218e-02
-2.898400000000000176e+01 -3.783800000000000097e+01 -5.281100000000000350e+00 1.358173999999999992e+00 3.300517079929001125e-03
-2.897100000000000009e+01 -4.196600000000000108e+01 1.846799999999999997e+01 -3.369418000000000291e+01 1.686696228550743359e-01
-2.897100000000000009e+01 -1.779799999999999827e+01 5.471000000000000085e+00 2.203323999999999838e+00 9.559242491264578756e-02
-2.897100000000000009e+01 -1.635200000000000031e+01 4.664699999999999847e+00 6.271728000000000414e+00 1.068749249994499773e-01
-2.897100000000000009e+01 -1.609799999999999898e+01 3.770999999999999908e+00 1.031401000000000012e+00 1.109750109633856618e-01
-2.896999999999999886e+01 -4.153900000000000148e+01 1.206799999999999962e+01 -6.847914000000000279e+00 1.051454164911304681e-02
-2.896000000000000085e+01 -4.232699999999999818e+01 2.154299999999999926e+01 -3.607889000000000124e+00 1.661920042858374292e-03
-2.896000000000000085e+01 -4.232699999999999818e+01 2.248300000000000054e+01 -3.386012000000000022e+00 9.979842381787086807e-04
-2.895700000000000074e+01 -3.605299999999999727e+01 2.845200000000000173e+01 -1.501376999999999962e+00 9.846462377046785730e-02
-2.895100000000000051e+01 -1.611100000000000065e+01 -2.657700000000000173e+00 -1.442668000000000061e+00 -2.488974805772274923e-01
-2.894300000000000139e+01 -3.751299999999999812e+01 8.569900000000000517e+00 -8.268594999999999473e+00 5.313951770446719361e-03
-2.893700000000000117e+01 -4.497500000000000142e+01 1.804000000000000048e+00 4.412479000000000262e-01 9.404886774399094651e-03
