3.750200000000000244e+01 2.275600000000000023e+01 -2.933299999999999841e+01 -2.015523999999999916e+01 -2.924960274412886085e-01
3.750900000000000034e+01 -5.143900000000000361e+00 -3.965899999999999892e+01 -8.510813999999999879e+00 -2.770347997701735204e-02
3.750900000000000034e+01 -3.743900000000000006e+00 -3.965899999999999892e+01 -4.799183000000000199e+00 -1.989910375451673652e-01
3.750999999999999801e+01 -1.362400000000000000e-01 -4.257399999999999807e+01 -7.338333999999999691e+00 -2.083845591286360432e-01
3.751599999999999824e+01 2.934900000000000020e+01 -3.790500000000000114e+01 5.396995000000000431e+00 -1.875810174808204556e-01
3.751899999999999835e+01 -6.637999999999999901e+00 -4.029899999999999949e+01 -2.766205000000000069e+01 9.393251923863563113e-02
3.752000000000000313e+01 1.602799999999999869e+01 -2.974699999999999989e+01 9.684268000000000320e-01 -2.109749607444059705e-01
3.752000000000000313e+01 1.628200000000000003e+01 -2.885300000000000153e+01 1.923094999999999999e+00 -2.114291643928959130e-01
3.752300000000000324e+01 6.583599999999999675e+00 -2.983399999999999963e+01 3.689065999999999956e+00 -3.125788901070217785e-01
3.752400000000000091e+01 -9.794300000000000228e-01 -4.171900000000000119e+01 -6.612438000000000038e+00 -2.069159231229005802e-01
3.752400000000000091e+01 -2.281899999999999906e+01 -3.125900000000000034e+01 -1.013679999999999914e+01 -1.536436012613431601e-01
3.752700000000000102e+01 1.015600000000000058e+01 -4.867000000000000171e+01 -1.672962999999999978e+00 -9.023759025568092729e-02
3.752799999999999869e+01 3.130000000000000071e+01 -3.146199999999999974e+01 -7.309179000000000315e+00 -1.754922801398187959e-01
3.753099999999999881e+01 2.401699999999999946e+01 -2.977899999999999991e+01 -5.203145000000000131e+00 -2.899350925396214085e-01
3.753699999999999903e+01 2.527400000000000091e+01 -2.908599999999999852e+01 1.522172000000000081e+00 -1.829134373367537481e-01
3.754299999999999926e+01 -1.539899999999999913e+01 -3.399499999999999744e+01 1.237746999999999931e+00 1.361176308264795687e-01
3.754399999999999693e+01 2.666300000000000026e+01 -2.812500000000000000e+01 5.265614000000000239e+00 -7.611721404585387873e-02
3.754500000000000171e+01 7.339999999999999858e+00 -4.509499999999999886e+01 -4.612104999999999677e+00 -9.148164131221619977e-02
3.755100000000000193e+01 7.858299999999999841e+00 -4.104800000000000182e+01 4.209582999999999942e+01 -9.087641997358661405e-02
3.755799999999999983e+01 8.569800000000000750e+00 -4.711500000000000199e+01 -2.324316000000000049e+00 -9.085435335367215981e-02
3.756099999999999994e+01 1.988800000000000168e+01 -2.667699999999999960e+01 1.603629000000000027e-01 -1.882667096017226482e-01
3.756199999999999761e+01 -1.574000000000000021e+01 -4.578199999999999648e+01 -7.591783999999999644e+00 1.053723413979222451e-01
3.756400000000000006e+01 -2.605900000000000105e+01 -4.841700000000000159e+01 -5.862969999999999793e+00 -1.732727381854728688e-01
3.756400000000000006e+01 -1.005700000000000038e+01 -3.260300000000000153e+01 1.017357999999999985e+00 6.036434440205117047e-02
3.756600000000000250e+01 8.926299999999999457e+00 -4.784700000000000131e+01 8.682157000000000069e-02 -9.071583302243416136e-02
3.757099999999999795e+01 -1.842299999999999827e+01 -3.315800000000000125e+01 -1.657667000000000002e+01 -1.801257812223988064e-01
3.757200000000000273e+01 -3.556600000000000250e+01 -4.021000000000000085e+01 1.241295000000000037e+00 -2.609247466792931069e-01
3.757300000000000040e+01 -4.188699999999999868e+00 -3.040399999999999991e+01 -4.121101999999999599e+00 -3.026316108238769620e-01
3.757500000000000284e+01 -2.667099999999999937e+01 -4.840100000000000335e+01 -6.196717999999999726e+00 -1.729677434973110883e-01
3.757600000000000051e+01 3.288499999999999801e+01 -3.196600000000000108e+01 -3.277388000000000190e+00 -1.748297308151912088e-01
3.757699999999999818e+01 3.417499999999999716e+01 -3.136199999999999832e+01 5.450148000000000081e+01 -7.650123626882046612e-02
3.757699999999999818e+01 3.569500000000000028e+01 -3.136199999999999832e+01 -1.011486000000000018e+01 -7.653739464106526502e-02
3.758200000000000074e+01 3.575900000000000034e+01 -3.431700000000000017e+01 -5.732355000000000089e+00 -1.693229676853475474e-01
3.758700000000000330e+01 -3.414800000000000324e+01 -5.123299999999999699e+01 -2.342497000000000051e-01 -1.707503024640061040e-01
3.758800000000000097e+01 7.160499999999999865e+00 -2.896000000000000085e+01 7.270672000000000246e+00 -2.777449663128503943e-01
3.758899999999999864e+01 -2.150300000000000011e+01 -3.110900000000000176e+01 -3.203519000000000005e+01 -1.525928742691048945e-01
3.759499999999999886e+01 2.497100000000000009e+01 -2.978600000000000136e+01 -9.295322999999999780e-01 -1.798663378649759392e-01
3.759899999999999665e+01 -1.309299999999999997e+01 -4.416899999999999693e+01 2.289793999999999841e+01 9.979684000228471186e-02
3.760000000000000142e+01 1.864300000000000068e+01 -4.479099999999999682e+01 -2.680034000000000027e+00 -1.883285740170552447e-01
3.760000000000000142e+01 2.011899999999999977e+01 -4.547299999999999898e+01 -3.943677999999999795e+00 -1.879796110548740407e-01
3.760099999999999909e+01 1.666199999999999903e+01 -4.457099999999999795e+01 1.145691000000000059e+01 -9.569762687654657929e-02
3.760099999999999909e+01 1.806200000000000117e+01 -4.457099999999999795e+01 -1.991616999999999971e+00 -1.884655309163339454e-01
3.760099999999999909e+01 1.986100000000000065e+01 -2.792500000000000071e+01 2.812496999999999914e-01 -1.973388386164413866e-01
3.761899999999999977e+01 9.522000000000000242e+00 -2.965099999999999980e+01 1.759097999999999828e+01 -2.980580515749391979e-01
3.762199999999999989e+01 -2.858500000000000085e+01 -4.937500000000000000e+01 -5.255122000000000071e+00 -1.722352077374302015e-01
3.762700000000000244e+01 3.225900000000000212e+00 -4.391899999999999693e+01 -6.302651000000000003e+00 -2.115215637523759074e-01
3.763000000000000256e+01 -3.526299999999999812e+01 -3.950999999999999801e+01 -1.979872999999999994e+00 -2.606703999160095431e-01
3.763000000000000256e+01 -1.973499999999999943e+01 -4.523100000000000165e+01 -8.321452000000000737e+00 -1.775956342828632906e-01
3.763000000000000256e+01 -5.910999999999999588e+00 -3.055499999999999972e+01 1.285904999999999987e+01 4.650749059294657928e-02
3.763300000000000267e+01 -1.367299999999999960e+00 -4.117300000000000182e+01 -5.896341999999999750e+00 -2.056917670780498142e-01
3.763700000000000045e+01 3.509300000000000352e+01 -3.540400000000000347e+01 -2.145964000000000027e+01 -1.683841163659199058e-01
3.763799999999999812e+01 -7.749799999999999578e+00 -3.171999999999999886e+01 3.131097000000000108e+01 -5.885901700130297121e-02
3.764000000000000057e+01 1.334999999999999964e+01 -4.734799999999999898e+01 -1.142993000000000059e+01 -9.265023587805591709e-02
3.764300000000000068e+01 -3.226100000000000279e+01 -3.545300000000000296e+01 -9.108515000000000583e+00 -2.592779119585661429e-01
3.764699999999999847e+01 -3.073300000000000054e+01 -3.530599999999999739e+01 -1.347415999999999947e+01 -2.599196662564089433e-01
3.764999999999999858e+01 1.501500000000000057e+00 -4.359199999999999875e+01 -6.635790000000000077e+00 -2.099397644631613158e-01
3.765100000000000335e+01 -3.679999999999999716e+01 -4.813100000000000023e+01 -2.228508000000000155e+00 -2.626355220623691755e-01
3.765100000000000335e+01 2.078099999999999881e+01 -2.365099999999999980e+01 1.290640999999999927e+01 -1.923361590099207097e-01
3.765100000000000335e+01 2.091100000000000136e+01 -2.800300000000000011e+01 -6.437961999999999740e+00 -2.001105961830183522e-01
3.765100000000000335e+01 2.091100000000000136e+01 -2.660300000000000153e+01 5.370351999999999570e+00 -1.706885881012529249e-01
3.765100000000000335e+01 -2.021000000000000085e+01 -3.192800000000000082e+01 -6.684815000000000396e+01 -1.613543254611993216e-01
3.765500000000000114e+01 -1.300300000000000011e+01 -3.750800000000000267e+01 -1.859627000000000052e+01 9.672819417289682531e-02
3.765699999999999648e+01 3.199599999999999866e+01 -3.164499999999999957e+01 -7.231025999999999954e+00 -1.754167258380729955e-01
3.765800000000000125e+01 1.972100000000000009e+01 -2.727599999999999980e+01 3.311329999999999885e+00 -1.927358005230538907e-01
3.765800000000000125e+01 -1.854299999999999926e+01 -4.554800000000000182e+01 -4.707676000000000194e+00 1.104404125749369053e-01
3.765899999999999892e+01 9.153100000000000236e+00 -2.912399999999999878e+01 1.101069000000000031e+01 -2.929688933991646538e-01
3.765999999999999659e+01 1.422899999999999920e+01 -3.306900000000000261e+01 -6.134298000000000251e+00 -1.963809215357633919e-01
3.765999999999999659e+01 1.562899999999999956e+01 -3.306900000000000261e+01 -7.375656999999999908e-01 -1.975873620899644967e-01
3.767099999999999937e+01 -2.754700000000000060e+01 -4.852199999999999847e+01 -3.719584999999999919e+00 -1.725626212560343320e-01
3.767399999999999949e+01 2.488899999999999935e+01 -3.945300000000000296e+01 -7.085415000000000241e+00 -1.884934961224540850e-01
3.767499999999999716e+01 -8.887600000000000833e+00 -3.237400000000000233e+01 -6.250061999999999562e-01 6.168078434226002132e-02
3.767600000000000193e+01 2.851099999999999923e+01 -2.976500000000000057e+01 -9.471003000000000061e-01 -1.798420108663830175e-01
3.767600000000000193e+01 3.062600000000000122e+01 -3.112099999999999866e+01 -9.586539000000000144e+00 -1.763788815485052008e-01
3.769100000000000250e+01 -8.163999999999999702e+00 -4.119100000000000250e+01 -1.165377999999999936e+01 9.094310922851697732e-02
3.769700000000000273e+01 -3.268299999999999983e+01 -5.293999999999999773e+01 -2.247297999999999796e+00 -1.713646867977932919e-01
3.769700000000000273e+01 -3.113299999999999912e+01 -5.293999999999999773e+01 -3.089636000000000049e+00 -1.717872335361614600e-01
3.769800000000000040e+01 -1.185399999999999920e+01 -4.459499999999999886e+01 -6.848766999999999605e+00 9.651536285183658082e-02
3.769800000000000040e+01 -1.050399999999999956e+01 -4.522200000000000131e+01 -8.694591000000000847e+00 9.381635826436142411e-02
3.769800000000000040e+01 -9.211000000000000298e+00 -4.450099999999999767e+01 -1.201717999999999975e+01 9.048703597324897485e-02
3.769800000000000040e+01 -9.095100000000000406e+00 -4.290400000000000347e+01 -4.678294000000000352e+01 9.277697210854500554e-02
3.769800000000000040e+01 -8.983999999999999986e+00 -4.370199999999999818e+01 -5.249300000000000210e+01 9.330563396871294213e-02
3.769800000000000040e+01 -8.886100000000000776e+00 -4.216799999999999926e+01 -3.078654999999999831e+01 9.209760185501758567e-02
3.770000000000000284e+01 -1.532300000000000040e+01 -3.601200000000000045e+01 -9.453555999999999626e-01 1.204420913916453839e-01
3.770000000000000284e+01 -1.532300000000000040e+01 -3.514600000000000080e+01 8.730733999999999995e+00 1.245436087714640178e-01
3.770199999999999818e+01 2.983800000000000097e+01 -3.061700000000000088e+01 -3.375068000000000179e+00 -1.775061922587168883e-01
3.770700000000000074e+01 -2.245700000000000074e+01 -4.595700000000000074e+01 -3.188291999999999859e+01 -1.753700803323295365e-01
3.771099999999999852e+01 1.938599999999999923e+01 -2.559199999999999875e+01 1.656897000000000064e+00 -1.744248444026572920e-01
3.771099999999999852e+01 2.230600000000000094e+01 -2.466199999999999903e+01 9.585262000000000171e+00 -1.834053453416809032e-01
3.771600000000000108e+01 1.153500000000000014e+01 -3.029299999999999926e+01 6.238421000000000305e+01 -1.966927735428856683e-01
3.771600000000000108e+01 1.298099999999999987e+01 -3.109900000000000020e+01 -1.002838000000000029e+01 -1.994317703296818178e-01
3.771600000000000108e+01 1.332600000000000051e+01 -3.188200000000000145e+01 -2.040705000000000169e+01 -1.977267724606298904e-01
3.771699999999999875e+01 -2.787099999999999866e+01 -4.927900000000000347e+01 -3.971052999999999944e+00 -1.725129938993602008e-01
3.772200000000000131e+01 2.785900000000000176e+01 -2.892099999999999937e+01 1.779643999999999948e-01 -7.621585628124515066e-02
3.772500000000000142e+01 1.425500000000000078e+01 -4.629599999999999937e+01 -8.970444999999999780e+00 -1.880658139507939419e-01
3.773299999999999699e+01 -2.593599999999999994e+01 -3.262700000000000244e+01 8.093823000000000434e+00 -2.600725552917863559e-01
3.774000000000000199e+01 -2.664099999999999913e+00 -4.024199999999999733e+01 -3.823878000000000110e+00 -2.017531699302069492e-01
3.774399999999999977e+01 1.149099999999999966e+01 -3.987199999999999989e+01 2.945885000000000176e+01 -1.882138656718485292e-01
3.774399999999999977e+01 1.149099999999999966e+01 -3.900699999999999790e+01 3.189324999999999832e+01 -1.883996947156517665e-01
3.774600000000000222e+01 2.215299999999999869e+01 -4.546699999999999875e+01 -9.060093000000000174e+00 -1.877990773347263942e-01
3.775000000000000000e+01 -2.121099999999999852e+01 -4.524799999999999756e+01 -2.485145999999999944e+01 -1.763802955666660677e-01
3.775300000000000011e+01 1.553800000000000026e+01 -4.573400000000000176e+01 -1.328324999999999978e+00 -1.883909905040970778e-01
3.776500000000000057e+01 -2.888299999999999912e+01 -3.458899999999999864e+01 -2.551470999999999822e+00 -2.601879545252949733e-01
3.776899999999999835e+01 5.774000000000000021e+00 -4.428099999999999881e+01 -1.484826999999999941e+01 -2.095683979700213584e-01
3.777199999999999847e+01 -2.453099999999999881e+01 -4.806099999999999994e+01 -2.654448999999999970e+01 -1.740394919189135470e-01
3.777400000000000091e+01 -1.502399999999999913e+01 -3.677499999999999858e+01 -1.045545000000000080e+01 1.142147706852976591e-01
3.777600000000000335e+01 2.056800000000000139e+01 -2.727599999999999980e+01 2.199136999999999897e+00 -1.954834543176043604e-01
3.778000000000000114e+01 1.035800000000000054e+01 -3.824799999999999756e+01 3.079044000000000025e+01 -1.878330792092872681e-01
3.778000000000000114e+01 3.394400000000000261e+01 -3.709100000000000108e+01 -4.441466000000000136e+00 -1.669534370653160682e-01
3.778399999999999892e+01 -3.689300000000000068e+01 -4.218399999999999750e+01 -2.053593999999999919e+00 -2.610719316818487234e-01
3.778399999999999892e+01 -3.663900000000000290e+01 -4.128999999999999915e+01 -4.170742999999999867e+00 -2.608295061968352035e-01
3.778699999999999903e+01 1.001999999999999957e+01 -3.017699999999999960e+01 1.416887000000000008e+01 -1.903394462198450821e-01
3.778699999999999903e+01 1.624599999999999866e+01 -3.071799999999999997e+01 1.773387999999999964e+00 -2.045160867606242994e-01
3.778999999999999915e+01 2.980499999999999816e-01 -4.302799999999999869e+01 -6.860428999999999888e+00 -2.082338791643826847e-01
3.779299999999999926e+01 2.333599999999999852e+01 -3.002400000000000091e+01 -1.207473000000000063e+01 -2.887815085804119608e-01
3.780100000000000193e+01 -3.001500000000000057e+01 -3.534700000000000131e+01 -2.563476999999999961e+01 -2.601532855854160053e-01
3.780299999999999727e+01 -2.359100000000000108e+01 -4.681400000000000006e+01 -2.344362999999999886e+01 -1.745684488240670240e-01
3.780799999999999983e+01 1.369599999999999973e+01 -4.661699999999999733e+01 -1.590849000000000046e+01 -1.878577499079458757e-01
3.781099999999999994e+01 2.061100000000000065e+01 -4.556700000000000017e+01 -4.873782000000000281e+00 -1.880547970968886873e-01
3.781199999999999761e+01 7.772599999999999731e+00 -4.579500000000000171e+01 1.405709000000000097e+00 -9.115105196796362275e-02
3.781199999999999761e+01 8.117599999999999483e+00 -4.657699999999999818e+01 -9.811438000000000104e-01 -9.098999958153988765e-02
3.781199999999999761e+01 -4.443900000000000183e+00 -3.960099999999999909e+01 -5.682335000000000136e+00 -2.309543235043478096e-02
3.781600000000000250e+01 1.880900000000000105e+01 -2.717000000000000171e+01 3.475572999999999801e+00 -1.893186542299155339e-01
3.781700000000000017e+01 5.393600000000000172e+00 -3.066300000000000026e+01 -1.239366000000000057e+01 -3.241370124200483316e-01
3.781799999999999784e+01 -3.377400000000000091e+01 -5.209799999999999898e+01 -1.639829999999999899e+00 -1.709704134189687363e-01
3.781900000000000261e+01 1.947100000000000009e+01 -2.460200000000000031e+01 1.151328999999999958e+01 -1.796337275971548464e-01
3.781900000000000261e+01 2.222100000000000009e+01 -2.565200000000000102e+01 9.568251999999999313e+00 -1.826939784540940193e-01
3.782000000000000028e+01 2.864900000000000091e+01 -3.796399999999999864e+01 5.879144000000000148e+00 -1.880828060016498660e-01
3.782699999999999818e+01 -2.351899999999999835e+01 -3.131700000000000017e+01 -1.489000000000000057e+01 -1.545867256137559154e-01
3.782800000000000296e+01 2.721600000000000108e+01 -3.871999999999999886e+01 -2.212038999999999866e+00 -1.882736209965291674e-01
3.782800000000000296e+01 -3.525300000000000011e+01 -4.935199999999999676e+01 8.734189999999999898e+00 -1.701213402088491700e-01
3.783200000000000074e+01 2.243599999999999994e+01 -2.394900000000000162e+01 8.585055000000000547e+00 -1.854603404961079893e-01
3.783400000000000318e+01 -2.995400000000000063e+01 -5.007399999999999807e+01 -2.875227000000000199e+00 -1.718038964523676271e-01
3.784499999999999886e+01 -3.465100000000000335e+01 -5.075900000000000034e+01 5.685858999999999774e-01 -1.705375916222326427e-01
3.784599999999999653e+01 2.571000000000000085e+01 -3.881600000000000250e+01 -2.551483000000000168e+00 -1.886873902230499778e-01
3.784799999999999898e+01 -1.443900000000000006e+01 -3.745700000000000074e+01 -3.279755999999999716e+01 1.072536973353245965e-01
3.785600000000000165e+01 9.396000000000000796e+00 -4.860699999999999932e+01 1.666547999999999874e+01 -9.047868150532502318e-02
3.785600000000000165e+01 1.091600000000000037e+01 -4.860699999999999932e+01 -5.527529999999999610e+00 -1.865199026824199413e-01
3.786399999999999721e+01 3.228799999999999670e+01 -3.719899999999999807e+01 4.819666000000000228e-01 -1.700286178965692563e-01
3.786699999999999733e+01 3.616499999999999915e+01 -3.306199999999999761e+01 -3.908230999999999966e+01 -1.705349509646288952e-01
3.786699999999999733e+01 3.616499999999999915e+01 -3.212199999999999989e+01 -6.075048999999999921e+01 -7.652995523485481288e-02
3.786699999999999733e+01 -1.103899999999999970e+01 -3.302300000000000324e+01 -1.636328999999999922e+00 5.958032916619894481e-02
3.786699999999999733e+01 -9.356999999999999318e+00 -3.254500000000000171e+01 -1.391645999999999939e+00 5.657043245604918141e-02
3.786800000000000210e+01 4.006300000000000416e+00 -3.093799999999999883e+01 -2.216281999999999996e+01 -3.334127575686761658e-01
3.786899999999999977e+01 8.372600000000000264e+00 -3.789300000000000068e+01 1.682797000000000054e+01 -1.874059813264506436e-01
3.786899999999999977e+01 9.772600000000000620e+00 -3.789300000000000068e+01 2.381680000000000064e+01 -1.842520618259368137e-01
3.787500000000000000e+01 -1.912300000000000111e+01 -3.310000000000000142e+01 -1.950339999999999918e+01 -1.743534752905623597e-01
3.787500000000000000e+01 -1.772299999999999898e+01 -3.310000000000000142e+01 3.001421999999999812e+00 -1.845935579349144984e-01
3.787800000000000011e+01 9.198299999999999699e+00 -4.169100000000000250e+01 3.826993999999999829e+01 -1.873315118265547752e-01
3.787800000000000011e+01 1.006400000000000006e+01 -4.169100000000000250e+01 3.632473999999999847e+01 -1.860931199863013474e-01
3.788000000000000256e+01 -2.851300000000000168e+01 -3.376599999999999824e+01 -1.256645000000000012e+00 -2.591112325467902489e-01
3.788100000000000023e+01 2.395200000000000173e+01 -4.417799999999999727e+01 -1.158474000000000004e+01 -1.878359790647174399e-01
3.788199999999999790e+01 3.120200000000000173e+01 -3.736699999999999733e+01 -8.581844999999999501e+00 -1.695248705775674880e-01
3.788499999999999801e+01 2.442500000000000071e+01 -3.035200000000000031e+01 8.690164000000000222e-02 -2.867921949306718732e-01
3.789099999999999824e+01 -2.593999999999999861e+00 -3.024200000000000088e+01 -1.575604000000000049e+01 -2.818894997401798497e-01
3.789099999999999824e+01 -1.655999999999999917e+00 -3.024200000000000088e+01 -2.018008999999999986e+01 -2.895970837763574002e-01
3.789200000000000301e+01 -3.025700000000000145e+01 -5.077400000000000091e+01 -6.557566999999999702e+00 -1.717945342916805118e-01
3.789300000000000068e+01 1.193999999999999950e+01 -4.778000000000000114e+01 -7.160715999999999859e+00 -1.856278090807387537e-01
3.789500000000000313e+01 -3.722800000000000153e+01 -4.438799999999999812e+01 -6.622696999999999612e+00 -2.615702570706942010e-01
3.789699999999999847e+01 2.114199999999999946e+01 -2.317399999999999949e+01 1.537096999999999980e+01 -2.061965575334983036e-01
3.789699999999999847e+01 2.210000000000000142e+01 -2.317399999999999949e+01 2.241860000000000142e+01 -2.165057494253936898e-01
3.789699999999999847e+01 2.443499999999999872e+01 -4.103699999999999903e+01 -2.603534000000000148e+01 -1.884176226357558159e-01
3.789999999999999858e+01 1.907199999999999918e+01 -2.642999999999999972e+01 2.724921000000000149e+00 -1.831848149108004642e-01
3.790599999999999881e+01 3.493500000000000227e+01 -3.129899999999999949e+01 -4.693296000000000134e+00 -7.651197361002178010e-02
3.790800000000000125e+01 -3.702400000000000091e+01 -4.350200000000000244e+01 -3.730849000000000082e+00 -2.613737068019063026e-01
3.791299999999999670e+01 -2.227100000000000080e+01 -3.114099999999999824e+01 -3.257542000000000115e+01 -1.532901507314758383e-01
3.791299999999999670e+01 2.598699999999999832e+01 -2.886700000000000088e+01 -6.788336000000000370e-01 -1.849841966226632994e-01
3.791499999999999915e+01 1.813200000000000145e+01 -2.750000000000000000e+01 7.044786000000000215e+00 -1.910564334570972467e-01
3.792099999999999937e+01 -2.897200000000000131e+01 -5.022099999999999653e+01 -5.193124000000000073e+00 -1.721763397219027714e-01
3.792499999999999716e+01 -3.512400000000000233e+01 -3.785499999999999687e+01 -3.307266999999999957e+00 -2.595799787784057733e-01
3.792600000000000193e+01 -2.715299999999999869e+01 -3.285000000000000142e+01 6.145260999999999640e+00 -2.585824870902381778e-01
3.792600000000000193e+01 -1.642099999999999937e+01 -3.274699999999999989e+01 6.576487000000000194e+01 -1.947901702700517990e-01
3.792900000000000205e+01 8.292999999999999261e+00 -2.898100000000000165e+01 1.058202999999999960e+01 -2.818954023305923484e-01
3.792999999999999972e+01 -5.904300000000000104e+00 -4.001899999999999835e+01 -1.238883000000000045e+01 -3.567169611330694295e-02
3.793599999999999994e+01 2.216600000000000037e+01 -2.899599999999999866e+01 -1.010541000000000054e+02 -2.913695555754881039e-01
3.793599999999999994e+01 1.036700000000000088e+01 -4.099099999999999966e+01 3.377291999999999916e+01 -1.852384597835963764e-01
3.793699999999999761e+01 2.515299999999999869e+01 -4.325000000000000000e+01 -2.026182999999999979e+01 -1.878402469851671308e-01
3.793699999999999761e+01 2.515299999999999869e+01 -4.231000000000000227e+01 -3.004181000000000168e+01 -1.880138048322287925e-01
3.793900000000000006e+01 1.644000000000000128e+01 -3.164099999999999824e+01 1.003176000000000068e-01 -2.004182729671410423e-01
3.794100000000000250e+01 -3.727000000000000313e+01 -4.737100000000000222e+01 -7.581349999999999589e+00 -2.622104352768278579e-01
3.794200000000000017e+01 2.445599999999999952e+01 -4.015299999999999869e+01 -2.013693999999999917e+01 -1.887201581699150810e-01
3.794299999999999784e+01 -8.362399999999999833e-01 -4.230700000000000216e+01 -5.458236999999999561e+00 -2.060821757990374259e-01
3.794500000000000028e+01 1.975000000000000089e+00 -3.189399999999999835e+01 -1.138457999999999970e+01 -3.371934030421215867e-01
3.794599999999999795e+01 8.150699999999999612e-01 -3.109199999999999875e+01 -6.978148000000000195e+01 -3.236897544438620544e-01
3.795300000000000296e+01 3.822700000000000209e+00 -4.458299999999999841e+01 -5.860833999999999655e+00 -2.104046080688228293e-01
3.795499999999999829e+01 -1.774899999999999878e+01 -4.586599999999999966e+01 -1.402809000000000061e+01 1.082245747997985508e-01
3.795499999999999829e+01 6.092699999999999783e+00 -3.023100000000000165e+01 -5.295650000000000190e+00 -3.150424077154451719e-01
3.795799999999999841e+01 -2.708200000000000074e+01 -4.927499999999999858e+01 -3.339561999999999919e+00 -1.728385112574784555e-01
3.796000000000000085e+01 -2.649099999999999966e+01 -4.890800000000000125e+01 -3.957489999999999952e+00 -1.730735638213208583e-01
3.796000000000000085e+01 -2.562600000000000122e+01 -4.890800000000000125e+01 -4.455370000000000275e+00 -1.734893684674212733e-01
3.796099999999999852e+01 1.250000000000000000e+01 -4.715100000000000335e+01 -1.483301999999999943e+01 -1.850078498519875936e-01
3.796300000000000097e+01 -3.739399999999999835e+01 -4.603199999999999648e+01 -1.744258999999999915e+01 -2.618858358095216277e-01
3.797099999999999653e+01 -3.150100000000000122e+01 -3.527400000000000091e+01 -1.029982000000000042e+01 -2.589783994578132020e-01
3.797200000000000131e+01 -1.436400000000000077e+01 -4.477700000000000102e+01 5.950131999999999977e+00 1.020362603637677001e-01
3.797800000000000153e+01 -8.187599999999999767e+00 -3.231600000000000250e+01 2.188949000000000034e+00 -8.565446682084376651e-02
3.797999999999999687e+01 -3.358800000000000097e+01 -3.646500000000000341e+01 1.591455999999999982e+01 -2.591308593500113444e-01
3.798400000000000176e+01 8.558299999999999130e+00 -4.131600000000000250e+01 4.281020000000000181e+01 -1.880070187908458590e-01
3.798599999999999710e+01 -3.623700000000000188e+01 -4.046600000000000108e+01 -2.381479000000000124e+00 -2.604748230863063729e-01
3.798899999999999721e+01 -1.505899999999999928e+01 -4.526800000000000068e+01 8.551457000000000086e-01 1.033937901560354894e-01
3.799099999999999966e+01 -6.494399999999999729e+00 -3.123999999999999844e+01 1.674922000000000111e+01 -2.862247449911075898e-03
3.799399999999999977e+01 2.271999999999999886e+01 -4.483400000000000318e+01 -5.943748999999999683e+01 -1.880097172085096191e-01
3.799900000000000233e+01 -5.060999999999999943e+00 -3.048400000000000176e+01 6.829262000000000388e-01 6.609590016861874306e-02
3.800600000000000023e+01 4.488800000000000345e+00 -4.507099999999999795e+01 -5.483140999999999821e+00 -2.098716419238475517e-01
3.801500000000000057e+01 -3.609899999999999665e+01 -4.828699999999999903e+01 -5.495295999999999736e+00 -2.626976281034728578e-01
3.801599999999999824e+01 -2.839499999999999957e+01 -5.015200000000000102e+01 -5.409118999999999566e+00 -1.723824907048069899e-01
3.801700000000000301e+01 -3.600699999999999790e+01 -3.967600000000000193e+01 -2.323882999999999921e+00 -2.601689592141945284e-01
3.802100000000000080e+01 -3.399099999999999788e+00 -3.038299999999999912e+01 -7.855593999999999966e+00 -2.884543461520868712e-01
3.802799999999999869e+01 1.294200000000000017e+01 -4.658800000000000097e+01 -2.844592000000000098e+01 -1.844441961644261718e-01
3.802799999999999869e+01 2.567099999999999937e+01 -2.951899999999999835e+01 -1.231306000000000067e-01 -1.826068290593423904e-01
3.803199999999999648e+01 -1.379299999999999926e+01 -4.443599999999999994e+01 9.087866999999999473e-01 1.005691353760093804e-01
3.803600000000000136e+01 -1.650700000000000145e+01 -4.607500000000000284e+01 -5.382030999999999565e+00 1.057057647871670197e-01
3.804200000000000159e+01 1.719600000000000151e+01 -4.412599999999999767e+01 5.263969000000000342e+00 -9.565782086511567806e-02
3.804200000000000159e+01 -3.570100000000000051e+01 -3.808299999999999841e+01 -4.269924999999999748e+00 -2.594282017879386837e-01
3.804399999999999693e+01 -3.364100000000000090e+00 -4.018399999999999750e+01 -5.524962000000000373e+00 -1.990341086942574722e-01
3.804500000000000171e+01 1.687800000000000011e+01 -2.837199999999999989e+01 3.921406000000000169e+00 -2.041760252198129844e-01
3.804800000000000182e+01 -7.192199999999999704e+00 -4.082500000000000284e+01 -1.267671999999999954e+01 8.950580057062973438e-02
3.804899999999999949e+01 -2.517599999999999838e+01 -3.257600000000000051e+01 5.174780000000000157e+00 -2.598211261468693634e-01
3.805100000000000193e+01 3.532600000000000051e+01 -3.487800000000000011e+01 -8.627677000000000263e+00 -1.726592759175491765e-01
3.805400000000000205e+01 -2.191100000000000136e+01 -4.530599999999999739e+01 -4.282974999999999710e+01 -1.757597922737870466e-01
3.805499999999999972e+01 -3.596399999999999864e+01 -3.890100000000000335e+01 -2.543592999999999993e+00 -2.597729205262322982e-01
3.806199999999999761e+01 -2.406099999999999994e+01 -4.730100000000000193e+01 -3.813862999999999914e+01 -1.742551051756073555e-01
3.806300000000000239e+01 2.925499999999999901e+01 -2.993199999999999861e+01 -7.332591000000000525e-01 -1.800338236678188097e-01
3.806300000000000239e+01 3.137000000000000099e+01 -3.128800000000000026e+01 -5.762285999999999575e+00 -1.767083799585631165e-01
3.806600000000000250e+01 -2.067299999999999915e+00 -4.090599999999999881e+01 -3.584318999999999811e+00 -2.027263119043515582e-01
3.806700000000000017e+01 7.645900000000000141e+00 -3.914399999999999835e+01 1.812602000000000046e+01 -1.889352965706577181e-01
3.807000000000000028e+01 -2.315800000000000125e+01 -4.611399999999999721e+01 -1.747496999999999900e+01 -1.748133009495186907e-01
3.807800000000000296e+01 1.606299999999999883e+01 -4.488400000000000034e+01 1.019126999999999938e+01 -1.884047468602656206e-01
3.807800000000000296e+01 2.255599999999999827e+00 -4.381099999999999994e+01 -9.802153999999999812e+00 -2.096926525290988830e-01
3.808200000000000074e+01 2.137800000000000011e+01 -4.553199999999999648e+01 -8.731192999999999316e+00 -1.881544805294534384e-01
3.808599999999999852e+01 1.324499999999999922e+01 -4.588799999999999812e+01 -1.457737999999999978e+01 -1.876427948663441647e-01
3.808599999999999852e+01 1.411100000000000065e+01 -4.588799999999999812e+01 -1.159850000000000048e+00 -1.878348042875122859e-01
3.808700000000000330e+01 3.369299999999999784e+01 -3.177299999999999969e+01 -4.860848999999999975e+00 -7.646755475313947448e-02
3.809100000000000108e+01 1.621600000000000108e+01 -3.256400000000000006e+01 -3.287230999999999903e-01 -1.972620893055207492e-01
3.809199999999999875e+01 8.592299999999999827e+00 -2.959299999999999997e+01 1.581978999999999935e+01 -2.857062442865365703e-01
3.809300000000000352e+01 1.373799999999999955e+01 -3.267199999999999704e+01 -1.058698000000000050e+01 -1.944511768437233723e-01
3.809300000000000352e+01 1.492900000000000027e+01 -3.333599999999999852e+01 -1.963622999999999896e+00 -1.947391298541503446e-01
3.809300000000000352e+01 2.180999999999999872e+01 -2.653999999999999915e+01 1.867490000000000094e+00 -1.791712223000428705e-01
3.810000000000000142e+01 1.070999999999999952e+00 -4.306799999999999784e+01 -2.542485999999999891e+01 -2.085178589882016598e-01
3.810099999999999909e+01 -3.023499999999999943e+01 -5.173299999999999699e+01 -6.726746999999999588e+00 -1.719097513090826757e-01
3.810099999999999909e+01 -2.952100000000000080e+01 -5.077400000000000091e+01 -4.539856999999999587e+00 -1.720354141206214549e-01
3.810399999999999920e+01 7.616399999999999615e+00 -4.022599999999999909e+01 2.720388000000000162e+01 -1.891048366607850084e-01
3.810499999999999687e+01 3.446900000000000119e+01 -3.624099999999999966e+01 -1.871180000000000021e+01 -1.715614897326956934e-01
3.810799999999999699e+01 -6.982000000000000206e+00 -3.154200000000000159e+01 1.854278000000000048e+01 -3.142049544247416115e-02
3.812199999999999989e+01 1.468800000000000061e+01 -4.580499999999999972e+01 -7.874754000000000476e-02 -1.879438155841970104e-01
3.812299999999999756e+01 -1.292300000000000004e+00 -4.219599999999999795e+01 -4.297944000000000209e+00 -2.047839191513635693e-01
3.812400000000000233e+01 -1.763900000000000023e+00 -4.160600000000000165e+01 -5.229007000000000183e+00 -2.036477945450400340e-01
3.812500000000000000e+01 1.926899999999999835e+01 -4.514800000000000324e+01 -3.007077999999999918e+00 -1.885796700492051448e-01
3.813400000000000034e+01 -2.055000000000000071e+01 -4.507900000000000063e+01 -7.834818000000000282e+00 -1.768629622674214585e-01
3.813600000000000279e+01 7.940000000000000391e+00 -3.859300000000000352e+01 1.526027999999999984e+01 -1.879900037965416826e-01
3.814399999999999835e+01 1.999599999999999866e+01 -2.375199999999999889e+01 3.146478999999999804e+00 -1.876020830352113367e-01
3.814399999999999835e+01 -8.446400000000000574e+00 -4.161899999999999977e+01 -2.061450999999999922e+01 9.040040540597979457e-02
3.814500000000000313e+01 -2.743700000000000117e+01 -5.007200000000000273e+01 -4.118468000000000018e+00 -1.727489756321113901e-01
3.814900000000000091e+01 3.309400000000000119e+01 -3.716199999999999903e+01 -1.215653000000000095e+00 -1.706274043388375516e-01
3.815299999999999869e+01 2.399200000000000088e+01 -3.105199999999999960e+01 2.347353000000000023e+01 -2.844800159895964353e-01
3.815299999999999869e+01 2.485699999999999932e+01 -3.105199999999999960e+01 1.826991999999999905e+01 -2.840030093557955326e-01
3.815400000000000347e+01 2.835000000000000142e+01 -2.931700000000000017e+01 -1.073744999999999949e+00 -7.623001969866216587e-02
3.815500000000000114e+01 2.525600000000000023e+01 -3.030300000000000082e+01 2.178608999999999962e-01 -1.797870229856934066e-01
3.815500000000000114e+01 2.480000000000000071e+01 -4.149600000000000222e+01 -4.054816999999999894e+01 -1.884850639465394939e-01
3.816599999999999682e+01 5.341400000000000148e+00 -4.477199999999999847e+01 -8.684034999999999727e+00 -2.090834201582500163e-01
3.816599999999999682e+01 6.206599999999999895e+00 -4.477199999999999847e+01 -1.014922999999999931e+01 -2.085443705123212477e-01
3.816700000000000159e+01 7.078500000000000014e+00 -2.952899999999999991e+01 1.156967999999999996e+01 -2.762329223354820784e-01
3.816700000000000159e+01 -1.255400000000000027e+01 -4.432800000000000296e+01 1.470458999999999961e+01 9.709787433750331764e-02
3.816799999999999926e+01 -1.126399999999999935e+01 -4.493200000000000216e+01 -6.926186999999999649e+00 9.432701982199991064e-02
3.816799999999999926e+01 -9.743999999999999773e+00 -4.493200000000000216e+01 -8.706633999999999318e+00 9.109610214345661983e-02
3.816799999999999926e+01 -1.168500000000000050e+01 -3.365599999999999881e+01 -1.801148999999999889e+00 6.489324164411280904e-02
3.817199999999999704e+01 9.072599999999999554e+00 -3.783500000000000085e+01 1.955529999999999902e+01 -1.849264928551610787e-01
3.817600000000000193e+01 3.272899999999999920e+01 -3.196499999999999986e+01 -5.248523999999999745e+00 -1.757183421823516334e-01
3.817600000000000193e+01 -3.327900000000000347e+01 -5.260000000000000142e+01 -1.996779000000000082e+00 -1.711519073405499414e-01
3.817600000000000193e+01 -3.190800000000000125e+01 -5.323599999999999710e+01 -3.155091999999999786e+00 -1.715852274353075191e-01
3.817600000000000193e+01 -3.058899999999999864e+01 -5.250099999999999767e+01 -5.005008000000000123e+00 -1.718803525951948796e-01
3.817699999999999960e+01 1.079100000000000037e+01 -4.013900000000000290e+01 3.518196999999999974e+01 -1.872472232281560955e-01
3.817699999999999960e+01 1.079100000000000037e+01 -3.873899999999999721e+01 3.437496000000000151e+01 -1.873434713684380692e-01
3.818500000000000227e+01 3.050199999999999889e+01 -3.742499999999999716e+01 -1.435945000000000071e+01 -1.695779415892325059e-01
3.819500000000000028e+01 1.680600000000000094e+00 -4.303300000000000125e+01 -3.716469000000000023e+01 -2.090600943865436601e-01
3.819800000000000040e+01 -2.958299999999999841e+01 -3.485600000000000165e+01 -6.064422999999999675e+00 -2.591534284555528922e-01
3.819899999999999807e+01 1.246400000000000041e+01 -3.052199999999999847e+01 1.283197999999999972e+01 -1.952875081256520984e-01
3.820100000000000051e+01 -8.830500000000000016e-01 -3.028200000000000003e+01 -2.361455000000000126e+01 -2.957780673416516293e-01
3.820400000000000063e+01 -2.502199999999999847e+01 -4.845700000000000074e+01 -8.240026000000000295e+00 -1.737477754634302596e-01
3.820799999999999841e+01 3.540200000000000102e+01 -3.385699999999999932e+01 -1.188658999999999999e+01 -1.736616715537062094e-01
3.821300000000000097e+01 -5.170499999999999652e+00 -3.994700000000000273e+01 -7.312467999999999968e+00 -3.099137159210752987e-02
3.821399999999999864e+01 -1.186299999999999955e+01 -3.475399999999999778e+01 -7.815255999999999759e+00 7.433198107432277546e-02
3.821800000000000352e+01 -1.373499999999999943e+01 -3.747800000000000153e+01 -3.044428999999999874e+01 9.855526127592270647e-02
3.822099999999999653e+01 3.488399999999999945e+00 -3.137399999999999878e+01 -3.650066999999999950e+01 -3.352958615318254454e-01
3.822599999999999909e+01 2.263599999999999923e+01 -2.975600000000000023e+01 -5.190225000000000222e+01 -2.881380832120171709e-01
3.822699999999999676e+01 2.468299999999999983e+01 -4.400999999999999801e+01 -1.217661999999999978e+01 -1.880265985320895838e-01
3.823499999999999943e+01 1.109399999999999942e+01 -3.943900000000000006e+01 2.997787999999999897e+01 -1.873557159053647614e-01
3.823799999999999955e+01 -1.581099999999999994e+01 -3.287500000000000000e+01 -1.088954000000000022e+01 1.350879558583681084e-01
3.823899999999999721e+01 -1.892899999999999849e+01 -4.501400000000000290e+01 -5.076552000000000398e+00 1.105558610891404642e-01
3.824300000000000210e+01 -1.533999999999999986e+01 -3.369100000000000250e+01 -1.462224999999999930e+01 1.225712449585679015e-01
3.824499999999999744e+01 7.072600000000000442e+00 -4.552700000000000102e+01 -4.801929000000000336e+00 -9.140068621995736664e-02
3.824799999999999756e+01 1.274999999999999911e+00 -3.183599999999999852e+01 -3.153046000000000149e+01 -3.296428479125571576e-01
3.824799999999999756e+01 2.674999999999999822e+00 -3.183599999999999852e+01 -1.689990999999999843e+01 -3.370611237959986739e-01
3.825099999999999767e+01 7.952300000000000146e+00 -2.944000000000000128e+01 5.199010999999999605e+00 -2.793332378751712253e-01
3.825800000000000267e+01 -1.704899999999999949e+01 -4.592399999999999949e+01 -7.312212999999999852e+00 1.063786906931116494e-01
3.825900000000000034e+01 -2.653000000000000114e+01 -4.976299999999999812e+01 -2.811968999999999941e+00 -1.731008944190128296e-01
3.827199999999999847e+01 1.072499999999999964e+01 -3.047700000000000031e+01 8.935223000000000582e+00 -1.881640261555981575e-01
3.827499999999999858e+01 2.145200000000000173e+01 -2.765599999999999881e+01 -9.392129999999999923e-02 -1.985465777931330889e-01
3.827700000000000102e+01 1.586299999999999955e+01 -3.014999999999999858e+01 -2.644104000000000010e+00 -2.039581504934009359e-01
3.827799999999999869e+01 -3.996100000000000207e+00 -4.025500000000000256e+01 -4.805356999999999879e+00 -2.275646655068391810e-02
3.827900000000000347e+01 2.521900000000000119e+01 -3.921200000000000330e+01 -8.184390000000000498e+00 -1.892374093262758905e-01
3.827900000000000347e+01 2.641000000000000014e+01 -3.854800000000000182e+01 -4.258340999999999710e+00 -1.891089614365933369e-01
3.828399999999999892e+01 -1.492099999999999937e+01 -3.677799999999999869e+01 -1.486425000000000018e+01 1.085363592685342632e-01
3.828399999999999892e+01 -1.253899999999999970e+01 -3.677799999999999869e+01 -1.209983000000000075e+01 8.601607710964170872e-02
3.829500000000000171e+01 2.686799999999999855e+01 -2.858899999999999864e+01 -1.147372999999999976e+00 -1.845403183608848308e-01
3.829999999999999716e+01 -1.005700000000000038e+01 -3.281199999999999761e+01 -6.441819999999999879e+00 4.865014760679799155e-02
3.830700000000000216e+01 -1.961400000000000077e+01 -3.270400000000000063e+01 -2.693132999999999910e+01 -1.691538044235670335e-01
3.830700000000000216e+01 -1.842299999999999827e+01 -3.336699999999999733e+01 -9.184200999999999837e+00 -1.790282684798174262e-01
3.830700000000000216e+01 -1.723199999999999932e+01 -3.270400000000000063e+01 1.134129000000000076e+01 -1.859067441315568892e-01
3.831099999999999994e+01 8.283400000000000318e+00 -4.686899999999999977e+01 -2.757540999999999798e+00 -9.077396712432415915e-02
3.831700000000000017e+01 8.761699999999999378e+00 -4.089099999999999824e+01 3.502268000000000114e+01 -1.869618134579724145e-01
3.831700000000000017e+01 9.627000000000000668e+00 -4.089099999999999824e+01 3.763743000000000194e+01 -1.856112940906524955e-01
3.831799999999999784e+01 -2.305000000000000071e+01 -3.088299999999999912e+01 -1.992899999999999849e+01 -2.562193228342105611e-01
3.832600000000000051e+01 8.538100000000000023e+00 -4.743900000000000006e+01 -3.425504000000000104e+00 -9.067688467503114136e-02
3.832600000000000051e+01 8.862999999999999545e+00 -4.817600000000000193e+01 -2.548023999999999845e+00 -9.057061662253276801e-02
3.832600000000000051e+01 1.015600000000000058e+01 -4.889699999999999847e+01 -2.778411000000000186e+00 -9.007751949670103619e-02
3.832600000000000051e+01 1.144899999999999984e+01 -4.817600000000000193e+01 -3.892825000000000202e+00 -1.856737157254715609e-01
3.833100000000000307e+01 4.980100000000000193e+00 -4.586999999999999744e+01 -5.659883999999999915e+00 -2.089537441679255036e-01
3.833200000000000074e+01 2.322299999999999898e+01 -4.445600000000000307e+01 -1.288030000000000008e+01 -1.882679445610986602e-01
3.833599999999999852e+01 2.162099999999999866e+01 -2.262999999999999901e+01 7.398826999999999998e+01 -2.258873175653261234e-01
3.833700000000000330e+01 3.446500000000000341e+01 -3.183200000000000074e+01 -1.033984000000000059e+01 -1.747009282280476694e-01
3.833700000000000330e+01 3.540500000000000114e+01 -3.183200000000000074e+01 -2.516473999999999833e+01 -1.740681617652560520e-01
3.834400000000000119e+01 4.732700000000000351e+00 -3.063899999999999935e+01 -1.973310000000000031e+01 -3.218464020340216503e-01
3.834499999999999886e+01 1.649599999999999866e+01 -4.418399999999999750e+01 5.088991000000000042e+00 -1.884107811508129726e-01
3.834599999999999653e+01 -2.097899999999999920e+01 -3.112999999999999901e+01 -2.070006000000000057e+01 -1.545783479175882047e-01
3.834799999999999898e+01 1.624099999999999966e+01 -2.914399999999999835e+01 8.027283000000000612e+00 -2.076335423041522632e-01
3.835000000000000142e+01 3.430699999999999861e+00 -4.507800000000000296e+01 -5.911247999999999614e+00 -2.096207805985864370e-01
3.835099999999999909e+01 -1.213299999999999912e+01 -3.565400000000000347e+01 -8.608988000000000085e+00 7.551628126011804276e-02
3.835199999999999676e+01 3.973399999999999821e+00 -4.583700000000000330e+01 -5.915934000000000026e+00 -2.094217975832220746e-01
3.835300000000000153e+01 -3.411599999999999966e+01 -3.714699999999999847e+01 9.046502999999999517e+00 -2.590200621602570252e-01
3.835300000000000153e+01 2.777700000000000102e+01 -3.825200000000000244e+01 1.553158999999999956e+00 -1.888646127230086680e-01
3.835499999999999687e+01 9.903200000000000003e+00 -3.057900000000000063e+01 8.254647999999999541e+00 -1.852447517834240887e-01
3.835600000000000165e+01 2.889900000000000091e+01 -3.765999999999999659e+01 -4.370364000000000360e+00 -1.887014004122050947e-01
3.835699999999999932e+01 -2.779899999999999949e+01 -5.069200000000000017e+01 -9.493105999999999156e+00 -1.726453014987867074e-01
3.835799999999999699e+01 -2.437800000000000011e+01 -3.164499999999999957e+01 -2.507287000000000177e+01 -2.569349140506777540e-01
3.837599999999999767e+01 9.930400000000000560e+00 -4.019100000000000250e+01 3.498906000000000205e+01 -1.846104149484393553e-01
3.837599999999999767e+01 2.287500000000000000e+01 -2.442800000000000082e+01 1.520815999999999946e+01 -1.892198632353483956e-01
3.837599999999999767e+01 2.287500000000000000e+01 -2.346999999999999886e+01 1.925613999999999848e+01 -1.110896769290442565e-01
3.838199999999999790e+01 -2.125000000000000000e+00 -2.980799999999999983e+01 -1.919909000000000177e+01 -2.773145374936784036e-01
3.838300000000000267e+01 -3.073300000000000054e+01 -3.509700000000000131e+01 -4.139941999999999567e+00 -2.584929064060671466e-01
3.838400000000000034e+01 -6.637999999999999901e+00 -4.029899999999999949e+01 -1.288917000000000002e+01 8.802965712771627926e-02
3.839200000000000301e+01 2.159999999999999976e-01 -3.073999999999999844e+01 -6.738079999999999359e+01 -3.106066630778610005e-01
3.839399999999999835e+01 1.180000000000000071e+01 -4.741899999999999693e+01 -3.850912000000000290e+01 -1.852096426365328341e-01
3.839999999999999858e+01 3.573400000000000176e+01 -3.259199999999999875e+01 -2.009714999999999918e+01 -1.740743989121958657e-01
3.839999999999999858e+01 -1.558999999999999986e+01 -3.557900000000000063e+01 -5.113110999999999962e+00 1.164536870844457422e-01
3.839999999999999858e+01 -1.538100000000000023e+01 -3.631499999999999773e+01 -8.238281999999999883e+00 1.124715610854091219e-01
3.839999999999999858e+01 -1.538100000000000023e+01 -3.484300000000000352e+01 -3.893564000000000025e+00 1.162082911431736171e-01
3.840500000000000114e+01 -2.791700000000000159e+01 -3.328499999999999659e+01 3.453632999999999953e+00 -2.574802264317819223e-01
3.840699999999999648e+01 -2.272500000000000142e+01 -4.552400000000000091e+01 -1.063114000000000026e+01 -1.750665287025000016e-01
3.841100000000000136e+01 -8.887600000000000833e+00 -3.258299999999999841e+01 4.126362000000000085e-01 5.155260676906055217e-02
3.841100000000000136e+01 -3.650999999999999801e+01 -4.766100000000000136e+01 -4.938176000000000343e+00 -2.622512995136330183e-01
3.841199999999999903e+01 -5.616399999999999615e+00 -3.098199999999999932e+01 9.992644000000000526e-01 2.599243510851891384e-02
3.841400000000000148e+01 1.155299999999999938e-01 -4.283400000000000318e+01 -5.536795999999999829e+00 -2.064441431941001215e-01
3.841599999999999682e+01 1.338400000000000034e+01 -3.157799999999999940e+01 -2.210389999999999944e+01 -1.939384791461101210e-01
3.842300000000000182e+01 -2.842599999999999838e+01 -5.106099999999999994e+01 -6.814188999999999830e+00 -1.724391597536094611e-01
3.842600000000000193e+01 -9.279600000000000293e+00 -4.437100000000000222e+01 -6.946801999999999566e+01 9.263835308457463169e-02
3.843299999999999983e+01 5.774000000000000021e+00 -4.547200000000000131e+01 -5.844394000000000311e+00 -2.083567462555374061e-01
3.843500000000000227e+01 3.546600000000000108e+01 -3.335099999999999909e+01 -1.287339000000000055e+01 -1.743408123696972845e-01
3.844400000000000261e+01 1.035800000000000054e+01 -3.943900000000000006e+01 3.024632000000000076e+01 -1.866760442075003634e-01
3.845600000000000307e+01 1.761299999999999955e+01 -2.793100000000000094e+01 9.450606999999999758e+00 -1.948748781184772016e-01
3.846699999999999875e+01 -1.317300000000000004e+01 -4.448700000000000188e+01 -1.995613999999999999e+00 9.801569018242375919e-02
3.846900000000000119e+01 -7.565400000000000347e+00 -3.222699999999999676e+01 2.171026000000000167e+01 -6.777190704387553444e-02
3.847500000000000142e+01 -3.692399999999999949e+01 -4.144200000000000017e+01 -2.370038999999999785e+00 -2.603106148876861980e-01
3.848100000000000165e+01 2.317099999999999937e+01 -3.100900000000000034e+01 -1.412947999999999915e+01 -1.999421972241750001e-01
3.848199999999999932e+01 -2.468499999999999872e+01 -3.217999999999999972e+01 -7.361123000000000083e+00 -2.576295860472034849e-01
3.848299999999999699e+01 1.367800000000000082e+01 -4.539699999999999847e+01 5.868786000000000058e+00 -1.874933950465139110e-01
3.848400000000000176e+01 -3.669700000000000273e+01 -4.098700000000000188e+01 -2.965920000000000112e+00 -2.601833293629234878e-01
3.848599999999999710e+01 1.868599999999999994e+01 -4.446300000000000097e+01 -1.807404999999999928e+00 -1.891369408747370640e-01
3.848700000000000188e+01 -2.121099999999999852e+01 -4.503900000000000148e+01 -1.242076999999999920e+01 -1.762530598305169227e-01
3.848700000000000188e+01 3.502199999999999847e+01 -3.503499999999999659e+01 -1.355275999999999925e+01 -1.729440019293689290e-01
3.848899999999999721e+01 2.162999999999999901e+01 -2.863299999999999912e+01 -2.329473000000000127e+01 -2.012625219621118899e-01
3.848899999999999721e+01 -2.626099999999999923e+01 -3.317699999999999960e+01 1.470270999999999972e+01 -2.583273780772588069e-01
3.849099999999999966e+01 3.171000000000000085e+01 -3.673700000000000188e+01 -9.377478999999999232e+00 -1.709136925364301840e-01
3.849099999999999966e+01 -3.770900000000000318e+01 -4.491299999999999670e+01 -2.635060999999999876e+00 -2.612223843425369174e-01
3.849099999999999966e+01 -3.770900000000000318e+01 -4.386299999999999955e+01 -3.252051999999999943e+00 -2.609214312815285597e-01
3.849300000000000210e+01 -1.424499999999999922e+01 -4.495700000000000074e+01 7.561250999999999944e-01 1.005668279246495489e-01
