9.861499999999999488e+00 -1.529499999999999993e+01 5.918599999999999994e+01 3.155686000000000213e+00 -3.824233216443418959e-01
9.862000000000000099e+00 -1.493399999999999928e+01 5.992199999999999704e+01 7.075936999999999921e-01 -3.823705925636089464e-01
9.862600000000000477e+00 -1.254299999999999926e+01 5.511599999999999966e+01 -1.385463000000000022e+01 -2.891264569422921094e-01
9.866199999999999193e+00 -1.403500000000000014e+01 5.499399999999999977e+01 3.705032000000000103e+00 -2.890801109121440837e-01
9.872400000000000730e+00 -2.606500000000000128e+01 5.771099999999999852e+01 -7.814958999999999989e+00 -2.547433375393731714e-01
9.876200000000000756e+00 -4.536100000000000132e-01 4.922099999999999653e+01 -2.703522999999999854e+01 -2.908530663448188891e-01
9.877299999999999969e+00 -7.653699999999999726e+00 5.126800000000000068e+01 -1.025552000000000064e+01 -2.844685327954082354e-01
9.878000000000000114e+00 -4.226099999999999746e+00 5.867000000000000171e+01 -2.248554999999999993e+01 -3.073777216463790540e-01
9.887100000000000222e+00 -1.052599999999999980e+00 4.790699999999999648e+01 -1.096621000000000024e+01 -2.899662078133374843e-01
9.887100000000000222e+00 -7.243000000000000549e-01 4.716199999999999903e+01 -7.497954000000000008e+00 -2.861514328175345234e-01
9.888999999999999346e+00 2.830000000000000071e+00 5.519800000000000040e+01 -1.384662999999999933e+01 -1.842201144987859474e-01
9.888999999999999346e+00 3.039099999999999913e+00 5.593399999999999750e+01 -8.243982000000000809e+00 -1.843577109181761264e-01
9.889699999999999491e+00 2.939999999999999947e+00 5.845400000000000063e+01 -4.669449999999999790e+01 -3.095721573244013536e-01
9.891899999999999693e+00 -5.309800000000000075e+00 3.897099999999999653e+01 1.579210999999999920e+01 -1.871352417792716549e-01
9.895200000000000884e+00 -2.559799999999999898e+01 4.086599999999999966e+01 7.207634999999999792e+00 -1.588759830637032633e-01
9.895400000000000418e+00 -2.454299999999999926e+01 4.175300000000000011e+01 -5.855553999999999704e+00 -1.561782848984545613e-01
9.895400000000000418e+00 -2.454299999999999926e+01 4.315299999999999869e+01 -2.523826999999999998e+01 -1.530111502555792091e-01
9.896900000000000475e+00 4.450600000000000112e-01 4.509599999999999653e+01 -2.927017999999999986e+01 -3.828757903261762463e-01
9.897100000000000009e+00 -1.771700000000000053e+00 6.146300000000000097e+01 -7.433152999999999899e+00 -3.082931409682690971e-01
9.904400000000000759e+00 -4.987099999999999866e+00 5.396900000000000119e+01 -6.760631000000000057e+00 -3.066874025997655684e-01
9.906000000000000583e+00 -1.613700000000000045e+01 5.786800000000000210e+01 1.039273000000000025e+01 -3.826077631955762115e-01
9.909800000000000608e+00 -3.898900000000000143e-01 5.908700000000000330e+01 -5.548008000000000273e+00 -3.086384670495347371e-01
9.920899999999999608e+00 -1.371199999999999974e+01 5.581600000000000250e+01 8.040965999999999170e+00 -2.890033701573143099e-01
9.920899999999999608e+00 -1.284699999999999953e+01 5.581600000000000250e+01 -4.897787000000000113e+00 -2.890428173508158283e-01
9.923600000000000421e+00 -1.260499999999999954e+00 5.417399999999999949e+01 1.022072999999999965e+01 -3.082711453028719184e-01
9.928100000000000591e+00 -1.375200000000000067e+01 5.417199999999999704e+01 -5.032505999999999702e+00 -2.892763089408221799e-01
9.928100000000000591e+00 -1.288599999999999923e+01 5.417199999999999704e+01 -2.292745999999999995e+01 -2.893129862761915638e-01
9.931699999999999307e+00 -2.586499999999999844e+01 4.914200000000000301e+01 1.585859999999999914e+01 -2.600640713196352705e-01
9.935000000000000497e+00 -8.156900000000000261e+00 5.343900000000000006e+01 2.330161999999999978e+01 -3.816479569460532462e-01
9.944000000000000838e+00 -1.348999999999999977e+00 6.263100000000000023e+01 -8.060651000000000010e+01 -3.084372440311453079e-01
9.948100000000000165e+00 -7.285300000000000331e+00 5.211800000000000210e+01 -1.135805000000000042e+01 -3.053443649026917339e-01
9.948299999999999699e+00 -2.328500000000000014e+01 5.687400000000000233e+01 1.667162000000000077e+01 -2.532818876096978866e-01
9.950900000000000745e+00 1.421100000000000030e+00 5.855199999999999960e+01 7.157244000000000383e+00 -3.091531855288661146e-01
9.966799999999999216e+00 -1.434299999999999908e+00 6.065299999999999869e+01 5.701188000000000144e+00 -3.083541037779141125e-01
9.973000000000000753e+00 -2.322400000000000020e+01 4.523299999999999699e+01 -6.719712999999999603e+00 -2.607454334776612703e-01
9.973599999999999355e+00 -9.490000000000000213e+00 5.893900000000000006e+01 1.812677000000000094e+00 -3.045024681265620647e-01
9.986200000000000188e+00 -7.166900000000000048e+00 5.291400000000000148e+01 -3.927725000000000133e+00 -3.055149791892504685e-01
9.987600000000000477e+00 -3.066900000000000182e-01 6.239600000000000080e+01 -1.005977000000000032e+02 -3.086960119768696886e-01
9.996000000000000441e+00 -3.564499999999999780e+00 3.980499999999999972e+01 7.752015000000000100e+00 -2.909404881577162261e-01
1.000399999999999956e+01 5.054300000000000459e-01 5.853399999999999892e+01 1.171236999999999995e+01 -3.088824775303625758e-01
1.000799999999999912e+01 1.243000000000000105e+00 4.509599999999999653e+01 -5.204281999999999897e+01 -3.829128427698066939e-01
1.000999999999999979e+01 -2.663500000000000156e+01 3.768800000000000239e+01 2.420765999999999973e+00 -1.590334880165197584e-01
1.001800000000000068e+01 -2.593599999999999994e+01 5.080100000000000193e+01 -6.952135000000000176e+00 -2.586328042914006753e-01
1.001800000000000068e+01 -2.330299999999999816e+00 5.976299999999999812e+01 -1.688104999999999833e+01 -3.080462277217387301e-01
1.002500000000000036e+01 -2.409100000000000108e+01 3.753699999999999903e+01 -5.755755999999999872e+00 -1.540305982576778976e-01
1.002599999999999980e+01 -2.193700000000000117e+01 5.604800000000000182e+01 9.414332999999999174e+00 -2.527194098309246684e-01
1.003200000000000003e+01 2.113700000000000134e+00 5.026299999999999812e+01 -1.960155999999999921e+01 -2.918547254921686207e-01
1.003700000000000081e+01 -2.555199999999999960e+01 3.754500000000000171e+01 -3.193261999999999823e+00 -1.565212563377549049e-01
1.003800000000000026e+01 -5.167200000000000237e+00 3.977900000000000347e+01 1.009057999999999922e+01 -1.864182846623504419e-01
1.004299999999999926e+01 -2.412800000000000011e+01 4.791899999999999693e+01 2.739332999999999796e+00 -2.592101588603097917e-01
1.004499999999999993e+01 -1.729299999999999926e+01 3.741700000000000159e+01 -1.100853000000000037e+01 -1.896066713364500944e-01
1.004700000000000060e+01 -2.574599999999999866e+01 5.016100000000000136e+01 -1.884552000000000005e+00 -2.590159015228901129e-01
1.005799999999999983e+01 -1.076999999999999957e+01 4.053799999999999670e+01 -1.706993999999999900e+01 -8.044258757594638376e-02
1.006099999999999994e+01 -2.604700000000000060e+01 5.453000000000000114e+01 -1.944790999999999936e+00 -2.562045041749660967e-01
1.006499999999999950e+01 -7.989700000000000024e+00 3.866799999999999926e+01 2.238669999999999938e+00 -1.940840625960089105e-01
1.007900000000000063e+01 -2.544800000000000040e+01 4.870000000000000284e+01 4.194842000000000404e+00 -2.601176223805629628e-01
1.008099999999999952e+01 -2.700400000000000134e+01 3.853799999999999670e+01 6.065665000000000084e+00 -1.617114196779836643e-01
1.008200000000000074e+01 -2.674200000000000088e+01 3.941199999999999903e+01 2.046199999999999797e+00 -8.216606527889627754e-02
1.008600000000000030e+01 2.744099999999999984e+00 5.343599999999999994e+01 -1.902796999999999983e+01 -2.930368059548299486e-01
1.008600000000000030e+01 -2.062600000000000211e+00 4.223799999999999955e+01 9.715059999999999807e-01 -2.882208781218941196e-01
1.009299999999999997e+01 -6.716000000000000192e+00 3.769899999999999807e+01 8.012209000000000358e+00 -1.921499662644841622e-01
1.009800000000000075e+01 9.154099999999999737e-02 4.963100000000000023e+01 -1.735564000000000107e+01 -2.910901420903165837e-01
1.010599999999999987e+01 -2.909599999999999964e-01 4.509599999999999653e+01 -1.130061999999999900e+00 -3.828501909155848093e-01
1.011800000000000033e+01 -2.363500000000000156e+01 4.418900000000000006e+01 -1.171174000000000071e+01 -1.513154216706504296e-01
1.012199999999999989e+01 -2.452799999999999869e+01 5.708800000000000097e+01 -1.254712999999999923e+01 -2.541274256404125742e-01
1.014000000000000057e+01 -1.680900000000000061e+00 5.984300000000000352e+01 -1.674243999999999843e+01 -3.082298072787872378e-01
1.014400000000000013e+01 -8.892899999999999139e+00 5.343900000000000006e+01 1.885511999999999944e+01 -3.815899716738823111e-01
1.015000000000000036e+01 -7.919500000000000428e-01 4.612299999999999756e+01 1.369328000000000101e+00 -2.864488887004880135e-01
1.015099999999999980e+01 -1.264400000000000013e+01 3.739999999999999858e+01 -1.574258000000000024e+01 -8.118603157476673993e-02
1.015099999999999980e+01 -8.780000000000000027e-01 6.146300000000000097e+01 2.636128999999999833e-01 -3.085029003916651691e-01
1.015199999999999925e+01 2.537199999999999900e+00 5.192499999999999716e+01 -2.503441000000000116e+01 -2.925027665382637920e-01
1.015300000000000047e+01 1.211400000000000032e+00 5.018800000000000239e+01 -1.012870000000000026e+01 -2.915741723998562795e-01
1.015600000000000058e+01 -1.138000000000000078e+01 6.100600000000000023e+01 -4.738152000000000363e+00 -3.035943231460406233e-01
1.015700000000000003e+01 -1.411100000000000065e+01 6.108200000000000074e+01 -4.806741999999999848e+00 -3.822619457567257850e-01
1.015700000000000003e+01 -1.297700000000000031e+01 6.108200000000000074e+01 1.095900999999999925e+01 -3.819761360966099639e-01
1.015900000000000070e+01 -5.387999999999999901e+00 4.781400000000000006e+01 -1.317686999999999919e+01 -2.893939504741070978e-01
1.016099999999999959e+01 2.522499999999999964e+00 5.101700000000000301e+01 -2.054301999999999850e+01 -2.921744808757800183e-01
1.016300000000000026e+01 -1.456000000000000050e+01 6.075399999999999778e+01 -2.042162999999999951e+00 -3.823568851770783872e-01
1.016600000000000037e+01 -4.301000000000000156e+00 4.734300000000000352e+01 -7.947617000000000154e+00 -2.899107056697256546e-01
1.017099999999999937e+01 -6.017100000000000115e+00 3.768500000000000227e+01 1.389202000000000048e+01 -1.904393482347811750e-01
1.017699999999999960e+01 -1.224900000000000055e+01 3.836399999999999721e+01 -1.566004000000000040e+01 -8.090451903575182624e-02
1.017900000000000027e+01 -3.380199999999999871e+00 5.427400000000000091e+01 -2.822529999999999983e+00 -3.073718437955081928e-01
1.017999999999999972e+01 3.409699999999999953e+00 5.675399999999999778e+01 -3.033907999999999916e+01 -1.844919857820012665e-01
1.017999999999999972e+01 3.409699999999999953e+00 5.769400000000000261e+01 -5.925041999999999831e+01 -1.846189003299429643e-01
1.018099999999999916e+01 -3.526100000000000012e+00 5.872800000000000153e+01 -2.247670000000000101e+01 -3.075808740718125600e-01
1.019899999999999984e+01 -9.243499999999999162e+00 4.042000000000000171e+01 -1.043820000000000014e+01 -8.070639441035223904e-02
1.020199999999999996e+01 -8.179000000000000270e+00 5.211800000000000210e+01 -3.206541999999999781e+00 -3.816686418422195470e-01
1.020199999999999996e+01 -8.589499999999999247e+00 5.273899999999999721e+01 -1.284936000000000078e+00 -3.816229017513068089e-01
1.020199999999999996e+01 -7.724199999999999733e+00 5.413900000000000290e+01 -9.784270999999999940e-01 -3.817281796482251410e-01
1.020299999999999940e+01 -2.177799999999999869e+01 4.697599999999999909e+01 -2.315332999999999863e+00 -2.572883557302298452e-01
1.020800000000000018e+01 -2.501999999999999957e+01 4.115400000000000347e+01 7.980525000000000091e+00 -1.581545007116738066e-01
1.021299999999999919e+01 -9.597099999999999520e-01 4.981099999999999994e+01 -3.286952999999999747e+01 -2.908816819562035638e-01
1.021499999999999986e+01 -7.423600000000000421e+00 3.774300000000000210e+01 4.271037999999999890e+00 -1.940767430167915364e-01
1.021899999999999942e+01 2.180000000000000160e+00 5.851700000000000301e+01 -2.568866999999999834e+01 -3.093093443494387973e-01
1.022100000000000009e+01 -9.109999999999999432e+00 5.871900000000000119e+01 7.236315000000000275e+00 -3.047331720526623711e-01
1.022100000000000009e+01 -7.709999999999999964e+00 5.871900000000000119e+01 -2.993423999999999907e+01 -3.818112301526953578e-01
1.022300000000000075e+01 -7.320100000000000495e-01 4.414500000000000313e+01 1.524599000000000082e+01 -2.865291257510882428e-01
1.022700000000000031e+01 -3.107899999999999885e+00 4.056600000000000250e+01 -4.863424000000000191e+00 -2.903134765213032376e-01
1.023099999999999987e+01 -9.927500000000000213e-01 4.334499999999999886e+01 9.632740000000000080e+00 -3.827181321118272028e-01
1.023300000000000054e+01 -2.090800000000000125e+01 3.671500000000000341e+01 -8.097839000000000453e+00 2.488557485155867138e-02
1.023300000000000054e+01 -1.943199999999999861e+01 3.739699999999999847e+01 -9.200024000000000868e+00 -1.525062877591782384e-01
1.023300000000000054e+01 -6.919400000000000439e+00 5.370900000000000318e+01 -8.260051999999999950e+00 -3.057258972608176140e-01
1.024099999999999966e+01 -9.922700000000000742e+00 5.963900000000000290e+01 3.901513000000000009e+00 -3.042989127489763024e-01
1.024699999999999989e+01 -2.239999999999999858e+01 4.715599999999999881e+01 1.316702000000000039e+00 -2.579272233107933743e-01
1.025099999999999945e+01 -2.357300000000000040e+01 4.793999999999999773e+01 8.906606000000000023e+00 -2.586670759025312960e-01
1.025500000000000078e+01 -6.767699999999999605e+00 4.841599999999999682e+01 -2.313417000000000101e+01 -2.883975079712113865e-01
1.025699999999999967e+01 -6.360000000000000320e+00 5.934599999999999653e+01 -3.411466000000000065e+01 -3.819323522282460082e-01
1.025799999999999912e+01 -2.116999999999999993e+00 5.447899999999999920e+01 1.909134000000000109e+00 -3.078806453440329771e-01
1.025900000000000034e+01 -8.411400000000000432e+00 5.130299999999999727e+01 -6.341465999999999603e+00 -2.847102908855158598e-01
1.026399999999999935e+01 -2.404599999999999937e+01 5.692499999999999716e+01 6.784631000000000078e+00 -2.539732102748278875e-01
1.027200000000000024e+01 -2.826000000000000068e+00 4.779399999999999693e+01 6.936523000000000216e+00 -2.883913964410979580e-01
1.027599999999999980e+01 -1.289099999999999913e+00 5.057099999999999795e+01 -2.211390000000000100e+01 -4.179636691941207016e-01
1.028500000000000014e+01 -8.734299999999999287e+00 5.423100000000000165e+01 2.057695000000000007e+01 -3.816329304054946747e-01
1.028999999999999915e+01 -8.005000000000000782e+00 4.916400000000000148e+01 -2.158509000000000100e+01 -2.871801211029428313e-01
1.029299999999999926e+01 -5.009999999999999787e+00 5.871900000000000119e+01 -5.341599000000000075e+01 -3.070545608168732121e-01
1.029400000000000048e+01 7.069999999999999618e-01 5.026599999999999824e+01 -2.970474000000000103e+01 -2.914360232664051087e-01
1.029800000000000004e+01 -2.238400000000000034e+01 3.739699999999999847e+01 -1.020850000000000080e+01 -1.509919245675877542e-01
1.031000000000000050e+01 -8.353699999999999903e+00 5.013499999999999801e+01 -1.628914999999999935e+01 -2.859774136988672555e-01
1.031099999999999994e+01 -1.020899999999999919e+00 5.132999999999999829e+01 -4.931595000000000084e+01 -4.179335595701261785e-01
1.031700000000000017e+01 -1.327899999999999991e+01 5.630700000000000216e+01 6.256363999999999592e+00 -2.891799171055612350e-01
1.032399999999999984e+01 -2.630600000000000094e+01 3.970199999999999818e+01 3.563467000000000162e+00 -8.204739371637120859e-02
1.032499999999999929e+01 -1.331900000000000084e+01 5.368099999999999739e+01 -3.199922000000000111e+01 -2.896387616226879236e-01
1.032699999999999996e+01 -1.121299999999999919e+01 3.997200000000000131e+01 -2.054711999999999961e+01 -8.059042571674132627e-02
1.032799999999999940e+01 -2.384299999999999997e+01 4.202100000000000080e+01 -3.265263000000000027e+00 -1.558393185053872920e-01
1.032799999999999940e+01 -2.384299999999999997e+01 4.288600000000000279e+01 -7.126482000000000205e+00 -1.540214341754026772e-01
1.033000000000000007e+01 -2.263700000000000045e+01 5.610600000000000165e+01 1.179898999999999987e+01 -2.533701136875258775e-01
1.033399999999999963e+01 -2.656299999999999883e+01 3.882500000000000284e+01 1.092980000000000018e+01 -1.609614770676834061e-01
1.033699999999999974e+01 -1.317399999999999949e+01 3.724900000000000233e+01 -2.116736999999999824e+01 -8.117617111962807663e-02
1.033900000000000041e+01 -1.564600000000000080e+01 5.826400000000000290e+01 9.669954999999999856e+00 -3.825163683767883738e-01
1.035100000000000087e+01 -2.651699999999999946e+01 5.528999999999999915e+01 -6.929967000000000432e+00 -2.563826690923980967e-01
1.035100000000000087e+01 -2.651699999999999946e+01 5.622999999999999687e+01 -1.424993000000000087e+01 -2.559363085053296127e-01
1.035399999999999920e+01 -1.441200000000000081e+01 5.554800000000000182e+01 1.883470000000000155e+01 -2.892705584276634712e-01
1.035399999999999920e+01 -1.214700000000000024e+01 5.554800000000000182e+01 -4.685546000000000433e+00 -2.893602676879495350e-01
1.035399999999999920e+01 -2.763999999999999790e+00 5.917399999999999949e+01 -3.485587999999999909e+01 -3.078327402898043963e-01
1.035399999999999920e+01 -1.629999999999999893e+00 4.293800000000000239e+01 1.132577999999999996e+01 -2.878173872702395331e-01
1.035599999999999987e+01 -7.695400000000000018e-01 5.377700000000000102e+01 -6.867764000000000202e+00 -3.083662687907026689e-01
1.035599999999999987e+01 -5.604500000000000037e-01 5.304099999999999682e+01 -1.803088999999999942e+01 -3.084406826900128462e-01
1.035899999999999999e+01 -2.230499999999999972e+01 4.628399999999999892e+01 5.516370999999999913e-01 -2.586961496730592058e-01
1.035999999999999943e+01 -1.687199999999999989e+01 5.742699999999999960e+01 1.661808999999999870e+01 -3.828811197855000459e-01
1.036100000000000065e+01 -1.445199999999999996e+01 5.443900000000000006e+01 1.572865000000000002e+01 -2.894688103562944037e-01
1.036100000000000065e+01 -1.218599999999999994e+01 5.443900000000000006e+01 -1.237861000000000011e+01 -2.895518194635978704e-01
1.036299999999999955e+01 -1.234600000000000009e+01 3.921300000000000097e+01 -2.409093999999999980e+01 -8.064834885022473254e-02
1.037800000000000011e+01 -1.449200000000000044e+00 4.747399999999999665e+01 -4.451976000000000155e+00 -2.872080601595959903e-01
1.038799999999999990e+01 -1.817099999999999937e+01 5.593500000000000227e+01 2.695516999999999896e+01 -3.833119982196484532e-01
1.039000000000000057e+01 -4.013499999999999623e+00 5.846900000000000119e+01 -1.591784999999999961e+01 -3.073688977406416334e-01
1.039000000000000057e+01 5.518000000000000335e-03 5.846900000000000119e+01 2.613044000000000130e-02 -3.086663829525109204e-01
1.039000000000000057e+01 -2.528699999999999903e+01 5.705299999999999727e+01 -2.887299000000000149e+01 -2.548112846854358460e-01
1.040000000000000036e+01 9.380500000000000504e-01 5.804299999999999926e+01 1.420017999999999958e+01 -3.089363366058119897e-01
1.040900000000000070e+01 -8.566300000000000026e+00 5.510399999999999920e+01 5.824667999999999957e+00 -3.816761345732603283e-01
1.041099999999999959e+01 -8.914999999999999147e+00 5.211800000000000210e+01 1.676425000000000054e+00 -3.816068992045180686e-01
1.042999999999999972e+01 -2.089499999999999957e+01 4.701599999999999824e+01 -2.258435000000000059e+01 -2.564683209115602991e-01
1.043399999999999928e+01 -4.734600000000000364e+00 4.027000000000000313e+01 9.894545000000000812e+00 -2.935975344552895216e-01
1.043500000000000050e+01 -2.116199999999999903e+01 5.565500000000000114e+01 5.085764000000000351e+01 -3.845634579884954496e-01
1.044699999999999918e+01 -1.160900000000000043e+00 5.924099999999999966e+01 -3.650914999999999822e+01 -3.083213198400506228e-01
1.044999999999999929e+01 -2.523600000000000065e+01 5.193399999999999750e+01 4.987269999999999648e+00 -2.573829919289588597e-01
1.045100000000000051e+01 -1.075599999999999890e+00 4.655100000000000193e+01 7.759941000000000422e+00 -2.869671419168871584e-01
1.045400000000000063e+01 -5.715799999999999770e+00 5.370700000000000074e+01 -1.069161000000000072e+01 -3.062640719613194951e-01
1.047000000000000064e+01 -5.867200000000000415e+00 3.951200000000000045e+01 1.100123999999999924e+01 -1.886247266267571665e-01
1.047499999999999964e+01 -1.990700000000000003e+01 5.494400000000000261e+01 5.567262000000000199e+01 -3.840366760522428424e-01
1.047700000000000031e+01 -5.759000000000000341e+00 4.818599999999999994e+01 -1.653126999999999924e+01 -2.891726362343579049e-01
1.048199999999999932e+01 -2.460699999999999932e+01 4.846300000000000097e+01 7.942651999999999646e+01 -2.596195006635415581e-01
1.048799999999999955e+01 -2.119900000000000162e+01 4.631600000000000250e+01 -8.330619999999999692e+00 -2.574171973368962751e-01
1.048799999999999955e+01 -2.119900000000000162e+01 4.771600000000000108e+01 8.979574000000000167e-01 -2.563363871591262111e-01
1.049300000000000033e+01 -2.555600000000000094e+01 5.413400000000000034e+01 1.055235999999999952e-01 -2.563407516043141321e-01
1.049499999999999922e+01 -2.528999999999999915e+01 3.771300000000000097e+01 -4.363088000000000299e+00 -1.557147834843835565e-01
1.049499999999999922e+01 -2.375400000000000134e+01 3.771300000000000097e+01 -1.118796000000000035e+01 -1.533614303452684180e-01
1.049600000000000044e+01 2.679699999999999971e+00 5.310600000000000165e+01 -1.930562000000000111e+01 -2.927603287910641727e-01
1.050300000000000011e+01 -9.943500000000000227e+00 4.047800000000000153e+01 -9.020457000000000392e+00 -8.065672564297292346e-02
1.050799999999999912e+01 -3.398200000000000109e+00 4.771600000000000108e+01 -1.289689000000000085e+00 -2.891437410763138538e-01
1.051200000000000045e+01 -2.549299999999999855e+01 5.110999999999999943e+01 6.795710999999999835e+00 -2.582914918126199000e-01
1.051399999999999935e+01 -2.283299999999999841e+01 4.559100000000000108e+01 1.666863999999999901e+00 -2.602060766378741508e-01
1.051500000000000057e+01 -1.660099999999999909e+01 3.700300000000000011e+01 -9.146176000000000528e+00 -8.059805152313012644e-02
1.051500000000000057e+01 -7.563499999999999668e-01 4.553199999999999648e+01 2.506908000000000136e+00 -2.867654205755993946e-01
1.051600000000000001e+01 2.689999999999999947e+00 5.479099999999999682e+01 -7.352751999999999732e+00 -2.932208083423603062e-01
1.051600000000000001e+01 2.807999999999999829e+00 5.394400000000000261e+01 -1.789709999999999823e+01 -2.930134638388077750e-01
1.052100000000000080e+01 2.805400000000000116e+00 5.568999999999999773e+01 -9.113538999999999390e+00 -1.842431170462359435e-01
1.052399999999999913e+01 -8.410000000000000142e+00 5.866100000000000136e+01 -1.445503000000000071e+01 -3.051830072753863310e-01
1.052999999999999936e+01 -2.531599999999999895e+01 5.362800000000000011e+01 6.213712000000000124e-01 -2.564514526072902978e-01
1.052999999999999936e+01 -2.510699999999999932e+01 5.289200000000000301e+01 7.116348000000000340e+00 -2.567046415642690871e-01
1.053800000000000026e+01 -2.534900000000000020e+01 4.972800000000000153e+01 3.836304000000000158e+00 -2.593328972174861469e-01
1.053800000000000026e+01 -2.534900000000000020e+01 5.059400000000000119e+01 7.357783999999999658e+00 -2.585807287183817804e-01
1.053899999999999970e+01 -1.284800000000000075e+01 3.777700000000000102e+01 -2.193986999999999910e+01 -8.107744610837727683e-02
1.054100000000000037e+01 -1.530400000000000027e+01 3.675000000000000000e+01 -6.667237000000000080e+00 -8.096001142684919327e-02
1.055100000000000016e+01 -1.844099999999999895e+01 4.403300000000000125e+01 -1.411961999999999939e+01 -2.959692410551737485e-01
1.057000000000000028e+01 -1.808899999999999864e+01 3.759700000000000131e+01 -1.686194000000000059e+01 -1.544197461964735285e-01
1.057099999999999973e+01 -6.400900000000000478e-01 5.160999999999999943e+01 -1.202650000000000041e+01 -4.179196163117165908e-01
1.057099999999999973e+01 -6.400900000000000478e-01 5.247500000000000142e+01 -9.315048000000000883e+00 -4.178644283013189797e-01
1.057699999999999996e+01 -9.615099999999999980e+00 5.432300000000000040e+01 3.133542999999999878e+01 -3.815794614343423485e-01
1.058999999999999986e+01 -1.227699999999999925e+01 6.081499999999999773e+01 4.869064999999999976e+00 -2.891228441634473567e-01
1.059399999999999942e+01 -2.273699999999999832e+01 4.790500000000000114e+01 1.219848999999999961e+00 -2.579920448933065158e-01
1.059500000000000064e+01 -2.427599999999999980e+01 4.132099999999999795e+01 -2.744113000000000024e+00 -1.578097463221563579e-01
1.059600000000000009e+01 -2.566900000000000048e+01 4.035600000000000165e+01 -3.907446000000000197e+00 -1.608433038309187157e-01
1.060699999999999932e+01 -2.465700000000000003e+01 3.779200000000000159e+01 -9.394467000000000567e+00 -1.547410428428139528e-01
1.060800000000000054e+01 -8.684400000000000119e+00 3.960099999999999909e+01 -5.981621000000000299e-01 -1.947813228741321068e-01
1.061200000000000010e+01 -4.309999999999999609e+00 5.407800000000000296e+01 -7.913378999999999941e+00 -3.069009139300475364e-01
1.061599999999999966e+01 -3.215799999999999770e-01 5.064000000000000057e+01 -2.647953000000000046e+01 -2.912429071039798201e-01
1.061800000000000033e+01 -9.302400000000000446e+00 5.510399999999999920e+01 5.479084000000000287e+01 -3.816283317128366104e-01
1.061800000000000033e+01 -7.830300000000000260e+00 5.510399999999999920e+01 -4.795283999999999658e+00 -3.817660339384357782e-01
1.062100000000000044e+01 -1.397899999999999920e+01 5.624799999999999756e+01 1.194430999999999976e+01 -2.893289677978250207e-01
1.062100000000000044e+01 -1.257900000000000063e+01 5.624799999999999756e+01 4.973695000000000199e+00 -2.893811497940271260e-01
1.062800000000000011e+01 -1.401900000000000013e+01 5.373899999999999721e+01 -1.084033999999999942e+01 -2.897871199273513998e-01
1.062800000000000011e+01 -1.261899999999999977e+01 5.373899999999999721e+01 -3.944707999999999970e+01 -2.898306489997791724e-01
1.063000000000000078e+01 -1.191300000000000026e+01 3.991299999999999670e+01 -2.386366999999999905e+01 -8.056537164285695884e-02
1.063499999999999979e+01 -9.289500000000000313e+00 5.300600000000000023e+01 1.229649999999999999e+01 -3.815982225177582676e-01
1.063599999999999923e+01 1.169399999999999995e+00 5.074699999999999989e+01 -1.066851999999999911e+01 -2.915945263398595499e-01
1.063700000000000045e+01 -1.523000000000000043e+01 5.944299999999999784e+01 5.333650999999999698e+00 -3.824984812778849386e-01
1.063700000000000045e+01 -1.499900000000000055e+01 6.025800000000000267e+01 9.947525999999999868e+00 -3.824868327089678832e-01
1.065000000000000036e+01 2.649700000000000166e+00 5.798400000000000176e+01 -2.268361000000000161e+01 -3.093613468549850642e-01
1.066300000000000026e+01 -2.494000000000000128e+01 4.909000000000000341e+01 3.555269000000000013e+00 -2.595481016074870917e-01
1.066799999999999926e+01 -1.264499999999999957e+01 3.879699999999999704e+01 -3.910468999999999795e+01 -8.079091178713390664e-02
1.067399999999999949e+01 2.474800000000000111e+00 5.229899999999999949e+01 -4.645042000000000115e+00 -2.923990067311326713e-01
1.068099999999999916e+01 -1.748000000000000043e+01 5.670100000000000051e+01 2.430824000000000140e+01 -3.830956244224313911e-01
1.068299999999999983e+01 -2.004000000000000004e+00 5.923700000000000188e+01 -2.344187000000000154e+01 -3.080278494872770167e-01
1.068800000000000061e+01 -7.467699999999999783e+00 4.868299999999999983e+01 -1.923285999999999873e+01 -2.884043958765412641e-01
1.068800000000000061e+01 -2.404599999999999937e+01 4.845600000000000307e+01 8.659532000000000451e+00 -2.591125958259991036e-01
1.069599999999999973e+01 -2.673999999999999932e+00 4.105700000000000216e+01 -1.655829999999999913e+01 -2.899175144047604347e-01
1.069599999999999973e+01 -2.349099999999999966e+00 4.179399999999999693e+01 -1.889823000000000164e+01 -2.893509616565851927e-01
1.070100000000000051e+01 -2.357300000000000040e+01 5.640899999999999892e+01 1.692204999999999870e+01 -2.541437524290913741e-01
1.070400000000000063e+01 2.380500000000000116e-01 5.810099999999999909e+01 1.292840999999999951e+01 -3.086780345314491525e-01
1.070500000000000007e+01 -2.644699999999999829e+00 5.459799999999999898e+01 -3.456675000000000164e+00 -3.076022231880047864e-01
1.070500000000000007e+01 -1.202699999999999925e+01 5.406600000000000250e+01 -1.358295999999999992e+01 -2.898309486753715691e-01
1.070700000000000074e+01 -1.367999999999999972e+01 6.109000000000000341e+01 -8.467259000000000313e+00 -3.822058423095978652e-01
1.071000000000000085e+01 1.711000000000000076e+00 5.808299999999999841e+01 -6.552037000000000333e+00 -3.090973299236278726e-01
1.071199999999999974e+01 -1.535299999999999976e+01 5.853099999999999881e+01 6.497897000000000034e+00 -3.824808164273368893e-01
1.071299999999999919e+01 2.979099999999999859e+00 5.722399999999999665e+01 -1.983397000000000077e+01 -1.844687125437124153e-01
1.071299999999999919e+01 -2.338700000000000045e+01 4.340800000000000125e+01 -6.782782000000000089e+00 -1.534148395453385771e-01
1.071799999999999997e+01 -9.323700000000000543e+00 5.932600000000000051e+01 2.062307999999999919e-01 -3.046482305290794668e-01
1.072499999999999964e+01 -1.152500000000000036e+01 5.410300000000000153e+01 -6.701776999999999873e-01 -2.898660047581181898e-01
1.072700000000000031e+01 -7.120000000000000107e+00 5.905599999999999739e+01 -2.599070000000000036e+01 -3.818991660671268717e-01
1.072700000000000031e+01 -5.599999999999999645e+00 5.905599999999999739e+01 -9.754940999999999462e+01 -3.820160859599615599e-01
1.072700000000000031e+01 -3.300600000000000200e+00 5.850699999999999790e+01 -1.495312000000000019e+01 -3.075687655379006902e-01
1.072700000000000031e+01 -7.073899999999999633e-01 5.850699999999999790e+01 -3.825193999999999761e+01 -3.083965882386993096e-01
1.073799999999999955e+01 -5.434599999999999653e+00 4.021200000000000330e+01 6.468971999999999944e+00 -1.875063142342056621e-01
1.074499999999999922e+01 -6.564799999999999969e+00 3.801299999999999812e+01 4.985289999999999999e+00 -1.920279367608630494e-01
1.075000000000000000e+01 -8.807999999999999829e+00 5.086999999999999744e+01 -1.180996999999999986e+01 -2.856367382798352672e-01
1.075799999999999912e+01 -3.967000000000000082e+00 4.023799999999999955e+01 -1.508883999999999892e+00 -2.923129737683531904e-01
1.075799999999999912e+01 -1.050300000000000011e+01 4.010600000000000165e+01 -4.262564000000000242e+00 -8.073225476049139537e-02
1.075799999999999912e+01 -2.175799999999999912e+01 3.703999999999999915e+01 -5.247891000000000084e+00 2.679380683290318726e-02
1.075799999999999912e+01 -2.005799999999999983e+01 3.703999999999999915e+01 -6.191958999999999769e+00 -1.505542446186421968e-01
1.075999999999999979e+01 -7.389299999999999757e-01 4.455599999999999739e+01 8.024756000000000000e+00 -2.870319371782764639e-01
1.075999999999999979e+01 -1.917699999999999960e+01 4.403300000000000125e+01 -6.929357000000000433e+00 -2.906619788800476334e-01
1.075999999999999979e+01 -1.770499999999999829e+01 4.403300000000000125e+01 -1.038915000000000077e+01 -2.901411678532980765e-01
1.076099999999999923e+01 -7.291100000000000136e+00 3.786699999999999733e+01 1.810122999999999927e+00 -1.940022370882818203e-01
1.076699999999999946e+01 -1.371100000000000030e+01 3.680899999999999750e+01 -1.719553000000000154e+01 -8.131425237118215799e-02
1.076800000000000068e+01 -5.066799999999999748e+00 4.771999999999999886e+01 -9.030490000000000350e+00 -2.902404005404960463e-01
1.077100000000000080e+01 -8.618399999999999395e+00 5.031799999999999784e+01 -1.874991999999999948e+01 -2.862835716208623760e-01
1.077399999999999913e+01 -8.297299999999999898e+00 3.885699999999999932e+01 -1.880246999999999891e-01 -1.950513392874975438e-01
1.077800000000000047e+01 -1.920700000000000074e+01 5.500200000000000244e+01 4.345611999999999853e+01 -3.837469470900047308e-01
1.077999999999999936e+01 -8.344300000000000495e+00 4.947699999999999676e+01 -1.517107999999999990e+01 -2.873190353884007009e-01
1.078100000000000058e+01 -2.618900000000000006e+01 3.830799999999999983e+01 -2.310589999999999922e+00 -1.582210855326443011e-01
1.078299999999999947e+01 2.770000000000000018e+00 5.650800000000000267e+01 -2.080441000000000074e+01 -1.843405227465807483e-01
1.078500000000000014e+01 -1.412700000000000067e+00 5.453399999999999892e+01 8.977410000000000778e+00 -3.080574422572507909e-01
1.078599999999999959e+01 -2.120899999999999785e+00 4.254099999999999682e+01 -9.716297000000000475e-03 -2.889471558307216692e-01
1.079100000000000037e+01 -8.935299999999999798e+00 5.601100000000000279e+01 2.692229000000000028e+01 -3.816960596427863006e-01
1.079100000000000037e+01 -8.070100000000000051e+00 5.601100000000000279e+01 -8.704487000000000307e+00 -3.817716348222909284e-01
1.079899999999999949e+01 -2.191000000000000014e+01 5.581600000000000250e+01 1.967839999999999989e+01 -2.533660730937316030e-01
1.080000000000000071e+01 -1.610699999999999932e+01 5.756099999999999994e+01 1.493209000000000053e+01 -3.826677010237082843e-01
1.081499999999999950e+01 -2.304100000000000037e+01 3.778399999999999892e+01 -8.620587000000000444e+00 -1.522351734448334493e-01
1.081799999999999962e+01 -1.887399999999999878e+01 4.333299999999999841e+01 -1.892274000000000100e+01 -1.635551225405671993e-01
1.081799999999999962e+01 -1.800799999999999912e+01 4.333299999999999841e+01 -1.403419000000000061e+01 -2.040803031765017761e-01
1.081799999999999962e+01 -1.800799999999999912e+01 4.473299999999999699e+01 -1.111922000000000033e+01 -2.953086211229860591e-01
1.081799999999999962e+01 -1.987000000000000099e+01 4.732900000000000063e+01 -2.481266000000000105e+01 -2.555779684966533738e-01
1.082000000000000028e+01 -2.906199999999999894e-01 5.823499999999999943e+01 -7.046340999999999966e+00 -3.085023729715582474e-01
1.082099999999999973e+01 -1.613200000000000145e+01 3.688700000000000045e+01 -8.508625000000000327e+00 -8.079773065698112045e-02
1.082099999999999973e+01 -2.575700000000000145e+01 5.652000000000000313e+01 -1.154133000000000031e+01 -2.556036957532400455e-01
1.082300000000000040e+01 -2.315299999999999869e+01 4.486399999999999721e+01 -5.202100999999999774e-03 -1.511390455392422338e-01
1.085899999999999999e+01 -2.027899999999999991e+01 4.658100000000000307e+01 -3.423693999999999704e+01 -2.565346825009336973e-01
1.086700000000000088e+01 -2.177799999999999869e+01 4.578499999999999659e+01 5.268898000000000081e+00 -2.589024248637114001e-01
1.087700000000000067e+01 -2.017299999999999827e+01 4.802900000000000347e+01 1.142101999999999951e+00 -2.554781686339371305e-01
1.088100000000000023e+01 -2.481800000000000139e+01 5.661899999999999977e+01 -2.985006999999999877e+01 -2.549915430485185652e-01
1.088299999999999912e+01 -1.189300000000000068e+01 5.481099999999999994e+01 -1.215759000000000034e+00 -2.897837058676863142e-01
1.088400000000000034e+01 -2.608599999999999852e+01 5.575999999999999801e+01 -2.413845999999999847e+01 -2.561973124863267670e-01
1.090099999999999980e+01 -2.587099999999999866e+01 5.495100000000000051e+01 -5.756186999999999721e+00 -2.564436736737362166e-01
1.090199999999999925e+01 -9.311600000000000321e+00 5.255100000000000193e+01 5.903077999999999825e+00 -3.816226246184959425e-01
1.093099999999999916e+01 -1.050999999999999934e+00 4.364800000000000324e+01 1.066763000000000083e+01 -2.876126679987239254e-01
1.093299999999999983e+01 -6.652000000000000135e+00 5.414200000000000301e+01 -8.796447999999999823e+00 -3.058525894154934255e-01
1.093399999999999928e+01 -1.078899999999999970e+01 5.410300000000000153e+01 1.239250000000000007e+01 -2.900315732303577754e-01
1.093800000000000061e+01 -8.001400000000000290e+00 3.827000000000000313e+01 1.388857000000000008e+00 -1.952874722176171363e-01
1.096400000000000041e+01 -4.991699999999999804e+00 5.400099999999999767e+01 -8.888006000000000739e+00 -3.065592575438535472e-01
1.097199999999999953e+01 9.877700000000000369e-01 5.775600000000000023e+01 2.093803000000000125e+01 -3.088487789522686433e-01
1.097300000000000075e+01 -1.246000000000000085e+01 5.336599999999999966e+01 -4.334745999999999810e+01 -2.901247064294072975e-01
1.097700000000000031e+01 -2.220200000000000173e+01 4.854800000000000182e+01 3.354782000000000153e+01 -2.572253715139116159e-01
1.097700000000000031e+01 -2.133599999999999852e+01 4.854800000000000182e+01 1.647669000000000139e+01 -2.563491550549416020e-01
1.098199999999999932e+01 -2.071900000000000119e+01 5.497699999999999676e+01 5.890621999999999758e+01 -3.843995031266000950e-01
1.098499999999999943e+01 -1.729299999999999926e+01 3.741700000000000159e+01 -9.634090999999999738e+00 -1.878902072600722173e-01
1.098799999999999955e+01 -1.944099999999999895e+01 4.654200000000000159e+01 -6.575260000000000105e+01 -2.558380853002640842e-01
1.099200000000000088e+01 -1.109200000000000053e+01 5.340299999999999869e+01 6.474134000000000277e+00 -2.902037566237659627e-01
1.099200000000000088e+01 -1.109200000000000053e+01 5.480299999999999727e+01 1.306104999999999983e+01 -2.898961050703184883e-01
1.099699999999999989e+01 -2.074899999999999878e+01 4.583299999999999841e+01 -7.237245999999999846e+00 -2.577375112213379227e-01
1.100200000000000067e+01 -6.608999999999999986e+00 4.851100000000000279e+01 -1.864245999999999981e+01 -2.891597318534621097e-01
1.101399999999999935e+01 2.895499999999999741e-01 5.123400000000000176e+01 -2.782674000000000092e+01 -2.914618893217715834e-01
1.101399999999999935e+01 1.840500000000000025e+00 5.123400000000000176e+01 8.693457999999999464e-01 -2.917687080635881225e-01
1.101600000000000001e+01 -9.321699999999999875e+00 5.146699999999999875e+01 -7.297215999999999703e+00 -3.816324713689823733e-01
1.101699999999999946e+01 -2.367999999999999972e+01 4.193699999999999761e+01 -2.952316000000000162e+00 -1.566293701766384161e-01
1.101900000000000013e+01 -8.813200000000000145e+00 5.892399999999999949e+01 -2.086170000000000080e+00 -3.049344146195157035e-01
1.101999999999999957e+01 -2.315700000000000003e+01 4.390699999999999648e+01 -1.053402999999999956e+01 -1.528737610135900149e-01
1.102100000000000080e+01 -1.854299999999999926e+01 3.812199999999999989e+01 -2.073352999999999824e+01 -1.538629946289510053e-01
1.102899999999999991e+01 -1.913400000000000034e+01 4.555100000000000193e+01 -3.193055000000000021e+01 -2.897205751074402591e-01
1.103999999999999915e+01 -9.384399999999999409e+00 3.986800000000000210e+01 -3.745760999999999896e+00 -8.098544357491230250e-02
1.104700000000000060e+01 -7.911699999999999733e+00 4.877700000000000102e+01 -1.821828999999999965e+01 -2.886039039714052290e-01
1.105199999999999960e+01 -2.328300000000000125e+01 4.844200000000000017e+01 6.767771999999999899e+00 -2.585319860388805013e-01
1.105400000000000027e+01 -1.447000000000000064e+01 5.585199999999999676e+01 2.140972999999999971e+01 -2.896097249987117372e-01
1.105400000000000027e+01 -1.327899999999999991e+01 5.651599999999999824e+01 5.325330000000000119e+00 -2.895411736217188836e-01
1.105400000000000027e+01 -1.208799999999999919e+01 5.585199999999999676e+01 -1.204418999999999906e+00 -2.896856416487648689e-01
1.105599999999999916e+01 -6.360000000000000320e+00 5.911899999999999977e+01 -1.003057000000000016e+02 -3.819788219522670669e-01
1.106099999999999994e+01 -1.471899999999999942e+01 5.487199999999999989e+01 4.575536999999999921e+01 -2.897834984866384245e-01
1.106099999999999994e+01 -1.450999999999999979e+01 5.413600000000000279e+01 1.356267000000000067e+01 -2.899400356400823608e-01
1.106099999999999994e+01 -1.331900000000000084e+01 5.347200000000000131e+01 -2.512867999999999924e+01 -2.901173101861759251e-01
1.106300000000000061e+01 -1.240399999999999991e+01 3.951700000000000301e+01 -2.582582000000000022e+01 -8.068744181754010369e-02
1.106300000000000061e+01 -1.121299999999999919e+01 4.018099999999999739e+01 -1.499784000000000006e+01 -8.067094500938204460e-02
1.106400000000000006e+01 2.221799999999999997e+00 5.729200000000000159e+01 -2.748913999999999902e+01 -3.091807827994617619e-01
1.107099999999999973e+01 -4.366799999999999571e+00 4.766100000000000136e+01 -3.423897000000000190e+00 -2.905253761818339386e-01
1.107799999999999940e+01 -2.826000000000000068e+00 4.790599999999999881e+01 1.924252999999999929e+02 -2.889663823893184880e-01
1.107799999999999940e+01 -1.507500000000000062e+00 4.717099999999999937e+01 -1.025746999999999964e+01 -2.878331402329209476e-01
1.108900000000000041e+01 -1.965399999999999991e+01 4.454399999999999693e+01 5.162561000000000178e+00 -2.575758406592411065e-01
1.109099999999999930e+01 -1.129800000000000004e+01 6.081400000000000006e+01 3.976090999999999820e+00 -3.036545212870010446e-01
1.109099999999999930e+01 -9.851900000000000546e+00 6.000800000000000267e+01 2.425714999999999844e+00 -3.043976912058441453e-01
1.109200000000000053e+01 -1.006900000000000084e+01 5.481099999999999994e+01 1.789131000000000071e+01 -3.816034966089328906e-01
1.109999999999999964e+01 -5.063399999999999679e+00 5.838900000000000290e+01 -2.473535000000000039e+01 -3.069173416349582073e-01
1.110399999999999920e+01 -1.863400000000000034e+01 5.552400000000000091e+01 8.249604999999999677e+01 -3.835358250496000432e-01
1.111400000000000077e+01 -2.473700000000000010e+00 5.870400000000000063e+01 -2.190615999999999985e+01 -3.077965232778590576e-01
1.111400000000000077e+01 -1.534299999999999997e+00 5.870400000000000063e+01 -2.592148999999999859e+01 -3.080901648375786173e-01
1.111599999999999966e+01 -1.445500000000000007e+01 6.069700000000000273e+01 -2.874427999999999983e+00 -3.824134216959758636e-01
1.112700000000000067e+01 -2.090800000000000125e+01 3.696900000000000119e+01 -4.956547999999999732e+00 -1.488396387866219306e-01
1.113000000000000078e+01 -9.732300000000000395e+00 5.552400000000000091e+01 3.324175999999999931e+01 -3.816507168646991466e-01
1.113100000000000023e+01 -1.991499999999999915e+01 4.577400000000000091e+01 -1.569683999999999990e+01 -2.569792984359455801e-01
1.113400000000000034e+01 -1.833299999999999841e+01 4.555100000000000193e+01 -1.057971000000000039e+01 -2.947496298307929474e-01
1.113700000000000045e+01 -3.459999999999999964e+00 5.440299999999999869e+01 -6.664184999999999803e+00 -3.072046454815956507e-01
1.115000000000000036e+01 -1.146000000000000085e+01 5.551100000000000279e+01 -1.178554000000000102e+00 -2.898258469085469025e-01
1.115700000000000003e+01 -3.720299999999999940e+00 5.799499999999999744e+01 -9.471424000000000731e+00 -3.073396759578777560e-01
1.116000000000000014e+01 -2.408899999999999864e+01 4.108299999999999841e+01 -1.094809000000000054e+01 -1.587152032389233525e-01
1.116600000000000037e+01 -3.206999999999999851e+00 4.062599999999999767e+01 -5.516185000000000116e+00 -2.910989143484365993e-01
1.116999999999999993e+01 -2.285200000000000031e+01 5.592799999999999727e+01 1.191414999999999935e+01 -2.541793231193937297e-01
1.116999999999999993e+01 -6.134599999999999831e+00 3.907900000000000063e+01 8.258609999999999118e+00 -1.903264428112192985e-01
1.116999999999999993e+01 -5.925500000000000433e+00 3.981499999999999773e+01 4.841812000000000005e+00 -1.892353244988964067e-01
1.116999999999999993e+01 -9.641299999999999315e+00 5.296000000000000085e+01 4.193195000000000228e+00 -3.816228704081929268e-01
1.117900000000000027e+01 -1.798499999999999943e+01 5.631199999999999761e+01 3.330828999999999951e+01 -3.833081276827016715e-01
1.118099999999999916e+01 -1.291300000000000026e+01 6.079699999999999704e+01 -1.446804000000000023e+01 -3.820426459022622234e-01
1.119699999999999918e+01 -1.870499999999999829e+01 4.654200000000000159e+01 -1.550333000000000006e+01 -3.833037304132170253e-01
1.120700000000000074e+01 -8.997299999999999187e+00 3.912400000000000233e+01 7.262107999999999564e+00 -8.127842040134168611e-02
1.121000000000000085e+01 -2.145799999999999841e+01 5.517600000000000193e+01 3.002193000000000112e+01 -2.535828318257051239e-01
1.121400000000000041e+01 -5.183400000000000230e-01 5.307600000000000051e+01 -1.727485000000000070e+01 -4.177747477933105857e-01
1.121499999999999986e+01 -1.844099999999999895e+01 4.284199999999999875e+01 -8.036077999999999832e+00 -2.053444893802958138e-01
1.121700000000000053e+01 1.419999999999999873e-01 5.774399999999999977e+01 5.739094999999999658e+01 -3.085596850307632533e-01
1.121899999999999942e+01 -1.629999999999999893e+00 4.293800000000000239e+01 3.333861000000000185e+00 -2.886587865803030839e-01
1.122000000000000064e+01 -1.056200000000000028e+00 4.601700000000000301e+01 -7.043561999999999879e-01 -2.876270021997091031e-01
1.122100000000000009e+01 2.537999999999999812e+00 5.525699999999999790e+01 5.414063999999999766e+00 -2.930514713979150976e-01
1.122600000000000087e+01 -1.950600000000000023e+01 3.785699999999999932e+01 -8.196651999999999827e-01 -1.520680679103364463e-01
1.122700000000000031e+01 -2.528200000000000003e+01 3.806900000000000261e+01 -6.725362999999999758e+00 -1.554565490301146324e-01
1.122700000000000031e+01 -2.528200000000000003e+01 4.052900000000000347e+01 -9.014039999999999608e+00 -1.603578847528575602e-01
1.122700000000000031e+01 -4.725900000000000212e+00 4.052799999999999869e+01 3.986422000000000021e-01 -1.865596045375356449e-01
1.123000000000000043e+01 -2.537399999999999878e+01 5.245900000000000318e+01 5.731995000000000395e+00 -2.577149100957638606e-01
1.123700000000000010e+01 -1.657999999999999829e+01 5.704500000000000171e+01 1.999841999999999942e+01 -3.828396156173836662e-01
1.123700000000000010e+01 -7.602000000000000313e+00 5.864500000000000313e+01 -1.398071999999999981e+01 -3.818901314546560011e-01
1.123799999999999955e+01 -2.529100000000000037e+01 5.089699999999999847e+01 1.631817000000000073e+00 -2.587693766540269946e-01
1.123799999999999955e+01 -2.508200000000000074e+01 5.016100000000000136e+01 2.794707999999999970e+00 -2.591544310917938132e-01
1.123900000000000077e+01 -2.551999999999999957e+01 5.142199999999999704e+01 4.317294000000000409e+00 -2.585850726918768050e-01
1.123900000000000077e+01 -1.452399999999999913e+01 3.662199999999999989e+01 -6.468195999999999835e+00 -8.129358476767827024e-02
1.123900000000000077e+01 -1.323099999999999987e+01 3.734300000000000352e+01 -3.901100999999999885e+01 -8.128070307211883450e-02
1.125099999999999945e+01 -1.957400000000000162e+01 4.360099999999999909e+01 -1.213329000000000057e+01 -2.583469784379914813e-01
1.125099999999999945e+01 -1.730799999999999983e+01 4.360099999999999909e+01 -7.151536000000000115e+00 -2.041582059915735547e-01
1.125099999999999945e+01 -1.730799999999999983e+01 4.446600000000000108e+01 -8.230947999999999709e+00 -2.902932069587499386e-01
1.125500000000000078e+01 -1.900799999999999912e+01 4.724199999999999733e+01 -1.057061000000000028e+01 -3.835149531377313181e-01
1.125799999999999912e+01 -7.177299999999999791e+00 5.499199999999999733e+01 -7.084622000000000419e+00 -3.818823109828363149e-01
1.126200000000000045e+01 -2.226200000000000045e+01 3.782600000000000051e+01 -4.640286999999999829e+00 -1.510408409001681718e-01
1.127100000000000080e+01 2.383500000000000174e+00 5.203399999999999892e+01 2.223852000000000118e+01 -2.920584474748201265e-01
1.127100000000000080e+01 2.615000000000000213e+00 5.284899999999999665e+01 -1.506835000000000058e+01 -2.923660502205264189e-01
1.127299999999999969e+01 -2.060600000000000165e+01 4.852000000000000313e+01 7.593885000000000218e+00 -2.559359293387514778e-01
1.127399999999999913e+01 -2.527299999999999969e+01 5.327900000000000347e+01 2.665742999999999974e+00 -2.571470902105839618e-01
1.128200000000000003e+01 -2.820100000000000051e+00 5.797299999999999898e+01 -1.328312999999999988e+01 -3.076243555747292246e-01
1.128800000000000026e+01 -2.376300000000000168e+01 3.797099999999999653e+01 -5.683221999999999774e+00 -1.530600761534801901e-01
1.129100000000000037e+01 -2.167899999999999938e+00 5.521300000000000097e+01 2.855189000000000199e+00 -3.077181997360922128e-01
1.129700000000000060e+01 -9.549400000000000110e-01 4.509599999999999653e+01 -2.474136999999999809e+00 -2.876797064582813923e-01
1.129899999999999949e+01 -1.092600000000000016e+00 5.791599999999999682e+01 -2.870439999999999969e+01 -3.081742212005613712e-01
1.130199999999999960e+01 -5.801999999999999602e+00 5.407099999999999795e+01 -9.369491999999999265e+00 -3.061856440760972742e-01
1.130400000000000027e+01 -1.290900000000000070e+01 3.822200000000000131e+01 -4.715144999999999698e+01 -8.104573872509925059e-02
