-9.096099999999999852e+00 -3.072700000000000031e+01 -1.056700000000000017e+01 3.602034999999999876e+00 -1.559426089347137612e-01
-9.095000000000000639e+00 -2.633899999999999864e+01 -1.639000000000000057e+01 1.578177999999999948e+01 -1.281467719182862175e-01
-9.095000000000000639e+00 -2.633899999999999864e+01 -1.552399999999999913e+01 8.968128000000000100e+00 -1.275273184441912122e-01
-9.090700000000000003e+00 -1.103899999999999970e+01 2.306299999999999795e+00 7.250615999999999950e+00 1.518750795410525045e-01
-9.077099999999999724e+00 -8.194499999999999673e+00 -5.429599999999999760e+00 -6.408742000000000161e+00 2.394712526703892674e-01
-9.077099999999999724e+00 -9.346899999999999764e+00 -1.419100000000000072e+01 4.692751000000000339e+00 -8.505271134530748012e-02
-9.069000000000000838e+00 -2.810800000000000054e+01 -2.140399999999999991e+01 8.042498000000000147e+00 -1.279530491233987211e-01
-9.069000000000000838e+00 -2.655799999999999983e+01 -2.140399999999999991e+01 4.845011000000000223e+01 -1.293624310182318604e-01
-9.059400000000000119e+00 -1.083799999999999919e+01 -1.514000000000000057e+01 6.671975999999999907e+00 -3.676462317287516879e-02
-9.053000000000000824e+00 -3.204699999999999704e+01 -9.522299999999999542e+00 1.448960999999999943e+00 -1.531439347030826847e-01
-9.053000000000000824e+00 -3.204699999999999704e+01 -8.471700000000000230e+00 1.691821999999999937e+00 -1.506881367189627230e-01
-9.052599999999999980e+00 -2.846600000000000108e+01 -1.879100000000000037e+01 1.350070999999999977e+01 -1.274662514322479900e-01
-9.051099999999999923e+00 -7.703500000000000014e+00 -1.018200000000000038e+01 -4.643295000000000172e+00 1.627072608151049760e-01
-9.044700000000000628e+00 -2.518700000000000117e+01 -1.989999999999999858e+01 1.701180000000000092e+01 -1.308233571370393533e-01
-9.038899999999999935e+00 -9.425900000000000389e+00 1.252500000000000036e+01 -3.919156000000000084e+00 -3.846038748224722137e-01
-9.038500000000000867e+00 -6.304000000000000270e+00 -9.420299999999999230e+00 3.668681999999999999e+00 1.930839481374325151e-01
-9.035999999999999588e+00 -8.075699999999999434e+00 -6.369600000000000151e+00 -5.645882000000000289e+00 -1.584353576217522597e-01
-9.032700000000000173e+00 -2.626000000000000156e+01 9.903000000000000469e+00 -1.992660000000000098e+00 -1.049483854022863483e-01
-9.028900000000000148e+00 -3.052499999999999858e+01 -6.821200000000000152e+00 6.029519999999999769e+00 -1.458459010907175446e-01
-9.025000000000000355e+00 -1.014899999999999913e+01 1.336899999999999977e+00 6.772638999999999854e+00 2.474385386084695937e-01
-9.022000000000000242e+00 -2.952199999999999847e+01 1.330400000000000027e+00 -2.659100000000000108e+01 -1.335932326560156924e-01
-9.019700000000000273e+00 -2.896699999999999875e+01 3.757699999999999818e+00 -3.443388999999999811e+00 -1.368032486755583477e-01
-9.019700000000000273e+00 -2.875799999999999912e+01 3.021700000000000053e+00 -1.324854999999999894e+00 -1.359149106671672658e-01
-8.983700000000000685e+00 -2.372700000000000031e+01 1.011899999999999977e+01 -1.618352999999999930e+00 -1.039764988123218215e-01
-8.977700000000000458e+00 -7.907000000000000028e+00 1.242699999999999960e+01 -8.324125999999999692e+00 -3.843051288871872639e-01
-8.970900000000000318e+00 -1.221599999999999930e+01 3.172600000000000087e+00 9.584182999999999453e+00 1.605973496084524554e-01
-8.965299999999999159e+00 -1.349900000000000055e+01 1.862199999999999989e+01 1.384557999999999900e-01 -4.208227984283612888e-01
-8.957399999999999807e+00 -1.669699999999999918e+01 -1.713400000000000034e+01 2.935112999999999861e+00 -1.340359686444932419e-01
-8.945600000000000662e+00 -1.041300000000000026e+01 1.290600000000000058e+01 4.883816000000000379e+00 -3.845831569963929497e-01
-8.935299999999999798e+00 -2.521499999999999986e+01 1.002200000000000024e+01 -1.539094000000000051e+01 -1.045572057066878752e-01
-8.932000000000000384e+00 -3.228000000000000203e+00 -1.299600000000000044e+01 2.582062000000000168e+01 1.277390850100751374e-01
-8.923000000000000043e+00 -1.151299999999999990e+01 1.652700000000000102e+01 -2.190574000000000154e+01 -3.834412310713520289e-01
-8.921400000000000219e+00 -1.782999999999999829e+01 -1.789300000000000068e+01 4.726053000000000281e+00 -1.371543536337397895e-01
-8.916999999999999815e+00 -9.132699999999999818e+00 -1.825599999999999890e+00 8.794750999999999763e+00 2.726093189777895609e-01
-8.916999999999999815e+00 -9.132699999999999818e+00 -9.603300000000000169e-01 7.891138999999999903e+00 2.637192111846115017e-01
-8.916999999999999815e+00 -9.132699999999999818e+00 9.032900000000000651e-02 1.756866000000000128e+01 2.542345228058078277e-01
-8.916000000000000369e+00 -2.805199999999999960e+01 -1.305199999999999960e+01 5.340097000000000094e+00 -1.247960421978508705e-01
-8.913999999999999702e+00 -3.040899999999999892e+01 -5.884999999999999787e+00 4.523013999999999868e+00 -1.429491386436793632e-01
-8.913999999999999702e+00 -3.015500000000000114e+01 -4.991299999999999848e+00 9.698406999999999556e+00 -1.398328796105016147e-01
-8.905699999999999505e+00 -2.973999999999999844e+01 9.732300000000000395e+00 5.145703000000000138e+00 -1.061098780907708400e-01
-8.903299999999999770e+00 -1.206000000000000050e+01 1.773400000000000176e+01 -1.314958000000000027e+01 -3.832459209081606200e-01
-8.887299999999999756e+00 -2.841600000000000037e+01 -1.223900000000000077e+01 8.963044999999999263e+00 -1.240132794836318331e-01
-8.874700000000000699e+00 -2.807999999999999829e+01 9.872799999999999798e+00 1.788281999999999927e+00 -1.055583781051553649e-01
-8.869999999999999218e+00 -1.605799999999999983e+01 -1.709199999999999875e+01 5.359568999999999583e+00 -1.331512917239433547e-01
-8.865000000000000213e+00 -3.026599999999999824e+01 -2.700800000000000090e+00 -1.159823000000000048e+00 -3.522390164650339162e-01
-8.863400000000000389e+00 -8.256899999999999906e+00 -4.442499999999999893e+00 -4.417081999999999731e+00 2.282614366002983231e-01
-8.861900000000000333e+00 -9.314600000000000435e+00 8.010300000000000864e+00 1.398445000000000071e+01 -1.174020786450031412e-01
-8.849999999999999645e+00 -1.595899999999999963e+01 1.662199999999999989e+01 -1.412479000000000040e+00 -4.206133098236513601e-01
-8.849999999999999645e+00 -1.584099999999999930e+01 1.577500000000000036e+01 -5.172257000000000104e+00 -4.207674056086757597e-01
-8.849999999999999645e+00 -1.570500000000000007e+01 1.751599999999999824e+01 4.432792000000000066e+00 -4.205415264266470499e-01
-8.834199999999999164e+00 -8.290599999999999525e+00 -2.759999999999999787e+00 1.047715999999999958e+01 2.863484354987025915e-01
-8.832399999999999807e+00 -2.291199999999999903e+01 -1.863800000000000168e+01 6.203630999999999673e+00 -1.336310909000846814e-01
-8.827700000000000102e+00 -2.677199999999999847e+01 -1.708999999999999986e+01 3.299884000000000128e+01 -1.286628603872394527e-01
-8.827700000000000102e+00 -2.677199999999999847e+01 -1.482399999999999984e+01 5.339965000000000295e+00 -1.271125846499373269e-01
-8.812300000000000466e+00 -1.657199999999999918e+01 1.429299999999999926e+01 -5.331678000000000139e+00 -4.207481297050931213e-01
-8.801999999999999602e+00 -2.185300000000000153e+01 1.114499999999999957e+01 1.332215000000000060e+01 -1.025098774541156332e-01
-8.798899999999999721e+00 -2.948799999999999955e+01 4.348200000000000287e+00 -1.720340999999999898e+00 -1.376261734541306125e-01
-8.798600000000000421e+00 -2.239199999999999946e+01 1.188799999999999990e+01 1.067162000000000077e+01 -1.021961561562111792e-01
-8.796599999999999753e+00 -8.362999999999999545e+00 8.927899999999999281e+00 1.244396000000000058e+01 -3.871941464716924242e-01
-8.783300000000000551e+00 -2.703200000000000003e+01 9.961600000000000676e+00 -2.037878000000000078e+00 -1.052085558659532072e-01
-8.783300000000000551e+00 -2.454799999999999827e+01 9.961600000000000676e+00 -7.837107999999999741e+00 -1.044266578050590810e-01
-8.772999999999999687e+00 -2.858699999999999974e+01 -2.062900000000000134e+01 5.578324000000000282e+00 -1.279780353441018759e-01
-8.772999999999999687e+00 -2.858699999999999974e+01 -1.967099999999999937e+01 6.301083000000000212e+00 -1.279127489924967997e-01
-8.769399999999999196e+00 -8.849000000000000199e+00 -1.338499999999999979e+01 -2.816879999999999939e-01 -9.930074196643884354e-02
-8.768800000000000594e+00 -1.881400000000000006e+01 1.146000000000000085e+01 4.240317000000000291e+01 -1.008687228369405109e-01
-8.768800000000000594e+00 -1.762300000000000111e+01 1.212400000000000055e+01 1.236166000000000054e+01 -4.200222977884811582e-01
-8.758900000000000574e+00 -1.431600000000000072e+01 1.842500000000000071e+01 1.978272999999999948e+00 -4.207301243769311361e-01
-8.747400000000000730e+00 -3.716299999999999937e+00 -1.218699999999999939e+01 3.130865999999999971e+01 2.846411584657263516e-01
-8.743700000000000472e+00 -2.215599999999999881e+01 1.354499999999999993e+01 3.829038999999999859e+00 -4.183072717072010005e-01
-8.743700000000000472e+00 -2.110600000000000165e+01 1.354499999999999993e+01 -2.759475000000000122e+00 -4.186900042065039851e-01
-8.733399999999999608e+00 -5.952399999999999913e+00 -1.037899999999999956e+01 4.881925999999999988e+00 1.627633163543890649e-01
-8.733100000000000307e+00 -2.733299999999999841e+01 -2.146900000000000119e+01 6.598143999999999565e+00 -1.291653816741712701e-01
-8.732100000000000861e+00 -8.564299999999999358e+00 -1.419100000000000072e+01 4.348837999999999759e+00 -1.033165568891883934e-01
-8.731299999999999173e+00 -7.094899999999999984e+00 -7.497700000000000031e+00 -7.016305999999999932e-01 -1.254155886962382005e-01
-8.730100000000000193e+00 -1.045599999999999952e+01 1.620500000000000052e+00 7.439366999999999841e+00 2.476817119508548104e-01
-8.728300000000000836e+00 -3.152199999999999847e+01 -1.037199999999999989e+01 2.309442999999999913e+00 -1.561482911706078280e-01
-8.728300000000000836e+00 -3.152199999999999847e+01 -7.621699999999999697e+00 6.493090999999999724e+00 -1.494233982942753391e-01
-8.727100000000000080e+00 -2.993599999999999994e+01 -4.354099999999999859e+00 8.749905000000000044e-01 -1.381714816389723322e-01
-8.724999999999999645e+00 -1.443599999999999994e+01 -1.627100000000000080e+01 3.045440000000000147e+00 -1.227818033280604765e-01
-8.715899999999999537e+00 -2.600499999999999901e+01 -2.069900000000000162e+01 4.453808999999999685e+01 -1.306303774682376073e-01
-8.711999999999999744e+00 -1.273399999999999999e+01 -1.437700000000000067e+01 2.483560999999999908e+01 1.851260417145644543e-01
-8.702600000000000335e+00 -2.999200000000000088e+01 -3.512300000000000200e+00 -6.238662999999999847e-01 -3.535230242623340624e-01
-8.700699999999999434e+00 -9.955899999999999750e+00 -1.517600000000000016e+01 5.842836000000000141e+00 -4.689043018442063532e-02
-8.700499999999999901e+00 -4.042900000000000382e+00 -1.299600000000000044e+01 6.877495999999999832e+00 1.045145382441912130e-01
-8.700499999999999901e+00 -2.413100000000000023e+00 -1.299600000000000044e+01 1.922249000000000052e+01 1.778088990505945211e-01
-8.693599999999999994e+00 -2.496699999999999875e+01 -1.924200000000000088e+01 1.864021999999999935e+01 -1.317138735804781746e-01
-8.682199999999999918e+00 -6.880399999999999849e+00 -1.041000000000000014e+01 5.514831000000000039e+00 1.580279838822525040e-01
-8.682000000000000384e+00 -1.172000000000000064e+01 -1.477899999999999991e+01 6.391750000000000043e+00 -2.724887350990625595e-02
-8.675100000000000477e+00 -5.491299999999999848e+00 -9.448999999999999844e+00 7.413472999999999757e+00 -1.330898829797540206e-01
-8.672900000000000276e+00 -2.252499999999999858e+01 1.269500000000000028e+01 7.105355999999999561e+00 -4.180163226709663893e-01
-8.666999999999999815e+00 -8.181900000000000617e+00 -3.556599999999999984e+00 5.163227000000000011e+00 2.192896352345209965e-01
-8.663999999999999702e+00 -4.685999999999999943e+00 -1.124099999999999966e+01 6.497486000000000317e+00 2.925825975544478763e-01
-8.661300000000000665e+00 -8.932700000000000529e+00 -1.504100000000000037e+01 1.174128999999999934e+01 -7.788038343729335178e-02
-8.653999999999999915e+00 -1.739699999999999847e+01 -1.719300000000000139e+01 -8.193565000000000431e-01 -1.375303897988901514e-01
-8.651999999999999247e+00 -1.157799999999999940e+01 5.583999999999999631e+00 6.606110000000000149e+00 1.895336362331309366e-01
-8.651999999999999247e+00 -1.057099999999999973e+01 6.591300000000000381e+00 4.033127999999999602e+00 2.064414512197822460e-01
-8.650700000000000500e+00 -1.180400000000000027e+01 2.439999999999999947e+00 2.518083999999999989e+01 1.550935899481414582e-01
-8.650299999999999656e+00 -1.880099999999999838e+01 -1.926399999999999935e+01 2.177522999999999875e+00 -1.401100626997497378e-01
-8.643000000000000682e+00 -1.396599999999999930e+01 -1.529199999999999982e+01 5.139677999999999969e+00 -1.157242968075088418e-01
-8.639200000000000657e+00 -2.007000000000000028e+01 -2.011499999999999844e+01 -1.935551000000000021e+00 -1.387014356293543582e-01
-8.635999999999999233e+00 -3.706999999999999851e+00 -1.377100000000000080e+01 3.961332000000000075e+00 1.199696450941828418e-01
-8.635999999999999233e+00 -2.749000000000000110e+00 -1.377100000000000080e+01 4.935484999999999900e+00 1.868950638867402925e-01
-8.635999999999999233e+00 -2.749000000000000110e+00 -1.222100000000000009e+01 5.904758999999999958e+01 2.786461314010175300e-02
-8.635600000000000165e+00 -2.997200000000000131e+01 -1.096400000000000041e+01 8.222581999999999169e+00 -1.586554854817645299e-01
-8.629300000000000637e+00 -2.106500000000000128e+01 -2.008999999999999986e+01 1.926064999999999916e+00 -1.373021960835716093e-01
-8.622500000000000497e+00 -2.594699999999999918e+01 -1.586100000000000065e+01 9.221078000000000330e+00 -1.289419702387097355e-01
-8.620699999999999363e+00 -1.169699999999999918e+01 1.600700000000000145e+01 -2.427756000000000114e+01 -3.836555206263801976e-01
-8.618499999999999162e+00 -8.403499999999999304e+00 -1.044999999999999929e+01 4.995866999999999614e+00 1.538311271045941786e-01
-8.609999999999999432e+00 -2.935800000000000054e+01 -1.117900000000000027e+01 2.957188999999999979e+01 -1.597023828638689247e-01
-8.606099999999999639e+00 -2.210099999999999909e+01 1.030799999999999983e+01 1.252175000000000082e+01 -1.033624883559145502e-01
-8.604300000000000281e+00 -5.859700000000000131e+00 -8.599000000000000199e+00 7.138619000000000270e+00 -1.285598579365575256e-01
-8.602100000000000080e+00 -2.578999999999999915e+01 1.043599999999999994e+01 -6.597500000000000142e+00 -1.045456942640749787e-01
-8.592299999999999827e+00 -9.657999999999999474e+00 9.403299999999999992e-01 7.611978999999999829e+00 2.503933724656863813e-01
-8.589299999999999713e+00 -2.882199999999999918e+01 2.463000000000000078e+00 -6.389489999999999892e-01 -1.357417820176856638e-01
-8.584699999999999775e+00 -2.751300000000000168e+01 -1.750700000000000145e+01 1.265553000000000061e+01 -1.285789948667677707e-01
-8.580999999999999517e+00 -3.026500000000000057e+01 8.882300000000000750e+00 2.301890000000000214e+00 -1.067948291070491412e-01
-8.573999999999999844e+00 -3.063700000000000045e+01 -1.880700000000000038e+00 -1.110336999999999996e+01 -3.516580964475802817e-01
-8.573999999999999844e+00 -3.063700000000000045e+01 -9.412899999999999601e-01 -1.109933000000000014e+01 -3.504743947601329235e-01
-8.573499999999999233e+00 -2.072500000000000142e+01 1.273799999999999955e+01 1.093445000000000000e+01 -4.187308414459547379e-01
-8.538999999999999702e+00 -5.512699999999999712e+00 -1.127399999999999913e+01 3.819631000000000220e+00 2.883432426400397430e-01
-8.538999999999999702e+00 -3.859300000000000175e+00 -1.120800000000000018e+01 6.395799000000000234e+00 2.834961004634857160e-02
-8.537300000000000111e+00 -2.889000000000000057e+01 9.803100000000000591e+00 6.106998999999999761e-02 -1.059066778218981514e-01
-8.533699999999999619e+00 -2.885399999999999920e+01 -1.152899999999999991e+01 3.020345000000000013e+01 -1.613591989608091637e-01
-8.531000000000000583e+00 -8.992699999999999250e+00 -1.268900000000000006e+01 -4.225728000000000262e-01 1.091766784141252611e-01
-8.526899999999999480e+00 -4.508000000000000007e+00 -1.222899999999999920e+01 4.334579999999999878e+00 2.805046203122740778e-01
-8.522000000000000242e+00 -1.704200000000000159e+01 1.353299999999999947e+01 -5.400540999999999592e+00 -4.207557461116760433e-01
-8.522000000000000242e+00 -1.388899999999999935e+01 -1.457000000000000028e+01 1.151051999999999964e+01 -1.137841918428667831e-01
-8.514400000000000190e+00 -1.739799999999999969e+01 1.280100000000000016e+01 -5.848546999999999940e+00 -4.204515271526941822e-01
-8.512999999999999901e+00 -9.712999999999999190e+00 1.263799999999999990e+01 -7.991855000000000153e+00 -3.846719525808995899e-01
-8.511400000000000077e+00 -5.102599999999999802e+00 -1.035999999999999943e+01 5.186055999999999777e+00 -1.249228866079246519e-01
-8.510400000000000631e+00 -8.002800000000000580e+00 -2.395900000000000141e+00 6.769382000000000232e+00 2.831577416641388734e-01
-8.507999999999999119e+00 -8.666999999999999815e+00 1.271700000000000053e+01 -4.133930000000000149e+01 -3.844157544669336013e-01
-8.507999999999999119e+00 -7.373999999999999666e+00 1.039799999999999969e+01 -6.033012000000000263e+00 -3.859491209942742529e-01
-8.507999999999999119e+00 -7.373999999999999666e+00 1.199600000000000044e+01 -2.220579999999999998e+01 -3.845447308446178214e-01
-8.507999999999999119e+00 -7.147000000000000242e+00 1.119699999999999918e+01 -2.132713999999999999e+01 -3.851530528761126781e-01
-8.503000000000000114e+00 -2.729700000000000060e+01 -1.397400000000000020e+01 5.404790000000000205e+00 -1.265451983964791527e-01
-8.499100000000000321e+00 -2.904700000000000060e+01 1.593699999999999894e+00 -3.169845999999999775e-02 -1.347002405928241775e-01
-8.493999999999999773e+00 -1.307099999999999973e+01 2.375900000000000123e+00 1.225591000000000008e+01 -3.242359681905164492e-02
-8.486100000000000421e+00 -2.572400000000000020e+01 -2.030000000000000071e+01 1.884327000000000041e+01 -1.313926619164803855e-01
-8.485099999999999199e+00 -2.896900000000000119e+01 3.895999999999999908e+00 -1.797350999999999921e+00 -1.376425180895604339e-01
-8.485099999999999199e+00 -2.876000000000000156e+01 3.160000000000000142e+00 -1.247009000000000034e+00 -1.367926659236117781e-01
-8.484400000000000830e+00 -8.432700000000000529e+00 -2.092999999999999972e+00 9.661663000000000778e+00 2.782484715325656000e-01
-8.483700000000000685e+00 -1.297400000000000020e+01 1.802599999999999980e+01 -2.115240000000000009e+01 -3.833764513119933826e-01
-8.478899999999999437e+00 -2.354200000000000159e+01 -1.812199999999999989e+01 9.979411000000000698e+00 -1.335392834845038346e-01
-8.463699999999999335e+00 -1.358500000000000085e+01 -1.386999999999999922e+01 1.885456999999999894e+01 1.835518898208572947e-01
-8.463699999999999335e+00 -1.272000000000000064e+01 -1.386999999999999922e+01 2.786036999999999964e+01 1.809697820241759625e-01
-8.461999999999999744e+00 -2.986899999999999977e+01 5.217699999999999783e+00 -1.436013999999999902e+00 -1.388878925702418110e-01
-8.460200000000000387e+00 -1.113299999999999912e+01 1.407099999999999973e+01 2.296162999999999954e+00 -3.842434880821744558e-01
-8.457599999999999341e+00 -2.958399999999999963e+01 2.778900000000000259e-01 -1.169832000000000072e+01 -3.485933495635656909e-01
-8.457000000000000739e+00 -2.306099999999999994e+01 1.003899999999999970e+01 -7.036239000000000132e+00 -1.039710598290111143e-01
-8.449600000000000222e+00 -2.611899999999999977e+01 -1.504299999999999926e+01 4.807055000000000078e+00 -1.284129049358006536e-01
-8.435100000000000264e+00 -9.601599999999999469e+00 7.757500000000000284e+00 6.963855999999999824e+00 -8.175303589910050406e-02
-8.426199999999999690e+00 -2.453500000000000014e+01 -1.854200000000000159e+01 1.112256999999999962e+01 -1.326065381838231472e-01
-8.426099999999999923e+00 -8.736100000000000421e+00 -1.393000000000000016e+00 1.031390999999999991e+01 2.700008634400887786e-01
-8.423000000000000043e+00 -3.075499999999999901e+01 7.222000000000000419e+00 1.679560999999999993e+01 -1.407263208275814914e-01
-8.423000000000000043e+00 -3.050100000000000122e+01 6.328299999999999592e+00 1.280680999999999958e+00 -1.398977845306067225e-01
-8.420799999999999841e+00 -2.022200000000000131e+01 1.204400000000000048e+01 1.303603999999999985e+01 -1.011807647038750063e-01
-8.419000000000000483e+00 -2.163100000000000023e+01 1.269500000000000028e+01 2.983849000000000196e+00 -4.184359102846388900e-01
-8.418400000000000105e+00 -3.061899999999999977e+01 8.115600000000000591e+00 5.482107000000000063e+00 -1.417035746428517151e-01
-8.379699999999999704e+00 -1.587199999999999989e+01 1.542500000000000071e+01 -4.374426999999999843e+00 -4.209325479795533731e-01
-8.377100000000000435e+00 -7.927100000000000257e+00 -5.862199999999999633e+00 5.673195999999999906e+00 -1.098844425020319565e-01
-8.368000000000000327e+00 -5.165000000000000036e+00 -1.201600000000000001e+01 5.763981000000000243e+00 2.803290429354519664e-01
-8.368000000000000327e+00 -4.206999999999999851e+00 -1.046599999999999930e+01 4.177244000000000312e+01 -1.061495245275940469e-01
-8.364000000000000767e+00 -8.853899999999999437e+00 8.531299999999999883e+00 1.397170000000000023e+01 -3.874851678775365071e-01
-8.352100000000000080e+00 -2.155499999999999972e+01 -1.936499999999999844e+01 5.583711000000000091e+00 -1.375019049353937983e-01
-8.351100000000000634e+00 -8.836100000000000065e+00 -1.115000000000000036e+01 7.126185000000000436e+00 1.397492841973580480e-01
-8.336100000000000065e+00 -1.811400000000000077e+01 1.172700000000000031e+01 1.902323000000000164e+01 -1.003934007257559075e-01
-8.333899999999999864e+00 -2.503099999999999881e+01 1.047100000000000009e+01 -1.366507000000000005e+01 -1.043371006727786821e-01
-8.324699999999999989e+00 -1.510899999999999999e+01 1.799699999999999989e+01 3.237814000000000192e+01 -4.207297788213452128e-01
-8.315599999999999881e+00 -2.130799999999999983e+01 1.193800000000000061e+01 5.283663999999999916e+00 -1.018105225736572750e-01
-8.315099999999999270e+00 -7.703500000000000014e+00 -1.039100000000000001e+01 8.485333000000000681e+00 1.555825537937785552e-01
-8.298700000000000188e+00 -6.394899999999999807e+00 -7.765100000000000335e+00 1.114127000000000045e+01 -1.174571598097941261e-01
-8.294000000000000483e+00 -2.781200000000000117e+01 -2.092500000000000071e+01 5.395311000000000234e+01 -1.293974289500049168e-01
-8.294000000000000483e+00 -2.685399999999999920e+01 -2.092500000000000071e+01 2.366798999999999964e+01 -1.304238579063101144e-01
-8.293599999999999639e+00 -1.084900000000000020e+01 1.324699999999999989e+01 3.043902000000000108e+00 -3.845685361705045713e-01
-8.272700000000000387e+00 -2.655000000000000071e+01 1.037299999999999933e+01 -7.094231999999999871e+00 -1.049166722473116459e-01
-8.270899999999999253e+00 -1.402999999999999936e+01 2.270799999999999930e+00 -1.169597000000000087e+01 -2.811094835073436188e-02
-8.265700000000000713e+00 -1.592099999999999937e+01 1.464000000000000057e+01 -1.098947000000000074e+01 -4.210571063390381452e-01
-8.259999999999999787e+00 -2.803800000000000026e+01 -1.835699999999999932e+01 5.609880000000000422e+00 -1.288739472535491148e-01
-8.259999999999999787e+00 -2.528800000000000026e+01 -1.940700000000000003e+01 3.948391000000000162e+01 -1.322807902275252301e-01
-8.249399999999999622e+00 -1.101999999999999957e+01 -1.504599999999999937e+01 5.366744999999999877e+00 -2.343542830159701246e-02
-8.247999999999999332e+00 -2.508299999999999841e+01 -1.563000000000000078e+01 8.533134999999999692e+00 -1.302468090502797993e-01
-8.240999999999999659e+00 -1.345299999999999940e+01 1.810500000000000043e+01 -4.413395000000000401e+00 -3.834522900948359458e-01
-8.229499999999999815e+00 -2.814799999999999969e+01 -2.014999999999999858e+01 2.839581000000000088e+01 -1.291388301066062616e-01
-8.226699999999999235e+00 -1.350300000000000011e+01 3.075899999999999856e+00 5.016751000000000182e+00 -1.235698222336657492e-01
-8.226699999999999235e+00 -1.263799999999999990e+01 1.675899999999999945e+00 4.091097999999999679e+00 2.521310994815378903e-01
-8.226200000000000401e+00 -3.093100000000000183e+00 -1.154299999999999926e+01 1.632952999999999832e+01 5.184690625092387706e-02
-8.221399999999999153e+00 -1.788800000000000168e+01 -1.758899999999999864e+01 1.337439999999999962e+01 -1.417800748995861893e-01
-8.219799999999999329e+00 -1.202699999999999925e+01 -1.428599999999999959e+01 9.338482000000000838e+00 -2.745087044768342380e-02
-8.218099999999999739e+00 -1.250399999999999956e+01 3.572599999999999998e+00 -3.037052999999999781e+00 1.675102226827170637e-01
-8.212699999999999889e+00 -1.372700000000000031e+01 1.570799999999999974e+00 -2.093836999999999904e+01 -2.955468106031776745e-02
-8.210300000000000153e+00 -4.615400000000000169e+00 -9.647299999999999542e+00 1.046100000000000030e+01 -1.066426874061185970e-01
-8.202999999999999403e+00 -3.237199999999999989e+01 -8.996999999999999886e+00 1.206749999999999989e+00 -1.538700319737690558e-01
-8.202999999999999403e+00 -3.211800000000000210e+01 -9.890700000000000713e+00 1.477279000000000009e+00 -1.560487072605946102e-01
-8.202999999999999403e+00 -3.211800000000000210e+01 -8.103300000000000836e+00 2.856154000000000082e+00 -1.518283025956766175e-01
-8.202999999999999403e+00 -3.111100000000000065e+01 -7.096000000000000085e+00 4.407852000000000103e+00 -1.492748066028310172e-01
-8.202999999999999403e+00 -3.067200000000000060e+01 -1.069699999999999918e+01 1.164057000000000031e+01 -1.587549226785856527e-01
-8.201700000000000657e+00 -6.411500000000000199e+00 -1.097300000000000075e+01 5.975347000000000186e+00 1.420393851576406130e-01
-8.201000000000000512e+00 -1.225699999999999967e+01 4.378599999999999604e+00 -1.048272000000000048e+01 1.762599818678402541e-01
-8.199699999999999989e+00 -1.503200000000000003e+01 -1.675199999999999889e+01 5.023482999999999699e+00 -1.351762652846864310e-01
-8.196899999999999409e+00 -3.228000000000000203e+00 -1.431499999999999950e+01 3.249521999999999800e+00 -9.055356925219927577e-02
-8.189700000000000202e+00 -2.538599999999999923e+01 -1.632999999999999829e+01 1.032370000000000054e+01 -1.306756687783450499e-01
-8.189700000000000202e+00 -2.538599999999999923e+01 -1.492999999999999972e+01 5.563644000000000034e+00 -1.293849712807957353e-01
-8.189700000000000202e+00 -2.433599999999999852e+01 -1.803000000000000114e+01 1.540263999999999989e+01 -1.331560968222876562e-01
-8.189099999999999824e+00 -2.381899999999999906e+01 1.011899999999999977e+01 -3.917406000000000166e+00 -1.042356003893268601e-01
-8.188200000000000145e+00 -7.976200000000000401e+00 -4.965099999999999625e+00 1.413383000000000056e+00 2.373156220933857752e-01
-8.188000000000000611e+00 -1.239700000000000024e+01 1.627400000000000091e+01 -2.031738000000000000e+01 -3.837374231822234250e-01
-8.185000000000000497e+00 -1.831299999999999883e+01 -1.869800000000000040e+01 3.056876000000000104e+01 -1.434565150521257826e-01
-8.181900000000000617e+00 -8.692299999999999471e+00 -3.639999999999999902e-01 9.041902999999999579e+00 2.605699830738815170e-01
-8.179700000000000415e+00 -9.458000000000000185e+00 -1.563700000000000045e+01 6.444957999999999743e+00 -3.521119132128680551e-02
-8.176099999999999923e+00 -7.785300000000000331e+00 -3.124000000000000110e+00 1.231190999999999924e+01 2.939613423022175431e-01
-8.173500000000000654e+00 -2.140099999999999980e+01 1.057600000000000051e+01 1.098493999999999993e+01 -1.030020658718565352e-01
-8.168699999999999406e+00 -1.669200000000000017e+01 -1.689300000000000068e+01 1.108416000000000068e+01 -1.403647960443362985e-01
-8.163399999999999324e+00 -7.989499999999999602e+00 -4.009900000000000020e+00 7.270481000000000193e+00 2.269236816690215763e-01
-8.162800000000000722e+00 -1.139400000000000013e+01 1.892400000000000082e+00 1.211655999999999977e+01 2.498311229318293525e-01
-8.157000000000000028e+00 -4.482000000000000206e+00 -1.347499999999999964e+01 3.415267000000000053e+00 9.544761926098457860e-02
-8.157000000000000028e+00 -1.973999999999999977e+00 -1.347499999999999964e+01 7.044201000000000157e+00 -1.185804398160217668e-02
-8.157000000000000028e+00 -1.973999999999999977e+00 -1.251699999999999946e+01 1.100571000000000055e+01 -1.253638583344524327e-01
-8.154400000000000759e+00 -7.650900000000000034e+00 -1.921599999999999975e+00 1.238360999999999912e+01 2.782798936268057188e-01
-8.152400000000000091e+00 -2.812300000000000111e+01 -1.934700000000000131e+01 1.051694999999999958e+01 -1.291795973251268770e-01
-8.147999999999999687e+00 -4.808099999999999596e+00 -1.283900000000000041e+01 4.867644000000000304e+00 8.797034116793275849e-02
-8.144700000000000273e+00 -2.674800000000000111e+01 -1.737300000000000111e+01 2.117305999999999955e+01 -1.299841153287470408e-01
-8.139400000000000190e+00 -1.949699999999999989e+01 1.175999999999999979e+01 1.773876999999999882e+01 -1.011418506489373537e-01
-8.135999999999999233e+00 -8.082700000000000884e+00 -1.471599999999999930e+01 5.207656000000000063e+00 -1.018996666669259865e-01
-8.135999999999999233e+00 -8.082700000000000884e+00 -1.366600000000000037e+01 1.781784999999999952e+00 -1.092988773371359468e-01
-8.134000000000000341e+00 -1.160100000000000087e+01 1.511400000000000077e+01 -7.739284999999999748e+00 -3.839702794168211031e-01
-8.131000000000000227e+00 -1.191399999999999970e+01 5.153100000000000236e+00 -6.668839000000000183e+00 1.855076574045233517e-01
-8.126699999999999591e+00 -1.116699999999999982e+01 6.109700000000000131e+00 4.401673999999999864e+00 1.990934198650261000e-01
-8.114000000000000767e+00 -1.964399999999999835e+01 -1.962000000000000099e+01 2.545244999999999980e+00 -1.420802946241526699e-01
-8.108399999999999608e+00 -7.974400000000000155e+00 -1.164099999999999913e+00 1.028350000000000009e+01 2.687577582633183804e-01
-8.105000000000000426e+00 -6.737700000000000244e+00 -7.037700000000000067e+00 2.520197999999999894e+01 -1.103206124607506722e-01
-8.104300000000000281e+00 -2.987699999999999889e+01 -6.510000000000000231e-01 -2.034403999999999968e+01 -3.503512669172478833e-01
-8.091900000000000759e+00 -2.659799999999999898e+01 -2.035800000000000054e+01 3.219147000000000247e+01 -1.310714692268217241e-01
-8.091100000000000847e+00 -2.983800000000000097e+01 -1.076399999999999935e+01 7.712182000000000315e+00 -1.597289370794963692e-01
-8.085900000000000531e+00 -2.808399999999999963e+01 9.631299999999999528e+00 2.106831999999999816e+00 -1.058861540668172008e-01
-8.079000000000000625e+00 -5.009699999999999598e+00 -8.923700000000000188e+00 1.469776000000000060e+01 -1.057246909546402519e-01
-8.071999999999999176e+00 -2.247800000000000153e+01 9.680999999999999162e+00 8.134382999999999697e+00 -1.042185829555115212e-01
-8.067099999999999937e+00 -1.315300000000000047e+01 -1.337899999999999956e+01 1.178707999999999956e+01 1.797420192167785424e-01
-8.067000000000000171e+00 -9.061899999999999622e+00 4.587399999999999811e-01 1.606381999999999977e+01 2.546380963447383294e-01
-8.066300000000000026e+00 -2.494500000000000028e+01 -1.867999999999999972e+01 2.487040000000000006e+01 -1.329248104449938794e-01
-8.066000000000000725e+00 -2.798100000000000165e+01 -1.268299999999999983e+01 7.146025999999999989e+00 -1.255964461867392634e-01
-8.065599999999999881e+00 -2.264199999999999946e+01 -1.812399999999999878e+01 7.629000999999999699e+00 -1.360226636834674652e-01
-8.064000000000000057e+00 -3.008399999999999963e+01 -5.359700000000000131e+00 9.607343000000000188e+00 -1.436284676192137455e-01
-8.054999999999999716e+00 -2.870499999999999829e+01 -1.152299999999999969e+01 1.970984999999999943e+01 -1.242445737878407064e-01
-8.052300000000000679e+00 -1.628200000000000003e+01 1.382300000000000040e+01 -2.750396999999999892e+01 -4.210960883145276057e-01
-8.041000000000000369e+00 -3.020599999999999952e+01 -1.411000000000000032e+00 -3.035470000000000113e+01 -3.515520673023827536e-01
-8.038299999999999557e+00 -7.907000000000000028e+00 1.242699999999999960e+01 -3.909830999999999790e+01 -3.844800617455076952e-01
-8.032700000000000173e+00 -1.881400000000000006e+01 1.166900000000000048e+01 2.642838000000000065e+01 -1.009140786058944500e-01
-8.031100000000000350e+00 -1.428500000000000014e+01 -1.500200000000000067e+01 2.237059999999999960e+01 -1.232186622784221253e-01
-8.031100000000000350e+00 -1.428500000000000014e+01 -1.413700000000000045e+01 1.236965000000000003e+01 -1.194820749899857815e-01
-8.028900000000000148e+00 -2.944800000000000040e+01 9.350099999999999412e+00 1.493509999999999893e+00 -1.064306386831689322e-01
-8.015900000000000247e+00 -1.049099999999999966e+01 1.249099999999999966e+01 7.375289000000000428e+00 -3.849169187042237317e-01
-8.005900000000000460e+00 -2.993799999999999883e+01 -2.169900000000000162e+00 -1.049091999999999913e+01 -3.525141141895861696e-01
-8.003199999999999648e+00 -2.574099999999999966e+01 -1.712699999999999889e+01 1.799810000000000088e+01 -1.312186616352297164e-01
-8.000000000000000000e+00 -1.563400000000000034e+01 1.714699999999999847e+01 1.409676999999999936e+01 -4.208209116652521509e-01
-8.000000000000000000e+00 -1.288400000000000034e+01 1.714699999999999847e+01 -2.230356000000000094e+01 -3.836013367399051521e-01
-7.996500000000000163e+00 -9.525600000000000733e+00 1.250799999999999912e+01 -1.255606000000000044e+01 -3.847851406147431708e-01
-7.986699999999999910e+00 -2.834400000000000119e+01 -1.194100000000000072e+01 1.290901999999999994e+01 -1.248505453243333452e-01
-7.984200000000000408e+00 -3.021300000000000097e+01 -6.317599999999999660e+00 9.090382999999999214e+00 -1.472349616257001836e-01
-7.983600000000000030e+00 -2.314000000000000057e+01 -1.731800000000000139e+01 9.112099000000000615e+00 -1.348235092258396051e-01
-7.983299999999999841e+00 -2.401000000000000156e+01 -1.724899999999999878e+01 1.502067000000000085e+01 -1.335383449403463874e-01
-7.981600000000000250e+00 -7.832799999999999763e+00 9.897299999999999542e+00 -1.363377000000000061e-01 -3.865398459063175696e-01
-7.977699999999999569e+00 -1.578500000000000014e+01 1.615399999999999991e+01 -1.367504000000000053e+00 -4.209462375680058099e-01
-7.977699999999999569e+00 -2.644699999999999918e+01 -1.429899999999999949e+01 4.077566000000000024e+00 -1.282353146505236519e-01
-7.975900000000000212e+00 -1.045100000000000051e+01 1.368400000000000061e+00 3.144979000000000191e+00 2.514164875323066650e-01
-7.956299999999999706e+00 -1.425900000000000034e+01 1.806800000000000139e+01 3.197113999999999834e+01 -3.835910571422201931e-01
-7.918499999999999872e+00 -8.136100000000000776e+00 -1.088199999999999967e+01 5.108425999999999689e+00 1.440044345166462680e-01
-7.913800000000000168e+00 -1.667599999999999838e+01 1.311100000000000065e+01 -1.098489000000000004e+01 -4.210677217718150622e-01
-7.904499999999999638e+00 -8.457200000000000273e+00 -1.280100000000000016e+01 -3.561315000000000008e+00 1.047295290133659906e-01
-7.889000000000000234e+00 -5.940000000000000391e+00 -1.172000000000000064e+01 3.762189999999999923e+00 8.935637356062762354e-03
-7.889000000000000234e+00 -3.431999999999999940e+00 -1.076200000000000045e+01 2.354933000000000121e+01 7.300197275965318588e-02
-7.882399999999999629e+00 -8.448399999999999466e+00 -1.175900000000000034e+01 -5.015278999999999598e+00 1.010256065539350406e-01
-7.878999999999999559e+00 -2.981200000000000117e+01 -3.143299999999999983e+00 -8.566070000000000073e-01 -1.367974519805805755e-01
-7.878300000000000303e+00 -7.230800000000000338e+00 -1.090700000000000003e+01 8.184749000000000052e+00 1.431796626148660878e-01
-7.875000000000000000e+00 -1.450699999999999967e+01 -1.590199999999999925e+01 7.373315999999999981e+00 -1.314006207499030243e-01
-7.871900000000000119e+00 -2.089300000000000068e+01 1.147600000000000087e+01 3.442684999999999995e+00 -1.021189165595028647e-01
-7.865000000000000213e+00 -2.486100000000000065e+01 -1.717999999999999972e+01 9.672629000000000588e+00 -1.326163746756995887e-01
-7.860999999999999766e+00 -4.003000000000000114e+00 -1.425000000000000000e+01 2.936316000000000148e+00 -1.268287583052301049e-01
-7.860999999999999766e+00 -2.452999999999999847e+00 -1.425000000000000000e+01 6.101045000000000051e+00 -3.507600270044623769e-02
-7.840099999999999625e+00 -2.986799999999999855e+01 -4.756400000000000183e+00 4.616174000000000111e-01 -1.421711040806275528e-01
-7.840099999999999625e+00 -2.965899999999999892e+01 -4.020400000000000418e+00 1.828208000000000055e+00 -1.396030909243811402e-01
-7.838700000000000223e+00 -9.449999999999999289e+00 8.049699999999999633e+00 1.304255999999999993e+01 -7.842143002114305983e-02
-7.835700000000000109e+00 -2.531800000000000139e+01 -1.807600000000000051e+01 2.820927000000000007e+01 -1.326260632291993979e-01
-7.831299999999999706e+00 -1.588199999999999967e+01 -1.682300000000000040e+01 7.074932999999999694e+00 -1.426477518398273636e-01
-7.816099999999999604e+00 -1.329400000000000048e+01 1.079900000000000082e+00 -2.854464000000000112e+00 -3.272949589384954727e-02
-7.814000000000000057e+00 -2.940700000000000003e+01 -1.411000000000000032e+00 -1.719981999999999900e+01 -3.515194562114876131e-01
-7.813100000000000378e+00 -2.874899999999999878e+01 7.520000000000000018e-01 4.600393999999999650e+00 -1.346600519244450789e-01
-7.811399999999999899e+00 -2.683399999999999963e+01 -1.355499999999999972e+01 4.473802000000000056e+00 -1.274738338185606445e-01
-7.811300000000000132e+00 -1.030799999999999983e+01 -1.556600000000000072e+01 7.813208999999999627e+00 -1.168954975032340804e-02
-7.811300000000000132e+00 -8.608000000000000540e+00 -1.556600000000000072e+01 1.791056999999999988e+01 -5.312452044423585790e-02
-7.809400000000000119e+00 -7.092699999999999783e+00 -2.824800000000000200e+00 1.514861999999999931e+01 2.923464515978592693e-01
-7.802999999999999936e+00 -2.578999999999999915e+01 1.066300000000000026e+01 -4.225379999999999825e+01 -1.046009716886286967e-01
-7.801999999999999602e+00 -1.064199999999999946e+01 6.959699999999999775e+00 3.186325000000000074e+01 -9.029307656380393399e-02
-7.797100000000000364e+00 -6.848300000000000054e+00 -1.979000000000000092e+00 9.448406999999999556e+00 -3.074021076642421968e-02
-7.793000000000000149e+00 -3.001999999999999957e+01 8.779299999999999216e+00 1.535776999999999948e+00 -1.069573061360078736e-01
-7.787700000000000067e+00 -2.913800000000000168e+01 -1.082300000000000040e+01 6.593511999999999595e+00 -1.612575873486525591e-01
-7.787200000000000344e+00 -2.047299999999999898e+01 -1.983399999999999963e+01 5.300305999999999962e+00 -1.419873352655680321e-01
-7.780300000000000438e+00 -7.262999999999999901e+00 -6.187700000000000422e+00 2.930022999999999911e+01 -1.026482529097545726e-01
-7.780000000000000249e+00 -1.442699999999999960e+01 1.838200000000000056e+00 -3.170939999999999870e+01 -2.745667250285448516e-02
-7.780000000000000249e+00 -1.442699999999999960e+01 2.703500000000000014e+00 -9.671324000000000254e+00 -1.226887555790161094e-01
-7.768600000000000172e+00 -2.317800000000000082e+01 9.739300000000000068e+00 1.529471000000000025e+01 -1.044747258232124609e-01
-7.768600000000000172e+00 -2.177799999999999869e+01 9.739300000000000068e+00 9.348385000000000389e+00 -1.040446960863684878e-01
-7.766600000000000392e+00 -2.714000000000000057e+01 1.003599999999999959e+01 -6.468327000000000382e+00 -1.054375828052378783e-01
-7.763700000000000045e+00 -1.385299999999999976e+01 -1.343699999999999939e+01 1.164935000000000009e+01 1.837330443314222350e-01
-7.761599999999999611e+00 -2.453800000000000026e+01 -1.642299999999999827e+01 6.430513999999999619e+00 -1.326144828735497661e-01
-7.761000000000000121e+00 -2.877199999999999847e+01 1.755100000000000104e+00 2.347684999999999911e-01 -1.359761383313427829e-01
-7.758399999999999963e+00 -2.527799999999999869e+01 -1.438899999999999935e+01 6.175714000000000148e+00 -1.296832835824499042e-01
-7.756999999999999673e+00 -2.468599999999999994e+01 -1.519699999999999918e+01 2.832432999999999979e+00 -1.311745729738387767e-01
-7.754299999999999748e+00 -5.535000000000000142e+00 -8.073700000000000543e+00 1.905900000000000105e+01 -9.939583882274533044e-02
-7.751400000000000290e+00 -2.903999999999999915e+01 3.613500000000000156e+00 -4.962397000000000169e+00 -1.381678591113451871e-01
-7.748000000000000220e+00 -7.437299999999999578e+00 1.072700000000000031e+01 -6.076730999999999661e+00 -3.857886062384373593e-01
-7.748000000000000220e+00 -7.437299999999999578e+00 1.166699999999999982e+01 -2.956051000000000073e+01 -3.849710527483454214e-01
-7.746999999999999886e+00 -2.901599999999999824e+01 2.678199999999999914e+00 -2.071171000000000095e+00 -1.370510331366308343e-01
-7.734700000000000131e+00 -2.718799999999999883e+01 -1.973199999999999932e+01 1.655931999999999960e+01 -1.308964235806178433e-01
-7.734700000000000131e+00 -2.718799999999999883e+01 -1.803200000000000003e+01 1.429540000000000077e+01 -1.304510968081403210e-01
-7.734700000000000131e+00 -2.613800000000000168e+01 -1.973199999999999932e+01 1.551585000000000036e+01 -1.322249738728607793e-01
-7.732499999999999929e+00 -6.249500000000000277e+00 -7.365899999999999892e+00 1.620881999999999934e+01 -1.022815242973333094e-01
-7.726300000000000168e+00 -7.216700000000000337e+00 -1.129000000000000004e+00 2.454232000000000014e+01 2.692603510314567905e-01
-7.721000000000000085e+00 -2.457600000000000051e+01 1.040900000000000070e+01 -2.317323000000000022e+00 -1.043984087145878592e-01
-7.718600000000000350e+00 -1.139499999999999957e+01 -1.468800000000000061e+01 4.480127000000000415e+00 -1.968146102645339929e-02
-7.717600000000000016e+00 -2.926200000000000045e+01 4.370400000000000063e+00 -1.893162999999999929e+00 -1.390064947050496102e-01
-7.716899999999999871e+00 -3.064600000000000080e+01 -7.017599999999999838e+00 5.071901000000000437e+00 -1.502931183511728164e-01
-7.715600000000000236e+00 -2.358099999999999952e+01 -1.648000000000000043e+01 5.468977000000000421e-01 -1.340424110677834180e-01
-7.714999999999999858e+00 -1.188899999999999935e+01 1.369899999999999896e+00 7.392924999999999969e+00 2.538336982930507468e-01
-7.712900000000000311e+00 -2.868799999999999883e+01 9.400700000000000500e+00 6.164011999999999825e-01 -1.062747349259704210e-01
-7.708899999999999864e+00 -8.666999999999999815e+00 1.249000000000000021e+01 -3.386166999999999661e+01 -3.846781397956138271e-01
-7.698500000000000121e+00 -1.722299999999999898e+01 -1.681099999999999994e+01 8.128265999999999991e+00 -1.441972273979338082e-01
-7.689400000000000013e+00 -1.111899999999999977e+01 1.243900000000000006e+01 1.235800000000000054e+01 -3.850329064597827200e-01
-7.677699999999999747e+00 -3.152199999999999847e+01 -1.037199999999999989e+01 2.348056999999999839e+00 -1.587861575670539704e-01
-7.677699999999999747e+00 -3.152199999999999847e+01 -7.621699999999999697e+00 2.240533999999999804e+00 -1.519304245929598840e-01
-7.671100000000000030e+00 -2.609700000000000131e+01 -1.797800000000000153e+01 1.912568999999999875e+01 -1.318620744462014049e-01
-7.668700000000000294e+00 -7.848799999999999777e+00 -1.340799999999999947e+01 -3.177315000000000111e+00 -1.060751291402405316e-01
-7.668400000000000105e+00 -2.483800000000000008e+00 -1.163499999999999979e+01 2.314604000000000106e+00 -1.611436917822643977e-01
-7.664600000000000080e+00 -1.713800000000000168e+01 1.239899999999999913e+01 2.522041000000000199e+00 -4.208723645108026767e-01
-7.663899999999999935e+00 -2.755699999999999861e+01 -1.888200000000000145e+01 8.925781999999999883e+00 -1.304053506587130873e-01
-7.663899999999999935e+00 -2.576899999999999835e+01 -1.888200000000000145e+01 4.733420999999999879e+01 -1.326687561212517019e-01
-7.663000000000000256e+00 -1.132000000000000028e+01 1.371599999999999930e+01 5.811396000000000228e+00 -3.844967422064712315e-01
-7.659699999999999953e+00 -1.890899999999999892e+01 -1.917899999999999849e+01 1.108175999999999917e+01 -1.461951943929141740e-01
-7.656699999999999839e+00 -2.195599999999999952e+01 -1.862699999999999889e+01 6.044921999999999684e+00 -1.389058104384646164e-01
-7.655499999999999972e+00 -4.571500000000000341e+00 -9.235900000000000887e+00 1.223429999999999929e+01 -8.610675305738121899e-02
-7.640600000000000058e+00 -2.901500000000000057e+01 -5.118399999999999617e-01 -1.299886000000000053e+01 -3.503672043545502657e-01
-7.631099999999999994e+00 -1.081600000000000072e+01 1.173900000000000077e+01 1.966491999999999862e+01 -3.853646261536524120e-01
-7.631099999999999994e+00 -9.950699999999999434e+00 1.173900000000000077e+01 8.687445000000000306e+00 -3.853175839980969575e-01
-7.630700000000000038e+00 -8.442000000000000171e+00 -1.296200000000000130e-01 7.254283000000000037e+00 2.601108917441666279e-01
-7.619699999999999918e+00 -1.558200000000000074e+01 1.408999999999999986e+01 -1.289941999999999922e+01 -3.846726375783837693e-01
-7.612700000000000244e+00 -3.057100000000000151e+01 7.778299999999999770e+00 7.239911000000000207e+00 -1.421186335497980069e-01
-7.608299999999999841e+00 -1.029899999999999949e+01 7.687100000000000044e+00 1.509247000000000050e+01 -8.454886576398527864e-02
-7.604899999999999771e+00 -2.867099999999999937e+01 -1.411000000000000032e+00 -2.130820999999999898e+01 -3.514904665488596813e-01
-7.594599999999999795e+00 -1.271400000000000041e+01 3.909100000000000019e+00 -7.850502999999999787e+00 1.725065112074849749e-01
-7.594000000000000306e+00 -2.986599999999999966e+01 -1.048000000000000043e+01 6.105223999999999762e+00 -1.602948098872900295e-01
-7.592999999999999972e+00 -3.911000000000000032e+00 -9.987000000000000099e+00 1.483747999999999934e+01 -7.248185673210268132e-02
-7.588400000000000034e+00 -1.988500000000000156e+01 1.165600000000000058e+01 1.307476999999999911e+01 -1.016013031031677977e-01
-7.587299999999999933e+00 -7.730900000000000105e+00 -1.395800000000000018e+01 -2.301550999999999902e+00 -1.058525713860802020e-01
-7.583999999999999631e+00 -5.463599999999999568e+00 -1.273199999999999932e+01 3.196941999999999950e+00 8.260380537806197299e-02
-7.580000000000000071e+00 -7.303700000000000081e+00 -3.649300000000000210e+00 1.431710999999999956e+01 1.950097234216760234e-01
-7.565199999999999925e+00 -2.846499999999999986e+01 -1.149600000000000044e+01 1.041858000000000040e+01 -1.248650453199520588e-01
-7.551000000000000156e+00 -2.244000000000000128e+01 -1.758500000000000085e+01 1.144260000000000055e+01 -1.374667214771252977e-01
-7.546599999999999753e+00 -2.897400000000000020e+01 -2.111000000000000210e+00 -1.450766999999999918e+01 -3.527079126768580264e-01
-7.541699999999999626e+00 -9.657999999999999474e+00 9.403299999999999992e-01 -4.437871000000000343e+00 2.540320036478026511e-01
-7.540700000000000180e+00 -2.713100000000000023e+01 -1.300799999999999912e+01 6.871493000000000073e+00 -1.271014390466848887e-01
-7.537300000000000111e+00 -2.599299999999999855e+01 -1.356400000000000006e+01 2.925841000000000136e+00 -1.285270382724305605e-01
-7.535800000000000054e+00 -1.239700000000000024e+01 -1.343200000000000038e+01 8.560207000000000122e+00 1.808496452525001907e-01
-7.525599999999999845e+00 -2.949399999999999977e+01 9.037800000000000722e+00 -7.670126000000000444e-01 -1.067363293704727961e-01
-7.514000000000000234e+00 -8.924699999999999633e+00 8.899699999999999278e+00 2.419145999999999930e+01 -3.872935362057013942e-01
-7.512699999999999712e+00 -1.399399999999999977e+01 1.138200000000000101e+00 -1.071285999999999916e+01 -2.987557565670993093e-02
-7.512699999999999712e+00 -1.399399999999999977e+01 3.403500000000000192e+00 1.434852999999999934e+00 1.649130856388851263e-01
-7.491699999999999804e+00 -8.557700000000000529e+00 9.620100000000000762e+00 1.053495999999999988e+01 -3.867916506668620524e-01
-7.480999999999999872e+00 -3.067299999999999827e+01 6.894300000000000317e+00 8.482516999999999641e+00 -1.413136185623568020e-01
-7.479899999999999771e+00 -2.082700000000000173e+01 1.115399999999999991e+01 1.071884000000000015e+01 -1.024895917408028267e-01
-7.474999999999999645e+00 -1.201099999999999923e+01 1.467399999999999949e+01 -3.189337999999999784e+00 -3.842425092078243787e-01
-7.474700000000000344e+00 -1.478400000000000070e+01 1.747200000000000131e+01 2.805918000000000134e+01 -3.838088194790296170e-01
-7.474700000000000344e+00 -1.373399999999999999e+01 1.747200000000000131e+01 -7.908117999999999981e+00 -3.836842668432682846e-01
-7.471899999999999764e+00 -7.757200000000000095e+00 -1.531300000000000061e+01 4.735737000000000307e+00 -7.990213758117041543e-02
