2.086499999999999844e+01 1.105400000000000027e+01 4.857300000000000040e+01 -4.702973000000000070e+00 -1.591337717363860982e-01
2.086599999999999966e+01 3.061599999999999877e+00 3.247899999999999920e+01 -2.271177999999999919e+00 -2.105492188283084043e-01
2.086700000000000088e+01 1.091099999999999959e+01 4.670400000000000063e+01 4.803952999999999918e+00 -1.612554072710594699e-01
2.086899999999999977e+01 7.161999999999999922e+00 4.075500000000000256e+01 2.013335999999999970e+01 -1.741508721499303580e-01
2.086899999999999977e+01 7.161999999999999922e+00 4.161999999999999744e+01 -2.224625000000000075e+00 -1.724246317831884534e-01
2.087199999999999989e+01 1.165499999999999936e+01 2.882100000000000151e+01 -5.641620999999999775e+00 -1.711850615900139538e-01
2.087500000000000000e+01 1.319299999999999962e+01 4.583599999999999852e+01 -6.981806999999999874e+00 -1.605657084044016525e-01
2.087699999999999889e+01 -1.419999999999999873e-01 5.418999999999999773e+01 -4.876440999999999804e+00 -1.535929014880249022e-01
2.087900000000000134e+01 2.351100000000000190e+00 5.259000000000000341e+01 -1.433778000000000041e+01 -1.560369760858145438e-01
2.087900000000000134e+01 2.351100000000000190e+00 5.365200000000000102e+01 -2.164142000000000010e+01 -1.548284413820618099e-01
2.087999999999999901e+01 5.837900000000000311e+00 4.678999999999999915e+01 -1.481085999999999991e+01 -1.640434270211360290e-01
2.088100000000000023e+01 1.243399999999999928e+01 4.619500000000000028e+01 -9.994968999999999326e+00 -1.607697801328148712e-01
2.088100000000000023e+01 3.221099999999999852e+00 1.109900000000000020e+01 -4.070273000000000252e+00 -2.873756916070240308e-01
2.088100000000000023e+01 4.850900000000000212e+00 1.109900000000000020e+01 -3.347998000000000030e+00 -2.862905297993960096e-01
2.088500000000000156e+01 -1.270100000000000007e+00 2.752599999999999980e+01 -5.366615000000000357e+00 -2.506700064517362603e-01
2.088700000000000045e+01 7.464999999999999858e+00 4.691499999999999915e+01 -1.138245000000000040e+01 -1.630694011404778265e-01
2.088800000000000168e+01 -1.470100000000000051e+01 2.109199999999999875e+01 1.705886000000000013e+00 -1.606703322130464684e-01
2.088800000000000168e+01 -4.653500000000000192e+00 1.567300000000000004e+01 -5.916469000000000200e+00 -3.967273169894646734e-01
2.088800000000000168e+01 -2.469599999999999795e+00 4.319299999999999784e+01 -1.275878999999999941e+01 -1.732977363381709990e-01
2.088899999999999935e+01 6.687999999999999723e+00 1.614799999999999969e+01 7.630251999999999590e+00 -1.453317184118055883e-01
2.089000000000000057e+01 -7.024700000000000166e+00 1.477999999999999936e+01 -6.230223999999999762e+00 -3.835179189722447424e-01
2.089000000000000057e+01 -6.085300000000000153e+00 1.477999999999999936e+01 -6.276380999999999766e+00 -3.831903704039431591e-01
2.089000000000000057e+01 7.191499999999999559e+00 5.051200000000000045e+01 -5.237676000000000442e+00 -1.584050849502610658e-01
2.089300000000000068e+01 -1.200099999999999945e+00 1.782300000000000040e+01 -7.052510999999999974e+00 -1.353693345320449160e-01
2.089399999999999835e+01 -9.669800000000000395e+00 1.656400000000000006e+01 -6.214419999999999611e+00 -3.770073340278255469e-01
2.089600000000000080e+01 -2.161099999999999799e+00 5.252100000000000080e+01 -3.080635000000000012e+00 -1.546248341107898383e-01
2.090299999999999869e+01 1.204400000000000048e+01 4.570700000000000074e+01 -8.502017000000000380e+00 -1.615828532586010557e-01
2.091100000000000136e+01 -1.806500000000000128e+01 4.413199999999999790e+01 -2.580534000000000106e+01 -1.415698071348948373e-01
2.091199999999999903e+01 -6.387100000000000222e+00 2.659400000000000119e+01 -8.813933999999999713e+00 -2.372175792227745605e-01
2.091300000000000026e+01 -3.520900000000000141e+00 1.558000000000000007e+01 -7.931880999999999737e+00 -3.966057256499563866e-01
2.092099999999999937e+01 1.067500000000000071e+01 4.770100000000000051e+01 -1.071557999999999922e+01 -1.603217825063088797e-01
2.092299999999999827e+01 1.195500000000000007e+01 4.521399999999999864e+01 -6.451851999999999698e+00 -1.622002512683621278e-01
2.092299999999999827e+01 -9.444900000000000517e-01 3.443999999999999773e+01 3.712527000000000044e+01 -2.237522705829822489e-01
2.092299999999999827e+01 -7.129999999999999671e-01 3.362500000000000000e+01 1.349723000000000006e+01 -2.293632047331718715e-01
2.092299999999999827e+01 2.123900000000000077e+01 3.425600000000000023e+01 -8.556117999999999668e+00 -1.567666268393826112e-01
2.092599999999999838e+01 -1.878800000000000026e+01 3.753999999999999915e+01 4.778081000000000245e+00 -1.384809379231793092e-01
2.092699999999999960e+01 -7.575000000000000178e+00 4.457000000000000028e+01 3.409604999999999997e+00 -1.623383511763806242e-01
2.092699999999999960e+01 -6.174999999999999822e+00 4.457000000000000028e+01 1.570219999999999949e+00 -1.647719611700911302e-01
2.093199999999999861e+01 -1.057199999999999918e+01 1.679799999999999827e+01 -6.165754999999999875e+00 -3.769498565175474214e-01
2.093299999999999983e+01 1.072600000000000087e+01 2.419900000000000162e+01 -5.543009999999999771e+00 -1.657796047000924811e-01
2.093299999999999983e+01 1.072600000000000087e+01 2.673300000000000054e+01 -3.478249999999999886e+01 -1.708745207400080568e-01
2.093299999999999983e+01 1.093500000000000050e+01 2.493499999999999872e+01 -1.368402999999999992e+01 -1.668605511240284778e-01
2.093400000000000105e+01 1.083699999999999974e+01 2.593599999999999994e+01 -5.703417999999999921e+01 -1.690997335627924536e-01
2.093900000000000006e+01 -1.470800000000000018e+01 4.481799999999999784e+01 -3.413835000000000264e+01 -1.474849876379651370e-01
2.094200000000000017e+01 9.886300000000000310e+00 4.999600000000000222e+01 -1.815869999999999962e+01 -1.582086953659107564e-01
2.094200000000000017e+01 -1.240000000000000036e+01 4.514900000000000091e+01 -5.620220999999999911e+00 -1.517912813849168763e-01
2.094399999999999906e+01 -1.945400000000000063e+01 2.320700000000000074e+01 -6.402660000000000018e+00 -2.832090366944482462e-01
2.094600000000000151e+01 3.556999999999999940e+00 1.032399999999999984e+01 -3.727431000000000161e+00 -2.866570618354200572e-01
2.094600000000000151e+01 3.556999999999999940e+00 1.187400000000000055e+01 -3.726370000000000182e+00 -2.874253378770178502e-01
2.094600000000000151e+01 4.514999999999999680e+00 1.032399999999999984e+01 -3.380078000000000138e+00 -2.859691454751961404e-01
2.094600000000000151e+01 4.514999999999999680e+00 1.187400000000000055e+01 -3.343900000000000095e+00 -2.868394799874806056e-01
2.095100000000000051e+01 -1.290799999999999947e+01 1.978699999999999903e+01 2.880070999999999870e+01 -1.121350678435109466e-01
2.095799999999999841e+01 1.734600000000000009e+01 4.375200000000000244e+01 -4.269599000000000188e+01 -1.589870296908843517e-01
2.095799999999999841e+01 1.734600000000000009e+01 4.481400000000000006e+01 -5.188998999999999739e+01 -1.583007978450857445e-01
2.095799999999999841e+01 -1.249400000000000066e+00 2.879299999999999926e+01 -3.568060000000000009e+00 -2.567846275454113147e-01
2.095799999999999841e+01 -1.249400000000000066e+00 2.965800000000000125e+01 3.842423000000000144e+00 -2.576338733005222870e-01
2.096000000000000085e+01 9.228600000000000136e+00 1.524799999999999933e+01 2.792092999999999936e+00 -3.206042782089501553e-01
2.096199999999999974e+01 1.174000000000000021e+01 4.640699999999999648e+01 -5.369463999999999793e+00 -1.611041014430905638e-01
2.096399999999999864e+01 1.311100000000000043e-01 1.874500000000000099e+01 1.217700000000000005e+00 -1.468926506429095169e-01
2.096999999999999886e+01 -1.607799999999999940e+01 2.194399999999999906e+01 -5.037702999999999598e+00 -1.341342099343202365e-01
2.097100000000000009e+01 -5.110800000000000232e+00 2.580300000000000082e+01 -6.998324000000000211e+00 -2.373946636260135801e-01
2.097400000000000020e+01 8.722899999999999210e+00 4.528699999999999903e+01 -9.425924999999999443e+00 -1.647256104285550193e-01
2.097500000000000142e+01 6.244100000000000428e+00 3.895600000000000307e+01 -2.107892999999999920e-02 -1.798641048291842459e-01
2.097500000000000142e+01 -2.712699999999999889e+00 4.428300000000000125e+01 -3.073078000000000198e+00 -1.698550102500961390e-01
2.097700000000000031e+01 -6.862800000000000011e-01 4.981700000000000017e+01 -7.061595000000000510e-01 -1.591174283731004446e-01
2.098100000000000165e+01 1.165099999999999980e+01 4.182399999999999807e+01 -7.155815999999999732e+00 -1.664053635605812487e-01
2.098100000000000165e+01 -2.224000000000000199e+00 5.066199999999999903e+01 -6.331408999999999843e+00 -1.571063255087978006e-01
2.098499999999999943e+01 4.894099999999999895e+00 4.343999999999999773e+01 -7.880230000000000068e+00 -1.711881297254756462e-01
2.098600000000000065e+01 8.510999999999999233e+00 5.091700000000000159e+01 -7.611215999999999759e+00 -1.576964431949769985e-01
2.098799999999999955e+01 -3.442699999999999871e+00 4.118399999999999750e+01 -1.187531000000000070e+01 -1.802404286156727431e-01
2.098799999999999955e+01 -3.442699999999999871e+00 4.204999999999999716e+01 -1.457175999999999938e+01 -1.766869988661429747e-01
2.099399999999999977e+01 3.366499999999999826e+00 3.337899999999999778e+01 -4.997409000000000212e+00 -2.060708654716102983e-01
2.099399999999999977e+01 -1.388400000000000034e+01 2.088299999999999912e+01 -3.551654999999999784e+00 -1.133023307754019438e-01
2.099500000000000099e+01 1.038899999999999935e+01 4.722200000000000131e+01 -5.124503999999999948e+00 -1.610964645966523612e-01
2.099599999999999866e+01 1.510200000000000031e+01 3.088100000000000023e+01 -7.198954999999999771e+00 -1.649098931906850529e-01
2.099699999999999989e+01 2.090099999999999980e+01 3.326100000000000279e+01 -5.490673000000000137e+00 -1.569541210991855784e-01
2.100100000000000122e+01 1.298499999999999943e+01 1.944900000000000162e+01 -1.479052999999999896e-01 -1.527455100201094429e-01
2.101000000000000156e+01 2.471400000000000041e+00 1.936400000000000077e+01 -1.685800000000000054e+01 -1.643545685101321374e-01
2.101099999999999923e+01 -2.530699999999999950e+00 5.162700000000000244e+01 -4.003725000000000200e+00 -1.556543691909504923e-01
2.101200000000000045e+01 7.460099999999999509e-01 5.042999999999999972e+01 -3.016020000000000145e+00 -1.586920716389573494e-01
2.101899999999999835e+01 -4.088000000000000078e+00 4.520400000000000063e+01 4.198659000000000141e+00 -1.661242076625419339e-01
2.102700000000000102e+01 6.910000000000000142e+00 4.206700000000000017e+01 -6.057534000000000418e+00 -1.720412519921463157e-01
2.102899999999999991e+01 -8.621100000000000207e+00 4.589800000000000324e+01 1.761047000000000029e+00 -1.580763696898626613e-01
2.103000000000000114e+01 -9.906499999999999417e+00 4.657500000000000284e+01 4.103915999999999897e+00 -1.548682030733929404e-01
2.103600000000000136e+01 -2.033800000000000097e+01 3.706600000000000250e+01 4.578433000000000419e+00 -1.352842134318330836e-01
2.103800000000000026e+01 7.769899999999999807e+00 4.609499999999999886e+01 -1.374466999999999928e+01 -1.642580088673740446e-01
2.103900000000000148e+01 1.152200000000000024e+01 4.770100000000000051e+01 -2.531169999999999920e+00 -1.599315928331423442e-01
2.104100000000000037e+01 -1.604999999999999982e+00 2.571900000000000119e+01 -6.727223999999999648e+00 -2.340672424868724399e-01
2.104700000000000060e+01 2.058800000000000097e+01 3.231799999999999784e+01 -5.543826000000000143e+00 -1.570526278618097626e-01
2.104700000000000060e+01 -4.279099999999999682e+00 2.501000000000000156e+01 2.636547000000000196e+00 -2.283837229246969136e-01
2.104799999999999827e+01 5.684000000000000163e+00 4.290400000000000347e+01 -7.152084999999999582e+00 -1.717089460506637244e-01
2.104899999999999949e+01 7.386499999999999844e+00 1.536899999999999977e+01 1.837323999999999957e+00 -3.195593815383702685e-01
2.105499999999999972e+01 -1.739199999999999946e+01 3.843900000000000006e+01 -1.769832999999999856e+01 -1.427206576231414559e-01
2.106299999999999883e+01 4.804999999999999716e+00 3.791199999999999903e+01 -5.051776000000000266e+00 -1.860351374835262639e-01
2.106500000000000128e+01 -1.721600000000000108e+01 4.604800000000000182e+01 -8.895179999999999865e+00 -1.429906976739435120e-01
2.106500000000000128e+01 -1.569599999999999973e+01 4.604800000000000182e+01 -2.580444999999999922e+01 -1.453888964496765357e-01
2.106899999999999906e+01 1.056799999999999962e+01 4.140800000000000125e+01 -8.378883999999999332e+00 -1.683857033670774495e-01
2.107100000000000151e+01 1.146700000000000053e+01 2.218400000000000105e+01 -1.104171999999999931e+00 -1.602069109321648255e-01
2.107199999999999918e+01 1.277699999999999925e+01 2.907400000000000162e+01 -6.435329000000000299e+00 -1.688112018260804759e-01
2.107199999999999918e+01 9.519299999999999429e+00 4.807399999999999807e+01 -5.102281999999999762e+00 -1.606370466260244600e-01
2.107300000000000040e+01 7.660700000000000287e+00 4.776800000000000068e+01 -1.115380000000000038e+01 -1.619336118418322201e-01
2.107700000000000173e+01 -2.737600000000000033e+00 2.496099999999999852e+01 -5.307001999999999775e+00 -2.284265777760064453e-01
2.107700000000000173e+01 7.096300000000000274e+00 4.897299999999999898e+01 -7.132653000000000354e+00 -1.605264626203120326e-01
2.107999999999999829e+01 1.308099999999999952e+01 1.844099999999999895e+01 -1.172223999999999933e+01 -1.342460663885604588e-01
2.108299999999999841e+01 1.193699999999999939e+01 4.446000000000000085e+01 -5.608652000000000193e+00 -1.631815638758615516e-01
2.108399999999999963e+01 4.621599999999999930e+00 3.429899999999999949e+01 -9.220594000000000179e+00 -1.971935161159417971e-01
2.108500000000000085e+01 7.108900000000000219e+00 5.002900000000000347e+01 -1.471945999999999977e+00 -1.591765762352845559e-01
2.108500000000000085e+01 9.913100000000000023e+00 4.891299999999999670e+01 -4.130147000000000013e+00 -1.594886731858145557e-01
2.108800000000000097e+01 2.044500000000000028e+01 3.127499999999999858e+01 -2.146125000000000060e+00 -1.568301849098769352e-01
2.109199999999999875e+01 -1.648999999999999844e+01 3.946200000000000330e+01 -1.309033999999999942e+01 -1.454127591857942436e-01
2.109199999999999875e+01 -1.648999999999999844e+01 4.093399999999999750e+01 -3.924310000000000187e+00 -1.452968621584935227e-01
2.109199999999999875e+01 -1.628099999999999881e+01 4.019800000000000040e+01 -3.559861000000000164e+00 -1.459241918836415575e-01
2.109299999999999997e+01 -8.217299999999999827e+00 1.576999999999999957e+01 -5.387287999999999855e+00 -3.633684910381841382e-01
2.109400000000000119e+01 4.477800000000000225e+00 4.428300000000000125e+01 -7.400196000000000218e+00 -1.697586718424128338e-01
2.109400000000000119e+01 4.477800000000000225e+00 4.501299999999999812e+01 -6.906670000000000087e+00 -1.682112940963107206e-01
2.109799999999999898e+01 -3.852700000000000014e+00 3.028399999999999892e+01 3.578087000000000018e+00 -2.742388609573750968e-01
2.110000000000000142e+01 -1.710200000000000031e+01 2.240099999999999980e+01 -1.298182000000000080e+01 -1.330164867860998690e-01
2.110099999999999909e+01 5.077899999999999636e+00 3.538400000000000034e+01 -1.016161999999999921e+01 -1.924516499908416334e-01
2.110099999999999909e+01 5.077899999999999636e+00 3.685600000000000165e+01 -5.981944000000000372e+00 -1.883846458662759571e-01
2.110099999999999909e+01 5.286999999999999922e+00 3.611999999999999744e+01 -1.540790999999999933e+01 -1.897492643342683361e-01
2.110399999999999920e+01 6.855999999999999872e+00 4.772099999999999653e+01 -8.478827000000000780e+00 -1.623826720110704003e-01
2.110500000000000043e+01 1.323799999999999955e+01 2.939499999999999957e+01 -6.600348999999999577e+00 -1.680434877583793229e-01
2.110699999999999932e+01 1.696399999999999864e+01 4.249000000000000199e+01 -1.042601999999999940e+01 -1.602428463935737513e-01
2.110699999999999932e+01 1.717299999999999827e+01 4.175399999999999778e+01 4.374722999999999806e-01 -1.605100015397069035e-01
2.111100000000000065e+01 -6.564300000000000246e+00 2.943100000000000094e+01 -4.932263999999999982e+00 -2.556746239880612892e-01
2.111199999999999832e+01 -1.801500000000000057e+01 2.239300000000000068e+01 -1.345118000000000080e+01 -1.336046593615536904e-01
2.111599999999999966e+01 2.039199999999999946e+01 3.760499999999999687e+01 -1.249832999999999927e+01 -1.584020160072552030e-01
2.111599999999999966e+01 2.168499999999999872e+01 3.528600000000000136e+01 -1.693740000000000023e+01 -1.566651521254380230e-01
2.111599999999999966e+01 2.168499999999999872e+01 3.688400000000000034e+01 -2.594958000000000098e+01 -1.568862886855510452e-01
2.111599999999999966e+01 2.191199999999999903e+01 3.608500000000000085e+01 -3.387986999999999682e+01 -1.565451787139154893e-01
2.112399999999999878e+01 -2.529700000000000060e+00 1.653099999999999881e+01 -1.304400000000000048e+01 -1.219772199615093144e-01
2.112399999999999878e+01 8.000000000000000167e-03 3.702300000000000324e+01 -2.153808999999999862e+00 -2.022449896992376817e-01
2.112399999999999878e+01 8.000000000000000167e-03 3.977300000000000324e+01 -1.504195999999999955e+01 -1.876047287571329381e-01
2.112500000000000000e+01 -1.145800000000000018e+01 4.625800000000000267e+01 -1.570699999999999985e+00 -1.527202612994650599e-01
2.112699999999999889e+01 1.833999999999999986e+01 3.800999999999999801e+01 2.809173999999999838e-01 -1.610142607131641312e-01
2.112800000000000011e+01 -1.516600000000000037e+01 2.205000000000000071e+01 3.862083999999999850e+00 -1.151276705660700950e-01
2.113299999999999912e+01 1.277599999999999980e+01 4.567699999999999960e+01 -6.616152999999999729e+00 -1.612436271180995306e-01
2.113299999999999912e+01 2.629000000000000004e+00 3.177899999999999991e+01 -2.073236999999999952e+01 -2.152785152774629174e-01
2.113400000000000034e+01 9.212300000000000821e+00 4.246300000000000097e+01 -1.027748000000000062e+01 -1.686476153609743345e-01
2.113400000000000034e+01 9.212300000000000821e+00 4.332900000000000063e+01 1.555535000000000068e+01 -1.673339885966448615e-01
2.113400000000000034e+01 9.212300000000000821e+00 4.437899999999999778e+01 3.627020999999999873e+01 -1.657872246771125435e-01
2.113700000000000045e+01 1.901500000000000057e+01 3.040200000000000102e+01 -4.321693999999999924e+00 -1.582921926985502714e-01
2.114199999999999946e+01 -2.007000000000000028e+01 3.355799999999999983e+01 -2.948122999999999827e+00 -1.329227398122776460e-01
2.115299999999999869e+01 1.383200000000000074e+01 3.015500000000000114e+01 -7.271990999999999872e+00 -1.673597780186808492e-01
2.115299999999999869e+01 -1.635800000000000054e+01 2.234400000000000119e+01 -8.092399999999999594e+00 -1.328166484353967003e-01
2.115399999999999991e+01 -3.055600000000000094e+00 4.279399999999999693e+01 -1.895420000000000016e+01 -1.745882195144829452e-01
2.115800000000000125e+01 -1.512700000000000067e+01 4.532099999999999795e+01 -6.118437999999999732e+01 -1.468381985982787352e-01
2.115800000000000125e+01 1.892399999999999949e+01 3.772899999999999920e+01 -5.058241999999999461e-01 -1.602772241362216132e-01
2.115800000000000125e+01 1.732900000000000063e+01 3.062900000000000134e+01 -7.836752999999999858e+00 -1.609554102615564364e-01
2.116499999999999915e+01 -2.297700000000000031e+01 2.738100000000000023e+01 -1.370325000000000060e+01 -3.532944825014367463e-01
2.116499999999999915e+01 -2.043100000000000094e+01 3.428000000000000114e+01 -4.824670000000000236e+00 -1.330562409310575844e-01
2.116799999999999926e+01 1.782999999999999918e+00 5.435099999999999909e+01 -3.663676000000000244e+01 -1.542103168612531383e-01
2.116900000000000048e+01 1.882100000000000106e+00 5.183100000000000307e+01 -1.550763000000000069e+01 -1.571588821445179252e-01
2.119300000000000139e+01 -1.768000000000000016e+00 2.671999999999999886e+01 -4.683006999999999920e+00 -2.453371217783106017e-01
2.119300000000000139e+01 -1.768000000000000016e+00 2.833200000000000074e+01 -4.577157999999999838e+00 -2.581993454368835539e-01
2.119699999999999918e+01 -5.858999999999999986e+00 2.987900000000000134e+01 -4.539456000000000380e+00 -2.637672795142654292e-01
2.119800000000000040e+01 5.316399999999999793e+00 1.737699999999999889e+01 -8.944801999999999476e-01 -1.369091685818362436e-01
2.119900000000000162e+01 -1.823900000000000077e+00 5.333500000000000085e+01 3.103715000000000224e-01 -1.541386690929482384e-01
2.120100000000000051e+01 9.979300000000000281e+00 1.615800000000000125e+01 -1.817374999999999963e+00 -4.147922159582007051e-02
2.120100000000000051e+01 -2.059199999999999875e+01 3.254899999999999949e+01 6.451251000000000069e+00 -1.032816820281278192e-01
2.120100000000000051e+01 -2.291799999999999926e+01 3.017599999999999838e+01 -1.850715999999999894e+01 -3.525688935313840977e-01
2.120100000000000051e+01 -2.172700000000000031e+01 3.083999999999999986e+01 -7.067719000000000307e+00 -9.219907602128099566e-02
2.120400000000000063e+01 1.234500000000000064e+01 1.695599999999999952e+01 -1.397425999999999924e+01 -4.469209715669840433e-02
2.120799999999999841e+01 -1.647699999999999942e+00 3.988100000000000023e+01 -1.132160000000000011e+01 -1.878074214012983578e-01
2.121099999999999852e+01 -5.406500000000000306e+00 4.470000000000000284e+01 1.985166999999999904e+00 -1.660648895053414287e-01
2.121300000000000097e+01 -6.806899999999999729e+00 2.731400000000000006e+01 -1.048902000000000001e+01 -2.379721152361145564e-01
2.121499999999999986e+01 -1.474099999999999966e+01 2.242699999999999960e+01 6.925327000000000233e+00 -1.187157831557613397e-01
2.121699999999999875e+01 -1.369100000000000072e+01 4.318200000000000216e+01 -4.656195000000000306e+00 -1.513219813144386638e-01
2.122200000000000131e+01 2.000499999999999901e+01 3.051000000000000156e+01 -2.804571999999999843e+00 -1.571425116748696449e-01
2.122599999999999909e+01 8.388700000000000045e+00 4.804999999999999716e+01 -1.042370000000000019e+01 -1.613519556738169103e-01
2.123000000000000043e+01 -2.052700000000000191e+00 2.752599999999999980e+01 -5.159552999999999834e+00 -2.548351372859066211e-01
2.123100000000000165e+01 -1.773799999999999955e+01 3.760199999999999676e+01 -6.833003999999999856e+00 -1.420066398364938087e-01
2.123600000000000065e+01 5.350100000000000300e+00 4.601400000000000290e+01 -2.172028999999999854e+01 -1.659751407691905101e-01
2.123900000000000077e+01 -2.414799999999999969e+01 2.829700000000000060e+01 -7.479312000000000182e+00 -3.534971949629278076e-01
2.123900000000000077e+01 -2.414799999999999969e+01 2.923699999999999832e+01 -7.701304999999999623e+00 -3.532642963232017208e-01
2.124200000000000088e+01 3.686399999999999899e+00 1.757700000000000173e+01 -6.031328000000000245e+00 -1.384161453437959821e-01
2.124200000000000088e+01 6.676700000000000301e+00 3.965599999999999881e+01 8.134586999999999790e+00 -1.777089093211632331e-01
2.124899999999999878e+01 3.058899999999999952e+00 9.790900000000000603e+00 -5.832652999999999643e+00 -2.863749966041096440e-01
2.125300000000000011e+01 -1.482399999999999984e+01 4.393999999999999773e+01 -1.871895999999999916e+01 -1.483282437594915792e-01
2.125300000000000011e+01 -1.255799999999999983e+01 4.393999999999999773e+01 -1.611629999999999896e+01 -1.532962338254911239e-01
2.125499999999999901e+01 -3.009999999999999787e+00 4.048400000000000176e+01 -1.149320999999999948e+01 -1.842582066896272797e-01
2.126000000000000156e+01 -1.183500000000000085e+01 1.866400000000000148e+01 -6.164545999999999637e+00 -3.759649895807288811e-01
2.126399999999999935e+01 1.140600000000000058e+01 1.685699999999999932e+01 -1.434568999999999939e+01 -4.569592472635328195e-02
2.126699999999999946e+01 1.267399999999999949e+01 1.771600000000000108e+01 -5.353795999999999822e+01 -8.668693003324208848e-03
2.126899999999999835e+01 1.122199999999999953e+01 2.832999999999999829e+01 -6.265672999999999604e+00 -1.724854229673587480e-01
2.127700000000000102e+01 2.903999999999999915e+00 1.866400000000000148e+01 -1.743286000000000158e+01 -1.612722410664870210e-01
2.128099999999999881e+01 -1.668700000000000117e+01 4.260099999999999909e+01 -5.581870000000000331e+00 -1.449839126348969054e-01
2.128099999999999881e+01 -1.647800000000000153e+01 4.186500000000000199e+01 -3.422359000000000151e+00 -1.455910562847964884e-01
2.128300000000000125e+01 -1.687999999999999901e+01 3.471800000000000352e+01 -4.568348000000000297e+00 -1.433002168025381828e-01
2.128399999999999892e+01 -5.086100000000000065e+00 1.518200000000000038e+01 -6.765792000000000250e+00 -3.830830193783100190e-01
2.128600000000000136e+01 4.077200000000000379e+00 9.727999999999999758e+00 -4.918351000000000361e+00 -2.855119964202811333e-01
2.129100000000000037e+01 5.483799999999999564e+00 3.890500000000000114e+01 -5.200474999999999959e+00 -1.819329868706598963e-01
2.129400000000000048e+01 1.540000000000000036e+01 4.588000000000000256e+01 -4.026737999999999928e+00 -1.592153809027215539e-01
2.130099999999999838e+01 -1.727199999999999847e+01 3.534300000000000352e+01 5.816786999999999708e+00 -1.424449211036699081e-01
2.130799999999999983e+01 1.389300000000000068e+01 4.556900000000000261e+01 -3.904983999999999789e+00 -1.606211902477358844e-01
2.131299999999999883e+01 1.771400000000000086e+00 1.942200000000000060e+01 -8.425067999999999557e+00 -1.664545393415715335e-01
2.131400000000000006e+01 -5.666000000000000369e+00 2.645599999999999952e+01 -1.110505000000000031e+01 -2.402674102450096938e-01
2.131500000000000128e+01 -4.711700000000000443e+00 2.571000000000000085e+01 -2.472570999999999852e+00 -2.359358276576057345e-01
2.132000000000000028e+01 2.725400000000000045e+00 1.062500000000000000e+01 -5.040327999999999697e+00 -2.870604402921557163e-01
2.132100000000000151e+01 -6.554999999999999716e+00 1.424699999999999989e+01 -6.488675999999999888e+00 -3.830623160666800642e-01
2.132499999999999929e+01 6.349700000000000344e-01 3.156899999999999906e+01 -3.382228000000000012e+00 -2.311798432867095965e-01
2.132700000000000173e+01 1.091900000000000048e+01 2.762999999999999901e+01 -1.077449000000000012e+01 -1.724854587311468179e-01
2.133399999999999963e+01 -7.047699999999999854e+00 2.822599999999999909e+01 -4.622173000000000087e+00 -2.409820096987578264e-01
2.133800000000000097e+01 1.103400000000000070e+01 2.288400000000000034e+01 4.234250999999999987e-01 -1.630140299699557871e-01
2.134199999999999875e+01 2.761000000000000121e+00 9.143000000000000682e+00 -4.723752000000000173e+00 -2.860324602686433737e-01
2.134499999999999886e+01 -1.692200000000000060e+01 3.767900000000000205e+01 -3.690464000000000055e+01 -1.446974823781402852e-01
2.135000000000000142e+01 -1.512599999999999945e+00 5.413400000000000034e+01 -5.401825999999999794e+00 -1.535399586852628506e-01
2.135099999999999909e+01 -3.579099999999999948e+00 2.495200000000000173e+01 -5.619248999999999494e-01 -2.276217561011215085e-01
2.135099999999999909e+01 4.189000000000000057e+00 3.359899999999999665e+01 -8.129523999999999972e+00 -2.012142332919691357e-01
2.135500000000000043e+01 -1.768599999999999994e+01 4.434799999999999898e+01 -1.921849999999999881e+01 -1.429769459090034500e-01
2.135500000000000043e+01 -1.768599999999999994e+01 4.528799999999999670e+01 -1.488485000000000014e+01 -1.428570677106079934e-01
2.135600000000000165e+01 6.514100000000000001e+00 4.688900000000000290e+01 -1.714190999999999931e+01 -1.640363729651369840e-01
2.135999999999999943e+01 -7.784699999999999953e+00 1.507000000000000028e+01 -6.073639000000000010e+00 -3.975406043707457315e-01
2.136100000000000065e+01 -2.086299999999999955e+01 3.516599999999999682e+01 -4.765564000000000355e+00 -1.336948150209437136e-01
2.136100000000000065e+01 -2.086299999999999955e+01 3.621600000000000108e+01 -9.644599999999999840e-01 -1.345684966280774053e-01
2.136100000000000065e+01 5.318900000000000183e+00 4.329699999999999704e+01 -9.159038000000000679e+00 -1.715445724427864249e-01
2.136299999999999955e+01 -1.010200000000000031e+01 1.626500000000000057e+01 -6.225240000000000329e+00 -3.771033967744495952e-01
2.136499999999999844e+01 -2.967299999999999827e+00 3.042500000000000071e+01 5.505429000000000350e+00 -2.659313848282182646e-01
2.136799999999999855e+01 -6.784500000000000419e+00 2.882999999999999829e+01 -4.665060000000000429e+00 -2.478429927126445109e-01
2.137199999999999989e+01 9.868000000000000327e+00 4.146600000000000108e+01 -6.659881999999999636e+00 -1.695323806364716357e-01
2.137800000000000011e+01 1.121899999999999942e+01 4.133299999999999841e+01 -2.240218000000000131e+01 -1.679089801877725885e-01
2.138200000000000145e+01 1.752299999999999969e+01 3.943200000000000216e+01 9.826883000000000479e+00 -1.616681019584061685e-01
2.138200000000000145e+01 1.752299999999999969e+01 4.029800000000000182e+01 2.283516000000000101e+00 -1.612073540208901479e-01
2.138200000000000145e+01 1.752299999999999969e+01 4.112700000000000244e+01 1.369699000000000000e+00 -1.607397777113259152e-01
2.138400000000000034e+01 -1.304899999999999949e+00 3.625600000000000023e+01 7.328001000000000431e+00 -2.100333330204518789e-01
2.138500000000000156e+01 4.035999999999999588e+00 1.241799999999999926e+01 -6.147618999999999723e+00 -2.870024768498714018e-01
2.138599999999999923e+01 1.829799999999999827e+01 3.032700000000000173e+01 -5.062421999999999755e+00 -1.595526727340560724e-01
2.139099999999999824e+01 -1.949400000000000022e+00 2.992599999999999838e+01 1.942064000000000012e+00 -2.599693302810982543e-01
2.139300000000000068e+01 -2.110699999999999932e+01 3.178699999999999903e+01 -2.504462999999999884e+00 -9.911745802326227262e-02
2.139399999999999835e+01 -1.645599999999999952e+01 4.611099999999999710e+01 -3.709628000000000014e+01 -1.446723771005706816e-01
2.139399999999999835e+01 1.243999999999999950e+01 4.527400000000000091e+01 -6.098847000000000129e+00 -1.621296076617012583e-01
2.139399999999999835e+01 -1.168800000000000061e+01 1.782000000000000028e+01 -5.990200999999999887e+00 -3.764142123045250976e-01
2.139499999999999957e+01 -1.559900000000000020e+01 2.275000000000000000e+01 3.700623000000000218e+00 -9.247258726921517291e-02
2.139600000000000080e+01 -8.917299999999999116e+00 1.582900000000000063e+01 -5.638516000000000084e+00 -3.772119845153630302e-01
2.139699999999999847e+01 -3.852300000000000169e-01 1.813500000000000156e+01 -9.168060000000000098e-01 -1.426499737249302679e-01
2.139699999999999847e+01 6.220200000000000173e-01 1.914199999999999946e+01 -4.671947000000000294e+00 -1.659535930214467991e-01
2.139799999999999969e+01 1.217999999999999972e+01 2.841000000000000014e+01 -6.046632999999999925e+00 -1.701233543280190053e-01
2.139799999999999969e+01 -1.725100000000000122e+01 3.649900000000000233e+01 2.402485000000000070e+01 -1.434618712049019473e-01
2.140200000000000102e+01 -1.133200000000000074e+01 1.708800000000000097e+01 -6.214179999999999815e+00 -3.767735868052686232e-01
2.140500000000000114e+01 -1.948799999999999955e+01 3.713700000000000045e+01 -1.384246000000000087e-01 -1.380168258371356482e-01
2.140899999999999892e+01 -2.019600000000000151e+01 2.466700000000000159e+01 -1.946336000000000066e+00 -2.831032697819547694e-01
2.140899999999999892e+01 -1.994200000000000017e+01 2.377299999999999969e+01 -4.961197000000000301e+00 -2.832238775242316708e-01
2.141100000000000136e+01 -1.666000000000000014e+01 3.844700000000000273e+01 -3.908782000000000068e+01 -1.457712670665951837e-01
2.141300000000000026e+01 8.041499999999999204e+00 1.485299999999999976e+01 5.060354999999999714e-01 -2.861431742372542719e-01
2.141400000000000148e+01 -1.743599999999999994e+01 4.357600000000000051e+01 -1.108952999999999989e+01 -1.436163786752596427e-01
2.141400000000000148e+01 1.235100000000000087e+01 4.209100000000000108e+01 -4.867373999999999867e+00 -1.656552252067260977e-01
2.141400000000000148e+01 1.235100000000000087e+01 4.295700000000000074e+01 -2.877530999999999839e+00 -1.647125154759299659e-01
2.141400000000000148e+01 1.235100000000000087e+01 4.478099999999999881e+01 -6.064100999999999964e+00 -1.627418740241506900e-01
2.141600000000000037e+01 -1.719000000000000083e+00 1.714900000000000091e+01 -8.954204999999999970e+00 -1.313581355361403691e-01
2.142099999999999937e+01 -1.564999999999999947e+00 5.025200000000000244e+01 -4.918505999999999823e+00 -1.585273047547035297e-01
2.142099999999999937e+01 1.350000000000000089e-01 5.025200000000000244e+01 -2.275428999999999924e+00 -1.591996527956344720e-01
2.142299999999999827e+01 1.207699999999999996e+01 4.386899999999999977e+01 -3.953342999999999829e+00 -1.639939182021012409e-01
2.142399999999999949e+01 -1.400500000000000078e+01 2.242699999999999960e+01 -2.197461999999999804e+00 -1.233091166997434540e-01
2.142500000000000071e+01 2.782000000000000028e+00 1.157799999999999940e+01 -4.486015000000000086e+00 -2.873718975611652682e-01
2.142500000000000071e+01 5.290000000000000036e+00 1.061999999999999922e+01 -3.787643000000000093e+00 -2.852581949719359966e-01
2.142500000000000071e+01 5.290000000000000036e+00 1.157799999999999940e+01 -3.004891000000000201e+00 -2.858658298221330440e-01
2.142699999999999960e+01 -1.318399999999999928e+01 2.061599999999999966e+01 6.152992000000000461e-01 -1.184685105971845093e-01
2.142999999999999972e+01 4.456999999999999851e+00 1.752899999999999991e+01 -6.616295000000000037e+00 -1.388983782519108423e-01
2.142999999999999972e+01 -1.510500000000000043e+01 4.438499999999999801e+01 -5.130729000000000184e+01 -1.478376760079481711e-01
2.143199999999999861e+01 -1.428100000000000058e+01 2.153600000000000136e+01 -2.876875000000000071e+00 -1.183568019750161487e-01
2.143499999999999872e+01 6.428300000000000125e+00 4.273700000000000188e+01 -6.592277000000000164e+00 -1.716826494067988373e-01
2.144300000000000139e+01 -2.210900000000000176e+01 2.685999999999999943e+01 -2.460295999999999950e+01 -3.529896842102629995e-01
2.144300000000000139e+01 -1.663700000000000045e+01 3.395600000000000307e+01 -1.308500000000000085e+01 -1.442408430460266622e-01
2.144399999999999906e+01 -6.658500000000000085e+00 4.432099999999999795e+01 1.218463000000000029e+01 -1.654280720409149197e-01
2.144699999999999918e+01 -1.679700000000000060e+01 3.683500000000000085e+01 1.686510000000000176e+01 -1.451850523628890055e-01
2.144900000000000162e+01 -1.645999999999999908e+00 2.922599999999999909e+01 -1.154590999999999923e+00 -2.569484090238693397e-01
2.144900000000000162e+01 5.333299999999999708e-01 3.787299999999999756e+01 -1.032821000000000033e+01 -1.965848906091234305e-01
2.144900000000000162e+01 5.333299999999999708e-01 3.892300000000000182e+01 -2.934219999999999828e+01 -1.913600240396579333e-01
2.145499999999999829e+01 -1.849099999999999966e+01 3.731400000000000006e+01 2.679151000000000060e+00 -1.405602840349202409e-01
2.145700000000000074e+01 -5.806200000000000250e-01 3.230100000000000193e+01 2.035127999999999915e+01 -2.364526380231728453e-01
2.146600000000000108e+01 -1.744299999999999962e+00 3.565500000000000114e+01 3.326926999999999879e+01 -2.153496165121516204e-01
2.146699999999999875e+01 7.985699999999999577e+00 4.862100000000000222e+01 -1.293140999999999963e+01 -1.609914368704400967e-01
2.146699999999999875e+01 7.985699999999999577e+00 5.032099999999999795e+01 5.389982999999999969e+00 -1.588945805326297256e-01
2.146699999999999875e+01 9.036300000000000665e+00 4.862100000000000222e+01 -9.425686000000000675e+00 -1.605339261194704548e-01
2.146699999999999875e+01 9.036300000000000665e+00 5.032099999999999795e+01 -1.582283999999999935e+01 -1.585639951070685616e-01
2.146999999999999886e+01 1.255199999999999960e+01 2.001000000000000156e+01 -9.808046000000000264e-01 -1.550578038128199443e-01
2.146999999999999886e+01 1.290699999999999958e+00 5.128000000000000114e+01 -5.737416999999999767e+00 -1.580531433290426613e-01
2.147100000000000009e+01 7.069899999999999629e+00 4.636200000000000188e+01 -1.916978999999999900e+01 -1.646769669872415465e-01
2.147299999999999898e+01 -2.305000000000000160e+00 2.545200000000000173e+01 -4.369773000000000351e+00 -2.319603917010261696e-01
2.147400000000000020e+01 1.656899999999999906e+01 3.067999999999999972e+01 -6.356327000000000282e+00 -1.626488632282301339e-01
2.148199999999999932e+01 -1.517399999999999949e+01 2.312699999999999889e+01 -1.358850999999999942e+01 -1.224831513209874850e-01
2.148199999999999932e+01 -1.430799999999999983e+01 2.312699999999999889e+01 -1.529166999999999987e+01 -1.259616817832262536e-01
2.149200000000000088e+01 -1.614399999999999835e+01 3.471800000000000352e+01 -4.850020999999999916e+00 -1.469114504923399733e-01
2.149299999999999855e+01 -8.419999999999999707e-01 3.984400000000000119e+01 -1.231268000000000029e+01 -1.881528723691809346e-01
2.149399999999999977e+01 2.257400000000000073e+00 9.957900000000000418e+00 -5.457748999999999739e+00 -2.868517665421627671e-01
2.149599999999999866e+01 -1.807300000000000040e+01 3.519299999999999784e+01 -1.185065000000000035e+00 -1.405214311169746821e-01
2.149699999999999989e+01 -1.753500000000000014e+01 2.289199999999999946e+01 -8.773466000000000875e+00 -2.823804688143593533e-01
2.150000000000000000e+01 -5.158999999999999808e+00 2.993700000000000117e+01 -2.047832000000000097e+00 -2.652367181827977038e-01
2.150000000000000000e+01 -1.855300000000000082e+01 2.286400000000000077e+01 -6.888653999999999833e+00 -2.828755979946371291e-01
2.150000000000000000e+01 -3.562699999999999978e+00 4.460799999999999699e+01 -3.154886999999999997e+00 -1.689301407876440397e-01
2.150000000000000000e+01 3.673399999999999999e+00 9.037300000000000111e+00 -7.561924000000000312e+00 -2.850066274428511015e-01
2.150100000000000122e+01 -1.403200000000000003e+00 3.494100000000000250e+01 7.725902000000000669e+01 -2.202689707989193835e-01
2.151099999999999923e+01 -2.347700000000000120e+00 3.993999999999999773e+01 -1.324183999999999983e+01 -1.876668587055917714e-01
2.151399999999999935e+01 -1.818700000000000117e+01 3.661399999999999721e+01 1.211774999999999913e+01 -1.411562635184327175e-01
2.151999999999999957e+01 -1.439100000000000001e+01 4.324000000000000199e+01 -1.721378999999999992e+00 -1.502405183175457293e-01
2.151999999999999957e+01 -1.299099999999999966e+01 4.324000000000000199e+01 -9.555528000000000688e+00 -1.535515096101432719e-01
2.152400000000000091e+01 -1.647100000000000009e+01 3.549300000000000210e+01 -5.439626999999999768e+00 -1.461046901220041661e-01
2.152400000000000091e+01 -2.031200000000000117e+01 2.560300000000000153e+01 -3.617237999999999953e+00 -2.829584578731413891e-01
2.152599999999999980e+01 -9.107699999999999463e+00 4.609599999999999653e+01 -3.148924000000000056e+00 -1.577041549200184634e-01
2.152700000000000102e+01 -7.379999999999999893e+00 4.433899999999999864e+01 1.716369999999999951e+00 -1.642292529667697121e-01
2.152899999999999991e+01 -1.955300000000000082e+01 3.421500000000000341e+01 -3.947976000000000152e+00 -1.359631799393964391e-01
2.152899999999999991e+01 -2.367800000000000082e+01 2.753699999999999903e+01 -7.579111000000000153e+00 -3.534505575409901401e-01
2.152899999999999991e+01 -2.367800000000000082e+01 2.999699999999999989e+01 -2.517820000000000036e+01 -3.528617515209081512e-01
2.153200000000000003e+01 -2.001599999999999824e+00 2.615200000000000102e+01 2.981348999999999805e-01 -2.383971882186243785e-01
2.153200000000000003e+01 -4.471899999999999764e+00 1.510800000000000054e+01 -3.503102000000000160e+00 -3.828703986979206109e-01
2.153399999999999892e+01 -1.222300000000000075e+01 1.942599999999999838e+01 -3.153528000000000109e+00 -1.183119585817869329e-01
2.153800000000000026e+01 7.617300000000000182e+00 4.947099999999999653e+01 -1.530107000000000106e+00 -1.600989727166076126e-01
2.153800000000000026e+01 9.404700000000000060e+00 4.947099999999999653e+01 -9.258886999999999645e+00 -1.594332014421870336e-01
2.154200000000000159e+01 -1.910000000000000142e+01 3.340400000000000347e+01 -5.657424999999999926e+00 -1.362906321076852167e-01
2.154700000000000060e+01 -1.963400000000000034e+01 3.271500000000000341e+01 1.664439000000000135e+01 -1.343158902137395194e-01
2.155000000000000071e+01 -1.679100000000000037e+01 2.283500000000000085e+01 -9.322945000000000704e+00 -8.580939575111912188e-02
2.155600000000000094e+01 -4.599700000000000344e+00 4.473299999999999699e+01 -4.441450999999999816e+00 -1.675397383393882611e-01
2.155600000000000094e+01 1.269599999999999973e+01 1.937500000000000000e+01 5.845739000000000019e+00 -1.538578157268396251e-01
2.155600000000000094e+01 -3.020599999999999952e+00 1.613400000000000034e+01 -2.895014000000000198e+00 -1.207526575258596468e-01
2.155799999999999983e+01 -1.751999999999999957e+01 3.414999999999999858e+01 -1.631535999999999831e+01 -1.416396294568919578e-01
2.155999999999999872e+01 1.784900000000000020e+01 3.840699999999999648e+01 4.105381000000000391e+00 -1.619184234342979090e-01
2.156400000000000006e+01 -7.565199999999999703e-01 3.688900000000000290e+01 -4.423382000000000147e+00 -2.046707622953423678e-01
2.156700000000000017e+01 1.070599999999999952e+01 1.679899999999999949e+01 -6.764749000000000123e+00 -4.681793168390956106e-02
2.157100000000000151e+01 -3.194300000000000139e+00 4.375800000000000267e+01 -1.028542000000000023e+01 -1.718654573508200667e-01
2.157700000000000173e+01 -1.063700000000000045e+01 4.664000000000000057e+01 1.181440999999999963e+00 -1.544030511949125994e-01
2.158500000000000085e+01 2.125100000000000122e+01 3.479500000000000171e+01 -1.604336999999999946e+01 -1.574914911621342617e-01
2.158599999999999852e+01 2.115200000000000102e+01 3.731499999999999773e+01 -2.403030000000000044e+01 -1.579204322534329408e-01
2.158699999999999974e+01 -8.440999999999999615e-01 3.312500000000000000e+01 3.196903000000000006e+01 -2.319306969317118106e-01
2.158899999999999864e+01 6.629699999999999704e+00 1.584500000000000064e+01 7.010296999999999557e+00 -1.437780010220634230e-01
2.159600000000000009e+01 1.867299999999999960e+00 9.143000000000000682e+00 -3.656623999999999874e+00 -2.865118830634186819e-01
2.159600000000000009e+01 1.206300000000000061e+01 2.170299999999999940e+01 -4.250569999999999737e+00 -1.592443880275824508e-01
2.159600000000000009e+01 1.231700000000000017e+01 2.080900000000000105e+01 -1.953702999999999967e+00 -1.571090179128444009e-01
2.160300000000000153e+01 1.405699999999999950e+00 3.134700000000000131e+01 -5.817910000000000359e+00 -2.248784085213206274e-01
2.160900000000000176e+01 -1.205899999999999928e+01 4.570100000000000051e+01 -3.571877000000000191e+00 -1.530192312266413501e-01
2.161199999999999832e+01 -3.485199999999999854e+00 4.292999999999999972e+01 -1.156789000000000023e+01 -1.743418465206563739e-01
2.161799999999999855e+01 -4.311899999999999622e+00 2.993700000000000117e+01 -1.239063999999999999e-01 -2.668553551664410994e-01
2.161899999999999977e+01 -1.853000000000000114e+01 3.414099999999999824e+01 -7.895528999999999797e+00 -1.387709512726226779e-01
2.162399999999999878e+01 6.247600000000000264e+00 1.660200000000000031e+01 5.616020999999999930e+00 -1.528140707784446939e-01
2.162699999999999889e+01 1.262800000000000011e+01 1.885900000000000176e+01 4.517902000000000307e+00 -1.377494817008342587e-01
2.163299999999999912e+01 1.099300000000000033e+01 2.376599999999999824e+01 -6.267203000000000301e+00 -1.655654352322983858e-01
2.163299999999999912e+01 9.488400000000000389e+00 1.576099999999999923e+01 6.045382000000000033e+00 -3.844051406672280985e-02
2.163400000000000034e+01 -2.221799999999999997e+01 3.044300000000000139e+01 -2.356465000000000032e+01 -9.108834716857897029e-02
2.163400000000000034e+01 1.056900000000000084e+01 2.636799999999999855e+01 -1.381091999999999942e+01 -1.718927633595735971e-01
2.163400000000000034e+01 1.077800000000000047e+01 2.563200000000000145e+01 -1.214087999999999923e+01 -1.699232364523291239e-01
2.163400000000000034e+01 1.077800000000000047e+01 2.710399999999999920e+01 -9.750792999999999822e+00 -1.725685038755364054e-01
2.163800000000000168e+01 1.022999999999999909e+00 5.464099999999999824e+01 -1.980208000000000013e+01 -1.541032044059491846e-01
2.163800000000000168e+01 2.315999999999999837e+00 5.232200000000000273e+01 -2.465923000000000087e+01 -1.570170651041132293e-01
2.163800000000000168e+01 2.315999999999999837e+00 5.392000000000000171e+01 -6.153544000000000125e+01 -1.551511402421490715e-01
2.163800000000000168e+01 2.543000000000000149e+00 5.312100000000000222e+01 -2.451764999999999972e+01 -1.560883178120826831e-01
2.163800000000000168e+01 -1.575799999999999912e+01 3.391700000000000159e+01 -1.889596000000000053e+00 -1.486991867481797513e-01
2.164199999999999946e+01 1.729700000000000060e+01 4.378600000000000136e+01 -3.186273999999999873e+01 -1.594775176368170011e-01
2.164199999999999946e+01 1.729700000000000060e+01 4.484799999999999898e+01 -4.359150999999999954e+01 -1.587758607028189051e-01
2.164199999999999946e+01 -1.234099999999999930e+01 4.484599999999999653e+01 -6.049946000000000268e+00 -1.534631253586780653e-01
2.164399999999999835e+01 6.769199999999999662e+00 4.034599999999999653e+01 6.364550999999999625e+00 -1.764427136316299438e-01
2.164499999999999957e+01 -1.605900000000000105e+01 3.773599999999999710e+01 -9.545835000000000292e+00 -1.483302385645246246e-01
2.164600000000000080e+01 -6.106900000000000439e+00 2.704700000000000060e+01 -7.952296999999999727e+00 -2.401619355334229378e-01
2.164699999999999847e+01 1.963299999999999912e+01 3.741299999999999670e+01 -1.241788999999999987e+01 -1.598157330970766121e-01
2.164699999999999847e+01 1.257799999999999940e+01 4.139500000000000313e+01 -9.091998999999999498e+00 -1.663198244853076879e-01
2.164999999999999858e+01 3.193400000000000016e+00 3.231700000000000017e+01 -9.479772000000000531e+00 -2.099211446160177685e-01
2.164999999999999858e+01 -7.315000000000000391e+00 1.431000000000000050e+01 -6.289399999999999658e+00 -3.833388440060733204e-01
2.164999999999999858e+01 -5.794999999999999929e+00 1.431000000000000050e+01 -1.180036999999999914e+01 -3.828664959055997352e-01
2.165299999999999869e+01 1.125300000000000011e+01 1.732999999999999829e+01 -1.366330999999999918e+01 -1.172363924804665086e-01
2.165599999999999881e+01 -1.606099999999999994e+01 3.683500000000000085e+01 1.761627000000000054e-01 -1.483614388908534587e-01
2.165899999999999892e+01 8.362299999999999400e+00 4.470400000000000063e+01 9.696641999999999761e-01 -1.665221987466087572e-01
2.166000000000000014e+01 -8.623599999999999710e+00 4.529500000000000171e+01 2.214449000000000112e+00 -1.601498740733762749e-01
2.166400000000000148e+01 1.893900000000000028e-01 1.844200000000000017e+01 -4.710028999999999577e+00 -1.474707086670500877e-01
2.166400000000000148e+01 -2.551400000000000112e+00 2.701699999999999946e+01 -2.440640999999999838e+00 -2.489564355242485372e-01
2.166700000000000159e+01 2.235700000000000021e+00 8.292999999999999261e+00 -3.799059000000000186e+00 -2.853547780144876644e-01
2.166700000000000159e+01 3.286300000000000221e+00 8.292999999999999261e+00 -4.078833999999999627e+00 -2.843899742115814089e-01
2.168100000000000094e+01 1.191900000000000048e+01 4.139099999999999824e+01 -1.260749000000000031e+01 -1.671888834228435483e-01
2.168400000000000105e+01 -2.129899999999999949e+01 2.658500000000000085e+01 -8.627269000000000077e+00 -2.833161423260882605e-01
2.168799999999999883e+01 -3.709999999999999964e+00 4.161699999999999733e+01 -1.015560999999999936e+01 -1.790921703406962995e-01
2.168799999999999883e+01 -3.500999999999999890e+00 4.088100000000000023e+01 -9.389860999999999791e+00 -1.824635827674085387e-01
2.169200000000000017e+01 -1.086200000000000010e+01 1.632799999999999940e+01 -5.977257999999999960e+00 -3.770651706569323469e-01
2.169399999999999906e+01 3.633799999999999919e+00 3.294599999999999795e+01 -4.213269000000000375e+00 -2.058017739998216356e-01
2.169399999999999906e+01 -1.361700000000000088e+01 2.131599999999999895e+01 -5.261206999999999745e+00 -1.220114849300322907e-01
2.169699999999999918e+01 -1.606099999999999994e+01 3.321699999999999875e+01 -1.840252999999999872e+01 -1.470616312348816124e-01
2.169800000000000040e+01 -1.008999999999999897e+00 3.410399999999999920e+01 9.879413999999999874e+01 -2.250418056407907097e-01
2.169999999999999929e+01 1.322000000000000064e+00 1.919999999999999929e+01 -6.290852000000000110e+00 -1.668561128798915494e-01
2.170299999999999940e+01 1.948000000000000043e+01 2.991400000000000148e+01 -2.717719000000000218e+00 -1.580053719526411382e-01
2.170400000000000063e+01 -6.410300000000000331e+00 2.774699999999999989e+01 -4.651652000000000342e+00 -2.427537971838599484e-01
2.171000000000000085e+01 2.204000000000000181e+00 1.893100000000000094e+01 -1.135784999999999911e+01 -1.646171287693749818e-01
