3.647699999999999676e+01 3.084600000000000009e+01 5.176200000000000045e+01 -1.713643999999999945e+00 -7.037112330555435336e-02
3.648599999999999710e+01 7.424699999999999633e+00 5.067600000000000193e+01 3.277242000000000210e+00 9.451518661493329976e-02
3.648599999999999710e+01 7.424699999999999633e+00 5.172599999999999909e+01 2.385543999999999887e+00 -1.300408365498435803e-01
3.648599999999999710e+01 9.196999999999999176e+00 5.507000000000000028e+01 -1.959235000000000060e+00 6.368910926092047342e-02
3.648799999999999955e+01 2.133399999999999963e+01 7.578100000000000591e+01 9.080980000000000274e+00 -8.676254542399230996e-02
3.648799999999999955e+01 2.312199999999999989e+01 7.578100000000000591e+01 9.650919000000000025e+00 9.519954637310741596e-02
3.651200000000000045e+01 5.818999999999999950e+00 6.494799999999999329e+01 -2.592742000000000147e+01 -3.815183191375995375e-02
3.651299999999999812e+01 6.244500000000000384e+00 6.302199999999999847e+01 -6.558030000000000248e-01 -5.593527224134933057e-02
3.651400000000000290e+01 1.376299999999999990e+01 7.552899999999999636e+01 -4.992936000000000263e+00 8.606415740973722556e-03
3.651800000000000068e+01 2.946399999999999864e+01 5.144100000000000250e+01 8.144061000000000661e+00 -6.984945083633278817e-02
3.652900000000000347e+01 2.608800000000000097e+01 4.807999999999999829e+01 -2.848921999999999954e+00 -3.400142404293171050e-01
3.653000000000000114e+01 8.800000000000000711e+00 4.975500000000000256e+01 5.148082999999999743e+00 1.216087670311011698e-01
3.653000000000000114e+01 2.095899999999999963e+01 5.246200000000000330e+01 -7.528482999999999947e+01 9.557832814091934970e-02
3.653199999999999648e+01 2.165099999999999980e+01 7.437399999999999523e+01 2.066607000000000127e+01 2.453545940063972097e-03
3.653600000000000136e+01 2.127799999999999869e+01 7.527299999999999613e+01 6.555234999999999701e+00 -8.656041414485446395e-02
3.654099999999999682e+01 1.880300000000000082e+01 7.532699999999999818e+01 -2.290700000000000003e+01 3.936779105671282114e-03
3.654699999999999704e+01 2.447700000000000031e+01 6.274399999999999977e+01 -5.848448000000000535e-01 1.805433515932277078e-01
3.654899999999999949e+01 7.955700000000000216e+00 5.599099999999999966e+01 1.594403999999999932e+00 -3.339976013897620610e-02
3.655100000000000193e+01 2.829599999999999937e+01 5.086299999999999955e+01 -9.708830000000000737e+00 -6.847471026769731683e-02
3.655400000000000205e+01 1.356700000000000017e+01 5.095300000000000296e+01 8.915357999999999450e+00 1.043307510853128256e-01
3.655400000000000205e+01 2.089799999999999969e+01 5.156000000000000227e+01 -3.157892999999999972e+01 -7.497127688764261555e-02
3.655799999999999983e+01 1.781200000000000117e+01 7.557500000000000284e+01 -5.124477999999999867e+00 4.665979186821724543e-03
3.656099999999999994e+01 2.665899999999999892e+01 5.827600000000000335e+01 1.710555999999999965e+00 1.783898938978268067e-01
3.656499999999999773e+01 2.466600000000000037e+01 5.977400000000000091e+01 -1.371203000000000038e+01 1.787770108729704321e-01
3.657000000000000028e+01 1.151900000000000013e+01 6.577899999999999636e+01 6.955301000000000400e+00 1.235573400794736168e-02
3.657399999999999807e+01 2.494000000000000128e+01 6.061500000000000199e+01 -6.967363999999999891e+00 1.793635655913055904e-01
3.657900000000000063e+01 8.215299999999999159e+00 6.393399999999999750e+01 -1.808947999999999823e+01 1.654556107905910678e-02
3.657900000000000063e+01 9.080500000000000682e+00 6.393399999999999750e+01 7.520902000000000420e+00 1.287567194635626765e-02
3.658200000000000074e+01 2.837699999999999889e+01 4.886399999999999721e+01 8.642837000000000103e+01 -3.399894390568066194e-01
3.658200000000000074e+01 2.837699999999999889e+01 4.982200000000000273e+01 3.792492000000000019e+01 -3.399950295542506495e-01
3.658500000000000085e+01 2.330000000000000071e+01 5.240699999999999648e+01 -1.498474000000000084e+00 -7.617472015479623271e-02
3.658899999999999864e+01 2.141900000000000048e+01 7.355899999999999750e+01 2.006813999999999965e+01 -8.944958138937546266e-02
3.659000000000000341e+01 2.172400000000000020e+01 7.496599999999999397e+01 1.031060000000000088e+01 -8.654584583566694855e-02
3.659400000000000119e+01 2.097500000000000142e+01 7.457299999999999329e+01 8.190689000000000775e+00 2.701244437113814543e-03
3.660099999999999909e+01 9.933699999999999974e+00 6.762300000000000466e+01 -2.474149000000000154e+00 -7.111037898548080993e-02
3.660499999999999687e+01 1.125099999999999945e+01 6.653799999999999670e+01 1.764908000000000143e+01 1.576755484708514815e-02
3.660900000000000176e+01 2.540899999999999892e+01 5.872299999999999898e+01 -8.771556999999999604e+00 1.782653872036897846e-01
3.660900000000000176e+01 2.859900000000000020e+01 5.156300000000000239e+01 2.883945999999999898e+00 -7.028775891728664127e-02
3.661200000000000188e+01 1.043999999999999950e+01 5.445600000000000307e+01 -1.840356000000000103e+00 -1.362881295999053000e-01
3.661200000000000188e+01 2.332999999999999829e+01 5.138900000000000290e+01 9.259948000000000068e-01 -7.189297894738991279e-02
3.661200000000000188e+01 2.120100000000000051e+01 5.085999999999999943e+01 7.172952999999999690e+00 -7.081401678882974504e-02
3.662100000000000222e+01 8.758900000000000574e+00 6.670099999999999341e+01 -3.202780000000000182e+00 -2.470271460829172039e-01
3.662199999999999989e+01 2.712300000000000111e+01 4.802400000000000091e+01 -2.345994999999999830e+00 -3.399982093633238112e-01
3.662700000000000244e+01 2.510999999999999943e+01 6.156199999999999761e+01 1.001435000000000075e+00 1.799027280836301146e-01
3.662899999999999778e+01 1.020199999999999996e+01 5.175900000000000034e+01 1.556653000000000064e+00 8.940522254030952576e-02
3.663100000000000023e+01 1.041000000000000014e+01 5.074300000000000210e+01 -1.898052000000000072e+00 1.056464629611275352e-01
3.663600000000000279e+01 6.725999999999999979e+00 6.347999999999999687e+01 -5.784455999999999598e+00 -5.723883909201564479e-02
3.664800000000000324e+01 9.306900000000000617e+00 5.283200000000000074e+01 6.415070000000000050e+00 -1.337882719727691572e-01
3.664800000000000324e+01 9.306900000000000617e+00 5.369800000000000040e+01 1.259784000000000015e+00 -1.373236424713418780e-01
3.665100000000000335e+01 1.500999999999999979e+01 5.292699999999999960e+01 8.347395999999999816e+00 8.806032538800104281e-02
3.665200000000000102e+01 1.582000000000000028e+01 5.382300000000000040e+01 9.807664000000000382e-01 8.363590421788755225e-02
3.665400000000000347e+01 8.734700000000000131e+00 5.267699999999999960e+01 5.423154000000000252e+00 -1.339485678559724502e-01
3.665400000000000347e+01 3.131599999999999895e+01 5.813600000000000279e+01 -3.427741000000000149e+00 1.792314964882493200e-01
3.665800000000000125e+01 1.044400000000000084e+01 6.384899999999999665e+01 2.043025000000000091e+01 7.044938359543770345e-03
3.666499999999999915e+01 2.231899999999999906e+01 6.698999999999999488e+01 -2.280518000000000001e+01 1.858179804971529792e-01
3.666599999999999682e+01 1.488700000000000045e+01 7.669199999999999307e+01 1.651413000000000020e+00 7.107031976875438813e-03
3.666599999999999682e+01 1.658699999999999974e+01 7.669199999999999307e+01 4.171393000000000129e+00 5.551050538573533942e-03
3.666799999999999926e+01 2.348600000000000065e+01 4.975600000000000023e+01 5.218670000000000364e+00 -6.465748654949550478e-02
3.667099999999999937e+01 5.953999999999999737e+00 6.855599999999999739e+01 7.136961000000000332e+00 -2.429106243273003451e-01
3.668500000000000227e+01 2.572800000000000153e+01 5.830599999999999739e+01 -1.171541000000000032e+01 1.780323557839766369e-01
3.668800000000000239e+01 2.599800000000000111e+01 5.409100000000000108e+01 -7.476238000000000383e+00 9.284243037871850457e-02
3.669200000000000017e+01 1.156700000000000017e+01 7.204399999999999693e+01 4.094421999999999784e-01 1.474333904809427796e-02
3.669200000000000017e+01 1.166499999999999915e+01 7.357800000000000296e+01 -9.841412000000000493e-01 1.312152520215647752e-02
3.669200000000000017e+01 1.177599999999999980e+01 7.278000000000000114e+01 -7.401107999999999798e+00 1.365806389829926637e-02
3.669200000000000017e+01 1.189199999999999946e+01 7.437699999999999534e+01 -5.815679000000000265e+00 1.210264837482479330e-02
3.669200000000000017e+01 1.311700000000000088e+01 7.522199999999999420e+01 -2.714763999999999911e+01 9.835126136882850131e-03
3.669400000000000261e+01 1.157699999999999996e+01 6.460800000000000409e+01 1.044853999999999949e+01 7.016040399518497575e-03
3.669700000000000273e+01 7.732999999999999652e+00 7.137600000000000477e+01 1.824633000000000038e+01 -1.523145642785318776e-01
3.671000000000000085e+01 2.215399999999999991e+01 5.390400000000000347e+01 -1.862102999999999953e-01 9.147253760385334886e-02
3.671000000000000085e+01 1.465199999999999925e+01 5.452300000000000324e+01 -2.360552999999999901e+00 7.692079934418076526e-02
3.671000000000000085e+01 1.551699999999999946e+01 5.452300000000000324e+01 -2.298515999999999782e+00 7.925929083639347839e-02
3.671200000000000330e+01 2.141300000000000026e+01 6.961799999999999500e+01 -8.808733000000000146e+00 1.866847628840054285e-01
3.671999999999999886e+01 2.482100000000000151e+01 5.889800000000000324e+01 -2.865923000000000087e+01 1.780997658814980622e-01
3.672399999999999665e+01 3.266700000000000159e+01 5.617900000000000205e+01 1.088320000000000043e+01 8.807815439862438228e-04
3.672800000000000153e+01 2.349899999999999878e+01 5.083800000000000097e+01 3.250506000000000117e+00 -6.930550176386607308e-02
3.673799999999999955e+01 2.966000000000000014e+01 5.824399999999999977e+01 -1.208216999999999963e+01 1.789356819018881606e-01
3.673799999999999955e+01 2.114399999999999835e+01 6.879300000000000637e+01 -1.184206999999999965e+01 1.864143657886794259e-01
3.674099999999999966e+01 1.769500000000000028e+01 4.588000000000000256e+01 1.495512000000000086e+01 -3.398927666881520482e-01
3.674199999999999733e+01 2.222800000000000153e+01 7.578100000000000591e+01 5.296702999999999939e+00 9.485155425413738239e-02
3.674499999999999744e+01 2.114499999999999957e+01 4.844599999999999795e+01 9.798295000000000243e+01 -5.695372700348997480e-02
3.674499999999999744e+01 2.147299999999999898e+01 4.919100000000000250e+01 2.355311000000000021e+01 -6.137363259197499421e-02
3.674499999999999744e+01 7.502699999999999925e+00 6.741800000000000637e+01 5.306580000000000297e+00 -1.412824124696913652e-01
3.674600000000000222e+01 2.102100000000000080e+01 5.314500000000000313e+01 -3.140277000000000207e+00 9.361803259500750540e-02
3.674600000000000222e+01 2.328699999999999903e+01 5.314500000000000313e+01 -7.884870000000000267e+00 9.456487318193335101e-02
3.675099999999999767e+01 1.997599999999999909e+01 4.759799999999999898e+01 1.715910999999999831e+01 -5.029000393321780837e-02
3.675699999999999790e+01 6.164399999999999658e+00 7.039600000000000080e+01 5.885847000000000051e+00 -2.452373578980565350e-01
3.675900000000000034e+01 9.813700000000000756e+00 7.124500000000000455e+01 4.053777000000000186e+01 -1.576534310634484237e-01
3.676200000000000045e+01 2.574800000000000111e+01 5.340400000000000347e+01 -2.941424000000000039e+00 9.457075348237824197e-02
3.677300000000000324e+01 3.132499999999999929e+01 5.253699999999999903e+01 -4.954290999999999556e+00 -7.175457364070735033e-02
3.677700000000000102e+01 3.233700000000000330e+01 5.533599999999999852e+01 7.192568999999999768e+00 1.653564418797804757e-03
3.678999999999999915e+01 1.459399999999999942e+01 4.382099999999999795e+01 1.400578000000000101e+00 -3.392807558738308304e-01
3.678999999999999915e+01 1.629400000000000048e+01 4.382099999999999795e+01 1.295125999999999999e+00 -3.395371541539844440e-01
3.680400000000000205e+01 2.080399999999999849e+01 7.395099999999999341e+01 7.740545000000000009e+00 -8.909940821039812053e-02
3.681199999999999761e+01 2.123799999999999955e+01 5.010799999999999699e+01 1.396742000000000061e+01 -6.636057564167528733e-02
3.681199999999999761e+01 5.917300000000000004e+00 6.960500000000000398e+01 9.853433000000000774e+00 -2.444472975277537097e-01
3.681300000000000239e+01 2.756200000000000117e+01 5.182500000000000284e+01 1.727683999999999997e+00 -7.116007160972166734e-02
3.681300000000000239e+01 2.756200000000000117e+01 5.420700000000000074e+01 -4.846688999999999581e+00 9.334981289043733921e-02
3.681300000000000239e+01 3.007100000000000151e+01 5.169700000000000273e+01 5.193554000000000315e+01 -7.015034089071058021e-02
3.682300000000000040e+01 1.566600000000000037e+01 5.300600000000000023e+01 1.076464999999999961e+01 8.974365620961551049e-02
3.682900000000000063e+01 3.231499999999999773e+01 5.717600000000000193e+01 -1.622695999999999916e+00 -1.570655514110453927e-04
3.683500000000000085e+01 2.370299999999999940e+01 6.409199999999999875e+01 -2.561076999999999870e+01 1.809191670902030036e-01
3.683599999999999852e+01 1.984199999999999875e+01 7.400000000000000000e+01 -3.990130000000000177e+00 -8.870413758894725442e-02
3.684899999999999665e+01 2.642899999999999849e+01 5.344899999999999807e+01 -2.152127000000000123e+00 9.479155062974128909e-02
3.684899999999999665e+01 2.869399999999999906e+01 5.344899999999999807e+01 -5.618148999999999837e+00 -7.490960775912521019e-02
3.685199999999999676e+01 1.836799999999999855e+01 7.458199999999999363e+01 -5.463608999999999938e+00 4.866304233019524798e-03
3.685199999999999676e+01 1.927499999999999858e+01 7.458199999999999363e+01 -2.003108999999999895e+01 4.166266353990014451e-03
3.686299999999999955e+01 1.220899999999999963e+01 5.587299999999999756e+01 -1.312178000000000067e+00 -3.482777663289845366e-02
3.687199999999999989e+01 8.284000000000000696e+00 6.723799999999999955e+01 4.508074999999999832e+00 -2.455760022276388399e-01
3.687599999999999767e+01 2.723000000000000043e+01 5.813400000000000034e+01 -3.030082000000000164e+00 1.782191456940647734e-01
3.687599999999999767e+01 2.884199999999999875e+01 5.813400000000000034e+01 -1.034375000000000000e+01 1.786207591425132690e-01
3.687800000000000011e+01 2.876000000000000156e+01 5.254200000000000159e+01 2.497561999999999927e+01 -7.257989346026744171e-02
3.688400000000000034e+01 1.083500000000000085e+01 5.505799999999999983e+01 -4.658242999999999689e+00 -1.332053850960684405e-01
3.688600000000000279e+01 2.113899999999999935e+01 6.798699999999999477e+01 -2.714694000000000074e+01 1.859932673105426371e-01
3.689099999999999824e+01 1.472899999999999920e+01 4.882099999999999795e+01 5.555276000000000103e+00 -5.510050258260505707e-02
3.689099999999999824e+01 1.493800000000000061e+01 4.808500000000000085e+01 1.456221999999999994e+01 -4.555524865280036889e-02
3.689600000000000080e+01 1.890599999999999881e+01 4.649099999999999966e+01 1.345641999999999960e+01 -3.399645010907171860e-01
3.689600000000000080e+01 1.486200000000000010e+01 4.732900000000000063e+01 1.448408000000000051e+01 -1.395267299122548987e-01
3.689699999999999847e+01 2.526200000000000045e+01 5.409100000000000108e+01 -1.941476000000000113e+01 9.300616675171213821e-02
3.689699999999999847e+01 2.673400000000000176e+01 5.409100000000000108e+01 -4.289144000000000290e+00 9.350792531340955394e-02
3.689999999999999858e+01 3.140899999999999892e+01 5.383500000000000085e+01 1.028194000000000052e+01 -7.431784250660752877e-02
3.689999999999999858e+01 2.278000000000000114e+01 6.624599999999999511e+01 -9.541510000000000602e+00 1.853127035304564241e-01
3.690400000000000347e+01 9.233700000000000685e+00 6.756399999999999295e+01 2.423234999999999972e-01 -1.482914936621027580e-01
3.690400000000000347e+01 1.063400000000000034e+01 6.756399999999999295e+01 1.550308000000000064e+01 -7.211873157668172163e-02
3.691499999999999915e+01 9.739599999999999369e+00 5.439800000000000324e+01 -2.705007000000000161e+00 -1.347439598637193980e-01
3.691799999999999926e+01 1.348900000000000077e+01 5.517499999999999716e+01 -8.233369999999999855e-01 7.117968515373580829e-02
3.691899999999999693e+01 1.450099999999999945e+01 4.660699999999999932e+01 8.438332000000000832e+00 -1.386620008497337908e-01
3.692199999999999704e+01 6.591999999999999638e+00 5.777000000000000313e+01 5.111996999999999680e+00 -1.144550252581419542e-01
3.692199999999999704e+01 6.845900000000000318e+00 5.687599999999999767e+01 2.222951999999999817e+00 -1.258699131340170752e-01
3.692399999999999949e+01 2.153099999999999881e+01 7.259000000000000341e+01 1.356134999999999913e+01 -8.872449652134004050e-02
3.692900000000000205e+01 8.547900000000000276e+00 7.143300000000000693e+01 4.137571000000000332e+00 -1.541795570321391473e-01
3.693900000000000006e+01 2.630499999999999972e+01 5.264399999999999835e+01 3.324666999999999817e+00 -7.410201450330210216e-02
3.694100000000000250e+01 2.418700000000000117e+01 6.304999999999999716e+01 -8.965612999999999388e+00 1.803212268336909507e-01
3.695499999999999829e+01 2.556500000000000128e+01 5.479099999999999682e+01 -1.177031000000000027e+01 9.157990359415432713e-02
3.695499999999999829e+01 2.642999999999999972e+01 5.479099999999999682e+01 -5.547037000000000440e+00 9.197602526536011180e-02
3.695900000000000318e+01 2.512199999999999989e+01 5.785199999999999676e+01 -2.014958000000000027e+01 1.772895514424043806e-01
3.696099999999999852e+01 9.743900000000000006e+00 6.390800000000000125e+01 9.464138000000000162e+00 9.018851188252218973e-03
3.696099999999999852e+01 1.114400000000000013e+01 6.390800000000000125e+01 1.702280999999999977e+01 4.349475705253440933e-03
3.696300000000000097e+01 6.690599999999999881e+00 6.810599999999999454e+01 7.253897000000000261e+00 -2.419173189472172414e-01
3.696399999999999864e+01 1.453299999999999947e+01 5.232800000000000296e+01 9.404526000000000607e+00 9.443777003048027530e-02
3.697099999999999653e+01 2.501200000000000045e+01 5.340400000000000347e+01 -4.016988999999999699e+00 9.484948717333624435e-02
3.697500000000000142e+01 6.730199999999999960e+00 5.864999999999999858e+01 5.072229000000000099e+00 -1.064427743702633655e-01
3.697599999999999909e+01 8.647899999999999920e+00 6.344299999999999784e+01 -3.380901000000000067e+01 1.065441526130731474e-02
3.698700000000000188e+01 7.012100000000000222e+00 5.996600000000000108e+01 1.414569999999999972e+01 -9.659053564946479264e-02
3.698700000000000188e+01 7.012100000000000222e+00 6.083100000000000307e+01 3.554009999999999891e+00 -8.995888974891935730e-02
3.699099999999999966e+01 1.711199999999999832e+01 7.584199999999999875e+01 -1.920754000000000072e+00 5.780613508987680546e-03
3.699499999999999744e+01 1.632300000000000040e+01 5.315999999999999659e+01 4.603419999999999845e+00 9.067904278436993148e-02
3.699699999999999989e+01 1.439000000000000057e+01 4.955100000000000193e+01 8.548622999999999195e+00 -6.456342815114371469e-02
3.700399999999999778e+01 8.366099999999999426e+00 5.550600000000000023e+01 8.675945000000000462e-01 -1.366193666902719706e-01
3.700900000000000034e+01 3.046600000000000108e+01 5.832300000000000040e+01 -1.165795999999999921e+01 1.789496909760224519e-01
3.701100000000000279e+01 8.274699999999999278e+00 5.035099999999999909e+01 6.011949000000000431e+00 1.122244613911630162e-01
3.701100000000000279e+01 8.274699999999999278e+00 5.205100000000000193e+01 9.957126999999999839e+00 -1.246003502021826581e-01
3.701100000000000279e+01 9.325300000000000367e+00 5.035099999999999909e+01 4.375465000000000160e+00 1.147618578425216862e-01
3.701100000000000279e+01 9.325300000000000367e+00 5.205100000000000193e+01 4.690695999999999799e+01 8.678923125400848926e-02
3.701299999999999812e+01 2.901999999999999957e+01 5.207200000000000273e+01 1.283799999999999919e+01 -7.118811406724748214e-02
3.701400000000000290e+01 2.145400000000000063e+01 5.384499999999999886e+01 1.845159999999999911e+00 9.215257151121733492e-02
3.701400000000000290e+01 2.285399999999999920e+01 5.384499999999999886e+01 -1.667620000000000147e+01 9.293274493420461413e-02
3.702900000000000347e+01 2.531500000000000128e+01 5.270400000000000063e+01 7.250200000000000422e+00 -7.489768520855447087e-02
3.703499999999999659e+01 1.573700000000000010e+01 7.676300000000000523e+01 1.736213000000000006e+00 6.780535172088641808e-03
3.703600000000000136e+01 1.430199999999999960e+01 7.596899999999999409e+01 -7.193125000000000213e-01 8.540637108535933941e-03
3.704200000000000159e+01 2.789900000000000091e+01 5.042999999999999972e+01 -2.213307000000000002e+01 -6.688890427727336996e-02
3.704200000000000159e+01 2.613400000000000034e+01 5.767999999999999972e+01 -4.058633999999999631e+00 1.774814782321080808e-01
3.704299999999999926e+01 2.529799999999999827e+01 4.853000000000000114e+01 -2.565512999999999821e-01 -5.994876170438014767e-02
3.704500000000000171e+01 2.050100000000000122e+01 5.112700000000000244e+01 -5.241343999999999781e+00 -7.211466360836474299e-02
3.705599999999999739e+01 2.426999999999999957e+01 5.934100000000000108e+01 8.171177000000000135e+00 1.779172662097528446e-01
3.705599999999999739e+01 2.426999999999999957e+01 6.020700000000000074e+01 8.939812999999999121e+00 1.785049598136253246e-01
3.705599999999999739e+01 2.426999999999999957e+01 6.203099999999999881e+01 2.601281999999999872e+00 1.796508518146511801e-01
3.706000000000000227e+01 2.787000000000000099e+01 5.134300000000000352e+01 -2.887971999999999984e+00 -6.949336545332038262e-02
3.706300000000000239e+01 1.681700000000000017e+01 5.389099999999999824e+01 -7.688844999999999708e-01 8.744871352366552497e-02
3.706499999999999773e+01 2.454400000000000048e+01 6.104800000000000182e+01 3.082505999999999968e+00 1.791043938966701277e-01
3.706600000000000250e+01 2.155399999999999849e+01 6.719100000000000250e+01 -5.634094000000000335e+01 1.855192118582248695e-01
3.707800000000000296e+01 2.783999999999999986e+01 4.873899999999999721e+01 5.623146000000000200e+00 -3.399879945089200328e-01
3.708200000000000074e+01 7.906299999999999883e+00 5.120100000000000051e+01 2.311065000000000147e+00 9.489065375771389699e-02
3.708200000000000074e+01 9.693699999999999761e+00 5.120100000000000051e+01 9.137695000000000789e+00 1.011076999785702063e-01
3.708400000000000318e+01 2.655799999999999983e+01 5.214200000000000301e+01 3.057547000000000043e-02 -7.227726967216138720e-02
3.709499999999999886e+01 1.361800000000000033e+01 7.536199999999999477e+01 -4.878093999999999930e+00 9.724681862637840277e-03
3.710000000000000142e+01 2.389600000000000080e+01 5.185399999999999920e+01 3.111458999999999753e-01 -7.279044573458637313e-02
3.710699999999999932e+01 1.508399999999999963e+01 5.501400000000000290e+01 -1.072179999999999911e+00 7.810726166449107055e-02
3.711200000000000188e+01 3.186199999999999832e+01 5.456799999999999784e+01 3.302713999999999928e+00 9.410061806029391962e-02
3.711299999999999955e+01 3.189199999999999946e+01 5.780100000000000193e+01 -6.202728999999999715e+00 -7.453872365201511451e-04
3.711500000000000199e+01 1.406900000000000084e+01 4.467099999999999937e+01 1.297576999999999980e+00 -1.384258506418178936e-01
3.711500000000000199e+01 1.406900000000000084e+01 4.572099999999999653e+01 7.880274000000000001e+00 -1.388660119540850169e-01
3.711500000000000199e+01 1.681899999999999906e+01 4.467099999999999937e+01 6.050621999999999723e+00 -3.396177436369495206e-01
3.712100000000000222e+01 1.651300000000000168e+01 5.459100000000000108e+01 -2.551623000000000197e+00 8.354757553614802768e-02
3.712700000000000244e+01 2.695400000000000063e+01 4.842199999999999704e+01 -2.630049000000000081e+00 -3.399952327091441684e-01
3.713000000000000256e+01 2.377199999999999847e+01 5.278499999999999659e+01 -3.617961999999999900e+00 -7.641813894242160954e-02
3.714699999999999847e+01 2.803600000000000136e+01 5.821300000000000097e+01 -4.726962999999999582e+00 1.782774536159681678e-01
3.715400000000000347e+01 2.426000000000000156e+01 4.939699999999999847e+01 1.642633000000000010e+00 -6.276675824719635255e-02
3.715500000000000114e+01 2.190700000000000003e+01 7.019799999999999329e+01 -2.025844000000000023e+01 1.864560586015462373e-01
3.715500000000000114e+01 2.190700000000000003e+01 7.179600000000000648e+01 -1.321720000000000006e+01 9.307350747763001864e-02
3.715500000000000114e+01 2.213400000000000034e+01 7.099699999999999989e+01 -3.664128999999999792e+01 9.365427454617197833e-02
3.715899999999999892e+01 1.544400000000000084e+01 4.375000000000000000e+01 7.264627999999999641e-01 -3.393099728226919853e-01
3.716199999999999903e+01 1.242500000000000071e+01 7.480800000000000693e+01 -7.209603000000000428e+00 1.171370261944013752e-02
3.716499999999999915e+01 2.048300000000000054e+01 5.217799999999999727e+01 -3.799859000000000009e+01 -7.764489609747912691e-02
3.717799999999999727e+01 2.803699999999999903e+01 4.934300000000000352e+01 -2.953146999999999966e+00 -3.399882470818796354e-01
3.718699999999999761e+01 2.065099999999999980e+01 6.726600000000000534e+01 -2.077402000000000015e+01 1.854072944552210278e-01
3.718699999999999761e+01 2.065099999999999980e+01 6.866599999999999682e+01 -9.857746000000000564e+00 1.859609424496385388e-01
3.718900000000000006e+01 2.401999999999999957e+01 5.034000000000000341e+01 5.955220999999999876e+00 -6.656522587086573239e-02
3.719500000000000028e+01 2.015599999999999881e+01 6.809900000000000375e+01 -1.355250000000000021e+01 1.857298844171028085e-01
3.720499999999999829e+01 6.659299999999999997e+00 6.164500000000000313e+01 -3.384476999999999958e+00 -8.273514778787566248e-02
3.720499999999999829e+01 6.659299999999999997e+00 6.258500000000000085e+01 -6.715984999999999872e+00 -6.629185584867473835e-02
3.721000000000000085e+01 2.843400000000000105e+01 5.405400000000000205e+01 -1.731646000000000019e+00 9.454231176638021317e-02
3.721399999999999864e+01 1.891400000000000148e+01 7.406199999999999761e+01 3.083117000000000107e+00 5.057546858289675012e-03
3.722200000000000131e+01 6.883000000000000007e+00 7.105100000000000193e+01 6.826673000000000435e+00 -2.455298959509520373e-01
3.722399999999999665e+01 2.060099999999999909e+01 4.800699999999999790e+01 7.963472999999999580e+00 -5.323694295011242861e-02
3.722599999999999909e+01 2.430499999999999972e+01 5.114600000000000080e+01 1.291879000000000000e+00 -6.967183825680592357e-02
3.723199999999999932e+01 1.813100000000000023e+01 4.642600000000000193e+01 7.215633999999999659e+00 -1.418113896464456292e-01
3.723499999999999943e+01 1.756200000000000117e+01 7.498199999999999932e+01 -2.282569000000000070e+00 5.971818659550496081e-03
3.724399999999999977e+01 7.889000000000000234e+00 6.340800000000000125e+01 -2.404373999999999967e+01 -6.941016433378036088e-02
3.724799999999999756e+01 2.038899999999999935e+01 7.348999999999999488e+01 1.330992999999999959e+01 -8.821016660560768163e-02
3.724900000000000233e+01 1.945899999999999963e+01 4.719599999999999795e+01 3.280677000000000021e+01 -4.611280250410186576e-02
3.725200000000000244e+01 2.959199999999999875e+01 5.224099999999999966e+01 2.732855999999999952e+01 -7.126112883496055206e-02
3.725200000000000244e+01 3.055000000000000071e+01 5.224099999999999966e+01 1.633239999999999981e+01 -7.100570722742552410e-02
3.727000000000000313e+01 1.157699999999999996e+01 6.608199999999999363e+01 1.486675999999999931e+01 1.164453207066440919e-02
3.727300000000000324e+01 1.692099999999999937e+01 4.567399999999999949e+01 3.236630000000000251e+01 -1.408475300156059873e-01
3.727900000000000347e+01 9.347899999999999210e+00 6.350099999999999767e+01 -1.090102000000000082e+01 7.387298133586329973e-03
3.728900000000000148e+01 1.400799999999999912e+01 5.042799999999999727e+01 6.678639999999999688e+00 -7.530559632496378053e-02
3.728900000000000148e+01 1.400799999999999912e+01 5.147800000000000153e+01 7.977445999999999593e+00 1.044271836826438926e-01
3.728900000000000148e+01 2.094000000000000128e+01 6.917799999999999727e+01 -9.037293999999999272e+00 1.860478165774287762e-01
3.729599999999999937e+01 1.150900000000000034e+01 5.560600000000000165e+01 -1.662228999999999957e+01 -1.284589819336197369e-01
3.729599999999999937e+01 1.290900000000000070e+01 5.560600000000000165e+01 -7.070897999999999906e-01 -2.808437151839970891e-02
3.729800000000000182e+01 2.692599999999999838e+01 5.176700000000000301e+01 -2.310564999999999980e+00 -7.078936969872880181e-02
3.729999999999999716e+01 2.072400000000000020e+01 5.056199999999999761e+01 8.785219999999999629e+01 -6.832680661050374860e-02
3.730299999999999727e+01 9.047000000000000597e+00 7.144100000000000250e+01 7.270508999999999666e+00 -1.546142943095213940e-01
3.730899999999999750e+01 2.427599999999999980e+01 5.828999999999999915e+01 -1.781271999999999878e+01 1.769496779229814409e-01
3.731400000000000006e+01 3.300399999999999778e+01 5.570900000000000318e+01 4.123675000000000068e+01 1.857033448193921117e-03
3.731400000000000006e+01 3.300399999999999778e+01 5.664900000000000091e+01 -4.882170000000000121e-01 9.508476861989925916e-04
3.731700000000000017e+01 2.925600000000000023e+01 5.301599999999999824e+01 1.741831000000000174e+01 -7.319877265069067718e-02
3.731700000000000017e+01 3.088599999999999923e+01 5.301599999999999824e+01 -1.016939999999999955e+01 -7.255972538954079398e-02
3.732099999999999795e+01 1.121700000000000053e+01 6.700400000000000489e+01 3.750032999999999817e+01 1.556090142318494393e-02
3.733100000000000307e+01 1.722500000000000142e+01 4.637400000000000233e+01 2.122788999999999859e+01 -1.415657342613921010e-01
3.733299999999999841e+01 1.538299999999999912e+01 5.239900000000000091e+01 2.263783000000000101e+01 9.709043083313381728e-02
3.733599999999999852e+01 8.800000000000000711e+00 5.120100000000000051e+01 1.226356000000000002e+01 1.011526088816493835e-01
3.733700000000000330e+01 8.742800000000000793e+00 6.716800000000000637e+01 -4.210008000000000083e-01 -5.333940000853450158e-02
3.733700000000000330e+01 9.933699999999999974e+00 6.783199999999999363e+01 8.745763000000000176e+00 -2.484511970357812793e-01
3.734100000000000108e+01 2.009400000000000119e+01 6.727400000000000091e+01 -1.373470000000000013e+01 1.852338986307530688e-01
3.735000000000000142e+01 1.048499999999999943e+01 5.470900000000000318e+01 -1.360840999999999923e+01 -1.291535747109521792e-01
3.735199999999999676e+01 2.599800000000000111e+01 5.528199999999999648e+01 -4.716432000000000180e+00 -8.061834744676882585e-04
3.735300000000000153e+01 8.812900000000000844e+00 5.475200000000000244e+01 4.152270000000000127e-01 -1.317883654056136167e-01
3.735499999999999687e+01 7.362199999999999633e+00 5.626599999999999824e+01 1.787204000000000015e+00 -2.709691253029935035e-02
3.736299999999999955e+01 2.459400000000000119e+01 5.383299999999999841e+01 -1.920955000000000013e+01 9.448991404034955133e-02
3.736299999999999955e+01 1.447899999999999920e+01 5.523400000000000176e+01 1.235124000000000111e+00 7.710452484062278733e-02
3.736500000000000199e+01 2.326800000000000068e+01 6.568000000000000682e+01 -1.369621000000000066e+01 1.846880773214127913e-01
3.736599999999999966e+01 1.066999999999999993e+01 7.123900000000000432e+01 1.609744999999999848e+01 -1.581421750622787892e-01
3.737299999999999756e+01 2.724500000000000099e+01 5.450399999999999778e+01 -2.090883999999999965e+00 9.365681774691415884e-02
3.737299999999999756e+01 1.640200000000000102e+01 4.674600000000000222e+01 1.743344000000000094e+01 -1.415674257944157244e-01
3.737500000000000000e+01 3.118900000000000006e+01 5.371600000000000108e+01 3.654509999999999792e+01 -7.386456459725213031e-02
3.738000000000000256e+01 2.424800000000000111e+01 5.253199999999999648e+01 -7.798110999999999793e-01 -7.473709762388687505e-02
3.738400000000000034e+01 7.348799999999999777e+00 6.786100000000000421e+01 8.190590000000000259e+00 -2.414657344050821774e-01
3.738499999999999801e+01 2.686100000000000065e+01 5.787400000000000233e+01 -2.757624999999999993e+00 -3.793546788589000161e-03
3.738799999999999812e+01 2.486499999999999844e+01 5.452400000000000091e+01 -3.579907000000000039e+01 9.285050055300901606e-02
3.739200000000000301e+01 1.589000000000000057e+01 5.505100000000000193e+01 -1.649424000000000001e+00 8.151991204104498678e-02
3.739399999999999835e+01 1.044400000000000084e+01 6.364000000000000057e+01 4.503118999999999872e+00 4.151441137993532038e-03
3.739399999999999835e+01 1.163499999999999979e+01 6.430400000000000205e+01 7.808716999999999686e+00 3.955164657540414207e-03
3.739399999999999835e+01 1.184399999999999942e+01 6.504000000000000625e+01 7.251871999999999652e+00 6.625367180192552781e-03
3.740699999999999648e+01 2.578999999999999915e+01 5.217399999999999949e+01 2.968418999999999919e+00 -7.245146143658461046e-02
3.741400000000000148e+01 2.212399999999999878e+01 6.669400000000000261e+01 -2.826652999999999949e+01 1.850173484541389468e-01
3.743900000000000006e+01 2.570100000000000051e+01 5.718900000000000006e+01 -3.898670000000000080e+00 -3.822574663531547873e-03
3.743900000000000006e+01 2.941100000000000136e+01 5.800600000000000023e+01 -2.108811000000000035e+01 -2.055077261259826479e-03
3.744500000000000028e+01 1.535100000000000087e+01 4.686099999999999710e+01 1.075467000000000084e+01 -1.417136638991409459e-01
3.744500000000000028e+01 2.467899999999999849e+01 5.185399999999999920e+01 2.601430000000000131e+00 -7.190959885257458550e-02
3.744599999999999795e+01 2.096300000000000097e+01 5.344899999999999807e+01 -6.461522999999999683e+00 9.473138775378799059e-02
3.744599999999999795e+01 2.215399999999999991e+01 5.411299999999999955e+01 -5.324739000000000111e+00 9.294196052606841507e-02
3.745199999999999818e+01 1.195500000000000007e+01 7.310800000000000409e+01 -5.285827000000000275e+00 1.420568084198013670e-02
3.745199999999999818e+01 1.195500000000000007e+01 7.404800000000000182e+01 -1.018146999999999913e+01 1.338980911842118857e-02
3.745700000000000074e+01 1.631400000000000006e+01 5.242900000000000205e+01 1.674285000000000068e+01 9.807746391801962227e-02
3.746099999999999852e+01 2.520700000000000074e+01 5.530599999999999739e+01 -3.316206999999999994e+01 -1.277446454910110673e-03
3.746200000000000330e+01 2.461499999999999844e+01 5.297099999999999653e+01 -1.482590000000000074e+00 -7.587517325100551213e-02
3.746900000000000119e+01 2.618400000000000105e+01 4.836899999999999977e+01 -1.231260000000000021e+00 -3.399986873269634780e-01
3.746999999999999886e+01 1.922899999999999920e+01 6.823199999999999932e+01 -7.184899999999999842e+00 1.854814470255130021e-01
3.747099999999999653e+01 1.937199999999999989e+01 6.898699999999999477e+01 -8.183477999999999142e+00 1.857904321012565918e-01
3.747699999999999676e+01 1.350000000000000000e+01 7.164000000000000057e+01 3.371229000000000031e-01 1.297198512536313145e-02
3.747999999999999687e+01 2.363800000000000168e+01 6.485699999999999932e+01 -1.874192999999999998e+01 1.842529617354990712e-01
3.749099999999999966e+01 1.318500000000000050e+01 7.487099999999999511e+01 -2.122882999999999853e+01 1.112169635640923755e-02
3.751599999999999824e+01 1.682100000000000151e+01 5.502100000000000080e+01 -2.551623000000000197e+00 8.409803564148773947e-02
3.751599999999999824e+01 1.521199999999999974e+01 7.616700000000000159e+01 2.366973999999999911e+00 8.151211632871201845e-03
3.751599999999999824e+01 1.626200000000000045e+01 7.616700000000000159e+01 2.281933000000000078e+01 7.138582032883032322e-03
3.752000000000000313e+01 2.107999999999999829e+01 4.878199999999999648e+01 9.790779000000000565e+01 -5.791571468826856028e-02
3.752000000000000313e+01 2.107999999999999829e+01 4.974000000000000199e+01 -6.773461000000000176e+00 -6.331242967603152583e-02
3.753600000000000136e+01 3.055399999999999849e+01 5.815299999999999869e+01 -6.255548000000000108e+00 -1.457445530765336984e-03
3.753699999999999903e+01 2.336899999999999977e+01 5.350999999999999801e+01 -9.629409000000000773e+00 9.551774613793043156e-02
3.754099999999999682e+01 1.208099999999999952e+01 7.211899999999999977e+01 2.325120000000000076e+00 1.503493909892490710e-02
3.754500000000000171e+01 1.523199999999999932e+01 4.830400000000000205e+01 9.211159999999999570e+00 -4.752809859872371423e-02
3.754699999999999704e+01 6.357700000000000351e+00 6.915099999999999625e+01 5.652008999999999617e+00 -2.437568541957726986e-01
3.754699999999999704e+01 6.357700000000000351e+00 7.020099999999999341e+01 3.377768999999999799e+00 -2.450212341262709148e-01
3.754800000000000182e+01 3.007100000000000151e+01 5.301599999999999824e+01 3.140706000000000131e+01 -7.269780828028842012e-02
3.754999999999999716e+01 1.935800000000000054e+01 6.727400000000000091e+01 -3.488577999999999957e+00 1.849762757265522306e-01
3.755599999999999739e+01 1.951699999999999946e+01 7.355500000000000682e+01 1.885576000000000008e+01 -8.744974281418224638e-02
3.755799999999999983e+01 2.018100000000000094e+01 6.921299999999999386e+01 -1.064493000000000045e+01 1.858124572081618631e-01
3.758100000000000307e+01 1.578100000000000058e+01 4.751400000000000290e+01 6.829335000000000377e+00 -1.429415036911333980e-01
3.758299999999999841e+01 7.388700000000000045e+00 5.972099999999999653e+01 3.192435000000000134e+00 -1.009914524327367447e-01
3.758500000000000085e+01 1.408699999999999974e+01 7.492799999999999727e+01 -7.094840999999999731e+00 1.009102378235608895e-02
3.760000000000000142e+01 3.135099999999999909e+01 5.413799999999999812e+01 6.910998000000000197e+00 -7.449306581329975807e-02
3.760199999999999676e+01 2.477599999999999980e+01 4.922299999999999898e+01 -4.720498000000000194e-01 -6.184736943568156647e-02
3.760399999999999920e+01 3.253399999999999892e+01 5.494899999999999807e+01 1.029350999999999949e+01 9.425895721829385954e-02
3.760399999999999920e+01 3.253399999999999892e+01 5.740899999999999892e+01 -2.354316000000000031e+01 2.529157086042980551e-04
3.760799999999999699e+01 1.966100000000000136e+01 6.657399999999999807e+01 -1.239894999999999925e+01 1.845975598359061998e-01
3.760799999999999699e+01 2.052700000000000102e+01 6.657399999999999807e+01 -1.662800000000000011e+01 1.846774823024187329e-01
3.761500000000000199e+01 1.816100000000000136e+01 7.393800000000000239e+01 1.818572000000000077e+00 6.276492495693177312e-03
3.761999999999999744e+01 7.663800000000000168e+00 7.121099999999999852e+01 2.829584000000000099e+00 -2.452646806736848151e-01
3.762500000000000000e+01 2.137399999999999878e+01 6.976699999999999591e+01 -1.909852000000000061e+01 1.859508464604187616e-01
3.762500000000000000e+01 2.137399999999999878e+01 7.222700000000000387e+01 -1.353078000000000003e+01 -8.764974087191215735e-02
3.762599999999999767e+01 1.987999999999999901e+01 4.786899999999999977e+01 2.506189000000000000e+00 -5.098101320035584166e-02
3.764000000000000057e+01 1.491900000000000048e+01 4.434599999999999653e+01 5.618767000000000067e-01 -1.416173089486486292e-01
3.764000000000000057e+01 1.491900000000000048e+01 4.604599999999999937e+01 8.682543000000000788e+00 -1.420470659485590648e-01
3.764000000000000057e+01 1.596899999999999942e+01 4.434599999999999653e+01 2.868416999999999772e-01 -3.393533053135808220e-01
3.764000000000000057e+01 1.596899999999999942e+01 4.604599999999999937e+01 5.420113999999999876e+00 -1.421278006223751500e-01
3.764099999999999824e+01 2.378200000000000003e+01 6.436299999999999955e+01 -2.450676999999999950e+01 1.803603608072269493e-01
3.764099999999999824e+01 2.392000000000000171e+01 6.348299999999999699e+01 -8.659720000000000084e+00 1.799095527214121248e-01
3.764099999999999824e+01 1.675400000000000134e+01 4.749199999999999733e+01 1.360562999999999967e+01 -1.432708479722857031e-01
3.764699999999999847e+01 2.381500000000000128e+01 5.323199999999999932e+01 -5.877291999999999739e+00 9.669052058687381546e-02
3.764900000000000091e+01 1.663100000000000023e+01 7.522499999999999432e+01 1.738723000000000019e+00 7.302932866476432097e-03
3.765500000000000114e+01 2.669800000000000040e+01 5.522399999999999665e+01 7.896147999999999501e-01 7.726952639263375455e-05
3.765899999999999892e+01 2.485500000000000043e+01 5.741899999999999693e+01 1.011946000000000012e+01 -4.668778874161134268e-03
3.766899999999999693e+01 1.136999999999999922e+01 7.129699999999999704e+01 1.875337999999999994e+01 -1.590300537740503284e-01
3.767099999999999937e+01 1.765200000000000102e+01 4.696999999999999886e+01 7.387406999999999613e+00 -1.432862192407723112e-01
3.767099999999999937e+01 1.860999999999999943e+01 4.696999999999999886e+01 3.790271999999999863e+00 -1.436949398126294575e-01
3.767199999999999704e+01 1.751699999999999946e+01 5.437100000000000222e+01 -1.461566000000000010e+01 8.897294391880949949e-02
3.767499999999999716e+01 7.419299999999999784e+00 6.287500000000000000e+01 -5.657867999999999675e+00 -8.142216270430276126e-02
3.767499999999999716e+01 7.677900000000000169e+00 6.051500000000000057e+01 4.879635999999999640e+00 -9.670846117558604127e-02
3.767999999999999972e+01 1.740399999999999991e+01 5.348899999999999721e+01 -1.341691999999999929e+01 9.341938057586622601e-02
3.767999999999999972e+01 2.017599999999999838e+01 5.182099999999999795e+01 -1.348325999999999958e+01 -7.514625404651267826e-02
3.767999999999999972e+01 1.863599999999999923e+01 6.898699999999999477e+01 -8.397733000000000558e+00 -8.409538688334783352e-02
3.768099999999999739e+01 2.811700000000000088e+01 5.443900000000000006e+01 -1.839161999999999964e+00 9.451763082526323800e-02
3.768099999999999739e+01 2.811700000000000088e+01 5.804500000000000171e+01 -1.707457000000000136e+01 -2.733751032079680034e-03
3.768299999999999983e+01 1.482499999999999929e+01 7.542300000000000182e+01 3.005674999999999875e-01 9.115849311965577156e-03
3.768599999999999994e+01 1.276399999999999935e+01 7.164000000000000057e+01 2.406890000000000196e+00 1.450390866550276339e-02
3.768599999999999994e+01 1.423600000000000065e+01 7.164000000000000057e+01 -4.758169999999999789e+00 -8.205714814379438948e-02
3.770000000000000284e+01 1.093699999999999939e+01 5.514600000000000080e+01 -2.426034999999999897e+01 -1.258612543478221379e-01
3.770000000000000284e+01 1.212800000000000011e+01 5.581000000000000227e+01 -5.618568999999999924e+00 -1.242558588079831494e-01
3.770300000000000296e+01 2.969699999999999918e+01 5.371600000000000108e+01 7.554040999999999784e+00 -7.432687392361217449e-02
3.770300000000000296e+01 3.044500000000000028e+01 5.371600000000000108e+01 1.719441000000000130e+01 -7.397065260296395439e-02
3.770799999999999841e+01 1.693499999999999872e+01 7.452500000000000568e+01 4.114828000000000152e+00 7.345423709142860982e-03
3.771000000000000085e+01 1.357900000000000063e+01 5.535000000000000142e+01 -2.351110999999999895e-01 7.658730905926937338e-02
3.771099999999999852e+01 1.455000000000000071e+01 4.519599999999999795e+01 4.574029000000000345e+00 -1.421043686909911341e-01
3.771099999999999852e+01 1.633800000000000097e+01 4.519599999999999795e+01 -1.258480999999999961e+00 -1.422362351304659323e-01
3.771699999999999875e+01 2.470200000000000173e+01 5.071300000000000097e+01 -2.133284999999999876e+00 -6.740267656304863020e-02
3.773499999999999943e+01 8.358000000000000540e+00 6.297399999999999665e+01 -3.138280999999999921e+01 -8.568746153425182976e-02
3.773799999999999955e+01 7.089900000000000091e+00 6.211500000000000199e+01 -6.535038000000000125e+00 -8.361608501135278648e-02
3.773899999999999721e+01 1.893900000000000006e+01 6.968699999999999761e+01 -4.254391000000000034e+00 -8.473739169851383923e-02
3.773899999999999721e+01 1.980499999999999972e+01 6.968699999999999761e+01 -8.678233000000000530e+00 -8.535207231894806346e-02
3.774099999999999966e+01 1.480000000000000071e+01 4.918999999999999773e+01 3.079941999999999958e+00 -5.743282097516774071e-02
3.774199999999999733e+01 2.640099999999999980e+01 5.724699999999999989e+01 -6.179202999999999779e-01 -2.956551581492323881e-03
3.774499999999999744e+01 1.306799999999999962e+01 7.093999999999999773e+01 6.722077999999999776e+00 -7.990046342359592713e-02
3.774499999999999744e+01 1.306799999999999962e+01 7.234000000000000341e+01 -8.870454000000000505e+00 1.349587267324714110e-02
3.774499999999999744e+01 1.393299999999999983e+01 7.093999999999999773e+01 -9.214727999999999142e+00 -8.095558440906056030e-02
3.774499999999999744e+01 1.393299999999999983e+01 7.234000000000000341e+01 -4.276817999999999564e+00 1.217314981141805370e-02
3.775300000000000011e+01 7.366299999999999848e+00 6.128499999999999659e+01 -1.750213999999999936e+00 -8.997545747245173919e-02
3.775600000000000023e+01 2.400199999999999889e+01 6.246399999999999864e+01 -4.119203999999999866e+00 1.792426413864221246e-01
3.775800000000000267e+01 9.891799999999999926e+00 7.127100000000000080e+01 1.535468999999999973e+01 -1.554004836763124564e-01
3.776599999999999824e+01 2.761199999999999832e+01 5.089600000000000080e+01 -2.036356999999999928e+01 -6.769290099267014083e-02
3.777000000000000313e+01 9.233700000000000685e+00 6.756399999999999295e+01 2.585913999999999824e+00 -5.572805145432060264e-02
3.777000000000000313e+01 1.063400000000000034e+01 6.756399999999999295e+01 2.218138000000000076e+01 1.772473662789666310e-02
3.777199999999999847e+01 6.916699999999999626e+00 5.724499999999999744e+01 4.055231000000000030e+00 -1.195659650305989502e-01
3.777199999999999847e+01 6.916699999999999626e+00 5.829500000000000171e+01 5.355938000000000088e+00 -1.100044695942201944e-01
3.777700000000000102e+01 7.045899999999999608e+00 5.899399999999999977e+01 9.121914000000000300e+00 -1.047909006135239462e-01
3.778999999999999915e+01 2.759100000000000108e+01 4.920100000000000051e+01 -8.843049999999999855e+00 -6.269386614718970574e-02
3.779999999999999716e+01 2.410300000000000153e+01 6.059400000000000119e+01 4.897808000000000384e+00 1.780553281707364377e-01
3.779999999999999716e+01 2.410300000000000153e+01 6.164399999999999835e+01 1.215939999999999938e-01 1.787293925246679627e-01
3.780400000000000205e+01 2.622299999999999898e+01 5.168299999999999983e+01 -1.337550000000000061e+01 -7.030759562773933324e-02
3.781000000000000227e+01 2.457900000000000063e+01 5.006499999999999773e+01 -1.988758000000000026e+00 -6.485201410984009485e-02
3.781000000000000227e+01 2.008899999999999864e+01 5.084599999999999653e+01 2.143394999999999939e+01 -6.946011972155004266e-02
3.781400000000000006e+01 1.485800000000000054e+01 5.180299999999999727e+01 1.302863999999999933e+01 1.047386406652353885e-01
3.781499999999999773e+01 1.758399999999999963e+01 5.494700000000000273e+01 -1.033704000000000001e+01 8.703734192749211507e-02
3.781600000000000250e+01 7.839699999999999669e+00 6.746399999999999864e+01 3.702320999999999973e+00 -4.792823615886997179e-02
3.782200000000000273e+01 8.378999999999999559e+00 5.524300000000000210e+01 6.740715999999999930e-01 -1.276034358767244581e-01
3.782600000000000051e+01 1.114400000000000013e+01 6.390800000000000125e+01 6.725719999999999921e+00 2.562005882181367898e-03
3.782900000000000063e+01 1.897800000000000153e+01 4.767799999999999727e+01 -1.134662999999999933e+01 -4.801846346628407813e-02
3.783200000000000074e+01 9.705799999999999983e+00 5.441100000000000136e+01 -2.182549999999999990e+00 -1.250338358092078495e-01
3.784700000000000131e+01 8.280300000000000438e+00 7.124500000000000455e+01 1.418856000000000006e-01 -1.509405730436669535e-01
3.785399999999999920e+01 2.419800000000000040e+01 5.426599999999999824e+01 -2.849574000000000140e+01 9.433951807977480897e-02
3.785499999999999687e+01 2.378999999999999915e+01 5.878799999999999670e+01 -3.020402999999999949e+00 1.766276319704120634e-01
3.785799999999999699e+01 2.564000000000000057e+01 5.579699999999999704e+01 -6.048154000000000252e+00 -1.266883877837138598e-03
3.787299999999999756e+01 1.641499999999999915e+01 5.564699999999999847e+01 2.140145000000000053e+01 -1.404793250738552504e-02
3.787299999999999756e+01 1.728099999999999881e+01 5.564699999999999847e+01 -7.547597000000000333e-01 -1.201733397613050786e-02
3.787400000000000233e+01 2.380199999999999960e+01 5.972699999999999676e+01 1.275694999999999979e+01 1.772952281349313985e-01
3.787800000000000011e+01 2.776999999999999957e+01 4.981700000000000017e+01 -2.081210000000000093e+01 -6.449258503979095336e-02
3.787899999999999778e+01 2.145400000000000063e+01 5.384499999999999886e+01 -4.386511999999999745e+00 9.480877364143819319e-02
3.787899999999999778e+01 2.285399999999999920e+01 5.384499999999999886e+01 -6.433049999999999713e+00 9.524155787265935202e-02
3.788499999999999801e+01 1.448900000000000077e+01 5.095300000000000296e+01 8.621959000000000373e+00 1.125507119558470936e-01
3.789000000000000057e+01 2.267200000000000060e+01 6.616100000000000136e+01 -7.651843999999999646e+00 1.844112031448827127e-01
