2.513500000000000156e+01 -4.226700000000000124e+00 4.377700000000000102e+01 -1.080219999999999914e+01 -3.499999999999999778e-01
2.513500000000000156e+01 -4.226700000000000124e+00 4.529699999999999704e+01 -1.120452000000000048e+01 -3.499999999999999778e-01
2.513500000000000156e+01 -3.287300000000000111e+00 4.377700000000000102e+01 -1.883339000000000141e+01 -3.499999999999999778e-01
2.514300000000000068e+01 9.788600000000000634e+00 3.619800000000000040e+01 -6.790715999999999752e+00 -1.602713317186408859e-01
2.515200000000000102e+01 -2.964800000000000213e-01 4.451299999999999812e+01 -1.881377000000000166e+01 -3.499999999999999778e-01
2.515399999999999991e+01 1.293099999999999916e+01 5.797299999999999898e+01 -2.557944000000000173e+01 -1.616756983722596464e-01
2.515700000000000003e+01 1.571700000000000053e+01 3.700900000000000034e+01 -2.962925999999999949e+00 -1.670515183092425582e-01
2.515700000000000003e+01 -1.364900000000000002e+00 4.550999999999999801e+01 -1.157792000000000066e+01 -3.499999999999999778e-01
2.516000000000000014e+01 1.673099999999999865e-01 4.388600000000000279e+01 -2.162087999999999965e+01 -3.499999999999999778e-01
2.516000000000000014e+01 1.673099999999999865e-01 4.528600000000000136e+01 -1.187181999999999960e+01 -3.499999999999999778e-01
2.516000000000000014e+01 1.032599999999999962e+00 4.388600000000000279e+01 -7.184917000000000442e+00 -3.396439444107760552e-01
2.516000000000000014e+01 1.032599999999999962e+00 4.528600000000000136e+01 -9.047349999999999781e+00 -3.396704360975324466e-01
2.516000000000000014e+01 1.110699999999999932e+01 3.538799999999999812e+01 -2.000703000000000031e+01 -1.637924300623475049e-01
2.516100000000000136e+01 -1.727000000000000091e+00 4.112199999999999989e+01 -7.991761000000000337e+00 -3.499999999999999778e-01
2.516100000000000136e+01 -4.339999999999999969e-01 4.040100000000000335e+01 -1.359004999999999974e+01 -3.500000000000000333e-01
2.518299999999999983e+01 2.180900000000000105e+01 3.951599999999999824e+01 -1.124738000000000016e+00 -1.671072395938373867e-01
2.519399999999999906e+01 -2.118599999999999817e+00 4.307699999999999818e+01 -8.998208999999999236e+00 -3.499999999999999778e-01
2.519399999999999906e+01 1.126900000000000013e+01 5.653600000000000136e+01 -4.264078999999999731e+00 -1.609325503158018089e-01
2.519600000000000151e+01 1.412899999999999956e+01 5.769299999999999784e+01 -4.735139000000000209e+00 -1.622239890728965350e-01
2.520799999999999841e+01 1.829700000000000060e+01 4.512800000000000011e+01 -6.376436999999999955e+01 -1.673203490794170634e-01
2.521799999999999997e+01 1.336000000000000076e+00 4.458599999999999852e+01 -8.341872999999999649e+00 -3.396792815948183053e-01
2.523600000000000065e+01 1.637900000000000134e+01 3.471099999999999852e+01 -6.163187999999999889e+00 -1.667277054269794001e-01
2.524200000000000088e+01 1.832700000000000173e+01 5.232300000000000040e+01 3.781106999999999996e+00 -1.650085088515320653e-01
2.524399999999999977e+01 1.922200000000000131e+01 4.424099999999999966e+01 -3.135079999999999956e+01 -1.673441369052221517e-01
2.524399999999999977e+01 2.062199999999999989e+01 4.424099999999999966e+01 1.497733999999999988e+01 -1.672862932457818697e-01
2.524599999999999866e+01 -2.490000000000000213e+00 4.377799999999999869e+01 -1.013898000000000010e+01 -3.499999999999999778e-01
2.524599999999999866e+01 -2.490000000000000213e+00 4.529599999999999937e+01 -1.523312999999999917e+01 -3.499999999999999778e-01
2.526099999999999923e+01 1.558799999999999919e+01 5.739399999999999835e+01 2.425383000000000067e+00 -1.628914769652461403e-01
2.526899999999999835e+01 3.737499999999999822e+00 4.001700000000000301e+01 2.420961000000000141e+00 -3.398662607322310292e-01
2.526899999999999835e+01 5.056000000000000050e+00 3.928199999999999648e+01 -7.403684000000000154e+00 -3.400429646444064757e-01
2.527400000000000091e+01 2.007499999999999929e+01 4.120799999999999841e+01 7.371415999999999968e+00 -1.673529002715173630e-01
2.527400000000000091e+01 2.042000000000000171e+01 4.042499999999999716e+01 2.337607999999999908e+00 -1.673173899627468375e-01
2.527499999999999858e+01 1.701500000000000057e+01 5.536200000000000188e+01 4.031405999999999601e+00 -1.637868578642788786e-01
2.527700000000000102e+01 1.129800000000000004e+01 5.532500000000000284e+01 -3.819382000000000055e+00 -1.609619269408428810e-01
2.529400000000000048e+01 -1.192900000000000071e+00 4.443999999999999773e+01 -1.056099000000000032e+01 -3.499999999999999778e-01
2.531200000000000117e+01 -1.050400000000000000e+00 4.953000000000000114e+01 -2.151464999999999961e+00 -3.499999999999999778e-01
2.532600000000000051e+01 1.779899999999999949e+01 3.852400000000000091e+01 -2.422732999999999848e+01 -1.674133902630642323e-01
2.534100000000000108e+01 1.785099999999999909e+01 4.639300000000000068e+01 -4.801456999999999908e+01 -1.666848998644644975e-01
2.534100000000000108e+01 1.805999999999999872e+01 4.565699999999999648e+01 -3.349470000000000169e+01 -1.671503478599021264e-01
2.534400000000000119e+01 1.937099999999999866e+01 3.544200000000000017e+01 -1.847597000000000023e+01 -1.670094202084828339e-01
2.535200000000000031e+01 8.040000000000000480e-01 4.043900000000000006e+01 -7.984401000000000082e+00 -3.499999999999999778e-01
2.536700000000000088e+01 1.418699999999999939e+01 3.235900000000000176e+01 -6.309730999999999534e-01 -1.657752505771731555e-01
2.536700000000000088e+01 1.505199999999999960e+01 3.235900000000000176e+01 1.619930000000000092e+00 -1.659398487617017026e-01
2.536899999999999977e+01 2.330000000000000127e-01 5.027400000000000091e+01 -2.219202999999999815e+00 -3.396999795368871311e-01
2.536899999999999977e+01 1.933000000000000052e+00 5.027400000000000091e+01 -3.858445000000000125e+00 -3.397828770865780612e-01
2.537300000000000111e+01 1.013599999999999923e+01 5.428499999999999659e+01 -3.865400999999999865e+00 -3.401258146433832064e-01
2.537600000000000122e+01 1.748400000000000176e+01 4.985600000000000165e+01 -1.812674000000000163e+01 -1.652378139393829160e-01
2.538200000000000145e+01 4.333400000000000141e+00 4.899499999999999744e+01 -2.669899000000000022e+00 -3.399043238452011950e-01
2.538500000000000156e+01 1.616799999999999926e+01 3.162199999999999989e+01 -2.016277000000000097e+00 -1.657264098955650855e-01
2.538500000000000156e+01 1.768799999999999883e+01 3.162199999999999989e+01 -5.818374999999999631e+00 -1.658683355910949841e-01
2.539399999999999835e+01 1.785900000000000176e+01 5.358299999999999841e+01 -1.585346999999999973e+01 -1.645158827229282195e-01
2.539399999999999835e+01 1.806800000000000139e+01 5.284700000000000131e+01 -1.254393000000000091e+00 -1.647768945729846668e-01
2.539600000000000080e+01 1.251900000000000013e+01 5.358299999999999841e+01 -1.550328999999999979e+01 -1.617025634093020858e-01
2.539600000000000080e+01 1.251900000000000013e+01 5.444899999999999807e+01 -8.394161000000000428e+00 -1.616515096217333025e-01
2.539799999999999969e+01 1.759199999999999875e+01 3.688000000000000256e+01 -3.853826000000000196e+00 -1.673643062904869583e-01
2.539799999999999969e+01 8.888600000000000279e+00 5.227799999999999869e+01 -1.061294000000000004e+01 -3.401025196851188981e-01
2.540200000000000102e+01 6.426000000000000156e+00 3.906400000000000006e+01 -8.284233999999999654e+00 -3.402257630582938841e-01
2.540299999999999869e+01 1.879700000000000060e+01 3.216299999999999670e+01 -4.899231999999999587e+00 -1.661841230573454509e-01
2.540800000000000125e+01 1.139899999999999913e+01 3.354599999999999937e+01 -4.508721000000000423e+00 -1.657977893394423086e-01
2.541199999999999903e+01 5.713599999999999568e+00 5.014200000000000301e+01 2.137853999999999921e+00 -3.399745548382543392e-01
2.542099999999999937e+01 -2.541999999999999815e+00 4.922399999999999665e+01 -3.501999000000000084e+00 -3.499999999999999778e-01
2.542500000000000071e+01 -1.797500000000000098e+00 4.481000000000000227e+01 -1.033614999999999995e+01 -3.499999999999999778e-01
2.542699999999999960e+01 5.999299999999999633e-01 4.458599999999999852e+01 -1.103773999999999944e+01 -3.396199803434968301e-01
2.542800000000000082e+01 1.153999999999999915e+01 3.468800000000000239e+01 -6.264827999999999619e+00 -1.657687757820568986e-01
2.545499999999999829e+01 2.233200000000000074e+01 4.412400000000000233e+01 3.318578999999999724e+01 -1.673235737480706364e-01
2.546000000000000085e+01 8.037000000000000810e+00 3.787299999999999756e+01 -7.491672000000000331e+00 -3.405024961112770310e-01
2.546399999999999864e+01 1.040700000000000003e+01 3.544599999999999795e+01 -6.177707999999999977e+00 -1.625302143605933947e-01
2.546600000000000108e+01 1.761799999999999855e+01 3.932200000000000273e+01 -3.390798000000000201e+01 -1.676048731379224388e-01
2.546900000000000119e+01 6.070899999999999963e+00 5.094500000000000028e+01 3.152766999999999875e+00 -3.399874551149425495e-01
2.546900000000000119e+01 7.402099999999999902e+00 5.186699999999999733e+01 -8.220288000000000039e-01 -3.400423554827941564e-01
2.547200000000000131e+01 -3.793400000000000105e+00 4.588700000000000045e+01 -1.111823000000000050e+01 -3.499999999999999778e-01
2.547400000000000020e+01 1.279700000000000060e+01 3.153200000000000003e+01 -4.690990000000000215e+00 -1.650665746081086405e-01
2.547400000000000020e+01 1.051600000000000001e+01 5.176100000000000279e+01 -2.159664000000000073e+01 -1.605491352880770439e-01
2.547400000000000020e+01 1.138199999999999967e+01 5.176100000000000279e+01 -1.651673999999999864e+01 -1.611148754132911698e-01
2.548600000000000065e+01 8.708199999999999719e+00 3.733100000000000307e+01 -6.957317999999999891e+00 -1.583053572334966741e-01
2.551800000000000068e+01 1.142200000000000060e+01 3.245300000000000296e+01 -4.025039999999999729e+00 -1.653822099029190751e-01
2.552100000000000080e+01 3.057300000000000129e+00 4.911099999999999710e+01 2.241731999999999836e+00 -3.398320572668898087e-01
2.552499999999999858e+01 1.882700000000000173e+01 5.178600000000000136e+01 -7.994443999999999662e+00 -1.654276893219571998e-01
2.552599999999999980e+01 -2.778500000000000192e+00 4.309499999999999886e+01 -9.217615999999999588e+00 -3.499999999999999778e-01
2.553099999999999881e+01 1.660099999999999909e+01 5.603300000000000125e+01 1.049717000000000056e+01 -1.635238366847575064e-01
2.553699999999999903e+01 2.376099999999999923e+01 3.979399999999999693e+01 5.984702999999999662e+00 -1.672315565307531671e-01
2.554200000000000159e+01 1.791499999999999915e+01 4.184300000000000352e+01 -2.748607000000000156e+01 -1.676696765568802261e-01
2.555000000000000071e+01 8.481999999999999318e+00 3.412700000000000244e+01 2.161552000000000007e+01 -1.567326625719593636e-01
2.555399999999999849e+01 1.528500000000000014e+01 3.511800000000000210e+01 -2.724527999999999839e+00 -1.673107576801411700e-01
2.555399999999999849e+01 1.528500000000000014e+01 3.651800000000000068e+01 -4.130766999999999634e+00 -1.675363941580071958e-01
2.555399999999999849e+01 1.614999999999999858e+01 3.511800000000000210e+01 -6.657975000000000421e+00 -1.673383772807851277e-01
2.555399999999999849e+01 1.614999999999999858e+01 3.651800000000000068e+01 -4.502080000000000304e+00 -1.675522822152703262e-01
2.556599999999999895e+01 -3.757000000000000117e+00 4.324399999999999977e+01 -8.103559000000000623e+00 -3.499999999999999778e-01
2.556599999999999895e+01 1.190600000000000058e+01 5.252900000000000347e+01 -5.791230999999999796e+00 -1.614172495708328936e-01
2.557000000000000028e+01 2.019600000000000151e+01 3.450500000000000256e+01 -7.804162999999999961e+00 -1.670722996791038084e-01
2.559299999999999997e+01 5.443699999999999761e+00 3.928799999999999670e+01 -8.319335000000000591e+00 -3.400866373091583350e-01
2.559700000000000131e+01 1.485800000000000054e+01 5.764800000000000324e+01 1.482534000000000063e+01 -1.625767932449485031e-01
2.560500000000000043e+01 -4.986699999999999910e+00 4.406700000000000017e+01 -1.029559000000000069e+01 -3.500000000000000333e-01
2.560500000000000043e+01 -4.986699999999999910e+00 4.500699999999999790e+01 -1.589672999999999981e+01 -3.499999999999999778e-01
2.560800000000000054e+01 2.234199999999999875e+01 3.894400000000000261e+01 -1.177324000000000037e+00 -1.673948689380893029e-01
2.560800000000000054e+01 2.339199999999999946e+01 3.894400000000000261e+01 1.757840000000000069e+00 -1.672868336562537972e-01
2.561199999999999832e+01 1.498099999999999987e+01 3.581799999999999784e+01 -5.496209000000000344e+00 -1.675179774499785945e-01
2.561199999999999832e+01 1.645299999999999940e+01 3.581799999999999784e+01 -4.740548999999999680e+00 -1.675477147431440605e-01
2.562399999999999878e+01 1.944900000000000162e+01 4.172399999999999665e+01 -8.073549999999999116e+00 -1.676711201071337531e-01
2.562800000000000011e+01 1.369899999999999984e+01 5.782999999999999829e+01 -1.474371000000000009e+01 -1.620561185406121651e-01
2.563100000000000023e+01 -1.193999999999999950e+00 4.069100000000000250e+01 -7.913459999999999717e+00 -3.499999999999999778e-01
2.563899999999999935e+01 1.772800000000000153e+01 5.485900000000000176e+01 -6.351738000000000106e-01 -1.642315670534778282e-01
2.564300000000000068e+01 1.705099999999999838e+01 4.828999999999999915e+01 -2.438654000000000011e+01 -1.655078610089338320e-01
2.564300000000000068e+01 1.705099999999999838e+01 4.915599999999999881e+01 -2.083622000000000085e+01 -1.652316724682344473e-01
2.564300000000000068e+01 1.805799999999999983e+01 5.016299999999999670e+01 -1.178508000000000067e+01 -1.655085826478559508e-01
2.564300000000000068e+01 1.840299999999999869e+01 5.094500000000000028e+01 -1.350497999999999976e+01 -1.654638269429925534e-01
2.564300000000000068e+01 2.417399999999999949e+01 4.077700000000000102e+01 1.586537000000000086e+00 -1.672968228632056575e-01
2.565500000000000114e+01 1.504000000000000004e+00 4.049699999999999989e+01 -6.790535000000000210e+00 -3.395972046398683108e-01
2.566400000000000148e+01 1.208699999999999974e+01 5.514900000000000091e+01 -6.379076000000000413e+00 -1.614097320376394196e-01
2.567699999999999960e+01 1.873100000000000165e+01 4.463700000000000045e+01 -8.495986000000000615e+01 -1.676400730428756758e-01
2.568400000000000105e+01 1.081300000000000061e+01 5.587500000000000000e+01 2.551893999999999885e+00 -1.607360101315050971e-01
2.569900000000000162e+01 1.791100000000000136e+01 5.403099999999999881e+01 -1.864193999999999907e+00 -1.644817240350905929e-01
2.570200000000000173e+01 3.246599999999999930e+00 4.041400000000000148e+01 1.906921000000000088e+00 -3.397962524210239588e-01
2.570200000000000173e+01 1.997599999999999909e+01 3.351400000000000290e+01 -5.989638000000000240e+00 -1.670534602653762912e-01
2.570799999999999841e+01 2.405600000000000094e+01 4.176899999999999835e+01 2.506034000000000095e+00 -1.673650829686461061e-01
2.570899999999999963e+01 8.937900000000000844e+00 3.493999999999999773e+01 2.295878000000000085e+00 -1.587925369863743830e-01
2.572400000000000020e+01 1.039000000000000062e-01 4.052000000000000313e+01 -9.241120999999999697e+00 -3.499999999999999778e-01
2.573499999999999943e+01 1.055100000000000016e+01 5.639300000000000068e+01 1.985117999999999938e+00 -3.401132327117036280e-01
2.573900000000000077e+01 2.090800000000000125e+01 3.985900000000000176e+01 3.457589000000000024e+00 -1.676702507766623662e-01
2.574800000000000111e+01 4.280999999999999694e+00 3.957800000000000296e+01 4.090314999999999923e-01 -3.399252645998944722e-01
2.575300000000000011e+01 9.140800000000000480e+00 3.663100000000000023e+01 -1.251539999999999964e+01 -1.596521396392391323e-01
2.577599999999999980e+01 2.294000000000000128e+01 4.339800000000000324e+01 2.777783000000000158e+01 -1.674935972302423193e-01
2.578099999999999881e+01 7.667099999999999582e+00 3.412700000000000244e+01 8.796222000000000207e-01 -1.542968628494933436e-01
2.578099999999999881e+01 9.217999999999999972e+00 3.567799999999999727e+01 -1.481003999999999987e+00 -1.598360041603371084e-01
2.578099999999999881e+01 9.296900000000000830e+00 3.412700000000000244e+01 4.766617000000000104e+00 -1.600401221531143059e-01
2.579200000000000159e+01 9.787499999999999645e+00 3.489099999999999824e+01 8.532944000000000084e-01 -1.615474588514977938e-01
2.579299999999999926e+01 1.085399999999999920e+01 5.709300000000000352e+01 4.009543999999999886e-01 -1.607701944074664824e-01
2.579799999999999827e+01 1.616799999999999926e+01 5.673299999999999699e+01 6.680265000000000342e+00 -1.632624525388149950e-01
2.580399999999999849e+01 4.677999999999999936e+00 4.931099999999999994e+01 -1.182324000000000014e-01 -3.399183592586417779e-01
2.580600000000000094e+01 1.753999999999999915e+01 4.773400000000000176e+01 -1.989468000000000103e+01 -1.660420148794997386e-01
2.580900000000000105e+01 1.748199999999999932e+01 4.027700000000000102e+01 -3.480995000000000061e+01 -1.679603584797682292e-01
2.580900000000000105e+01 1.748199999999999932e+01 4.114300000000000068e+01 -2.239955000000000140e+01 -1.679377844540848597e-01
2.581599999999999895e+01 1.669200000000000017e+01 3.120100000000000051e+01 -5.541872999999999827e+00 -1.665311749819990139e-01
2.581899999999999906e+01 1.417800000000000082e+01 3.195899999999999963e+01 -7.974742999999999693e-01 -1.666698409710027085e-01
2.581899999999999906e+01 1.557799999999999940e+01 3.195899999999999963e+01 7.780150999999999595e-01 -1.668491116016357911e-01
2.582100000000000151e+01 1.571700000000000053e+01 3.581799999999999784e+01 -4.563161000000000023e+00 -1.678709656499090541e-01
2.582300000000000040e+01 7.336299999999999599e+00 3.803000000000000114e+01 -9.141353999999999758e+00 -3.403941691204665498e-01
2.582400000000000162e+01 3.757299999999999862e+00 4.905299999999999727e+01 -3.507870000000000155e-01 -3.398670308233288084e-01
2.583099999999999952e+01 -3.507699999999999818e+00 4.691299999999999670e+01 -1.664110000000000156e+01 -3.499999999999999778e-01
2.583099999999999952e+01 -3.507699999999999818e+00 4.777799999999999869e+01 -7.617016999999999705e+00 -3.499999999999999778e-01
2.583200000000000074e+01 9.795999999999999375e+00 5.185000000000000142e+01 -1.000876000000000055e+01 -3.401432509996781262e-01
2.584299999999999997e+01 1.364700000000000024e+01 3.160300000000000153e+01 -3.180807999999999858e+00 -1.664175866307254226e-01
2.584499999999999886e+01 1.861499999999999844e+01 4.190100000000000335e+01 -1.931411999999999907e+01 -1.678923660509769045e-01
2.584600000000000009e+01 8.003000000000000114e+00 3.335199999999999676e+01 5.705009999999999692e+00 -1.551891608378155596e-01
2.584600000000000009e+01 8.003000000000000114e+00 3.490200000000000102e+01 -1.363812999999999942e+00 -1.560659066660814442e-01
2.584600000000000009e+01 8.961000000000000298e+00 3.335199999999999676e+01 5.042623999999999995e+00 -1.589475708540813437e-01
2.585699999999999932e+01 1.806200000000000117e+01 3.172200000000000131e+01 -5.729724000000000039e+00 -1.668685065838964587e-01
2.585800000000000054e+01 2.005999999999999872e+01 4.380299999999999727e+01 2.389720000000000066e+00 -1.677401190824945876e-01
2.585800000000000054e+01 9.638999999999999346e+00 5.631799999999999784e+01 2.383141000000000176e+00 -3.400840344547739202e-01
2.585999999999999943e+01 1.083999999999999986e+01 3.355499999999999972e+01 -3.857962999999999809e+00 -1.654836273727231521e-01
2.585999999999999943e+01 1.083999999999999986e+01 3.495499999999999829e+01 -8.121434000000000708e+00 -1.646549797337500121e-01
2.586299999999999955e+01 8.135699999999999932e+00 5.199099999999999966e+01 -2.239117999999999942e+00 -3.400703465041798323e-01
2.587099999999999866e+01 1.094899999999999984e+01 5.127000000000000313e+01 -1.264136000000000060e+01 -1.608821074140789342e-01
2.587399999999999878e+01 1.732799999999999940e+01 5.583899999999999864e+01 5.423722999999999850e+00 -1.639073480053771792e-01
2.588700000000000045e+01 1.782999999999999829e+01 3.729200000000000159e+01 -5.946759000000000073e-02 -1.680039054640991292e-01
2.588700000000000045e+01 1.782999999999999829e+01 3.815800000000000125e+01 -6.049508000000000330e+00 -1.680308239227330525e-01
2.588800000000000168e+01 2.149099999999999966e+01 4.415899999999999892e+01 3.104289999999999949e+01 -1.676512684378562990e-01
2.589300000000000068e+01 1.007699999999999996e+01 5.587500000000000000e+01 2.904164999999999885e+00 -3.401025662740003730e-01
2.589399999999999835e+01 -3.933400000000000230e-01 4.991700000000000159e+01 -1.801599000000000117e-01 -3.396577085940922780e-01
2.589399999999999835e+01 1.082999999999999963e+00 5.059899999999999665e+01 -8.098948999999999288e+00 -3.397383842858424652e-01
2.589399999999999835e+01 2.529100000000000126e+00 4.979299999999999926e+01 -1.354832000000000036e+00 -3.398033053204912446e-01
2.589499999999999957e+01 -4.517000000000000348e+00 4.330700000000000216e+01 -1.111501999999999946e+01 -3.499999999999999778e-01
2.589499999999999957e+01 -4.517000000000000348e+00 4.576700000000000301e+01 -1.274244000000000021e+01 -3.500000000000000333e-01
2.589799999999999969e+01 1.951200000000000045e+01 3.258500000000000085e+01 -3.686995000000000022e+00 -1.671482938997210510e-01
2.590200000000000102e+01 5.235000000000000320e+00 4.976599999999999824e+01 2.204244999999999788e+00 -3.399462874931390988e-01
2.590700000000000003e+01 1.208200000000000074e+01 5.202799999999999869e+01 -1.292026000000000074e+01 -1.615897005616239446e-01
2.591900000000000048e+01 1.114300000000000068e+01 3.425500000000000256e+01 -4.965366000000000390e+00 -1.660413436932147158e-01
2.592699999999999960e+01 1.221100000000000030e+01 3.106800000000000139e+01 -5.600310000000000343e+00 -1.658146052864558906e-01
2.592899999999999849e+01 -2.020199999999999996e+00 4.218299999999999983e+01 -1.822062999999999988e+01 -3.500000000000000333e-01
2.592899999999999849e+01 1.089600000000000080e+01 3.297800000000000153e+01 -3.885486999999999913e+00 -1.662675937676075244e-01
2.594200000000000017e+01 1.838500000000000156e+01 5.262599999999999767e+01 1.366964000000000068e+00 -1.650489753675914162e-01
2.594399999999999906e+01 9.849000000000000199e+00 5.777499999999999858e+01 -7.246118999999999755e-01 -3.400772933654366836e-01
2.594600000000000151e+01 -3.138100000000000112e+00 4.874300000000000210e+01 -3.970037000000000038e+00 -3.500000000000000888e-01
2.594600000000000151e+01 -1.691999999999999948e+00 4.954899999999999949e+01 -3.502831000000000028e+00 -3.499999999999999778e-01
2.595200000000000173e+01 1.293099999999999916e+01 5.786200000000000188e+01 -2.297785000000000011e+01 -1.617340850177120259e-01
2.597400000000000020e+01 2.001699999999999946e+01 4.090400000000000347e+01 2.871042999999999790e+00 -1.679396586551517578e-01
2.597800000000000153e+01 1.988500000000000156e+01 3.515299999999999869e+01 -3.980576000000000114e+00 -1.677544990144645976e-01
2.599399999999999977e+01 6.666999999999999815e+00 5.142600000000000193e+01 1.351364000000000010e+00 -3.400080601012149262e-01
2.599500000000000099e+01 1.806700000000000017e+01 4.689600000000000080e+01 -2.027563999999999922e+01 -1.667434281332083879e-01
2.599899999999999878e+01 1.260599999999999987e+01 5.279699999999999704e+01 -1.409632000000000041e+01 -1.618641228486270012e-01
2.599899999999999878e+01 1.566600000000000037e+01 5.758200000000000074e+01 1.098239000000000054e+01 -1.629639154199167550e-01
2.600000000000000000e+01 -3.056999999999999940e+00 4.286099999999999710e+01 -1.053805000000000014e+01 -3.499999999999999778e-01
2.600199999999999889e+01 1.011800000000000033e+01 5.709300000000000352e+01 2.116501999999999839e+01 -3.400912169480774239e-01
2.600300000000000011e+01 1.925700000000000145e+01 4.397200000000000131e+01 -4.551601000000000141e+01 -1.678761881906320752e-01
2.600499999999999901e+01 2.546600000000000197e+00 4.047200000000000131e+01 -5.215189999999999770e+00 -3.397058603387926867e-01
2.601599999999999824e+01 1.877100000000000080e+01 3.611099999999999710e+01 8.281589000000000311e+00 -1.680227163690201642e-01
2.602599999999999980e+01 6.143699999999999939e+00 3.902000000000000313e+01 -1.336145999999999923e+01 -3.401789783607781503e-01
2.602799999999999869e+01 1.131400000000000006e+01 3.195799999999999841e+01 -4.786102999999999774e+00 -1.664311501464170173e-01
2.604599999999999937e+01 2.365599999999999881e+01 4.267499999999999716e+01 5.710816000000000336e+00 -1.676164348771741197e-01
2.605399999999999849e+01 9.095100000000000406e+00 5.708500000000000085e+01 2.285877999999999943e+01 -3.400589609161644988e-01
2.606700000000000017e+01 1.428400000000000070e+01 5.789200000000000301e+01 1.308851999999999932e-02 -1.623417887516935276e-01
2.606800000000000139e+01 1.153299999999999947e+01 5.782399999999999807e+01 -1.197975000000000012e+00 -1.611063503116407225e-01
2.607300000000000040e+01 2.384400000000000119e+01 3.853199999999999648e+01 -8.324335000000000484e-01 -1.675951536921346796e-01
2.607300000000000040e+01 1.862000000000000099e+01 5.060900000000000176e+01 -1.137527000000000044e+01 -1.657366928886350732e-01
2.607300000000000040e+01 2.033899999999999864e+01 3.395799999999999841e+01 -4.282966999999999747e-01 -1.676436042234604185e-01
2.607600000000000051e+01 1.775100000000000122e+01 4.942300000000000182e+01 -1.927480999999999867e+01 -1.656314769590739033e-01
2.608599999999999852e+01 1.601099999999999923e+01 3.125900000000000034e+01 -6.014577000000000062e+00 -1.671901536294427282e-01
2.608899999999999864e+01 2.286700000000000088e+01 3.834799999999999898e+01 -4.830699999999999994e-01 -1.677291242143593430e-01
2.608899999999999864e+01 8.824099999999999611e+00 5.631799999999999784e+01 5.959401999999999866e+00 -3.400558622173487366e-01
2.609100000000000108e+01 3.725800000000000001e+00 4.023100000000000165e+01 -3.399027999999999938e+00 -3.398433101231305153e-01
2.609600000000000009e+01 1.257799999999999940e+01 5.475200000000000244e+01 -5.378377999999999659e+00 -1.617241378166759946e-01
2.609600000000000009e+01 1.278700000000000081e+01 5.401599999999999824e+01 -5.968787999999999982e+00 -1.618857259254745662e-01
2.610200000000000031e+01 -1.551700000000000079e+00 4.147399999999999665e+01 -9.065073999999999188e+00 -3.499999999999999778e-01
2.611599999999999966e+01 5.742300000000000182e-01 4.043900000000000006e+01 -7.708027000000000406e+00 -3.394781893318331023e-01
2.612199999999999989e+01 1.487800000000000011e+01 3.201700000000000301e+01 -2.837228000000000083e+00 -1.675603249743005951e-01
2.612300000000000111e+01 5.012400000000000411e+00 3.942399999999999949e+01 -1.014838999999999913e+01 -3.400145093227922577e-01
2.612399999999999878e+01 1.246100000000000030e+01 3.059400000000000119e+01 -6.537919999999999732e+00 -1.661734697667882343e-01
2.612800000000000011e+01 1.040700000000000003e+01 3.425500000000000256e+01 3.075797999999999810e+00 -1.643583986118277163e-01
2.613299999999999912e+01 2.424200000000000088e+01 3.926899999999999835e+01 7.233747000000000371e-01 -1.676140632417409126e-01
2.613400000000000034e+01 1.744800000000000040e+01 4.872299999999999898e+01 -2.776615999999999929e+01 -1.656916617332156727e-01
2.613700000000000045e+01 2.140899999999999892e+01 3.914500000000000313e+01 -1.539115000000000011e+00 -1.679663639111518003e-01
2.613800000000000168e+01 1.016000000000000014e+01 3.297800000000000153e+01 -6.833369999999999722e-01 -1.642738767668390221e-01
2.614600000000000080e+01 1.808800000000000097e+01 4.586399999999999721e+01 -2.564856999999999942e+01 -1.672518447783549744e-01
2.614600000000000080e+01 1.829700000000000060e+01 4.512800000000000011e+01 -9.252210999999999785e+01 -1.677549241174287886e-01
2.615399999999999991e+01 9.160000000000000142e+00 5.554299999999999926e+01 3.937209999999999877e+00 -3.400733401616599649e-01
2.615500000000000114e+01 -3.661000000000000032e+00 4.739600000000000080e+01 -9.299568000000000723e+00 -3.500000000000000333e-01
2.616000000000000014e+01 7.769599999999999618e+00 3.743999999999999773e+01 -1.023723000000000027e+01 -3.404910515504321333e-01
2.616300000000000026e+01 -4.084399999999999586e+00 4.646699999999999875e+01 -8.748141000000000389e+00 -3.500000000000000333e-01
2.616600000000000037e+01 1.788500000000000156e+01 3.889000000000000057e+01 -8.434386999999999190e+00 -1.683375770658813442e-01
2.616600000000000037e+01 1.788500000000000156e+01 3.975500000000000256e+01 -1.661326000000000036e+01 -1.683102891684340463e-01
2.616700000000000159e+01 1.985200000000000031e+01 4.274900000000000233e+01 -8.192847000000000435e+00 -1.680281398752265787e-01
2.617399999999999949e+01 1.024900000000000055e+01 5.132800000000000296e+01 -7.747494999999999798e+00 -1.604324353819513438e-01
2.617399999999999949e+01 1.164899999999999913e+01 5.132800000000000296e+01 -9.171252000000000848e+00 -1.613801490906858482e-01
2.618100000000000094e+01 2.242999999999999972e+01 3.507500000000000284e+01 -2.771669000000000160e+00 -1.676405216110972984e-01
2.618599999999999994e+01 8.440799999999999415e+00 3.275600000000000023e+01 -3.762341000000000157e+00 -1.575894571460721982e-01
2.618599999999999994e+01 8.440799999999999415e+00 3.549799999999999756e+01 8.619934999999999681e-01 -1.583077488637513464e-01
2.618599999999999994e+01 8.440799999999999415e+00 3.689800000000000324e+01 -9.379248999999999725e+00 -1.585346134500838500e-01
2.619699999999999918e+01 2.475100000000000122e+01 3.706400000000000006e+01 -4.215853000000000073e+00 -1.674927501313580036e-01
2.619800000000000040e+01 8.955299999999999372e+00 5.777499999999999858e+01 -3.210376999999999814e-01 -3.400487909452224455e-01
2.620100000000000051e+01 8.945999999999999730e+00 5.192099999999999937e+01 -2.499092000000000091e+00 -3.401036435663114532e-01
2.620499999999999829e+01 2.039000000000000057e+01 4.030100000000000193e+01 1.196979000000000015e+00 -1.681206266053690279e-01
2.623100000000000165e+01 1.686799999999999855e+01 5.646500000000000341e+01 6.147122000000000419e+00 -1.636426842019735595e-01
2.624200000000000088e+01 1.818199999999999861e+01 4.140999999999999659e+01 -2.310136999999999929e+01 -1.682787272289338054e-01
2.624399999999999977e+01 8.744199999999999307e+00 3.619800000000000040e+01 -4.671340999999999966e+00 -1.594023044329016259e-01
2.626200000000000045e+01 2.235600000000000165e+01 4.392900000000000205e+01 1.033918000000000070e+01 -1.678293962243084803e-01
2.626899999999999835e+01 9.323700000000000543e+00 5.862500000000000000e+01 1.509794999999999998e+00 -3.400535810308176199e-01
2.626899999999999835e+01 1.037400000000000055e+01 5.862500000000000000e+01 1.327393999999999963e+01 -3.400838319236689222e-01
2.628399999999999892e+01 1.833800000000000097e+01 3.681099999999999994e+01 1.269181999999999988e+01 -1.684463217497121357e-01
2.628800000000000026e+01 1.776300000000000168e+01 3.150100000000000122e+01 -1.395222000000000051e+01 -1.676953511309272060e-01
2.629299999999999926e+01 6.576299999999999812e+00 3.832000000000000028e+01 -1.478862999999999950e+01 -3.402637273861695566e-01
2.629599999999999937e+01 1.125000000000000000e+01 5.537400000000000233e+01 2.361829999999999874e+00 -1.610099180878838965e-01
2.629700000000000060e+01 1.793700000000000117e+01 4.816700000000000159e+01 -2.516457000000000122e+01 -1.662135889320640325e-01
2.631200000000000117e+01 2.148699999999999832e+01 3.509300000000000352e+01 -2.679742000000000068e+00 -1.679434564529108664e-01
2.631899999999999906e+01 6.141700000000000159e+00 5.057600000000000051e+01 7.666221000000000174e+00 -3.399851500258782577e-01
2.632000000000000028e+01 2.086299999999999955e+01 4.375000000000000000e+01 3.299871000000000265e+01 -1.680008713697716538e-01
2.632499999999999929e+01 7.227999999999999758e+00 3.364800000000000324e+01 -3.991798999999999875e+00 -3.408031400366388630e-01
2.632499999999999929e+01 7.227999999999999758e+00 3.460600000000000165e+01 -2.942422000000000093e+00 -3.406738945907284988e-01
2.632700000000000173e+01 3.020000000000000018e+00 4.939600000000000080e+01 3.118459000000000092e+00 -3.398217825752072319e-01
2.632900000000000063e+01 3.898200000000000109e+00 4.917300000000000182e+01 1.946858999999999895e+00 -3.398692238756161332e-01
2.633999999999999986e+01 2.427700000000000102e+01 3.783200000000000074e+01 -4.562706999999999624e+00 -1.677273518890528003e-01
2.634299999999999997e+01 1.329299999999999926e+01 3.071499999999999986e+01 -7.382107000000000419e+00 -1.672875137239948073e-01
2.636100000000000065e+01 1.887699999999999889e+01 3.203399999999999892e+01 -3.307148999999999894e+00 -1.678765614504550419e-01
2.636100000000000065e+01 -2.511099999999999888e+00 4.257900000000000063e+01 -9.780079000000000633e+00 -3.499999999999999778e-01
2.636299999999999955e+01 7.517000000000000348e+00 5.149699999999999989e+01 3.310977999999999977e+00 -3.400436297334837321e-01
2.636400000000000077e+01 1.844300000000000139e+01 5.006000000000000227e+01 -1.462555000000000049e+01 -1.658573073683473342e-01
2.636400000000000077e+01 1.216300000000000026e+01 5.803900000000000148e+01 -7.937537999999999982e+00 -1.614098589242714543e-01
2.636499999999999844e+01 -5.049999999999999822e+00 4.373799999999999955e+01 -6.396264999999999645e+00 -3.499999999999999778e-01
2.636499999999999844e+01 -3.757000000000000117e+00 4.301700000000000301e+01 -9.239020000000000010e+00 -3.499999999999999778e-01
2.637600000000000122e+01 1.911599999999999966e+01 4.274900000000000233e+01 -2.139658000000000015e+01 -1.682372738204161444e-01
2.637600000000000122e+01 2.058800000000000097e+01 4.274900000000000233e+01 1.414432000000000045e+01 -1.681240559116345124e-01
2.638200000000000145e+01 1.801300000000000168e+01 4.059100000000000108e+01 -1.513269999999999982e+01 -1.684688045744112128e-01
2.639099999999999824e+01 1.829799999999999827e+01 4.882900000000000063e+01 -1.349019999999999975e+01 -1.661993153665052847e-01
2.639399999999999835e+01 -5.157799999999999940e+00 4.538000000000000256e+01 -6.180501999999999718e+00 -3.499999999999999778e-01
2.639900000000000091e+01 1.817800000000000082e+01 5.446399999999999864e+01 5.183708999999999678e-01 -1.645905748763451526e-01
2.639900000000000091e+01 1.817800000000000082e+01 5.551400000000000290e+01 4.198001999999999789e+00 -1.643852006075489369e-01
2.639999999999999858e+01 5.413100000000000023e+00 4.975200000000000244e+01 6.990294999999999703e+00 -3.399506333194276531e-01
2.640200000000000102e+01 2.003399999999999892e+01 3.321099999999999852e+01 -2.983277000000000179e+00 -1.680368998630890343e-01
2.640500000000000114e+01 1.827199999999999847e+01 3.775800000000000267e+01 7.850117000000000012e+00 -1.686006269859159634e-01
2.640700000000000003e+01 2.190299999999999869e+01 3.838100000000000023e+01 -1.885227999999999904e+00 -1.681463038494802054e-01
2.640899999999999892e+01 1.818599999999999994e+01 5.325300000000000011e+01 1.088935000000000031e+01 -1.648593369557961874e-01
2.641900000000000048e+01 2.330000000000000127e-01 5.027400000000000091e+01 5.092012000000000427e+00 -3.396869217749260983e-01
2.641900000000000048e+01 1.933000000000000052e+00 5.027400000000000091e+01 -7.065571000000000268e+00 -3.397705639322451954e-01
2.642399999999999949e+01 2.395200000000000173e+01 3.706400000000000006e+01 -3.270175000000000054e+00 -1.678130547436846587e-01
2.642399999999999949e+01 2.555000000000000071e+01 3.706400000000000006e+01 -3.680009999999999781e+00 -7.188219175300333830e-02
2.642599999999999838e+01 2.347400000000000020e+01 3.781000000000000227e+01 -2.158431000000000211e+00 -1.679215685903050481e-01
2.643400000000000105e+01 2.028500000000000014e+01 4.204899999999999949e+01 2.327716999999999814e+00 -1.682368599663452424e-01
2.643499999999999872e+01 2.332400000000000162e+01 3.507500000000000284e+01 -2.864218000000000153e+00 -1.677700933876835887e-01
2.644000000000000128e+01 1.841100000000000136e+01 4.739900000000000091e+01 -2.557436999999999827e+01 -1.668299352602099772e-01
2.644000000000000128e+01 1.920299999999999940e+01 5.237700000000000244e+01 -2.634671000000000163e+01 -1.655648580868451514e-01
2.644200000000000017e+01 1.964900000000000091e+01 5.163600000000000279e+01 -1.802479999999999905e+01 -1.659862262456565651e-01
2.644300000000000139e+01 2.449699999999999989e+01 4.124399999999999977e+01 6.019258999999999915e+00 -1.678104952774701619e-01
2.645400000000000063e+01 1.353999999999999915e+01 5.772599999999999909e+01 -2.973294999999999799e+00 -1.620507911449604044e-01
2.646099999999999852e+01 8.697699999999999321e+00 3.222500000000000142e+01 -2.277229000000000170e+00 -1.594419002761525983e-01
2.646099999999999852e+01 9.748300000000000409e+00 3.222500000000000142e+01 -1.576297999999999977e+00 -1.640673446082941689e-01
2.646099999999999852e+01 1.061400000000000077e+01 3.222500000000000142e+01 -4.012495000000000367e+00 -1.675002804230488473e-01
2.646799999999999997e+01 1.113799999999999990e+01 3.144399999999999906e+01 -6.731258999999999659e+00 -1.674241297920875671e-01
2.646900000000000119e+01 1.650100000000000122e+01 5.727199999999999847e+01 2.905796000000000046e+00 -1.633953297388209547e-01
2.647100000000000009e+01 -2.541999999999999815e+00 4.922399999999999665e+01 -3.565338000000000118e+00 -3.499999999999999778e-01
2.647299999999999898e+01 2.419000000000000128e+01 4.220900000000000318e+01 7.886358000000000423e+00 -1.678452916995856192e-01
2.647500000000000142e+01 1.166200000000000081e+01 3.066199999999999903e+01 -9.740303000000000822e+00 -1.671465638635638296e-01
2.647599999999999909e+01 -1.050400000000000000e+00 4.953000000000000114e+01 -4.737671999999999883e+00 -3.396112002741827895e-01
2.648400000000000176e+01 2.060800000000000054e+01 3.520300000000000296e+01 1.650706999999999924e+00 -1.683112086696631204e-01
2.648699999999999832e+01 2.522100000000000009e+01 3.630400000000000205e+01 -5.041820000000000412e+00 -7.201583679587854336e-02
2.650499999999999901e+01 1.932000000000000028e+01 5.087599999999999767e+01 -1.991331999999999880e+01 -1.660703224979839798e-01
2.650600000000000023e+01 2.103900000000000148e+01 3.422500000000000142e+01 -2.411688999999999972e+00 -1.681645527027122999e-01
2.650600000000000023e+01 2.190500000000000114e+01 3.422500000000000142e+01 -3.040324000000000026e+00 -1.680051751709777663e-01
2.650600000000000023e+01 2.190500000000000114e+01 3.592499999999999716e+01 2.104254000000000069e+00 -1.681671487248255770e-01
2.650600000000000023e+01 2.295499999999999829e+01 3.422500000000000142e+01 -2.529250000000000220e+00 -1.678107102384396032e-01
2.650600000000000023e+01 1.867299999999999827e+01 4.816700000000000159e+01 -2.171980999999999895e+01 -1.666836394462755944e-01
2.651800000000000068e+01 1.508999999999999986e+01 5.806400000000000006e+01 1.151715000000000089e+01 -1.627105471063124698e-01
2.651899999999999835e+01 1.444500000000000028e+01 3.152599999999999980e+01 -6.210487999999999786e+00 -1.684012593289369586e-01
2.651899999999999835e+01 1.531099999999999994e+01 3.152599999999999980e+01 -4.019814000000000220e+00 -1.684163173805605096e-01
2.652299999999999969e+01 4.576999999999999957e+00 4.005700000000000216e+01 -5.166541999999999746e+00 -3.399391771194019141e-01
2.652299999999999969e+01 1.955099999999999838e+01 4.041499999999999915e+01 -6.365133000000000152e+00 -1.684797071851431571e-01
2.652400000000000091e+01 1.852599999999999980e+01 4.448599999999999710e+01 -5.930924000000000262e+01 -1.682367115416683601e-01
2.652599999999999980e+01 2.508200000000000074e+01 3.797999999999999687e+01 -1.534664000000000073e+01 -1.677614608558328779e-01
2.653600000000000136e+01 1.872800000000000153e+01 4.336899999999999977e+01 -6.765858000000000061e+01 -1.683334130579775267e-01
2.653800000000000026e+01 1.199099999999999966e+01 2.990200000000000102e+01 -1.018178999999999945e+01 -1.669081809065010580e-01
2.653800000000000026e+01 1.293099999999999916e+01 2.990200000000000102e+01 -1.331753999999999927e+01 -1.672931291579230761e-01
2.653999999999999915e+01 1.618900000000000006e+01 3.073499999999999943e+01 -7.107349000000000139e+00 -1.681267482494925580e-01
2.654599999999999937e+01 1.834900000000000020e+01 3.873499999999999943e+01 2.576349000000000089e+01 -1.687168776855424435e-01
2.654899999999999949e+01 -1.257699999999999929e-01 4.070600000000000307e+01 -7.928659999999999819e+00 -3.394021581316810088e-01
2.654899999999999949e+01 1.504000000000000004e+00 4.024300000000000210e+01 -7.625178000000000011e+00 -3.395621003631584256e-01
2.655199999999999960e+01 -5.273600000000000065e+00 4.447699999999999676e+01 -7.041502999999999624e+00 -3.499999999999999778e-01
2.655499999999999972e+01 1.888599999999999923e+01 4.234000000000000341e+01 -3.681452000000000169e+01 -1.684250325276575588e-01
2.655699999999999861e+01 7.963300000000000267e+00 3.615699999999999648e+01 -7.235958000000000112e+00 -3.406288038499661885e-01
2.656200000000000117e+01 5.735400000000000276e+00 3.915999999999999659e+01 -1.152932000000000023e+01 -3.401078013355797736e-01
2.656200000000000117e+01 7.630899999999999572e+00 3.544700000000000273e+01 1.379975999999999980e-01 -3.406486716659035130e-01
2.656200000000000117e+01 7.630899999999999572e+00 3.688300000000000267e+01 -1.141995000000000005e+01 -3.405095373582400775e-01
2.657199999999999918e+01 1.942399999999999949e+01 3.576800000000000068e+01 4.349012000000000100e+00 -1.686506932836177308e-01
2.657400000000000162e+01 -8.619799999999999685e-01 4.103900000000000148e+01 -1.051441999999999943e+01 -3.499999999999999778e-01
2.657400000000000162e+01 -4.172799999999999621e+00 4.696600000000000108e+01 -1.038607999999999976e+01 -3.499999999999999778e-01
2.658099999999999952e+01 9.605700000000000571e+00 5.489300000000000068e+01 7.110312000000000410e+00 -3.400926016535940621e-01
2.658299999999999841e+01 7.046000000000000263e+00 3.756000000000000227e+01 -1.199652000000000029e+01 -3.403700511935821016e-01
2.658500000000000085e+01 1.654400000000000048e+01 3.000100000000000122e+01 -7.668725000000000236e+00 -1.678668523679443525e-01
2.658699999999999974e+01 9.599000000000000199e+00 5.164000000000000057e+01 -5.638732000000000077e+00 -3.401326528548875849e-01
2.659600000000000009e+01 -4.674400000000000333e+00 4.613000000000000256e+01 -1.231769000000000069e+01 -3.499999999999999778e-01
2.659799999999999898e+01 2.348400000000000176e+01 3.630499999999999972e+01 1.981019000000000085e+00 -1.680102776506961493e-01
2.659799999999999898e+01 1.858500000000000085e+01 4.002199999999999847e+01 -1.022094000000000058e+01 -1.686678411050911430e-01
2.660699999999999932e+01 2.377499999999999858e+01 3.588100000000000023e+01 -2.060217999999999883e+00 -1.679385794177026825e-01
2.660699999999999932e+01 1.094899999999999984e+01 5.106099999999999994e+01 -1.016993000000000080e+01 -1.609606306337097448e-01
2.660699999999999932e+01 1.214000000000000057e+01 5.172500000000000142e+01 -7.559152000000000093e+00 -1.617196516010982188e-01
2.660999999999999943e+01 2.089300000000000068e+01 3.958200000000000074e+01 -5.085311999999999610e-01 -1.684463124980184745e-01
2.661299999999999955e+01 1.918900000000000006e+01 4.164000000000000057e+01 -1.534308000000000050e+01 -1.685050632676327598e-01
2.661299999999999955e+01 2.005499999999999972e+01 4.164000000000000057e+01 -2.780934999999999935e+00 -1.684260488294711533e-01
2.661599999999999966e+01 1.268399999999999928e+01 5.795400000000000063e+01 -5.624867000000000061e+00 -1.616654136557730270e-01
2.662199999999999989e+01 2.233899999999999864e+01 3.774900000000000233e+01 -2.584966000000000208e-01 -1.682771013174538255e-01
2.662399999999999878e+01 2.463899999999999935e+01 3.883599999999999852e+01 -4.485447999999999880e+00 -1.679279222674142369e-01
2.662600000000000122e+01 7.601899999999999658e+00 3.281600000000000250e+01 -4.426162999999999847e+00 -1.551070334214455504e-01
2.663299999999999912e+01 8.384999999999999787e+00 5.583899999999999864e+01 4.722432999999999770e-01 -3.400411912419947225e-01
2.663299999999999912e+01 8.384999999999999787e+00 5.679699999999999704e+01 7.426766999999999674e-01 -3.400347079456392252e-01
2.664300000000000068e+01 1.123900000000000077e+01 5.839399999999999835e+01 1.673264999999999958e+01 -1.610070020996276774e-01
2.664699999999999847e+01 3.039899999999999824e+00 4.056199999999999761e+01 -5.339472999999999914e+00 -3.397474936010966284e-01
2.665599999999999881e+01 1.828200000000000003e+01 3.932200000000000273e+01 -6.145888000000000240e+00 -1.688039849483499721e-01
2.666600000000000037e+01 8.217000000000000526e+00 5.155499999999999972e+01 -5.976213999999999658e-03 -3.400723521924363113e-01
2.667299999999999827e+01 1.776699999999999946e+01 5.640200000000000102e+01 6.937469000000000108e+00 -1.640789785728924699e-01
2.667399999999999949e+01 1.888400000000000034e+01 4.047200000000000131e+01 -1.389255999999999958e+01 -1.686779642979700511e-01
2.668700000000000117e+01 2.168299999999999983e+01 4.823700000000000188e+01 -5.350024000000000335e+00 -1.678244429235686008e-01
2.668900000000000006e+01 2.150000000000000000e+01 4.391400000000000148e+01 5.109700000000000131e+00 -1.681783696410728279e-01
2.669699999999999918e+01 1.398399999999999999e+01 3.103200000000000003e+01 -1.345518999999999998e+01 -1.687136487624532055e-01
2.669900000000000162e+01 1.266399999999999970e+01 5.249300000000000210e+01 -1.350017000000000067e+01 -1.619938137381258803e-01
2.669900000000000162e+01 1.266399999999999970e+01 5.396500000000000341e+01 -5.396035000000000359e+00 -1.618748602265124292e-01
2.669900000000000162e+01 1.287299999999999933e+01 5.322899999999999920e+01 -6.559387000000000079e+00 -1.620532775956962379e-01
2.670100000000000051e+01 2.233699999999999974e+01 3.674000000000000199e+01 3.967334999999999834e+00 -1.683353090769435512e-01
2.670599999999999952e+01 5.834800000000000431e+00 4.987500000000000000e+01 1.567240999999999929e+01 -3.399693356572605074e-01
2.671900000000000119e+01 1.690800000000000125e+01 5.708899999999999864e+01 5.122067000000000370e+00 -1.636139077866244074e-01
2.672700000000000031e+01 1.950900000000000034e+01 3.236099999999999710e+01 -1.375386999999999915e+00 -1.685028175498091696e-01
2.672899999999999920e+01 1.194999999999999929e+01 5.510600000000000165e+01 -2.838394999999999779e+00 -1.614231566609852786e-01
2.673300000000000054e+01 1.947200000000000131e+01 4.816700000000000159e+01 -1.485164999999999935e+01 -1.671683978764759992e-01
2.674500000000000099e+01 -1.845099999999999962e+00 4.227900000000000347e+01 -2.682875999999999905e+01 -3.500000000000000333e-01
2.674800000000000111e+01 1.828300000000000125e+01 3.152400000000000091e+01 -6.406479000000000035e+00 -1.685993775063335809e-01
2.675000000000000000e+01 9.849000000000000199e+00 5.922099999999999653e+01 1.961195000000000022e+00 -3.400619434158254628e-01
2.675300000000000011e+01 2.286700000000000088e+01 3.715699999999999648e+01 1.807009000000000087e+00 -1.683032005540227305e-01
2.676099999999999923e+01 1.743799999999999883e+01 4.537299999999999756e+01 -4.293361000000000161e+01 -1.671846747831585711e-01
2.677499999999999858e+01 1.873499999999999943e+01 3.724399999999999977e+01 4.093950999999999851e+01 -1.690028045686663705e-01
2.678000000000000114e+01 2.516399999999999970e+00 4.958899999999999864e+01 1.698050999999999888e+01 -3.397905594645025951e-01
2.678800000000000026e+01 1.082999999999999963e+00 5.034499999999999886e+01 -4.684808000000000305e+00 -3.397248066913996500e-01
2.679200000000000159e+01 2.299299999999999855e+01 4.338600000000000279e+01 1.681143999999999972e+00 -1.681300361185819603e-01
2.679400000000000048e+01 8.473699999999999122e+00 5.829999999999999716e+01 -3.560952000000000006e-01 -3.400275457584091554e-01
2.679599999999999937e+01 1.617099999999999937e+01 4.459700000000000131e+01 -4.168713999999999942e+01 -1.666156987321096294e-01
2.679599999999999937e+01 1.914300000000000068e+01 4.892699999999999960e+01 -1.348640999999999934e+01 -1.666997153262668729e-01
2.679599999999999937e+01 1.914300000000000068e+01 5.032699999999999818e+01 -1.110810999999999993e+01 -1.662013105422651960e-01
2.679799999999999827e+01 -4.592100000000000293e+00 4.318599999999999994e+01 -6.922782999999999909e+00 -3.499999999999999778e-01
2.679799999999999827e+01 -3.056999999999999940e+00 4.275000000000000000e+01 -8.760559000000000651e+00 -3.499999999999999778e-01
2.679899999999999949e+01 5.178099999999999703e+00 3.996999999999999886e+01 -1.091313000000000066e+01 -3.400097565809200861e-01
2.681800000000000139e+01 1.015399999999999991e+01 3.159900000000000020e+01 -4.959360000000000213e+00 -1.675256535632932975e-01
2.683500000000000085e+01 2.078699999999999903e+01 4.821099999999999852e+01 -7.330435999999999730e+00 -1.678400677878202907e-01
2.683699999999999974e+01 2.414799999999999969e+01 3.527700000000000102e+01 -3.106003999999999987e+00 -7.223780610289655402e-02
