-1.330799999999999983e+01 -2.152899999999999991e+01 5.758700000000000330e+01 1.413699000000000083e+01 -9.990399168377687988e-02
-1.328599999999999959e+01 -2.744699999999999918e+01 6.613700000000000045e+01 3.398820000000000174e+00 -1.300000000000000044e-01
-1.328299999999999947e+01 -3.173600000000000065e+01 7.013800000000000523e+01 -2.507826000000000022e+01 -1.300000000000000044e-01
-1.328100000000000058e+01 -3.132799999999999940e+01 5.431900000000000261e+01 1.069519000000000108e+00 6.764269222892799194e-02
-1.327800000000000047e+01 -2.260800000000000054e+01 5.255700000000000216e+01 1.055746000000000073e+01 5.854194113521246287e-03
-1.325300000000000011e+01 -2.370499999999999829e+01 5.970799999999999841e+01 -1.462214999999999954e+01 -9.392229608378577232e-02
-1.324200000000000088e+01 -3.122800000000000153e+01 6.147399999999999665e+01 -4.186097999999999764e-01 -9.378140521231084770e-02
-1.323099999999999987e+01 -3.230899999999999750e+01 5.569100000000000250e+01 1.081903999999999977e+00 6.383251831610861626e-02
-1.321899999999999942e+01 -3.158699999999999974e+01 5.926800000000000068e+01 7.355726999999999904e+00 7.345639352631828933e-02
-1.321899999999999942e+01 -3.133299999999999841e+01 6.016199999999999903e+01 7.176077000000000261e+00 7.941369173978901630e-02
-1.321899999999999942e+01 -3.112399999999999878e+01 6.089800000000000324e+01 9.187340999999999980e+00 -9.398840576264666513e-02
-1.320899999999999963e+01 -1.965599999999999881e+01 6.028799999999999670e+01 1.057543000000000077e+01 -1.167910691519796068e-01
-1.316499999999999915e+01 -2.103099999999999881e+01 6.120900000000000318e+01 -1.533551000000000109e+00 -1.133139487425081776e-01
-1.316399999999999970e+01 -2.246600000000000108e+01 6.041499999999999915e+01 2.129958999999999880e-01 -1.140897646899862450e-01
-1.316099999999999959e+01 -2.005999999999999872e+01 5.821500000000000341e+01 8.734719000000000122e+00 -1.001418693576886926e-01
-1.315499999999999936e+01 -1.787999999999999901e+01 5.259199999999999875e+01 1.298114999999999952e+01 -1.093843028479078161e-01
-1.315499999999999936e+01 -1.787999999999999901e+01 5.510000000000000142e+01 -8.108604000000000367e-01 -9.478679464211468841e-02
-1.314300000000000068e+01 -2.969999999999999929e+01 5.431400000000000006e+01 -3.128838999999999926e-01 6.176934621257849228e-02
-1.312500000000000000e+01 -1.994300000000000139e+01 5.265699999999999648e+01 1.968690000000000051e+00 4.853731723560519157e-02
-1.311599999999999966e+01 -3.221699999999999875e+01 5.673899999999999721e+01 5.620200999999999780e+00 6.257707675092036292e-02
-1.310399999999999920e+01 -3.170299999999999940e+01 5.833200000000000074e+01 5.986539999999999750e+00 -1.134470811268711160e-01
-1.309900000000000020e+01 -2.226500000000000057e+01 5.758700000000000330e+01 -8.091682999999999515e-01 -9.944412062314086920e-02
-1.309900000000000020e+01 -2.079299999999999926e+01 5.758700000000000330e+01 1.421590999999999916e+01 -1.007633998323698987e-01
-1.309900000000000020e+01 -2.839199999999999946e+01 6.855400000000000205e+01 -3.334966000000000008e+01 -1.300000000000000044e-01
-1.309900000000000020e+01 -2.803099999999999881e+01 6.685999999999999943e+01 8.624701999999999202e+00 -1.300000000000000044e-01
-1.308999999999999986e+01 -1.942200000000000060e+01 5.249199999999999733e+01 3.278265999999999902e+00 6.609378946814738198e-02
-1.308399999999999963e+01 -1.960000000000000142e+01 5.925099999999999767e+01 3.976258000000000070e+00 -1.192114376199301662e-01
-1.307499999999999929e+01 -2.429299999999999926e+01 5.960699999999999932e+01 -1.302730000000000032e+01 -9.380018208869649043e-02
-1.307399999999999984e+01 -2.349399999999999977e+01 5.254399999999999693e+01 2.068928000000000100e+00 2.527801279631582305e-03
-1.306799999999999962e+01 -2.611599999999999966e+01 6.407099999999999795e+01 3.631171000000000149e+00 -1.300000000000000044e-01
-1.306799999999999962e+01 -2.611599999999999966e+01 6.512099999999999511e+01 4.195973999999999648e+00 -1.299999999999999767e-01
-1.306700000000000017e+01 -2.636899999999999977e+01 5.267999999999999972e+01 -1.172082000000000068e+00 4.814356409089733113e-02
-1.306499999999999950e+01 -2.675900000000000034e+01 6.066100000000000136e+01 5.438859000000000332e-01 -9.258614374319656948e-02
-1.306499999999999950e+01 -2.675900000000000034e+01 6.152700000000000102e+01 2.241999999999999993e+00 -9.179692191400005974e-02
-1.306300000000000061e+01 -3.470300000000000296e+01 6.720199999999999818e+01 3.578895999999999855e+00 -1.300000000000000322e-01
-1.306099999999999994e+01 -2.825499999999999901e+01 6.761899999999999977e+01 7.041796999999999862e+00 -1.300000000000000044e-01
-1.305899999999999928e+01 -2.964600000000000080e+01 6.939400000000000546e+01 3.884825000000000195e+00 -1.300000000000000322e-01
-1.305000000000000071e+01 -2.506800000000000139e+01 5.243800000000000239e+01 7.143097000000000474e-01 1.582899520472162702e-02
-1.304100000000000037e+01 -2.196199999999999974e+01 5.688700000000000045e+01 8.290865999999999403e+00 9.733187076203846100e-02
-1.304100000000000037e+01 -2.196199999999999974e+01 5.828699999999999903e+01 -8.224631999999999721e+00 -9.847292519411580958e-02
-1.304100000000000037e+01 -2.109600000000000009e+01 5.688700000000000045e+01 1.740061000000000035e+01 1.033871435578608972e-01
-1.304100000000000037e+01 -2.109600000000000009e+01 5.828699999999999903e+01 3.762324000000000002e+00 -9.936084150052654218e-02
-1.303299999999999947e+01 -2.265700000000000003e+01 5.635900000000000176e+01 1.474119999999999919e+01 8.184197630581187266e-02
-1.303100000000000058e+01 -3.052299999999999969e+01 6.955500000000000682e+01 -1.099600000000000044e+01 -1.300000000000000322e-01
-1.302399999999999913e+01 -2.621699999999999875e+01 6.325099999999999767e+01 2.798163000000000178e+00 -1.094484517690922643e-01
-1.300500000000000078e+01 -3.197500000000000142e+01 5.750500000000000256e+01 5.710676999999999559e+00 -1.133958336606602224e-01
-1.300099999999999945e+01 -1.998999999999999844e+01 5.721500000000000341e+01 8.977162999999999116e+00 1.146666004313000309e-01
-1.298199999999999932e+01 -3.279599999999999937e+01 6.271300000000000097e+01 6.287333000000000283e+00 -1.126405549461031719e-01
-1.297499999999999964e+01 -2.764600000000000080e+01 5.342300000000000182e+01 -2.071486999999999856e+00 5.460458403089910734e-02
-1.296700000000000053e+01 -2.210399999999999920e+01 5.337100000000000222e+01 1.504814000000000007e+01 1.527017854943341600e-02
-1.296700000000000053e+01 -2.123900000000000077e+01 5.337100000000000222e+01 6.943636999999999837e+00 4.989683011347409956e-03
-1.296599999999999930e+01 -1.964900000000000091e+01 5.650099999999999767e+01 1.036216000000000008e+02 1.033856767709739610e-01
-1.293299999999999983e+01 -3.344899999999999807e+01 6.807399999999999807e+01 2.500569000000000042e+00 -1.300000000000000044e-01
-1.292600000000000016e+01 -3.500800000000000267e+01 6.332399999999999807e+01 4.407816999999999652e+00 -1.127719232235905034e-01
-1.287299999999999933e+01 -2.255600000000000094e+01 5.565899999999999892e+01 2.505670999999999893e+01 6.761133787827994235e-02
-1.285999999999999943e+01 -3.043400000000000105e+01 5.424300000000000210e+01 1.157810999999999924e+00 6.224502592646894567e-02
-1.285899999999999999e+01 -1.740099999999999980e+01 5.336699999999999733e+01 8.237735000000000696e+00 -1.098353613545077073e-01
-1.285899999999999999e+01 -1.740099999999999980e+01 5.432500000000000284e+01 2.570201000000000136e+01 -9.232429823420226778e-02
-1.285200000000000031e+01 -3.220600000000000307e+01 6.960500000000000398e+01 -3.079000999999999877e+01 -1.300000000000000044e-01
-1.285200000000000031e+01 -3.126599999999999824e+01 6.960500000000000398e+01 -4.386950000000000216e+01 -1.300000000000000044e-01
-1.283999999999999986e+01 -2.900000000000000000e+01 5.425600000000000023e+01 -6.973006999999999955e-01 5.840085284351086148e-02
-1.282399999999999984e+01 -2.339300000000000068e+01 5.635900000000000176e+01 1.598199999999999932e+01 7.787140701758972494e-02
-1.281900000000000084e+01 -1.865500000000000114e+01 5.252700000000000102e+01 2.564546999999999799e-01 8.552289769347899695e-02
-1.281700000000000017e+01 -2.505499999999999972e+01 5.970600000000000307e+01 -9.602843000000000018e+00 -9.335575264251680383e-02
-1.279800000000000004e+01 -2.632700000000000173e+01 5.996099999999999852e+01 -3.258103000000000193e+00 -9.312897461535236954e-02
-1.278899999999999970e+01 -3.253499999999999659e+01 6.884499999999999886e+01 -2.055105999999999966e+01 -1.300000000000000322e-01
-1.276500000000000057e+01 -2.308899999999999864e+01 5.705899999999999750e+01 -5.086181999999999981e+00 9.389906678506007576e-02
-1.275300000000000011e+01 -1.860099999999999909e+01 5.523799999999999955e+01 2.081116000000000099e+01 8.210244123021601115e-02
-1.274300000000000033e+01 -2.664099999999999824e+01 6.597100000000000364e+01 5.286764999999999937e+00 -1.300000000000000322e-01
-1.273099999999999987e+01 -3.283899999999999864e+01 6.814499999999999602e+01 -5.918419000000000284e-03 -1.300000000000000044e-01
-1.271499999999999986e+01 -2.038299999999999912e+01 5.331600000000000250e+01 2.292336999999999847e+00 2.235538901186097729e-02
-1.269500000000000028e+01 -2.657400000000000162e+01 6.226299999999999812e+01 5.773475000000000357e+00 -1.103469181157211293e-01
-1.268500000000000050e+01 -2.436700000000000088e+01 5.259499999999999886e+01 1.109639000000000042e+00 -2.376557839113364792e-03
-1.268399999999999928e+01 -1.919300000000000139e+01 5.576299999999999812e+01 3.803994000000000142e+01 -9.820324055279941455e-02
-1.268399999999999928e+01 -2.155600000000000094e+01 6.061299999999999955e+01 -3.391601999999999784e+00 -1.146957564767630000e-01
-1.268399999999999928e+01 -2.050600000000000023e+01 5.891299999999999670e+01 -1.280008000000000035e+00 -9.896188980930654966e-02
-1.268399999999999928e+01 -2.050600000000000023e+01 6.061299999999999955e+01 -7.382306999999999952e+00 -1.158547830081848307e-01
-1.267900000000000027e+01 -3.209599999999999653e+01 6.265500000000000114e+01 -6.551593000000000000e-01 -1.125501993747893004e-01
-1.267300000000000004e+01 -3.093799999999999883e+01 6.884499999999999886e+01 -3.874540999999999968e+01 -1.300000000000000044e-01
-1.266600000000000037e+01 -2.753999999999999915e+01 6.646299999999999386e+01 7.146194000000000379e+00 -1.300000000000000044e-01
-1.266399999999999970e+01 -2.182000000000000028e+01 5.565899999999999892e+01 3.580839000000000283e+01 7.337032718141991983e-02
-1.263000000000000078e+01 -2.050900000000000034e+01 5.655599999999999739e+01 1.771506000000000114e+01 1.051481360828840916e-01
-1.262700000000000067e+01 -2.332400000000000162e+01 5.960999999999999943e+01 -1.546564000000000050e+01 -9.399686480022766133e-02
-1.262400000000000055e+01 -3.252499999999999858e+01 5.646900000000000119e+01 2.620970999999999940e+00 6.204244467767886656e-02
-1.261999999999999922e+01 -3.012500000000000000e+01 6.884999999999999432e+01 7.420186000000000170e+00 -1.300000000000000044e-01
-1.261999999999999922e+01 -2.916700000000000159e+01 6.884999999999999432e+01 3.118566999999999823e+01 -1.300000000000000044e-01
-1.261899999999999977e+01 -3.279099999999999682e+01 5.529500000000000171e+01 8.728576000000000112e-01 6.318281573455344913e-02
-1.261299999999999955e+01 -2.013700000000000045e+01 5.976299999999999812e+01 1.642449999999999832e+01 -1.187135844959781583e-01
-1.260800000000000054e+01 -2.266199999999999903e+01 5.801899999999999835e+01 -3.127489999999999881e+01 -9.861849675030774642e-02
-1.260599999999999987e+01 -2.298799999999999955e+01 5.495900000000000318e+01 2.864091000000000165e+01 4.791610902104044556e-02
-1.260599999999999987e+01 -2.212300000000000111e+01 5.495900000000000318e+01 2.512308000000000163e+01 5.264408832635861929e-02
-1.260100000000000087e+01 -3.553300000000000125e+01 6.417400000000000659e+01 2.654141999999999779e+00 -1.125903953587782669e-01
-1.259299999999999997e+01 -2.296900000000000119e+01 5.314000000000000057e+01 1.228504000000000040e+01 2.096265451648374883e-03
-1.258200000000000074e+01 -2.582700000000000173e+01 5.226400000000000290e+01 -5.365630999999999595e+00 1.480961682581334593e-02
-1.257099999999999973e+01 -2.167200000000000060e+01 5.386200000000000188e+01 3.879887000000000086e+00 1.462448964803121990e-02
-1.256199999999999939e+01 -3.173600000000000065e+01 6.884499999999999886e+01 -1.111125999999999969e+01 -1.299999999999999767e-01
-1.255700000000000038e+01 -3.415800000000000125e+01 6.325300000000000011e+01 1.483603999999999923e+00 -1.126958144833841297e-01
-1.255499999999999972e+01 -2.151500000000000057e+01 5.887700000000000244e+01 2.017170000000000074e-01 -9.797366153369733988e-02
-1.255400000000000027e+01 -3.254399999999999693e+01 5.481700000000000017e+01 1.921458000000000110e+00 6.436665073539003801e-02
-1.254199999999999982e+01 -2.715500000000000114e+01 5.302600000000000335e+01 -2.140492000000000061e+00 4.809706046193775592e-02
-1.253800000000000026e+01 -3.555299999999999727e+01 6.582699999999999818e+01 2.029262999999999817e+00 -1.121103347651122017e-01
-1.253800000000000026e+01 -3.529899999999999949e+01 6.672100000000000364e+01 9.199142000000000430e-03 -1.300000000000000044e-01
-1.253400000000000070e+01 -3.150199999999999889e+01 5.430799999999999983e+01 9.701925000000000132e-01 6.345154106327341448e-02
-1.253299999999999947e+01 -2.220100000000000051e+01 5.970700000000000074e+01 -5.072075999999999807e-01 -9.476909105969187619e-02
-1.252299999999999969e+01 -2.208200000000000074e+01 5.879099999999999682e+01 -2.828561999999999799e+00 -9.748448910247091426e-02
-1.252100000000000080e+01 -3.566199999999999903e+01 6.513200000000000500e+01 1.897415000000000074e+00 -1.123267059277632401e-01
-1.249200000000000088e+01 -3.393900000000000006e+01 6.763700000000000045e+01 7.898537000000000141e+00 -1.300000000000000044e-01
-1.248199999999999932e+01 -2.876500000000000057e+01 6.812900000000000489e+01 3.317273000000000138e+01 -1.300000000000000044e-01
-1.243599999999999994e+01 -3.045200000000000173e+01 6.807500000000000284e+01 6.723796000000000106e+00 -1.300000000000000044e-01
-1.243299999999999983e+01 -3.322699999999999676e+01 6.322299999999999898e+01 1.402133000000000074e+00 -1.125447465788475820e-01
-1.241600000000000037e+01 -3.227600000000000335e+01 5.704200000000000159e+01 5.212946999999999775e+00 -1.135355860307769860e-01
-1.240700000000000003e+01 -2.969999999999999929e+01 5.452300000000000324e+01 2.456012000000000128e+01 5.825902867516299238e-02
-1.240600000000000058e+01 -2.261400000000000077e+01 5.393699999999999761e+01 1.810540999999999912e+01 5.069840585920080619e-03
-1.240600000000000058e+01 -3.137099999999999866e+01 6.814499999999999602e+01 -8.441901000000000543e-01 -1.300000000000000044e-01
-1.240399999999999991e+01 -3.164399999999999835e+01 5.802799999999999869e+01 7.976285999999999987e+00 6.639212246446613008e-02
-1.240399999999999991e+01 -3.143499999999999872e+01 5.876400000000000290e+01 5.600768999999999664e+00 7.189070710384551366e-02
-1.239899999999999913e+01 -2.178900000000000148e+01 5.441799999999999926e+01 7.395557000000000158e+00 3.961138444220761723e-02
-1.238000000000000078e+01 -1.913400000000000034e+01 5.307099999999999795e+01 -1.600780000000000092e+00 5.907935924012443912e-02
-1.238000000000000078e+01 -1.817599999999999838e+01 5.307099999999999795e+01 1.227200999999999986e+00 8.498366345952504397e-02
-1.238000000000000078e+01 -1.817599999999999838e+01 5.462100000000000222e+01 1.767509000000000015e+02 8.699674342289477613e-02
-1.236899999999999977e+01 -3.126200000000000045e+01 5.979299999999999926e+01 8.755506000000000455e+00 7.918956878608716943e-02
-1.236500000000000021e+01 -2.702700000000000102e+01 6.109400000000000119e+01 9.758803999999999590e+00 -9.192355084050728153e-02
-1.236500000000000021e+01 -2.681700000000000017e+01 6.035799999999999699e+01 9.271862999999999744e+00 -9.260334023204988552e-02
-1.236500000000000021e+01 -2.681700000000000017e+01 6.182999999999999829e+01 1.080206000000000088e+01 -9.115099522561323497e-02
-1.236500000000000021e+01 -2.562699999999999889e+01 5.969400000000000261e+01 -1.517458000000000062e+01 -9.318194531582373041e-02
-1.235899999999999999e+01 -2.103099999999999881e+01 5.976299999999999812e+01 -1.889288999999999996e+00 -9.621620520744469940e-02
-1.234600000000000009e+01 -2.288500000000000156e+01 5.445199999999999818e+01 2.032518999999999920e+01 3.375167796995355574e-02
-1.234500000000000064e+01 -2.405799999999999983e+01 5.968099999999999739e+01 -2.518842000000000070e+01 -9.326582393416495143e-02
-1.233399999999999963e+01 -3.327100000000000080e+01 6.765399999999999636e+01 1.107520000000000060e+01 -1.300000000000000044e-01
-1.232600000000000051e+01 -3.261500000000000199e+01 6.780100000000000193e+01 -7.882551999999999615e-02 -1.300000000000000044e-01
-1.232300000000000040e+01 -2.832700000000000173e+01 6.733899999999999864e+01 1.144567999999999941e+01 -1.300000000000000044e-01
-1.231499999999999950e+01 -1.783999999999999986e+01 5.384599999999999653e+01 7.322892999999999653e+00 -1.100066454842265895e-01
-1.231400000000000006e+01 -2.281800000000000139e+01 5.879099999999999682e+01 -2.933699999999999974e+01 -9.664315007739214536e-02
-1.228999999999999915e+01 -2.098799999999999955e+01 5.440999999999999659e+01 3.550946000000000158e+00 4.649219328437266541e-02
-1.228999999999999915e+01 -2.098799999999999955e+01 5.596000000000000085e+01 1.555099000000000053e+01 9.069234071509024719e-02
-1.228999999999999915e+01 -2.003000000000000114e+01 5.596000000000000085e+01 1.427195000000000107e+02 9.711571827808920809e-02
-1.227599999999999980e+01 -3.223499999999999943e+01 5.439399999999999835e+01 7.445378999999999747e-01 6.424603812400665748e-02
-1.227100000000000080e+01 -2.592899999999999849e+01 6.371600000000000108e+01 4.523018000000000427e+00 -1.085729269434124039e-01
-1.226699999999999946e+01 -3.211699999999999733e+01 6.796200000000000330e+01 -1.304370999999999947e+00 -1.300000000000000322e-01
-1.226699999999999946e+01 -2.384700000000000131e+01 5.673400000000000176e+01 2.209746000000000166e+01 8.511589066259965530e-02
-1.226200000000000045e+01 -3.359400000000000119e+01 5.535199999999999676e+01 1.064119000000000037e+00 6.334892978200100389e-02
-1.225300000000000011e+01 -2.658699999999999974e+01 5.232699999999999818e+01 -1.840565999999999924e+00 4.122802728530553656e-02
-1.225300000000000011e+01 -2.506700000000000017e+01 5.232699999999999818e+01 -3.993488000000000149e+00 -2.313914425523674705e-03
-1.224600000000000044e+01 -3.160500000000000043e+01 6.225800000000000267e+01 -2.838483000000000089e+00 -9.349729174424650791e-02
-1.224300000000000033e+01 -1.911100000000000065e+01 5.465899999999999892e+01 1.648054000000000130e+01 6.773048645799618905e-02
-1.223099999999999987e+01 -2.836899999999999977e+01 5.424699999999999989e+01 -1.127893999999999952e+00 5.214825862167401377e-02
-1.222799999999999976e+01 -2.374099999999999966e+01 5.301400000000000290e+01 4.657537999999999734e+00 -4.271057201357689181e-03
-1.222600000000000087e+01 -2.614099999999999824e+01 6.282399999999999807e+01 4.441753000000000284e+00 -1.094345131769986768e-01
-1.222499999999999964e+01 -2.132400000000000162e+01 5.518500000000000227e+01 1.141879999999999917e+01 6.536235846812787909e-02
-1.221799999999999997e+01 -2.604500000000000171e+01 6.548999999999999488e+01 5.958525999999999989e+00 -1.300000000000000044e-01
-1.221799999999999997e+01 -2.579100000000000037e+01 6.459600000000000364e+01 7.435050999999999632e+00 -1.300000000000000322e-01
-1.221599999999999930e+01 -2.793599999999999994e+01 5.389200000000000301e+01 -1.718698999999999977e+00 4.975308319722510780e-02
-1.220899999999999963e+01 -1.948199999999999932e+01 5.381300000000000239e+01 2.126640000000000086e+00 3.637935197538223059e-02
-1.220100000000000051e+01 -2.390399999999999991e+01 5.581199999999999761e+01 2.016398999999999830e+01 6.484098627855952590e-02
-1.219100000000000072e+01 -3.322500000000000142e+01 5.450200000000000244e+01 6.880039999999999489e-01 6.637272354133516572e-02
-1.219100000000000072e+01 -3.322500000000000142e+01 5.620199999999999818e+01 1.226795000000000080e+00 6.193383226277417858e-02
-1.218200000000000038e+01 -2.960399999999999920e+01 6.806699999999999307e+01 4.540722000000000236e+01 -1.299999999999999489e-01
-1.217999999999999972e+01 -2.001599999999999824e+01 5.430100000000000193e+01 5.281702000000000119e+00 4.064144273091173376e-02
-1.217800000000000082e+01 -3.105799999999999983e+01 5.403699999999999903e+01 1.172115999999999936e+00 6.111927927634273894e-02
-1.217300000000000004e+01 -2.368799999999999883e+01 5.522599999999999909e+01 2.299356999999999829e+01 5.112504634147151117e-02
-1.216900000000000048e+01 -3.088500000000000156e+01 6.737500000000000000e+01 1.230117000000000083e+01 -1.300000000000000322e-01
-1.216600000000000037e+01 -3.130000000000000071e+01 6.165599999999999881e+01 -9.684258000000000033e-01 -9.360021427197583177e-02
-1.216600000000000037e+01 -3.109100000000000108e+01 6.092000000000000171e+01 1.132989000000000068e+01 -9.385023141589843299e-02
-1.216499999999999915e+01 -1.961499999999999844e+01 5.525500000000000256e+01 3.215890000000000271e+01 8.203250308291412662e-02
-1.216499999999999915e+01 -2.340299999999999869e+01 5.393299999999999983e+01 2.232346000000000075e+01 -7.673941744444871945e-04
-1.215799999999999947e+01 -3.259400000000000119e+01 6.311500000000000199e+01 1.837345999999999924e+00 -1.124844301081269898e-01
-1.215099999999999980e+01 -2.912199999999999989e+01 6.766599999999999682e+01 1.479054999999999964e+01 -1.300000000000000322e-01
-1.213700000000000045e+01 -2.362099999999999866e+01 5.445199999999999818e+01 2.724297999999999931e+01 3.119761509588775406e-02
-1.208399999999999963e+01 -1.865500000000000114e+01 5.384599999999999653e+01 -1.688244999999999862e+01 5.706312905105687117e-02
-1.207600000000000051e+01 -3.468299999999999983e+01 6.384899999999999665e+01 5.582455999999999641e+00 -1.126005689552325856e-01
-1.204100000000000037e+01 -2.980600000000000094e+01 6.719199999999999307e+01 9.813703999999999539e+00 -1.300000000000000044e-01
-1.203599999999999959e+01 -3.365999999999999659e+01 6.371399999999999864e+01 1.579285999999999968e+00 -1.124608192755602032e-01
-1.201699999999999946e+01 -3.144800000000000040e+01 6.730400000000000205e+01 1.171296000000000070e+01 -1.300000000000000044e-01
-1.201299999999999990e+01 -3.470300000000000296e+01 6.720199999999999818e+01 2.956538999999999806e+00 -1.299999999999999767e-01
-1.199399999999999977e+01 -2.050900000000000034e+01 5.518500000000000227e+01 -9.102945999999999538e-01 7.376065840330618684e-02
-1.198300000000000054e+01 -3.297599999999999909e+01 5.677499999999999858e+01 6.064788000000000068e+00 6.097914430778030720e-02
-1.197400000000000020e+01 -3.039999999999999858e+01 5.425600000000000023e+01 3.963429000000000091e+00 5.868126623204093090e-02
-1.195299999999999940e+01 -3.206099999999999994e+01 5.768800000000000239e+01 1.125967999999999947e+01 6.404744382429512772e-02
-1.194899999999999984e+01 -2.341499999999999915e+01 5.748700000000000188e+01 -9.053603999999999985e+00 -9.943479923821560429e-02
-1.193299999999999983e+01 -2.632700000000000173e+01 5.996099999999999852e+01 5.665460999999999636e+00 -9.274643016656516914e-02
-1.193299999999999983e+01 -2.632700000000000173e+01 6.222699999999999676e+01 1.776508000000000109e+01 -1.100388240447614380e-01
-1.192900000000000027e+01 -3.304699999999999704e+01 6.731000000000000227e+01 7.252867000000000175e+00 -1.300000000000000322e-01
-1.188199999999999967e+01 -2.509900000000000020e+01 5.981799999999999784e+01 -4.608225000000000193e+01 -9.258898912967930550e-02
-1.186599999999999966e+01 -2.721300000000000097e+01 6.640200000000000102e+01 7.512024000000000257e+00 -1.300000000000000044e-01
-1.184299999999999997e+01 -2.349099999999999966e+01 5.918099999999999739e+01 -4.764142999999999972e+01 -9.476717375059180715e-02
-1.182300000000000040e+01 -2.321499999999999986e+01 5.831700000000000017e+01 -2.277853999999999957e+01 -9.771875746915446859e-02
-1.179800000000000004e+01 -2.906899999999999906e+01 5.451400000000000290e+01 2.527552000000000021e+00 5.305117194368419442e-02
-1.178500000000000014e+01 -3.505799999999999983e+01 6.457099999999999795e+01 3.943416000000000032e+00 -1.124407367523060086e-01
-1.178299999999999947e+01 -2.744500000000000028e+01 5.349499999999999744e+01 -1.982479000000000102e+00 4.279069300706299372e-02
-1.178299999999999947e+01 -2.712000000000000099e+01 5.275800000000000267e+01 -1.479308000000000067e+00 4.045885143551650187e-02
-1.178299999999999947e+01 -2.582700000000000173e+01 5.203699999999999903e+01 -1.352540999999999993e+00 2.474996881565883280e-02
-1.177500000000000036e+01 -2.863200000000000145e+01 6.718699999999999761e+01 8.624007999999999896e+00 -1.300000000000000044e-01
-1.173499999999999943e+01 -2.445899999999999963e+01 5.269299999999999784e+01 -2.853612000000000037e+00 -4.305531598228484573e-03
-1.173099999999999987e+01 -3.256499999999999773e+01 6.728700000000000614e+01 8.494849999999999568e+00 -1.300000000000000322e-01
-1.172499999999999964e+01 -3.210300000000000153e+01 6.271900000000000119e+01 7.679247000000000156e-01 -9.348790745081783649e-02
-1.171499999999999986e+01 -2.418299999999999983e+01 5.351500000000000057e+01 -6.545442999999999678e-01 -6.103919924472690425e-03
-1.171000000000000085e+01 -3.270000000000000284e+01 5.390599999999999881e+01 1.613140000000000018e+00 6.559652169807436706e-02
-1.170400000000000063e+01 -3.170299999999999940e+01 5.833200000000000074e+01 9.709526999999999575e+00 6.932100690259601627e-02
-1.169299999999999962e+01 -2.664099999999999824e+01 6.597100000000000364e+01 1.730993000000000137e+01 1.113135717422514270e-01
-1.168800000000000061e+01 -3.522800000000000153e+01 6.530200000000000671e+01 1.191184999999999938e+00 -1.122494206485667168e-01
-1.168800000000000061e+01 -3.522800000000000153e+01 6.635200000000000387e+01 1.990780999999999912e+00 -1.119511708519044940e-01
-1.166900000000000048e+01 -3.120400000000000063e+01 5.949000000000000199e+01 1.606484000000000023e+01 7.871028109563546482e-02
-1.166900000000000048e+01 -3.099500000000000099e+01 6.022599999999999909e+01 1.385815000000000019e+01 -9.413763568021775441e-02
-1.166600000000000037e+01 -3.407500000000000284e+01 5.482699999999999818e+01 9.935384999999999911e-01 6.448423902525639295e-02
-1.166600000000000037e+01 -3.407500000000000284e+01 5.587700000000000244e+01 1.084324999999999983e+00 6.175123337227644837e-02
-1.166499999999999915e+01 -2.675900000000000034e+01 6.066100000000000136e+01 7.146066000000000251e+00 -9.188560853100849468e-02
-1.166499999999999915e+01 -2.675900000000000034e+01 6.152700000000000102e+01 8.454428000000000054e+00 -9.093686795983316196e-02
-1.164600000000000080e+01 -2.401800000000000068e+01 5.401899999999999835e+01 1.481396999999999942e+01 -4.864956064692814615e-03
-1.164600000000000080e+01 -2.401800000000000068e+01 5.488499999999999801e+01 3.250701000000000107e+01 4.027681188156188863e-02
-1.164400000000000013e+01 -3.385300000000000153e+01 6.727299999999999613e+01 5.272683999999999926e+00 -1.299999999999999767e-01
-1.164400000000000013e+01 -3.023900000000000077e+01 6.670099999999999341e+01 1.626697000000000060e+01 -1.300000000000000044e-01
-1.161999999999999922e+01 -3.101500000000000057e+01 6.681300000000000239e+01 2.032835000000000036e+01 -1.300000000000000322e-01
-1.154599999999999937e+01 -3.166300000000000026e+01 6.195499999999999829e+01 -3.521738000000000035e+00 -9.356345206437401141e-02
-1.154499999999999993e+01 -3.290599999999999881e+01 6.371200000000000330e+01 4.825805000000000233e-01 -1.123386402785442606e-01
-1.151999999999999957e+01 -3.276100000000000279e+01 5.742099999999999937e+01 9.623483000000000231e+00 -1.137857138799368145e-01
-1.150099999999999945e+01 -2.417099999999999937e+01 5.624399999999999977e+01 3.140358999999999789e-01 7.625581782897286609e-02
-1.150099999999999945e+01 -2.396199999999999974e+01 5.550800000000000267e+01 1.030635000000000012e+01 5.788296055915139599e-02
-1.146599999999999930e+01 -3.135900000000000176e+01 6.135300000000000153e+01 5.760912999999999728e-01 -9.368960738290417478e-02
-1.144200000000000017e+01 -3.205400000000000205e+01 5.382800000000000296e+01 6.282147000000000148e-01 6.192315438044038167e-02
-1.144100000000000072e+01 -2.603999999999999915e+01 6.006600000000000250e+01 2.119803000000000104e+00 -9.223276762019536057e-02
-1.142900000000000027e+01 -3.099800000000000111e+01 5.382000000000000028e+01 1.124494000000000105e+00 5.848728485544048977e-02
-1.142099999999999937e+01 -2.409900000000000020e+01 5.954699999999999704e+01 -3.542490000000000094e+01 -9.307191894054281378e-02
-1.139100000000000001e+01 -3.371900000000000119e+01 5.734100000000000108e+01 3.838499000000000105e+00 -1.136233614399397851e-01
-1.137599999999999945e+01 -2.607000000000000028e+01 6.245499999999999829e+01 6.201192999999999955e+00 -1.094720600979683933e-01
-1.137599999999999945e+01 -2.581599999999999895e+01 6.334899999999999665e+01 9.784060000000000201e+00 -1.083866203517795945e-01
-1.136800000000000033e+01 -2.611599999999999966e+01 6.512099999999999511e+01 9.536339999999999151e+00 1.279917026361814258e-01
-1.136599999999999966e+01 -2.836899999999999977e+01 5.424699999999999989e+01 -1.072473000000000010e+00 4.693759976896699770e-02
-1.134999999999999964e+01 -2.793599999999999994e+01 5.389200000000000301e+01 -2.059359000000000162e+00 4.363686548318054803e-02
-1.134600000000000009e+01 -2.942299999999999827e+01 5.439099999999999824e+01 1.334912000000000099e+00 5.251101393210216850e-02
-1.134099999999999930e+01 -3.354999999999999716e+01 5.397699999999999676e+01 3.107877999999999918e+00 6.579643032454947360e-02
-1.134099999999999930e+01 -2.953900000000000148e+01 6.675900000000000034e+01 1.162247999999999948e+01 9.621537719614645101e-02
-1.134099999999999930e+01 -2.783899999999999864e+01 6.675900000000000034e+01 9.615325000000000344e+00 9.957329574712200926e-02
-1.132300000000000040e+01 -2.595400000000000063e+01 6.422899999999999920e+01 8.787248999999999199e+00 -1.079127093420646222e-01
-1.131700000000000017e+01 -3.171499999999999986e+01 6.687099999999999511e+01 2.874228000000000094e+01 -1.300000000000000044e-01
-1.131300000000000061e+01 -2.658699999999999974e+01 5.232699999999999818e+01 -5.192046999999999635e+00 2.935029901826375492e-02
-1.131300000000000061e+01 -2.506700000000000017e+01 5.232699999999999818e+01 -1.184543999999999997e+01 6.884734511091194532e-04
-1.129800000000000004e+01 -3.424499999999999744e+01 6.427899999999999636e+01 1.348241999999999940e+00 -1.124275432156768284e-01
-1.123600000000000065e+01 -3.169500000000000028e+01 5.909300000000000352e+01 1.065962000000000032e+01 7.516670485821398684e-02
-1.123300000000000054e+01 -3.337100000000000222e+01 6.697899999999999920e+01 9.663218999999999781e+00 -1.299999999999999767e-01
-1.121299999999999919e+01 -3.249399999999999977e+01 5.799499999999999744e+01 9.508851999999999194e+00 6.629452146996504813e-02
-1.117399999999999949e+01 -2.647200000000000131e+01 6.076599999999999824e+01 9.667127999999999943e+00 -9.131298762669383395e-02
-1.117399999999999949e+01 -2.647200000000000131e+01 6.163100000000000023e+01 1.316357999999999961e+01 -9.028399296485264958e-02
-1.116300000000000026e+01 -3.437800000000000011e+01 6.497700000000000387e+01 6.177970000000000184e+00 -1.122165979879721914e-01
-1.116300000000000026e+01 -3.437800000000000011e+01 6.667700000000000671e+01 7.954419999999999824e+00 -1.116917442238928720e-01
-1.115199999999999925e+01 -3.345100000000000051e+01 6.406300000000000239e+01 2.085685999999999929e+00 -1.123555240221435769e-01
-1.113100000000000023e+01 -2.362900000000000134e+01 5.784700000000000131e+01 -2.943004000000000175e+01 -9.900157504012317700e-02
-1.113100000000000023e+01 -2.362900000000000134e+01 5.878699999999999903e+01 -5.583402999999999849e+01 -9.595480110891160819e-02
-1.109299999999999997e+01 -2.485900000000000176e+01 5.972599999999999909e+01 -4.152647999999999939e+01 -9.234852403825674627e-02
-1.109200000000000053e+01 -3.474699999999999989e+01 6.582699999999999818e+01 5.552348000000000283e+00 -1.120325200541110594e-01
-1.102299999999999969e+01 -2.459700000000000131e+01 5.308700000000000330e+01 -9.036580000000000723e+00 -1.436668324589982469e-02
-1.098399999999999999e+01 -2.582700000000000173e+01 5.226400000000000290e+01 -7.092718999999999774e+00 1.218116223211155105e-02
-1.098199999999999932e+01 -2.427299999999999969e+01 5.633200000000000074e+01 4.219609000000000165e+00 8.079036615582302350e-02
-1.097400000000000020e+01 -3.215699999999999648e+01 6.252600000000000335e+01 -4.858996000000000315e+00 9.920853453972278482e-03
-1.097199999999999953e+01 -2.868900000000000006e+01 6.682999999999999829e+01 1.163391999999999982e+01 9.803351628495458880e-02
-1.096899999999999942e+01 -3.126200000000000045e+01 5.979299999999999926e+01 8.790369999999999351e+00 8.163240380319072842e-02
-1.096899999999999942e+01 -3.126200000000000045e+01 6.065899999999999892e+01 1.695003999999999955e+00 -9.396146508184805013e-02
-1.096499999999999986e+01 -2.713299999999999912e+01 5.302100000000000080e+01 -3.220272000000000023e+00 3.245543357299871673e-02
-1.094800000000000040e+01 -3.256499999999999773e+01 6.694199999999999307e+01 9.969331999999999638e+00 -8.965364103918488370e-03
-1.094599999999999973e+01 -3.206099999999999994e+01 5.869500000000000028e+01 1.679622000000000170e+01 7.193658039469938426e-02
-1.092399999999999949e+01 -3.236099999999999710e+01 6.337199999999999989e+01 -8.201833000000000040e-02 8.963236347142185950e-03
-1.092099999999999937e+01 -3.155600000000000094e+01 5.336699999999999733e+01 2.412336999999999954e+00 5.900311693281497932e-02
-1.091600000000000037e+01 -3.200500000000000256e+01 6.169200000000000017e+01 -6.586843999999999477e-01 -9.375004935529661354e-02
-1.091300000000000026e+01 -3.012300000000000111e+01 5.412299999999999756e+01 8.721087000000000700e+00 5.360370265189540184e-02
-1.091000000000000014e+01 -3.319400000000000261e+01 5.793699999999999761e+01 1.278598999999999997e+01 6.529682067872577544e-02
-1.088899999999999935e+01 -2.455600000000000094e+01 5.426800000000000068e+01 -1.599746000000000024e+01 2.292802272076575540e-02
-1.088599999999999923e+01 -3.468699999999999761e+01 5.600999999999999801e+01 1.636152000000000051e+00 6.074948672031856012e-02
-1.087599999999999945e+01 -2.443100000000000094e+01 5.542000000000000171e+01 7.581444000000000294e+00 5.526024139683177738e-02
-1.087199999999999989e+01 -3.275699999999999790e+01 5.354899999999999949e+01 1.748062999999999922e+00 6.299390010539421270e-02
-1.086700000000000088e+01 -2.415700000000000003e+01 5.726800000000000068e+01 -8.000386999999999915e+00 -9.985870894716546153e-02
-1.086599999999999966e+01 -3.456900000000000261e+01 5.701599999999999824e+01 2.658221000000000167e+00 -1.136123140043199531e-01
-1.084299999999999997e+01 -2.696600000000000108e+01 6.544599999999999795e+01 9.525244000000000710e+00 1.201082150001561988e-01
-1.084099999999999930e+01 -3.117500000000000071e+01 6.611499999999999488e+01 1.562717999999999918e+01 -1.107569295255688147e-01
-1.084099999999999930e+01 -3.030999999999999872e+01 6.611499999999999488e+01 1.496374999999999922e+01 -4.029357343912053253e-03
-1.081600000000000072e+01 -3.414600000000000080e+01 5.445799999999999841e+01 5.756133000000000166e+00 6.258391860978571031e-02
-1.074699999999999989e+01 -3.396399999999999864e+01 6.582699999999999818e+01 7.348421000000000092e+00 -1.118677712151920911e-01
-1.061100000000000065e+01 -2.414699999999999847e+01 5.941100000000000136e+01 -1.957462999999999909e+01 -9.325044065472004595e-02
-1.058300000000000018e+01 -3.236599999999999966e+01 5.329699999999999704e+01 2.061979999999999924e-01 6.114153460600411233e-02
-1.057000000000000028e+01 -2.624200000000000088e+01 6.200399999999999778e+01 4.720735000000000348e+00 -8.937316500909051054e-02
-1.055799999999999983e+01 -2.621799999999999997e+01 5.272899999999999920e+01 -1.901513999999999927e+00 1.461329220230747107e-02
-1.055499999999999972e+01 -2.562300000000000111e+01 6.004899999999999949e+01 1.699945000000000039e+00 -9.170509197353847453e-02
-1.055300000000000082e+01 -2.535699999999999932e+01 5.279699999999999704e+01 -1.719739999999999824e+01 -3.628011855443059267e-03
-1.055199999999999960e+01 -3.070599999999999952e+01 5.343800000000000239e+01 5.834420999999999857e+00 5.464318583711234856e-02
-1.054100000000000037e+01 -3.404399999999999693e+01 5.786599999999999966e+01 9.447411999999999921e+00 6.423891356798057395e-02
-1.052599999999999980e+01 -2.614099999999999824e+01 6.282399999999999807e+01 7.736251000000000211e+00 -1.090032847369188929e-01
-1.052599999999999980e+01 -2.614099999999999824e+01 6.387400000000000233e+01 9.475825000000000387e+00 -1.081304744228269443e-01
-1.051399999999999935e+01 -2.864900000000000091e+01 5.390800000000000125e+01 2.009794999999999998e+00 4.410178284889678529e-02
-1.051299999999999990e+01 -3.276100000000000279e+01 5.842799999999999727e+01 1.322017999999999915e+01 6.920626462016624125e-02
-1.049099999999999966e+01 -2.921399999999999864e+01 6.623399999999999466e+01 8.669206000000000856e+00 1.027944970432135285e-01
-1.049099999999999966e+01 -2.816400000000000148e+01 6.623399999999999466e+01 1.027632000000000012e+01 1.062743645381944296e-01
-1.047799999999999976e+01 -3.165899999999999892e+01 6.022599999999999909e+01 7.138206000000000273e+00 8.332169248324562683e-02
-1.047400000000000020e+01 -2.641499999999999915e+01 6.476699999999999591e+01 9.099868999999999986e+00 -1.079804987308607966e-01
-1.046700000000000053e+01 -3.309000000000000341e+01 6.464600000000000080e+01 4.960035000000000416e+00 -1.120946721405362556e-01
-1.046700000000000053e+01 -3.309000000000000341e+01 6.634600000000000364e+01 5.926731000000000193e+00 -1.114696594453176565e-01
-1.046700000000000053e+01 -3.203999999999999915e+01 6.634600000000000364e+01 8.989466000000000179e+00 -9.340381068917163673e-03
-1.045800000000000018e+01 -2.980999999999999872e+01 6.581799999999999784e+01 2.158794999999999931e+01 -3.768670555678768630e-03
-1.044599999999999973e+01 -3.194999999999999929e+01 5.955400000000000205e+01 8.241721000000000075e+00 7.827738788526787672e-02
-1.044500000000000028e+01 -3.074299999999999855e+01 6.562399999999999523e+01 1.331487000000000087e+01 -1.107863128601296737e-01
-1.042399999999999949e+01 -2.494900000000000162e+01 5.355100000000000193e+01 -2.178784999999999883e+01 -1.013142654849097032e-02
-1.041600000000000037e+01 -2.775400000000000134e+01 6.552500000000000568e+01 5.258535000000000181e+00 4.659859815083390241e-03
-1.041000000000000014e+01 -2.938599999999999923e+01 5.407399999999999807e+01 8.540634999999999977e+00 4.817059725609778437e-02
-1.039600000000000080e+01 -3.345900000000000318e+01 6.549599999999999511e+01 5.277624000000000315e+00 -1.118762948442330873e-01
-1.036299999999999955e+01 -2.497200000000000131e+01 5.494200000000000017e+01 -2.141519999999999868e+00 4.312998877039154327e-02
-1.035800000000000054e+01 -2.745100000000000051e+01 6.482500000000000284e+01 5.772141000000000410e+00 5.653558241491378478e-03
-1.034299999999999997e+01 -2.387999999999999901e+01 5.809199999999999875e+01 -1.031883999999999979e+01 -9.847008331448085794e-02
-1.034299999999999997e+01 -2.387999999999999901e+01 5.892199999999999704e+01 -2.094367000000000090e+01 -9.535790377431258014e-02
-1.029400000000000048e+01 -3.206099999999999994e+01 6.468099999999999739e+01 7.593475999999999893e+00 -1.117863592301758802e-01
-1.029100000000000037e+01 -3.354999999999999716e+01 5.397699999999999676e+01 5.072602999999999973e+00 -2.954701327096600355e-02
-1.028899999999999970e+01 -3.153399999999999892e+01 6.468099999999999739e+01 8.321984999999999744e+00 -1.115951094684058537e-01
-1.027999999999999936e+01 -3.168499999999999872e+01 6.554900000000000659e+01 1.191273999999999944e+01 -1.112669076167186050e-01
-1.020700000000000074e+01 -3.204800000000000182e+01 6.044599999999999795e+01 3.229943000000000008e+00 9.298367962517907481e-03
-1.020599999999999952e+01 -2.684299999999999997e+01 5.344800000000000040e+01 -5.357402999999999693e+00 2.326411333039806600e-02
-1.020199999999999996e+01 -3.108999999999999986e+01 6.514799999999999613e+01 1.789497000000000071e+01 -1.111982870413356916e-01
-1.018500000000000050e+01 -3.217300000000000182e+01 6.134599999999999653e+01 1.819131999999999971e-01 8.848954638602463466e-03
-1.016799999999999926e+01 -2.487900000000000134e+01 5.988199999999999790e+01 -1.108686999999999934e+01 -9.162311293508978993e-02
-1.016699999999999982e+01 -2.421600000000000108e+01 5.757200000000000273e+01 7.851643000000000372e-01 -9.962433269763634747e-02
-1.015600000000000058e+01 -3.229500000000000171e+01 6.216199999999999903e+01 -5.691367000000000509e-01 8.285870536097642708e-03
-1.014700000000000024e+01 -2.631400000000000006e+01 6.145499999999999829e+01 1.769481000000000037e+01 -8.991102855882002198e-02
-1.014700000000000024e+01 -2.610500000000000043e+01 6.071900000000000119e+01 7.327225999999999573e+00 -9.072521865037229405e-02
-1.014199999999999946e+01 -3.256499999999999773e+01 6.549599999999999511e+01 1.852747000000000099e+01 -1.116305752428979614e-01
-1.014100000000000001e+01 -2.804500000000000171e+01 5.367799999999999727e+01 -7.053561999999999887e-01 3.717068997642183903e-02
-1.013199999999999967e+01 -2.459799999999999898e+01 5.580700000000000216e+01 2.093720000000000070e+01 6.927367575009395206e-02
-1.012700000000000067e+01 -3.217300000000000182e+01 6.297800000000000153e+01 -1.089193000000000033e+01 8.030789085202478736e-03
-1.010999999999999943e+01 -2.444699999999999918e+01 5.679999999999999716e+01 2.239863000000000071e+01 9.692711977940121626e-02
-1.010500000000000043e+01 -3.204800000000000182e+01 6.387800000000000011e+01 7.321545999999999887e-01 7.607615076485954586e-03
-1.010100000000000087e+01 -3.026999999999999957e+01 6.519199999999999307e+01 3.361735999999999791e+01 -1.107875095494615242e-01
-1.006000000000000050e+01 -3.374399999999999977e+01 5.846999999999999886e+01 5.303971999999999909e+00 6.808729590202496074e-02
-1.005599999999999916e+01 -2.867899999999999849e+01 6.546999999999999886e+01 2.129300999999999888e+00 -1.291804186714675968e-03
-1.003500000000000014e+01 -2.582700000000000173e+01 5.321300000000000097e+01 -3.874152000000000040e+00 3.857148567799704303e-03
-1.002699999999999925e+01 -3.155600000000000094e+01 5.311299999999999955e+01 3.737379000000000118e-01 -3.538304594054467178e-02
-1.002200000000000024e+01 -3.110099999999999909e+01 6.398100000000000165e+01 -8.725234999999999630e+00 8.922939921412031267e-03
-1.001699999999999946e+01 -2.827400000000000091e+01 6.468399999999999750e+01 6.542006000000000210e-01 -5.349810391601730625e-04
-1.001600000000000001e+01 -3.489399999999999835e+01 5.649099999999999966e+01 2.893880999999999815e-01 -1.875723213729904582e-01
-1.001600000000000001e+01 -3.464000000000000057e+01 5.559700000000000131e+01 2.480430999999999830e+00 -1.865480126489944546e-01
-1.001600000000000001e+01 -3.464000000000000057e+01 5.738499999999999801e+01 4.319701000000000235e+00 6.166769339581489040e-02
-1.001299999999999990e+01 -3.264999999999999858e+01 5.928600000000000136e+01 3.426664000000000243e+01 7.495789896778123906e-02
-1.000099999999999945e+01 -2.699099999999999966e+01 6.419899999999999807e+01 1.182607999999999926e+01 -1.087768331970992708e-01
-9.961700000000000443e+00 -3.303199999999999648e+01 5.379500000000000171e+01 1.153024999999999967e+00 -2.945788731516876813e-02
-9.954700000000000770e+00 -3.234599999999999653e+01 5.998599999999999710e+01 1.532410999999999923e+01 7.987862840676138165e-02
-9.949699999999999989e+00 -2.927700000000000102e+01 6.521399999999999864e+01 1.186464999999999925e+01 -4.319676999283959991e-03
-9.899699999999999278e+00 -2.649800000000000111e+01 6.241799999999999926e+01 1.254630000000000045e+01 -8.932419902392320366e-02
-9.883300000000000196e+00 -2.652400000000000091e+01 6.339200000000000301e+01 1.745208999999999833e+01 -1.089982979180711409e-01
-9.871600000000000819e+00 -2.794900000000000162e+01 6.427899999999999636e+01 1.401305999999999941e+00 -1.097521123093455203e-01
-9.773500000000000298e+00 -2.754299999999999926e+01 5.371500000000000341e+01 -5.066327999999999943e-01 3.035733506228741052e-02
-9.731600000000000250e+00 -3.348400000000000176e+01 5.926500000000000057e+01 7.817599000000000409e+00 7.292701680232768768e-02
-9.714800000000000324e+00 -2.523100000000000165e+01 5.397800000000000153e+01 -4.928721999999999603e+00 2.249723548237077611e-02
-9.689700000000000202e+00 -2.885099999999999909e+01 5.350600000000000023e+01 4.426296999999999926e+00 4.159503904758089787e-02
-9.678900000000000503e+00 -2.471499999999999986e+01 5.617199999999999704e+01 4.064377000000000351e+01 8.134374938411237377e-02
-9.663500000000000867e+00 -2.523999999999999844e+01 5.450999999999999801e+01 3.991903000000000201e+00 3.526709641256820654e-02
-9.663500000000000867e+00 -2.503099999999999881e+01 5.524600000000000222e+01 1.865440999999999860e+01 5.410580309282684436e-02
-9.660299999999999443e+00 -2.974500000000000099e+01 6.445699999999999363e+01 1.061899000000000015e+01 -1.109846880405919584e-01
-9.660299999999999443e+00 -2.880900000000000105e+01 6.445699999999999363e+01 4.336764999999999759e+00 -4.891198136176013421e-03
-9.643000000000000682e+00 -2.561400000000000077e+01 6.032300000000000040e+01 4.659263000000000154e+00 -9.101268867692705045e-02
-9.643000000000000682e+00 -2.428300000000000125e+01 5.761299999999999955e+01 4.133040000000000269e+00 -9.979229700056480024e-02
-9.643000000000000682e+00 -2.428300000000000125e+01 5.940100000000000335e+01 -4.260457999999999856e+00 -9.333268593515062217e-02
-9.643000000000000682e+00 -2.402899999999999991e+01 5.850699999999999790e+01 -5.920649000000000051e+00 -9.715055993059505679e-02
-9.625099999999999767e+00 -2.628900000000000148e+01 6.146699999999999875e+01 2.110601000000000127e+01 -8.985289711355778919e-02
-9.619600000000000151e+00 -3.159299999999999997e+01 6.346800000000000352e+01 -2.293059999999999832e+01 7.540429119771248009e-03
-9.593999999999999417e+00 -3.308200000000000074e+01 5.998599999999999710e+01 4.438895999999999731e+00 6.260519112659528387e-03
-9.518100000000000449e+00 -3.417900000000000205e+01 5.790599999999999881e+01 8.709910999999999959e+00 6.491000644998394520e-02
-9.501699999999999591e+00 -3.240599999999999881e+01 5.343800000000000239e+01 2.362232000000000109e+00 -2.831318134108303311e-02
-9.488400000000000389e+00 -3.071699999999999875e+01 5.330799999999999983e+01 3.504269999999999885e-01 -3.924678929519897358e-02
-9.455999999999999517e+00 -3.245100000000000051e+01 6.093099999999999739e+01 1.548196000000000083e+01 6.821267574856249190e-03
-9.439999999999999503e+00 -3.415800000000000125e+01 5.507800000000000296e+01 3.656282000000000032e+00 -1.844550983691471413e-01
-9.438399999999999679e+00 -2.741000000000000014e+01 6.375500000000000256e+01 6.466122000000000369e+00 -1.149091136032061571e-03
-9.426500000000000767e+00 -3.331900000000000261e+01 5.435099999999999909e+01 7.927007000000000358e-01 -2.763205255734731830e-02
-9.397100000000000009e+00 -3.210300000000000153e+01 6.269299999999999784e+01 -1.665906000000000020e+01 6.654790523114778762e-03
-9.388400000000000745e+00 -3.236099999999999710e+01 6.189999999999999858e+01 -7.683507000000000531e-01 6.562362219183506817e-03
-9.383300000000000196e+00 -2.674699999999999989e+01 5.343800000000000239e+01 -1.487781999999999938e+00 1.782043318815745153e-02
-9.355900000000000105e+00 -2.955600000000000094e+01 6.363400000000000034e+01 1.540625000000000000e+01 1.049989609982680296e-02
-9.355900000000000105e+00 -2.862500000000000000e+01 6.363400000000000034e+01 1.187400000000000055e+01 1.276772416141827224e-02
-9.352299999999999613e+00 -2.966100000000000136e+01 5.343599999999999994e+01 7.718939999999999912e+00 -3.171867513961525858e-02
-9.340899999999999537e+00 -2.824299999999999855e+01 5.344800000000000040e+01 1.965535000000000032e+00 3.520946803839702932e-02
-9.338800000000000878e+00 -3.066000000000000014e+01 6.359100000000000108e+01 -3.078096000000000032e+01 8.290711875630889932e-03
-9.188399999999999679e+00 -2.462800000000000011e+01 5.709300000000000352e+01 1.712571000000000154e+01 1.065830378864058570e-01
-9.180600000000000094e+00 -2.579100000000000037e+01 5.350300000000000011e+01 -2.404367999999999839e+00 2.664850401535649449e-01
