-4.719700000000000273e+01 4.755100000000000193e+01 -1.362299999999999933e+01 2.204341000000000150e+01 -1.913428601911624782e-01
-4.719100000000000250e+01 4.514699999999999847e+01 -1.296899999999999942e+00 1.005591000000000079e+01 3.875798583646687667e-02
-4.719100000000000250e+01 6.319700000000000273e+01 -5.297799999999999621e+00 3.351468999999999809e+00 1.019034929504374770e-01
-4.719100000000000250e+01 6.340599999999999881e+01 -4.561700000000000088e+00 3.637900999999999829e+00 9.346062995067117019e-02
-4.717799999999999727e+01 4.516799999999999926e+01 -6.166699999999999626e+00 6.227831000000000117e+00 -1.562651612999386708e-01
-4.716899999999999693e+01 6.269400000000000261e+01 -7.119999999999999662e-01 1.560819000000000045e+01 1.956846444861693735e-01
-4.716599999999999682e+01 4.639600000000000080e+01 -2.265599999999999906e-02 2.286770999999999887e+01 2.031507857149787016e-02
-4.715999999999999659e+01 4.657099999999999795e+01 -7.068100000000000271e+00 1.247087999999999930e+01 -1.917883373021944116e-01
-4.715800000000000125e+01 5.109199999999999875e+01 7.439700000000000202e-01 -3.442902999999999825e+00 2.814217369196110319e-01
-4.714800000000000324e+01 4.526700000000000301e+01 -2.165199999999999902e-01 1.345363000000000042e+01 2.892304588698343948e-02
-4.713900000000000290e+01 6.229399999999999693e+01 -2.164999999999999980e-01 2.447372999999999976e+01 1.935274809156738718e-01
-4.713700000000000045e+01 5.009000000000000341e+01 5.720300000000000384e-01 -1.070182999999999929e+01 1.746306322201207628e-01
-4.712700000000000244e+01 5.760499999999999687e+01 -1.076900000000000013e+01 8.217052000000000689e+00 8.104808466235657741e-04
-4.710000000000000142e+01 4.912500000000000000e+01 7.673600000000000421e-01 -1.382185999999999915e+00 1.848335537481994306e-01
-4.709899999999999665e+01 4.966199999999999903e+01 -1.675000000000000000e+01 4.401511000000000173e+00 -2.113669239842920489e-01
-4.709000000000000341e+01 5.124600000000000222e+01 -1.663899999999999935e+01 5.862999000000000294e+00 -2.072659505615415121e-01
-4.708500000000000085e+01 4.759899999999999665e+01 3.393300000000000205e-01 1.077804000000000073e+01 1.176949276603233077e-02
-4.706000000000000227e+01 5.695600000000000307e+01 2.779999999999999805e+00 1.306798999999999999e+01 2.243110452742066163e-01
-4.704899999999999949e+01 6.117999999999999972e+01 -5.188899999999999624e-01 9.498977000000000004e+00 3.955401094439748855e-01
-4.704599999999999937e+01 5.962599999999999767e+01 -6.167899999999999494e-01 -2.912577999999999889e+01 3.945477078101641832e-01
-4.703999999999999915e+01 5.834400000000000119e+01 1.344599999999999962e-01 -1.370856000000000030e+01 2.238494557466594870e-01
-4.701200000000000045e+01 6.289399999999999835e+01 -7.832300000000000040e+00 1.164244000000000057e+01 1.406578775789401881e-01
-4.700399999999999778e+01 5.591899999999999693e+01 2.905299999999999994e+00 1.247090000000000032e+01 2.246480117633444240e-01
-4.699300000000000210e+01 4.485499999999999687e+01 -5.492099999999999760e+00 4.835723999999999911e+00 -1.587926899203516706e-01
-4.698899999999999721e+01 5.732500000000000284e+01 1.929999999999999938e+00 4.805043000000000397e+00 2.242006678057553992e-01
-4.696600000000000108e+01 6.003499999999999659e+01 -1.083999999999999986e+01 1.362405000000000044e+01 -2.044142534221596308e-01
-4.695900000000000318e+01 5.744899999999999807e+01 9.994499999999999496e-01 6.480915999999999677e+00 2.241262272542377532e-01
-4.695600000000000307e+01 4.816400000000000148e+01 -6.589999999999999858e+00 2.338465000000000060e+01 -2.063284161585772214e-01
-4.693299999999999983e+01 6.299000000000000199e+01 -6.823999999999999844e+00 1.479359000000000002e+01 1.230120749069895519e-01
-4.692900000000000205e+01 5.447800000000000153e+01 2.623400000000000176e+00 7.297073000000000143e+00 2.251403084870408355e-01
-4.692799999999999727e+01 5.036999999999999744e+01 -6.517999999999999794e+00 1.223830000000000062e+01 5.135135884863675088e-02
-4.692000000000000171e+01 5.078699999999999903e+01 -1.376999999999999957e+01 9.247688999999999382e+00 -3.097690013031286216e-01
-4.690500000000000114e+01 4.820900000000000318e+01 6.818300000000000471e-01 8.455436999999999870e+00 6.837015455429076502e-03
-4.689000000000000057e+01 5.305899999999999750e+01 1.578500000000000014e+00 -8.393620000000000303e+00 2.600965547246591458e-01
-4.687500000000000000e+01 6.142399999999999949e+01 -9.930699999999999861e+00 9.667334999999999567e+00 -9.997634589407564110e-02
-4.686999999999999744e+01 5.410799999999999699e+01 -4.950899999999999856e+00 2.944367000000000179e+00 2.884282250917174356e-02
-4.685499999999999687e+01 4.931099999999999994e+01 -1.308799999999999919e+01 1.315666000000000047e+01 -3.089166021161048326e-01
-4.684700000000000131e+01 4.458899999999999864e+01 -3.225000000000000089e+00 4.123128000000000348e+00 6.327058636819930804e-02
-4.683299999999999841e+01 5.799300000000000210e+01 -1.132099999999999973e+01 7.576869000000000298e+00 2.143886681436036473e-02
-4.683299999999999841e+01 5.895100000000000051e+01 -1.132099999999999973e+01 7.535008000000000372e+00 -1.939489527087552012e-01
-4.681799999999999784e+01 6.178099999999999881e+01 -9.128099999999999881e+00 1.144979000000000013e+01 -1.006520788719701132e-01
-4.680799999999999983e+01 4.445199999999999818e+01 -4.065000000000000391e+00 2.590066999999999897e+00 8.018169883077672089e-02
-4.680799999999999983e+01 4.467900000000000205e+01 -4.864099999999999646e+00 4.569104000000000276e+00 -1.638643682498165943e-01
-4.679200000000000159e+01 4.896999999999999886e+01 -6.307999999999999829e+00 1.759778999999999982e+01 5.086644697246749114e-02
-4.679200000000000159e+01 5.207000000000000028e+01 -6.307999999999999829e+00 8.560990000000000322e+00 2.197132906989461565e-02
-4.678199999999999648e+01 5.342699999999999960e+01 -4.991500000000000270e+00 8.163197000000000259e+00 2.880263204369314795e-02
-4.677799999999999869e+01 6.307900000000000063e+01 -1.615599999999999925e+00 4.654690000000000438e+00 1.974391102587396696e-01
-4.670400000000000063e+01 5.502799999999999869e+01 -5.739700000000000024e+00 1.056813000000000002e+01 2.145422139351767579e-02
-4.670400000000000063e+01 5.635900000000000176e+01 -6.661699999999999733e+00 8.286402999999999963e+00 -6.020035145877790372e-02
-4.670000000000000284e+01 6.393800000000000239e+01 -2.350699999999999790e+00 5.105622000000000327e+00 2.025110159974375656e-01
-4.669100000000000250e+01 5.788199999999999790e+01 2.994499999999999940e-01 -3.790811999999999848e+00 2.244477847909979451e-01
-4.667199999999999704e+01 6.297500000000000142e+01 -5.849000000000000199e+00 2.167437000000000058e+00 1.064629001872369890e-01
-4.667199999999999704e+01 6.318399999999999750e+01 -5.113000000000000433e+00 3.621491999999999933e+00 9.623916573608730374e-02
-4.667199999999999704e+01 4.849699999999999989e+01 -1.301099999999999923e+01 1.219955000000000034e+01 -2.086672839309217375e-01
-4.666499999999999915e+01 6.419400000000000261e+01 -3.131600000000000161e+00 5.205011999999999972e+00 7.665680955234024929e-02
-4.665899999999999892e+01 5.177799999999999869e+01 7.203199999999999603e-01 -6.397682000000000091e-01 2.583242488677880422e-01
-4.665500000000000114e+01 6.176599999999999824e+01 -9.119099999999999984e-01 2.247984999999999900e+01 3.960413760079021239e-01
-4.665299999999999869e+01 4.576400000000000290e+01 -6.648299999999999876e+00 8.280443999999999249e+00 7.498232925473113930e-02
-4.665299999999999869e+01 4.746399999999999864e+01 -6.648299999999999876e+00 8.697051999999999339e+00 -2.018742547059982628e-01
-4.664200000000000301e+01 4.725399999999999778e+01 3.700200000000000156e-01 1.645588000000000051e+01 8.170482791611394235e-03
-4.663199999999999790e+01 5.652199999999999847e+01 1.987400000000000055e+00 8.173218000000000316e+00 2.248581249907072033e-01
-4.662299999999999756e+01 5.245400000000000063e+01 -5.831800000000000317e+00 1.071143999999999963e+01 2.252585493509742104e-02
-4.661999999999999744e+01 4.727600000000000335e+01 -1.491499999999999915e+01 5.152789000000000286e+00 -1.890024705235697211e-01
-4.661999999999999744e+01 4.727600000000000335e+01 -1.395700000000000074e+01 1.498786999999999914e+01 -1.881268242748274089e-01
-4.661299999999999955e+01 5.511200000000000188e+01 2.663400000000000212e+00 6.505050999999999917e+00 2.253499356652789998e-01
-4.661200000000000188e+01 5.903600000000000136e+01 -2.802899999999999836e-01 -2.173798999999999992e+01 3.956076113613159473e-01
-4.661099999999999710e+01 5.047099999999999653e+01 -1.693499999999999872e+01 1.701770999999999923e+00 -2.051702156077132300e-01
-4.661099999999999710e+01 5.178999999999999915e+01 -1.619999999999999929e+01 9.115887999999999991e+00 -2.038479197154904055e-01
-4.661099999999999710e+01 5.178999999999999915e+01 -1.457000000000000028e+01 -9.324199000000000126e+00 -2.984153454441555997e-01
-4.661099999999999710e+01 5.202100000000000080e+01 -1.538499999999999979e+01 1.049269999999999925e+01 -2.904710420424709838e-01
-4.657699999999999818e+01 4.505499999999999972e+01 -2.471799999999999997e+00 4.835460999999999565e+00 3.882068582179058758e-02
-4.657699999999999818e+01 4.505499999999999972e+01 -1.606500000000000039e+00 1.413620000000000054e+01 3.102153734095838833e-02
-4.657600000000000051e+01 6.028600000000000136e+01 -9.845800000000000107e-01 -3.827700999999999798e+00 3.954204754017927037e-01
-4.653000000000000114e+01 5.685499999999999687e+01 1.142800000000000038e+00 7.441178999999999988e+00 2.249056896775847858e-01
-4.652600000000000335e+01 5.698599999999999710e+01 -1.023799999999999955e+01 8.934672000000000835e+00 4.238791791535663836e-03
-4.650900000000000034e+01 5.253999999999999915e+01 1.077299999999999924e+00 1.790329999999999977e+00 2.596319616188937918e-01
-4.649600000000000222e+01 4.967000000000000171e+01 -6.250700000000000145e+00 1.233583999999999925e+01 3.212311683228756543e-02
-4.649099999999999966e+01 4.488000000000000256e+01 -7.990000000000000435e-01 1.469852000000000025e+01 2.532498767655688016e-02
-4.648899999999999721e+01 4.827000000000000313e+01 -6.366299999999999848e+00 1.569650000000000034e+01 6.960915296703396038e-02
-4.648899999999999721e+01 5.136999999999999744e+01 -6.366299999999999848e+00 1.219248999999999938e+01 3.339800571714245797e-02
-4.648700000000000188e+01 6.391599999999999682e+01 -4.059199999999999697e+00 3.815612999999999921e+00 8.261588676272670073e-02
-4.648100000000000165e+01 5.373499999999999943e+01 2.052500000000000213e+00 2.923579000000000150e+00 2.612278700116364427e-01
-4.647299999999999898e+01 5.684799999999999898e+01 -9.358000000000000540e+00 1.274259999999999948e+01 -1.734585808646118069e-02
-4.646900000000000119e+01 6.242600000000000193e+01 -1.144600000000000062e+00 3.754012999999999778e+01 1.924060374969295550e-01
-4.646200000000000330e+01 5.707800000000000296e+01 -7.558099999999999596e+00 9.740474999999999994e+00 -3.892971447383847261e-02
-4.644700000000000273e+01 5.699600000000000222e+01 -8.461899999999999977e+00 1.102590999999999966e+01 -3.042115294081299687e-02
-4.642999999999999972e+01 4.639600000000000080e+01 1.864300000000000124e-01 1.592564999999999920e+01 9.949562429720020321e-03
-4.642199999999999704e+01 4.529200000000000159e+01 1.692099999999999993e-01 9.613336999999999577e+00 1.633728301249829165e-02
-4.641899999999999693e+01 6.255899999999999750e+01 -6.325000000000000178e+00 8.458104000000000511e+00 1.128115897731170741e-01
-4.640400000000000347e+01 6.216799999999999926e+01 -8.152799999999999159e+00 1.546810999999999936e+01 -1.013038274982370340e-01
-4.640100000000000335e+01 5.980199999999999960e+01 -1.114700000000000024e+01 1.526745999999999981e+01 -2.057546772039194338e-01
-4.640100000000000335e+01 5.009000000000000341e+01 3.629399999999999848e-01 1.213411999999999935e+01 4.255154623188963647e-01
-4.639399999999999835e+01 5.847200000000000131e+01 -1.186500000000000021e+01 7.320388999999999591e+00 -1.891240135550426027e-01
-4.635399999999999920e+01 5.721800000000000352e+01 -1.102500000000000036e+01 8.592700999999999922e+00 1.348885770950384796e-02
-4.635000000000000142e+01 6.082800000000000296e+01 -1.041200000000000081e+01 1.421707999999999927e+01 -9.909616036402152384e-02
-4.634599999999999653e+01 6.357000000000000028e+01 -2.012199999999999989e+00 6.726706000000000074e+00 1.975288826212655557e-01
-4.632999999999999829e+01 4.846099999999999852e+01 -1.616300000000000026e+01 4.701080000000000148e+00 -2.952022807689390627e-01
-4.632999999999999829e+01 5.016100000000000136e+01 -1.341300000000000026e+01 2.159292999999999907e+01 -3.128015233863668532e-01
-4.632399999999999807e+01 4.775500000000000256e+01 -1.318200000000000038e+01 1.529590999999999923e+01 -1.995880717629641421e-01
-4.631900000000000261e+01 4.764999999999999858e+01 -1.574699999999999989e+01 4.724286000000000207e+00 -2.941641364675939285e-01
-4.630100000000000193e+01 4.934300000000000352e+01 -1.304499999999999993e+01 1.581450000000000067e+01 -3.101842895677587864e-01
-4.629699999999999704e+01 4.516700000000000159e+01 -5.573500000000000121e+00 6.196591999999999878e+00 -1.665212257129820572e-01
-4.628699999999999903e+01 5.684700000000000131e+01 -6.835899999999999643e+00 1.141607999999999912e+01 -4.688618181422483933e-02
-4.628399999999999892e+01 4.661399999999999721e+01 -6.719100000000000072e+00 1.024477000000000082e+01 4.493903350051952489e-02
-4.627300000000000324e+01 5.958599999999999852e+01 -9.262899999999999467e-01 -2.276830999999999960e+01 3.957950023092297598e-01
-4.627199999999999847e+01 6.225099999999999767e+01 -7.195400000000000240e+00 2.753283000000000058e+01 1.280974980832434718e-01
-4.627100000000000080e+01 5.453699999999999903e+01 -5.343099999999999739e+00 8.357661000000000229e+00 2.373943236107303040e-02
-4.625900000000000034e+01 5.739099999999999824e+01 6.960499999999999465e-01 5.416570000000000107e+00 2.252384107109316747e-01
-4.624799999999999756e+01 5.833500000000000085e+01 -1.236300000000000038e-01 -4.641138999999999726e+01 2.251778090429838175e-01
-4.620900000000000318e+01 5.576700000000000301e+01 2.369699999999999918e+00 7.512438000000000393e+00 2.256814158013457638e-01
-4.617900000000000205e+01 5.562400000000000233e+01 -6.221300000000000274e+00 8.342415000000000802e+00 -7.434139091244698627e-02
-4.615599999999999881e+01 5.434799999999999898e+01 2.488999999999999879e+00 2.232422000000000128e+00 2.262628260405129266e-01
-4.615299999999999869e+01 5.614500000000000313e+01 1.497400000000000064e+00 9.840771999999999409e+00 2.257076920858419322e-01
-4.615100000000000335e+01 6.095100000000000051e+01 -1.063600000000000101e+00 9.349937999999999860e+00 3.966780239736078517e-01
-4.613199999999999790e+01 4.969599999999999795e+01 -1.663899999999999935e+01 4.187940000000000218e+00 -2.032353664286013495e-01
-4.613199999999999790e+01 5.124600000000000222e+01 -1.663899999999999935e+01 4.961231999999999864e+00 -1.999831730769549842e-01
-4.613199999999999790e+01 5.124600000000000222e+01 -1.413100000000000023e+01 -7.462178999999999895e+00 -3.030826854870046771e-01
-4.611099999999999710e+01 5.295499999999999829e+01 -5.419100000000000250e+00 1.615972999999999971e+01 2.420713731586738443e-02
-4.610799999999999699e+01 4.429599999999999937e+01 -2.834400000000000031e+00 4.421192999999999707e+00 4.178841556639366350e-02
-4.609199999999999875e+01 4.793299999999999983e+01 -6.215499999999999581e+00 1.042853000000000030e+01 5.688261312044610649e-03
-4.608599999999999852e+01 4.465800000000000125e+01 -2.039200000000000124e+00 8.641816999999999638e+00 2.780958885514830947e-02
-4.607600000000000051e+01 5.303099999999999881e+01 1.473899999999999988e+00 2.538269999999999804e+00 2.606188038168041343e-01
-4.607000000000000028e+01 4.917399999999999949e+01 6.573499999999999899e-01 2.690889999999999915e+01 1.761668699428001750e-01
-4.605799999999999983e+01 5.769700000000000273e+01 -1.180000000000000071e+01 1.211326000000000036e+01 -1.772156132694367725e-01
-4.605799999999999983e+01 5.924699999999999989e+01 -1.180000000000000071e+01 1.454613999999999940e+01 -2.015530432813328332e-01
-4.605599999999999739e+01 4.896999999999999886e+01 -6.099000000000000199e+00 1.034529999999999994e+01 5.139400913837436496e-02
-4.605599999999999739e+01 5.207000000000000028e+01 -6.099000000000000199e+00 8.617449999999999832e+00 2.360466041078622054e-02
-4.604800000000000182e+01 4.474199999999999733e+01 -4.534699999999999953e+00 4.242278999999999911e+00 5.271219081257447897e-02
-4.603099999999999881e+01 5.106400000000000006e+01 3.709899999999999864e-01 -3.953825999999999730e-01 2.574874732773436703e-01
-4.602499999999999858e+01 4.826200000000000045e+01 8.199999999999999512e-01 3.351951999999999998e+01 -2.549611323136726816e-03
-4.602499999999999858e+01 6.135300000000000153e+01 -9.562300000000000466e+00 1.282376999999999967e+01 -1.005482826033025773e-01
-4.600000000000000000e+01 4.448299999999999699e+01 -1.296899999999999942e+00 1.375497000000000014e+01 2.231109049226005087e-02
-4.597800000000000153e+01 5.046699999999999875e+01 -6.552800000000000402e+00 1.503865000000000052e+01 5.108549360090725022e-02
-4.594299999999999784e+01 4.920499999999999829e+01 -1.632999999999999829e+01 4.697682000000000357e+00 -2.029951658497459732e-01
-4.594100000000000250e+01 6.047899999999999920e+01 -1.185899999999999954e+00 1.416255999999999915e+01 3.967941670825118061e-01
-4.592799999999999727e+01 6.216199999999999903e+01 -5.892299999999999649e+00 6.291357999999999784e+00 1.026753646711373313e-01
-4.591899999999999693e+01 6.176599999999999824e+01 -1.120999999999999996e+00 6.387102000000000146e+01 1.883664208731456458e-01
-4.591700000000000159e+01 6.143800000000000239e+01 -8.571699999999999875e+00 2.580074000000000112e+01 -1.007887441899294745e-01
-4.591700000000000159e+01 6.033700000000000330e+01 -1.080899999999999928e+01 4.727588999999999686e+01 -2.141915772260394868e-01
-4.591599999999999682e+01 5.372899999999999920e+01 2.252800000000000136e+00 1.108640999999999988e+00 2.614861232554915316e-01
-4.590899999999999892e+01 4.589800000000000324e+01 6.471099999999999630e-01 9.745025000000000048e+00 4.510869400161738631e-03
-4.589200000000000301e+01 6.306600000000000250e+01 -4.828700000000000436e+00 8.875225999999999615e+00 8.603645963373997285e-02
-4.587100000000000222e+01 5.515400000000000347e+01 2.526299999999999990e+00 4.930196999999999719e+00 2.263779405796833566e-01
-4.586800000000000210e+01 6.305700000000000216e+01 -1.471400000000000041e+00 1.458474000000000004e+01 1.904059870652055064e-01
-4.586500000000000199e+01 4.452300000000000324e+01 -2.736700000000000244e-01 9.666753999999999181e+00 1.410654919374417990e-02
-4.585399999999999920e+01 5.754699999999999704e+01 -7.968499999999999694e+00 2.194883000000000095e+01 -1.833463743106063942e-02
-4.585000000000000142e+01 5.644400000000000261e+01 -6.318500000000000227e+00 1.094969999999999999e+01 -5.320115893812288332e-02
-4.584499999999999886e+01 4.697999999999999687e+01 -1.443599999999999994e+01 5.506115000000000315e+00 -1.863283431404881008e-01
-4.584499999999999886e+01 4.721099999999999852e+01 -1.525099999999999945e+01 5.106050999999999895e+00 -2.868773713102805156e-01
-4.584499999999999886e+01 4.721099999999999852e+01 -1.362100000000000044e+01 4.410699000000000325e+01 -1.903134658007901159e-01
-4.584499999999999886e+01 4.853000000000000114e+01 -1.288599999999999923e+01 3.890611999999999959e+00 -2.141000411886633814e-01
-4.583599999999999852e+01 5.172500000000000142e+01 -1.586400000000000077e+01 1.704097000000000151e+01 -2.834715705694944021e-01
-4.583599999999999852e+01 5.172500000000000142e+01 -1.490600000000000058e+01 1.105383999999999922e+01 -2.913964735770974701e-01
-4.580599999999999739e+01 6.432599999999999341e+01 -3.538300000000000001e+00 6.965766999999999598e+00 7.130039014838139566e-02
-4.580599999999999739e+01 6.432599999999999341e+01 -2.487699999999999800e+00 1.193237000000000059e+01 1.983597206958190029e-01
-4.580400000000000205e+01 4.990100000000000335e+01 -1.352200000000000024e+01 1.194557000000000002e+01 -1.712921423642362606e-01
-4.580299999999999727e+01 4.608899999999999864e+01 -6.123000000000000220e+00 8.929391999999999996e+00 2.762144826101217698e-02
-4.580299999999999727e+01 4.713900000000000290e+01 -6.123000000000000220e+00 1.263532000000000011e+01 1.242134681042936575e-02
-4.579599999999999937e+01 5.047099999999999653e+01 -1.670400000000000063e+01 3.210719000000000101e+00 -1.977785841555833035e-01
-4.577499999999999858e+01 4.853000000000000114e+01 -1.608299999999999841e+01 4.294423000000000101e+00 -2.916481982520860439e-01
-4.577400000000000091e+01 5.760699999999999932e+01 -7.050399999999999778e+00 1.842060000000000031e+01 -2.524125317461817924e-02
-4.577400000000000091e+01 6.165299999999999869e+01 -7.610999999999999766e+00 1.814938000000000073e+01 1.348192980149108267e-01
-4.577400000000000091e+01 5.659599999999999653e+01 6.229999999999999982e-01 1.297621000000000002e+01 2.264181456581395580e-01
-4.574399999999999977e+01 5.498299999999999699e+01 -5.455899999999999750e+00 1.055785000000000018e+01 -7.519501857601376682e-02
-4.573499999999999943e+01 4.369500000000000028e+01 -1.473000000000000087e+00 7.317447999999999730e+00 2.558047733543981558e-02
-4.572999999999999687e+01 5.052499999999999858e+01 -1.399300000000000033e+01 4.165722999999999843e+00 -3.033924910777399675e-01
-4.570300000000000296e+01 4.402199999999999847e+01 -2.248499999999999943e+00 4.767309000000000019e+00 2.713892242971103694e-02
-4.569400000000000261e+01 5.355400000000000205e+01 -4.658999999999999808e+00 1.514798000000000044e+01 3.431359152455208672e-02
-4.569400000000000261e+01 5.442000000000000171e+01 -4.658999999999999808e+00 9.784769000000000716e+00 3.422401479457855278e-02
-4.566100000000000136e+01 6.259499999999999886e+01 -5.192300000000000360e+00 5.607076000000000171e+00 8.912469167482488241e-02
-4.564300000000000068e+01 5.253999999999999915e+01 1.077299999999999924e+00 3.153840999999999894e+00 2.602258935032188414e-01
-4.563799999999999812e+01 6.169299999999999784e+01 -6.651200000000000223e+00 1.368670999999999971e+01 1.143203253389771384e-01
-4.563799999999999812e+01 5.977900000000000347e+01 -1.127599999999999936e+00 5.310336000000000389e+00 3.973136445089743285e-01
-4.562299999999999756e+01 4.967000000000000171e+01 -6.366299999999999848e+00 1.306931999999999938e+01 3.435826783533985768e-02
-4.562299999999999756e+01 5.136999999999999744e+01 -6.366299999999999848e+00 1.408893999999999913e+01 3.571569655033158402e-02
-4.562299999999999756e+01 5.717300000000000182e+01 -8.832700000000000884e+00 1.278705000000000069e+01 -7.847936887590115790e-03
-4.559799999999999898e+01 5.176400000000000290e+01 6.383699999999999930e-01 -6.999204999999999455e-01 2.589685322152323610e-01
-4.558599999999999852e+01 5.232900000000000063e+01 -5.776299999999999990e+00 1.423883999999999972e+01 2.658633347026755425e-02
-4.558500000000000085e+01 5.703000000000000114e+01 -9.780099999999999127e+00 1.417850999999999928e+01 1.326355034956180554e-02
-4.557900000000000063e+01 5.692199999999999704e+01 -1.054599999999999937e+01 2.741798999999999964e+01 3.261453759581207923e-02
-4.557900000000000063e+01 5.715299999999999869e+01 -1.136100000000000065e+01 9.549965000000000259e+00 2.079255621952362867e-02
-4.557900000000000063e+01 5.847200000000000131e+01 -1.209600000000000009e+01 1.781438999999999950e+01 -1.905776596332136585e-01
-4.557900000000000063e+01 5.979099999999999682e+01 -1.136100000000000065e+01 9.309423999999999921e+01 -2.117236773325408827e-01
-4.557800000000000296e+01 4.550200000000000244e+01 -4.825000000000000178e+00 2.732469000000000037e+00 3.248057204545761779e-03
-4.557099999999999795e+01 4.670799999999999841e+01 7.168200000000000127e-01 1.547003999999999913e+01 -3.350427404482702546e-03
-4.556300000000000239e+01 5.030499999999999972e+01 5.449899999999999745e-01 -9.284437999999999747e+00 4.263661383291362794e-01
-4.554500000000000171e+01 5.820199999999999818e+01 -5.556699999999999973e-01 3.303525000000000045e+00 2.267990699745597305e-01
-4.553999999999999915e+01 4.504800000000000182e+01 5.763300000000000090e-01 5.693287999999999904e+00 3.473747619940183943e-03
-4.553000000000000114e+01 5.721600000000000108e+01 1.733899999999999886e-01 3.840473999999999677e+01 2.268499389177479342e-01
-4.552100000000000080e+01 4.744700000000000273e+01 6.682700000000000307e-01 1.835290000000000177e+01 -6.268045135315422796e-03
-4.552100000000000080e+01 4.907699999999999818e+01 6.682700000000000307e-01 2.123910000000000053e+01 4.261171605690639019e-01
-4.550699999999999790e+01 5.717399999999999949e+01 -6.350399999999999601e+00 1.474203999999999937e+01 -3.422563260551282627e-02
-4.550399999999999778e+01 6.014500000000000313e+01 -1.059299999999999997e+01 5.564370000000000260e+01 -2.138100243369013553e-01
-4.548299999999999699e+01 4.504800000000000182e+01 -4.051199999999999690e+00 2.649194000000000049e+00 1.727035659734221101e-02
-4.548100000000000165e+01 6.380100000000000193e+01 -4.388300000000000090e+00 9.838582999999999856e+00 7.561639182529542036e-02
-4.548100000000000165e+01 6.380100000000000193e+01 -1.637699999999999934e+00 8.451432000000000500e+00 1.897670592647946464e-01
-4.547099999999999653e+01 4.922999999999999687e+01 -1.614099999999999824e+01 4.819926999999999850e+00 -1.972634144757037522e-01
-4.543200000000000216e+01 4.382300000000000040e+01 -5.410500000000000309e-01 7.006681000000000381e+01 1.207773939723286345e-02
-4.542900000000000205e+01 6.087199999999999989e+01 -9.037000000000000810e+00 2.721075000000000088e+01 -1.001261986602342696e-01
-4.542000000000000171e+01 5.434799999999999898e+01 2.698100000000000165e+00 1.655629000000000017e+00 2.273402533358656330e-01
-4.541700000000000159e+01 6.062700000000000244e+01 -9.882799999999999585e+00 2.307385000000000019e+01 -9.938757879259899064e-02
-4.541499999999999915e+01 6.258100000000000307e+01 -1.272699999999999942e+00 1.584479999999999933e+01 1.850644050885449921e-01
-4.540899999999999892e+01 5.578799999999999670e+01 1.934900000000000064e+00 9.121907999999999461e+00 2.269822287479142386e-01
-4.540699999999999648e+01 4.295000000000000284e+01 -1.473000000000000087e+00 7.715810000000000279e+00 2.530635169865056919e-02
-4.540599999999999881e+01 4.757200000000000273e+01 -5.632100000000000328e+00 1.298437999999999981e+01 -9.850422566136954328e-03
-4.539200000000000301e+01 6.058700000000000330e+01 -8.231299999999999173e+00 2.521693000000000140e+01 -9.974668412721127142e-02
-4.537599999999999767e+01 5.297299999999999898e+01 1.777300000000000102e+00 1.359882000000000035e+00 2.608370209377143256e-01
-4.536599999999999966e+01 4.775500000000000256e+01 -1.568999999999999950e+01 4.011373999999999995e+00 -2.884955488081136221e-01
-4.536599999999999966e+01 4.775500000000000256e+01 -1.318200000000000038e+01 2.575966999999999985e+01 -2.041664853896402454e-01
-4.536599999999999966e+01 4.930499999999999972e+01 -1.318200000000000038e+01 -3.634705999999999992e+00 -1.728011264505825983e-01
-4.536200000000000188e+01 4.654299999999999926e+01 -5.387900000000000134e+00 9.143537000000000248e+00 -7.380575662998019662e-03
-4.535699999999999932e+01 4.999199999999999733e+01 -1.616000000000000014e+01 5.884254000000000318e+00 -1.938014163966854109e-01
-4.535699999999999932e+01 5.095000000000000284e+01 -1.616000000000000014e+01 2.124058000000000135e+01 -1.929000135883779388e-01
-4.535699999999999932e+01 5.095000000000000284e+01 -1.460999999999999943e+01 4.192206999999999795e+01 -2.927697457075442711e-01
-4.534199999999999875e+01 4.328600000000000136e+01 -2.248000000000000220e+00 4.605366000000000071e+00 2.589366754437927298e-02
-4.534199999999999875e+01 4.328600000000000136e+01 -6.979999999999999538e-01 2.650612999999999886e+01 1.538372486722964193e-02
-4.534100000000000108e+01 5.610499999999999687e+01 1.019600000000000062e+00 1.569847999999999999e+01 2.273282892966628221e-01
-4.532699999999999818e+01 4.446500000000000341e+01 -3.178100000000000147e+00 5.042855000000000310e+00 1.458709339151528263e-02
-4.529699999999999704e+01 5.398700000000000188e+01 -4.168000000000000149e+00 1.362105000000000032e+01 4.145362348236186767e-02
-4.529500000000000171e+01 5.106400000000000006e+01 5.800800000000000400e-01 -5.020368000000000386e+00 2.578496217626233267e-01
-4.529299999999999926e+01 5.582000000000000028e+01 -5.789299999999999891e+00 9.113766000000000034e+00 -5.899954613360882533e-02
-4.529200000000000159e+01 5.128600000000000136e+01 -1.538499999999999979e+01 1.895280999999999949e+02 -2.840209673236843146e-01
-4.526400000000000290e+01 4.981199999999999761e+01 -1.374699999999999989e+01 -1.159645000000000037e+00 -1.666929848265125969e-01
-4.526100000000000279e+01 5.285399999999999920e+01 -4.926300000000000345e+00 2.661778999999999940e+01 3.603522236624308317e-02
-4.523799999999999955e+01 4.953699999999999903e+01 6.290900000000000380e-01 1.209983000000000075e+01 4.264951927107866192e-01
-4.522800000000000153e+01 6.210399999999999920e+01 -5.588899999999999757e+00 2.506791999999999909e+00 9.132003513574797615e-02
-4.520499999999999829e+01 6.047899999999999920e+01 -1.395000000000000018e+00 2.126166999999999874e+01 2.091135272743104567e-01
-4.520000000000000284e+01 6.109000000000000341e+01 -7.221199999999999619e+00 1.585270000000000046e+01 1.228909181333184553e-01
-4.513199999999999790e+01 5.523599999999999710e+01 -4.979099999999999859e+00 1.104359999999999964e+01 -5.953544434122844814e-02
-4.513100000000000023e+01 4.826200000000000045e+01 5.661100000000000021e-01 2.561750999999999934e+01 -1.265660695722657138e-02
-4.511200000000000188e+01 5.771099999999999852e+01 -1.590699999999999892e-01 1.244861000000000040e+01 2.277227924691825334e-01
-4.511200000000000188e+01 5.890200000000000102e+01 -8.230499999999999483e-01 -1.849795999999999940e-01 2.236571776508019804e-01
-4.510900000000000176e+01 4.898199999999999932e+01 -6.057400000000000340e+00 1.659562999999999988e+01 5.396109859922284396e-02
-4.510799999999999699e+01 5.184400000000000119e+01 -6.165600000000000414e+00 1.213531000000000049e+01 3.299951240606353864e-02
-4.510699999999999932e+01 6.195100000000000051e+01 -1.315299999999999914e+00 2.803359999999999985e+01 1.815797551762003414e-01
-4.510300000000000153e+01 4.827199999999999847e+01 -5.690400000000000347e+00 1.366732999999999976e+01 2.743571816363952753e-01
-4.510000000000000142e+01 5.769700000000000273e+01 -1.180000000000000071e+01 1.743507999999999925e+01 -1.747098688705664427e-01
-4.510000000000000142e+01 5.924699999999999989e+01 -1.180000000000000071e+01 2.113882999999999868e+01 -2.068019480186435999e-01
-4.509799999999999898e+01 5.052000000000000313e+01 -6.690999999999999837e+00 9.947331999999999397e+00 5.561654119588951145e-02
-4.508500000000000085e+01 4.673199999999999932e+01 -4.548000000000000043e+00 1.866150999999999982e+01 -2.725122959149661045e-02
-4.508299999999999841e+01 6.009499999999999886e+01 -8.848599999999999355e+00 2.993223000000000056e+01 -9.887757352742029826e-02
-4.507999999999999829e+01 4.442199999999999704e+01 2.190999999999999892e-01 6.335701000000000249e+00 -2.978900896082649634e-04
-4.507399999999999807e+01 5.766499999999999915e+01 -6.746999999999999886e+00 1.498601000000000028e+01 -1.808552722012784011e-02
-4.507000000000000028e+01 4.727600000000000335e+01 -1.491499999999999915e+01 4.617426000000000030e+00 -2.788037258650176708e-01
-4.507000000000000028e+01 4.727600000000000335e+01 -1.395700000000000074e+01 2.133915000000000006e+01 -2.714043191422317314e-01
-4.506099999999999994e+01 5.047099999999999653e+01 -1.538499999999999979e+01 4.490142999999999773e+01 -1.908029940037078154e-01
-4.505100000000000193e+01 5.349799999999999756e+01 2.627299999999999969e+00 6.946436999999999751e-01 2.614371553524371672e-01
-4.505100000000000193e+01 5.519800000000000040e+01 2.627299999999999969e+00 4.474033000000000371e+00 2.275728984587912507e-01
-4.503000000000000114e+01 4.853000000000000114e+01 -1.575500000000000078e+01 -2.588556000000000190e-01 -2.836574826949560535e-01
-4.503000000000000114e+01 4.853000000000000114e+01 -1.311700000000000088e+01 -6.284883999999999915e+00 -2.075285380501878107e-01
-4.502700000000000102e+01 4.642799999999999727e+01 -3.847999999999999865e+00 2.726993999999999829e+01 -3.280468650388311536e-02
-4.501500000000000057e+01 4.589800000000000324e+01 9.010000000000000231e-01 1.576492999999999967e+01 -7.780023691376985670e-03
-4.499600000000000222e+01 5.021399999999999864e+01 -1.460999999999999943e+01 2.164340999999999937e+01 -1.561041822212234087e-01
-4.499399999999999977e+01 5.328699999999999903e+01 -4.226300000000000168e+00 1.975357999999999947e+01 4.386549493831142649e-02
-4.499399999999999977e+01 5.468699999999999761e+01 -4.226300000000000168e+00 1.815095000000000169e+01 -5.562946291653964037e-02
-4.497999999999999687e+01 5.798199999999999932e+01 -8.446500000000000341e+00 1.850822000000000145e+01 9.447255741248279659e-03
-4.496999999999999886e+01 5.786399999999999721e+01 -7.409699999999999953e+00 1.411206999999999923e+01 -7.104042523997716393e-03
-4.496900000000000119e+01 4.371099999999999852e+01 -8.135699999999999876e-02 3.020393999999999934e+01 2.494206038194472005e-03
-4.496399999999999864e+01 5.758299999999999841e+01 -9.272500000000000853e+00 1.226459000000000010e+01 2.198406030172920383e-02
-4.496200000000000330e+01 4.547299999999999898e+01 -3.612000000000000099e+00 5.958893999999999913e+00 -1.130708730287536927e-02
-4.495900000000000318e+01 5.206600000000000250e+01 9.665000000000000258e-01 -3.126978999999999953e+00 2.598331481617782157e-01
-4.495600000000000307e+01 6.295100000000000051e+01 -1.312999999999999945e+00 5.525844000000000200e+00 1.817862044618538397e-01
-4.495600000000000307e+01 6.306600000000000250e+01 -4.828700000000000436e+00 5.804871000000000336e+00 7.506756145391835222e-02
-4.495600000000000307e+01 6.439700000000000557e+01 -3.906699999999999839e+00 4.180077999999999960e+00 6.405328437769246264e-02
-4.495600000000000307e+01 6.439700000000000557e+01 -2.119299999999999962e+00 8.796706999999999610e+00 1.893803729539761671e-01
-4.495600000000000307e+01 6.465099999999999625e+01 -3.012999999999999901e+00 4.327632999999999619e+00 1.960705160181129003e-01
-4.493800000000000239e+01 6.163499999999999801e+01 -6.347800000000000331e+00 -3.787014999999999798e+00 1.026417541581485376e-01
-4.493800000000000239e+01 4.955899999999999750e+01 -1.546000000000000085e+01 9.263915000000000788e+00 -1.897279033495912481e-01
-4.491499999999999915e+01 4.373199999999999932e+01 -2.898000000000000131e+00 4.213637000000000299e+00 7.803598472535383350e-03
-4.490800000000000125e+01 5.659599999999999653e+01 6.229999999999999982e-01 1.670121999999999929e+01 2.282108090146494350e-01
-4.490100000000000335e+01 6.018999999999999773e+01 -7.798700000000000188e+00 1.857804000000000144e+01 -6.494450796550217675e-02
-4.487599999999999767e+01 5.641599999999999682e+01 -6.087900000000000311e+00 8.669931000000000054e+00 -4.202622898885411545e-02
-4.487299999999999756e+01 5.936500000000000199e+01 -8.660299999999999443e+00 2.952441999999999922e+01 -1.638373722076386929e-01
-4.486299999999999955e+01 4.251100000000000279e+01 -1.951999999999999957e+00 4.115664999999999907e+00 1.814614094369342359e-02
-4.486299999999999955e+01 4.251100000000000279e+01 -9.940200000000000147e-01 4.052370999999999945e+00 1.266038063893843227e-02
-4.483100000000000307e+01 5.977900000000000347e+01 -1.239900000000000002e+00 5.626624999999999943e+01 2.139067308689479030e-01
-4.481499999999999773e+01 5.966799999999999926e+01 -7.960300000000000153e+00 2.195880999999999972e+01 1.316128979655996900e-01
-4.480400000000000205e+01 5.721800000000000352e+01 -1.102500000000000036e+01 1.336894000000000027e+01 3.579336784714441666e-02
-4.480400000000000205e+01 5.721800000000000352e+01 -1.006700000000000017e+01 1.342580000000000062e+01 4.382974362982040850e-02
-4.480400000000000205e+01 5.972599999999999909e+01 -1.102500000000000036e+01 5.920239000000000118e+01 -2.147633176054318527e-01
-4.479299999999999926e+01 4.744800000000000040e+01 5.180399999999999450e-01 2.125541000000000125e+01 -1.557769679631357609e-02
-4.476500000000000057e+01 4.492499999999999716e+01 6.036500000000000199e-01 8.594281999999999755e+00 -7.919917972223940519e-03
-4.476400000000000290e+01 5.847200000000000131e+01 -1.186500000000000021e+01 1.204067000000000043e+01 -1.915217986724093713e-01
-4.476400000000000290e+01 5.030499999999999972e+01 7.720000000000000195e-01 -1.716654000000000124e+01 4.272192658878641858e-01
-4.469899999999999807e+01 5.978300000000000125e+01 -1.007199999999999918e+01 4.419303000000000026e+01 -2.100564418796153077e-01
-4.467900000000000205e+01 5.820199999999999818e+01 -5.556699999999999973e-01 2.072331000000000145e+01 2.281840828794509390e-01
-4.467000000000000171e+01 4.757200000000000273e+01 -5.423000000000000043e+00 1.373629999999999995e+01 -3.554049735316076875e-02
-4.466100000000000136e+01 6.124600000000000222e+01 -1.590999999999999970e+00 5.060328000000000159e+00 3.991859244213714075e-01
-4.464200000000000301e+01 5.717399999999999949e+01 -6.350399999999999601e+00 1.146738999999999997e+01 -2.307549664290673222e-02
-4.463600000000000279e+01 5.245199999999999818e+01 -5.439600000000000435e+00 2.007152999999999921e+01 3.878484279167153381e-02
-4.462400000000000233e+01 6.258500000000000085e+01 -5.208800000000000097e+00 -8.457012999999999892e-01 7.676235545691800777e-02
-4.459799999999999898e+01 4.884499999999999886e+01 4.234200000000000186e-01 1.786191000000000173e+01 2.350616270763120075e-01
-4.459400000000000119e+01 5.133500000000000085e+01 -6.539299999999999891e+00 1.649267000000000039e+01 4.620797656094859096e-02
-4.459400000000000119e+01 4.712800000000000011e+01 -4.115400000000000169e+00 2.707032999999999845e+01 -4.579407596481836068e-02
-4.459100000000000108e+01 4.805100000000000193e+01 -1.521100000000000030e+01 6.085918000000000383e+00 -2.769312062830117105e-01
-4.459100000000000108e+01 4.805100000000000193e+01 -1.366099999999999959e+01 2.111652000000000129e+01 -2.807303354711766508e-01
-4.459100000000000108e+01 4.900900000000000034e+01 -1.521100000000000030e+01 4.021229999999999905e+01 -1.863623423178287219e-01
-4.459100000000000108e+01 4.900900000000000034e+01 -1.366099999999999959e+01 1.847192000000000078e+01 -1.636051391737083638e-01
-4.457099999999999795e+01 5.584300000000000352e+01 -5.428499999999999659e+00 1.168670000000000009e+01 -4.644650540344799627e-02
-4.456700000000000017e+01 4.299000000000000199e+01 -2.726999999999999869e+00 4.894530999999999743e+00 4.524028958655321175e-03
-4.456700000000000017e+01 4.299000000000000199e+01 -2.190199999999999925e-01 1.729960000000000164e+01 -8.250680859633732018e-05
-4.456499999999999773e+01 4.503999999999999915e+01 -3.121100000000000207e+00 7.673478000000000243e+00 -2.245756987632340634e-02
-4.456099999999999994e+01 5.279599999999999937e+01 -4.622899999999999565e+00 2.253111000000000175e+01 4.542070384327007160e-02
-4.456099999999999994e+01 5.398700000000000188e+01 -3.959000000000000075e+00 1.649082999999999899e+01 2.783667590597833641e-01
-4.456099999999999994e+01 5.517799999999999727e+01 -4.622899999999999565e+00 1.478101999999999983e+01 -4.996402498897721534e-02
-4.453399999999999892e+01 5.713499999999999801e+01 2.743099999999999983e-01 3.823376999999999981e+01 2.289950847189783367e-01
-4.452600000000000335e+01 4.771500000000000341e+01 -1.443599999999999994e+01 8.001879000000000630e+00 -2.707874795864415596e-01
-4.452600000000000335e+01 4.934499999999999886e+01 -1.443599999999999994e+01 1.060110999999999990e+02 -1.533177819670341890e-01
-4.452600000000000335e+01 5.290200000000000102e+01 2.145700000000000163e+00 1.917364999999999986e+00 2.610044446713614130e-01
-4.452600000000000335e+01 5.434799999999999898e+01 2.951999999999999957e+00 7.898640000000000105e-01 3.719955474296953168e-01
-4.452600000000000335e+01 5.579399999999999693e+01 2.145700000000000163e+00 8.379585999999999757e+00 2.283634439215777578e-01
-4.452600000000000335e+01 5.615100000000000335e+01 1.343099999999999961e+00 9.341201999999999117e+00 2.287060290300595433e-01
-4.451800000000000068e+01 4.725099999999999767e+01 -5.027000000000000135e+00 9.486117000000000132e+00 -4.409348291417231058e-02
-4.449000000000000199e+01 4.674799999999999756e+01 5.763300000000000090e-01 1.705326000000000164e+01 -1.808838453560063231e-02
-4.448400000000000176e+01 5.840400000000000347e+01 -8.990000000000000213e+00 3.763521000000000072e+01 -1.569900318588342836e-01
-4.446900000000000119e+01 6.206900000000000261e+01 -5.857099999999999973e+00 -1.183488999999999969e+01 8.683252684594348902e-02
-4.446900000000000119e+01 5.254500000000000171e+01 1.343099999999999961e+00 1.337800000000000100e+00 2.608670808987579859e-01
-4.444700000000000273e+01 5.139999999999999858e+01 5.647100000000000453e-01 -4.609004999999999797e+01 2.589684485592750329e-01
-4.444599999999999795e+01 4.586800000000000210e+01 -3.268200000000000216e+00 2.076839999999999975e+01 -3.226705698454727933e-02
-4.443099999999999739e+01 6.380100000000000193e+01 -4.388300000000000090e+00 1.058793000000000006e+01 6.111558276837034814e-02
-4.443099999999999739e+01 6.380100000000000193e+01 -1.637699999999999934e+00 3.876195000000000057e+00 1.799683470914263950e-01
-4.441799999999999926e+01 6.010099999999999909e+01 -7.469400000000000261e+00 1.033341000000000065e+01 -6.547789052365635132e-02
-4.441100000000000136e+01 5.858899999999999864e+01 -7.776699999999999946e+00 1.577820000000000000e+01 1.160459158052118828e-01
-4.436200000000000188e+01 6.050600000000000023e+01 -1.530299999999999994e+00 1.135388000000000019e+01 4.004028650797907818e-01
-4.434899999999999665e+01 5.891499999999999915e+01 -8.247799999999999798e+00 1.577820000000000000e+01 -1.639078130837498259e-01
-4.434499999999999886e+01 4.453999999999999915e+01 -3.087699999999999889e+00 3.615709999999999980e+00 -2.650247315059177725e-02
-4.433299999999999841e+01 4.422500000000000142e+01 3.362700000000000133e-01 -5.203707999999999778e+00 -1.206741876391037929e-02
-4.432800000000000296e+01 4.811200000000000188e+01 1.143600000000000033e-01 1.304341999999999935e+01 2.370848342553254773e-01
-4.432699999999999818e+01 4.669599999999999795e+01 -3.415399999999999991e+00 1.370168999999999926e+01 -5.557983292270659431e-02
-4.432500000000000284e+01 5.799300000000000210e+01 -1.132099999999999973e+01 1.113076000000000043e+01 -1.792413924244861401e-01
-4.432500000000000284e+01 5.799300000000000210e+01 -9.771000000000000796e+00 3.075103000000000009e+01 -1.478810719399744067e-01
-4.432500000000000284e+01 5.895100000000000051e+01 -1.132099999999999973e+01 1.954600999999999900e+01 -2.023075593751414991e-01
-4.432500000000000284e+01 5.895100000000000051e+01 -9.771000000000000796e+00 1.498577999999999975e+02 -1.956314193367070242e-01
-4.429500000000000171e+01 4.853000000000000114e+01 -1.443599999999999994e+01 4.000536000000000314e+01 -1.521784724328630600e-01
-4.429399999999999693e+01 4.954500000000000171e+01 4.817100000000000271e-01 -8.761860999999999677e+00 4.274409154422768031e-01
-4.426599999999999824e+01 6.206499999999999773e+01 -1.579599999999999893e+00 4.186079999999999579e+00 3.989825301213446029e-01
-4.425999999999999801e+01 5.765699999999999648e+01 -1.054599999999999937e+01 1.229940999999999995e+01 -1.716364715922338025e-01
-4.425999999999999801e+01 5.928699999999999903e+01 -1.054599999999999937e+01 4.026214999999999833e+01 -2.059947215338110704e-01
-4.425800000000000267e+01 6.078600000000000136e+01 -6.689000000000000057e+00 3.269979000000000191e+00 1.034099724738216375e-01
-4.424600000000000222e+01 5.052300000000000324e+01 -6.846000000000000085e+00 8.870269999999999655e+00 6.483385121316051491e-02
-4.424300000000000210e+01 4.898199999999999932e+01 -6.057400000000000340e+00 1.368293000000000070e+01 2.634049200307732597e-01
-4.423700000000000188e+01 4.827199999999999847e+01 -5.690400000000000347e+00 7.650837000000000110e+00 2.712432668517845147e-01
-4.419800000000000040e+01 5.185000000000000142e+01 -6.158299999999999663e+00 1.081193999999999988e+01 4.574770272369875490e-02
-4.417999999999999972e+01 5.197999999999999687e+01 5.615200000000000191e-01 -9.094224999999999781e+00 2.604007387771593574e-01
-4.414300000000000068e+01 5.815599999999999881e+01 -7.076699999999999768e+00 1.432565999999999917e+01 5.235133012908092451e-03
-4.412800000000000011e+01 5.328699999999999903e+01 -4.226300000000000168e+00 2.034724999999999895e+01 2.794192052746294896e-01
-4.412800000000000011e+01 5.468699999999999761e+01 -4.226300000000000168e+00 1.923767000000000138e+01 -4.572059506927680234e-02
-4.412100000000000222e+01 4.589800000000000324e+01 6.471099999999999630e-01 1.755578999999999823e+01 -1.841676730928715547e-02
-4.411500000000000199e+01 5.940100000000000335e+01 -7.527599999999999625e+00 1.473625999999999969e+01 1.313225445248054901e-01
-4.410600000000000165e+01 6.432599999999999341e+01 -3.538300000000000001e+00 5.615371999999999808e+00 1.901484625741794443e-01
-4.410600000000000165e+01 6.432599999999999341e+01 -2.487699999999999800e+00 2.527559000000000111e+00 1.823619086475439244e-01
-4.408800000000000097e+01 4.221500000000000341e+01 -1.473000000000000087e+00 3.100995999999999864e+00 -3.749090109937412100e-03
-4.408800000000000097e+01 4.244599999999999795e+01 -2.287900000000000045e+00 3.865149999999999864e+00 -6.550527389292622009e-03
-4.408800000000000097e+01 4.244599999999999795e+01 -6.581200000000000383e-01 2.488122000000000167e+00 -5.938702160053381703e-03
-4.408800000000000097e+01 4.368999999999999773e+01 1.999900000000000011e-01 -4.210707000000000200e+00 -1.367839265139158059e-02
-4.408800000000000097e+01 4.376500000000000057e+01 -3.023000000000000131e+00 3.566981000000000179e+00 -2.798140641268085857e-02
-4.407999999999999829e+01 4.985699999999999932e+01 -6.673499999999999766e+00 7.923093999999999859e+00 7.447344156758435585e-02
-4.407999999999999829e+01 5.663300000000000267e+01 5.531399999999999650e-01 2.074257000000000062e+01 2.300734808706646484e-01
-4.406199999999999761e+01 6.295100000000000051e+01 -1.566899999999999959e+00 5.512318999999999747e+00 1.732539483127232827e-01
-4.402900000000000347e+01 5.847200000000000131e+01 -1.054599999999999937e+01 4.292484999999999928e+01 -1.889939523535751897e-01
-4.400099999999999767e+01 5.349799999999999756e+01 2.627299999999999969e+00 8.449273000000000478e-01 2.030795043840904479e-01
-4.400099999999999767e+01 5.519800000000000040e+01 2.627299999999999969e+00 1.227055999999999925e+00 2.038588623939422695e-01
-4.399900000000000233e+01 6.153600000000000136e+01 -6.287700000000000067e+00 -7.260126999999999775e+00 9.034045797933042132e-02
-4.399099999999999966e+01 6.303600000000000136e+01 -4.522000000000000242e+00 2.943827000000000194e+00 1.938094403573407953e-01
-4.399000000000000199e+01 5.778300000000000125e+01 9.661400000000000543e-02 5.760785000000000267e+00 2.273075277077340473e-01
-4.397299999999999898e+01 5.565899999999999892e+01 -5.313900000000000290e+00 1.048171999999999926e+01 -3.900625138920860852e-02
-4.396500000000000341e+01 5.030499999999999972e+01 5.449899999999999745e-01 -7.591231999999999402e+01 4.280728845375415537e-01
-4.394800000000000040e+01 4.734300000000000352e+01 1.327000000000000124e-01 1.577882999999999925e+01 -2.109732366473675985e-02
-4.393299999999999983e+01 5.908200000000000074e+01 -7.700700000000000323e-01 7.106787999999999883e+00 2.153001456668532099e-01
-4.389399999999999835e+01 6.095300000000000296e+01 -2.064900000000000180e+00 -1.207594999999999974e+00 3.999255696849025599e-01
-4.389399999999999835e+01 4.599600000000000222e+01 -3.148000000000000131e+00 1.170364000000000004e+01 -5.018382423987270691e-02
-4.389399999999999835e+01 4.718599999999999994e+01 -3.811999999999999833e+00 2.503989999999999938e+01 -6.676709175766173954e-02
-4.389399999999999835e+01 4.739600000000000080e+01 -4.548000000000000043e+00 9.018133000000000621e+00 -6.573046120318284946e-02
-4.388700000000000045e+01 4.815599999999999881e+01 -2.060500000000000109e-01 2.224861999999999895e+01 1.363048097276038928e-01
-4.388700000000000045e+01 4.902100000000000080e+01 -2.060500000000000109e-01 9.834849999999999426e+00 1.327552795633553939e-01
-4.382900000000000063e+01 4.503999999999999915e+01 -2.911999999999999922e+00 4.980617999999999768e+00 -4.873057680274837239e-02
-4.381300000000000239e+01 5.635699999999999932e+01 -6.092800000000000438e+00 9.215184999999999960e+00 -2.413540571364912457e-02
