3.296999999999999886e+01 2.876599999999999824e+01 -9.314300000000000068e+01 3.523948000000000036e+01 -2.270316040607423813e-01
3.297099999999999653e+01 2.270799999999999841e+01 -1.201400000000000006e+02 -5.082042999999999644e+00 -3.499999999999999778e-01
3.297800000000000153e+01 7.789900000000000269e+00 -1.067600000000000051e+02 4.466001000000000332e+00 -1.461854937013558342e-01
3.298100000000000165e+01 5.775299999999999656e+00 -1.013599999999999994e+02 -5.040557999999999872e+00 -1.462784141634939639e-01
3.298599999999999710e+01 6.814700000000000202e+00 -1.048599999999999994e+02 5.529289000000000343e+00 -1.460488439156480966e-01
3.299600000000000222e+01 2.179699999999999971e+00 -1.070999999999999943e+02 -9.793908999999999310e+00 7.702728728273183778e-02
3.299600000000000222e+01 2.179699999999999971e+00 -1.062399999999999949e+02 -1.163785999999999987e+01 7.768052131100890156e-02
3.300000000000000000e+01 3.507099999999999795e+01 -1.168400000000000034e+02 2.715930000000000177e+01 -2.369899718674507993e-01
3.300099999999999767e+01 1.952700000000000102e+01 -1.219200000000000017e+02 -5.637412999999999563e+00 -1.396909903788345064e-01
3.300300000000000011e+01 -1.567999999999999972e+01 -1.007999999999999972e+02 -6.340772000000000297e+00 4.377003124784114435e-02
3.300300000000000011e+01 3.406700000000000017e+01 -9.606600000000000250e+01 7.620701999999999643e+00 -2.232465567260989991e-01
3.300500000000000256e+01 -1.920400000000000063e+01 -9.507899999999999352e+01 -1.361115000000000030e+01 -1.677243430543260139e-01
3.300500000000000256e+01 -4.708599999999999675e+00 -1.242500000000000000e+02 -7.467647999999999620e+00 -4.750983699375373182e-02
3.300800000000000267e+01 -2.763900000000000023e+00 -8.998000000000000398e+01 1.620983999999999980e+01 -1.587716952621490152e-02
3.301100000000000279e+01 4.589699999999999891e-01 -1.250699999999999932e+02 -1.799063000000000079e+00 7.200086572917926975e-02
3.301700000000000301e+01 4.642699999999999605e+00 -1.021200000000000045e+02 -1.736042000000000129e+01 7.783648499169132373e-02
3.301800000000000068e+01 3.246800000000000352e+01 -9.335099999999999909e+01 -4.662827000000000055e+00 -2.198526879403072676e-01
3.302300000000000324e+01 4.190999999999999837e+00 -8.632099999999999795e+01 -1.265762999999999927e+01 -1.502406788652698444e-01
3.302499999999999858e+01 1.706500000000000128e+01 -1.233299999999999983e+02 4.285112999999999950e+00 -1.559894247769974818e-01
3.302499999999999858e+01 -2.041700000000000070e+00 -1.261500000000000057e+02 -1.884131000000000000e+00 -4.694104593869010550e-02
3.302799999999999869e+01 2.400700000000000145e+01 -1.192699999999999960e+02 -1.938344000000000023e+01 -3.499999999999999778e-01
3.302900000000000347e+01 -5.657700000000000173e+00 -9.062399999999999523e+01 -1.752682000000000073e+01 -4.301209841428191294e-02
3.302900000000000347e+01 -4.792399999999999771e+00 -9.062399999999999523e+01 -3.593973999999999780e+00 -3.620432920778800245e-02
3.303300000000000125e+01 5.033000000000000362e+00 -1.085199999999999960e+02 -1.125816000000000017e+01 -1.432707695430569805e-01
3.303499999999999659e+01 1.916700000000000159e+01 -1.074500000000000028e+02 1.850685000000000002e+01 -1.519446039816166327e-01
3.303499999999999659e+01 3.613400000000000034e+01 -1.132300000000000040e+02 5.435945999999999856e+01 -2.357141430311693875e-01
3.304500000000000171e+01 3.087399999999999878e+01 -9.342799999999999727e+01 -2.010179000000000116e+01 -2.226316519638016356e-01
3.304699999999999704e+01 -1.628500000000000014e+01 -8.502800000000000580e+01 4.730105999999999966e+01 -8.329747349006592916e-02
3.305100000000000193e+01 -7.960199999999999498e-01 -1.257800000000000011e+02 -2.080188999999999844e+00 7.229724235337864346e-02
3.305899999999999750e+01 2.665000000000000036e+00 -1.259800000000000040e+02 -3.345695000000000086e+00 7.120610014966989587e-02
3.306099999999999994e+01 1.794999999999999929e+00 -1.160799999999999983e+02 4.368697000000000230e+01 7.327877003921286214e-02
3.306099999999999994e+01 3.345000000000000195e+00 -1.160799999999999983e+02 9.658688999999999680e+01 7.244082393083922655e-02
3.306199999999999761e+01 3.164799999999999969e+01 -1.005000000000000000e+02 9.331103000000000591e+00 -2.298106929309807200e-01
3.306499999999999773e+01 4.438299999999999884e-02 -1.234599999999999937e+02 -4.076459999999999972e+00 7.241043475201794366e-02
3.306600000000000250e+01 -9.153900000000000370e-01 -8.966200000000000614e+01 1.523144000000000053e+00 -3.911857565782266878e-03
3.307099999999999795e+01 3.765100000000000335e+01 -1.084800000000000040e+02 -2.416669000000000178e+00 -3.649966336280758838e-01
3.307900000000000063e+01 -6.925300000000000011e+00 -8.965500000000000114e+01 -1.018670000000000009e+01 -5.196146878439089623e-02
3.308700000000000330e+01 3.952000000000000313e+01 -1.128599999999999994e+02 1.159545999999999921e+01 -3.647235452202152173e-01
3.308700000000000330e+01 2.446600000000000108e+01 -1.183100000000000023e+02 -1.638839000000000112e+01 -3.500000000000000333e-01
3.308700000000000330e+01 -1.753900000000000148e+01 -8.682599999999999341e+01 1.154090000000000060e+01 -7.582658534732049371e-02
3.308700000000000330e+01 -1.753900000000000148e+01 -8.586799999999999500e+01 1.434317000000000064e+01 -7.810850231269639288e-02
3.308700000000000330e+01 -5.961100000000000065e+00 -8.992400000000000659e+01 -1.464860999999999969e+01 -4.454130012991562582e-02
3.308800000000000097e+01 8.612999999999999545e+00 -8.399500000000000455e+01 2.248692000000000135e+00 -1.148492824410518587e-01
3.308800000000000097e+01 1.031300000000000061e+01 -8.399500000000000455e+01 1.905880000000000152e+01 -6.647671757459601427e-02
3.308800000000000097e+01 6.160000000000000142e+00 -8.638899999999999579e+01 -1.408413000000000004e+01 -1.466259459382504293e-01
3.309000000000000341e+01 1.478500000000000014e+01 -1.238100000000000023e+02 -3.457000999999999991e+00 -1.568397242448616447e-01
3.309000000000000341e+01 -1.464799999999999969e+01 -1.012699999999999960e+02 -5.238032999999999717e+00 4.272076334540870352e-02
3.309300000000000352e+01 2.627199999999999847e+01 -1.171899999999999977e+02 -9.367888000000000659e+00 -3.499999999999999778e-01
3.309300000000000352e+01 7.168400000000000105e+00 -9.304800000000000182e+01 -1.692492999999999981e+01 -1.702264127983398323e-01
3.309499999999999886e+01 3.751200000000000045e+01 -1.030499999999999972e+02 3.436260000000000048e+01 -3.653571797739444960e-01
3.310099999999999909e+01 2.625700000000000145e+01 -9.459600000000000364e+01 3.330210000000000292e+01 -2.334274845537623599e-01
3.310099999999999909e+01 -1.323099999999999987e+01 -1.066800000000000068e+02 -2.361151000000000000e+00 4.054459906733507563e-02
3.310099999999999909e+01 -1.323099999999999987e+01 -1.056299999999999955e+02 -2.475578000000000056e+00 4.066381209529289914e-02
3.310099999999999909e+01 2.460900000000000176e+01 -9.477899999999999636e+01 -3.511232999999999826e+00 -2.365701794133021063e-01
3.310099999999999909e+01 1.286100000000000065e+01 -8.643699999999999761e+01 4.986307000000000045e+01 -1.124434887085471457e-01
3.310399999999999920e+01 4.846000000000000085e+00 -1.160499999999999972e+02 3.480924000000000262e+01 -1.421609471876968400e-01
3.310600000000000165e+01 1.806700000000000017e+01 -1.223599999999999994e+02 8.047572999999999865e+00 -1.416281815734815597e-01
3.310900000000000176e+01 6.600999999999999979e+00 -1.267500000000000000e+02 -4.962144999999999584e+00 -1.419594402249001741e-01
3.310900000000000176e+01 1.595699999999999896e+00 -1.226800000000000068e+02 -4.436670999999999587e+00 7.200540097891822144e-02
3.311299999999999955e+01 -1.342200000000000060e+01 -1.019899999999999949e+02 -4.564651999999999710e+00 4.154049338485267528e-02
3.311500000000000199e+01 3.439399999999999835e+01 -9.264499999999999602e+01 -2.028150000000000119e+01 -2.172789423367675332e-01
3.311500000000000199e+01 3.278199999999999648e+01 -1.185000000000000000e+02 -8.848295000000000465e-01 -2.377602133920028726e-01
3.312100000000000222e+01 -2.548500000000000210e+00 -1.223299999999999983e+02 -3.897684000000000282e+01 -4.700320301758843106e-02
3.312299999999999756e+01 3.679999999999999938e-01 -8.891800000000000637e+01 1.472119999999999962e+01 3.815010175516283554e-03
3.313499999999999801e+01 2.379400000000000048e+01 -9.234600000000000364e+01 -2.217874000000000123e+01 -2.403447569969334174e-01
3.313700000000000045e+01 2.347700000000000031e+01 -9.402100000000000080e+01 2.317190000000000083e+01 -2.391409097990423727e-01
3.313700000000000045e+01 2.347700000000000031e+01 -9.315600000000000591e+01 -1.093967999999999918e+01 -2.399734693696583820e-01
3.313799999999999812e+01 4.167399999999999949e+01 -1.122199999999999989e+02 1.387191999999999936e+01 -3.646643176714868262e-01
3.314000000000000057e+01 1.633299999999999841e+01 -8.523000000000000398e+01 3.413857999999999837e+00 -3.614607991098419126e-01
3.314399999999999835e+01 8.173299999999999343e+00 -1.263100000000000023e+02 1.964340999999999937e+01 -1.423884005936573716e-01
3.314500000000000313e+01 3.428999999999999915e+01 -1.179800000000000040e+02 6.095838999999999785e+00 -2.374286754045012715e-01
3.314600000000000080e+01 2.519800000000000040e+01 -1.174800000000000040e+02 -8.379557999999999396e+00 -3.499999999999999778e-01
3.314699999999999847e+01 -1.240499999999999936e+01 -8.706199999999999761e+01 -3.343576000000000192e+01 3.446589870402778921e-02
3.314900000000000091e+01 2.244800000000000040e+01 -9.049299999999999500e+01 -2.138310999999999851e+01 -2.462078421069653911e-01
3.314900000000000091e+01 2.265700000000000003e+01 -9.122899999999999920e+01 -3.506564000000000192e+01 -2.443473446757325751e-01
3.314900000000000091e+01 2.265700000000000003e+01 -8.975700000000000500e+01 -1.496260000000000012e+01 -1.699009275740005487e-01
3.315200000000000102e+01 6.865000000000000213e+00 -9.374800000000000466e+01 -1.485131999999999941e+01 -1.543171448658892941e-01
3.315400000000000347e+01 3.562400000000000233e+01 -9.440800000000000125e+01 -1.515338000000000029e+01 -3.666232065490030445e-01
3.315400000000000347e+01 3.562400000000000233e+01 -9.346800000000000352e+01 -3.809765999999999764e+01 -3.667938751318827739e-01
3.315400000000000347e+01 3.294200000000000017e+01 -9.840800000000000125e+01 6.814790999999999599e+00 -2.270929376736818273e-01
3.315500000000000114e+01 -5.777999999999999581e+00 -1.100000000000000000e+02 1.104673999999999978e+01 -4.818558546181729574e-02
3.315699999999999648e+01 5.940000000000000391e+00 -1.099899999999999949e+02 -2.506460000000000132e+00 -1.435505443822883143e-01
3.315800000000000125e+01 3.988900000000000290e+01 -1.137099999999999937e+02 7.739575999999999567e+00 -3.646795260778906700e-01
3.315800000000000125e+01 3.988900000000000290e+01 -1.120100000000000051e+02 7.047852999999999923e+00 -3.647417674487888339e-01
3.315800000000000125e+01 4.093900000000000006e+01 -1.120100000000000051e+02 1.103167000000000009e+01 -3.647007416747546360e-01
3.315899999999999892e+01 3.106200000000000117e+01 -1.182800000000000011e+02 -3.748531999999999975e+00 -3.499999999999999778e-01
3.315899999999999892e+01 4.030400000000000205e+01 -1.141899999999999977e+02 5.470112999999999559e+00 -3.646492680609018655e-01
3.316299999999999670e+01 -1.196199999999999974e+01 -1.076899999999999977e+02 -2.537663999999999920e+00 -5.187396565853439473e-02
3.316799999999999926e+01 6.382100000000000328e+00 -1.153100000000000023e+02 1.249896999999999991e+01 -1.429421131938048706e-01
3.316799999999999926e+01 6.382100000000000328e+00 -1.130400000000000063e+02 7.691634000000000526e-01 -1.432817294902407057e-01
3.316799999999999926e+01 3.366700000000000159e+01 -9.753000000000000114e+01 3.925155999999999867e+00 -2.256957012725430700e-01
3.316799999999999926e+01 3.401200000000000045e+01 -9.674699999999999989e+01 3.883554999999999868e+00 -2.245213757284725276e-01
3.317000000000000171e+01 9.943099999999999383e+00 -1.251299999999999955e+02 2.553726999999999858e+00 -1.429566940951939868e-01
3.317399999999999949e+01 5.006199999999999761e+00 -1.014200000000000017e+02 -3.389218000000000330e+01 -1.445544936039612760e-01
3.317699999999999960e+01 -8.842900000000000205e+00 -1.107099999999999937e+02 4.877774999999999750e+00 -4.971008680134082758e-02
3.318099999999999739e+01 3.687700000000000244e+01 -1.095699999999999932e+02 9.468476000000000781e+00 -2.341972678147478393e-01
3.318800000000000239e+01 7.882100000000000328e+00 -9.510999999999999943e+01 -4.075090999999999752e+01 -1.684007934332340806e-01
3.318800000000000239e+01 7.882100000000000328e+00 -9.284399999999999409e+01 -3.453520999999999930e+01 -1.688694100024794031e-01
3.318800000000000239e+01 9.282099999999999795e+00 -9.510999999999999943e+01 -2.293370000000000175e+01 -1.642449375073781748e-01
3.318800000000000239e+01 9.282099999999999795e+00 -9.284399999999999409e+01 -1.906000999999999834e+01 -1.633912158645081658e-01
3.319299999999999784e+01 -1.294200000000000017e+01 -1.048299999999999983e+02 -3.568576999999999888e+00 4.051535277641437477e-02
3.319500000000000028e+01 -1.760500000000000043e+01 -9.853900000000000148e+01 -6.853460000000000107e+00 -1.687758502801090521e-01
3.319700000000000273e+01 -4.125000000000000000e+00 -1.109800000000000040e+02 9.833430999999999145e+00 -4.731500262723713907e-02
3.319700000000000273e+01 -2.424999999999999822e+00 -1.109800000000000040e+02 1.824334999999999951e+01 -4.642654727760778255e-02
3.319800000000000040e+01 3.687899999999999778e+01 -1.111500000000000057e+02 1.279212000000000060e+01 -2.348861481334484913e-01
3.320400000000000063e+01 4.161999999999999744e+01 -1.149300000000000068e+02 1.420426999999999929e+01 -3.645824485410292803e-01
3.320900000000000318e+01 -1.894300000000000139e+01 -9.465999999999999659e+01 -6.790246999999999922e+00 -1.675422724401728070e-01
3.321300000000000097e+01 1.294200000000000017e+01 -1.247000000000000028e+02 -6.331877999999999673e-01 -1.574511032678705125e-01
3.321699999999999875e+01 7.189199999999999591e+00 -1.029399999999999977e+02 5.996246000000000187e+00 -1.469138463379882076e-01
3.321699999999999875e+01 7.189199999999999591e+00 -1.020799999999999983e+02 1.618368000000000029e+00 -1.473765507421282428e-01
3.321800000000000352e+01 -3.528000000000000025e+00 -1.221200000000000045e+02 -2.669810999999999979e+01 -4.727384060912048769e-02
3.321800000000000352e+01 -1.024900000000000055e+01 -1.105199999999999960e+02 -1.591531999999999947e+00 -5.040945177612852351e-02
3.322399999999999665e+01 2.542899999999999849e+01 -1.168900000000000006e+02 -1.440916999999999959e+01 -3.500000000000000333e-01
3.323100000000000165e+01 7.273299999999999876e+00 -1.058900000000000006e+02 6.002355999999999803e+00 -1.456740316213795405e-01
3.323299999999999699e+01 -7.275199999999999889e+00 -1.104599999999999937e+02 6.385224000000000011e+00 -4.899527793021864197e-02
3.323299999999999699e+01 1.917999999999999927e+00 -8.844400000000000261e+01 1.917102999999999824e+01 2.308199092445924472e-01
3.323400000000000176e+01 5.706000000000000405e+00 -1.115999999999999943e+02 2.141885999999999957e+00 -1.430346936266048974e-01
3.323400000000000176e+01 5.959900000000000198e+00 -1.125000000000000000e+02 1.882786000000000071e+00 -1.430572794635661116e-01
3.323499999999999943e+01 3.117900000000000116e+00 -8.740099999999999625e+01 -1.580254000000000103e-01 2.091586591323360556e-01
3.324000000000000199e+01 1.175200000000000067e+01 -1.239099999999999966e+02 7.682518000000000402e-01 -1.435520807014663003e-01
3.324099999999999966e+01 -3.442000000000000171e+00 -1.259300000000000068e+02 -3.735729000000000077e+00 -4.727540217605398498e-02
3.324399999999999977e+01 4.287400000000000233e+01 -1.140900000000000034e+02 1.715636999999999901e+01 -3.645625497430963757e-01
3.324399999999999977e+01 4.287400000000000233e+01 -1.131299999999999955e+02 3.135479000000000127e+01 -3.645888925175729822e-01
3.324399999999999977e+01 1.843100000000000094e+01 -1.074500000000000028e+02 1.458023999999999987e+01 -1.525160645792515424e-01
3.325200000000000244e+01 2.829200000000000159e+01 -1.179099999999999966e+02 -4.213593999999999618e+00 -3.499999999999999778e-01
3.325300000000000011e+01 7.711000000000000298e+00 -1.092699999999999960e+02 -1.989746999999999932e+00 -1.448720515029242040e-01
3.325900000000000034e+01 2.725000000000000000e+01 -9.432800000000000296e+01 1.124946999999999946e+02 -2.316287456697678215e-01
3.326200000000000045e+01 2.960200000000000031e+01 -1.186099999999999994e+02 -6.847644999999999982e+00 -3.499999999999999778e-01
3.326599999999999824e+01 -1.797400000000000020e+01 -9.768899999999999295e+01 -1.324178000000000033e+01 -1.683701279846987198e-01
3.326899999999999835e+01 4.918000000000000149e+00 -8.591500000000000625e+01 -9.861653999999999698e+00 -1.550050736621464142e-01
3.327400000000000091e+01 7.308900000000000396e+00 -9.442900000000000205e+01 -2.619761000000000095e+01 -1.541596350490256617e-01
3.327600000000000335e+01 -1.483300000000000018e+01 -8.520999999999999375e+01 2.734868000000000166e+01 2.389285186161384938e-02
3.328099999999999881e+01 -1.789199999999999946e+01 -9.390200000000000102e+01 -1.819640000000000057e+01 -1.687557978387149715e-01
3.328900000000000148e+01 -7.956800000000000317e+00 -8.959900000000000375e+01 -7.884141999999999761e+00 4.777270662337901319e-02
3.328999999999999915e+01 1.414400000000000013e+01 -1.246200000000000045e+02 -9.406940999999999775e-01 -1.570120222870336202e-01
3.329399999999999693e+01 1.403500000000000014e+01 -8.593999999999999773e+01 1.356072999999999951e+01 -3.602824509613272719e-01
3.329999999999999716e+01 3.372200000000000131e+01 -1.026099999999999994e+02 2.404422999999999888e+01 -2.307367078942395566e-01
3.330100000000000193e+01 3.665200000000000102e+01 -1.029300000000000068e+02 3.411200999999999794e+01 -3.654250328795669578e-01
3.330199999999999960e+01 1.873400000000000176e+01 -1.081500000000000057e+02 1.587509000000000015e+01 -1.525327450451934574e-01
3.330199999999999960e+01 1.873400000000000176e+01 -1.067500000000000000e+02 1.101248000000000005e+01 -1.518743880450734163e-01
3.330199999999999960e+01 1.960000000000000142e+01 -1.067500000000000000e+02 1.518820999999999977e+01 -1.370823827597805467e-01
3.330700000000000216e+01 -5.206900000000000084e+00 -8.989499999999999602e+01 -8.045349999999999113e+00 -3.921073111487707874e-02
3.330899999999999750e+01 3.589900000000000091e+00 -8.667700000000000671e+01 -4.492015999999999565e+00 1.965042051682368562e-01
3.331700000000000017e+01 3.567799999999999727e+01 -1.139599999999999937e+02 2.118215000000000003e+01 -2.360974650078666026e-01
3.331700000000000017e+01 2.343900000000000006e+01 -1.199699999999999989e+02 -1.273884999999999934e+01 -3.499999999999999778e-01
3.332399999999999807e+01 -1.827700000000000102e+01 -9.698900000000000432e+01 -1.222664999999999935e+01 -1.679916288747672626e-01
3.332999999999999829e+01 3.269099999999999895e+00 -1.027699999999999960e+02 -2.386813000000000073e+01 7.999074961988074384e-02
3.332999999999999829e+01 -1.345700000000000074e+01 -8.607699999999999818e+01 1.582011999999999929e+01 2.971344476953265840e-02
3.333200000000000074e+01 1.792999999999999927e+00 -1.052000000000000028e+02 -1.183475999999999928e+01 7.944440459381031661e-02
3.333200000000000074e+01 1.792999999999999927e+00 -1.043400000000000034e+02 3.445714000000000166e+00 8.035395210140440503e-02
3.333500000000000085e+01 4.635600000000000165e+00 -1.261800000000000068e+02 -3.938604999999999912e+00 -1.413615113106699017e-01
3.334000000000000341e+01 5.864399999999999835e+00 -1.106899999999999977e+02 1.840905000000000014e+00 -1.431674613195731138e-01
3.334300000000000352e+01 2.002700000000000102e+01 -1.075600000000000023e+02 2.113832999999999984e+01 -1.361742054071361230e-01
3.334400000000000119e+01 1.895899999999999963e+01 -8.508599999999999852e+01 1.018501000000000012e+01 -2.864581154530139728e-01
3.335499999999999687e+01 2.446199999999999974e+01 -1.174800000000000040e+02 -1.577860000000000085e+01 -3.499999999999999778e-01
3.336599999999999966e+01 2.136499999999999844e+00 -1.035199999999999960e+02 4.380843999999999738e+00 8.088450868855615039e-02
3.336699999999999733e+01 -1.679100000000000037e+01 -9.302800000000000580e+01 -7.609499999999999709e+00 -1.704540298656753161e-01
3.337299999999999756e+01 1.763400000000000034e+01 -1.230600000000000023e+02 8.465954999999999231e+00 -1.556943087258956249e-01
3.337500000000000000e+01 1.625199999999999889e+01 -1.233799999999999955e+02 7.504589000000000176e+00 -1.562302071411977022e-01
3.338000000000000256e+01 2.236100000000000065e+01 -8.697599999999999909e+01 8.807923999999999864e+00 -1.784832407775990004e-01
3.338000000000000256e+01 1.727199999999999847e+01 -8.510800000000000409e+01 7.674281999999999826e+00 -3.622692321842476693e-01
3.338199999999999790e+01 2.152499999999999858e+01 -8.484099999999999397e+01 -4.006951000000000107e+01 -1.747578976712843013e-01
3.338199999999999790e+01 2.064300000000000068e+01 -1.208700000000000045e+02 -7.671051000000000286e+00 -1.379590134903735388e-01
3.338300000000000267e+01 3.759400000000000119e+01 -1.071200000000000045e+02 4.636987000000000414e+00 -3.650721039725819961e-01
3.338300000000000267e+01 -1.705999999999999872e+01 -8.509300000000000352e+01 1.353468999999999944e+01 -2.767109772391463940e-01
3.338499999999999801e+01 3.556300000000000239e+01 -1.145999999999999943e+02 1.663220000000000098e+01 -2.363403310496151044e-01
3.338799999999999812e+01 -1.716499999999999915e+01 -8.765800000000000125e+01 3.673865999999999854e+00 -1.708585457265852370e-01
3.339300000000000068e+01 3.500500000000000256e+01 -9.525900000000000034e+01 -8.882413000000000114e-01 -2.224931971368087624e-01
3.339399999999999835e+01 -3.079999999999999960e-01 -1.110400000000000063e+02 2.983454999999999857e-01 -4.544640238780602026e-02
3.339399999999999835e+01 1.211999999999999966e+00 -1.110400000000000063e+02 -8.527757999999999727e-01 7.579928144289106717e-02
3.339500000000000313e+01 -3.616000000000000103e+00 -8.984699999999999420e+01 3.669986000000000104e+01 -2.366357360958599651e-02
3.339600000000000080e+01 3.585099999999999909e+01 -1.154599999999999937e+02 1.316488000000000014e+01 -2.365814834611414119e-01
3.339800000000000324e+01 1.178999999999999915e+01 -8.595199999999999818e+01 1.611234999999999928e+01 -1.193235030700483534e-01
3.340100000000000335e+01 1.972299999999999898e+01 -1.082600000000000051e+02 2.067811999999999983e+01 -1.372460111772410840e-01
3.340400000000000347e+01 -1.610700000000000021e+00 -1.223700000000000045e+02 -1.147672000000000025e+01 -4.683244527447427696e-02
3.340400000000000347e+01 2.390899999999999892e+01 -9.472100000000000364e+01 -7.797171999999999770e+00 -2.382319442187632030e-01
3.340699999999999648e+01 -1.094599999999999973e+01 -8.997299999999999898e+01 -2.326108999999999938e+01 5.593442305122459102e-02
3.340699999999999648e+01 -9.545999999999999375e+00 -8.997299999999999898e+01 3.235338000000000136e+01 5.161596755899074823e-02
3.340699999999999648e+01 2.634299999999999836e-02 -1.255600000000000023e+02 -1.689580000000000082e+00 7.219264930263727398e-02
3.340699999999999648e+01 8.915899999999999936e-01 -1.255600000000000023e+02 -2.424862000000000073e+00 7.192366369651694014e-02
3.340899999999999892e+01 1.876699999999999946e+01 -1.222999999999999972e+02 -1.384211000000000080e+00 -1.406221243513364472e-01
3.341100000000000136e+01 1.855299999999999949e+00 -1.219599999999999937e+02 -3.324879000000000140e+00 7.213944088759896567e-02
3.341100000000000136e+01 1.855299999999999949e+00 -1.210900000000000034e+02 -1.422754999999999992e+00 7.229027807180250786e-02
3.341199999999999903e+01 2.956200000000000117e+01 -9.282599999999999341e+01 2.750427999999999873e+00 -2.260314331401574728e-01
3.341199999999999903e+01 8.930799999999999628e+00 -1.262300000000000040e+02 4.214502000000000415e+00 -1.424733295629855567e-01
3.341499999999999915e+01 7.146399999999999864e+00 -8.598900000000000432e+01 -6.545383000000000173e+00 -1.468224179263089013e-01
3.341499999999999915e+01 2.704700000000000060e+01 -1.173400000000000034e+02 -7.827380999999999922e+00 -3.499999999999999778e-01
3.342900000000000205e+01 -1.865099999999999980e+01 -9.649299999999999500e+01 -2.221929000000000087e+01 -1.674000328012723027e-01
3.343200000000000216e+01 -4.306700000000000195e+00 -8.987300000000000466e+01 5.075080999999999953e+00 -3.095200761047379318e-02
3.343200000000000216e+01 3.581799999999999784e+01 -1.028799999999999955e+02 4.019124999999999659e+01 -2.305459801341366022e-01
3.343299999999999983e+01 3.556199999999999761e+01 -1.164500000000000028e+02 1.281872000000000078e+01 -2.369173763840013991e-01
3.343399999999999750e+01 -1.521000000000000085e+01 -1.013400000000000034e+02 -4.922632000000000119e+00 4.262777494157423547e-02
3.343599999999999994e+01 2.045700000000000074e+00 -1.074699999999999989e+02 -4.892209000000000252e+00 7.733456875472778658e-02
3.343900000000000006e+01 3.717699999999999960e+01 -1.037099999999999937e+02 3.434485000000000099e+01 -3.653224252362665125e-01
3.343999999999999773e+01 3.736299999999999955e+01 -1.063499999999999943e+02 1.013711999999999946e+01 -3.651298458501469613e-01
3.343999999999999773e+01 -2.063899999999999846e+00 -8.971200000000000330e+01 2.284961000000000020e+00 -1.004206291819382049e-02
3.344400000000000261e+01 3.363400000000000034e+01 -9.270799999999999841e+01 -6.631209000000000131e+00 -2.188515960882771449e-01
3.344400000000000261e+01 3.515400000000000347e+01 -9.270799999999999841e+01 -1.989386000000000010e+01 -2.184087680263779030e-01
3.344500000000000028e+01 2.049500000000000099e+00 -1.089800000000000040e+02 5.007302000000000142e+00 7.633022022488358815e-02
3.345199999999999818e+01 -1.909900000000000020e+01 -9.567300000000000182e+01 -2.577007000000000048e+01 -2.638357914916472646e-01
3.345499999999999829e+01 7.449499999999999567e+00 -9.354399999999999693e+01 -1.885650000000000048e+01 -1.683572043271958640e-01
3.345499999999999829e+01 9.714800000000000324e+00 -9.440999999999999659e+01 -1.187359000000000009e+01 -1.618428462552762848e-01
3.345499999999999829e+01 9.714800000000000324e+00 -9.354399999999999693e+01 -9.372939000000000576e+00 -1.612762676467099088e-01
3.346200000000000330e+01 -3.882399999999999740e-01 -1.229699999999999989e+02 -7.021080999999999683e+00 7.279111657527860546e-02
3.346200000000000330e+01 4.770099999999999896e-01 -1.229699999999999989e+02 -4.058862000000000414e+00 7.248850140268979503e-02
3.346500000000000341e+01 -1.679599999999999937e+01 -9.978100000000000591e+01 -4.297647000000000439e+00 4.446681277387458386e-02
3.346999999999999886e+01 3.182400000000000162e+01 -9.946899999999999409e+01 -5.167832999999999899e+00 -2.292251204609174753e-01
3.347099999999999653e+01 3.686699999999999733e+01 -1.128400000000000034e+02 7.769979000000000191e+00 -2.356217420736462231e-01
3.347299999999999898e+01 -1.644000000000000128e+01 -1.005100000000000051e+02 -6.253993999999999609e+00 4.380256595616227600e-02
3.347500000000000142e+01 -6.492700000000000138e+00 -8.916400000000000148e+01 -4.709310999999999581e+00 -5.188369636502819515e-02
3.347500000000000142e+01 -5.553300000000000125e+00 -8.916400000000000148e+01 -4.785035999999999845e+00 -4.207874550346997478e-02
3.347999999999999687e+01 1.482000000000000028e+01 -8.586799999999999500e+01 8.510552999999999813e+00 -3.607536753544075547e-01
3.348299999999999699e+01 3.785499999999999687e+01 -1.077000000000000028e+02 -1.633119999999999905e+00 -3.650245305702749521e-01
3.348499999999999943e+01 6.756599999999999717e+00 -1.013799999999999955e+02 4.195520000000000138e+00 -1.464951809087280121e-01
3.348700000000000188e+01 3.882699999999999818e+00 -1.024099999999999966e+02 -2.636634000000000100e+01 7.961627650542150991e-02
3.349000000000000199e+01 -1.274999999999999911e+00 -1.263199999999999932e+02 -1.773657999999999957e+00 -4.687404338185516273e-02
3.349099999999999966e+01 8.582100000000000506e+00 -9.516800000000000637e+01 -4.920586000000000126e+01 -1.655723437611784643e-01
3.349099999999999966e+01 8.582100000000000506e+00 -9.278600000000000136e+01 -2.910240999999999900e+01 -1.651368473065462639e-01
3.349099999999999966e+01 2.499599999999999866e+01 -1.161899999999999977e+02 -2.842222999999999900e+01 -3.499999999999999778e-01
3.349099999999999966e+01 2.586199999999999832e+01 -1.161899999999999977e+02 -9.370053999999999661e+00 -3.499999999999999778e-01
3.349399999999999977e+01 3.039099999999999824e+01 -9.291899999999999693e+01 -1.050980999999999987e+01 -2.243722858157951028e-01
3.350000000000000000e+01 -4.310200000000000142e-01 -8.926399999999999579e+01 -2.313614999999999977e+00 4.642739316359787219e-04
3.350699999999999790e+01 1.100500000000000078e+01 -8.445799999999999841e+01 7.202912000000000425e+00 -6.751516093753109904e-02
3.350999999999999801e+01 3.754599999999999937e+01 -1.045600000000000023e+02 9.485566000000000031e+01 -3.652351000655887914e-01
3.351700000000000301e+01 3.292999999999999972e+01 -1.026400000000000006e+02 2.264058999999999955e+01 -2.312076535478861106e-01
3.352199999999999847e+01 9.520400000000000418e+00 -8.356699999999999307e+01 4.149555000000000327e+00 -9.002781859407690823e-02
3.352700000000000102e+01 3.814699999999999847e+01 -1.087300000000000040e+02 -2.531053999999999959e+01 -3.649554192825533172e-01
3.352799999999999869e+01 7.361399999999999721e+00 -1.265999999999999943e+02 -1.677979000000000109e+00 -1.419881089538077013e-01
3.353300000000000125e+01 3.432599999999999874e+00 -1.258400000000000034e+02 -9.287746000000000279e+00 7.113003177171396685e-02
3.353999999999999915e+01 3.901200000000000045e+01 -1.134200000000000017e+02 1.645477999999999952e+01 -3.647165144504624923e-01
3.353999999999999915e+01 1.020000000000000018e+00 -1.173400000000000034e+02 1.397077999999999953e+01 7.356673363034717250e-02
3.353999999999999915e+01 1.251500000000000057e+00 -1.165199999999999960e+02 1.400149000000000044e+01 7.368943214023458699e-02
3.353999999999999915e+01 2.569999999999999840e+00 -1.157900000000000063e+02 2.493479999999999919e+01 7.320018161169659920e-02
3.353999999999999915e+01 4.120899999999999785e+00 -1.162300000000000040e+02 7.182881000000000427e+01 7.224551012770416558e-02
3.353999999999999915e+01 4.084499999999999886e+01 -1.148599999999999994e+02 7.443413999999999753e+00 -3.646080228195734962e-01
3.353999999999999915e+01 4.239500000000000313e+01 -1.148599999999999994e+02 1.489856999999999942e+01 -3.645569296512832236e-01
3.353999999999999915e+01 4.239500000000000313e+01 -1.123599999999999994e+02 5.672995999999999839e+01 -3.646283404992348154e-01
3.354299999999999926e+01 -1.077399999999999913e+01 -1.096700000000000017e+02 -1.637561000000000044e+00 -5.099965747143980765e-02
3.354599999999999937e+01 -1.391300000000000026e+01 -1.015900000000000034e+02 -7.056155000000000399e+00 4.145098955578151168e-02
3.354800000000000182e+01 5.847000000000000419e+00 -1.269300000000000068e+02 -2.899360999999999855e+00 -1.415638992323483003e-01
3.354999999999999716e+01 4.212100000000000399e+00 -1.016500000000000057e+02 -1.696114000000000033e+01 8.000630170531090879e-02
3.355100000000000193e+01 3.725500000000000256e+01 -1.053900000000000006e+02 1.531048999999999971e+01 -3.651957794844981064e-01
3.355299999999999727e+01 3.102799999999999869e+01 -9.317199999999999704e+01 -1.753706999999999994e+01 -2.234992770761843883e-01
3.355299999999999727e+01 3.242799999999999727e+01 -9.317199999999999704e+01 -4.101916000000000118e+00 -2.212302865847166067e-01
3.355499999999999972e+01 -1.648600000000000065e+01 -8.918300000000000693e+01 5.690913000000000110e+00 -1.716469994523985299e-01
3.355499999999999972e+01 -1.684700000000000131e+01 -8.844700000000000273e+01 3.743319000000000063e+00 -1.707691722896203246e-01
3.355799999999999983e+01 -4.708400000000000141e+00 -1.102999999999999972e+02 9.365261000000000280e+00 -4.780025071227101546e-02
3.355799999999999983e+01 2.322200000000000131e+01 -9.176600000000000534e+01 -1.543058000000000085e+01 -2.429933933219746989e-01
3.355899999999999750e+01 3.361999999999999744e+01 -1.182399999999999949e+02 1.712447999999999970e+00 -2.376673970144732306e-01
3.356099999999999994e+01 8.908400000000000318e+00 -8.360699999999999932e+01 4.084781999999999691e+00 -9.483100872451739882e-02
3.356300000000000239e+01 8.249800000000000466e+00 -1.073100000000000023e+02 2.728021000000000029e+00 -1.454902867905896735e-01
3.356300000000000239e+01 8.458800000000000097e+00 -1.080499999999999972e+02 -2.931337000000000081e+00 -1.453958288004995880e-01
3.356400000000000006e+01 -1.669900000000000162e+01 -9.200000000000000000e+01 -5.973540999999999990e-01 -1.702161532336332050e-01
3.356400000000000006e+01 -1.646799999999999997e+01 -9.118500000000000227e+01 1.168993000000000038e+01 -1.709604101572185786e-01
3.356600000000000250e+01 -1.268900000000000006e+01 -1.042099999999999937e+02 5.380576999999999721e+00 4.003811350704700178e-02
3.356600000000000250e+01 -1.268900000000000006e+01 -1.032800000000000011e+02 4.470908999999999800e+00 4.015652606156970561e-02
3.356600000000000250e+01 -3.274999999999999911e+00 -1.110600000000000023e+02 3.277263000000000037e+00 -4.705242913055673881e-02
3.356799999999999784e+01 3.621900000000000119e+01 -1.036299999999999955e+02 2.212538999999999945e+01 -2.311217690397419366e-01
3.357099999999999795e+01 1.955300000000000082e+01 -1.221299999999999955e+02 -8.052002999999999133e+00 -1.395280013316081147e-01
3.357099999999999795e+01 2.287600000000000122e+01 -8.781000000000000227e+01 2.119895999999999958e+01 -1.752921802690242392e-01
3.357300000000000040e+01 1.145000000000000018e+00 -1.181599999999999966e+02 8.896931000000000145e-01 7.330186122072329669e-02
3.357600000000000051e+01 2.290800000000000125e+01 -8.887000000000000455e+01 -9.855686000000000391e+00 -1.722828278923071998e-01
3.357900000000000063e+01 5.647000000000000242e+00 -1.157500000000000000e+02 3.351792999999999978e+01 -1.422085979711035786e-01
3.357900000000000063e+01 2.540200000000000102e+01 -9.498000000000000398e+01 1.159872000000000014e+01 -2.357283800553601483e-01
3.358599999999999852e+01 -4.684199999999999697e+00 -1.239099999999999966e+02 -1.066380000000000017e+01 -4.763382308838915585e-02
3.358700000000000330e+01 -9.398999999999999133e+00 -1.105900000000000034e+02 -3.930235999999999730e-01 -5.019679055840904625e-02
3.358800000000000097e+01 -6.477999999999999758e+00 -1.102699999999999960e+02 9.116403000000000034e+00 -4.877888812290702425e-02
3.359100000000000108e+01 2.798900000000000077e+01 -9.374099999999999966e+01 4.567128000000000299e+01 -2.306237077551374914e-01
3.359100000000000108e+01 2.884199999999999875e+01 -1.185499999999999972e+02 -5.631696999999999953e+00 -3.499999999999999778e-01
3.359100000000000108e+01 3.036199999999999832e+01 -1.185499999999999972e+02 -2.049006999999999934e+01 -3.499999999999999778e-01
3.359199999999999875e+01 -1.624399999999999977e+01 -9.020399999999999352e+01 3.063019000000000158e+00 -1.717694799368415237e-01
3.359400000000000119e+01 3.899600000000000222e+01 -1.122399999999999949e+02 1.298765999999999998e+01 -3.647623285589088882e-01
3.359700000000000131e+01 1.333500000000000085e+01 -8.599800000000000466e+01 4.090597999999999956e+01 -3.601745994007704010e-01
3.359799999999999898e+01 4.158000000000000362e+00 -8.597799999999999443e+01 -1.320194000000000045e+01 -1.517920316151226412e-01
3.359799999999999898e+01 5.677999999999999936e+00 -8.597799999999999443e+01 -2.725422000000000011e+01 -1.509307083284405215e-01
3.360000000000000142e+01 6.873000000000000220e+00 -1.149099999999999966e+02 3.668873000000000051e+00 -1.428867343642929444e-01
3.360000000000000142e+01 6.873000000000000220e+00 -1.134399999999999977e+02 1.427168999999999910e+00 -1.430946604799466504e-01
3.360000000000000142e+01 7.082099999999999618e+00 -1.141800000000000068e+02 1.156533000000000033e+00 -1.430952487314725019e-01
3.360300000000000153e+01 1.064300000000000068e+01 -1.248599999999999994e+02 -9.202272000000000229e-02 -1.429693326800976494e-01
3.360799999999999699e+01 4.515500000000000291e+00 -1.009500000000000028e+02 -1.793957999999999942e+01 8.036883035803335518e-02
3.360900000000000176e+01 -8.142899999999999139e+00 -1.104399999999999977e+02 3.367299000000000042e+00 -4.962976228205556728e-02
3.361099999999999710e+01 -1.719099999999999895e+01 -9.768899999999999295e+01 -1.478780000000000072e+01 -1.684782577339958565e-01
3.361299999999999955e+01 7.671899999999999942e+00 -8.525900000000000034e+01 -8.133521000000000001e+00 -1.404727851341131539e-01
3.361299999999999955e+01 8.016899999999999693e+00 -8.447599999999999909e+01 2.678659000000000123e+00 -1.353946434007936850e-01
3.361699999999999733e+01 -1.296799999999999997e+01 -1.025100000000000051e+02 -4.235604000000000369e+00 4.042130595079198446e-02
3.361699999999999733e+01 -1.187199999999999989e+01 -8.749299999999999500e+01 -7.543935999999999353e+01 3.522082632968911997e-02
3.361699999999999733e+01 -1.164499999999999957e+01 -8.829200000000000159e+01 -3.046890000000000143e+01 6.633397717753780620e-02
3.361699999999999733e+01 -3.166999999999999815e+00 -1.218900000000000006e+02 -2.420318999999999932e+01 -4.727461213661111189e-02
3.362599999999999767e+01 2.192099999999999937e+01 -1.202399999999999949e+02 -4.046268000000000420e+00 -3.499999999999999778e-01
3.362800000000000011e+01 -1.690500000000000114e+01 -9.880599999999999739e+01 -8.577116000000000184e+00 4.495754497312669240e-02
3.363300000000000267e+01 2.569100000000000161e+00 -1.028199999999999932e+02 -7.973443999999999754e+00 8.149104349147429094e-02
3.363400000000000034e+01 3.887399999999999967e+00 -1.008799999999999955e+02 -2.775150000000000006e+01 8.178736463553762381e-02
3.363600000000000279e+01 1.131900000000000084e+01 -1.244000000000000057e+02 -6.808568999999999871e-01 -1.431841882423267043e-01
3.363600000000000279e+01 1.218399999999999928e+01 -1.244000000000000057e+02 -3.455617000000000161e+00 -1.434038948944968139e-01
3.363900000000000290e+01 5.839199999999999946e+00 -1.008499999999999943e+02 -3.025819999999999954e+00 -1.448964967639598256e-01
3.363900000000000290e+01 4.041400000000000148e+01 -1.114099999999999966e+02 8.281197000000000585e+00 -3.647398548540816132e-01
3.364300000000000068e+01 3.171600000000000108e+01 -1.019800000000000040e+02 1.476951000000000036e+01 -2.314055636003603811e-01
3.364699999999999847e+01 3.759000000000000341e+01 -1.126200000000000045e+02 1.360711000000000048e+01 -2.355328085395141657e-01
3.364800000000000324e+01 1.217999999999999972e+00 -8.859300000000000352e+01 3.594675000000000153e+01 1.782440611113991769e-01
3.365699999999999648e+01 6.868599999999999817e+00 -1.044899999999999949e+02 5.357841999999999771e+00 -1.450295166305419770e-01
3.366100000000000136e+01 1.033999999999999986e+01 -1.255600000000000023e+02 1.706835999999999842e+01 -1.427877760770355497e-01
3.366499999999999915e+01 1.135699999999999932e+01 -8.525199999999999534e+01 1.010784999999999911e+01 -6.202301016618864266e-02
3.366899999999999693e+01 -1.749500000000000099e+01 -9.698900000000000432e+01 -1.792736000000000018e+01 -1.680866695517886367e-01
3.367000000000000171e+01 3.441499999999999915e+01 -9.606300000000000239e+01 5.327218000000000231e+00 -2.243043701574244930e-01
3.367199999999999704e+01 2.199500000000000099e+01 -8.560099999999999909e+01 -4.707596000000000203e+01 -1.795095078139937184e-01
3.367799999999999727e+01 7.848200000000000287e+00 -1.064599999999999937e+02 6.539887000000000228e+00 -1.452809264325356231e-01
3.367900000000000205e+01 3.459400000000000119e+01 -1.026599999999999966e+02 2.739341999999999899e+01 -2.308046986482807095e-01
3.368399999999999750e+01 1.681699999999999973e+00 -1.102800000000000011e+02 7.509323000000000548e+01 7.607344088543123439e-02
3.368399999999999750e+01 -1.254599999999999937e+01 -1.052699999999999960e+02 4.934067999999999898e+00 3.973798666125692020e-02
3.368500000000000227e+01 8.201900000000000190e+00 -1.088700000000000045e+02 -4.951469999999999594e+00 -1.447963250895560605e-01
3.369299999999999784e+01 3.307099999999999795e+01 -9.801099999999999568e+01 8.373245999999999967e+00 -2.273010672750865324e-01
3.369700000000000273e+01 -1.275000000000000000e+01 -1.061500000000000057e+02 1.544872999999999941e+00 3.979311549149958799e-02
3.369899999999999807e+01 1.916700000000000159e+01 -1.062600000000000051e+02 1.098733999999999966e+01 -1.510395374080374942e-01
3.370000000000000284e+01 -1.404199999999999982e+01 -8.535399999999999920e+01 5.608341999999999672e+01 2.579601659039948425e-02
3.370000000000000284e+01 3.512899999999999778e+01 -1.171500000000000057e+02 2.630290000000000106e+01 -2.372228447281724273e-01
3.370400000000000063e+01 3.761500000000000199e+01 -1.094300000000000068e+02 -6.431599000000000288e+00 -2.342684179344560191e-01
3.371399999999999864e+01 1.346799999999999997e+01 -1.251500000000000057e+02 -1.023493999999999904e+00 -1.571462967223857532e-01
3.371500000000000341e+01 1.038400000000000034e+01 -8.375199999999999534e+01 6.836641000000000190e+00 -8.530703639784600889e-02
3.372299999999999898e+01 4.520000000000000129e-01 -1.111099999999999994e+02 -6.040094000000000296e-01 -4.523454896478499437e-02
3.372899999999999920e+01 3.174899999999999878e+01 -1.180499999999999972e+02 -8.428157999999999817e+00 -2.379373113110018478e-01
3.373100000000000165e+01 1.739300000000000068e+00 -1.056400000000000006e+02 -1.226998999999999995e+01 7.952585893085124813e-02
3.373199999999999932e+01 9.971299999999999386e+00 -1.264099999999999966e+02 8.053803999999999519e+00 -1.425789695839711768e-01
3.373499999999999943e+01 1.803399999999999892e+01 -1.070100000000000051e+02 1.032501000000000069e+01 -1.524704504176394582e-01
3.373899999999999721e+01 1.792000000000000171e+01 -1.075799999999999983e+02 9.157565999999999207e+00 -1.528275234335494948e-01
3.374399999999999977e+01 -2.763900000000000023e+00 -8.977100000000000080e+01 2.343736000000000175e+01 -1.706874184481840459e-02
3.374499999999999744e+01 1.512699999999999934e+00 -1.049500000000000028e+02 3.681735000000000202e+00 8.052732544745265508e-02
3.374499999999999744e+01 1.512699999999999934e+00 -1.040900000000000034e+02 4.773951000000000278e+00 -4.224883210933414596e-02
3.374699999999999989e+01 3.743299999999999983e+01 -1.133599999999999994e+02 1.268926000000000087e+01 -2.358361025268311817e-01
3.374699999999999989e+01 2.211599999999999966e+01 -8.650400000000000489e+01 -7.687647000000000119e+00 -1.805478466349417221e-01
3.375000000000000000e+01 -1.078800000000000026e+01 -1.091200000000000045e+02 -1.796081999999999956e+00 -5.125844042817104956e-02
3.375399999999999778e+01 1.479599999999999937e+01 -1.243900000000000006e+02 -5.500906999999999769e+00 -1.566910979720012864e-01
3.375699999999999790e+01 3.826299999999999812e+01 -1.133599999999999994e+02 1.132319000000000031e+01 -2.357819337367851875e-01
3.376100000000000279e+01 -2.041700000000000070e+00 -1.263599999999999994e+02 -2.817565999999999793e+00 -4.708553285907200042e-02
3.376200000000000045e+01 -8.748799999999999244e+00 -8.978600000000000136e+01 1.382526000000000010e+01 4.573357392659212900e-02
3.376200000000000045e+01 3.137999999999999901e+01 -1.009300000000000068e+02 4.202071999999999719e+01 -2.309676444402558870e-01
3.376200000000000045e+01 3.158899999999999864e+01 -1.002000000000000028e+02 1.137359999999999971e+01 -2.302940673322182996e-01
3.376299999999999812e+01 -1.597000000000000064e+01 -1.012699999999999960e+02 -5.076408999999999949e+00 4.275241654267018104e-02
3.376599999999999824e+01 -4.383099999999999774e+00 -1.246599999999999966e+02 -8.680543999999999372e+00 -4.759355799746378679e-02
3.376599999999999824e+01 -4.038100000000000023e+00 -1.254500000000000028e+02 -3.669487000000000165e+00 -4.750909859979444982e-02
3.376599999999999824e+01 -2.592000000000000082e+00 -1.262500000000000000e+02 -1.847785999999999929e+00 -4.720020323731786982e-02
3.377799999999999869e+01 2.004200000000000159e+01 -8.468200000000000216e+01 -6.819262000000000157e+00 -2.961934964136870296e-01
3.378000000000000114e+01 -1.826699999999999990e+00 -1.104500000000000028e+02 2.144766999999999868e+01 -4.633771430406283254e-02
3.378399999999999892e+01 1.702700000000000102e+01 -1.235600000000000023e+02 3.858531000000000155e+00 -1.558597693552272179e-01
3.378699999999999903e+01 2.267899999999999849e+01 -1.202600000000000051e+02 -7.061338000000000115e+00 -3.500000000000000333e-01
3.378699999999999903e+01 2.397200000000000131e+01 -1.195400000000000063e+02 -3.127897000000000105e+01 -3.499999999999999778e-01
3.378699999999999903e+01 2.419900000000000162e+01 -1.187399999999999949e+02 -1.845699000000000112e+01 -3.499999999999999778e-01
3.379099999999999682e+01 2.641199999999999903e+01 -9.468800000000000239e+01 2.106577000000000055e+01 -2.342593418243290038e-01
3.379699999999999704e+01 1.822299999999999898e+01 -1.082800000000000011e+02 6.955549999999999677e+00 -1.528260025879564776e-01
3.380100000000000193e+01 -8.317099999999999493e-01 -1.103499999999999943e+02 -2.149366999999999805e+00 -4.579937921839369319e-02
3.380199999999999960e+01 1.603699999999999903e+00 -1.191800000000000068e+02 2.556353999999999793e+00 7.295073061587856178e-02
3.380299999999999727e+01 -1.131000000000000005e+00 -8.932200000000000273e+01 -9.234533000000000769e+00 -2.241623729195692423e-03
3.380599999999999739e+01 1.833399999999999963e+01 -1.227900000000000063e+02 2.034171000000000173e+00 -1.410856435658039976e-01
3.381000000000000227e+01 3.018400000000000194e+00 -1.025100000000000051e+02 -9.374109999999999943e+00 8.143357821992196210e-02
3.381000000000000227e+01 -1.559200000000000053e+01 -8.487999999999999545e+01 7.067790999999999713e+01 -8.164459527644961356e-02
3.381199999999999761e+01 -1.875100000000000122e+01 -9.423000000000000398e+01 -4.647635000000000183e+00 -2.640304559772655435e-01
3.381600000000000250e+01 -8.990200000000000413e-01 -1.221800000000000068e+02 -1.032141000000000020e+01 -4.674168639419919863e-02
3.381900000000000261e+01 2.083299999999999841e+01 -8.442700000000000671e+01 -1.547062999999999988e+01 -1.677939425387433292e-01
3.382099999999999795e+01 3.642000000000000171e+01 -1.053700000000000045e+02 2.141174000000000177e+01 -2.323557433016216756e-01
3.382399999999999807e+01 2.533900000000000041e+00 -8.816200000000000614e+01 4.956487000000000087e+00 2.281165437691376474e-01
3.382600000000000051e+01 -5.000000000000000000e-01 -1.262600000000000051e+02 9.033500000000000085e+00 7.237468416411313443e-02
3.382800000000000296e+01 1.468900000000000095e+00 -1.260000000000000000e+02 6.159970000000000029e-02 7.181866241319063981e-02
3.383400000000000318e+01 2.042299999999999827e+01 -1.071200000000000045e+02 1.381595000000000084e+01 -3.499999999999999778e-01
3.383700000000000330e+01 2.320899999999999963e+01 -9.358899999999999864e+01 -6.454169000000000267e+00 -2.409216483185692148e-01
3.383700000000000330e+01 2.341799999999999926e+01 -9.432500000000000284e+01 -8.334908000000000428e+00 -2.398811078963763443e-01
3.383700000000000330e+01 2.460900000000000176e+01 -9.498900000000000432e+01 -5.685673999999999451e-01 -2.374685504067259034e-01
3.384300000000000352e+01 3.952799999999999869e+01 -1.142900000000000063e+02 5.970017999999999603e+00 -3.646664709154939232e-01
3.384400000000000119e+01 1.155299999999999994e+00 -1.222199999999999989e+02 -4.686538999999999788e+00 7.252114367384651650e-02
3.384599999999999653e+01 2.406500000000000128e+01 -1.179099999999999966e+02 -6.513407999999999731e+01 -3.499999999999999778e-01
3.384599999999999653e+01 2.406500000000000128e+01 -1.170400000000000063e+02 -3.980214000000000141e+01 -3.499999999999999778e-01
3.384799999999999898e+01 3.656499999999999773e+01 -1.136800000000000068e+02 4.037530000000000285e+01 -2.360511708557567478e-01
3.384799999999999898e+01 1.814399999999999835e+01 -8.493399999999999750e+01 2.466563999999999979e+01 -2.817685379413591984e-01
3.384899999999999665e+01 2.271499999999999986e+01 -9.092600000000000193e+01 -1.208919000000000032e+01 -2.458695828139729200e-01
3.384899999999999665e+01 2.271499999999999986e+01 -9.006000000000000227e+01 -7.527140000000000164e+00 -2.478465352130171662e-01
3.384899999999999665e+01 -1.461299999999999955e+01 -1.015400000000000063e+02 -4.813721000000000139e+00 4.158320450704418303e-02
3.385199999999999676e+01 -1.291799999999999926e+01 -8.651699999999999591e+01 1.494495000000000040e+01 3.109067099484526947e-02
3.385199999999999676e+01 3.888400000000000034e+01 -1.087300000000000040e+02 -1.383990999999999971e+01 -3.649170779567878498e-01
