-5.938600000000000101e+00 2.592999999999999972e+01 3.743399999999999750e+01 -2.540152000000000143e+01 -3.423312189076772039e-01
-5.935800000000000409e+00 2.943900000000000006e+01 3.671399999999999864e+01 2.931779000000000135e+00 -1.495081893139906248e-01
-5.935200000000000031e+00 4.176599999999999824e+01 2.392800000000000082e+01 4.922332000000000107e+01 -4.048160881014219864e-02
-5.928399999999999892e+00 4.928499999999999659e+01 2.597800000000000153e+01 -1.225074000000000041e+01 -4.964321415464163778e-02
-5.927999999999999936e+00 5.399399999999999977e+01 2.527499999999999858e+01 -5.364950999999999937e+01 -2.091352355870289390e-04
-5.914299999999999891e+00 4.763900000000000290e+01 2.600400000000000134e+01 1.452496000000000009e+01 -6.137342594771292431e-02
-5.914100000000000357e+00 2.834499999999999886e+01 3.435900000000000176e+01 9.337882000000000460e+00 -2.336337113358575857e-01
-5.914100000000000357e+00 2.953600000000000136e+01 3.502300000000000324e+01 -1.503464999999999918e+01 -1.568049483856753246e-01
-5.914100000000000357e+00 2.974500000000000099e+01 3.575900000000000034e+01 -1.841318000000000055e+01 -1.554736427143033894e-01
-5.909099999999999575e+00 3.463100000000000023e+01 2.332999999999999829e+01 2.397855999999999987e+00 -4.782316503891134024e-02
-5.909099999999999575e+00 3.614900000000000091e+01 2.332999999999999829e+01 6.418160000000000309e+00 -5.421919442581818460e-02
-5.898900000000000254e+00 3.798799999999999955e+01 2.282400000000000162e+01 9.895917999999999992e+00 -2.584850576742622752e-01
-5.898100000000000342e+00 4.742600000000000193e+01 2.250300000000000011e+01 4.064907999999999855e-01 4.332303893464102551e-02
-5.897000000000000242e+00 4.948599999999999710e+01 2.036499999999999844e+01 -2.393488000000000060e+00 -3.258407851848009185e-01
-5.897000000000000242e+00 5.044400000000000261e+01 2.036499999999999844e+01 1.962020000000000053e+01 -3.234994340888984188e-01
-5.880300000000000082e+00 2.529400000000000048e+01 3.965400000000000347e+01 -6.892315999999999576e+01 -3.424305319908641509e-01
-5.880300000000000082e+00 2.623400000000000176e+01 3.813400000000000034e+01 -4.891770999999999958e+01 -3.420119624249106649e-01
-5.864499999999999602e+00 3.491599999999999682e+01 2.618499999999999872e+01 8.882423000000000401e-02 1.477766073317851592e-02
-5.863000000000000433e+00 3.500099999999999767e+01 3.547999999999999687e+01 8.075683999999999640e-01 -2.530560076827246818e-01
-5.862000000000000099e+00 3.236500000000000199e+01 2.526200000000000045e+01 1.735234000000000094e+02 -1.566946896028685310e-01
-5.859099999999999753e+00 2.619999999999999929e+01 3.667199999999999704e+01 -3.763491000000000142e+00 -3.421532173266029209e-01
-5.851700000000000124e+00 3.332300000000000040e+01 2.529599999999999937e+01 3.581548999999999694e+01 2.965308258700099370e-02
-5.840600000000000236e+00 3.681900000000000261e+01 2.352400000000000091e+01 2.810150999999999843e+00 -2.622010955960872858e-01
-5.840600000000000236e+00 3.768500000000000227e+01 2.352400000000000091e+01 2.850770999999999944e+00 -2.639299753181342245e-01
-5.837299999999999933e+00 3.392699999999999960e+01 4.270700000000000074e+01 -2.192848000000000042e+01 -1.483899917776124455e-01
-5.837100000000000399e+00 3.444800000000000040e+01 3.844700000000000273e+01 -2.598990999999999829e+01 -2.313782948187878274e-01
-5.832499999999999574e+00 5.078000000000000114e+01 2.114000000000000057e+01 4.163217000000000212e+01 -3.234725672300365895e-01
-5.831699999999999662e+00 2.892599999999999838e+01 3.744800000000000040e+01 2.164695000000000036e+00 -2.443738218636317683e-01
-5.828400000000000247e+00 3.470600000000000307e+01 3.923899999999999721e+01 -4.619136000000000308e+01 -2.286209658528274014e-01
-5.825800000000000090e+00 3.045299999999999940e+01 2.862800000000000011e+01 -1.400713999999999970e+01 1.148593303027914056e-02
-5.822499999999999787e+00 3.469200000000000017e+01 3.625300000000000011e+01 1.010923000000000016e+01 -2.458968658023884812e-01
-5.817000000000000171e+00 2.496499999999999986e+01 3.889399999999999835e+01 -6.098047000000000217e+00 -3.428664061713863065e-01
-5.802599999999999980e+00 3.040200000000000102e+01 4.271099999999999852e+01 -1.530255000000000087e-01 -1.623694839357877062e-01
-5.802599999999999980e+00 3.135000000000000142e+01 4.271099999999999852e+01 2.357852999999999977e+00 -1.675353008005961430e-01
-5.772000000000000242e+00 2.664900000000000091e+01 3.878199999999999648e+01 -2.683318999999999832e+01 -3.415602751767671807e-01
-5.754400000000000404e+00 2.968700000000000117e+01 3.024299999999999855e+01 -1.666207999999999956e+01 2.152922268574856968e-02
-5.753400000000000070e+00 2.935900000000000176e+01 3.095299999999999940e+01 -1.560638999999999932e+01 2.184193537192241630e-02
-5.745800000000000018e+00 2.621799999999999997e+01 3.969500000000000028e+01 -3.477215999999999951e+01 -3.416548274291055787e-01
-5.732999999999999652e+00 2.812900000000000134e+01 4.215200000000000102e+01 3.261153999999999886e+00 -2.526155597701272848e-01
-5.732700000000000351e+00 3.890999999999999659e+01 2.049099999999999966e+01 7.747493999999999659e+00 -1.569577120034727213e-01
-5.732700000000000351e+00 4.060999999999999943e+01 2.049099999999999966e+01 1.373990000000000045e+01 -1.621594754412388761e-01
-5.729199999999999626e+00 3.477300000000000324e+01 3.984499999999999886e+01 -8.180324999999999847e+00 -2.337668894603379677e-01
-5.716000000000000192e+00 2.510200000000000031e+01 2.864799999999999969e+01 1.172304000000000013e+00 -2.858664085062293525e-01
-5.716000000000000192e+00 2.533299999999999841e+01 2.783299999999999841e+01 6.661279999999999646e+00 -2.870725158594972237e-01
-5.716000000000000192e+00 2.533299999999999841e+01 2.946300000000000097e+01 -1.165127000000000024e+00 -2.827200499668731659e-01
-5.716000000000000192e+00 2.554299999999999926e+01 3.019900000000000162e+01 9.566548000000000274e-01 -2.798983600905112779e-01
-5.716000000000000192e+00 2.629200000000000159e+01 2.687500000000000000e+01 5.738302000000000014e+00 -2.814201342391854377e-01
-5.715099999999999625e+00 3.159199999999999875e+01 2.642399999999999949e+01 1.301932000000000045e+01 -1.620376854313359538e-01
-5.710899999999999643e+00 2.557700000000000173e+01 3.674799999999999756e+01 -2.442873000000000072e+00 -3.424252766612763121e-01
-5.710899999999999643e+00 2.557700000000000173e+01 3.814800000000000324e+01 -9.551011000000000806e+00 -3.425540466047515276e-01
-5.689099999999999824e+00 5.085000000000000142e+01 2.210999999999999943e+01 2.251221999999999834e+00 -3.243712243146648078e-01
-5.684000000000000163e+00 2.526899999999999835e+01 3.223499999999999943e+01 -1.720237000000000016e-01 -2.462746634142634894e-01
-5.683699999999999974e+00 2.734900000000000020e+01 2.545100000000000051e+01 3.524977999999999945e+00 -1.779159689203394235e-01
-5.682699999999999640e+00 2.429400000000000048e+01 3.343599999999999994e+01 7.742990999999999957e+00 -2.375670647149890624e-01
-5.682699999999999640e+00 2.429400000000000048e+01 3.618599999999999994e+01 -8.065700000000000647e-02 -3.427076397350817816e-01
-5.679999999999999716e+00 3.661999999999999744e+01 2.512800000000000011e+01 -2.960432000000000130e+01 2.738829004398567885e-02
-5.675699999999999967e+00 5.072200000000000131e+01 2.617299999999999827e+01 -8.374911000000000882e+00 -3.278630877385134423e-02
-5.673600000000000421e+00 3.468399999999999750e+01 4.077600000000000335e+01 -1.627587000000000117e+01 -2.433163907035464091e-01
-5.658000000000000362e+00 3.181500000000000128e+01 3.322599999999999909e+01 -7.130708000000000046e-01 2.751355858208289276e-02
-5.650999999999999801e+00 2.557600000000000051e+01 3.071600000000000108e+01 3.999037999999999760e-01 -2.780940871851173557e-01
-5.650999999999999801e+00 2.557600000000000051e+01 3.158200000000000074e+01 -1.154238000000000097e+00 -2.500024842969404415e-01
-5.640900000000000247e+00 3.539000000000000057e+01 2.336499999999999844e+01 -4.268631000000000064e+00 -4.866494064599192343e-02
-5.640900000000000247e+00 3.539000000000000057e+01 2.595100000000000051e+01 -4.174737999999999971e+01 1.760689673072698275e-02
-5.640200000000000102e+00 3.160800000000000054e+01 2.526200000000000045e+01 1.443204000000000065e+01 -2.516388624340286095e-01
-5.639400000000000190e+00 2.881700000000000017e+01 2.489499999999999957e+01 2.439874999999999794e+00 -1.720358059504525639e-01
-5.633499999999999730e+00 5.314300000000000068e+01 2.430499999999999972e+01 -2.967988000000000071e+01 1.188355218299133945e-02
-5.631599999999999717e+00 3.844700000000000273e+01 2.329899999999999949e+01 5.093857999999999997e+00 -2.625671225204861958e-01
-5.623300000000000409e+00 2.975199999999999889e+01 3.219500000000000028e+01 2.591216000000000186e+00 2.305662967357843124e-02
-5.622200000000000308e+00 2.689499999999999957e+01 4.053000000000000114e+01 -5.557319999999999816e+00 -2.334914903198833380e-01
-5.618000000000000327e+00 3.523700000000000188e+01 3.358700000000000330e+01 2.951781000000000077e+01 -2.676511871672513365e-01
-5.610500000000000043e+00 4.696099999999999852e+01 2.325600000000000023e+01 -4.820096999999999632e+00 4.241494398144846772e-02
-5.604899999999999771e+00 4.852700000000000102e+01 2.602400000000000091e+01 -6.923333999999999655e+00 -5.594066547014037161e-02
-5.598300000000000054e+00 4.773700000000000188e+01 2.217399999999999949e+01 3.629512999999999767e-01 4.707695047349777506e-02
-5.595799999999999663e+00 3.068400000000000105e+01 2.782600000000000051e+01 1.311156000000000077e+01 -8.222989709975397910e-02
-5.595699999999999896e+00 3.538799999999999812e+01 3.457999999999999829e+01 1.335047999999999924e+01 -2.626598056471158849e-01
-5.594199999999999839e+00 2.949500000000000099e+01 3.147700000000000031e+01 7.164042000000000243e+00 2.209326450699068689e-02
-5.589999999999999858e+00 2.576399999999999935e+01 3.889399999999999835e+01 -4.441105999999999909e+01 -3.422405330613856878e-01
-5.589100000000000179e+00 5.109499999999999886e+01 2.301500000000000057e+01 -5.171206999999999887e+00 -3.235888591472699805e-01
-5.588199999999999612e+00 3.380899999999999750e+01 3.254999999999999716e+01 4.384568999999999939e+00 -6.886945847899986206e-02
-5.580899999999999750e+00 3.410000000000000142e+01 2.418900000000000006e+01 1.446001000000000092e+00 4.464100797091914707e-02
-5.580899999999999750e+00 3.410000000000000142e+01 2.512699999999999889e+01 5.306034999999999613e+00 3.289763846425507871e-02
-5.580899999999999750e+00 3.667999999999999972e+01 2.418900000000000006e+01 -7.296751999999999683e+00 -5.887390913110904928e-02
-5.554000000000000270e+00 2.608699999999999974e+01 3.622200000000000131e+01 2.685115000000000141e+00 -3.421720317258958310e-01
-5.546999999999999709e+00 3.439699999999999847e+01 4.194700000000000273e+01 -4.744066000000000116e+01 -1.438357138614384523e-01
-5.532300000000000217e+00 5.178099999999999881e+01 2.726899999999999835e+01 -1.891935000000000144e+01 -1.000151569517696570e-01
-5.532300000000000217e+00 5.330100000000000193e+01 2.726899999999999835e+01 -5.655559999999999832e+01 -1.094783968999371582e-02
-5.529300000000000104e+00 3.421699999999999875e+01 3.702100000000000080e+01 9.134468000000000032e+00 -2.396229764449082089e-01
-5.529300000000000104e+00 3.421699999999999875e+01 3.788600000000000279e+01 -2.481023000000000067e+01 -2.341513311178173018e-01
-5.523799999999999599e+00 2.697400000000000020e+01 3.966199999999999903e+01 -2.411982000000000070e+01 -3.410596806159905681e-01
-5.522499999999999964e+00 4.891799999999999926e+01 2.106500000000000128e+01 -3.105566000000000160e-01 3.838175530222428383e-02
-5.507900000000000240e+00 3.316700000000000159e+01 4.277000000000000313e+01 -2.839729000000000170e+01 -1.552073979718976149e-01
-5.506999999999999673e+00 2.840099999999999980e+01 3.829800000000000182e+01 1.314807000000000059e+00 -2.436100768287247365e-01
-5.504699999999999704e+00 3.053699999999999903e+01 2.496600000000000108e+01 4.290208999999999939e+00 -2.507249925788025968e-01
-5.500700000000000145e+00 5.214999999999999858e+01 2.388100000000000023e+01 -8.173942999999999515e+00 -3.165311588066861415e-01
-5.490300000000000402e+00 2.492599999999999838e+01 3.296200000000000330e+01 5.510244000000000142e+00 -3.561867520177881552e-01
-5.489300000000000068e+00 3.961699999999999733e+01 2.432700000000000173e+01 -7.392533000000000243e+00 -7.181077897058361914e-02
-5.489300000000000068e+00 4.113700000000000045e+01 2.432700000000000173e+01 -1.454166000000000025e+01 -5.529888474590512193e-02
-5.481499999999999595e+00 2.904500000000000171e+01 3.462599999999999767e+01 -3.279376999999999986e-01 -2.377109623249946679e-01
-5.477999999999999758e+00 5.001200000000000045e+01 2.106500000000000128e+01 1.131169000000000047e+01 -3.271150979102607215e-01
-5.474999999999999645e+00 2.786199999999999832e+01 3.921099999999999852e+01 -7.901690999999999576e+00 -3.405653472948383942e-01
-5.456199999999999939e+00 5.342699999999999960e+01 2.476800000000000068e+01 -4.512494000000000227e+01 1.675126148703651174e-02
-5.423000000000000043e+00 3.445100000000000051e+01 2.566600000000000037e+01 -1.155502999999999947e+00 2.559265504721461998e-02
-5.411299999999999777e+00 3.242099999999999937e+01 4.283200000000000074e+01 -1.259285000000000032e+01 -1.590423792349877630e-01
-5.408000000000000362e+00 3.838499999999999801e+01 2.134100000000000108e+01 1.836940999999999846e+01 -1.575395495477267260e-01
-5.408000000000000362e+00 3.838499999999999801e+01 2.239099999999999824e+01 2.044451000000000107e+01 -2.532916275203726530e-01
-5.408000000000000362e+00 4.113499999999999801e+01 2.134100000000000108e+01 2.277924000000000149e+01 -5.008234503383572622e-02
-5.397199999999999775e+00 3.001399999999999935e+01 3.664699999999999847e+01 -2.293905999999999779e+00 -1.501695127978355249e-01
-5.373000000000000220e+00 3.075700000000000145e+01 3.690500000000000114e+01 -4.702754999999999797e+00 -1.526755648886404804e-01
-5.371999999999999886e+00 2.664300000000000068e+01 3.538199999999999790e+01 1.733483999999999980e+01 -3.417689927961307661e-01
-5.364300000000000068e+00 3.975999999999999801e+01 2.042000000000000171e+01 1.195701000000000036e+01 -1.600513096989494288e-01
-5.358999999999999986e+00 2.682400000000000162e+01 2.630099999999999838e+01 7.042377000000000109e+00 -2.775232772377984047e-01
-5.357999999999999652e+00 2.376899999999999835e+01 3.428600000000000136e+01 6.119102999999999959e+00 -1.897747166315214701e-02
-5.357999999999999652e+00 2.376899999999999835e+01 3.533599999999999852e+01 9.473135000000000305e-01 -3.425317301663379776e-01
-5.338899999999999757e+00 2.971099999999999852e+01 3.594700000000000273e+01 -4.842119000000000284e+00 -1.532152302080244111e-01
-5.338899999999999757e+00 2.971099999999999852e+01 3.734700000000000131e+01 -2.780417000000000027e-01 -1.489814104433865583e-01
-5.331699999999999662e+00 4.662100000000000222e+01 2.455799999999999983e+01 -4.495778000000000274e-01 6.171941963674930018e-03
-5.328700000000000436e+00 4.149799999999999756e+01 2.208299999999999841e+01 4.368642999999999832e-01 -4.466322327394200292e-02
-5.315299999999999692e+00 2.819900000000000162e+01 2.537999999999999901e+01 4.538001000000000396e+00 -1.718698376093313607e-01
-5.314300000000000246e+00 2.514399999999999835e+01 3.625699999999999790e+01 1.516877000000000031e+00 -3.425245287030241892e-01
-5.306899999999999729e+00 3.087600000000000122e+01 4.314999999999999858e+01 -5.064555000000000362e+00 -1.663308465157332938e-01
-5.304000000000000270e+00 3.106599999999999895e+01 2.694900000000000162e+01 8.182809999999999917e+00 -1.629767440092793340e-01
-5.260299999999999976e+00 2.969099999999999895e+01 2.497800000000000153e+01 3.634930999999999912e+00 -2.517137691637675312e-01
-5.253999999999999559e+00 2.758500000000000085e+01 4.171300000000000097e+01 4.327850999999999781e-01 -2.456739019455626283e-01
-5.244399999999999729e+00 5.143200000000000216e+01 2.385200000000000031e+01 -6.044824000000000197e+00 -3.219402847767781628e-01
-5.241999999999999993e+00 5.131099999999999994e+01 2.650900000000000034e+01 -1.445404000000000089e+01 -9.141173367269034289e-02
-5.241999999999999993e+00 5.377100000000000080e+01 2.556899999999999906e+01 -2.069150000000000134e+01 -6.728974289160007116e-02
-5.241999999999999993e+00 5.377100000000000080e+01 2.650900000000000034e+01 -5.250460999999999956e+01 -7.090060076833634706e-02
-5.237000000000000099e+00 2.587699999999999889e+01 2.739399999999999835e+01 2.876373000000000069e+00 -2.835222596025138708e-01
-5.236699999999999910e+00 2.957100000000000151e+01 4.305199999999999960e+01 6.439233999999999902e+00 -2.797177744493765661e-01
-5.228900000000000325e+00 2.813800000000000168e+01 4.229599999999999937e+01 1.756291999999999964e+00 -2.652105400148182524e-01
-5.227999999999999758e+00 3.014600000000000080e+01 2.974200000000000088e+01 -6.305261999999999745e+01 2.038404088858683863e-02
-5.227999999999999758e+00 3.037300000000000111e+01 2.894300000000000139e+01 -2.212280000000000157e+01 1.994629254267181115e-02
-5.225299999999999834e+00 3.111499999999999844e+01 3.295900000000000318e+01 -1.454344999999999999e+00 2.482766537405273546e-02
-5.223900000000000432e+00 3.162000000000000099e+01 3.717300000000000182e+01 2.493545999999999818e+00 -1.437184518193970473e-01
-5.216300000000000381e+00 2.724399999999999977e+01 4.090999999999999659e+01 2.462683000000000177e+01 -2.391776677216009561e-01
-5.214100000000000179e+00 2.947800000000000153e+01 3.532600000000000051e+01 -9.710399000000000669e+00 -1.539494874657428292e-01
-5.210300000000000153e+00 3.492000000000000171e+01 2.389799999999999969e+01 -4.885078000000000031e+00 -4.557314560803048947e-02
-5.210300000000000153e+00 3.492000000000000171e+01 2.541799999999999926e+01 -2.071198000000000050e+01 2.970085892819529505e-02
-5.210300000000000153e+00 3.585999999999999943e+01 2.389799999999999969e+01 -5.728761999999999688e+00 -4.957763004238784077e-02
-5.210300000000000153e+00 3.585999999999999943e+01 2.541799999999999926e+01 -2.915345999999999904e+01 2.736491692858589869e-02
-5.202899999999999636e+00 5.254099999999999682e+01 2.733200000000000074e+01 -4.236878000000000100e+01 -8.585851203514052732e-02
-5.198999999999999844e+00 3.914699999999999847e+01 2.356700000000000017e+01 -4.403837000000000224e+00 -7.500503694871006599e-02
-5.198999999999999844e+00 4.160699999999999932e+01 2.262699999999999889e+01 -8.151802999999999244e+00 -4.374041127107498872e-02
-5.198999999999999844e+00 4.160699999999999932e+01 2.356700000000000017e+01 -3.169382999999999839e+01 -4.636182403097455218e-02
-5.198100000000000165e+00 4.748499999999999943e+01 2.280600000000000094e+01 -4.173794000000000004e+00 5.009327221777609696e-02
-5.189899999999999736e+00 2.507900000000000063e+01 3.333500000000000085e+01 2.714901999999999926e+00 -3.564666012624181368e-01
-5.178700000000000081e+00 4.842900000000000205e+01 2.171099999999999852e+01 -7.730995000000000505e-01 4.568660394989966511e-02
-5.178600000000000314e+00 3.112199999999999989e+01 2.591199999999999903e+01 8.552948999999999913e+00 -2.515007849860894651e-01
-5.178099999999999703e+00 2.834499999999999886e+01 3.456799999999999784e+01 2.639380999999999844e+01 -2.340998169348705304e-01
-5.163000000000000256e+00 3.494299999999999784e+01 3.517699999999999960e+01 4.074219000000000257e+00 -2.553982897750636250e-01
-5.161299999999999777e+00 2.575400000000000134e+01 2.994900000000000162e+01 3.808879999999999910e+01 -2.787445290501324724e-01
-5.159900000000000375e+00 4.037700000000000244e+01 2.439000000000000057e+01 -2.788375999999999877e+01 -6.866887242365501964e-02
-5.149499999999999744e+00 3.480400000000000205e+01 3.302600000000000335e+01 7.193056000000000338e+00 -2.671674309847861251e-01
-5.147000000000000242e+00 3.459100000000000108e+01 2.465800000000000125e+01 -6.432056000000000218e+00 4.199315086204306879e-02
-5.147000000000000242e+00 3.618900000000000006e+01 2.465800000000000125e+01 -4.003473999999999933e+01 4.064068981941122705e-02
-5.136000000000000121e+00 3.429200000000000159e+01 3.881099999999999994e+01 -2.719390999999999892e+01 -2.305786274825157300e-01
-5.131800000000000139e+00 5.027700000000000102e+01 2.165500000000000114e+01 8.933330999999999911e-01 -3.285741061996844126e-01
-5.122499999999999609e+00 3.463300000000000267e+01 3.595000000000000284e+01 1.250882999999999967e+01 -2.474974337918999512e-01
-5.120300000000000296e+00 5.023499999999999943e+01 2.564499999999999957e+01 -4.056293000000000148e+00 -3.646578020307952167e-02
-5.119600000000000151e+00 4.929999999999999716e+01 2.572400000000000020e+01 1.571186999999999889e+00 -7.721490742341899360e-02
-5.108799999999999564e+00 5.163900000000000290e+01 2.468900000000000006e+01 -1.012542999999999971e+01 -3.187668948150726989e-01
-5.108799999999999564e+00 5.254099999999999682e+01 2.468900000000000006e+01 -1.934324000000000154e+01 -6.877841746510326981e-02
-5.105699999999999683e+00 3.032400000000000162e+01 3.620499999999999829e+01 -3.821296999999999944e+00 -1.545931109751916832e-01
-5.105699999999999683e+00 3.119000000000000128e+01 3.620499999999999829e+01 3.611242999999999981e+00 -1.594895301796823706e-01
-5.100600000000000023e+00 2.595400000000000063e+01 3.187399999999999878e+01 -9.621049000000000406e-01 -3.538443671222309961e-01
-5.089900000000000091e+00 2.601500000000000057e+01 3.082100000000000151e+01 5.085503000000000107e+00 -2.753585098164583189e-01
-5.084600000000000009e+00 5.094800000000000040e+01 2.580799999999999983e+01 -6.428316999999999837e+00 -9.293792394663397821e-03
-5.082699999999999996e+00 3.112099999999999866e+01 3.801700000000000301e+01 9.091596999999999873e-02 -1.539095167727257962e-01
-5.077399999999999913e+00 3.404200000000000159e+01 4.052300000000000324e+01 -3.487727000000000288e+01 -2.495302997001186962e-01
-5.077300000000000146e+00 3.363700000000000045e+01 4.223700000000000188e+01 -5.257184999999999775e+01 -1.546326459308387524e-01
-5.076299999999999812e+00 3.026200000000000045e+01 3.260699999999999932e+01 2.106808000000000014e+00 2.284908686512765463e-02
-5.044400000000000439e+00 4.757500000000000284e+01 2.565599999999999881e+01 1.528027999999999942e+00 -4.655153087275970547e-02
-5.036900000000000155e+00 3.435199999999999676e+01 3.975000000000000000e+01 -2.602654000000000067e+01 -2.395784295718018098e-01
-5.035899999999999821e+00 3.010900000000000176e+01 4.318500000000000227e+01 8.285268000000000077e-01 -1.619025327483278598e-01
-5.032899999999999707e+00 2.737099999999999866e+01 4.009400000000000119e+01 1.061017000000000099e+00 -3.405259564301773567e-01
-5.014800000000000146e+00 3.235699999999999932e+01 3.717300000000000182e+01 1.542561000000000071e+01 -2.392707361878452788e-01
-5.014000000000000234e+00 3.396600000000000108e+01 4.147699999999999676e+01 -5.399201999999999657e+01 -1.490138399476013398e-01
-4.989200000000000301e+00 2.719999999999999929e+01 3.486599999999999966e+01 4.277756999999999721e+01 -2.263552646452555162e-01
-4.981700000000000017e+00 2.925100000000000122e+01 3.797299999999999898e+01 3.883224999999999927e+00 -1.465000158058958335e-01
-4.981700000000000017e+00 3.030099999999999838e+01 3.797299999999999898e+01 2.253324999999999800e+00 -1.502919135402236983e-01
-4.971000000000000085e+00 3.165099999999999980e+01 4.308500000000000085e+01 -3.550486999999999949e+00 -1.717102378797424611e-01
-4.970600000000000129e+00 5.110099999999999909e+01 2.440500000000000114e+01 -7.415703999999999851e+00 -3.244571288365126760e-01
-4.956500000000000128e+00 3.205299999999999727e+01 3.647299999999999898e+01 2.048570000000000135e+01 -1.467021486643410588e-01
-4.956500000000000128e+00 3.205299999999999727e+01 3.787299999999999756e+01 -7.287736999999999910e+00 -2.406639829021872123e-01
-4.946799999999999642e+00 2.650100000000000122e+01 2.713899999999999935e+01 5.569388000000000005e+00 -2.796861806836314357e-01
-4.940999999999999837e+00 2.539799999999999969e+01 2.816900000000000048e+01 5.021317999999999948e+00 -2.845579551846910138e-01
-4.940999999999999837e+00 2.539799999999999969e+01 2.912699999999999889e+01 -1.450886000000000120e-01 -2.817596501505363893e-01
-4.921899999999999942e+00 3.181500000000000128e+01 3.301700000000000301e+01 4.474098999999999826e+00 2.534587558589541587e-02
-4.919999999999999929e+00 3.539000000000000057e+01 2.465800000000000125e+01 -5.385470999999999719e+01 4.356419216944294737e-02
-4.904799999999999827e+00 2.873499999999999943e+01 3.879399999999999693e+01 3.823313000000000184e+00 -2.471724892373691473e-01
-4.883000000000000007e+00 5.127400000000000091e+01 2.528000000000000114e+01 -9.540634999999999977e+00 6.342788575560144929e-03
-4.882699999999999818e+00 3.923499999999999943e+01 2.101599999999999824e+01 9.306739000000000317e+00 -1.606929373423249818e-01
-4.882699999999999818e+00 4.028499999999999659e+01 2.101599999999999824e+01 1.573091999999999935e+01 -1.657763328994282803e-01
-4.868299999999999628e+00 2.872100000000000009e+01 4.298100000000000165e+01 8.673187999999999453e-01 -2.725739229087323356e-01
-4.854000000000000092e+00 4.790400000000000347e+01 2.256099999999999994e+01 3.938395000000000090e-01 5.132746538447131857e-02
-4.854000000000000092e+00 5.065400000000000347e+01 2.256099999999999994e+01 1.138208000000000020e+01 -3.293257147058148981e-01
-4.846000000000000085e+00 4.709499999999999886e+01 2.369600000000000151e+01 -7.421936000000000089e-01 4.228025224518226766e-02
-4.846000000000000085e+00 4.709499999999999886e+01 2.474599999999999866e+01 2.489416000000000129e-01 -2.532191736060154168e-04
-4.838199999999999612e+00 3.509899999999999665e+01 3.411200000000000188e+01 6.562013000000000318e+00 -2.647251312523669631e-01
-4.833700000000000330e+00 2.767399999999999949e+01 2.597599999999999909e+01 6.454939999999999678e+00 -1.809201275503091733e-01
-4.832699999999999996e+00 2.461899999999999977e+01 3.396099999999999852e+01 3.350014999999999965e+00 -3.329404047569804043e-02
-4.832699999999999996e+00 2.461899999999999977e+01 3.566100000000000136e+01 1.056446000000000052e-01 -3.425598425358906129e-01
-4.832699999999999996e+00 2.566900000000000048e+01 3.566100000000000136e+01 1.359516999999999953e+01 -3.422305458911469866e-01
-4.829299999999999926e+00 3.415899999999999892e+01 3.671699999999999875e+01 9.989525999999999684e+00 -2.404288315776512697e-01
-4.815400000000000347e+00 3.155399999999999849e+01 3.871699999999999875e+01 -4.705034000000000383e+00 -1.558704275731883082e-01
-4.811899999999999622e+00 3.886599999999999966e+01 2.186599999999999966e+01 8.420434000000000196e+00 -1.624310193867234686e-01
-4.810299999999999798e+00 4.927900000000000347e+01 2.164000000000000057e+01 4.857259999999999911e-01 -3.338644229989300993e-01
-4.802299999999999791e+00 4.846999999999999886e+01 2.566700000000000159e+01 1.866735999999999862e+01 -4.122886141240138247e-02
-4.799599999999999866e+00 3.911099999999999710e+01 2.271199999999999974e+01 4.741627999999999954e-01 -1.683515451376507710e-01
-4.795200000000000351e+00 3.065599999999999881e+01 3.877000000000000313e+01 2.508353000000000055e+00 -1.516614268261517740e-01
-4.789399999999999658e+00 3.294700000000000273e+01 4.232800000000000296e+01 -1.354556999999999967e+01 -1.613849421398551587e-01
-4.785000000000000142e+00 3.112099999999999866e+01 3.909799999999999898e+01 2.173961000000000088e-01 -1.540377245802554973e-01
-4.781500000000000306e+00 2.877799999999999869e+01 3.505899999999999750e+01 -8.650207999999999231e+00 -2.363602644081749804e-01
-4.778699999999999726e+00 2.916600000000000037e+01 2.557400000000000162e+01 2.849327999999999861e+00 -2.512338841716733606e-01
-4.778699999999999726e+00 3.021600000000000108e+01 2.557400000000000162e+01 4.597990000000000244e+00 -2.499550905608626528e-01
-4.775000000000000355e+00 2.812900000000000134e+01 3.964399999999999835e+01 -4.673945999999999934e-01 -2.462282114441482206e-01
-4.772300000000000431e+00 5.207099999999999795e+01 2.527899999999999991e+01 -1.275956000000000046e+01 -6.606426140441527817e-02
-4.772300000000000431e+00 5.207099999999999795e+01 2.679899999999999949e+01 -2.256627999999999901e+01 -7.507289790138789443e-02
-4.772300000000000431e+00 5.301100000000000279e+01 2.527899999999999991e+01 -1.710504999999999853e+01 -6.029921839996509048e-02
-4.772300000000000431e+00 5.301100000000000279e+01 2.679899999999999949e+01 -3.523841999999999786e+01 -6.596167661394800041e-02
-4.763799999999999812e+00 2.710000000000000142e+01 2.664900000000000091e+01 3.141878000000000171e+00 -2.760447431180716449e-01
-4.761899999999999800e+00 2.425000000000000000e+01 3.481099999999999994e+01 2.245261999999999869e+00 -2.720549091660711197e-02
-4.761499999999999844e+00 5.036500000000000199e+01 2.440500000000000114e+01 -5.611854000000000120e+00 -3.320377852991439060e-01
-4.757299999999999862e+00 2.577899999999999991e+01 3.306700000000000017e+01 3.062711999999999879e+00 -3.552631853631679215e-01
-4.751400000000000290e+00 2.981700000000000017e+01 3.188700000000000045e+01 1.126240999999999914e+01 2.087180297542742119e-02
-4.748800000000000132e+00 3.284499999999999886e+01 3.764500000000000313e+01 -2.126128000000000018e+00 -2.347156545872052524e-01
-4.748000000000000220e+00 2.773799999999999955e+01 4.226100000000000279e+01 3.980411000000000143e+00 -2.499496163898443368e-01
-4.729300000000000281e+00 3.990699999999999648e+01 2.385699999999999932e+01 -1.825366000000000000e+01 -7.569925287934128888e-02
-4.729300000000000281e+00 4.084700000000000131e+01 2.385699999999999932e+01 -1.958950000000000102e+01 -6.572871940152333337e-02
-4.724800000000000111e+00 5.070400000000000063e+01 2.362800000000000011e+01 1.678898999999999830e+01 -3.302169784680605291e-01
-4.724599999999999689e+00 3.322800000000000153e+01 4.074099999999999966e+01 -2.352474000000000132e+01 -1.524454306804020054e-01
-4.722599999999999909e+00 4.068299999999999983e+01 2.179700000000000060e+01 1.112319999999999975e+00 -1.728949360594018159e-01
-4.709100000000000286e+00 3.075700000000000145e+01 3.571399999999999864e+01 -1.867720000000000047e+00 -1.578694740326576362e-01
-4.708999999999999631e+00 5.174199999999999733e+01 2.603900000000000148e+01 -1.186937999999999960e+01 -7.098217910744082648e-02
-4.708999999999999631e+00 5.334000000000000341e+01 2.603900000000000148e+01 -2.969122000000000128e+01 -5.869346572450160476e-02
-4.707900000000000418e+00 3.058500000000000085e+01 2.642399999999999949e+01 7.304507000000000083e+00 -2.550879832934784819e-01
-4.704600000000000115e+00 2.863200000000000145e+01 2.589600000000000080e+01 6.191990999999999801e+00 -2.727537499768031837e-01
-4.695199999999999818e+00 4.985999999999999943e+01 2.483999999999999986e+01 4.249858000000000247e-01 -3.359949827307806003e-01
-4.693999999999999950e+00 2.959600000000000009e+01 3.113100000000000023e+01 9.211906000000000816e+00 1.989728543017403942e-02
-4.693999999999999950e+00 2.980499999999999972e+01 3.039499999999999957e+01 -2.244381999999999877e+01 1.943146987826043642e-02
-4.690299999999999692e+00 3.375600000000000023e+01 3.257000000000000028e+01 2.921053999999999817e+00 -7.413648845655930464e-02
-4.689099999999999824e+00 3.322899999999999920e+01 4.147699999999999676e+01 -2.359856999999999871e+01 -1.570919198068505551e-01
-4.685800000000000409e+00 2.789999999999999858e+01 3.480799999999999983e+01 6.307242000000000104e+01 -2.312740535704961020e-01
-4.674000000000000377e+00 2.610600000000000165e+01 3.252799999999999869e+01 1.296488000000000085e+00 -3.542672332550623748e-01
-4.669500000000000206e+00 3.392300000000000182e+01 3.763799999999999812e+01 -3.275342999999999893e+00 -2.342328103616286294e-01
-4.666299999999999670e+00 3.259199999999999875e+01 3.852100000000000080e+01 -1.689076999999999984e+01 -2.433640832227112194e-01
-4.666299999999999670e+00 3.353199999999999648e+01 4.004099999999999682e+01 -6.200307999999999709e+01 -2.511570609005686072e-01
-4.666000000000000369e+00 3.957800000000000296e+01 2.309700000000000131e+01 -6.092232000000000092e+00 -7.562769992594024770e-02
-4.666000000000000369e+00 4.117600000000000193e+01 2.309700000000000131e+01 -2.550813000000000130e+01 -5.791012269417811220e-02
-4.650699999999999612e+00 3.026699999999999946e+01 2.725400000000000134e+01 3.224845000000000184e+00 -7.840678922542122786e-02
-4.630899999999999572e+00 4.090800000000000125e+01 2.233800000000000097e+01 -8.918516000000000332e+00 -5.983736150618577943e-02
-4.602999999999999758e+00 3.386099999999999710e+01 3.928099999999999881e+01 -4.446916999999999831e+01 -2.413022599799076739e-01
-4.591000000000000192e+00 3.459400000000000119e+01 3.228399999999999892e+01 1.584235000000000060e+00 -7.249224429703123029e-02
-4.588300000000000267e+00 2.647200000000000131e+01 3.019999999999999929e+01 4.749681000000000353e+01 -2.748695270059683393e-01
-4.588300000000000267e+00 2.647200000000000131e+01 3.106599999999999895e+01 5.655569999999999986e+00 -3.523169107263362521e-01
-4.573000000000000398e+00 3.507000000000000028e+01 3.454200000000000159e+01 1.549457000000000084e+00 -2.611838781142661881e-01
-4.570000000000000284e+00 3.983100000000000307e+01 2.209799999999999898e+01 6.292222999999999900e+00 -1.706640765124463888e-01
-4.568900000000000183e+00 2.604899999999999949e+01 3.348100000000000165e+01 5.470050999999999775e+00 -3.555653438941580591e-01
-4.567899999999999849e+00 3.359300000000000352e+01 3.852199999999999847e+01 -3.283617999999999881e+01 -2.363921420430555309e-01
-4.566499999999999559e+00 2.886499999999999844e+01 2.655199999999999960e+01 8.275156000000000844e+00 -3.639810354075056487e-01
-4.547500000000000320e+00 2.982199999999999918e+01 3.873700000000000188e+01 1.053704999999999892e+00 -1.473253221131887725e-01
-4.517699999999999605e+00 3.068799999999999883e+01 3.979800000000000182e+01 6.680447999999999942e-01 -1.530365339706456496e-01
-4.517699999999999605e+00 3.155399999999999849e+01 3.979800000000000182e+01 -6.140058999999999934e+00 -1.590337519575098502e-01
-4.510600000000000165e+00 2.574599999999999866e+01 3.418099999999999739e+01 7.994940999999999853e+00 -3.568120620411773802e-01
-4.508000000000000007e+00 2.514399999999999835e+01 3.481099999999999994e+01 3.317254999999999843e+00 -3.900199177769033548e-02
-4.507600000000000051e+00 3.019099999999999895e+01 3.952300000000000324e+01 2.396309000000000078e-01 -1.492997161470780709e-01
-4.498400000000000176e+00 3.224600000000000222e+01 3.925200000000000244e+01 -4.262013000000000318e+01 -1.504466125913874464e-01
-4.491999999999999993e+00 3.087600000000000122e+01 4.338100000000000023e+01 -1.316093000000000046e+01 -1.676784262811302773e-01
-4.483900000000000219e+00 3.001599999999999824e+01 2.961199999999999832e+01 -5.205297000000000196e+01 1.847246186653358352e-02
-4.482000000000000206e+00 5.254099999999999682e+01 2.603900000000000148e+01 -4.230104000000000042e+01 -5.748446685205466089e-02
-4.479000000000000092e+00 2.764999999999999858e+01 4.041899999999999693e+01 5.086039000000000421e+00 -3.400431086692120020e-01
-4.467999999999999972e+00 3.008299999999999841e+01 2.847299999999999898e+01 -2.447113999999999834e+01 -1.252810984167464503e-01
-4.463000000000000078e+00 3.500099999999999767e+01 3.547999999999999687e+01 -6.251828999999999859e+00 -2.517333045497692767e-01
-4.461999999999999744e+00 2.617299999999999827e+01 2.787300000000000111e+01 -3.144350999999999896e+00 -2.813638021209549089e-01
-4.461999999999999744e+00 2.617299999999999827e+01 2.942299999999999827e+01 -5.951064999999999827e+00 -2.773759433456201018e-01
-4.454100000000000392e+00 2.957100000000000151e+01 4.339699999999999847e+01 3.414395999999999987e+00 -2.824305941117946639e-01
-4.453999999999999737e+00 2.969099999999999895e+01 2.642399999999999949e+01 8.989584999999999937e+00 -2.493358993992519923e-01
-4.449499999999999567e+00 3.486299999999999955e+01 3.272200000000000131e+01 2.290913999999999895e+00 -6.797598175130545317e-02
-4.448900000000000077e+00 3.009299999999999997e+01 3.554999999999999716e+01 -7.250605000000000189e+00 -1.539653605434001260e-01
-4.439000000000000057e+00 4.037700000000000244e+01 2.309700000000000131e+01 -3.758395000000000152e+01 -7.143112323414138598e-02
-4.438100000000000378e+00 3.226800000000000068e+01 4.271200000000000330e+01 -1.895569999999999977e+00 1.479878846179661644e-01
-4.424599999999999866e+00 3.110699999999999932e+01 3.269800000000000040e+01 3.460684000000000093e+00 2.219583934642873138e-02
-4.417500000000000426e+00 3.281900000000000261e+01 3.267600000000000193e+01 2.440602999999999856e+00 2.524793298574359163e-02
-4.409600000000000186e+00 3.467099999999999937e+01 3.628699999999999903e+01 -2.731161999999999868e+00 -2.429326287027477327e-01
-4.405700000000000394e+00 3.145700000000000074e+01 3.577199999999999847e+01 6.005544999999999689e+00 -1.504464930990281335e-01
-4.397499999999999964e+00 2.583699999999999974e+01 2.864799999999999969e+01 -1.195462000000000025e+01 -2.803912917697991558e-01
-4.392299999999999649e+00 2.607999999999999829e+01 3.492600000000000193e+01 1.380151000000000039e+01 -3.417977018123339317e-01
-4.378999999999999559e+00 4.824799999999999756e+01 2.267099999999999937e+01 -1.133588999999999958e+00 4.993155138226670897e-02
-4.376000000000000334e+00 3.306199999999999761e+01 3.928099999999999881e+01 -8.022374000000000649e+01 -2.484820555397773134e-01
-4.345200000000000173e+00 2.938899999999999935e+01 2.730900000000000105e+01 1.199718999999999980e+00 -1.707264458490448389e-01
-4.344699999999999562e+00 3.207500000000000284e+01 3.998599999999999710e+01 -6.672051999999999872e+00 -1.637673111494778178e-01
-4.338300000000000267e+00 2.976200000000000045e+01 2.793900000000000006e+01 -2.215917000000000137e+00 -8.595966071927374497e-02
-4.328700000000000436e+00 4.875399999999999778e+01 2.223600000000000065e+01 -2.823303999999999814e-01 4.623959534915596942e-02
-4.328700000000000436e+00 4.980400000000000205e+01 2.223600000000000065e+01 7.265869999999999607e+00 -3.363705562200604016e-01
-4.328000000000000291e+00 3.586099999999999710e+01 3.033399999999999963e+01 -1.080713000000000079e+01 1.056742164501997677e-01
-4.320700000000000429e+00 4.794500000000000028e+01 2.337099999999999866e+01 -2.625000000000000000e+00 4.449967461646355676e-02
-4.320700000000000429e+00 4.794500000000000028e+01 2.507100000000000151e+01 1.449325999999999937e+01 -1.347108561542139163e-02
-4.320700000000000429e+00 4.899499999999999744e+01 2.507100000000000151e+01 1.460656999999999961e+01 -1.484498075766621517e-02
-4.310399999999999565e+00 2.713100000000000023e+01 2.942299999999999827e+01 -8.683317000000000618e+00 -2.750416550461962650e-01
-4.309800000000000075e+00 3.279999999999999716e+01 4.004899999999999949e+01 -1.599305000000000021e+01 -1.547937129654881339e-01
-4.293700000000000294e+00 2.740399999999999991e+01 2.737999999999999901e+01 3.396222999999999992e+00 -2.752480231836339497e-01
-4.293700000000000294e+00 2.845400000000000063e+01 2.737999999999999901e+01 6.792651000000000217e+00 -2.720820890616465482e-01
-4.282000000000000028e+00 3.319100000000000250e+01 3.703699999999999903e+01 -1.964523999999999937e+00 -2.381075917721942603e-01
-4.263499999999999623e+00 2.751300000000000168e+01 4.149199999999999733e+01 2.074565999999999910e+00 -2.456642646618820147e-01
-4.261400000000000077e+00 3.029599999999999937e+01 3.226299999999999812e+01 8.045078000000000173e+00 2.031217095921911478e-02
-4.257900000000000240e+00 5.017300000000000182e+01 2.308599999999999852e+01 3.343350000000000222e+01 -3.370205121098468481e-01
-4.256499999999999950e+00 3.232000000000000028e+01 3.604099999999999682e+01 -3.776556999999999942e+00 -1.476339759864483403e-01
-4.249900000000000233e+00 4.757600000000000051e+01 2.422100000000000009e+01 3.033262999999999932e-01 2.547574491696371485e-02
-4.235299999999999621e+00 2.903000000000000114e+01 3.957900000000000063e+01 -1.526666999999999996e+00 -2.527072525197475161e-01
-4.235199999999999854e+00 3.010099999999999909e+01 4.344599999999999795e+01 6.592939999999999579e+00 -1.623619132986770519e-01
-4.229899999999999771e+00 3.250900000000000034e+01 4.181199999999999761e+01 -9.012575000000000003e+00 -1.766604103942542026e-01
-4.207900000000000418e+00 3.252700000000000102e+01 4.091899999999999693e+01 -7.339399000000000228e+00 -1.725818148925548356e-01
-4.206299999999999706e+00 2.927799999999999869e+01 3.524699999999999989e+01 -1.954798999999999864e+01 -5.367748401986001394e-02
-4.200700000000000323e+00 4.985499999999999687e+01 2.391600000000000037e+01 -1.457980000000000054e+00 -3.416376022918202193e-01
-4.195100000000000051e+00 2.836899999999999977e+01 3.524199999999999733e+01 -2.054483000000000104e+01 -2.340227834858021883e-01
-4.194399999999999906e+00 3.416100000000000136e+01 3.179299999999999926e+01 1.448627000000000109e+00 -8.124513240131897573e-02
-4.166000000000000369e+00 2.665200000000000102e+01 2.864799999999999969e+01 -2.068579000000000079e+01 -2.776213005444522763e-01
-4.147700000000000387e+00 3.537899999999999778e+01 3.113100000000000023e+01 -1.550807000000000047e+00 2.071709699906081892e-01
-4.134199999999999875e+00 4.935000000000000142e+01 2.427400000000000091e+01 8.232152999999999832e-01 -3.468608159265573199e-01
-4.132299999999999862e+00 2.681800000000000139e+01 3.523499999999999943e+01 8.479684000000000665e+00 -3.414506802690767673e-01
-4.121100000000000207e+00 3.112099999999999866e+01 4.028900000000000148e+01 -5.191531000000000340e+00 -1.574537968365320728e-01
-4.107199999999999740e+00 2.704899999999999949e+01 2.817699999999999960e+01 -1.077103999999999928e+01 -2.772849384681304041e-01
-4.101300000000000168e+00 2.786700000000000088e+01 2.942299999999999827e+01 -1.384262999999999977e+01 -8.648872117852944574e-02
-4.100999999999999979e+00 3.506199999999999761e+01 3.033399999999999963e+01 1.379717000000000027e-01 1.016792068693118667e-01
-4.100999999999999979e+00 3.512500000000000000e+01 3.186899999999999977e+01 -1.430433999999999983e+00 2.157820943292559634e-01
-4.100999999999999979e+00 3.665999999999999659e+01 3.033399999999999963e+01 -6.912729999999999819e+00 1.036321894346680095e-01
-4.099700000000000344e+00 2.890099999999999980e+01 4.350999999999999801e+01 -3.701426999999999801e+00 -2.766728515058081150e-01
-4.078000000000000291e+00 2.644600000000000151e+01 3.304800000000000182e+01 3.359627000000000030e-01 -3.542954582287250465e-01
-4.078000000000000291e+00 2.644600000000000151e+01 3.391299999999999670e+01 5.500148000000000259e+00 -3.411765260591426152e-01
-4.074699999999999989e+00 3.419599999999999795e+01 3.705499999999999972e+01 -6.012420999999999793e+00 -2.360339677765253552e-01
-4.048000000000000043e+00 2.767999999999999972e+01 4.256400000000000006e+01 9.131745999999999697e+00 -2.611088262990027831e-01
-4.043000000000000149e+00 2.756400000000000006e+01 2.872299999999999898e+01 -1.238421999999999912e+01 -8.102478003544255625e-02
-4.043000000000000149e+00 2.756400000000000006e+01 3.012300000000000111e+01 8.377751999999999200e+00 -2.720048758973322434e-01
-4.037700000000000067e+00 3.539099999999999824e+01 2.957400000000000162e+01 -4.096943000000000112e-01 9.763224768784790897e-02
-4.037700000000000067e+00 3.633100000000000307e+01 2.957400000000000162e+01 -1.040853000000000028e+00 9.758799260629089090e-02
-4.037700000000000067e+00 3.633100000000000307e+01 3.109400000000000119e+01 -3.412183000000000188e+00 1.082021289932775521e-01
-4.034799999999999720e+00 3.253999999999999915e+01 3.243599999999999994e+01 5.077643000000000129e+00 2.258502995853111164e-02
-4.014599999999999724e+00 3.275800000000000267e+01 3.633700000000000330e+01 -8.839386000000000188e-01 -1.455318478372617519e-01
-4.012999999999999901e+00 3.165099999999999980e+01 4.308500000000000085e+01 -1.135931000000000024e+00 -1.740892588243962147e-01
-4.004500000000000171e+00 2.712800000000000011e+01 3.054500000000000171e+01 1.363396000000000008e+01 -2.713079476774424292e-01
-4.003999999999999559e+00 4.927900000000000347e+01 2.308599999999999852e+01 -5.267490999999999701e-01 -3.451910210977565119e-01
-3.998299999999999965e+00 2.932300000000000040e+01 2.818299999999999983e+01 -1.974395000000000167e+01 -2.247091671035263971e-01
-3.995999999999999996e+00 4.846999999999999886e+01 2.422100000000000009e+01 5.479913999999999952e+00 1.923114793192717137e-02
-3.994000000000000217e+00 2.986299999999999955e+01 3.156299999999999883e+01 1.486377000000000059e+01 1.855749053534008070e-02
-3.990299999999999958e+00 3.348899999999999721e+01 3.213799999999999812e+01 2.838330000000000020e+00 -8.338113916915088075e-02
-3.972999999999999865e+00 3.075700000000000145e+01 3.550500000000000256e+01 -2.720216999999999885e+00 -1.567235010931895822e-01
-3.958000000000000185e+00 3.099599999999999866e+01 3.232200000000000273e+01 2.941879999999999828e+00 1.999583737902154920e-02
-3.948100000000000165e+00 3.164300000000000068e+01 4.047699999999999676e+01 -7.101554000000000144e+00 -1.626231639932930462e-01
-3.935000000000000053e+00 2.965200000000000102e+01 2.894300000000000139e+01 -5.259337000000000018e+01 -1.246401358099737539e-01
-3.927000000000000046e+00 3.459400000000000119e+01 3.109299999999999997e+01 5.471875000000000488e-01 2.029471268651926175e-01
-3.926299999999999901e+00 3.182300000000000040e+01 3.262500000000000000e+01 4.253752000000000422e+00 2.124127496084329825e-02
-3.877800000000000136e+00 2.757199999999999918e+01 3.528900000000000148e+01 7.525966000000000378e+00 -2.283865303784323175e-01
-3.873000000000000220e+00 3.533800000000000097e+01 3.497399999999999665e+01 -5.024157999999999902e+00 -2.571009380888864548e-01
-3.873000000000000220e+00 3.533800000000000097e+01 3.591400000000000148e+01 -4.374381999999999771e+00 -2.457032890090223576e-01
-3.871900000000000119e+00 3.522699999999999676e+01 3.417699999999999960e+01 2.430187999999999793e+00 -2.638836528854819341e-01
-3.865600000000000147e+00 2.787300000000000111e+01 2.817299999999999827e+01 1.163261999999999929e+01 -2.739694780474265512e-01
-3.843999999999999861e+00 2.663899999999999935e+01 3.145299999999999940e+01 2.228377000000000052e+00 -3.519644115130269313e-01
-3.819300000000000139e+00 2.632799999999999940e+01 3.442300000000000182e+01 4.500516000000000238e-02 -3.413670299300903266e-01
-3.818299999999999805e+00 3.520199999999999818e+01 3.245700000000000074e+01 4.160881000000000163e-01 -7.350900142545672977e-02
-3.818299999999999805e+00 3.520199999999999818e+01 3.332300000000000040e+01 3.990995999999999988e+00 -6.352561781141172204e-02
-3.817699999999999871e+00 3.042099999999999937e+01 4.023100000000000165e+01 5.024829999999999686e+00 -1.508770583159159684e-01
-3.814700000000000202e+00 2.771399999999999864e+01 4.087100000000000222e+01 9.210677000000000447e+00 -2.561598328167338234e-01
-3.799700000000000077e+00 2.968100000000000094e+01 3.024399999999999977e+01 -2.700222999999999818e+00 1.697339354394586733e-02
-3.799700000000000077e+00 2.989000000000000057e+01 3.098000000000000043e+01 1.607487000000000066e+01 1.751344945809547166e-02
-3.781000000000000139e+00 3.458800000000000097e+01 3.053399999999999892e+01 -1.049247000000000041e+00 1.956590097723833466e-01
-3.751999999999999780e+00 2.815899999999999892e+01 4.333899999999999864e+01 1.719355999999999940e-01 -2.679621224901911902e-01
-3.733999999999999986e+00 2.876500000000000057e+01 4.012299999999999756e+01 -8.173896000000000495e-01 -2.637990514056175462e-01
-3.728899999999999881e+00 2.974699999999999989e+01 4.347599999999999909e+01 2.301527000000000100e+00 -2.849047589513249990e-01
-3.717299999999999827e+00 3.365899999999999892e+01 3.154200000000000159e+01 2.858642999999999823e+00 2.030714963499581638e-01
-3.717000000000000082e+00 3.213000000000000256e+01 4.135199999999999676e+01 -7.159267999999999965e+00 -1.724166284023642137e-01
-3.717000000000000082e+00 3.213000000000000256e+01 4.231000000000000227e+01 1.477335999999999956e+02 -1.771188629964818018e-01
-3.708000000000000185e+00 2.885300000000000153e+01 2.894300000000000139e+01 -1.258691999999999922e+01 -2.232336218912203130e-01
-3.701200000000000045e+00 3.589699999999999847e+01 3.168400000000000105e+01 -1.923733999999999966e+01 2.146214559010273248e-01
-3.677099999999999813e+00 3.087600000000000122e+01 4.314999999999999858e+01 8.245205999999999591e+00 -1.677974810839592545e-01
-3.667100000000000026e+00 3.457099999999999795e+01 2.986499999999999844e+01 4.978280999999999956e-01 1.877408419978420784e-01
-3.612299999999999844e+00 3.159299999999999997e+01 3.577000000000000313e+01 -2.579111999999999849e+00 -2.456109212225675020e-01
-3.607099999999999973e+00 3.586099999999999710e+01 2.904100000000000037e+01 -4.179673000000000194e+00 8.955918910241372766e-02
