2.210399999999999920e+01 1.507600000000000051e+01 7.128400000000000603e+01 -3.086165999999999965e+00 7.107587481451391187e-02
2.210500000000000043e+01 -1.542399999999999949e+01 7.642199999999999704e+01 -2.207629999999999981e+01 -2.316061026862324401e-01
2.210500000000000043e+01 1.410599999999999987e+01 6.894400000000000261e+01 -8.895410000000000261e-01 8.995732587507451750e-02
2.211100000000000065e+01 3.065599999999999881e+01 8.687500000000000000e+01 -2.411510000000000042e-01 -2.235531764037686497e-01
2.211599999999999966e+01 1.599699999999999989e+01 7.132599999999999341e+01 -2.042987999999999804e+00 6.356385283480617265e-02
2.212800000000000011e+01 -1.898600000000000065e+00 9.892100000000000648e+01 2.223685000000000045e+01 -6.116529361438581558e-02
2.212800000000000011e+01 -8.592499999999999361e+00 8.967300000000000182e+01 -2.583425999999999778e+00 7.334394482672788873e-02
2.212999999999999901e+01 -6.828400000000000247e+00 9.163299999999999557e+01 -3.814165000000000028e+00 -1.142460296428204070e-01
2.212999999999999901e+01 -6.619299999999999962e+00 9.236899999999999977e+01 -2.894051000000000151e+00 -1.103108800377754495e-01
2.214199999999999946e+01 1.506900000000000084e+01 9.823099999999999454e+01 -4.797276000000000096e+00 -2.802451996452318683e-01
2.214300000000000068e+01 -1.113599999999999923e+01 8.952200000000000557e+01 3.882475000000000231e-01 3.242988480415305574e-02
2.214300000000000068e+01 -1.008600000000000030e+01 8.952200000000000557e+01 -7.694935000000000525e-01 3.911221764510608434e-02
2.214799999999999969e+01 5.514300000000000423e+00 9.587300000000000466e+01 -1.231850000000000023e+01 -3.404181994670956168e-01
2.215399999999999991e+01 1.228800000000000026e+01 6.776500000000000057e+01 5.766727000000000380e-01 -6.361597983425397451e-02
2.215899999999999892e+01 -1.771300000000000097e+00 7.257099999999999795e+01 -2.743577999999999850e+00 -8.092713183088520723e-02
2.216100000000000136e+01 1.152899999999999991e+01 9.584799999999999898e+01 -8.615809000000000495e+00 -1.779958650291329214e-01
2.216199999999999903e+01 1.477299999999999969e+01 7.058400000000000318e+01 -9.848088999999999871e+00 1.321231118212511102e-01
2.216499999999999915e+01 1.937800000000000011e+01 7.291800000000000637e+01 -2.172035999999999856e+00 1.575236068750518557e-03
2.216700000000000159e+01 1.365900000000000070e+01 6.867600000000000193e+01 2.882057000000000091e+00 7.475069679224638497e-02
2.216799999999999926e+01 1.627199999999999847e+01 9.869799999999999329e+01 -1.777485000000000037e-01 -2.592347157157074977e-01
2.216799999999999926e+01 1.763299999999999912e+01 9.949599999999999511e+01 9.658485000000000653e+00 -2.451210871648283884e-01
2.216900000000000048e+01 -1.629599999999999937e+01 8.875799999999999557e+01 8.904433999999999960e-01 2.131674826527507061e-01
2.216900000000000048e+01 -1.459600000000000009e+01 8.875799999999999557e+01 3.345226999999999951e+00 1.954199658920002525e-01
2.217000000000000171e+01 3.067099999999999937e+01 8.785099999999999909e+01 2.072435000000000116e+01 -2.253523548721486081e-01
2.217299999999999827e+01 3.253300000000000125e+01 8.256499999999999773e+01 -1.143251000000000062e+01 -2.784082121836630175e-01
2.217899999999999849e+01 9.493999999999999773e+00 9.488899999999999579e+01 -8.433469999999999800e+00 -1.212684863412403641e-01
2.217899999999999849e+01 1.040099999999999980e+01 9.488899999999999579e+01 -1.053251000000000026e+01 -1.426762843236650258e-01
2.218499999999999872e+01 3.458000000000000185e+00 6.554099999999999682e+01 2.767501000000000211e+00 7.240356312135626249e-02
2.218700000000000117e+01 -7.867300000000000182e+00 9.509900000000000375e+01 -2.417463999999999835e+00 -2.563341178313141011e-01
2.218799999999999883e+01 1.617500000000000071e+01 6.989199999999999591e+01 1.660520999999999914e+00 1.478866426183286786e-01
2.218799999999999883e+01 1.877599999999999980e+01 7.768200000000000216e+01 -2.264734999999999943e+01 2.334730895723187150e-01
2.218799999999999883e+01 2.017599999999999838e+01 7.768200000000000216e+01 -9.009788999999999604e+00 2.802777184540729966e-02
2.218900000000000006e+01 2.428500000000000014e+01 7.172799999999999443e+01 -1.195650999999999975e+01 -7.783266433215912938e-02
2.220100000000000051e+01 1.677799999999999869e+01 6.904999999999999716e+01 -8.018697999999999659e-01 1.261289677007766952e-01
2.220100000000000051e+01 -5.597699999999999676e+00 9.824599999999999511e+01 1.078903000000000034e+01 -1.724607873776156930e-01
2.220400000000000063e+01 -7.206900000000000084e+00 9.788200000000000500e+01 6.281001999999999974e-01 -2.681854193046634416e-01
2.220400000000000063e+01 9.239300000000000068e+00 6.321000000000000085e+01 -1.712499999999999911e+00 -2.525941064934535824e-02
2.220599999999999952e+01 3.739399999999999835e+00 6.470699999999999363e+01 1.922323000000000004e+00 5.615049928454653172e-02
2.221199999999999974e+01 -9.449999999999999289e+00 9.413599999999999568e+01 -2.713996999999999993e+00 1.399606405997025869e-02
2.222100000000000009e+01 2.325400000000000134e+00 6.629999999999999716e+01 6.294237999999999778e-01 1.054402439985094864e-01
2.223000000000000043e+01 -4.848900000000000432e+00 7.197899999999999920e+01 -4.939620999999999817e+00 6.492903141636692521e-02
2.223100000000000165e+01 -1.701200000000000045e+01 8.002800000000000580e+01 1.927856999999999932e+00 -2.048237205925848570e-02
2.223600000000000065e+01 1.974699999999999989e+01 7.206799999999999784e+01 -2.403796999999999962e+00 1.822389162807740853e-02
2.223699999999999832e+01 1.687199999999999989e+01 7.201000000000000512e+01 -2.057948999999999806e+00 -7.252685128314007024e-02
2.223799999999999955e+01 3.256700000000000017e+01 7.674599999999999511e+01 4.521385000000000431e+00 -2.263390841900619621e-01
2.223799999999999955e+01 -1.650100000000000122e+01 8.599200000000000443e+01 8.174694000000000127e-01 2.462891586757908757e-01
2.224200000000000088e+01 2.184400000000000119e+01 7.113800000000000523e+01 -3.326910999999999952e+00 -2.349573641914706190e-01
2.224200000000000088e+01 2.354400000000000048e+01 7.113800000000000523e+01 -5.944897000000000098e+00 -6.297480752199860476e-02
2.224399999999999977e+01 -1.396700000000000053e+01 8.843200000000000216e+01 4.221503000000000227e+00 1.874781697808600156e-01
2.224399999999999977e+01 -7.677200000000000024e+00 9.454600000000000648e+01 -2.419557999999999875e+00 -1.817967177753586003e-02
2.224599999999999866e+01 -7.563900000000000290e+00 9.579900000000000659e+01 -2.625398999999999816e+00 -2.617624275024407754e-01
2.225499999999999901e+01 2.991300000000000026e+01 7.528400000000000603e+01 -1.242718999999999951e+01 -7.674349109879009811e-02
2.225499999999999901e+01 3.085300000000000153e+01 7.528400000000000603e+01 -1.586386000000000074e+01 -5.851949341362483459e-02
2.225600000000000023e+01 5.989799999999999791e+00 9.564700000000000557e+01 -2.360237000000000052e+01 -3.399422312622374376e-01
2.225700000000000145e+01 2.733399999999999963e+01 7.474699999999999989e+01 -6.818247999999999642e+00 -1.403044372925769390e-01
2.225700000000000145e+01 8.844099999999999184e+00 9.478100000000000591e+01 -1.384027000000000029e+01 -2.125678681424912342e-01
2.225900000000000034e+01 2.743700000000000028e+00 9.758700000000000330e+01 -9.028173999999999921e+00 -2.617735261142858372e-01
2.225900000000000034e+01 2.952799999999999869e+00 9.685099999999999909e+01 -3.756543999999999883e+00 -2.425254736623919105e-01
2.225900000000000034e+01 4.143699999999999939e+00 9.618699999999999761e+01 -1.074015999999999948e+01 -3.407205864203014523e-01
2.226000000000000156e+01 5.131000000000000227e+00 6.403799999999999670e+01 2.036526999999999976e+00 -9.936413364235575918e-02
2.226399999999999935e+01 -1.752499999999999858e+01 8.334600000000000364e+01 2.036345999999999989e+01 -9.379777525201277166e-02
2.226399999999999935e+01 3.087099999999999866e+01 8.637099999999999511e+01 -2.310575000000000045e+00 -2.189776220143090923e-01
2.226399999999999935e+01 -1.767699999999999960e+01 8.238800000000000523e+01 7.843917000000000250e+00 -6.762287633573134393e-02
2.226599999999999824e+01 -3.716299999999999937e+00 7.273799999999999955e+01 -2.735056999999999849e+00 -9.669285230044408208e-02
2.226800000000000068e+01 6.713300000000000267e+00 6.305199999999999960e+01 9.503795999999999911e-01 -7.063726198862442518e-02
2.227199999999999847e+01 1.535899999999999999e+01 6.820000000000000284e+01 -4.788494000000000028e+00 1.180785183258898086e-01
2.227199999999999847e+01 1.640899999999999892e+01 6.820000000000000284e+01 -1.868044999999999956e+00 1.167319870655169761e-01
2.227199999999999847e+01 1.191200000000000081e+01 9.764799999999999613e+01 -1.376731000000000016e+01 -3.007958308825074978e-01
2.227400000000000091e+01 1.013499999999999979e+01 6.561400000000000432e+01 2.957987000000000144e+00 2.843491325543403558e-01
2.227499999999999858e+01 1.091000000000000014e+01 6.641100000000000136e+01 3.488808999999999827e+00 2.605593307205222864e-01
2.228399999999999892e+01 -7.336000000000000298e+00 9.692400000000000659e+01 -5.757442000000000171e+00 -2.663456998299119083e-01
2.228399999999999892e+01 9.368399999999999395e+00 6.416800000000000637e+01 -2.246977999999999920e+00 2.767545374324945628e-01
2.228399999999999892e+01 -1.146700000000000053e+01 7.428300000000000125e+01 -5.356792000000000442e+00 -2.573759612393754503e-01
2.228500000000000014e+01 -1.025699999999999967e+01 9.342100000000000648e+01 -6.263982000000000383e+00 1.389796717633191327e-02
2.229799999999999827e+01 7.938799999999999635e+00 9.480599999999999739e+01 1.753246000000000038e+01 -3.385231973781017145e-01
2.230000000000000071e+01 -9.282000000000000028e+00 7.347499999999999432e+01 -8.128012999999999266e+00 -3.415877257941755257e-02
2.230300000000000082e+01 3.135200000000000031e+01 7.596999999999999886e+01 -1.654290999999999912e+01 -3.698111374617113478e-02
2.230799999999999983e+01 -1.263799999999999990e+01 7.560800000000000409e+01 -4.629291999999999851e-01 -2.736238792860555269e-01
2.231200000000000117e+01 1.324000000000000021e+01 9.840999999999999659e+01 -1.652370000000000161e+01 -2.976439602603510037e-01
2.231599999999999895e+01 3.235799999999999699e+01 8.410800000000000409e+01 -5.242556000000000438e+00 -3.205192560132207324e-01
2.231599999999999895e+01 3.235799999999999699e+01 8.515800000000000125e+01 6.935723999999999556e+00 -2.175658787488265467e-01
2.231700000000000017e+01 -3.355900000000000105e+00 9.853600000000000136e+01 -5.744246000000000407e+00 -2.025411453223812663e-01
2.231899999999999906e+01 2.675499999999999901e+01 9.495300000000000296e+01 -5.532110999999999734e+01 1.257223744078755402e-02
2.232999999999999829e+01 1.610600000000000165e+01 7.059999999999999432e+01 5.612719000000000236e+00 7.992387014417057234e-02
2.233299999999999841e+01 9.831599999999999895e+00 6.491400000000000148e+01 3.539649999999999963e+00 2.911009590377582890e-01
2.233399999999999963e+01 -6.997099999999999653e+00 9.840900000000000603e+01 9.126476999999999506e-01 -2.667724766711813134e-01
2.233500000000000085e+01 2.006599999999999895e+01 7.501999999999999602e+01 1.411960000000000015e+01 -1.620487058162393967e-02
2.233800000000000097e+01 1.796999999999999886e+01 7.279900000000000659e+01 -2.696021000000000001e+00 -4.995472438491454364e-02
2.234199999999999875e+01 1.828600000000000136e+01 7.705400000000000205e+01 -3.264918999999999727e+01 -1.009205713961686401e-01
2.234900000000000020e+01 -1.397000000000000020e+00 6.817300000000000182e+01 9.550012999999999863e+00 -1.395437954871366071e-01
2.234900000000000020e+01 -1.143100000000000005e+00 6.727899999999999636e+01 2.957387000000000210e+00 -1.395788498227021057e-01
2.234900000000000020e+01 -1.143100000000000005e+00 6.906699999999999307e+01 -2.521821000000000090e+00 -1.399167477675182791e-01
2.234900000000000020e+01 3.029999999999999916e-01 6.647299999999999898e+01 -1.076983999999999941e+00 1.127564406283041443e-01
2.235399999999999920e+01 -7.713199999999999612e+00 9.753499999999999659e+01 -5.200495000000000534e-01 -2.596042655342458150e-01
2.235900000000000176e+01 3.326700000000000301e+01 8.097299999999999898e+01 -4.761545999999999879e+01 -2.565159683500335408e-01
2.236100000000000065e+01 3.165500000000000114e+01 7.667000000000000171e+01 -1.823705999999999960e+01 -1.769029129184702953e-02
2.236100000000000065e+01 -8.092000000000000526e+00 6.944799999999999329e+01 -3.474918999999999869e+00 -2.505172747834443631e-02
2.236100000000000065e+01 -6.572000000000000064e+00 6.944799999999999329e+01 -3.700088000000000044e+00 9.305295382313781560e-02
2.236299999999999955e+01 1.397899999999999920e+01 9.842900000000000205e+01 -4.484563999999999773e+00 -2.944097042887800497e-01
2.236700000000000088e+01 2.578399999999999892e+01 7.427299999999999613e+01 -6.926211000000000340e+00 -1.448461422534825793e-01
2.236899999999999977e+01 -1.171199999999999974e+01 9.253799999999999670e+01 -2.586999000000000049e+00 1.716470627377843783e-01
2.236899999999999977e+01 2.333500000000000085e+01 9.693699999999999761e+01 3.747944999999999993e+01 -2.575973504192234920e-01
2.237000000000000099e+01 2.869300000000000139e+01 7.542400000000000659e+01 -6.932176000000000116e+00 -1.130486383866758093e-01
2.237099999999999866e+01 1.893400000000000105e+01 7.426200000000000045e+01 -3.446518000000000193e+00 -3.306706549384880178e-02
2.237199999999999989e+01 1.550900000000000034e+01 7.058400000000000318e+01 5.444219999999999615e+00 1.528176387827770433e-01
2.237300000000000111e+01 1.453899999999999970e+01 6.824399999999999977e+01 -1.592297000000000073e+00 1.031664047854452954e-01
2.237399999999999878e+01 1.864199999999999946e+01 7.291800000000000637e+01 -3.123902999999999874e+00 -2.426523279059692589e-02
2.237600000000000122e+01 3.296900000000000119e+01 7.746699999999999875e+01 1.746700999999999837e+01 -2.291816159622145632e-01
2.237999999999999901e+01 -1.579899999999999949e+01 7.920600000000000307e+01 -1.829043999999999892e+00 -1.265658667221472855e-01
2.238599999999999923e+01 -2.705400000000000027e+00 9.863500000000000512e+01 5.813354999999999606e+00 -2.076287760639663471e-01
2.238700000000000045e+01 2.892200000000000060e+01 9.445499999999999829e+01 2.282364000000000104e+01 -2.080253227875804301e-02
2.238700000000000045e+01 -5.411000000000000254e-01 7.101099999999999568e+01 -2.637429000000000023e+00 -2.157663397044506104e-01
2.238700000000000045e+01 -5.411000000000000254e-01 7.187699999999999534e+01 -1.850179000000000018e+00 -2.067759891478951340e-01
2.239900000000000091e+01 -2.232800000000000118e+00 7.281000000000000227e+01 -4.023380999999999652e+00 -9.684266578988628971e-02
2.240099999999999980e+01 -1.634600000000000009e+01 8.525400000000000489e+01 3.227735000000000021e+00 -1.685013761901310581e-01
2.240099999999999980e+01 -1.241900000000000048e+01 8.849699999999999989e+01 4.216332999999999664e+00 1.513512287902418207e-01
2.240099999999999980e+01 1.367399999999999949e+00 9.904399999999999693e+01 -4.229213000000000022e+01 -2.844180046452197685e-01
2.240200000000000102e+01 3.287299999999999756e+01 8.193899999999999295e+01 -3.397955999999999932e+01 -2.678729535662849881e-01
2.240599999999999881e+01 -8.808999999999999275e+00 9.471099999999999852e+01 -2.417409000000000141e+00 -2.416350052157488215e-01
2.240899999999999892e+01 -7.248800000000000132e+00 9.364900000000000091e+01 -2.719557000000000002e+00 -4.981141584237355063e-02
2.241400000000000148e+01 -1.041499999999999915e+01 9.279000000000000625e+01 -4.102776000000000423e+00 2.321885709675744758e-01
2.241799999999999926e+01 1.154899999999999949e+01 9.673000000000000398e+01 -6.841565000000000119e+00 -1.792829294558845044e-01
2.241900000000000048e+01 -7.969999999999999751e+00 9.831000000000000227e+01 -2.316730999999999874e+00 -2.551712882215926292e-01
2.242099999999999937e+01 -1.018599999999999994e+01 9.413599999999999568e+01 -4.736424999999999663e+00 -8.624990146723451878e-02
2.242899999999999849e+01 1.778300000000000125e+01 7.522799999999999443e+01 -1.948425999999999902e+01 1.400640783307977866e-01
2.242999999999999972e+01 -1.125299999999999967e+00 7.261299999999999955e+01 -2.426652999999999949e+00 -6.291710805576197774e-02
2.243199999999999861e+01 -9.292500000000000426e+00 8.961400000000000432e+01 -2.087340000000000195e+00 8.051652788175739373e-02
2.243199999999999861e+01 7.435200000000000031e+00 6.234799999999999898e+01 2.858582999999999874e+00 -4.510991033979445952e-02
2.243199999999999861e+01 8.382799999999999585e+00 6.234799999999999898e+01 1.111114000000000068e+01 -3.080933117478248939e-02
2.243400000000000105e+01 2.958500000000000085e+01 7.604399999999999693e+01 -1.790259000000000000e+01 -7.201868954848325566e-02
2.243799999999999883e+01 -1.372300000000000075e+01 7.615300000000000580e+01 -9.824486999999999526e+00 -2.524151294855949690e-01
2.244200000000000017e+01 -1.097299999999999942e+00 9.906300000000000239e+01 1.687972999999999857e+01 -6.219615598526254813e-02
2.245599999999999952e+01 2.060900000000000176e+01 7.611599999999999966e+01 2.686195999999999806e+00 -7.252478829818291908e-03
2.245599999999999952e+01 2.060900000000000176e+01 7.698199999999999932e+01 -7.563524000000000136e+00 2.210732983333746002e-02
2.245599999999999952e+01 -1.466699999999999982e+01 7.635399999999999920e+01 -3.647010999999999825e+01 -2.395895496149766379e-01
2.246199999999999974e+01 1.544599999999999973e+01 9.842400000000000659e+01 -3.732686999999999866e+00 -2.743067129173481500e-01
2.246300000000000097e+01 1.831700000000000017e+01 1.000000000000000000e+02 1.080256999999999934e+01 -2.419075040230839468e-01
2.246300000000000097e+01 1.968799999999999883e+01 1.006400000000000006e+02 6.340140999999999849e+01 -2.386218666924560805e-01
2.246300000000000097e+01 2.100700000000000145e+01 9.990399999999999636e+01 5.259506999999999977e+01 -2.434874348154924539e-01
2.246300000000000097e+01 2.123799999999999955e+01 9.908899999999999864e+01 2.271387999999999963e+01 -2.367342638333338467e-01
2.246699999999999875e+01 2.465099999999999980e+01 9.500600000000000023e+01 2.416182999999999836e+01 4.031583499610438132e-02
2.246999999999999886e+01 -1.556400000000000006e+01 7.842499999999999716e+01 -1.807582000000000022e+00 -1.288189251167626281e-01
2.248999999999999844e+01 2.465899999999999892e+01 7.256000000000000227e+01 -2.923228999999999900e+01 -9.110256172606170932e-02
2.249200000000000088e+01 1.947599999999999909e+01 7.773999999999999488e+01 -1.452078000000000024e+01 -5.329580025076084693e-02
2.250000000000000000e+01 -1.061100000000000065e+01 9.014799999999999613e+01 6.913090999999999653e+00 7.558520619632816406e-02
2.251399999999999935e+01 6.782300000000000217e+00 9.563800000000000523e+01 -1.466283999999999921e+01 -3.387866338249491682e-01
2.252100000000000080e+01 -1.120800000000000018e+01 9.335299999999999443e+01 -5.284418999999999755e+00 2.438453941702449224e-01
2.252299999999999969e+01 -1.639300000000000068e+01 8.446500000000000341e+01 4.593265999999999849e+01 -1.418952546826521277e-01
2.252299999999999969e+01 1.776399999999999935e+01 7.630200000000000671e+01 -3.979509000000000185e+01 -1.270063672270053123e-01
2.252700000000000102e+01 -1.067199999999999954e-01 9.917100000000000648e+01 5.860418000000000127e+00 -1.915950869373102550e-01
2.252700000000000102e+01 -1.179899999999999949e+01 9.398799999999999955e+01 -4.025390999999999941e+00 -4.329486855896620690e-02
2.253900000000000148e+01 -1.103299999999999947e+01 9.413599999999999568e+01 -3.722102000000000022e+00 -7.910043595311652687e-02
2.254500000000000171e+01 3.038299999999999912e+01 7.604399999999999693e+01 -3.481197999999999837e+01 -5.305015563981692328e-02
2.255600000000000094e+01 -1.753699999999999903e+01 8.087800000000000011e+01 1.997378000000000098e+00 -3.051433712060407782e-02
2.255600000000000094e+01 -1.753699999999999903e+01 8.192799999999999727e+01 9.218040000000000234e+00 -5.317519650947320764e-02
2.255900000000000105e+01 -1.115399999999999991e+01 9.171999999999999886e+01 -1.952479000000000076e+00 1.519176327797682191e-01
2.255999999999999872e+01 -1.532900000000000063e+01 7.764400000000000546e+01 -7.128404999999999880e+00 -1.355778481471213159e-01
2.256599999999999895e+01 2.478200000000000003e+01 7.347199999999999420e+01 -3.265780999999999779e+01 -1.110104392125714490e-01
2.257400000000000162e+01 3.002499999999999858e+01 8.618300000000000693e+01 -2.294364999999999988e+00 -2.062808078164458381e-01
2.258099999999999952e+01 1.102899999999999991e+01 6.564400000000000546e+01 -3.538868000000000014e-01 2.968289148759311047e-01
2.258899999999999864e+01 -1.231300000000000061e+01 9.342799999999999727e+01 -3.561779000000000028e+00 2.695052909215090997e-01
2.259299999999999997e+01 9.024300000000000210e+00 9.558100000000000307e+01 -1.806743000000000166e+01 -2.288223419244032331e-01
2.259299999999999997e+01 9.963699999999999335e+00 9.558100000000000307e+01 -2.206829000000000107e+01 -1.366076609351051796e-01
2.259299999999999997e+01 1.082900000000000063e+01 9.558100000000000307e+01 -2.095782000000000167e+01 -1.573615278753140445e-01
2.259499999999999886e+01 -1.065399999999999991e+01 9.500799999999999557e+01 -3.196851000000000109e+00 -2.296807479197077451e-01
2.259600000000000009e+01 -1.502800000000000047e+01 7.685500000000000398e+01 -2.316401000000000110e+01 -2.330195985495921163e-01
2.259799999999999898e+01 -7.433900000000000396e+00 9.116899999999999693e+01 -6.071748000000000367e+00 1.343235443373718141e-01
2.260200000000000031e+01 -9.241600000000000037e+00 9.378100000000000591e+01 -2.701319999999999943e+00 1.402727305221288315e-02
2.260200000000000031e+01 -8.376400000000000290e+00 9.564100000000000534e+01 -1.322637000000000063e+00 -2.444550546817813308e-01
2.260900000000000176e+01 2.011799999999999855e+01 7.548799999999999955e+01 6.622463999999999906e+00 -1.459267747678962349e-02
2.260999999999999943e+01 1.888200000000000145e+01 7.229900000000000659e+01 -2.512585000000000068e+00 -5.305747939081371239e-03
2.261499999999999844e+01 -3.073999999999999844e+00 7.286199999999999477e+01 -3.070875000000000021e+00 -1.068142139772026988e-01
2.261700000000000088e+01 -9.753399999999999181e+00 9.506600000000000250e+01 -3.146974999999999856e+00 -2.321957405327227664e-01
2.261700000000000088e+01 2.758000000000000007e+00 6.580899999999999750e+01 1.970000999999999891e+00 1.060222090778575321e-01
2.262199999999999989e+01 3.343500000000000227e+01 7.818000000000000682e+01 -1.681775999999999982e+01 -2.336210886610197990e-01
2.262300000000000111e+01 -1.260599999999999987e+01 9.253799999999999670e+01 -3.025929000000000091e+00 1.647041389553687563e-01
2.262900000000000134e+01 1.594899999999999984e+01 6.757399999999999807e+01 -2.678742000000000179e+00 1.135004409835323330e-01
2.263599999999999923e+01 -1.105599999999999916e+01 7.417600000000000193e+01 -7.005708000000000268e+00 -2.625972237584007773e-01
2.263700000000000045e+01 3.099800000000000111e+01 8.908499999999999375e+01 -5.184220999999999968e+00 -2.464604602756663154e-01
2.263700000000000045e+01 3.099800000000000111e+01 9.002500000000000568e+01 -9.948029999999999262e+00 1.398467036495661120e-01
2.264000000000000057e+01 2.182700000000000173e+01 9.743300000000000693e+01 3.443249000000000137e+01 -2.512071436934731894e-01
2.264199999999999946e+01 -8.283599999999999852e-01 6.951999999999999602e+01 -5.380987000000000187e+00 -1.403721790697348426e-01
2.264199999999999946e+01 -6.192699999999999871e-01 7.025600000000000023e+01 -3.397146999999999917e+00 -2.198629095229148178e-01
2.264300000000000068e+01 2.884900000000000020e+01 7.604399999999999693e+01 -1.301356000000000002e+01 -1.037461130039736001e-01
2.264600000000000080e+01 -8.251599999999999824e+00 9.378300000000000125e+01 -2.154212999999999933e+00 -8.857455722310669799e-03
2.264999999999999858e+01 -8.784900000000000375e+00 9.831000000000000227e+01 -5.684989999999999766e-01 -2.449103235093653130e-01
2.265299999999999869e+01 -9.572599999999999554e+00 9.293600000000000705e+01 -1.154393000000000002e+00 2.452193801093243697e-01
2.265700000000000003e+01 3.213499999999999801e+01 7.744599999999999795e+01 -3.536068999999999818e+01 -2.227249925590539248e-01
2.266000000000000014e+01 -8.073000000000000398e+00 9.634099999999999397e+01 -2.245070000000000121e+00 -2.483376597170582067e-01
2.266000000000000014e+01 -4.410999999999999588e+00 9.835099999999999909e+01 5.104016999999999804e+00 -1.802801087600068297e-01
2.266300000000000026e+01 1.343599999999999994e+01 6.785500000000000398e+01 -1.853506000000000098e+00 -3.712789830439135880e-02
2.266300000000000026e+01 1.430199999999999960e+01 6.785500000000000398e+01 -1.920048999999999895e+00 -2.737790392079925833e-02
2.266799999999999926e+01 2.955499999999999972e+01 9.368899999999999295e+01 1.813615000000000066e+01 1.181998440342838519e-01
2.266799999999999926e+01 -1.198600000000000065e+01 8.919700000000000273e+01 -1.196901999999999910e+00 1.478214046304182905e-01
2.266799999999999926e+01 1.903899999999999926e+00 6.620300000000000296e+01 -9.252304000000000084e-02 1.188851224770360593e-01
2.267000000000000171e+01 6.417699999999999960e+00 9.633899999999999864e+01 -1.191902999999999935e+01 -3.386071387561521706e-01
2.267500000000000071e+01 -6.235999999999999766e+00 9.837399999999999523e+01 6.895260999999999640e+00 -1.522286057674867021e-01
2.267599999999999838e+01 4.234099999999999753e+00 6.421999999999999886e+01 1.508904999999999941e+00 5.571488324854724505e-02
2.267599999999999838e+01 -1.138400000000000034e+01 9.468800000000000239e+01 -3.482124999999999915e+00 -2.282100854762700026e-01
2.267800000000000082e+01 1.857299999999999951e+00 9.831900000000000261e+01 -4.184506999999999977e+01 -2.772467973962543519e-01
2.269200000000000017e+01 3.443700000000000205e+00 9.645499999999999829e+01 -6.104223000000000177e+00 -2.268895314794820428e-01
2.269300000000000139e+01 1.689799999999999969e+01 9.905500000000000682e+01 7.716051000000000215e+00 -2.507649686611823081e-01
2.269399999999999906e+01 -1.223700000000000010e+01 9.168800000000000239e+01 -2.274751000000000190e+00 1.423283958823642892e-01
2.269399999999999906e+01 -1.714600000000000080e+01 8.738299999999999557e+01 -2.036595999999999962e-01 -1.336602347536190727e-01
2.269399999999999906e+01 -1.689199999999999946e+01 8.648900000000000432e+01 1.010974999999999895e-03 2.444502349526174179e-01
2.269399999999999906e+01 -1.689199999999999946e+01 8.827700000000000102e+01 -5.658185999999999494e-01 -1.236856764622940724e-01
2.269399999999999906e+01 -1.544599999999999973e+01 8.908299999999999841e+01 -1.085552999999999990e+00 2.064766892059057835e-01
2.269399999999999906e+01 -1.381600000000000072e+01 8.862000000000000455e+01 1.115244000000000035e+01 1.863643437900437405e-01
2.269500000000000028e+01 9.635899999999999466e+00 6.277700000000000102e+01 -2.417917999999999790e+00 -1.028812604499236699e-01
2.269699999999999918e+01 2.928200000000000003e+01 9.412199999999999989e+01 1.101845999999999925e+01 1.110917119428921074e-01
2.269900000000000162e+01 -2.224400000000000155e+00 9.844799999999999329e+01 2.181820000000000093e+01 -6.103145809507039277e-02
2.270100000000000051e+01 2.915200000000000102e+01 7.674399999999999977e+01 -1.628292000000000073e+01 -7.627613432956177608e-02
2.270100000000000051e+01 3.001800000000000068e+01 7.674399999999999977e+01 -2.981595000000000084e+01 -4.488738323086126358e-02
2.270100000000000051e+01 3.074800000000000111e+01 7.674399999999999977e+01 -3.111306000000000083e+01 -2.895214469290113141e-02
2.270200000000000173e+01 -5.447899999999999743e+00 7.092900000000000205e+01 -1.049320999999999948e+01 8.910309693629739347e-02
2.270400000000000063e+01 -1.311899999999999977e+01 8.843899999999999295e+01 9.225557000000000230e+00 1.712680696999814844e-01
2.270799999999999841e+01 1.160999999999999943e+01 6.667900000000000205e+01 1.150844999999999896e+00 2.656072535270059820e-01
2.271000000000000085e+01 2.024899999999999878e+01 7.137600000000000477e+01 -2.412374999999999936e+00 -2.443499676513545826e-01
2.271000000000000085e+01 -9.935999999999999943e+00 9.201500000000000057e+01 -1.387988999999999917e+00 2.114659647384534158e-01
2.271499999999999986e+01 1.058900000000000041e+01 6.487900000000000489e+01 -5.226372999999999713e-01 3.144824343561450353e-01
2.271499999999999986e+01 -8.448999999999999844e+00 9.753499999999999659e+01 -1.612586999999999993e+00 -2.452754506000640600e-01
2.271499999999999986e+01 -8.448999999999999844e+00 9.908499999999999375e+01 -1.577593999999999941e+00 -2.473228130927214163e-01
2.271499999999999986e+01 -7.490999999999999659e+00 9.908499999999999375e+01 -5.246643999999999863e+00 -2.544107611850471296e-01
2.271600000000000108e+01 1.006799999999999962e+01 6.443500000000000227e+01 -5.099386000000000196e-01 3.110770565489530126e-01
2.271799999999999997e+01 3.013700000000000045e+01 8.749099999999999966e+01 9.079496000000000677e+00 -2.133102877126753505e-01
2.271999999999999886e+01 3.116300000000000026e+01 7.721399999999999864e+01 -2.008509000000000100e+01 -9.992993165034779607e-03
2.273100000000000165e+01 -9.334300000000000708e+00 9.556100000000000705e+01 -2.240661999999999932e+00 -2.335813671679322634e-01
2.273300000000000054e+01 -9.981999999999999318e+00 7.374200000000000443e+01 -2.008615999999999957e+01 -3.026899305386159325e-02
2.273300000000000054e+01 -8.791100000000000136e+00 7.307800000000000296e+01 -3.588442000000000132e+00 -4.875469521862847537e-03
2.273300000000000054e+01 -8.582000000000000739e+00 7.234199999999999875e+01 -3.477853999999999779e+00 8.085991402712447212e-04
2.273499999999999943e+01 7.466000000000000192e+00 9.532200000000000273e+01 -3.856205999999999801e+00 -3.379852119073401551e-01
2.273499999999999943e+01 8.331300000000000594e+00 9.532200000000000273e+01 -8.838981000000000421e+00 -3.377966455181383720e-01
2.274200000000000088e+01 -1.302299999999999969e+01 7.609499999999999886e+01 -4.520783999999999914e+00 -2.712304882798604599e-01
2.274200000000000088e+01 2.812500000000000000e+01 9.464199999999999591e+01 -1.559975999999999985e+01 -1.980995183692112194e-02
2.275700000000000145e+01 1.753399999999999892e+01 7.211400000000000432e+01 -2.310102999999999795e+00 -5.004036047833042289e-02
2.275900000000000034e+01 -5.090600000000000236e+00 7.173199999999999932e+01 -3.958550999999999931e+00 8.057592571438708384e-02
2.276099999999999923e+01 2.969600000000000151e+01 8.682999999999999829e+01 9.025881000000000043e-01 -2.042283413542587966e-01
2.276099999999999923e+01 -1.179700000000000060e+01 8.998099999999999454e+01 4.270552000000000237e-01 6.409129554086021030e-02
2.276399999999999935e+01 4.796999999999999709e+00 9.631399999999999295e+01 -1.316159000000000034e+01 -3.392297630890821480e-01
2.276500000000000057e+01 -8.392400000000000304e+00 9.036499999999999488e+01 -2.720937999999999857e+00 1.132267667561309421e-01
2.276699999999999946e+01 2.269399999999999906e+01 7.081300000000000239e+01 -2.400961999999999819e+00 -2.309510823649562616e-01
2.276699999999999946e+01 2.414000000000000057e+01 7.161899999999999977e+01 -1.564826000000000050e+01 -6.942039579445702380e-02
2.276699999999999946e+01 -1.110899999999999999e+01 9.084799999999999898e+01 6.357642999999999489e-01 1.151624631575778740e-01
2.276800000000000068e+01 1.850100000000000122e+01 7.475300000000000011e+01 -1.397828999999999944e+01 1.906647053668324987e-01
2.276800000000000068e+01 1.936599999999999966e+01 7.475300000000000011e+01 2.590184999999999960e+00 -3.860440655526310716e-02
2.277299999999999969e+01 -8.145599999999999952e+00 9.683499999999999375e+01 -1.802518999999999982e+00 -2.461183763402647329e-01
2.277799999999999869e+01 1.694600000000000151e+01 7.060800000000000409e+01 -1.091984000000000066e+00 -4.231330491179426112e-02
2.278200000000000003e+01 2.648400000000000176e+01 7.442199999999999704e+01 -4.911634000000000277e+00 -1.541575106164798092e-01
2.278300000000000125e+01 2.928900000000000148e+01 8.618300000000000693e+01 -3.605097000000000218e+00 -1.920165117913044950e-01
2.278600000000000136e+01 9.048700000000000188e+00 6.226599999999999824e+01 -1.044294000000000056e+00 -1.051109069732720364e-01
2.279299999999999926e+01 3.383700000000000330e+01 7.871099999999999852e+01 -1.618111000000000033e+01 -2.378811768375840852e-01
2.279299999999999926e+01 3.383700000000000330e+01 8.030899999999999750e+01 -5.251624999999999943e+01 -2.486961428462056978e-01
2.279299999999999926e+01 3.406400000000000006e+01 7.951000000000000512e+01 -7.635827999999999349e+01 -2.435962399846721138e-01
2.279400000000000048e+01 -1.223099999999999987e+01 9.468800000000000239e+01 -1.101542000000000066e+01 -4.562165899645728023e-02
2.279400000000000048e+01 9.761600000000000277e-01 9.886799999999999500e+01 -1.646852000000000160e+01 -2.900439988122155421e-01
2.279700000000000060e+01 1.725900000000000034e+01 6.852500000000000568e+01 1.104696999999999996e+01 1.386617272996805983e-01
2.279700000000000060e+01 1.725900000000000034e+01 6.957500000000000284e+01 1.784900000000000020e+01 -2.622535655760516171e-02
2.280799999999999983e+01 -1.708599999999999852e+01 8.286700000000000443e+01 1.789985000000000070e+01 -7.675932421331764510e-02
2.281099999999999994e+01 3.009299999999999997e+01 9.290000000000000568e+01 4.458301999999999765e+01 1.256228696956748214e-01
2.281200000000000117e+01 3.054500000000000171e+01 9.095699999999999363e+01 -1.376843000000000039e+01 1.388608693834331720e-01
2.281500000000000128e+01 1.723100000000000165e+01 7.141400000000000148e+01 7.385304999999999787e+00 -4.678337212156693375e-02
2.281700000000000017e+01 -1.682000000000000028e+01 8.369899999999999807e+01 1.660954999999999870e+01 -1.070024377111322283e-01
2.281899999999999906e+01 1.466600000000000037e+01 6.715399999999999636e+01 -3.317460000000000075e+00 -5.033979063957061927e-03
2.281899999999999906e+01 1.560599999999999987e+01 6.715399999999999636e+01 -7.843904000000000210e+00 -1.026960419526335919e-03
2.282499999999999929e+01 2.797700000000000031e+01 7.512999999999999545e+01 -5.579285999999999746e+00 -1.502041609800998379e-01
2.282700000000000173e+01 -1.558000000000000052e+00 7.310399999999999920e+01 -2.954209000000000085e+00 -8.147305924329441285e-02
2.282799999999999940e+01 -9.725099999999999412e+00 9.010500000000000398e+01 1.811751000000000056e-01 1.159734744129585771e-01
2.282799999999999940e+01 -8.859899999999999665e+00 9.010500000000000398e+01 -7.695573999999999470e-01 1.065571922475216093e-01
2.282999999999999829e+01 -6.886700000000000266e+00 9.193600000000000705e+01 -1.287374999999999936e+01 -9.945085303309356140e-02
2.282999999999999829e+01 -6.886700000000000266e+00 9.280100000000000193e+01 -8.764319999999999666e+00 -7.974959892365654501e-02
2.283099999999999952e+01 -8.852000000000000313e+00 7.067799999999999727e+01 -4.108509999999999884e+00 -9.423608063126762482e-03
2.283099999999999952e+01 -8.740899999999999892e+00 7.147599999999999909e+01 -1.203819999999999979e+01 -1.639703991774829964e-03
2.283099999999999952e+01 -8.625000000000000000e+00 6.987900000000000489e+01 -3.887507999999999964e+00 -1.572424138708488836e-02
2.283099999999999952e+01 -7.331999999999999851e+00 6.915800000000000125e+01 -4.892306999999999739e+00 -2.171132628474833903e-02
2.283099999999999952e+01 -6.038999999999999702e+00 6.987900000000000489e+01 -9.809086999999999890e+00 9.551642999334289397e-02
2.283299999999999841e+01 2.521399999999999864e+01 7.417199999999999704e+01 -2.075140999999999991e+01 -1.386603560505102473e-01
2.283999999999999986e+01 9.868900000000000006e+00 6.357200000000000273e+01 -1.478439999999999976e+00 -9.620535672955231321e-02
2.284100000000000108e+01 2.959199999999999875e+01 8.548300000000000409e+01 5.694804000000000421e+00 -1.882183209538254576e-01
2.284100000000000108e+01 3.045799999999999841e+01 8.548300000000000409e+01 4.899778000000000411e+00 -1.994240471074472665e-01
2.284100000000000108e+01 3.150799999999999912e+01 8.548300000000000409e+01 -4.227375999999999578e+00 -2.073900761071564847e-01
2.284799999999999898e+01 2.387900000000000134e+01 9.649800000000000466e+01 6.939857999999999549e+01 -2.667733645001314491e-01
2.284799999999999898e+01 2.420700000000000074e+01 9.575300000000000011e+01 1.272483000000000004e+02 2.423796011248783785e-02
2.285000000000000142e+01 2.599599999999999866e+01 9.476099999999999568e+01 -1.064921000000000006e+01 9.273612291420551407e-03
2.285000000000000142e+01 2.751399999999999935e+01 9.476099999999999568e+01 -3.067346999999999824e+01 -1.462928652017739771e-02
2.285399999999999920e+01 3.235199999999999676e+01 8.281799999999999784e+01 -3.729411999999999949e+01 -3.155716572920510554e-01
2.285500000000000043e+01 -1.041499999999999915e+01 9.123900000000000432e+01 5.351548000000000194e+00 1.796288772600495576e-01
2.286299999999999955e+01 -4.253299999999999859e-01 7.234600000000000364e+01 -1.904541999999999902e-01 -1.983689610354007204e-01
2.286899999999999977e+01 3.038200000000000145e+01 9.179300000000000637e+01 3.763374999999999915e+00 1.340063809323780719e-01
2.287399999999999878e+01 -5.470000000000000417e-01 6.679800000000000182e+01 1.533588999999999959e-02 -1.398987371579155370e-01
2.288700000000000045e+01 -1.002899999999999991e+01 9.080500000000000682e+01 4.096109000000000222e+00 1.565380840078629265e-01
2.288800000000000168e+01 1.904400000000000048e+01 7.724899999999999523e+01 -2.232658999999999949e+01 -6.486388810172463715e-02
2.288800000000000168e+01 1.990899999999999892e+01 7.724899999999999523e+01 -1.390008000000000088e+01 -3.326827520044364078e-02
2.288899999999999935e+01 -1.180499999999999972e+01 9.087300000000000466e+01 3.015525999999999929e+00 1.135114290130585929e-01
2.291199999999999903e+01 3.187699999999999889e+01 8.463299999999999557e+01 -3.498174000000000117e+00 -3.081124652510863760e-01
2.291199999999999903e+01 1.173900000000000077e+01 9.702100000000000080e+01 -4.150686999999999571e+00 -3.057813271434078883e-01
2.291400000000000148e+01 2.503699999999999903e+01 9.473300000000000409e+01 7.194734999999999658e+00 2.274525955627506105e-02
2.291499999999999915e+01 1.317399999999999949e+01 9.821399999999999864e+01 -4.792565999999999882e+00 -3.041881952428823199e-01
2.291600000000000037e+01 1.268800000000000061e+01 6.733100000000000307e+01 -1.928357000000000099e+00 -1.386974928390405370e-02
2.291600000000000037e+01 -1.091900000000000048e+01 9.564600000000000080e+01 -1.904482999999999926e+00 -2.263864710083268172e-01
2.292099999999999937e+01 1.852100000000000080e+01 7.148499999999999943e+01 -2.752609000000000083e+00 -7.956511421514794735e-03
2.292800000000000082e+01 3.062699999999999889e+01 8.826500000000000057e+01 -4.368940000000000046e-01 -2.295003504557371343e-01
2.292800000000000082e+01 7.908999999999999808e+00 6.190899999999999892e+01 1.084104999999999919e+01 -2.292572377107687798e-02
2.294200000000000017e+01 1.891300000000000026e+01 1.003400000000000034e+02 4.763262999999999892e+01 -2.396749710150123391e-01
2.294200000000000017e+01 2.046300000000000097e+01 1.003400000000000034e+02 1.017152999999999946e-01 -2.511716901386172873e-01
2.294200000000000017e+01 3.200099999999999767e+01 8.370199999999999818e+01 -6.285605999999999582e+00 -3.123708429135715892e-01
2.294699999999999918e+01 2.021199999999999974e+01 7.654900000000000659e+01 -1.404704000000000086e+01 -1.760208216998227632e-02
2.294699999999999918e+01 1.474099999999999966e+01 9.812399999999999523e+01 1.987264000000000053e+01 -2.902889703441676184e-01
2.295299999999999940e+01 -1.210200000000000031e+01 7.527400000000000091e+01 6.378954000000000235e+00 -2.788565387552559005e-01
2.295499999999999829e+01 -1.361100000000000088e-01 7.155200000000000671e+01 -2.534555000000000113e+00 -2.095963808884104829e-01
2.295899999999999963e+01 3.011000000000000121e+00 9.715500000000000114e+01 -6.763588999999999629e+00 -2.387015370095111888e-01
2.296799999999999997e+01 6.655000000000000249e+00 6.274900000000000233e+01 2.024236999999999842e+00 -4.283716260698406525e-02
2.296900000000000119e+01 -5.039799999999999836e-01 9.820000000000000284e+01 6.201814999999999856e+00 -6.319331743064859896e-02
2.297200000000000131e+01 1.203899999999999970e+00 6.626099999999999568e+01 -5.159886000000000195e-01 1.250250054487962448e-01
2.297700000000000031e+01 -1.657000000000000028e+01 7.989100000000000534e+01 -7.613353999999999955e-01 -1.288057847506927922e-02
2.298100000000000165e+01 3.455999999999999961e+00 6.429999999999999716e+01 4.024315999999999782e+00 8.269750295802635875e-02
2.298400000000000176e+01 -8.994899999999999451e+00 9.641200000000000614e+01 3.179335999999999829e-01 -2.335708922146719768e-01
2.298799999999999955e+01 1.942399999999999949e+01 7.144299999999999784e+01 -2.622681000000000040e+00 -2.540260563627707024e-01
2.298900000000000077e+01 1.095299999999999940e+01 9.620699999999999363e+01 -1.102746999999999922e+01 -1.627429135061902732e-01
2.299299999999999855e+01 -1.313899999999999935e+01 9.367100000000000648e+01 -7.491443000000000296e+00 1.479005502108421410e-01
2.299399999999999977e+01 2.500700000000000145e+00 6.553900000000000148e+01 3.033765999999999963e+00 1.156437333320165656e-01
2.299500000000000099e+01 4.143699999999999939e+00 9.639600000000000080e+01 -1.552106000000000030e+01 -3.390198270759633425e-01
2.300100000000000122e+01 -1.190900000000000070e+01 9.553799999999999670e+01 -4.872779999999999667e+00 -3.441561072538518729e-01
2.301999999999999957e+01 -1.012800000000000011e+01 9.565300000000000580e+01 -2.008944000000000063e+00 -2.257936465503713186e-01
2.302299999999999969e+01 -2.991999999999999993e+00 9.848000000000000398e+01 -2.053240999999999872e+01 -1.928014239537262087e-01
2.302299999999999969e+01 1.378999999999999915e+01 6.721200000000000330e+01 -2.022168999999999883e+00 -4.369650544927562372e-03
2.302400000000000091e+01 9.493999999999999773e+00 9.611400000000000432e+01 -4.398698000000000263e+01 -2.577034717639535844e-01
2.302400000000000091e+01 1.796699999999999875e+01 7.141400000000000148e+01 -2.785687999999999942e+00 -2.314863270053048663e-02
2.302599999999999980e+01 1.078500000000000014e+01 6.399399999999999977e+01 -1.196293000000000051e+00 3.120644724320044694e-01
2.303600000000000136e+01 -1.618599999999999994e+01 8.424800000000000466e+01 2.478837000000000046e+01 -1.354020757944911224e-01
2.304200000000000159e+01 1.855300000000000082e+01 7.522100000000000364e+01 -2.289126999999999867e+01 -7.959324047162266713e-02
2.304200000000000159e+01 1.855300000000000082e+01 7.662099999999999511e+01 -3.010710999999999871e+01 -8.471404010699398746e-02
2.304200000000000159e+01 1.941799999999999926e+01 7.522100000000000364e+01 -3.623728999999999978e+00 -3.682112995886925588e-02
2.305399999999999849e+01 5.894599999999999618e+00 6.366799999999999926e+01 9.406763000000000208e-01 -5.844948885595104698e-02
2.305399999999999849e+01 3.256700000000000017e+01 7.793600000000000705e+01 -3.633993000000000251e+01 -2.258328665518751777e-01
2.305399999999999849e+01 1.631500000000000128e+01 9.837000000000000455e+01 -2.256458999999999993e+00 -2.585568306490457213e-01
2.305699999999999861e+01 -7.681000000000000050e-01 7.307299999999999329e+01 -1.794318000000000080e+00 -5.451551908710945693e-02
2.305699999999999861e+01 -3.774000000000000021e+00 7.271599999999999397e+01 -2.873508999999999869e+00 -9.748987517904190991e-02
2.305699999999999861e+01 7.244600000000000151e+00 9.614199999999999591e+01 -1.222954000000000008e+01 -3.376740546256372655e-01
2.305799999999999983e+01 -1.280300000000000082e+01 9.444599999999999795e+01 -6.827277999999999736e+00 -6.269736657180749462e-02
2.306599999999999895e+01 -8.248400000000000176e+00 9.083499999999999375e+01 -4.469591999999999565e+00 1.415524272212072554e-01
2.307100000000000151e+01 -6.668700000000000294e+00 9.886499999999999488e+01 2.779542000000000179e+00 -1.399725123608763222e-01
2.308399999999999963e+01 -7.743000000000000327e+00 9.958299999999999841e+01 -1.179443999999999981e+01 -2.475003491908038811e-01
2.308399999999999963e+01 -4.645699999999999719e+00 7.245199999999999818e+01 2.218366999999999978e-01 6.730319921966550212e-02
2.308699999999999974e+01 -1.052699999999999925e+01 7.372299999999999898e+01 -6.501177000000000206e+00 -2.616084440046896331e-01
2.309199999999999875e+01 1.538499999999999979e+01 9.793800000000000239e+01 -3.673003000000000018e+00 -2.788825049085100760e-01
2.309600000000000009e+01 -9.292500000000000426e+00 9.080500000000000682e+01 1.773012999999999950e+00 1.544804316212101958e-01
2.310000000000000142e+01 1.825000000000000000e+01 7.592100000000000648e+01 -4.113067000000000206e+01 -9.808119706052076392e-02
2.310000000000000142e+01 1.972200000000000131e+01 7.592100000000000648e+01 -1.464277000000000051e+01 -2.861180256814586584e-02
2.310099999999999909e+01 5.948000000000000398e+00 9.687199999999999989e+01 -1.526925999999999917e+01 -3.380308187385102636e-01
2.310200000000000031e+01 -5.483299999999999841e+00 9.854800000000000182e+01 9.071642000000000650e+00 -1.512496872607940746e-01
2.311100000000000065e+01 1.366400000000000059e+00 9.871599999999999397e+01 -3.092499000000000109e+01 -2.829564777128028008e-01
2.311799999999999855e+01 2.675499999999999901e+01 9.472599999999999909e+01 -3.946152000000000015e+01 -1.275050796087229613e-02
2.311899999999999977e+01 1.075000000000000000e+01 6.253499999999999659e+01 -3.378775000000000084e+00 -7.237201700111448033e-02
2.312199999999999989e+01 1.673400000000000176e+01 6.767499999999999716e+01 -4.531088999999999700e+00 1.336244394541715730e-01
2.312500000000000000e+01 -9.417099999999999582e+00 9.153499999999999659e+01 1.259578999999999915e+01 1.961063449953321935e-01
2.312500000000000000e+01 -1.423399999999999999e+01 7.669799999999999329e+01 -7.936278999999999861e+00 -2.488304221941832206e-01
2.312600000000000122e+01 2.446600000000000108e+01 7.347100000000000364e+01 -3.918892000000000309e+01 -9.960777147514840446e-02
2.312699999999999889e+01 -1.532000000000000028e+00 9.803300000000000125e+01 9.424806999999999491e-01 1.502780958133597966e-01
2.312999999999999901e+01 -8.967900000000000205e+00 9.705500000000000682e+01 -7.612252000000000463e-01 -2.330107250322777657e-01
2.312999999999999901e+01 -2.258000000000000007e+00 7.304600000000000648e+01 -3.172553000000000178e+00 -1.041937898371288196e-01
2.313200000000000145e+01 2.421099999999999852e+01 9.477100000000000080e+01 3.615612000000000137e+01 2.471704757429409385e-02
2.313299999999999912e+01 1.766300000000000026e+01 9.918899999999999295e+01 7.561034000000000255e+00 -2.429509626309745707e-01
2.313599999999999923e+01 -1.634100000000000108e+01 8.286700000000000443e+01 3.495042000000000115e+01 -7.315726020257218298e-02
2.313899999999999935e+01 -1.321599999999999930e+01 9.297100000000000364e+01 -3.580677000000000110e+00 1.401537122398761048e-01
2.313899999999999935e+01 -1.685200000000000031e+01 8.051699999999999591e+01 1.008877000000000024e+01 -1.655992239755012599e-02
2.314499999999999957e+01 -1.258500000000000085e+01 8.888400000000000034e+01 2.358673000000000020e+00 1.617602960913120946e-01
2.314900000000000091e+01 2.843400000000000105e+01 7.665099999999999625e+01 -1.294500000000000028e+01 -1.263485978924802355e-01
2.315200000000000102e+01 -1.705600000000000094e+01 8.140300000000000580e+01 2.930290000000000106e+01 -2.991841574292165504e-02
2.315599999999999881e+01 1.947599999999999909e+01 7.654900000000000659e+01 -1.795140999999999920e+01 -4.270481736178245724e-02
2.316100000000000136e+01 3.283800000000000097e+01 8.220699999999999363e+01 -3.480149999999999721e+01 -3.091836446884073664e-01
2.316100000000000136e+01 3.316299999999999670e+01 8.146999999999999886e+01 -3.108526000000000167e+01 -2.564968030496868057e-01
2.316499999999999915e+01 -9.282000000000000028e+00 7.347499999999999432e+01 -4.193872999999999962e+00 9.116405806030867870e-04
2.316600000000000037e+01 3.098300000000000054e+01 8.463299999999999557e+01 1.112110000000000021e+01 -3.005716141238984340e-01
2.317099999999999937e+01 2.940299999999999869e+01 8.721099999999999852e+01 6.585080999999999740e+00 -1.949375587554686151e-01
2.317399999999999949e+01 -1.253200000000000003e+01 7.569799999999999329e+01 -7.516620000000000523e-01 -2.932226740111556484e-01
2.318199999999999861e+01 9.481299999999999173e+00 6.177499999999999858e+01 -1.901882000000000073e+00 -8.199147663235437089e-02
2.318199999999999861e+01 1.042099999999999937e+01 6.177499999999999858e+01 -2.406981000000000037e+00 -7.353460319241511556e-02
2.318400000000000105e+01 2.476899999999999835e+01 7.417100000000000648e+01 -2.075140999999999991e+01 -1.282845256497940623e-01
