1.552299999999999969e+01 -6.269000000000000128e+00 1.183600000000000030e+01 -1.702631999999999834e+01 1.244927496009272383e-01
1.552299999999999969e+01 -6.059899999999999842e+00 1.109999999999999964e+01 -2.724046999999999841e+01 1.246111208468474174e-01
1.552399999999999913e+01 1.150200000000000067e+01 1.979599999999999937e+01 -5.022630999999999624e+00 2.100251238055720615e-01
1.552599999999999980e+01 1.356199999999999939e+01 3.130000000000000071e+01 1.874921000000000149e+01 -9.460086352167020041e-02
1.552699999999999925e+01 9.880699999999999150e+00 1.923600000000000065e+01 9.365951000000000803e+00 2.127240821986754182e-01
1.553599999999999959e+01 -1.998499999999999943e+01 8.773999999999999133e+00 4.082450000000000045e+01 1.304921414476672425e-01
1.553800000000000026e+01 -1.838800000000000168e+01 9.084799999999999542e+00 4.822534000000000098e+00 1.301047644035181194e-01
1.553800000000000026e+01 -1.838800000000000168e+01 1.048499999999999943e+01 1.376111000000000084e+00 1.299112971966785435e-01
1.554499999999999993e+01 -1.266399999999999970e+01 9.302599999999999980e+00 4.017707999999999835e+00 1.284418482098468040e-01
1.554700000000000060e+01 2.525300000000000100e+00 2.505699999999999861e+01 4.618404999999999871e-01 2.304897070161962824e-01
1.555499999999999972e+01 -1.038799999999999990e+01 2.757700000000000173e+01 1.176021000000000072e+01 -3.358070184162317146e-02
1.555899999999999928e+01 -9.529199999999999449e+00 4.351899999999999658e+00 -8.310337000000000529e+00 -4.789420825288766975e-02
1.556400000000000006e+01 1.713899999999999935e+01 1.886299999999999955e+01 -2.814207000000000125e+00 7.987829555056782938e-02
1.556499999999999950e+01 4.013600000000000279e+00 9.636499999999999844e+00 -1.920296000000000092e+01 -8.177613852920083415e-02
1.557099999999999973e+01 -3.060000000000000053e+00 3.161099999999999799e+00 -1.159061999999999948e+01 -8.898669364846979735e-02
1.557099999999999973e+01 -9.606700000000000239e-01 2.799500000000000099e+00 -1.008182000000000045e+01 -9.067160946589050696e-02
1.557199999999999918e+01 -1.093999999999999950e+01 2.756099999999999994e+00 2.159872999999999976e+01 -8.194210228608678204e-02
1.557600000000000051e+01 2.002099999999999991e+00 2.099699999999999989e+01 -2.795786999999999978e+01 -5.875621074716359804e-02
1.557600000000000051e+01 2.867300000000000182e+00 2.099699999999999989e+01 -2.598946000000000112e+01 -6.252168178178117708e-02
1.557600000000000051e+01 1.018299999999999983e+01 3.634799999999999898e+01 -1.400646999999999975e+00 -9.345124159059645108e-02
1.557600000000000051e+01 1.740499999999999936e+00 3.339800000000000324e+01 5.545049999999999812e+00 2.125348015012995528e-01
1.558099999999999952e+01 1.100399999999999956e+01 1.264499999999999957e+01 -2.597134000000000054e+00 -5.969221243003147714e-02
1.558500000000000085e+01 9.577299999999999258e+00 1.993599999999999994e+01 9.067874000000000212e-01 2.130589800540398093e-01
1.558699999999999974e+01 -1.371700000000000053e+01 8.930300000000000793e+00 -2.616763000000000172e+00 1.288475769863767495e-01
1.558699999999999974e+01 1.171199999999999974e+01 3.587100000000000222e+01 -4.373592000000000368e+00 -9.395446028419973672e-02
1.558799999999999919e+01 -3.626999999999999780e+00 3.442600000000000104e+00 -1.195212000000000074e+01 -8.884701583370821498e-02
1.559200000000000053e+01 -4.186699999999999866e-01 3.687600000000000211e+00 -9.568111999999999284e+00 -9.368977359250205139e-02
1.559999999999999964e+01 9.287100000000000355e-01 4.456999999999999851e+00 -7.997177999999999898e+00 -9.840831606902841755e-02
1.560200000000000031e+01 2.442200000000000149e+00 3.254099999999999682e+01 -2.554304999999999826e+00 2.120511656773566567e-01
1.560200000000000031e+01 3.842200000000000060e+00 3.254099999999999682e+01 -1.293102000000000018e+01 2.145900292841079193e-01
1.560299999999999976e+01 -1.527600000000000069e+00 2.307999999999999829e+00 -9.869704999999999728e+00 -8.894422448958118343e-02
1.560299999999999976e+01 -1.121499999999999986e+01 9.559300000000000352e+00 -5.147235000000000227e+00 1.277952136226883639e-01
1.560399999999999920e+01 -1.577800000000000047e+01 9.338900000000000645e+00 -2.008671000000000095e+00 1.293728071205438035e-01
1.560399999999999920e+01 3.055000000000000160e+00 7.905000000000000249e+00 -3.802266999999999797e+01 -7.753067704686655848e-02
1.560399999999999920e+01 3.264100000000000001e+00 7.168899999999999828e+00 -4.891790999999999912e+01 -1.164264564894642584e-01
1.560399999999999920e+01 3.264100000000000001e+00 8.641000000000000014e+00 -2.534712999999999994e+01 -7.839431598947156632e-02
1.561100000000000065e+01 -1.189700000000000024e+01 1.356700000000000128e-01 1.316667999999999950e+00 -7.953229497793459779e-02
1.561899999999999977e+01 8.860200000000000742e+00 3.531600000000000250e+01 3.985730000000000217e+00 -9.294593718675239757e-02
1.562400000000000055e+01 8.618600000000000705e+00 3.452799999999999869e+01 5.909982000000000291e+00 -9.275413760543498032e-02
1.562899999999999956e+01 -1.699399999999999977e+01 2.023900000000000077e+01 1.185740999999999978e+01 1.287505735900863757e-01
1.563299999999999912e+01 1.045199999999999996e+01 2.718299999999999983e+01 -1.446104999999999974e+00 2.216608893218749987e-01
1.563400000000000034e+01 -9.961000000000000298e+00 1.147600000000000087e+01 -3.917368000000000183e+00 1.267229455127776017e-01
1.563899999999999935e+01 -1.975199999999999889e+01 6.836299999999999599e+00 -1.060832999999999915e+00 1.306720178249252684e-01
1.563899999999999935e+01 -1.729200000000000159e+01 6.836299999999999599e+00 -3.013147999999999982e+01 1.301699719328212324e-01
1.564000000000000057e+01 1.722400000000000020e+01 2.315800000000000125e+01 2.755883000000000038e+01 -9.962105615802999137e-02
1.564400000000000013e+01 6.517000000000000348e+00 2.324500000000000099e+01 1.663614000000000033e+02 2.228256904352838297e-01
1.565700000000000003e+01 -1.924099999999999966e+01 2.155699999999999861e+01 6.939207000000000392e+01 1.293962405133866345e-01
1.565799999999999947e+01 1.373000000000000043e+01 1.489600000000000080e+01 -6.204855000000000231e+00 -2.802223764256099939e-02
1.566200000000000081e+01 4.921999999999999709e+00 2.338400000000000034e+01 2.269072999999999851e+01 2.260291214654675807e-01
1.566200000000000081e+01 -1.884100000000000108e+01 1.365499999999999936e+01 -5.569077000000000055e-01 1.296122594334352673e-01
1.566499999999999915e+01 -6.617899999999999672e+00 3.248200000000000198e+00 -4.001633000000000351e+01 -8.561479977604646852e-02
1.566499999999999915e+01 -5.426999999999999602e+00 3.912199999999999900e+00 -3.705866999999999933e+01 -8.760377712337359679e-02
1.566799999999999926e+01 -1.048899999999999944e+00 3.461399999999999721e+01 4.471820000000000128e+00 2.109552314831446007e-01
1.566999999999999993e+01 -1.868700000000000117e+01 1.222300000000000075e+01 -4.495328999999999992e-02 1.297147611326391337e-01
1.567099999999999937e+01 1.566099999999999959e+01 1.837699999999999889e+01 -4.690018000000000242e+00 8.420280584838067683e-02
1.567399999999999949e+01 -2.056899999999999906e+01 2.232700000000000173e+01 7.293294000000000388e+00 1.297359246443867131e-01
1.567600000000000016e+01 -1.660699999999999932e+01 9.105000000000000426e+00 -1.154844999999999899e+00 1.295992302074070457e-01
1.567800000000000082e+01 -1.852199999999999847e+01 6.012999999999999901e+00 -3.988468999999999820e+00 1.305464662142358789e-01
1.567900000000000027e+01 -1.400300000000000011e+01 9.712699999999999889e+00 -2.326198999999999906e-01 1.287239763770266499e-01
1.568800000000000061e+01 -1.801899999999999835e+01 2.073900000000000077e+01 1.100345000000000084e+01 1.290364401765888291e-01
1.568999999999999950e+01 3.604299999999999837e+00 2.166499999999999915e+01 -1.330902000000000029e+01 -6.553471748671808872e-02
1.569800000000000040e+01 -6.839999999999999858e+00 2.441100000000000048e+00 -2.313258000000000081e+01 -8.451134061165863076e-02
1.570100000000000051e+01 -9.260899999999999466e+00 4.940500000000000114e+00 -1.459814000000000078e+01 -4.813721554799783864e-02
1.570299999999999940e+01 2.858099999999999863e+00 2.681400000000000006e+01 8.216469000000000023e+00 2.307296033709623218e-01
1.570299999999999940e+01 4.049000000000000377e+00 2.747800000000000153e+01 9.417728000000000321e+00 2.001471267548666777e-01
1.570400000000000063e+01 -2.061899999999999977e+01 1.915200000000000102e+01 1.904870000000000063e+00 1.297463681994263929e-01
1.570400000000000063e+01 -7.157899999999999707e+00 1.361999999999999922e+01 -1.540424999999999933e+01 1.244256034406227701e-01
1.570899999999999963e+01 -5.206900000000000084e+00 3.418900000000000006e+01 1.931043000000000021e+01 2.072330335851485794e-01
1.571199999999999974e+01 5.175699999999999967e+00 1.081099999999999994e+01 -2.903468000000000160e+01 1.076952194951915354e-01
1.571400000000000041e+01 -2.182300000000000040e+01 2.052899999999999991e+01 5.552692000000000183e-01 1.300094764630302380e-01
1.571400000000000041e+01 -2.182300000000000040e+01 2.148699999999999832e+01 9.930740999999999596e-01 1.300073051382363842e-01
1.571499999999999986e+01 1.468800000000000061e+01 1.664799999999999969e+01 -1.700112000000000023e+01 -1.584815978580658008e-02
1.571899999999999942e+01 9.021399999999999864e+00 2.674699999999999989e+01 -2.440261000000000013e+00 2.112791992485687498e-01
1.572300000000000075e+01 -1.854899999999999949e+01 1.134299999999999997e+01 1.497958000000000067e-01 1.297579723333719681e-01
1.572400000000000020e+01 -8.345499999999999474e+00 8.622799999999999798e+00 -2.291747000000000156e+01 1.266969771627232677e-01
1.572799999999999976e+01 1.506199999999999939e+01 2.550000000000000000e+01 3.139950999999999937e+01 -9.541227422404849334e-02
1.572899999999999920e+01 1.095599999999999952e+01 2.037000000000000099e+01 -5.721343000000000067e+00 2.109325396808651720e-01
1.573199999999999932e+01 -7.062000000000000277e+00 1.633999999999999897e+00 -1.007084000000000046e+01 -8.344379341896165925e-02
1.573600000000000065e+01 -1.954500000000000171e+01 1.541699999999999982e+01 -2.329633000000000109e+01 1.296233381826488451e-01
1.573799999999999955e+01 -1.723199999999999932e+01 7.775000000000000355e+00 -4.315758000000000294e+01 1.299472583588864860e-01
1.574399999999999977e+01 -1.090799999999999947e+01 2.682100000000000151e+01 1.185901999999999923e+01 -3.299122409063755257e-02
1.574799999999999933e+01 1.888800000000000168e+01 1.981099999999999994e+01 -3.888139999999999930e+00 3.294441704950805405e-02
1.575000000000000000e+01 1.877400000000000091e+01 2.268400000000000105e+01 3.195634000000000086e+01 8.602145979475998849e-02
1.575200000000000067e+01 1.274099999999999966e+01 1.385800000000000054e+01 -1.319045999999999941e+00 2.578383637733755451e-01
1.575600000000000023e+01 1.173900000000000077e+01 2.634900000000000020e+01 6.669442000000000093e+00 7.898224131338915655e-02
1.576099999999999923e+01 -1.098000000000000043e+01 2.508500000000000085e+01 7.891365999999999659e+00 -3.254847137310387661e-02
1.577100000000000080e+01 -1.968199999999999861e+01 7.924500000000000099e+00 -1.266685000000000016e+01 1.304475866264965256e-01
1.577200000000000024e+01 -1.855799999999999983e+01 8.656000000000000583e+00 -1.226265000000000072e+01 1.300999695767802444e-01
1.577299999999999969e+01 8.962400000000000588e+00 1.199300000000000033e+01 -1.281822999999999979e+01 -6.735905548729717585e-02
1.577399999999999913e+01 -1.507799999999999940e+01 9.660600000000000520e+00 -2.428691000000000155e+00 1.290185516789800757e-01
1.577500000000000036e+01 1.045199999999999996e+01 2.087600000000000122e+01 -6.400026999999999688e+00 2.119931937729115368e-01
1.577599999999999980e+01 6.472999999999999865e+00 2.827799999999999869e+01 9.144534000000000162e+00 2.088232870858301449e-01
1.577599999999999980e+01 7.663899999999999935e+00 2.761400000000000077e+01 -1.723278000000000032e-01 2.099048840329407750e-01
1.578200000000000003e+01 6.519000000000000128e+00 3.303300000000000125e+01 1.280866000000000060e+00 6.341589861783912541e-02
1.578800000000000026e+01 -1.013199999999999967e+01 3.089999999999999858e+01 1.712277000000000049e+00 2.386112904864921835e-01
1.578800000000000026e+01 1.179899999999999949e+01 2.200199999999999889e+01 -1.430462999999999951e+01 1.855193855919205770e-01
1.579100000000000037e+01 1.824200000000000088e+01 1.961299999999999955e+01 -2.715500000000000136e-01 2.033976429867360436e-01
1.579199999999999982e+01 1.656400000000000006e+01 1.845200000000000173e+01 -5.899257000000000417e+00 8.740092000184673804e-02
1.579299999999999926e+01 1.047799999999999976e+01 1.992000000000000171e+01 -3.978886000000000145e+00 2.118006520331205123e-01
1.579499999999999993e+01 9.337400000000000588e+00 2.167200000000000060e+01 -3.864902000000000015e+01 2.149356968173217197e-01
1.579800000000000004e+01 -1.350300000000000011e+01 2.163100000000000023e+01 1.025468000000000046e+01 1.274398222092363586e-01
1.580899999999999928e+01 8.236499999999999488e+00 2.279500000000000171e+01 -4.265982000000000163e+00 2.187125711755418533e-01
1.581900000000000084e+01 1.335900000000000087e+00 2.301599999999999824e+01 -1.509962999999999944e+01 -5.600094333164261362e-02
1.583399999999999963e+01 -1.906899999999999906e+01 1.444899999999999984e+01 -3.577531000000000017e+00 1.295279055796636491e-01
1.583500000000000085e+01 1.242299999999999960e+00 3.387500000000000000e+01 9.035959999999999326e+00 2.125395195545670968e-01
1.583600000000000030e+01 -3.892700000000000049e+00 3.608200000000000074e+01 -1.053406999999999982e+01 2.103252578259334205e-01
1.583600000000000030e+01 -2.953300000000000036e+00 3.608200000000000074e+01 -2.933865000000000123e+01 2.110544911314737315e-01
1.584099999999999930e+01 -1.762000000000000099e+01 8.766000000000000014e+00 -7.425487999999999644e+00 1.298301334631301596e-01
1.584999999999999964e+01 7.402099999999999902e+00 1.202899999999999991e+01 -9.681775000000000020e+00 1.004946526931783934e-01
1.585500000000000043e+01 -2.387999999999999901e+00 2.343999999999999861e+00 -9.914605999999999142e+00 -8.841989123342776369e-02
1.586599999999999966e+01 -7.246999999999999886e+00 1.104700000000000015e+00 -5.517489999999999561e+00 -8.282031480600580975e-02
1.586800000000000033e+01 4.594000000000000306e+00 3.271600000000000108e+01 -9.114762999999999948e+00 2.163696904759685180e-01
1.586999999999999922e+01 -1.094999999999999973e+00 1.608000000000000096e+00 -8.761976999999999904e+00 -8.803466124665770831e-02
1.587199999999999989e+01 -8.786400000000000432e+00 7.595399999999999707e+00 -1.421444999999999936e+01 1.271451623772839323e-01
1.587299999999999933e+01 -9.432000000000000384e+00 -1.880200000000000093e+00 -4.152524000000000215e-01 -7.890355004436576392e-02
1.587800000000000011e+01 -1.074300000000000033e+01 2.601399999999999935e+01 1.238002999999999965e+01 -3.303116219437743362e-02
1.588000000000000078e+01 1.192600000000000016e+01 2.459700000000000131e+01 9.643765999999999394e+00 2.144452142007791662e-01
1.588000000000000078e+01 1.204400000000000048e+01 2.375000000000000000e+01 3.507414999999999838e-01 2.074607921226262197e-01
1.588000000000000078e+01 1.204400000000000048e+01 2.544399999999999906e+01 9.055168000000000106e+00 7.485229842839770387e-02
1.588000000000000078e+01 1.541699999999999982e+01 2.470799999999999841e+01 2.055070999999999870e+01 -9.601827371574131464e-02
1.588000000000000078e+01 1.201600000000000001e+01 2.318900000000000006e+01 -4.111773999999999596e+00 2.012999129389749231e-01
1.588299999999999912e+01 -8.466799999999999216e+00 3.115500000000000114e+01 -4.587073999999999874e-01 2.380879126633120291e-01
1.588400000000000034e+01 -1.934900000000000020e+01 1.707100000000000151e+01 -4.285968999999999696e+00 1.294136791940580511e-01
1.588799999999999990e+01 -1.059299999999999997e+01 9.457499999999999574e+00 -5.627887999999999558e+00 1.273491646348476891e-01
1.589300000000000068e+01 5.280000000000000249e+00 2.796399999999999864e+01 1.916863999999999990e+01 2.044172703878815445e-01
1.589300000000000068e+01 2.696000000000000174e+00 5.408299999999999663e+00 -1.294297000000000075e+01 -1.068713247287275403e-01
1.589899999999999913e+01 -4.222100000000000186e+00 3.532200000000000273e+01 -2.175400000000000134e+01 2.092012541570579531e-01
1.589899999999999913e+01 -2.623899999999999899e+00 3.532200000000000273e+01 -3.094102000000000174e+01 2.104010966818548878e-01
1.590099999999999980e+01 1.597300000000000075e+01 2.383899999999999864e+01 3.208062999999999931e+01 -9.680518117126721278e-02
1.590199999999999925e+01 1.241500000000000048e+00 2.373199999999999932e+01 -8.542742000000000502e+00 2.315454930730659888e-01
1.590499999999999936e+01 3.142199999999999882e+00 3.248299999999999699e+01 -6.424976000000000020e+00 2.130336492238631974e-01
1.590700000000000003e+01 1.274000000000000021e+01 3.502400000000000091e+01 -6.457851999999999926e+00 -9.452187473856722699e-02
1.591000000000000014e+01 -1.765599999999999947e-01 3.466700000000000159e+01 6.816842000000000290e+00 2.119292318377878903e-01
1.591200000000000081e+01 -9.747799999999999798e+00 1.448799999999999955e+01 -6.002073000000000214e+00 1.257646200241762657e-01
1.591200000000000081e+01 -8.556900000000000617e+00 1.515199999999999925e+01 -2.311155000000000115e+01 1.249160091753857421e-01
1.591200000000000081e+01 -7.365999999999999659e+00 1.448799999999999955e+01 -1.281943000000000055e+01 1.241881833955821579e-01
1.591900000000000048e+01 1.539400000000000013e+01 1.786100000000000065e+01 -4.690018000000000242e+00 1.292198581674992852e-01
1.593099999999999916e+01 -1.099499999999999922e+01 2.835699999999999932e+01 5.618613999999999997e+00 -3.307184225323624160e-02
1.593200000000000038e+01 1.654400000000000048e+01 2.324800000000000111e+01 2.960819000000000045e+01 -9.791727650032076846e-02
1.593599999999999994e+01 1.400099999999999945e+01 2.943499999999999872e+01 -2.234148999999999941e+00 -9.521470798953865500e-02
1.593999999999999950e+01 -1.003100000000000058e+01 -1.578500000000000014e+00 -2.892619999999999914e-02 -7.902384612561827448e-02
1.594400000000000084e+01 5.974499999999999922e+00 1.197199999999999953e+01 -2.088291999999999859e+01 1.037034174456062663e-01
1.594500000000000028e+01 -1.880900000000000105e+01 1.541699999999999982e+01 -2.025651999999999830e+01 1.293348814837865235e-01
1.594699999999999918e+01 7.216999999999999638e+00 2.318700000000000117e+01 1.037217000000000056e+01 2.213027169003821126e-01
1.595100000000000051e+01 -1.023199999999999932e+01 3.088099999999999845e+00 4.741633000000000209e+00 -4.749105566659522770e-02
1.595599999999999952e+01 -6.759900000000000020e+00 9.967399999999999594e+00 -3.578831999999999880e+01 1.250692368263446319e-01
1.595700000000000074e+01 -2.320500000000000007e+00 3.462199999999999989e+01 -1.784542000000000073e+01 2.097330247192833730e-01
1.596000000000000085e+01 -5.636599999999999611e+00 3.394899999999999807e+01 8.287190000000000722e+00 2.066998800976139194e-01
1.597100000000000009e+01 -1.768799999999999883e+01 9.352100000000000080e+00 -2.038244000000000167e+00 1.296960624956273178e-01
1.597199999999999953e+01 2.434699999999999864e+00 2.050600000000000023e+01 -3.211278999999999684e+01 -5.948965242464785558e-02
1.597600000000000087e+01 1.369200000000000017e+01 3.020799999999999841e+01 9.024877999999999290e+00 -9.499939306346820433e-02
1.597700000000000031e+01 -1.196400000000000041e+01 9.570000000000000284e+00 -4.467121999999999815e+00 1.278290295571593571e-01
1.597799999999999976e+01 1.177699999999999969e+00 2.219500000000000028e+01 -2.332563000000000031e+01 -5.541043640889662530e-02
1.598300000000000054e+01 -2.948599999999999888e+00 3.455400000000000205e+01 -2.671471000000000018e+01 2.091312782114587987e-01
1.598399999999999999e+01 1.438400000000000034e+01 1.568500000000000050e+01 -9.628600999999999743e+00 -1.628718890517955042e-02
1.599499999999999922e+01 -6.444399999999999906e+00 1.207300000000000040e+01 -1.684306000000000125e+01 1.240419967555975306e-01
1.599499999999999922e+01 -1.981599999999999895e+01 1.781800000000000139e+01 -1.565728000000000120e-01 1.294635133750249301e-01
1.599600000000000044e+01 -1.490900000000000070e+01 2.105399999999999849e+01 2.519378000000000029e+01 1.278653252385750505e-01
1.599699999999999989e+01 5.362199999999999633e+00 3.268099999999999739e+01 -2.098011999999999944e+01 5.835555250001656091e-02
1.599799999999999933e+01 3.522699999999999942e+00 9.239900000000000446e+00 -1.695282999999999873e+01 -7.898113079197251196e-02
1.599799999999999933e+01 -1.907799999999999940e+01 1.635500000000000043e+01 -9.708019999999999428e+00 1.293280265645508631e-01
1.600199999999999889e+01 4.706000000000000405e+00 1.005100000000000016e+01 -1.300497999999999976e+01 -8.501360730144882916e-02
1.600199999999999889e+01 -1.198799999999999955e+01 8.153799999999999937e-01 1.131221999999999994e+01 -8.018799589492490998e-02
1.600199999999999889e+01 -1.198799999999999955e+01 1.680600000000000094e+00 1.804952000000000112e+01 -8.080716601399741406e-02
1.600799999999999912e+01 1.302100000000000035e+00 2.126399999999999935e+01 -2.338843999999999923e+01 -5.553761290751933061e-02
1.600799999999999912e+01 3.567299999999999915e+00 2.126399999999999935e+01 -1.330902000000000029e+01 -6.461249236501956372e-02
1.600900000000000034e+01 2.231399999999999828e+00 3.300200000000000244e+01 2.052658000000000094e+00 2.124581443441125594e-01
1.601000000000000156e+01 -2.134400000000000119e+01 2.226200000000000045e+01 2.307603999999999989e+00 1.297996863596250772e-01
1.601000000000000156e+01 -1.979400000000000048e+01 2.226200000000000045e+01 1.519476000000000049e+01 1.294155237149437754e-01
1.601000000000000156e+01 1.370500000000000007e+01 3.109400000000000119e+01 2.507732999999999990e+01 -9.512066750687214745e-02
1.601399999999999935e+01 1.030400000000000027e+01 1.237800000000000011e+01 -5.038337000000000288e+00 -6.383498644466031879e-02
1.602199999999999847e+01 -1.958800000000000097e+00 1.560400000000000009e+00 -8.770075999999999539e+00 -8.737808789252941855e-02
1.602199999999999847e+01 -1.164700000000000024e+01 2.331800000000000139e+01 8.107869000000000881e+00 1.266513179890643437e-01
1.602499999999999858e+01 2.813300000000000245e-01 3.955000000000000071e+00 -9.439142999999999617e+00 -9.606552905376145035e-02
1.602499999999999858e+01 -1.132300000000000040e+01 2.437399999999999878e+01 7.773875000000000313e+00 1.266423424744168025e-01
1.603000000000000114e+01 -1.330199999999999960e+01 9.392099999999999227e+00 -1.412029999999999952e-01 1.283376559607685707e-01
1.604400000000000048e+01 1.371799999999999997e+01 2.768299999999999983e+01 1.551050000000000040e+01 -9.454362295744275779e-02
1.604400000000000048e+01 1.392699999999999960e+01 2.841900000000000048e+01 1.324705999999999939e+00 -9.504340956330642465e-02
1.605000000000000071e+01 -2.741999999999999993e+00 3.381499999999999773e+01 -8.339515000000000455e+00 2.082540389996020980e-01
1.605699999999999861e+01 8.127700000000000813e+00 3.413100000000000023e+01 7.320481000000000016e+00 -9.273790859594337188e-02
1.606200000000000117e+01 -5.640699999999999603e-01 2.366899999999999782e+00 -9.157296000000000546e+00 -9.058044967280415305e-02
1.606500000000000128e+01 8.231999999999999318e+00 2.691499999999999915e+01 -1.202507999999999910e+00 2.084768173070130626e-01
1.606500000000000128e+01 9.752000000000000668e+00 2.691499999999999915e+01 -2.221233999999999931e+00 2.155712619024048871e-01
1.606500000000000128e+01 1.115199999999999925e+01 2.691499999999999915e+01 -6.378637000000000334e-01 7.941879811267724132e-02
1.606599999999999895e+01 -7.709399999999999586e+00 9.385099999999999554e+00 -3.015534999999999854e+01 1.257698162653969054e-01
1.607300000000000040e+01 -1.617399999999999949e+01 9.595900000000000318e+00 -3.492733000000000088e-01 1.291963302873262165e-01
1.607499999999999929e+01 1.929899999999999949e+01 2.078399999999999892e+01 -8.685907999999999518e+00 4.233338497535352879e-02
1.607499999999999929e+01 1.929899999999999949e+01 2.183399999999999963e+01 1.806243999999999872e+01 6.287921393682747995e-02
1.607499999999999929e+01 -1.762600000000000122e+01 1.032000000000000028e+01 6.581618999999999664e-01 1.294895184214139294e-01
1.607600000000000051e+01 -1.443599999999999994e+01 1.020400000000000063e+01 -3.061205999999999872e+00 1.285424399579420673e-01
1.607600000000000051e+01 -2.138400000000000034e+01 1.955799999999999983e+01 4.491170999999999913e-01 1.297880452883407865e-01
1.607999999999999829e+01 -1.146400000000000041e+01 -4.251099999999999879e-01 3.096172999999999842e-01 -7.952690260003315859e-02
1.608299999999999841e+01 -4.447199999999999598e+00 3.450200000000000244e+01 2.018752999999999798e+00 2.080279184571962592e-01
1.609100000000000108e+01 1.398499999999999943e+01 2.680900000000000105e+01 1.840469999999999828e+01 -9.466641222918334431e-02
1.609700000000000131e+01 -2.958899999999999864e-01 1.608000000000000096e+00 -8.280556999999999945e+00 -8.893905235636465068e-02
1.609799999999999898e+01 -6.126999999999999780e+00 3.644800000000000040e+00 -5.245239999999999725e+01 -8.686533334988907895e-02
1.609799999999999898e+01 -4.727000000000000313e+00 3.644800000000000040e+00 -2.331468999999999880e+01 -8.834266170391157080e-02
1.610600000000000165e+01 -1.219400000000000084e+01 2.249800000000000111e+01 5.474065000000000403e+00 1.267678628035998345e-01
1.610800000000000054e+01 -6.897100000000000009e+00 3.283599999999999852e+01 9.520020999999999622e-01 2.375812648292988938e-01
1.610900000000000176e+01 -1.899200000000000088e+01 6.546000000000000263e+00 -3.470582999999999974e+00 1.303695277457708745e-01
1.610900000000000176e+01 -1.899200000000000088e+01 8.066000000000000725e+00 -8.891121000000000052e+00 1.301373861635783391e-01
1.610900000000000176e+01 -1.805199999999999960e+01 6.546000000000000263e+00 -5.792080999999999591e+00 1.301700356702674422e-01
1.610900000000000176e+01 -1.805199999999999960e+01 8.066000000000000725e+00 -1.467353999999999914e+01 1.299211551415483945e-01
1.611799999999999855e+01 3.349000000000000199e+00 2.732900000000000063e+01 1.372522000000000020e+01 1.987294405292978350e-01
1.611899999999999977e+01 1.792399999999999949e+01 2.275499999999999901e+01 3.069680999999999926e+01 -1.021411402106173760e-01
1.612300000000000111e+01 4.095200000000000173e+00 2.206099999999999994e+01 -7.639530999999999850e+00 2.268742951620565940e-01
1.612300000000000111e+01 4.423499999999999766e+00 2.280600000000000094e+01 9.118513000000000090e+00 2.264666585986517544e-01
1.612300000000000111e+01 1.116900000000000048e+01 3.634000000000000341e+01 -3.568573000000000217e+00 -9.399446822822760117e-02
1.612300000000000111e+01 1.220599999999999952e+01 3.545700000000000074e+01 -1.705955999999999861e-01 -9.437668346913420658e-02
1.612500000000000000e+01 1.185399999999999920e+01 1.285200000000000031e+01 -1.697325999999999890e+00 -5.148396347609572599e-02
1.612600000000000122e+01 -3.423000000000000043e+00 3.532200000000000273e+01 -1.002280000000000015e+01 2.097391214818316585e-01
1.612999999999999901e+01 1.379199999999999982e+01 3.167299999999999827e+01 1.963686999999999827e+01 -9.531386763716458155e-02
1.613200000000000145e+01 -7.229099999999999859e+00 3.204200000000000159e+01 7.951175000000000104e+00 2.376348229826827085e-01
1.613400000000000034e+01 -8.769999999999999574e+00 5.337100000000000399e+00 -3.600061000000000178e+01 -4.872866154340320388e-02
1.613400000000000034e+01 -8.560900000000000176e+00 6.073100000000000165e+00 -2.271693000000000140e+01 -4.881762144472349962e-02
1.613500000000000156e+01 8.131600000000000605e+00 1.195899999999999963e+01 -1.346002000000000010e+01 9.901928080715521885e-02
1.613599999999999923e+01 -8.164999999999999147e+00 -3.830000000000000071e+00 -7.286145000000000316e+00 -7.756657520064749733e-02
1.613700000000000045e+01 -1.720299999999999940e+01 9.619699999999999918e+00 -1.409718999999999944e+00 1.294494887081311663e-01
1.613800000000000168e+01 -1.744900000000000162e+01 2.080000000000000071e+01 1.038259000000000043e+01 1.286691178467994912e-01
1.614099999999999824e+01 -1.593900000000000039e-01 3.085599999999999898e+00 -8.191618999999999318e+00 -9.304295951417355937e-02
1.615500000000000114e+01 -1.872400000000000020e+01 2.115500000000000114e+01 1.171853999999999951e+00 1.290496663960775114e-01
1.615599999999999881e+01 -9.910700000000000287e+00 9.755399999999999849e+00 7.067854999999999777e+00 1.267460941426331034e-01
1.616000000000000014e+01 -1.564699999999999980e+00 8.479999999999999760e-01 -1.097142000000000017e+01 -8.630880820855249547e-02
1.616000000000000014e+01 -6.252900000000000125e-01 8.479999999999999760e-01 -1.129609999999999914e+01 -8.690006072872766274e-02
1.616700000000000159e+01 5.841000000000000192e+00 2.369699999999999918e+01 4.352917000000000058e+01 2.243766638856503071e-01
1.617200000000000060e+01 -1.932100000000000151e+01 7.306000000000000050e+00 -2.902464000000000155e+00 1.302952762812460696e-01
1.617200000000000060e+01 -1.772299999999999898e+01 7.306000000000000050e+00 -1.900590000000000046e+01 1.299390681547777093e-01
1.617399999999999949e+01 1.389300000000000068e+01 3.249300000000000210e+01 2.696037000000000106e+01 -9.541983065809095388e-02
1.617399999999999949e+01 1.389300000000000068e+01 3.354299999999999926e+01 3.668826999999999838e+00 -9.537087486286868754e-02
1.617500000000000071e+01 9.017799999999999372e+00 2.291300000000000026e+01 -1.743024000000000129e+01 1.822992386608223714e-01
1.617899999999999849e+01 -2.028800000000000026e+01 1.826599999999999824e+01 2.513447999999999793e-01 1.295018111716612630e-01
1.618499999999999872e+01 1.225000000000000000e+01 1.346100000000000030e+01 -4.512412000000000090e-01 2.547381923250904290e-01
1.618700000000000117e+01 -8.075300000000000367e+00 2.707700000000000107e-01 2.114215999999999873e+00 -8.168024793798193961e-02
1.618700000000000117e+01 -8.435999999999999943e+00 -1.330200000000000049e+00 2.162537999999999982e+01 -7.991560813395390261e-02
1.618700000000000117e+01 -8.435999999999999943e+00 -4.649800000000000044e-01 6.391407999999999845e+01 -8.076868648176963039e-02
1.618900000000000006e+01 -1.274099999999999966e+01 2.167899999999999849e+01 7.571892000000000067e+00 1.269050078118374725e-01
1.619200000000000017e+01 3.826400000000000023e+00 3.268399999999999750e+01 -2.133950000000000102e+01 2.145828274238039124e-01
1.619200000000000017e+01 -3.684600000000000097e+00 3.455400000000000205e+01 -4.428992000000000040e+00 2.085751528554973810e-01
1.619300000000000139e+01 -3.745000000000000107e+00 3.255500000000000060e+00 -1.234684000000000026e+01 -8.892160927701128759e-02
1.619300000000000139e+01 -1.020199999999999996e+01 1.239000000000000057e+01 3.100125999999999937e+00 1.262008725581922897e-01
1.619300000000000139e+01 -1.020199999999999996e+01 1.325500000000000078e+01 1.416189999999999927e+01 1.260250623621463339e-01
1.619800000000000040e+01 -1.109800000000000075e+01 2.959600000000000009e+01 4.098679999999999879e+00 -3.301114595167379401e-02
1.620899999999999963e+01 7.173000000000000043e+00 2.801099999999999923e+01 3.103585999999999956e+00 2.097332985858044174e-01
1.620899999999999963e+01 -1.152599999999999980e+01 2.152299999999999880e+00 1.015653000000000006e+01 -8.149627050035831988e-02
1.622299999999999898e+01 1.609400000000000119e+01 1.791900000000000048e+01 -1.011007000000000033e+01 9.641203290183003594e-02
1.622299999999999898e+01 -6.327300000000000146e+00 1.066699999999999982e+01 -1.693137000000000114e+01 1.242292157875680703e-01
1.622400000000000020e+01 1.775100000000000122e+01 1.921600000000000108e+01 -7.426465999999999568e+00 7.357894005966880702e-02
1.622400000000000020e+01 1.490300000000000047e+01 1.713899999999999935e+01 -6.280624999999999680e+00 1.317040447554933824e-01
1.622800000000000153e+01 1.003700000000000081e+01 2.140500000000000114e+01 -1.994781000000000049e+01 2.139200805488978840e-01
1.622800000000000153e+01 1.090300000000000047e+01 2.140500000000000114e+01 -5.717946999999999669e+00 2.126278539039585525e-01
1.623499999999999943e+01 -2.791900000000000048e+00 3.183099999999999952e+01 1.053750999999999927e+01 2.051021952570226126e-01
1.623699999999999832e+01 7.254100000000000215e+00 3.347399999999999665e+01 4.998540000000000205e+00 6.724928714378959616e-02
1.624200000000000088e+01 -1.147300000000000075e+01 2.899299999999999855e+01 6.283050000000000246e+00 -3.267938690793935341e-02
1.624899999999999878e+01 -8.825200000000000600e+00 6.875000000000000000e+00 -1.479257999999999917e+01 2.045094616838201707e-01
1.625400000000000134e+01 -1.171799999999999997e+01 2.814699999999999847e+01 5.974216000000000193e+00 -3.241828110280629144e-02
1.626300000000000168e+01 1.947699999999999987e+00 4.874600000000000044e+00 -9.700896000000000186e+00 -1.028898789158972094e-01
1.626300000000000168e+01 1.825800000000000090e+00 2.467800000000000082e+01 -4.087398000000000309e+00 2.307994617472409193e-01
1.626500000000000057e+01 -1.147600000000000087e+01 2.725199999999999889e+01 6.769572000000000145e+00 -3.255089437266815711e-02
1.626699999999999946e+01 -1.836899999999999977e+01 1.331600000000000072e+01 9.164716000000000529e-01 1.292469964166035878e-01
1.626699999999999946e+01 -1.836899999999999977e+01 1.418200000000000038e+01 4.461539000000000144e+00 1.291658402224832303e-01
1.626999999999999957e+01 -8.999299999999999855e+00 -2.371100000000000207e+00 -2.399779999999999969e-01 -7.881248606600491091e-02
1.627599999999999980e+01 1.734699999999999909e+00 2.056400000000000006e+01 -3.445150000000000290e+01 -5.620323661472888255e-02
1.627599999999999980e+01 3.134700000000000042e+00 2.056400000000000006e+01 -2.916976000000000013e+01 -6.177710153794908898e-02
1.628000000000000114e+01 -1.579800000000000004e+01 2.079100000000000037e+01 1.101223000000000063e+01 1.280487367157582823e-01
1.628300000000000125e+01 1.305799999999999983e+01 1.458200000000000074e+01 -5.113349999999999618e+00 2.553312175367673520e-01
1.628600000000000136e+01 9.733999999999999986e+00 2.210500000000000043e+01 -1.256176999999999921e+01 2.152722683566798412e-01
1.628699999999999903e+01 -2.878899999999999793e+00 2.740600000000000147e+00 -1.125248999999999988e+01 -8.905956273207825402e-02
1.629200000000000159e+01 -8.575699999999999434e+00 9.191100000000000492e+00 -8.826221000000000316e+00 1.261275677919480587e-01
1.630000000000000071e+01 6.865000000000000213e+00 1.210800000000000054e+01 -9.663061000000000789e+00 1.008890492750998125e-01
1.630600000000000094e+01 -1.946900000000000075e+00 3.397299999999999898e+01 1.644214000000000064e+00 2.090918886185246794e-01
1.631299999999999883e+01 1.131600000000000072e+01 2.205600000000000094e+01 -2.770569000000000059e+00 1.847195515423007417e-01
1.631299999999999883e+01 -1.072799999999999976e+01 3.041900000000000048e+01 9.487843999999999722e-01 -3.330516771519459462e-02
1.631299999999999883e+01 -9.282000000000000028e+00 3.122500000000000142e+01 -1.362827000000000011e+00 2.382027369884437973e-01
1.631299999999999883e+01 8.623699999999999477e+00 2.362500000000000000e+01 -1.127467000000000041e+01 1.875977032607847872e-01
1.631700000000000017e+01 -2.309299999999999908e+00 3.311500000000000199e+01 6.235305000000000319e+00 2.075071880192265739e-01
1.632600000000000051e+01 5.980000000000000426e+00 2.823100000000000165e+01 1.877722999999999942e+01 2.071043022749182172e-01
1.632700000000000173e+01 2.387000000000000011e+00 2.558200000000000074e+01 9.986209999999999809e+00 2.303838077207413237e-01
1.632700000000000173e+01 2.596099999999999852e+00 2.631800000000000139e+01 8.456834999999999880e+00 2.304412287178423391e-01
1.632799999999999940e+01 -8.695899999999999963e+00 -3.071099999999999941e+00 -1.359633000000000091e+00 -7.828063590720504838e-02
1.632900000000000063e+01 1.697700000000000031e+01 2.275700000000000145e+01 2.895849000000000117e+01 -9.921045947918354091e-02
1.633399999999999963e+01 -9.541999999999999815e+00 1.008500000000000085e+01 7.067854999999999777e+00 1.263261667808893984e-01
1.633999999999999986e+01 -1.251800000000000068e+01 9.548000000000000043e+00 -3.385943999999999843e+00 1.278167398472571936e-01
1.634400000000000119e+01 7.649600000000000399e+00 2.367800000000000082e+01 -5.318431000000000353e+00 2.210689637791785067e-01
1.634400000000000119e+01 -9.256899999999999906e+00 1.488400000000000034e+01 -2.217986000000000146e+01 1.250657342609661216e-01
1.634400000000000119e+01 -7.856900000000000439e+00 1.488400000000000034e+01 -7.221339000000000397e+00 1.240974166090632325e-01
1.634700000000000131e+01 -6.834299999999999820e+00 1.296299999999999919e+01 -1.283512999999999948e+01 1.237306129858032344e-01
1.634700000000000131e+01 -3.632000000000000117e+00 3.369299999999999784e+01 1.638873999999999853e+01 2.074367191615227313e-01
1.634700000000000131e+01 1.810999999999999943e+01 1.960800000000000054e+01 1.873185000000000100e+00 2.029565743929866994e-01
1.635999999999999943e+01 -1.787300000000000111e+01 1.078999999999999915e+01 -6.798760000000000359e-01 1.293609780029377210e-01
1.636299999999999955e+01 -9.182999999999999829e+00 8.028000000000000469e+00 -7.065792000000000073e+00 1.267794767828922253e-01
1.636299999999999955e+01 3.019899999999999807e+00 8.173099999999999810e+00 -3.246979000000000326e+01 -7.675343428041486726e-02
1.636299999999999955e+01 3.229000000000000092e+00 5.838899999999999757e+00 -2.559193000000000140e+01 -1.107963457902686466e-01
1.636299999999999955e+01 3.229000000000000092e+00 7.437100000000000044e+00 -5.110990000000000322e+01 -1.172770058327712028e-01
1.636299999999999955e+01 3.229000000000000092e+00 8.909200000000000230e+00 -2.668519999999999825e+01 -7.735910736677530097e-02
1.636299999999999955e+01 3.455999999999999961e+00 6.637999999999999901e+00 -6.040178999999999832e+01 -1.152049812200489215e-01
1.636299999999999955e+01 -8.964100000000000179e+00 -3.830000000000000071e+00 -8.174846999999999531e-01 -7.757473770356787535e-02
1.636299999999999955e+01 -7.365899999999999892e+00 -3.830000000000000071e+00 -6.074722999999999651e+00 -7.781603853370687440e-02
1.636499999999999844e+01 1.573300000000000054e+01 2.431299999999999883e+01 1.608883000000000152e+01 -9.739204987279528880e-02
1.636499999999999844e+01 1.584399999999999942e+01 2.351500000000000057e+01 2.297276000000000096e+01 -9.697138517126199786e-02
1.636899999999999977e+01 1.045199999999999996e+01 2.697400000000000020e+01 -3.092311000000000032e+00 2.192546066345667233e-01
1.637000000000000099e+01 1.647999999999999909e+00 3.368699999999999761e+01 8.534615999999999758e+00 2.126606425989228111e-01
1.637099999999999866e+01 -9.555099999999999483e+00 1.100900000000000034e+01 8.924929000000000201e+01 1.260452881088291455e-01
1.637199999999999989e+01 1.325799999999999912e+01 3.458200000000000074e+01 -5.371838000000000335e+00 -9.502604005681382360e-02
1.637300000000000111e+01 -1.052200000000000024e+01 -1.181899999999999951e+00 4.280039999999999956e-01 -7.942633658783121442e-02
1.637600000000000122e+01 8.511100000000000776e+00 3.476899999999999835e+01 2.945526999999999784e+00 -9.306548613757852084e-02
1.637600000000000122e+01 -9.789999999999999147e+00 1.182399999999999984e+01 2.751342000000000176e+00 1.259646684437457920e-01
1.637900000000000134e+01 1.001900000000000013e+01 3.636599999999999966e+01 -6.409531000000000311e+00 -9.369751688922520194e-02
1.637900000000000134e+01 -1.513599999999999923e+01 1.014499999999999957e+01 -2.641016000000000030e+00 1.286210786781157023e-01
1.637900000000000134e+01 -1.373600000000000065e+01 1.014499999999999957e+01 -5.826079000000000008e+00 1.281311977032973393e-01
1.638100000000000023e+01 -7.615000000000000213e+00 -2.930099999999999927e+00 -2.582902999999999949e+00 -7.867573525962916203e-02
1.639699999999999847e+01 -6.328999999999999737e+00 3.353499999999999659e+01 4.044335000000000013e-01 2.373568641597396667e-01
1.639900000000000091e+01 -1.852199999999999847e+01 7.306000000000000050e+00 -2.220320999999999856e+01 1.300238794144119026e-01
1.640099999999999980e+01 -5.426999999999999602e+00 3.703100000000000058e+00 -4.015039000000000158e+01 -8.787527807018109816e-02
1.640500000000000114e+01 1.447600000000000087e+01 2.597200000000000131e+01 4.317354000000000269e+01 -9.559822206366769271e-02
1.640700000000000003e+01 -1.417399999999999949e+01 2.149500000000000099e+01 6.656774000000000413e+00 1.273894663551980444e-01
1.640899999999999892e+01 -1.121499999999999986e+01 9.446999999999999176e+00 -4.845055000000000334e+00 1.272527714508951968e-01
1.641000000000000014e+01 6.897999999999999687e+00 2.367599999999999838e+01 2.575788000000000011e+01 2.224258141731850491e-01
1.641199999999999903e+01 6.072999999999999510e-01 3.437800000000000011e+01 4.840262000000000064e+00 2.123349994990636203e-01
1.642299999999999827e+01 1.353200000000000003e+01 1.526800000000000068e+01 -1.204686000000000057e+01 -3.605502990066170727e-02
1.642599999999999838e+01 -8.634700000000000486e+00 -4.589999999999999858e+00 -1.020705999999999891e+00 -7.699709844550042814e-02
1.642599999999999838e+01 -7.695299999999999585e+00 -4.589999999999999858e+00 -1.687559000000000031e+00 -7.709356000225736638e-02
1.643100000000000094e+01 -1.837800000000000011e+01 1.608800000000000097e+01 6.903398000000000145e+00 1.289553057119768864e-01
1.643199999999999861e+01 -6.794699999999999740e+00 1.201400000000000023e+00 -5.175295000000000201e+00 -8.359311039099515117e-02
1.643199999999999861e+01 -6.794699999999999740e+00 2.066699999999999982e+00 -1.302150999999999925e+01 -8.461374417773084855e-02
1.643599999999999994e+01 8.719900000000000873e+00 3.549900000000000233e+01 4.184846999999999873e-01 -9.324137459881136347e-02
1.644099999999999895e+01 -7.255600000000000271e+00 9.818300000000000693e+00 -1.750546999999999898e+01 1.249888816240389416e-01
1.644200000000000017e+01 -1.844600000000000151e+01 1.474499999999999922e+01 9.853555999999999315e+00 1.290651351681015579e-01
1.644399999999999906e+01 -3.527899999999999814e+00 3.183099999999999952e+01 1.616466000000000136e+01 2.046949970422740073e-01
1.644399999999999906e+01 -2.055899999999999839e+00 3.183099999999999952e+01 7.216044000000000125e+00 2.055642214126366663e-01
1.645400000000000063e+01 -9.676600000000000534e+00 9.107499999999999929e+00 -2.679237000000000091e+00 1.265972666570216454e-01
1.645599999999999952e+01 -1.044300000000000006e+00 3.437299999999999756e+01 4.661347000000000129e+00 2.104802197959595722e-01
1.646799999999999997e+01 9.142599999999999838e+00 1.182399999999999984e+01 -8.243987999999999872e+00 -6.671033453306038363e-02
1.646900000000000119e+01 7.811399999999999455e-01 2.176200000000000045e+01 -2.258336999999999861e+01 -5.337545328987471083e-02
1.646900000000000119e+01 7.811399999999999455e-01 2.262800000000000011e+01 -1.911681000000000097e+01 -5.352762795325712031e-02
1.646999999999999886e+01 -9.663899999999999935e+00 3.657099999999999795e+00 -3.684210999999999903e+00 -4.813636110099651921e-02
1.647200000000000131e+01 4.013600000000000279e+00 9.636499999999999844e+00 -2.158729999999999905e+01 -8.066873262633121600e-02
1.647200000000000131e+01 5.238999999999999879e+00 1.048199999999999932e+01 -1.943502000000000152e+01 -8.625047763938988032e-02
1.647200000000000131e+01 5.563900000000000290e+00 1.121899999999999942e+01 -1.421396000000000015e+01 1.047472071942551902e-01
1.647299999999999898e+01 8.992000000000000881e+00 2.652700000000000102e+01 -2.060398999999999869e+00 2.093882610274258038e-01
1.647299999999999898e+01 -6.519800000000000040e+00 2.787700000000000067e+00 -2.058249999999999957e+01 -8.571736573982412233e-02
1.647599999999999909e+01 7.504499999999999504e-01 2.315099999999999980e+01 -1.451421000000000028e+01 -5.336510905446599506e-02
1.647599999999999909e+01 7.504499999999999504e-01 2.401599999999999824e+01 -7.581517999999999979e+00 2.318151066911739999e-01
1.648000000000000043e+01 1.104599999999999937e+01 1.230799999999999983e+01 -3.869000999999999912e+00 -6.188003203095689825e-02
1.648100000000000165e+01 4.817899999999999849e+00 2.350300000000000011e+01 1.723142999999999958e+01 2.259693067070173700e-01
1.648799999999999955e+01 -1.668199999999999861e+01 2.076999999999999957e+01 1.040601999999999983e+01 1.282641734606168316e-01
1.648900000000000077e+01 -2.211899999999999977e+01 2.100799999999999912e+01 -1.499530000000000030e+00 1.298105977452012616e-01
1.648900000000000077e+01 -2.188800000000000168e+01 2.019300000000000139e+01 1.097657999999999967e-01 1.297581569625692599e-01
1.648900000000000077e+01 -2.188800000000000168e+01 2.182300000000000040e+01 2.291068000000000104e+00 1.297603210592372935e-01
1.648900000000000077e+01 -2.056899999999999906e+01 2.255799999999999983e+01 -1.147836000000000034e+01 1.294477055392230791e-01
1.648900000000000077e+01 -1.925000000000000000e+01 2.182300000000000040e+01 -1.192836999999999925e+01 1.290791970294524194e-01
1.649200000000000088e+01 -7.899399999999999977e+00 -2.089100000000000179e+00 -8.601191000000000253e-01 -7.951626414982963797e-02
1.649500000000000099e+01 -9.344799999999999329e+00 4.618299999999999628e+00 -1.351312000000000069e+01 -4.837963287340177332e-02
1.649599999999999866e+01 -4.445000000000000284e+00 3.313800000000000079e+00 -1.323990000000000045e+01 -8.846090636987322120e-02
1.649800000000000111e+01 -3.353600000000000136e+00 3.270100000000000051e+01 1.864865999999999957e+01 2.061528771365749857e-01
1.650199999999999889e+01 -3.224499999999999922e+00 3.113100000000000023e+01 1.001762000000000086e+01 2.358183352452141723e-01
1.650199999999999889e+01 -2.359300000000000175e+00 3.113100000000000023e+01 5.090657000000000210e+00 2.041263914907137100e-01
1.650199999999999889e+01 -2.359300000000000175e+00 3.253099999999999881e+01 7.364514999999999922e+00 2.065297927787322629e-01
1.651999999999999957e+01 -1.836199999999999832e+01 1.169800000000000040e+01 -1.875349000000000044e-01 1.293110322347773566e-01
1.651999999999999957e+01 -1.836199999999999832e+01 1.274799999999999933e+01 6.516579000000000121e-01 1.291924963224630740e-01
1.652599999999999980e+01 1.433799999999999919e+01 2.892899999999999849e+01 -3.286029000000000089e+00 -9.621567827457332134e-02
1.652599999999999980e+01 1.433799999999999919e+01 2.986899999999999977e+01 -3.624744000000000188e+00 -9.623061324923333493e-02
1.653099999999999881e+01 -2.384799999999999809e+00 1.139000000000000012e+00 -8.500429999999999708e+00 -8.666650629214171786e-02
1.653500000000000014e+01 7.698999999999999844e+00 2.734600000000000009e+01 -1.822421000000000069e+00 2.084307511503382115e-01
1.654899999999999949e+01 -1.923799999999999955e+01 1.730699999999999861e+01 2.820946999999999871e+00 1.290999462290399469e-01
1.655000000000000071e+01 2.858099999999999863e+00 2.693199999999999861e+01 9.964282000000000750e+00 2.303353068488079580e-01
1.655000000000000071e+01 4.049000000000000377e+00 2.759600000000000009e+01 1.294101000000000035e+01 2.007675496940533877e-01
1.655199999999999960e+01 1.685399999999999920e+01 1.798199999999999932e+01 -2.813597999999999821e+00 9.800460229609932183e-02
1.655399999999999849e+01 1.214399999999999924e+00 4.155700000000000394e+00 -5.744373000000000395e+00 -9.891667973269693825e-02
1.655399999999999849e+01 -1.669900000000000162e+01 1.019200000000000017e+01 -1.667926999999999937e+00 1.290180188887398716e-01
1.655399999999999849e+01 -1.564899999999999913e+01 1.019200000000000017e+01 -3.977910000000000057e+00 1.286901187898102650e-01
1.655499999999999972e+01 -2.446299999999999919e+00 2.040599999999999969e+00 -1.043393000000000015e+01 -8.838781070244873528e-02
1.656500000000000128e+01 -7.719999999999999751e+00 3.164499999999999957e+01 3.246694000000000191e+00 2.376388748963487729e-01
1.657199999999999918e+01 -4.543000000000000149e+00 -4.859999999999999876e-01 -4.905845000000000233e+00 -8.272212185492418268e-02
1.657799999999999940e+01 -1.100999999999999979e+01 2.558099999999999952e+01 7.638708000000000276e+00 -3.272525141876585913e-02
1.657799999999999940e+01 -1.100999999999999979e+01 2.644600000000000151e+01 8.380641000000000673e+00 -3.290213707722746544e-02
1.657999999999999829e+01 1.177699999999999925e+01 2.501200000000000045e+01 7.871863000000000277e+00 2.153714249597829811e-01
1.657999999999999829e+01 1.177699999999999925e+01 2.587699999999999889e+01 7.373010999999999981e+00 7.705563835558701391e-02
1.657999999999999829e+01 9.483399999999999608e+00 2.275600000000000023e+01 -1.339531000000000027e+01 1.837099177903692704e-01
1.657999999999999829e+01 1.174900000000000055e+01 2.275600000000000023e+01 -4.795841000000000243e+00 1.954920149171245070e-01
