9.032999999999999474e+00 6.701099999999999568e+01 5.359100000000000108e+01 6.233433999999999919e+00 -8.664227826986546990e-03
9.037900000000000489e+00 4.967999999999999972e+01 5.132900000000000063e+01 -1.687176999999999927e+00 -6.708926160030012631e-02
9.041299999999999670e+00 6.713599999999999568e+01 4.642399999999999949e+01 -6.982624999999999638e+00 -1.142054879466204362e-02
9.048000000000000043e+00 4.842099999999999937e+01 5.216100000000000136e+01 -4.184276000000000106e-01 -6.577104442371985160e-02
9.052400000000000446e+00 5.444899999999999807e+01 3.903199999999999648e+01 3.439239999999999853e+00 1.454440775889223880e-01
9.058899999999999508e+00 5.843500000000000227e+01 3.882399999999999807e+01 7.114611000000000018e+00 1.418844842068624212e-01
9.061299999999999244e+00 5.938900000000000290e+01 4.148499999999999943e+01 7.029068999999999789e+00 1.877453704291439096e-01
9.063000000000000611e+00 5.701500000000000057e+01 6.498900000000000432e+01 1.467745000000000033e+01 -7.222291657461785142e-03
9.064999999999999503e+00 6.881300000000000239e+01 5.579699999999999704e+01 6.526618000000000563e+01 -7.441712151425758717e-03
9.064999999999999503e+00 6.881300000000000239e+01 5.675500000000000256e+01 -1.595758000000000010e+01 -7.168339376404994981e-03
9.066700000000000870e+00 6.179999999999999716e+01 6.261099999999999710e+01 2.469799000000000078e+00 -6.953939402907323084e-03
9.068099999999999383e+00 6.433400000000000318e+01 6.309100000000000108e+01 1.007052000000000014e+01 -6.370499812803705371e-03
9.073399999999999466e+00 6.321600000000000108e+01 6.353199999999999648e+01 1.302966000000000124e-01 -6.453396770122944714e-03
9.076200000000000045e+00 5.989000000000000057e+01 3.672899999999999920e+01 3.678652000000000033e+00 1.423085462835730619e-01
9.077500000000000568e+00 5.516700000000000159e+01 5.090400000000000347e+01 3.862279000000000018e+00 -7.217091861195949754e-02
9.083899999999999864e+00 5.709799999999999898e+01 3.678999999999999915e+01 4.523300000000000098e-01 1.444695184356144524e-01
9.091599999999999682e+00 5.708500000000000085e+01 3.784599999999999653e+01 5.440747000000000000e+00 1.436500995449163098e-01
9.092000000000000526e+00 6.783499999999999375e+01 4.900999999999999801e+01 -1.171538999999999930e+01 -1.008511722118631861e-02
9.111599999999999255e+00 6.099399999999999977e+01 6.266100000000000136e+01 3.463571999999999762e-01 -7.085220982619743098e-03
9.119600000000000151e+00 5.969200000000000017e+01 4.078499999999999659e+01 4.952497000000000149e+00 1.870047205009027769e-01
9.121199999999999974e+00 6.562000000000000455e+01 6.423799999999999955e+01 -3.452418999999999905e+00 -5.915768155487151000e-03
9.124200000000000088e+00 5.188400000000000034e+01 5.230599999999999739e+01 -4.066206000000000209e+00 -6.940998908799092537e-02
9.124200000000000088e+00 5.275000000000000000e+01 5.090599999999999881e+01 -3.814562000000000008e+00 -7.029743448745416623e-02
9.124200000000000088e+00 5.275000000000000000e+01 5.230599999999999739e+01 2.765625000000000000e+00 -7.018211567330785716e-02
9.128700000000000259e+00 6.798999999999999488e+01 4.765200000000000102e+01 -1.386435999999999957e+01 -1.052522949451069681e-02
9.130499999999999616e+00 5.390699999999999648e+01 6.363499999999999801e+01 -2.140440999999999860e+01 -8.292448195063579011e-03
9.138700000000000045e+00 5.103099999999999881e+01 4.532600000000000051e+01 4.789354000000000333e+00 9.666960980814151561e-02
9.138700000000000045e+00 5.103099999999999881e+01 4.607200000000000273e+01 4.735147000000000439e+00 -6.776442054661660497e-02
9.141600000000000392e+00 5.564300000000000068e+01 5.460699999999999932e+01 -8.582233000000000445e+00 -1.267510233589693412e-02
9.151999999999999247e+00 5.902600000000000335e+01 3.911899999999999977e+01 4.756738999999999606e+00 1.840853329059361498e-01
9.168900000000000716e+00 6.140999999999999659e+01 6.342600000000000193e+01 -9.088638999999999468e-01 -6.768933296525322940e-03
9.175700000000000855e+00 7.066500000000000625e+01 6.054299999999999926e+01 -2.561368999999999829e+01 -5.940406934286073491e-03
9.175700000000000855e+00 7.066500000000000625e+01 6.300300000000000011e+01 -4.927691999999999695e+01 -5.511103529536721599e-03
9.181100000000000705e+00 5.505700000000000216e+01 5.520400000000000063e+01 -1.241816000000000031e+01 -1.248470085587303179e-02
9.182499999999999218e+00 5.158100000000000307e+01 5.160600000000000165e+01 -5.989856999999999765e+00 -6.920114674335912930e-02
9.183299999999999130e+00 5.850000000000000000e+01 3.590200000000000102e+01 4.493603999999999932e-01 1.438201388807990311e-01
9.187900000000000844e+00 5.366199999999999903e+01 5.095100000000000051e+01 8.347523000000000692e+00 -7.114432815716799363e-02
9.192700000000000315e+00 6.876900000000000546e+01 5.969299999999999784e+01 -4.668639999999999901e+01 -6.383919324198732148e-03
9.196699999999999875e+00 5.990500000000000114e+01 6.273599999999999710e+01 -4.065985999999999656e+00 -7.258062558892506948e-03
9.198000000000000398e+00 5.607699999999999818e+01 4.117300000000000182e+01 4.298352000000000395e+00 1.845125724125503131e-01
9.198600000000000776e+00 6.194700000000000273e+01 3.868099999999999739e+01 4.633416999999999675e+00 1.858842099679537119e-01
9.201000000000000512e+00 6.574899999999999523e+01 6.519599999999999795e+01 -3.222738999999999798e+00 -5.696259733883080566e-03
9.210300000000000153e+00 5.932900000000000063e+01 3.981900000000000261e+01 4.292347000000000357e+00 1.853735673910438531e-01
9.215999999999999304e+00 5.180799999999999983e+01 4.714200000000000301e+01 1.994661999999999935e+00 -6.909242336271437246e-02
9.215999999999999304e+00 5.180799999999999983e+01 4.800699999999999790e+01 1.810831000000000079e+00 -6.926113714119183640e-02
9.218799999999999883e+00 5.739900000000000091e+01 3.626800000000000068e+01 -7.879419000000000006e-02 1.444847994626180243e-01
9.218999999999999417e+00 6.364399999999999835e+01 6.304599999999999937e+01 3.662892999999999954e+00 -6.441551604060191845e-03
9.220700000000000784e+00 6.412800000000000011e+01 4.376299999999999812e+01 3.920599999999999863e+00 1.929215314444029106e-01
9.227000000000000313e+00 5.074799999999999756e+01 4.201899999999999835e+01 6.183366000000000362e+00 -1.075414441156717638e-01
9.235799999999999343e+00 6.122899999999999920e+01 3.699000000000000199e+01 -1.940708000000000100e+00 1.832228915781060896e-01
9.236800000000000566e+00 5.476200000000000045e+01 5.443399999999999750e+01 -1.569325000000000081e+00 -1.316182327409044263e-02
9.239699999999999136e+00 6.177900000000000347e+01 6.427599999999999625e+01 -1.113415000000000044e+00 -6.461702801290951717e-03
9.239699999999999136e+00 6.282900000000000063e+01 6.427599999999999625e+01 -5.759043000000000356e-01 -6.284997440454856248e-03
9.239900000000000446e+00 5.261399999999999721e+01 6.283100000000000307e+01 -8.797209000000000501e+00 -8.864953938459291249e-03
9.241899999999999338e+00 6.800199999999999534e+01 4.855599999999999739e+01 -1.029334000000000060e+01 -1.014576435368544013e-02
9.253299999999999415e+00 4.854999999999999716e+01 6.087199999999999989e+01 -3.637049000000000198e+00 -1.071261885027191899e-02
9.255599999999999383e+00 6.858899999999999864e+01 6.575300000000000011e+01 -1.392082000000000042e+00 -5.279759687380212833e-03
9.256899999999999906e+00 6.164399999999999835e+01 3.798100000000000165e+01 4.967780999999999558e+00 1.847979334640758864e-01
9.259000000000000341e+00 5.647099999999999653e+01 6.422199999999999420e+01 -2.680807000000000162e+00 -7.494010708489611330e-03
9.287300000000000111e+00 5.350800000000000267e+01 3.869599999999999795e+01 4.096061999999999870e+00 1.467368153833694955e-01
9.287399999999999878e+00 5.324099999999999966e+01 5.156799999999999784e+01 3.585954000000000086e+00 -7.081811540890153855e-02
9.289500000000000313e+00 5.597699999999999676e+01 5.202700000000000102e+01 -5.418102000000000196e+00 -1.445438306245722983e-02
9.294499999999999318e+00 5.620000000000000284e+01 6.498900000000000432e+01 -7.790673999999999655e-01 -7.299203864009631837e-03
9.294499999999999318e+00 5.782999999999999829e+01 6.498900000000000432e+01 2.846487000000000123e+01 -6.981545041702706851e-03
9.295999999999999375e+00 5.361299999999999955e+01 5.350300000000000011e+01 1.005054999999999943e+01 -7.082184153963679007e-02
9.296300000000000452e+00 5.628999999999999915e+01 3.701800000000000068e+01 -9.136600999999999750e-01 1.449195397409143993e-01
9.298099999999999810e+00 5.205199999999999960e+01 3.950200000000000244e+01 4.108247999999999678e+00 1.479360140372393828e-01
9.304999999999999716e+00 5.141799999999999926e+01 4.371600000000000108e+01 2.068269000000000091e+01 9.425397021060906433e-02
9.304999999999999716e+00 5.141799999999999926e+01 4.458200000000000074e+01 9.027269999999999683e+00 9.531107334196736725e-02
9.313399999999999679e+00 4.867799999999999727e+01 5.744200000000000017e+01 -7.283684999999999743e-01 -6.624680669044101522e-02
9.319599999999999440e+00 4.911999999999999744e+01 6.110600000000000165e+01 -3.484166999999999792e+00 -1.044970494701727599e-02
9.319599999999999440e+00 5.052000000000000313e+01 6.110600000000000165e+01 -1.103397999999999968e+01 -1.014026369082827485e-02
9.323900000000000077e+00 5.767199999999999704e+01 6.420000000000000284e+01 3.634297000000000222e-01 -7.229513337217935778e-03
9.330600000000000449e+00 5.808899999999999864e+01 6.347800000000000153e+01 -4.559155999999999764e+00 -7.362887392254586702e-03
9.344900000000000873e+00 5.333400000000000318e+01 5.246900000000000119e+01 9.231189999999999785e+00 -7.082530683179438791e-02
9.352299999999999613e+00 5.149900000000000233e+01 6.206900000000000261e+01 -5.933034000000000141e+00 -9.424406071975454866e-03
9.358999999999999986e+00 5.653600000000000136e+01 6.576399999999999579e+01 6.581042999999999754e-01 -6.990133748339238604e-03
9.358999999999999986e+00 5.749399999999999977e+01 6.576399999999999579e+01 8.122177000000000646e+00 -6.813177133024030281e-03
9.359700000000000131e+00 5.599600000000000222e+01 5.379299999999999926e+01 -2.628137000000000167e+00 -1.307309539075106677e-02
9.361000000000000654e+00 5.509100000000000108e+01 6.307800000000000296e+01 -1.875785000000000124e+01 -8.157008866181991030e-03
9.361000000000000654e+00 5.595700000000000074e+01 6.307800000000000296e+01 -7.587718999999999880e+00 -7.958965246053825021e-03
9.361000000000000654e+00 6.833400000000000318e+01 5.502199999999999847e+01 6.909392000000000422e+00 -7.684538336943430928e-03
9.361499999999999488e+00 6.801000000000000512e+01 6.610399999999999920e+01 -4.840883000000000269e-01 -5.251775744419215700e-03
9.368199999999999861e+00 6.264000000000000057e+01 3.924399999999999977e+01 1.870568999999999926e+00 1.871200012292222881e-01
9.372899999999999565e+00 4.869599999999999795e+01 5.586599999999999966e+01 1.449775000000000036e+00 -6.635004833688863679e-02
9.376699999999999591e+00 6.518399999999999750e+01 4.583500000000000085e+01 -3.146549999999999958e+00 -1.267058843029026868e-02
9.380499999999999616e+00 6.769599999999999795e+01 5.085499999999999687e+01 6.799437000000000175e+00 -9.341906789293289229e-03
9.380499999999999616e+00 6.769599999999999795e+01 5.181300000000000239e+01 4.874238000000000071e+00 -8.978607489966384733e-03
9.380900000000000460e+00 5.446699999999999875e+01 5.084499999999999886e+01 5.061683999999999628e+00 -7.197309341131756522e-02
9.387499999999999289e+00 5.761399999999999721e+01 3.878099999999999881e+01 4.398871999999999893e+00 1.422103829537662012e-01
9.388600000000000279e+00 5.474099999999999966e+01 6.362599999999999767e+01 -1.907441999999999993e+01 -8.022240335175508802e-03
9.391600000000000392e+00 5.231700000000000017e+01 5.160600000000000165e+01 -4.677267999999999759e+00 -7.007546336604832116e-02
9.397000000000000242e+00 6.618099999999999739e+01 6.608199999999999363e+01 -6.147024000000000044e+00 -5.432966307785362312e-03
9.399300000000000210e+00 4.772200000000000131e+01 5.588300000000000267e+01 5.718645999999999452e-01 -6.544937031530061178e-02
9.406800000000000495e+00 5.304299999999999926e+01 6.361500000000000199e+01 -5.116066000000000003e+00 -8.394027542340042752e-03
9.417999999999999261e+00 5.629999999999999716e+01 5.309300000000000352e+01 -2.253728000000000176e+00 -1.344508599009373515e-02
9.419200000000000017e+00 5.625999999999999801e+01 6.377799999999999869e+01 -4.625531999999999755e+00 -7.625240968582687288e-03
9.428499999999999659e+00 5.788199999999999790e+01 4.153099999999999881e+01 -2.262359000000000009e+00 1.868338650596449158e-01
9.428499999999999659e+00 5.874699999999999989e+01 4.153099999999999881e+01 1.315792999999999990e+00 1.875349971602253696e-01
9.430999999999999162e+00 6.761299999999999955e+01 5.423400000000000176e+01 -2.288832000000000200e+00 -8.112222224123803380e-03
9.431200000000000472e+00 4.899900000000000233e+01 5.656600000000000250e+01 -3.014891000000000099e-01 -6.661735933545544219e-02
9.446699999999999875e+00 5.693800000000000239e+01 4.132999999999999829e+01 1.466420000000000057e+00 1.856826794390729063e-01
9.449099999999999611e+00 6.637600000000000477e+01 4.603600000000000136e+01 -1.989851000000000036e+00 -1.188512897851689426e-02
9.458199999999999719e+00 6.380599999999999739e+01 4.302000000000000313e+01 1.491025999999999962e+00 1.922135186429629050e-01
9.460699999999999221e+00 5.666299999999999670e+01 3.802000000000000313e+01 -1.450325000000000086e+00 1.435678022679379162e-01
9.465999999999999304e+00 7.113500000000000512e+01 6.130299999999999727e+01 -2.630097999999999914e+01 -5.646300241602513099e-03
9.465999999999999304e+00 7.113500000000000512e+01 6.224300000000000210e+01 -6.680491999999999564e+01 -5.488350000619113614e-03
9.467999999999999972e+00 6.966200000000000614e+01 6.467300000000000182e+01 -1.516741999999999990e+01 -5.260353043482153372e-03
9.468700000000000117e+00 5.114900000000000091e+01 4.291499999999999915e+01 1.005109000000000030e+01 -1.092186169188344574e-01
9.472300000000000608e+00 5.574799999999999756e+01 3.798199999999999932e+01 -8.441626000000000685e-02 1.445261621387156914e-01
9.476000000000000867e+00 4.787500000000000000e+01 6.059199999999999875e+01 -1.308772000000000046e+00 -6.548397817950313282e-02
9.477899999999999991e+00 5.057500000000000284e+01 5.025500000000000256e+01 -7.136938000000000448e-01 -6.831233564933425484e-02
9.478600000000000136e+00 4.765899999999999892e+01 5.284799999999999898e+01 9.636909000000000169e-01 -6.517886747642195888e-02
9.478999999999999204e+00 6.189800000000000324e+01 3.680400000000000205e+01 -4.853333000000000230e-01 1.836056359475004007e-01
9.486800000000000566e+00 5.904999999999999716e+01 4.083100000000000307e+01 1.678730999999999973e+00 1.867492249210642441e-01
9.487700000000000244e+00 6.709900000000000375e+01 4.611500000000000199e+01 -1.716703000000000090e+00 -1.145799928616278267e-02
9.496000000000000441e+00 6.345100000000000051e+01 4.067499999999999716e+01 -1.003758999999999979e+01 1.893850095104319120e-01
9.504699999999999704e+00 6.731399999999999295e+01 5.260499999999999687e+01 9.922726000000000823e+00 -8.766710508320649936e-03
9.504699999999999704e+00 6.731399999999999295e+01 5.347099999999999653e+01 9.841780999999999224e+00 -8.445119729163312258e-03
9.505100000000000549e+00 6.990500000000000114e+01 6.047999999999999687e+01 -2.640931000000000139e+01 -5.935664279296174947e-03
9.517699999999999605e+00 4.895400000000000063e+01 5.172999999999999687e+01 -3.679162999999999961e+00 -6.656401363549641070e-02
9.519000000000000128e+00 5.543099999999999739e+01 3.718500000000000227e+01 -1.444625999999999966e+00 1.455464997596570831e-01
9.519000000000000128e+00 5.549399999999999977e+01 3.871999999999999886e+01 -9.886732000000000298e-01 1.441200159002493653e-01
9.519000000000000128e+00 5.696600000000000108e+01 3.871999999999999886e+01 -2.242605000000000182e+00 1.426717100260945226e-01
9.519999999999999574e+00 5.548299999999999699e+01 3.950900000000000034e+01 3.664533000000000040e+00 1.434599373617377049e-01
9.519999999999999574e+00 5.548299999999999699e+01 4.037400000000000233e+01 9.607096000000000302e+00 1.427549847504530345e-01
9.522199999999999775e+00 5.669899999999999807e+01 3.632600000000000051e+01 -1.044847999999999999e+00 1.448833697968595069e-01
9.522399999999999309e+00 5.013700000000000045e+01 5.091899999999999693e+01 -1.074515000000000109e+00 -6.788285308676600405e-02
9.522800000000000153e+00 6.385399999999999920e+01 6.362700000000000244e+01 3.302548999999999957e+00 -6.157346065308988425e-03
9.522800000000000153e+00 6.471999999999999886e+01 6.362700000000000244e+01 5.349599999999999689e+00 -6.021745459841520119e-03
9.541000000000000369e+00 4.639000000000000057e+01 5.386500000000000199e+01 1.729937000000000058e+00 -6.394361039300335003e-02
9.541000000000000369e+00 4.639000000000000057e+01 5.491499999999999915e+01 2.378232000000000124e+00 -6.410307382719841740e-02
9.542299999999999116e+00 6.062899999999999778e+01 3.604399999999999693e+01 -4.946321000000000190e+00 1.419152236794143651e-01
9.542299999999999116e+00 6.156900000000000261e+01 3.604399999999999693e+01 -6.276894999999999669e+00 1.414023483949956028e-01
9.545299999999999230e+00 5.343699999999999761e+01 6.432699999999999818e+01 -1.706068000000000140e+01 -7.995007457508373355e-03
9.545299999999999230e+00 5.437700000000000244e+01 6.432699999999999818e+01 -2.651651000000000025e+01 -7.795961525222820654e-03
9.550599999999999312e+00 6.499399999999999977e+01 4.509000000000000341e+01 -2.754845000000000210e-01 -1.308436352077086383e-02
9.551700000000000301e+00 5.764999999999999858e+01 3.597299999999999898e+01 2.717439999999999856e+00 1.442084785632148369e-01
9.553000000000000824e+00 5.069599999999999795e+01 4.935199999999999676e+01 -2.421949999999999936e-01 -6.842173998303018034e-02
9.566300000000000026e+00 5.120199999999999818e+01 4.109300000000000352e+01 1.933201999999999998e+01 -1.076039333814695215e-01
9.568099999999999383e+00 6.705299999999999727e+01 6.670999999999999375e+01 -1.183472000000000079e+01 -5.193315157528567011e-03
9.568500000000000227e+00 5.957800000000000296e+01 3.594299999999999784e+01 5.228767000000000387e+00 1.426425806680038100e-01
9.571300000000000807e+00 6.058599999999999852e+01 6.322399999999999665e+01 -3.115613000000000188e+00 -6.829482520932979479e-03
9.582300000000000040e+00 5.575999999999999801e+01 3.642499999999999716e+01 -3.812009000000000203e+00 1.457871320881068133e-01
9.582900000000000418e+00 6.823199999999999932e+01 4.944299999999999784e+01 -1.892295999999999978e+01 -9.610990600022349326e-03
9.583399999999999253e+00 6.899299999999999500e+01 6.027199999999999847e+01 -1.510119000000000078e+01 -6.077649258769851973e-03
9.589600000000000790e+00 6.856199999999999761e+01 5.777400000000000091e+01 2.652178999999999842e+00 -6.747159757816541259e-03
9.597300000000000608e+00 4.830100000000000193e+01 6.114000000000000057e+01 4.872083000000000143e-03 -1.052459467500232136e-02
9.608299999999999841e+00 7.017400000000000659e+01 6.339900000000000091e+01 -2.532001999999999953e+01 -5.352914019880583574e-03
9.618000000000000327e+00 6.850000000000000000e+01 4.868399999999999750e+01 -1.323189999999999955e+01 -9.779601953985070373e-03
9.621900000000000119e+00 6.090200000000000102e+01 6.398400000000000176e+01 -9.860544999999999727e-02 -6.545307694640158103e-03
9.622999999999999332e+00 4.982000000000000028e+01 6.104800000000000182e+01 -3.267336999999999936e+00 -1.024200741069140018e-02
9.625299999999999301e+00 6.806900000000000261e+01 5.856000000000000227e+01 1.190248999999999890e+00 -6.620026682649736427e-03
9.625299999999999301e+00 6.806900000000000261e+01 5.942600000000000193e+01 -1.561034000000000077e+01 -6.402115623496225025e-03
9.628299999999999415e+00 5.552400000000000091e+01 6.377799999999999869e+01 -1.582756000000000007e+01 -7.707871774020338962e-03
9.633599999999999497e+00 5.943200000000000216e+01 6.325200000000000244e+01 -1.198775999999999975e+01 -7.032350795838209281e-03
9.645099999999999341e+00 6.518600000000000705e+01 6.477700000000000102e+01 -1.885769999999999946e+00 -5.684194212390853221e-03
9.645699999999999719e+00 6.817499999999999716e+01 6.656499999999999773e+01 8.147776999999999603e+00 -5.081446622112820340e-03
9.655699999999999505e+00 5.265800000000000125e+01 3.876700000000000301e+01 4.427864999999999718e+00 1.475743923398951107e-01
9.659299999999999997e+00 6.246800000000000352e+01 3.818299999999999983e+01 4.444984999999999964e+00 1.857939931783621212e-01
9.665300000000000225e+00 5.528699999999999903e+01 6.454399999999999693e+01 -1.088324000000000069e+01 -7.487958746697917327e-03
9.666900000000000048e+00 5.034899999999999665e+01 4.569899999999999807e+01 1.167055000000000042e+01 -6.710174528241644176e-02
9.672499999999999432e+00 5.212299999999999756e+01 6.243399999999999750e+01 -6.076118000000000130e+00 -9.005696136006312649e-03
9.674599999999999866e+00 5.862899999999999778e+01 6.381499999999999773e+01 -1.096017000000000019e+00 -7.015101090765682446e-03
9.706899999999999196e+00 5.141100000000000136e+01 4.757500000000000284e+01 1.076297999999999977e+00 -6.914633758235153027e-02
9.708800000000000097e+00 5.829399999999999693e+01 4.079800000000000182e+01 -1.511160999999999976e+00 1.861641961093378483e-01
9.709500000000000242e+00 5.444599999999999795e+01 3.831799999999999784e+01 1.039840000000000098e+00 1.455369294326651908e-01
9.710000000000000853e+00 6.891700000000000159e+01 6.588400000000000034e+01 -6.488254000000000410e+00 -5.082049008777585371e-03
9.718600000000000350e+00 6.332500000000000284e+01 3.974499999999999744e+01 2.345664000000000193e+00 1.883114873819054791e-01
9.721299999999999386e+00 6.230400000000000205e+01 6.487199999999999989e+01 -1.494315999999999978e+00 -6.057895824578204101e-03
9.721700000000000230e+00 5.827300000000000324e+01 3.936399999999999721e+01 6.360729000000000077e+00 1.838788980719125443e-01
9.723000000000000753e+00 4.778999999999999915e+01 5.964300000000000068e+01 -7.854335999999999540e-01 -6.554300777788137078e-02
9.728099999999999525e+00 5.622999999999999687e+01 3.871999999999999886e+01 -3.154112000000000027e+00 1.431503260721386783e-01
9.728600000000000136e+00 5.431300000000000239e+01 5.377000000000000313e+01 6.172020999999999979e+00 -1.381155357517187786e-02
9.728600000000000136e+00 5.517900000000000205e+01 5.377000000000000313e+01 -1.488251999999999908e+00 -1.341148235178817386e-02
9.732900000000000773e+00 5.832600000000000051e+01 6.451500000000000057e+01 1.266567000000000043e+01 -6.852154987098467258e-03
9.732900000000000773e+00 5.832600000000000051e+01 6.546299999999999386e+01 6.825113000000000341e+01 -6.599762367174660804e-03
9.737700000000000244e+00 5.071800000000000352e+01 4.484899999999999665e+01 7.842057999999999751e+00 9.679723152516532536e-02
9.737700000000000244e+00 5.071800000000000352e+01 4.654899999999999949e+01 6.617046000000000205e+00 -6.798674346916372402e-02
9.739399999999999835e+00 4.686999999999999744e+01 5.295499999999999829e+01 8.106638000000000455e-01 -6.438077229038741134e-02
9.746000000000000441e+00 6.497799999999999443e+01 4.408800000000000097e+01 1.149969999999999937e+00 -1.349241876554646211e-02
9.755000000000000782e+00 6.834699999999999420e+01 4.719200000000000017e+01 -9.887760999999999356e+00 -1.036632253201714288e-02
9.755000000000000782e+00 6.338400000000000034e+01 4.143599999999999994e+01 -1.313893000000000022e+01 1.904263585284127758e-01
9.755000000000000782e+00 6.338400000000000034e+01 4.230199999999999960e+01 -5.046585999999999572e+00 1.914627681550741811e-01
9.763799999999999812e+00 4.820199999999999818e+01 5.658400000000000318e+01 -1.960123000000000004e-01 -6.602769400865630967e-02
9.771000000000000796e+00 5.104899999999999949e+01 4.853799999999999670e+01 -5.768020000000000092e-02 -6.892271212139099157e-02
9.777499999999999858e+00 5.403399999999999892e+01 5.133599999999999852e+01 9.243036999999999281e+00 -7.195207505845165052e-02
9.777499999999999858e+00 5.489900000000000091e+01 5.133599999999999852e+01 5.589565999999999590e+00 -7.260217471394272981e-02
9.779999999999999361e+00 5.857600000000000051e+01 4.006400000000000006e+01 1.084848000000000035e+01 1.852853593562928114e-01
9.780400000000000205e+00 5.558100000000000307e+01 5.246000000000000085e+01 -2.012173000000000211e+00 -1.427170869106459197e-02
9.781700000000000728e+00 5.161399999999999721e+01 4.064699999999999847e+01 2.574486999999999881e+01 1.470084312485059885e-01
9.781700000000000728e+00 5.182300000000000040e+01 3.991100000000000136e+01 1.474220000000000041e+01 1.474939391108722742e-01
9.782199999999999562e+00 5.402199999999999847e+01 5.290299999999999869e+01 8.975187999999999278e+00 -7.165052384013635700e-02
9.786899999999999267e+00 5.548199999999999932e+01 5.307000000000000028e+01 -1.449994999999999923e+00 -1.381958662329748136e-02
9.795999999999999375e+00 5.102100000000000080e+01 4.414900000000000091e+01 1.035599000000000025e+01 9.547617278206803337e-02
9.798099999999999810e+00 5.701500000000000057e+01 6.630800000000000693e+01 3.994654999999999845e+00 -6.600810161403762241e-03
9.805199999999999250e+00 4.818299999999999983e+01 5.809100000000000108e+01 -7.062656000000000489e-01 -6.596642607174911521e-02
9.817600000000000549e+00 5.098100000000000165e+01 6.162700000000000244e+01 -8.375954999999999373e+00 -9.610173897491644870e-03
9.834899999999999309e+00 5.492099999999999937e+01 3.778099999999999881e+01 -2.671193000000000151e+00 1.453409791979393684e-01
9.835800000000000765e+00 5.372999999999999687e+01 5.203600000000000136e+01 1.503668000000000049e+01 -7.164470987082065256e-02
9.837999999999999190e+00 5.576100000000000279e+01 6.546800000000000352e+01 1.255050000000000054e-01 -7.045417874126240140e-03
9.839999999999999858e+00 6.887800000000000011e+01 5.546099999999999852e+01 2.471719999999999970e+02 -7.238128484704797923e-03
9.839999999999999858e+00 6.887800000000000011e+01 5.709100000000000108e+01 -2.610035999999999845e+01 -6.772967494680343092e-03
9.839999999999999858e+00 6.910899999999999466e+01 5.627600000000000335e+01 3.296144999999999925e+01 -6.951390859300907339e-03
9.840199999999999392e+00 4.787199999999999989e+01 5.865800000000000125e+01 -8.014727999999999852e-01 -6.569131389676256816e-02
9.843299999999999272e+00 5.736999999999999744e+01 4.083899999999999864e+01 7.461605999999999517e-01 1.854390998799949897e-01
9.855100000000000193e+00 5.695000000000000284e+01 3.603099999999999881e+01 -1.044847999999999999e+00 1.445910861945918502e-01
9.865700000000000358e+00 4.691499999999999915e+01 5.576500000000000057e+01 6.332297999999999760e+00 -6.480985766604090148e-02
9.874000000000000554e+00 5.462800000000000011e+01 6.470999999999999375e+01 -6.319804000000000421e+00 -7.493757815115314851e-03
9.882300000000000750e+00 4.965500000000000114e+01 5.157399999999999807e+01 -1.308510999999999980e+00 -6.759223697384272866e-02
9.887399999999999523e+00 4.835000000000000142e+01 5.733800000000000097e+01 -1.909753000000000034e+00 -6.617750779930829663e-02
9.895799999999999486e+00 6.606600000000000250e+01 6.675600000000000023e+01 -3.734748000000000179e+00 -5.174454291099407806e-03
9.901300000000000878e+00 5.044899999999999807e+01 4.264800000000000324e+01 9.557626000000000843e+00 -1.083087801929544514e-01
9.912900000000000489e+00 6.238900000000000290e+01 3.727300000000000324e+01 -2.786871999999999794e+00 1.846746052832080043e-01
9.933999999999999275e+00 6.045799999999999841e+01 6.478300000000000125e+01 7.999716999999999523e-01 -6.305800458296874703e-03
9.935700000000000642e+00 7.037500000000000000e+01 6.101299999999999812e+01 -6.262724999999999653e+01 -5.619187292640768702e-03
9.939899999999999736e+00 5.255599999999999739e+01 6.313400000000000034e+01 -7.394588999999999857e+00 -8.508424877276475964e-03
9.942000000000000171e+00 6.454600000000000648e+01 4.320199999999999818e+01 5.784915000000000473e-01 1.929887034070625340e-01
9.945000000000000284e+00 5.907600000000000051e+01 6.396800000000000352e+01 -3.322635999999999923e-01 -6.773672591469007132e-03
9.945000000000000284e+00 5.994100000000000250e+01 6.396800000000000352e+01 2.788850999999999830e-02 -6.603614366866792859e-03
9.945299999999999585e+00 6.558199999999999363e+01 6.558299999999999841e+01 -4.316625000000000156e+00 -5.386179501578879612e-03
9.948299999999999699e+00 6.346000000000000085e+01 3.931700000000000017e+01 6.103369999999999962e+00 1.879753802355324521e-01
9.949600000000000222e+00 4.836399999999999721e+01 5.206700000000000017e+01 -1.627190000000000025e-01 -6.611559674900639727e-02
9.952600000000000335e+00 5.618299999999999983e+01 3.924199999999999733e+01 4.984401999999999999e-01 1.425239837733097703e-01
9.952600000000000335e+00 5.618299999999999983e+01 4.064200000000000301e+01 3.213464000000000098e+00 1.839313568091540396e-01
9.952600000000000335e+00 5.704899999999999949e+01 3.924199999999999733e+01 1.437321999999999989e+00 1.417339165105392651e-01
9.952899999999999636e+00 5.493999999999999773e+01 3.671600000000000108e+01 -1.374462999999999990e+00 1.462324109273616946e-01
9.959600000000000009e+00 5.075300000000000011e+01 4.334799999999999898e+01 5.360120000000000218e+00 -1.095282399270861573e-01
9.966900000000000759e+00 4.747800000000000153e+01 6.102499999999999858e+01 -2.041310000000000069e-01 -6.529595401542669098e-02
9.971199999999999619e+00 5.909899999999999665e+01 6.544299999999999784e+01 2.092121999999999815e+00 -6.373814747553514966e-03
9.972899999999999210e+00 6.109899999999999665e+01 3.551100000000000279e+01 -5.666759000000000102e-01 1.416370796502547380e-01
9.975899999999999324e+00 5.390699999999999648e+01 6.485999999999999943e+01 -7.273494999999999600e+00 -7.556585125855462548e-03
9.986499999999999488e+00 6.797299999999999898e+01 4.632699999999999818e+01 -1.877245000000000053e+00 -1.080653022767787824e-02
9.986900000000000333e+00 6.384799999999999898e+01 4.024199999999999733e+01 -2.291911000000000087e-01 1.893379887466984934e-01
9.989100000000000534e+00 5.784000000000000341e+01 4.006400000000000006e+01 1.352856000000000058e+00 1.846574135037012954e-01
9.989499999999999602e+00 5.484499999999999886e+01 5.246000000000000085e+01 1.104614999999999903e+00 -1.463918168802153842e-02
9.996000000000000441e+00 5.474600000000000222e+01 5.307000000000000028e+01 1.043054000000000059e+01 -1.416101842021925440e-02
9.998900000000000787e+00 5.071099999999999852e+01 4.148899999999999721e+01 1.531372999999999962e+01 -1.076239084984787764e-01
9.999000000000000554e+00 7.070399999999999352e+01 6.177300000000000324e+01 -2.240551999999999921e+01 -5.425797362429654429e-03
1.000300000000000011e+01 5.877199999999999847e+01 6.466800000000000637e+01 2.341095000000000148e+00 -6.618298410165783172e-03
1.001099999999999923e+01 5.588000000000000256e+01 3.994200000000000017e+01 8.501063999999999510e+00 1.421753956517575468e-01
1.001200000000000045e+01 6.232900000000000063e+01 3.633400000000000318e+01 -3.732822000000000084e+00 1.834965860525699655e-01
1.001200000000000045e+01 6.147599999999999909e+01 6.491299999999999670e+01 1.390513000000000110e+00 -6.071068078689761081e-03
1.001299999999999990e+01 5.622999999999999687e+01 3.589200000000000301e+01 -1.584257999999999944e+00 1.453659365242108703e-01
1.001500000000000057e+01 5.267699999999999960e+01 6.403700000000000614e+01 -5.589001999999999803e+00 -8.096079279838946235e-03
1.001699999999999946e+01 4.951299999999999812e+01 4.253300000000000125e+01 4.917440000000000033e+00 -1.066589528054685126e-01
1.001900000000000013e+01 6.755800000000000693e+01 6.732999999999999829e+01 -2.502877000000000152e+01 -4.917314062068816119e-03
1.001900000000000013e+01 6.944899999999999807e+01 6.085000000000000142e+01 -8.460746000000000322e+00 -5.733468658191992473e-03
1.001999999999999957e+01 4.938700000000000045e+01 6.153900000000000148e+01 5.896972999999999798e-01 -9.956458888052058601e-03
1.003400000000000070e+01 7.043600000000000705e+01 6.253199999999999648e+01 -3.873393999999999693e+01 -5.315558763866340582e-03
1.003400000000000070e+01 6.645999999999999375e+01 6.746800000000000352e+01 -2.266291000000000011e+01 -4.994413125118668528e-03
1.003800000000000026e+01 4.784700000000000131e+01 6.187500000000000000e+01 9.768195000000000405e+00 -1.009739008511946132e-02
1.003800000000000026e+01 4.889699999999999847e+01 6.187500000000000000e+01 8.445863000000000120e-01 -9.882450585484812630e-03
1.004299999999999926e+01 4.725399999999999778e+01 4.633400000000000318e+01 -7.772634000000000043e+00 -1.061058573537754651e-01
1.004499999999999993e+01 5.446699999999999875e+01 5.203600000000000136e+01 9.755231999999999459e+00 -7.241116679616219076e-02
1.005000000000000071e+01 4.595400000000000063e+01 5.386999999999999744e+01 -4.602190999999999921e-01 -6.358932883516445200e-02
1.005100000000000016e+01 5.359799999999999898e+01 3.835699999999999932e+01 1.922751000000000099e+00 1.463325984603616181e-01
1.005199999999999960e+01 6.790099999999999625e+01 5.822999999999999687e+01 1.089423999999999992e+01 -6.571016363090928687e-03
1.006900000000000084e+01 5.778199999999999648e+01 6.634300000000000352e+01 6.328471000000000402e+00 -6.354772760130841802e-03
1.007699999999999996e+01 5.850000000000000000e+01 3.564800000000000324e+01 3.409933000000000103e+00 1.432531653642815095e-01
1.008099999999999952e+01 6.796299999999999386e+01 5.042199999999999704e+01 -9.497824000000000266e-01 -9.169192623621345156e-03
1.008999999999999986e+01 6.315400000000000347e+01 6.480100000000000193e+01 1.047114000000000011e+01 -5.798848512511436612e-03
1.008999999999999986e+01 6.455400000000000205e+01 6.480100000000000193e+01 4.880892000000000008e-01 -5.598043221389717786e-03
1.009900000000000020e+01 6.580700000000000216e+01 4.531300000000000239e+01 -4.717838999999999672e+00 -1.238019690877422904e-02
1.010899999999999999e+01 6.782200000000000273e+01 5.207200000000000273e+01 -1.788008999999999915e+01 -8.575377501191114998e-03
1.011800000000000033e+01 6.973300000000000409e+01 6.481600000000000250e+01 -1.854016000000000020e+01 -5.014408914958342310e-03
1.012100000000000044e+01 5.028099999999999881e+01 6.156900000000000261e+01 -3.526943000000000161e+00 -9.704524931649305408e-03
1.013100000000000023e+01 6.767100000000000648e+01 5.306499999999999773e+01 5.778857999999999606e+00 -8.245645328811434041e-03
1.013100000000000023e+01 6.767100000000000648e+01 5.393099999999999739e+01 1.293235999999999919e+01 -7.933150529219942099e-03
1.013400000000000034e+01 5.624000000000000199e+01 6.624299999999999500e+01 -1.115307000000000048e+00 -6.632198372949390727e-03
1.014199999999999946e+01 6.311699999999999733e+01 3.859000000000000341e+01 1.443701000000000079e+01 1.869395343028544265e-01
1.014300000000000068e+01 6.961700000000000443e+01 6.561700000000000443e+01 -1.981984999999999886e+01 -4.911957997936712214e-03
1.015099999999999980e+01 6.893099999999999739e+01 4.821399999999999864e+01 -6.584120000000000417e+00 -9.610905724368760603e-03
1.015099999999999980e+01 6.893099999999999739e+01 4.915400000000000347e+01 -1.236060999999999943e+01 -9.261242681309888106e-03
1.015600000000000058e+01 6.784000000000000341e+01 5.133400000000000318e+01 -1.635805999999999827e+01 -8.833048556285066216e-03
1.015700000000000003e+01 6.550400000000000489e+01 4.461299999999999955e+01 -1.905613999999999919e+00 -1.286008465195802655e-02
1.016900000000000048e+01 5.001700000000000301e+01 4.334799999999999898e+01 8.785940999999999335e+00 -1.085275856376990006e-01
1.017099999999999937e+01 5.015699999999999648e+01 4.438000000000000256e+01 9.180111000000000132e+00 9.729462457930021513e-02
1.017800000000000082e+01 6.925100000000000477e+01 6.637999999999999545e+01 -1.067570000000000086e+01 -4.837035159237040166e-03
1.018099999999999916e+01 5.206199999999999761e+01 3.924799999999999756e+01 1.053792999999999935e+01 1.475556308837716046e-01
1.018699999999999939e+01 5.025300000000000011e+01 4.721200000000000330e+01 3.261737999999999804e+00 -6.790087512563422467e-02
1.018800000000000061e+01 6.408400000000000318e+01 4.116899999999999693e+01 -3.296091999999999800e+00 1.906871819399408030e-01
1.018800000000000061e+01 6.408400000000000318e+01 4.256900000000000261e+01 -3.753824000000000050e-01 1.923403105530839263e-01
1.018800000000000061e+01 6.736599999999999966e+01 4.568200000000000216e+01 -2.088194000000000106e+00 -1.131484520220614812e-02
1.019299999999999962e+01 5.985600000000000165e+01 6.547599999999999909e+01 3.150791999999999859e+01 -6.146839074133896366e-03
1.019500000000000028e+01 4.672599999999999909e+01 5.260999999999999943e+01 6.637650000000000494e-01 -6.428682030484048071e-02
1.019500000000000028e+01 4.968299999999999983e+01 4.629599999999999937e+01 4.725121999999999822e+00 -6.672707239540763557e-02
1.019599999999999973e+01 6.458400000000000318e+01 4.024199999999999733e+01 2.130999000000000088e+00 1.898033772254143769e-01
1.020500000000000007e+01 4.606400000000000006e+01 5.326800000000000068e+01 8.980088999999999433e-02 -6.362851692933339798e-02
1.021199999999999974e+01 5.950800000000000267e+01 6.466800000000000637e+01 3.118882999999999850e+00 -6.395811648181396088e-03
1.021400000000000041e+01 5.112299999999999756e+01 4.104399999999999693e+01 1.982344000000000150e+01 -1.080258775079228767e-01
1.022000000000000064e+01 5.661599999999999966e+01 3.994200000000000017e+01 1.425097999999999920e-01 1.412531965422829661e-01
1.022100000000000009e+01 5.179699999999999704e+01 6.240200000000000102e+01 -3.896201000000000025e+00 -8.903887625129568856e-03
1.022600000000000087e+01 6.990500000000000114e+01 6.177300000000000324e+01 -3.397193999999999647e+01 -5.429605248312459678e-03
1.024499999999999922e+01 5.028199999999999648e+01 4.978000000000000114e+01 -6.016498000000000346e+00 -6.849349138068283604e-02
1.024600000000000044e+01 6.378099999999999881e+01 4.186899999999999977e+01 -2.598714999999999886e+00 1.914503174160775145e-01
1.025699999999999967e+01 4.997800000000000153e+01 4.157500000000000284e+01 9.390136000000000038e+00 -1.066409387321465008e-01
1.026200000000000045e+01 5.065299999999999869e+01 4.810600000000000165e+01 2.304565000000000086e-01 -6.875414958510892016e-02
1.026299999999999990e+01 4.986800000000000210e+01 4.517399999999999949e+01 1.207268000000000008e+01 9.880307357963903636e-02
1.026999999999999957e+01 4.645499999999999829e+01 4.633400000000000318e+01 -1.150263000000000035e+00 -1.048107051678920099e-01
1.026999999999999957e+01 4.805299999999999727e+01 4.633400000000000318e+01 -3.946617999999999959e+00 -1.076781800677030915e-01
1.027100000000000080e+01 5.506099999999999994e+01 6.520099999999999341e+01 -1.577754000000000101e+00 -7.098846173718769206e-03
1.027100000000000080e+01 4.861899999999999977e+01 4.253300000000000125e+01 2.834423000000000137e+00 -1.051462235081348784e-01
1.027599999999999980e+01 4.594899999999999807e+01 5.446099999999999852e+01 -9.550295000000000312e-02 -6.374738711511603040e-02
1.028299999999999947e+01 6.976399999999999579e+01 6.428300000000000125e+01 -1.743933000000000177e+01 -5.027405247458738811e-03
1.028299999999999947e+01 6.872599999999999909e+01 6.070400000000000063e+01 -2.845075999999999894e+01 -5.758475510341780866e-03
1.029700000000000060e+01 5.755199999999999960e+01 3.559700000000000131e+01 4.906904000000000265e-01 1.439639928942879621e-01
1.030199999999999960e+01 6.033899999999999864e+01 3.557399999999999807e+01 -2.397092999999999918e+00 1.417509950711070832e-01
1.030199999999999960e+01 6.185900000000000176e+01 3.557399999999999807e+01 -3.331998000000000015e+00 1.409147254574328600e-01
1.030499999999999972e+01 5.314699999999999847e+01 6.479699999999999704e+01 -6.963527000000000022e+00 -7.613696913465565867e-03
1.030700000000000038e+01 5.855499999999999972e+01 6.632299999999999329e+01 5.260799999999999699e+00 -6.134160312328412745e-03
1.031400000000000006e+01 6.843899999999999295e+01 5.496500000000000341e+01 2.809242000000000061e+01 -7.307444588344307046e-03
1.031499999999999950e+01 4.895499999999999829e+01 5.184100000000000108e+01 -6.855025999999999620e-01 -6.701874090949341833e-02
1.031499999999999950e+01 5.014600000000000080e+01 5.117699999999999960e+01 -8.883151999999999715e-01 -6.846404993758645197e-02
1.031499999999999950e+01 5.035499999999999687e+01 5.044100000000000250e+01 -6.478620000000000267e+00 -6.869431132123618444e-02
1.031900000000000084e+01 6.833400000000000318e+01 5.753000000000000114e+01 1.126227999999999980e+02 -6.569018234625270854e-03
1.032000000000000028e+01 5.527799999999999869e+01 3.589200000000000301e+01 -1.899329999999999963e+00 1.462864511337206297e-01
1.032000000000000028e+01 4.764999999999999858e+01 5.620600000000000307e+01 1.533319999999999972e+01 -6.570400503889269050e-02
1.033300000000000018e+01 4.678399999999999892e+01 4.557399999999999807e+01 -3.623875999999999764e-01 -1.047757485300384317e-01
1.033300000000000018e+01 4.678399999999999892e+01 4.709400000000000119e+01 -9.798997000000000401e-01 -1.060451359031610308e-01
1.033300000000000018e+01 4.772399999999999665e+01 4.557399999999999807e+01 8.705039999999999445e-01 -1.065355143428447643e-01
1.033300000000000018e+01 4.772399999999999665e+01 4.709400000000000119e+01 -8.098465999999999720e-01 -1.076848751332517562e-01
1.034200000000000053e+01 4.898799999999999955e+01 4.168299999999999983e+01 3.316542999999999797e+00 -1.049175792605900603e-01
1.034200000000000053e+01 4.898799999999999955e+01 4.338300000000000267e+01 4.328638999999999903e+00 -1.068486741217270219e-01
1.034600000000000009e+01 4.728099999999999881e+01 5.999099999999999966e+01 1.079734999999999889e+00 -6.529627635282078679e-02
1.036400000000000077e+01 5.950800000000000267e+01 6.621800000000000352e+01 9.651315999999999562e+00 -5.974821886902893092e-03
1.036599999999999966e+01 6.614100000000000534e+01 4.502799999999999869e+01 -1.812788000000000066e+00 -1.223963924578247951e-02
1.036999999999999922e+01 4.961099999999999710e+01 4.690899999999999892e+01 2.716957999999999984e+00 -6.697454315024584104e-02
1.037199999999999989e+01 5.150999999999999801e+01 4.059499999999999886e+01 2.319507000000000119e+01 1.467210679268666218e-01
1.037299999999999933e+01 6.274300000000000210e+01 3.772500000000000142e+01 -1.930518999999999985e-01 1.856580598164727924e-01
1.039100000000000001e+01 4.631900000000000261e+01 5.528399999999999892e+01 3.961365999999999943e+00 -6.429925734744382226e-02
1.039199999999999946e+01 6.415099999999999625e+01 3.931199999999999761e+01 6.474668000000000312e+00 1.885789251111407439e-01
1.039300000000000068e+01 6.978300000000000125e+01 6.327700000000000102e+01 -3.062104000000000070e+01 -5.133676901497167058e-03
1.039300000000000068e+01 6.922799999999999443e+01 6.155299999999999727e+01 -2.567345999999999862e+01 -5.484675013762003309e-03
1.040300000000000047e+01 6.514100000000000534e+01 4.217000000000000171e+01 -1.008228999999999931e-01 1.923561084432515444e-01
1.040499999999999936e+01 6.793500000000000227e+01 5.962100000000000222e+01 -1.702653000000000105e+01 -6.069613031328358055e-03
1.040900000000000070e+01 5.417900000000000205e+01 3.788499999999999801e+01 -1.057760999999999951e+00 1.456836957820831779e-01
1.041000000000000014e+01 6.930200000000000671e+01 6.246000000000000085e+01 -3.250802999999999798e+01 -5.308345684472447375e-03
1.042600000000000016e+01 4.740999999999999659e+01 5.903300000000000125e+01 7.374199999999999644e-01 -6.546293066256717030e-02
1.042699999999999960e+01 6.766599999999999682e+01 5.874499999999999744e+01 -1.119143999999999917e+00 -6.325454237602712131e-03
1.042800000000000082e+01 4.991400000000000148e+01 4.760900000000000176e+01 2.359563000000000077e+00 -6.770890638470652978e-02
1.042900000000000027e+01 5.414699999999999847e+01 3.624000000000000199e+01 -1.808159999999999989e+00 1.474400983678476607e-01
1.044200000000000017e+01 6.856000000000000227e+01 4.997399999999999665e+01 -8.458883999999999403e+00 -8.988186983689801929e-03
1.044299999999999962e+01 4.816799999999999926e+01 4.333899999999999864e+01 2.562472000000000083e+00 -1.052719542352402032e-01
1.044400000000000084e+01 4.852100000000000080e+01 4.709300000000000352e+01 8.607465999999999728e-02 -6.535174222191147964e-02
1.044999999999999929e+01 6.547799999999999443e+01 4.024199999999999733e+01 2.787478999999999818e+00 1.903222357538660314e-01
1.045500000000000007e+01 6.451699999999999591e+01 4.186899999999999977e+01 -8.272513000000000227e-01 1.918622812114352261e-01
1.046000000000000085e+01 6.537300000000000466e+01 4.135499999999999687e+01 1.122556999999999999e-01 1.915512730221511639e-01
1.046199999999999974e+01 5.025699999999999790e+01 4.842399999999999949e+01 1.421944000000000097e+00 -6.843522629224799148e-02
1.046299999999999919e+01 6.556600000000000250e+01 6.625499999999999545e+01 -2.878366999999999898e+00 -5.095146219313151023e-03
1.046499999999999986e+01 6.693000000000000682e+01 6.800100000000000477e+01 -4.911109999999999864e+00 -4.743866863314766258e-03
1.046799999999999997e+01 5.448199999999999932e+01 3.718500000000000227e+01 -1.969139999999999890e+00 1.459366128343621838e-01
1.046799999999999997e+01 6.500000000000000000e+01 4.279099999999999682e+01 -4.348036000000000123e-01 1.930574217522055547e-01
1.047899999999999920e+01 4.725399999999999778e+01 4.479899999999999949e+01 1.734661000000000119e-01 -1.050170884085343398e-01
1.047899999999999920e+01 4.878900000000000148e+01 4.633400000000000318e+01 2.666911999999999949e+00 -6.548385566606981789e-02
1.048900000000000077e+01 5.222999999999999687e+01 6.310199999999999676e+01 -6.269944999999999879e+00 -8.393467985195723555e-03
1.049000000000000021e+01 6.514499999999999602e+01 4.370100000000000051e+01 -3.869753999999999916e+00 -1.343018555628807190e-02
1.049600000000000044e+01 6.534399999999999409e+01 6.549800000000000466e+01 -4.695337000000000316e+00 -5.222873864240377452e-03
1.050300000000000011e+01 7.536499999999999488e+01 5.877799999999999869e+01 1.536438000000000059e+01 -5.314517266865269839e-03
1.050399999999999956e+01 6.570000000000000284e+01 6.717799999999999727e+01 -3.589053999999999967e+00 -4.940205167103089642e-03
1.051500000000000057e+01 5.385399999999999920e+01 3.522699999999999676e+01 -7.250389000000000195e+00 1.488875176582118431e-01
1.051800000000000068e+01 4.803799999999999670e+01 4.228600000000000136e+01 7.012840999999999880e+00 -1.038103045603219615e-01
1.051900000000000013e+01 4.837199999999999989e+01 6.247099999999999653e+01 -4.811923000000000172e-01 -9.538042469895079492e-03
1.052100000000000080e+01 6.510899999999999466e+01 3.939200000000000301e+01 2.068985999999999947e+01 1.892242241582580697e-01
1.054299999999999926e+01 5.701500000000000057e+01 6.663599999999999568e+01 -7.839233000000000118e+00 -6.238797852384321031e-03
1.054400000000000048e+01 6.078900000000000148e+01 6.524200000000000443e+01 1.215778000000000070e+01 -5.900502468808730729e-03
1.056300000000000061e+01 4.699699999999999989e+01 6.050000000000000000e+01 -3.589079000000000019e-01 -6.510650960805744458e-02
1.056300000000000061e+01 4.699699999999999989e+01 6.154999999999999716e+01 5.983701999999999632e-01 -1.027890083385848974e-02
1.057000000000000028e+01 4.626599999999999824e+01 6.729200000000000159e+01 4.252363000000000115e-01 -7.979338622651399940e-03
1.057600000000000051e+01 4.528900000000000148e+01 5.354399999999999693e+01 -1.257425000000000015e+00 -6.285498546881390647e-02
1.058099999999999952e+01 5.931499999999999773e+01 3.579999999999999716e+01 4.280618999999999730e+00 1.420122526760006221e-01
1.058300000000000018e+01 4.317799999999999727e+01 6.432699999999999818e+01 -5.777993000000000379e+00 -6.255931813550776044e-02
1.058699999999999974e+01 4.808299999999999841e+01 5.690599999999999881e+01 -5.269622999999999946e-01 -6.620760721799910653e-02
1.058799999999999919e+01 4.810099999999999909e+01 5.199499999999999744e+01 7.457240000000000535e-01 -6.608894313189137004e-02
1.059500000000000064e+01 6.867100000000000648e+01 6.701699999999999591e+01 -9.479456000000000770e+00 -4.668722296622263360e-03
1.060699999999999932e+01 6.891299999999999670e+01 5.573199999999999932e+01 6.623936999999999742e+00 -6.842688333414562001e-03
1.061299999999999955e+01 5.450600000000000023e+01 6.514000000000000057e+01 -4.400186000000000064e+01 -7.097313557759943325e-03
1.061299999999999955e+01 5.569599999999999795e+01 6.580400000000000205e+01 8.199709999999999610e+00 -6.665135860047952110e-03
1.061500000000000021e+01 6.230400000000000205e+01 6.512600000000000477e+01 -6.973892000000000202e+00 -5.653928220523442294e-03
1.061500000000000021e+01 6.393399999999999750e+01 6.466299999999999670e+01 7.135907999999999696e+00 -5.503940597342590890e-03
