3.261699999999999733e+01 5.958200000000000074e+01 6.189200000000000301e+01 -1.685432000000000130e+01 -2.593756715221763876e-01
3.261800000000000210e+01 4.543399999999999750e+01 1.525799999999999912e+01 6.601882999999999946e+00 -4.095741570167294593e-02
3.261899999999999977e+01 1.900600000000000023e+01 4.568200000000000216e+01 -5.461231999999999864e+00 -1.176797331386342238e-02
3.262100000000000222e+01 4.526500000000000057e+01 3.670700000000000074e+01 -1.943334000000000117e+01 -2.079139367704706948e-02
3.262199999999999989e+01 3.289800000000000324e+01 2.905099999999999838e+01 6.071341000000000321e+01 -1.323202352157978323e-01
3.262199999999999989e+01 5.977600000000000335e+01 5.367000000000000171e+01 5.807803999999999744e-01 -2.614984899127740792e-01
3.262500000000000000e+01 3.724799999999999756e+01 2.943199999999999861e+01 5.885654999999999637e-01 -1.384182810302835853e-01
3.262599999999999767e+01 5.984000000000000341e+01 6.268399999999999750e+01 -2.350148000000000081e+01 -2.591814904759948690e-01
3.262599999999999767e+01 1.654599999999999937e+01 3.690500000000000114e+01 1.119496999999999964e+01 -1.630904576400361156e-02
3.262800000000000011e+01 5.650300000000000011e+01 2.803200000000000003e+01 -5.159804000000000279e+00 7.216351347937885463e-02
3.263300000000000267e+01 3.155199999999999960e+01 5.759100000000000108e+01 -3.564938000000000073e+01 -2.608809091954369941e-01
3.263300000000000267e+01 3.249199999999999733e+01 5.759100000000000108e+01 -6.882907000000000153e+01 -2.614898500317945351e-01
3.263700000000000045e+01 5.947800000000000153e+01 4.731700000000000017e+01 -5.950910999999999618e+00 -2.624972054886961503e-01
3.263700000000000045e+01 6.087800000000000011e+01 4.731700000000000017e+01 -1.551609000000000016e+01 -2.618037204141908658e-01
3.263700000000000045e+01 6.193299999999999983e+01 4.556400000000000006e+01 7.565914999999999724e-01 -2.613819480125949557e-01
3.263799999999999812e+01 1.835200000000000031e+01 3.503600000000000136e+01 1.318108000000000057e+00 -1.380948572200248539e-02
3.263900000000000290e+01 2.684799999999999898e+01 2.572700000000000031e+01 1.630355000000000132e+01 -3.822694462895508960e-01
3.264399999999999835e+01 2.380399999999999849e+01 4.749399999999999977e+01 -1.423595000000000077e+01 -3.006362478849793855e-03
3.264600000000000080e+01 3.112500000000000000e+01 5.685000000000000142e+01 -2.914374000000000109e+01 -2.609879295440945546e-01
3.264600000000000080e+01 5.830799999999999983e+01 5.779500000000000171e+01 3.971388999999999836e+00 -2.606150753395913844e-01
3.264699999999999847e+01 3.036299999999999955e+01 2.855300000000000082e+01 -8.354800000000000004e-01 -3.823859847166882209e-01
3.264900000000000091e+01 3.409000000000000341e+01 5.612800000000000011e+01 -7.116758000000000095e+01 -1.965170013307544206e-01
3.264900000000000091e+01 4.668800000000000239e+01 1.621699999999999875e+01 1.277332999999999963e+01 -4.206750783540817024e-02
3.265599999999999881e+01 3.694400000000000261e+01 5.062199999999999989e+01 2.220893999999999835e+01 -1.974531834857999602e-01
3.265699999999999648e+01 4.050999999999999801e+01 5.728900000000000148e+01 -1.824928999999999846e+01 -1.952472996913504621e-01
3.266100000000000136e+01 3.755799999999999983e+01 3.349499999999999744e+01 1.522912999999999961e+01 -5.232348038633052173e-02
3.266199999999999903e+01 5.853399999999999892e+01 5.986999999999999744e+01 1.904891999999999896e+01 -2.600174666166884530e-01
3.266199999999999903e+01 4.392099999999999937e+01 6.176299999999999812e+01 -1.979654999999999987e+01 -1.943190359763802832e-01
3.266299999999999670e+01 4.772999999999999687e+01 2.047200000000000131e+01 1.563579000000000008e+01 -4.515358556523529215e-02
3.266599999999999682e+01 3.729800000000000182e+01 4.554099999999999682e+01 3.959808999999999912e+01 -2.668624486459956202e-01
3.266599999999999682e+01 5.537199999999999989e+01 2.598000000000000043e+01 -1.804974999999999952e+01 7.144831670681792146e-02
3.266700000000000159e+01 2.086700000000000088e+01 4.709300000000000352e+01 -6.613659000000000177e+00 -8.343504103040652251e-03
3.267000000000000171e+01 5.071600000000000108e+01 7.120799999999999841e+01 -2.673338999999999999e+01 -2.587150330823119182e-01
3.267000000000000171e+01 4.639200000000000301e+01 2.278500000000000014e+01 -1.554016000000000020e+01 -4.622689627056091044e-02
3.267000000000000171e+01 2.670599999999999952e+01 5.439900000000000091e+01 3.635771999999999782e+00 -2.502753909710714320e-01
3.268299999999999983e+01 3.857500000000000284e+01 3.036199999999999832e+01 1.951096000000000075e+01 -1.413671345884223163e-01
3.268599999999999994e+01 5.459199999999999875e+01 3.985000000000000142e+01 -3.822908999999999935e+01 -8.216611456964900348e-03
3.268999999999999773e+01 1.651699999999999946e+01 3.953600000000000136e+01 8.306385000000000574e+00 -1.630601637485350544e-02
3.269100000000000250e+01 3.228699999999999903e+01 3.090700000000000003e+01 3.094641999999999893e+00 -3.827087812145844592e-01
3.269100000000000250e+01 6.214500000000000313e+01 6.501600000000000534e+01 7.649840000000000195e+00 -2.585625263020953080e-01
3.269100000000000250e+01 6.214500000000000313e+01 6.606600000000000250e+01 6.893923000000000023e+00 -2.584077090985503200e-01
3.269500000000000028e+01 3.758599999999999852e+01 2.862199999999999989e+01 -2.098641999999999896e+00 -1.378502490255189561e-01
3.269500000000000028e+01 6.656799999999999784e+01 4.686699999999999733e+01 -1.521080000000000076e+01 -2.596651122472041218e-01
3.269500000000000028e+01 6.656799999999999784e+01 4.780700000000000216e+01 -2.300152999999999892e+01 -2.596485115997154702e-01
3.269599999999999795e+01 6.645699999999999363e+01 4.607000000000000028e+01 1.846174999999999855e+01 -2.597133620710037061e-01
3.269599999999999795e+01 6.645699999999999363e+01 4.860399999999999920e+01 -4.195163000000000153e+01 -2.596678892912234748e-01
3.269700000000000273e+01 3.700699999999999790e+01 3.132199999999999918e+01 2.468068999999999846e+00 -1.406605870056776009e-01
3.269700000000000273e+01 3.700699999999999790e+01 3.218800000000000239e+01 1.161869000000000085e+01 -1.418818790525353812e-01
3.270000000000000284e+01 3.763000000000000256e+01 3.027299999999999969e+01 6.279363000000000028e+00 -1.400410080354788922e-01
3.270100000000000051e+01 6.215999999999999659e+01 5.295199999999999818e+01 -2.856739000000000139e+00 -2.610212225600889724e-01
3.270199999999999818e+01 3.546500000000000341e+01 3.130900000000000105e+01 -3.008402999999999938e+00 -1.385713694987354694e-01
3.270400000000000063e+01 4.682500000000000284e+01 2.044699999999999918e+01 3.992370000000000196e+00 -4.464206342488369339e-02
3.270400000000000063e+01 3.082100000000000151e+01 5.614999999999999858e+01 -2.527803000000000111e+01 -1.573775201043917382e-01
3.270499999999999829e+01 5.180499999999999972e+01 1.681500000000000128e+01 2.532630999999999855e+00 -4.501884973267635676e-02
3.270600000000000307e+01 3.728099999999999881e+01 3.302900000000000347e+01 2.550656999999999996e+01 -5.145538824796802579e-02
3.270700000000000074e+01 5.319599999999999795e+01 1.858999999999999986e+01 3.691978999999999900e+01 -4.665244775064866095e-02
3.270900000000000318e+01 3.862100000000000222e+01 2.083999999999999986e+01 -3.098275000000000112e+00 -1.318802647095755343e-01
3.271000000000000085e+01 5.892999999999999972e+01 2.321699999999999875e+01 1.001051999999999964e+01 -1.779490148132529051e-02
3.271000000000000085e+01 4.938799999999999812e+01 7.196999999999999886e+01 -8.055159999999999343e+01 -2.587631702040739112e-01
3.271500000000000341e+01 3.309599999999999653e+01 2.746900000000000119e+01 -1.480860999999999983e+01 -1.309677355954746714e-01
3.271500000000000341e+01 3.403600000000000136e+01 2.898900000000000077e+01 7.251864999999999384e+01 -1.337457630919167695e-01
3.271500000000000341e+01 3.288000000000000256e+01 5.689600000000000080e+01 -6.188649000000000200e+01 -2.621427306207633756e-01
3.271900000000000119e+01 3.786099999999999710e+01 3.419500000000000028e+01 1.463449000000000000e+00 -5.353130449708324440e-02
3.271900000000000119e+01 3.872699999999999676e+01 3.419500000000000028e+01 1.831172999999999940e+00 -5.416949692380355202e-02
3.271999999999999886e+01 4.642000000000000171e+01 2.109799999999999898e+01 -7.903782999999999781e+00 -4.489367282352820648e-02
3.272099999999999653e+01 3.722999999999999687e+01 2.792599999999999838e+01 -7.720011000000000401e+00 -1.365735577919772181e-01
3.272099999999999653e+01 3.804899999999999949e+01 2.284799999999999898e+01 2.431131000000000153e+00 -1.326532722409703990e-01
3.272500000000000142e+01 6.248499999999999943e+01 6.070700000000000074e+01 3.670584999999999809e+01 -2.592959564283464635e-01
3.272800000000000153e+01 5.521999999999999886e+01 3.342999999999999972e+01 9.961245999999999157e+00 -1.881294547706494069e-02
3.273400000000000176e+01 6.201200000000000045e+01 4.646099999999999852e+01 -8.568448999999999316e+00 -2.613478735822898358e-01
3.273499999999999943e+01 6.077000000000000313e+01 6.698699999999999477e+01 2.199901000000000106e+00 -2.583906500785283500e-01
3.273599999999999710e+01 2.175199999999999889e+01 2.368299999999999983e+01 4.414749000000000034e-01 -1.390839005630013225e-01
3.273599999999999710e+01 4.601599999999999824e+01 2.174800000000000111e+01 -1.874502999999999986e+01 -4.516960967218102557e-02
3.273899999999999721e+01 2.475600000000000023e+01 5.048599999999999710e+01 -5.495969999999999800e+00 -1.033832322603027345e-03
3.274000000000000199e+01 6.579000000000000625e+01 5.099799999999999756e+01 -6.562800000000000011e+01 -2.598382208299469531e-01
3.274000000000000199e+01 3.953600000000000136e+01 4.361899999999999977e+01 -3.612242999999999982e-01 -7.782881931839881473e-03
3.274000000000000199e+01 4.105100000000000193e+01 4.303999999999999915e+01 -7.407681000000000182e+00 -7.967502368391870399e-03
3.274199999999999733e+01 4.049199999999999733e+01 1.846300000000000097e+01 3.790620000000000100e+00 -1.323890287695685675e-01
3.274499999999999744e+01 5.342000000000000171e+01 1.934900000000000020e+01 9.340379999999999683e+00 -4.722406402058421798e-02
3.274499999999999744e+01 5.305899999999999750e+01 1.765500000000000114e+01 5.655633000000000266e+01 -4.606112405248363739e-02
3.274600000000000222e+01 2.414600000000000080e+01 2.601500000000000057e+01 1.110601999999999911e+01 -1.363031791483554078e-01
3.274600000000000222e+01 5.579899999999999949e+01 2.319999999999999929e+01 -6.391504000000000296e+00 -5.077785853529318688e-02
3.274699999999999989e+01 4.070700000000000074e+01 5.084300000000000352e+01 -1.317093999999999987e+00 -1.966848486506491966e-01
3.275000000000000000e+01 5.727100000000000080e+01 5.507200000000000273e+01 -1.042219000000000051e+01 -2.617226313358074208e-01
3.275000000000000000e+01 6.268599999999999994e+01 5.227300000000000324e+01 2.067077999999999971e+00 -2.608621656491040275e-01
3.275200000000000244e+01 2.428800000000000026e+01 5.139600000000000080e+01 -4.554901000000000089e+00 -2.521518095997900000e-01
3.275200000000000244e+01 6.533400000000000318e+01 5.843500000000000227e+01 9.629200000000000870e+00 -2.594267134376787576e-01
3.275200000000000244e+01 6.533400000000000318e+01 5.948499999999999943e+01 2.242451000000000150e+01 -2.592309928943968833e-01
3.275399999999999778e+01 6.129500000000000171e+01 5.995900000000000318e+01 3.611381000000000174e+00 -2.596071399025008941e-01
3.275500000000000256e+01 4.951899999999999835e+01 6.212100000000000222e+01 2.554127999999999954e+00 -2.611701291288324178e-01
3.275600000000000023e+01 5.115200000000000102e+01 6.286099999999999710e+01 -8.762020000000000364e-01 -2.605767457907861573e-01
3.276400000000000290e+01 1.951000000000000156e+01 3.451400000000000290e+01 2.694331000000000031e+00 -1.198362712500761207e-02
3.276599999999999824e+01 3.792499999999999716e+01 5.499399999999999977e+01 -8.701000999999999763e+00 -1.961355769161139961e-01
3.276599999999999824e+01 4.216700000000000159e+01 4.287299999999999756e+01 -4.698745999999999867e+01 -7.465130771495655064e-03
3.276599999999999824e+01 4.346000000000000085e+01 4.215200000000000102e+01 -4.412850000000000250e+01 -8.380895429582905024e-03
3.276599999999999824e+01 4.465100000000000335e+01 4.148799999999999955e+01 -2.027085999999999899e+01 -9.246028559887004700e-03
3.276599999999999824e+01 6.421599999999999397e+01 6.077300000000000324e+01 3.056745000000000090e+01 -2.591111872996100796e-01
3.277000000000000313e+01 3.389900000000000091e+01 2.569000000000000128e+01 1.399224000000000023e+00 -1.303127166254959834e-01
3.277000000000000313e+01 3.413000000000000256e+01 2.487500000000000000e+01 2.283943999999999974e+00 -1.299081398445122992e-01
3.277100000000000080e+01 5.017000000000000171e+01 6.652599999999999625e+01 -1.797768999999999950e+00 -2.597446514165343556e-01
3.277300000000000324e+01 1.066300000000000026e+01 3.906300000000000239e+01 1.013654999999999973e+01 8.051140049626889783e-02
3.277300000000000324e+01 3.318299999999999983e+01 5.619599999999999795e+01 -2.036484000000000094e+01 -1.552812130627627130e-01
3.277400000000000091e+01 2.506200000000000117e+01 4.965200000000000102e+01 1.167311999999999905e+00 -5.301706448916496854e-04
3.277499999999999858e+01 5.926599999999999824e+01 2.244200000000000017e+01 -3.615673000000000137e+00 -5.121106994528946965e-02
3.277499999999999858e+01 3.403499999999999659e+01 3.146999999999999886e+01 -2.814341999999999899e+00 -1.368838859118895190e-01
3.277799999999999869e+01 3.276700000000000301e+01 2.822899999999999920e+01 -1.883278000000000035e-02 -1.314025563392951790e-01
3.278000000000000114e+01 6.076800000000000068e+01 6.399399999999999977e+01 -2.950833999999999957e+00 -2.588771028873719238e-01
3.278099999999999881e+01 2.416600000000000037e+01 5.221200000000000330e+01 -4.739638000000000240e+00 -2.517294999908688546e-01
3.278099999999999881e+01 2.439300000000000068e+01 5.301100000000000279e+01 -1.631062999999999974e+01 -2.512868401195493262e-01
3.278399999999999892e+01 6.129500000000000171e+01 5.891700000000000159e+01 1.111340999999999912e+00 -2.598492023996210043e-01
3.278499999999999659e+01 4.599600000000000222e+01 4.233899999999999864e+01 8.279685999999999879e+00 -6.150626632852084288e-03
3.278499999999999659e+01 4.620499999999999829e+01 4.307500000000000284e+01 7.090476999999999919e+00 -4.183568795838149210e-03
3.278600000000000136e+01 5.905199999999999960e+01 2.162000000000000099e+01 6.038808000000000398e+00 -5.063214514316364406e-02
3.278799999999999670e+01 4.744400000000000261e+01 3.809400000000000119e+01 -1.701063999999999865e+01 -1.559202220977681450e-02
3.279099999999999682e+01 2.565200000000000102e+01 5.384300000000000352e+01 -1.251640000000000086e+01 -2.507008300417455926e-01
3.279099999999999682e+01 5.464900000000000091e+01 4.080299999999999727e+01 -3.275021999999999878e+01 -6.500657552271406521e-03
3.279200000000000159e+01 5.339200000000000301e+01 3.893699999999999761e+01 -8.104867999999999739e+00 -1.033632094491434769e-02
3.279500000000000171e+01 2.464000000000000057e+01 4.897599999999999909e+01 -2.030542000000000069e+00 -1.311594901210876886e-03
3.279899999999999949e+01 3.559199999999999875e+01 2.750700000000000145e+01 -2.430204000000000164e+01 -1.340945943467178325e-01
3.279899999999999949e+01 3.721000000000000085e+01 5.413400000000000034e+01 -1.689767999999999937e+00 -1.964645254513473493e-01
3.279999999999999716e+01 4.617499999999999716e+01 5.169700000000000273e+01 -1.401081999999999939e+00 -1.955599090670668561e-01
3.279999999999999716e+01 6.485099999999999909e+01 5.109700000000000131e+01 -1.185551000000000066e+01 -2.601500956963201938e-01
3.280199999999999960e+01 6.289200000000000301e+01 5.676599999999999824e+01 3.644289000000000112e+00 -2.601099808338806496e-01
3.280199999999999960e+01 6.394200000000000017e+01 5.676599999999999824e+01 1.106057999999999986e+01 -2.599545189933697986e-01
3.280299999999999727e+01 4.973400000000000176e+01 2.465800000000000125e+01 -1.817971000000000004e+01 -4.969886989791430509e-02
3.280599999999999739e+01 4.990400000000000347e+01 6.735500000000000398e+01 -2.504992000000000107e+00 -2.596004776709596173e-01
3.281000000000000227e+01 5.748799999999999955e+01 5.432300000000000040e+01 -1.067534999999999989e+01 -2.619279702049193692e-01
3.281199999999999761e+01 2.042500000000000071e+01 3.237400000000000233e+01 -1.019879000000000069e+01 -1.035526577048573836e-02
3.281199999999999761e+01 2.042500000000000071e+01 3.384599999999999653e+01 -2.218119000000000174e+00 -1.049852041481488460e-02
3.281199999999999761e+01 2.063400000000000034e+01 3.310999999999999943e+01 -6.865084000000000408e+00 -1.011416195065778165e-02
3.281700000000000017e+01 6.593800000000000239e+01 4.335399999999999920e+01 -1.527219000000000104e+00 -2.599641534555040545e-01
3.282099999999999795e+01 3.972699999999999676e+01 3.204699999999999704e+01 9.457872000000000057e+00 -5.191133741330571094e-02
3.282099999999999795e+01 3.972699999999999676e+01 3.291299999999999670e+01 7.212977999999999668e+00 -5.307698171786211228e-02
3.282500000000000284e+01 2.180399999999999849e+01 2.702299999999999969e+01 -1.040399000000000029e+01 -5.022014730387915765e-02
3.282600000000000051e+01 2.568100000000000094e+01 2.586899999999999977e+01 6.771316999999999808e+00 -3.824676939281989596e-01
3.282999999999999829e+01 3.945300000000000296e+01 3.120599999999999952e+01 8.422967999999999122e+00 -5.061261457737466912e-02
3.283299999999999841e+01 5.527700000000000102e+01 3.247699999999999676e+01 -1.411758000000000024e+01 -1.928471784367349201e-02
3.283500000000000085e+01 3.040800000000000125e+01 2.913100000000000023e+01 -4.398969000000000129e+00 -3.825355800920645089e-01
3.283700000000000330e+01 3.579599999999999937e+01 5.411099999999999710e+01 -1.128795999999999999e+01 -1.967172924016638014e-01
3.283700000000000330e+01 4.857000000000000028e+01 6.125500000000000256e+01 2.102740999999999971e+00 -2.617364820353677013e-01
3.283899999999999864e+01 6.396999999999999886e+01 5.135000000000000142e+01 6.810086000000000084e+00 -2.604525744515596153e-01
3.284100000000000108e+01 4.620199999999999818e+01 3.729500000000000171e+01 -9.725505999999999318e+00 -1.847061802841023018e-02
3.284199999999999875e+01 4.407500000000000284e+01 1.603200000000000003e+01 1.039411999999999914e+01 -4.065439368048942570e-02
3.284499999999999886e+01 3.377600000000000335e+01 2.660200000000000031e+01 -1.957384999999999931e+00 -1.310438734564650931e-01
3.284599999999999653e+01 1.769399999999999906e+01 4.277300000000000324e+01 -2.580389999999999961e+00 -1.418669788454220669e-02
3.284899999999999665e+01 5.653799999999999670e+01 2.334400000000000119e+01 1.371289999999999942e+01 -5.111111936420262986e-02
3.284899999999999665e+01 5.823799999999999955e+01 2.059400000000000119e+01 7.817299000000000220e+00 -4.976998283056524586e-02
3.285000000000000142e+01 4.793599999999999994e+01 3.851299999999999812e+01 -2.337468000000000146e+01 -1.425108143209381263e-02
3.285600000000000165e+01 5.734499999999999886e+01 6.836299999999999955e+01 -3.157588000000000061e+00 -2.585111064005848891e-01
3.285600000000000165e+01 5.767300000000000182e+01 6.761799999999999500e+01 3.869450000000000056e+00 -2.585938751557305681e-01
3.285699999999999932e+01 5.002300000000000324e+01 2.368299999999999983e+01 -1.009927000000000064e+01 -4.896174252088442147e-02
3.285900000000000176e+01 4.755599999999999739e+01 4.732900000000000063e+01 -4.386167999999999623e+00 4.093435345208957209e-03
3.285900000000000176e+01 4.781000000000000227e+01 4.643500000000000227e+01 1.514811000000000074e-01 3.139268867954544788e-03
3.285900000000000176e+01 4.781000000000000227e+01 4.822299999999999898e+01 -4.825267000000000195e+00 4.870339916530472615e-03
3.285999999999999943e+01 6.621299999999999386e+01 4.933599999999999852e+01 -3.453273000000000081e+01 -2.597771222044231720e-01
3.286099999999999710e+01 3.899199999999999733e+01 1.867899999999999849e+01 6.435444999999999638e-01 -1.311674638173037644e-01
3.286099999999999710e+01 4.857600000000000051e+01 1.743199999999999861e+01 9.543666999999999234e+00 -4.378604792490439768e-02
3.286200000000000188e+01 2.894000000000000128e+01 2.713899999999999935e+01 -5.368852999999999653e+00 -3.822932990282585375e-01
3.286699999999999733e+01 3.997399999999999665e+01 1.864999999999999858e+01 2.044554999999999900e+00 -1.320697479472722202e-01
3.286699999999999733e+01 4.735000000000000142e+01 5.258100000000000307e+01 3.928132999999999697e+01 -1.952383390332637914e-01
3.286699999999999733e+01 4.821500000000000341e+01 5.258100000000000307e+01 4.492779999999999774e+01 -1.951433511243093610e-01
3.286899999999999977e+01 1.764999999999999858e+01 4.162599999999999767e+01 -2.434597999999999818e+00 -1.443277377679233996e-02
3.286899999999999977e+01 6.619899999999999807e+01 5.026200000000000045e+01 -3.263255000000000194e+01 -2.597671826558044517e-01
3.287299999999999756e+01 4.764399999999999835e+01 4.411899999999999977e+01 3.054378999999999955e+00 -1.171693293994165077e-03
3.287400000000000233e+01 3.439699999999999847e+01 2.825300000000000011e+01 -1.629897000000000062e+01 -1.334768246831239680e-01
3.287899999999999778e+01 4.250500000000000256e+01 6.136500000000000199e+01 1.035473999999999978e-01 -1.945323336011187676e-01
3.288300000000000267e+01 2.150100000000000122e+01 2.772299999999999898e+01 -6.288795000000000357e+00 -1.815305107213968649e-02
3.288799999999999812e+01 3.856900000000000261e+01 5.023499999999999943e+01 1.673982000000000081e+00 -1.972699905751678084e-01
3.288799999999999812e+01 5.199199999999999733e+01 4.184599999999999653e+01 -2.315480000000000160e+01 -5.037195538700931473e-03
3.289000000000000057e+01 4.963000000000000256e+01 4.113000000000000256e+01 -3.362745999999999924e+01 -7.303479728792906973e-03
3.289099999999999824e+01 3.452100000000000080e+01 5.490400000000000347e+01 4.371994000000000158e-01 -1.967423195191750351e-01
3.289300000000000068e+01 5.525900000000000034e+01 3.196900000000000119e+01 -2.274808000000000163e+01 -1.939376085848783238e-02
3.289300000000000068e+01 5.546800000000000352e+01 3.123300000000000054e+01 -2.038278000000000034e+01 -1.937383281875289590e-02
3.289600000000000080e+01 4.677100000000000080e+01 6.126800000000000068e+01 5.352572999999999581e+00 -1.941737783176787357e-01
3.289800000000000324e+01 5.686500000000000199e+01 6.903199999999999648e+01 5.821438999999999808e+00 -2.584688243716757317e-01
3.289999999999999858e+01 3.862299999999999756e+01 1.946499999999999986e+01 1.735055999999999932e+00 -1.312290233836365672e-01
3.290299999999999869e+01 3.572999999999999687e+01 2.389300000000000068e+01 1.350151000000000101e+00 -1.310245915292199137e-01
3.290899999999999892e+01 4.484599999999999653e+01 3.677499999999999858e+01 -1.807941999999999894e+01 -2.089469014791069806e-02
3.291100000000000136e+01 2.423699999999999832e+01 4.819400000000000261e+01 -3.997431000000000179e+00 -2.093010338457838328e-03
3.291299999999999670e+01 4.970100000000000051e+01 1.689999999999999858e+01 2.353139000000000092e+00 -4.410300942136920199e-02
3.291599999999999682e+01 3.365699999999999648e+01 5.542799999999999727e+01 4.420359000000000371e+00 -1.551460416639212359e-01
3.291799999999999926e+01 4.291499999999999915e+01 1.692599999999999838e+01 9.885899000000000214e+00 -1.338393892589317680e-01
3.292300000000000182e+01 3.202199999999999847e+01 5.683100000000000307e+01 -3.715424999999999756e+01 -2.616480893818194930e-01
3.292300000000000182e+01 3.845100000000000051e+01 2.202400000000000091e+01 2.278350000000000097e+00 -1.326088412759299229e-01
3.292499999999999716e+01 5.424000000000000199e+01 2.399599999999999866e+01 -1.828595999999999933e+01 -5.090337863827509857e-02
3.292499999999999716e+01 5.424000000000000199e+01 2.486100000000000065e+01 -7.988259000000000221e+00 -5.160658702364723238e-02
3.292600000000000193e+01 4.849699999999999989e+01 3.950699999999999790e+01 -2.699796999999999869e+01 -1.159648641162475992e-02
3.292600000000000193e+01 4.849699999999999989e+01 4.037199999999999989e+01 -3.096844000000000108e+01 -9.599455082550691770e-03
3.292699999999999960e+01 5.945100000000000051e+01 6.648300000000000409e+01 1.347761999999999905e+00 -2.586271040597346582e-01
3.293299999999999983e+01 4.718599999999999994e+01 6.857399999999999807e+01 -9.417702999999999491e+00 -2.597776986709260938e-01
3.293299999999999983e+01 5.658200000000000074e+01 2.048600000000000065e+01 6.723131999999999664e+00 -4.918647323201476296e-02
3.293299999999999983e+01 5.819400000000000261e+01 2.345200000000000173e+01 3.801074999999999982e+00 -5.163131410307255503e-02
3.293599999999999994e+01 3.837400000000000233e+01 2.861700000000000088e+01 5.786020999999999859e+00 -1.388938071527035800e-01
3.293699999999999761e+01 4.839699999999999847e+01 2.531299999999999883e+01 -8.546763999999999584e+00 -4.971041644135866522e-02
3.293699999999999761e+01 4.275699999999999790e+01 5.094700000000000273e+01 -5.251447000000000198e-01 -1.963006911244450925e-01
3.294299999999999784e+01 1.775400000000000134e+01 4.059799999999999898e+01 5.346359999999999779e+00 -1.435044419173795230e-02
3.294299999999999784e+01 4.854800000000000182e+01 2.055199999999999960e+01 2.291994000000000042e+01 -4.575464851873095595e-02
3.294400000000000261e+01 5.144100000000000250e+01 6.523399999999999466e+01 -6.647312000000000332e+00 -2.599102908748868179e-01
3.294500000000000028e+01 4.371300000000000097e+01 3.515100000000000335e+01 -3.613918000000000319e+01 -5.829114343688548278e-02
3.294500000000000028e+01 4.371300000000000097e+01 3.601700000000000301e+01 -1.970870000000000033e+01 -2.369068406712207878e-02
3.294500000000000028e+01 4.465899999999999892e+01 1.544200000000000017e+01 9.770441999999999183e+00 -4.078651895077155948e-02
3.294500000000000028e+01 4.620900000000000318e+01 1.544200000000000017e+01 2.799129000000000200e+00 -4.161132415914953891e-02
3.294700000000000273e+01 2.310399999999999920e+01 4.743599999999999994e+01 -3.816133999999999915e+00 -4.231627707792043683e-03
3.294800000000000040e+01 5.827700000000000102e+01 5.884400000000000119e+01 1.390874999999999950e+01 -2.604124507262984833e-01
3.295000000000000284e+01 5.009100000000000108e+01 2.082999999999999829e+01 2.580694999999999961e+00 -4.674283712717626493e-02
3.295100000000000051e+01 2.221600000000000108e+01 4.744700000000000273e+01 -4.927386999999999739e-01 -5.801801922543232438e-03
3.295300000000000296e+01 2.755099999999999838e+01 2.623000000000000043e+01 1.895151000000000030e+00 -3.823056016011955327e-01
3.295700000000000074e+01 4.001899999999999835e+01 5.639800000000000324e+01 -9.126894999999999314e+00 -1.955300105563047841e-01
3.295799999999999841e+01 4.880199999999999960e+01 5.044400000000000261e+01 -6.040526999999999980e+00 -1.955215381807571817e-01
3.295900000000000318e+01 3.624399999999999977e+01 5.056400000000000006e+01 2.672390000000000043e+01 -1.545071793491276935e-01
3.296099999999999852e+01 3.113400000000000034e+01 3.024599999999999866e+01 -3.917998000000000047e+01 -3.827215773242737540e-01
3.296099999999999852e+01 2.097700000000000031e+01 2.817399999999999949e+01 -5.909119000000000455e-01 -1.891366109148002669e-02
3.296399999999999864e+01 5.791299999999999670e+01 4.579099999999999682e+01 -3.805114000000000107e+00 -2.635055647559743641e-01
3.296500000000000341e+01 6.059100000000000108e+01 5.370400000000000063e+01 -6.242778999999999634e+00 -2.613760214877700605e-01
3.296900000000000119e+01 6.432899999999999352e+01 5.750999999999999801e+01 1.723038999999999987e+01 -2.597847457840732344e-01
3.296999999999999886e+01 4.808800000000000097e+01 7.111700000000000443e+01 -3.287057999999999680e+01 -2.591382465195554707e-01
3.296999999999999886e+01 2.016700000000000159e+01 4.703499999999999659e+01 -7.234761999999999915e+00 -9.301819345272268474e-03
3.297299999999999898e+01 4.842300000000000182e+01 3.420799999999999841e+01 -9.608674000000000603e+00 -2.276360388175194260e-02
3.297299999999999898e+01 6.242699999999999960e+01 5.778199999999999648e+01 9.433541999999999206e+00 -2.599912525315047906e-01
3.297599999999999909e+01 5.087400000000000233e+01 3.493900000000000006e+01 3.489081999999999795e+00 -1.934970534514817916e-02
3.297599999999999909e+01 5.103799999999999670e+01 1.678000000000000114e+01 2.950877999999999890e+00 -4.472012926301627278e-02
3.297800000000000153e+01 3.653399999999999892e+01 4.670700000000000074e+01 -8.196942999999999202e+00 -2.662937011791862707e-01
3.297899999999999920e+01 5.618200000000000216e+01 4.364200000000000301e+01 -7.602388000000000368e+00 -2.646443785439361873e-01
3.298100000000000165e+01 2.312600000000000122e+01 2.636799999999999855e+01 5.449029999999999596e+00 -1.399204780735845699e-01
3.298499999999999943e+01 4.696300000000000097e+01 3.415699999999999648e+01 -8.967878999999999934e+00 -5.825962932845123177e-02
3.298799999999999955e+01 5.153999999999999915e+01 6.975700000000000500e+01 -5.588267000000000095e+00 -2.589465293253677691e-01
3.298799999999999955e+01 5.293999999999999773e+01 6.975700000000000500e+01 -9.562386000000000053e+00 -2.587824874205341130e-01
3.298899999999999721e+01 3.806099999999999994e+01 2.946099999999999852e+01 3.022682999999999964e+01 -1.395735816281081232e-01
3.298899999999999721e+01 1.969399999999999906e+01 2.873600000000000065e+01 2.544146000000000019e+00 8.504993889699292986e-02
3.299099999999999966e+01 4.573799999999999955e+01 6.180599999999999739e+01 -6.157009000000000398e+00 -1.942304650472440608e-01
3.299099999999999966e+01 4.757200000000000273e+01 1.702199999999999847e+01 7.227497999999999756e+00 -4.309212801096819201e-02
3.299199999999999733e+01 3.969899999999999807e+01 5.593200000000000216e+01 -1.941228999999999871e+01 -1.956744032725483695e-01
3.299199999999999733e+01 5.157900000000000063e+01 3.911399999999999721e+01 -6.295695999999999515e-01 -1.079836905842557551e-02
3.299300000000000210e+01 4.812500000000000000e+01 6.847499999999999432e+01 -1.793591999999999942e+01 -2.596724469793963430e-01
3.299600000000000222e+01 5.546699999999999875e+01 2.698999999999999844e+01 8.675520000000000564e+00 7.158276916756754760e-02
3.299600000000000222e+01 3.822500000000000142e+01 4.450699999999999790e+01 6.654309999999999548e+01 -2.671801450409378997e-01
3.299600000000000222e+01 4.685699999999999932e+01 6.933400000000000318e+01 -1.228050999999999959e+01 -2.596733696602013808e-01
3.300099999999999767e+01 6.157900000000000063e+01 4.716100000000000136e+01 -2.301160000000000139e+01 -2.615895379002504684e-01
3.300200000000000244e+01 5.174399999999999977e+01 6.453400000000000603e+01 -1.989432000000000045e+01 -2.600582801745895400e-01
3.300399999999999778e+01 3.544200000000000017e+01 4.821999999999999886e+01 -3.628983000000000203e+01 -2.656056534459701468e-01
3.300399999999999778e+01 4.186399999999999721e+01 5.939099999999999824e+01 1.155197000000000074e+01 -1.948287142269280459e-01
3.300500000000000256e+01 3.356600000000000250e+01 2.822899999999999920e+01 -1.204861999999999966e+01 -1.325360946606674861e-01
3.300900000000000034e+01 4.711999999999999744e+01 7.015200000000000102e+01 -3.660224999999999795e+01 -2.594650175803623338e-01
3.301700000000000301e+01 5.224499999999999744e+01 3.557500000000000284e+01 -8.556563000000000585e+00 -1.720894712171375240e-02
3.301800000000000068e+01 4.569800000000000040e+01 3.719800000000000040e+01 -1.294003000000000014e+01 -1.908603465567213636e-02
3.302000000000000313e+01 6.218800000000000239e+01 4.272800000000000153e+01 -2.481914999999999871e+00 -2.614456973643474735e-01
3.302000000000000313e+01 6.373799999999999955e+01 4.272800000000000153e+01 -4.059338999999999587e+00 -2.608120980778937392e-01
3.302199999999999847e+01 1.955099999999999838e+01 3.151300000000000168e+01 5.591749000000000080e+00 8.456392851129081178e-02
3.302499999999999858e+01 5.396399999999999864e+01 7.058400000000000318e+01 -3.526102000000000203e+01 -2.585576682943956373e-01
3.302499999999999858e+01 5.548400000000000176e+01 7.058400000000000318e+01 -4.029399000000000086e+01 -2.584132727675720331e-01
3.302600000000000335e+01 5.168299999999999983e+01 6.363199999999999790e+01 -6.891695999999999600e+00 -2.603244538079770853e-01
3.302799999999999869e+01 5.439800000000000324e+01 4.165299999999999869e+01 -7.829227000000000380e+00 -5.109126425492971010e-03
3.302799999999999869e+01 2.866199999999999903e+01 5.543800000000000239e+01 1.111688999999999972e+01 -1.567092547263211899e-01
3.303399999999999892e+01 3.836399999999999721e+01 2.811299999999999955e+01 3.052383999999999986e+00 -1.383005544282034371e-01
3.303499999999999659e+01 4.883200000000000074e+01 5.149900000000000233e+01 8.636151999999999163e+00 -1.953165078302210034e-01
3.304099999999999682e+01 5.257999999999999829e+01 1.687999999999999901e+01 3.354265999999999970e+00 -4.550798565384892025e-02
3.304399999999999693e+01 5.362599999999999767e+01 3.492199999999999704e+01 1.663354999999999961e+01 -1.742731346833240741e-02
3.304500000000000171e+01 4.119200000000000017e+01 1.840500000000000114e+01 5.465665999999999691e+00 -1.331455672772609289e-01
3.304599999999999937e+01 1.810500000000000043e+01 3.483400000000000318e+01 7.864813999999999972e-01 -1.370575815644463694e-02
3.305100000000000193e+01 3.029100000000000037e+01 5.567799999999999727e+01 4.320786999999999822e-01 -1.575654423678490568e-01
3.305700000000000216e+01 5.035399999999999920e+01 6.273199999999999932e+01 -3.272803999999999824e+00 -2.608685310809865654e-01
3.306099999999999994e+01 5.082500000000000284e+01 6.576900000000000546e+01 -2.513650999999999858e+00 -2.599114158055840784e-01
3.306300000000000239e+01 5.121000000000000085e+01 3.996399999999999864e+01 -6.892401000000000222e-01 -9.236064506237130767e-03
3.306300000000000239e+01 3.848799999999999955e+01 2.971300000000000097e+01 3.022682999999999964e+01 -1.404309247489493040e-01
3.306900000000000261e+01 5.898700000000000188e+01 4.692099999999999937e+01 2.662367999999999957e-01 -2.628799704837311846e-01
3.306900000000000261e+01 6.017799999999999727e+01 4.758500000000000085e+01 -5.681721999999999717e+00 -2.622423158534078480e-01
3.307099999999999795e+01 3.382800000000000296e+01 2.746099999999999852e+01 -1.068659000000000070e+01 -1.321106696466327057e-01
3.307099999999999795e+01 4.706099999999999994e+01 2.464000000000000057e+01 -8.686353999999999687e+00 -4.842029212175723296e-02
3.307399999999999807e+01 2.625600000000000023e+01 2.605900000000000105e+01 1.368131999999999948e+01 -3.824524580310241229e-01
3.307500000000000284e+01 5.771999999999999886e+01 4.527199999999999847e+01 -7.560309000000000168e+00 -2.636625592769053505e-01
3.307600000000000051e+01 5.904099999999999682e+01 5.322999999999999687e+01 -1.135987000000000080e+00 -2.619231327482881011e-01
3.307800000000000296e+01 3.333500000000000085e+01 3.141199999999999903e+01 -3.631763999999999992e+00 -3.827331625971329698e-01
3.307800000000000296e+01 3.473499999999999943e+01 3.141199999999999903e+01 -2.471461000000000130e+00 -1.378542490971504664e-01
3.307900000000000063e+01 4.670499999999999829e+01 2.390800000000000125e+01 2.238098000000000098e+01 -4.754250620509516134e-02
3.307900000000000063e+01 3.165700000000000003e+01 5.613100000000000023e+01 -2.050703999999999994e+01 -1.568498824562589711e-01
3.307900000000000063e+01 3.238700000000000045e+01 5.613100000000000023e+01 -2.945810000000000173e+01 -1.561500263657892573e-01
3.307999999999999829e+01 2.987199999999999989e+01 2.815599999999999881e+01 -3.583458999999999950e+00 -3.824101808312264650e-01
3.307999999999999829e+01 4.846500000000000341e+01 4.909400000000000119e+01 -4.504580999999999946e+00 5.186224934667769959e-03
3.307999999999999829e+01 3.988799999999999812e+01 5.073899999999999721e+01 -3.131498999999999810e+00 -1.968909927552452976e-01
3.308100000000000307e+01 4.487100000000000222e+01 3.417600000000000193e+01 -2.002524000000000015e+01 -5.749912711521772135e-02
3.308299999999999841e+01 5.736399999999999721e+01 4.453999999999999915e+01 -1.021668000000000021e+01 -2.639018413994757561e-01
3.308400000000000318e+01 3.741899999999999693e+01 2.333200000000000074e+01 2.003954999999999931e+00 -1.325647558454537689e-01
3.308400000000000318e+01 5.085300000000000153e+01 4.062800000000000011e+01 -1.341755999999999993e+01 -7.998937501228625679e-03
3.308599999999999852e+01 1.685099999999999909e+01 3.567399999999999949e+01 2.593710999999999878e+00 8.270921893022679938e-02
3.308599999999999852e+01 5.470100000000000051e+01 4.235300000000000153e+01 2.615153999999999979e+00 -3.869034876031842048e-03
3.308700000000000330e+01 5.728099999999999881e+01 5.573499999999999943e+01 -9.690103000000000577e+00 -2.615857855495706263e-01
3.308700000000000330e+01 3.271999999999999886e+01 3.139799999999999969e+01 -1.735149000000000052e+00 -3.828123521463967505e-01
3.308700000000000330e+01 5.394299999999999784e+01 2.007300000000000040e+01 4.467475999999999559e+00 -4.797292930514120146e-02
3.308800000000000097e+01 5.258700000000000330e+01 3.903499999999999659e+01 -9.656603000000000270e-01 -1.053843376544582634e-02
3.309199999999999875e+01 3.806099999999999994e+01 2.741300000000000026e+01 1.841004000000000085e+00 -1.371509986766017430e-01
3.309700000000000131e+01 5.125600000000000023e+01 4.184599999999999653e+01 -2.639134999999999920e+01 -5.337228057071584722e-03
3.309700000000000131e+01 5.272800000000000153e+01 4.184599999999999653e+01 -2.554351000000000127e+01 -5.022909404866053758e-03
3.310000000000000142e+01 4.725699999999999790e+01 1.995599999999999952e+01 1.054970999999999925e+01 -4.470408581466651238e-02
3.310099999999999909e+01 3.606600000000000250e+01 5.366499999999999915e+01 9.566881999999999664e+00 -1.968002285359872761e-01
3.310099999999999909e+01 3.693200000000000216e+01 5.366499999999999915e+01 7.673729999999999940e+00 -1.966535909479708299e-01
3.310199999999999676e+01 3.083999999999999986e+01 2.983099999999999952e+01 -1.784147000000000105e+01 -3.826712714128963633e-01
3.310499999999999687e+01 3.699600000000000222e+01 2.742399999999999949e+01 -1.517065000000000019e+01 -1.358898616472138665e-01
3.310600000000000165e+01 5.048499999999999943e+01 2.293599999999999994e+01 -1.311721000000000004e+01 -4.858927142115905540e-02
3.310699999999999932e+01 5.829399999999999693e+01 6.686199999999999477e+01 4.923924999999999663e+00 -2.587244507565037432e-01
3.311099999999999710e+01 4.320700000000000074e+01 5.076599999999999824e+01 -2.174618000000000162e+00 -1.962885061115868801e-01
3.311299999999999955e+01 6.641700000000000159e+01 4.412899999999999778e+01 5.859766999999999726e+00 -2.598875564947807915e-01
3.311299999999999955e+01 6.656900000000000261e+01 4.508700000000000330e+01 -1.812419999999999920e+00 -2.598233746212711415e-01
3.311599999999999966e+01 3.829399999999999693e+01 3.468599999999999994e+01 2.778906000000000098e+00 -5.441950159155323208e-02
3.311599999999999966e+01 3.927499999999999858e+01 3.062900000000000134e+01 1.243523000000000067e+01 -1.425726240067109463e-01
3.312100000000000222e+01 5.903900000000000148e+01 6.142900000000000205e+01 -7.976816000000000351e+00 -2.596941792940415383e-01
3.312199999999999989e+01 1.933699999999999974e+01 4.590599999999999881e+01 -6.286516999999999911e+00 -1.077910873554927679e-02
3.312199999999999989e+01 4.550699999999999790e+01 2.160099999999999909e+01 -1.661242999999999981e+01 -4.492064783026043784e-02
3.312599999999999767e+01 5.581600000000000250e+01 2.791000000000000014e+01 3.359846999999999895e+01 -1.963787948281511125e-02
3.313000000000000256e+01 3.521500000000000341e+01 4.865899999999999892e+01 -2.938622000000000156e+01 -2.654149754923808002e-01
3.313000000000000256e+01 3.521500000000000341e+01 4.952400000000000091e+01 -6.707475000000000520e-01 -1.562615670904528575e-01
3.313000000000000256e+01 5.400800000000000267e+01 4.246800000000000352e+01 1.561525000000000052e+00 -3.727520677566374761e-03
3.313199999999999790e+01 4.133800000000000097e+01 5.771399999999999864e+01 -5.397310000000000230e+01 -1.951464632251305453e-01
3.313199999999999790e+01 3.484400000000000119e+01 2.754700000000000060e+01 -2.176945999999999870e+01 -1.334429194589141499e-01
3.313400000000000034e+01 3.974900000000000233e+01 3.359300000000000352e+01 3.957844999999999835e+00 -5.393814405641774584e-02
3.313799999999999812e+01 5.792799999999999727e+01 5.361099999999999710e+01 1.774277000000000015e+01 -2.621158047461563667e-01
3.314300000000000068e+01 4.690599999999999881e+01 4.383500000000000085e+01 1.263058000000000014e+01 -2.359511785742709512e-03
3.314300000000000068e+01 1.825400000000000134e+01 4.361899999999999977e+01 -7.940252000000000088e+00 -1.292234228132571085e-02
3.314500000000000313e+01 5.459700000000000131e+01 2.568400000000000105e+01 -8.745046000000000319e+00 -5.239970711600916431e-02
3.314600000000000080e+01 2.638599999999999923e+01 5.388799999999999812e+01 -1.513842999999999961e+01 -2.505528462296658931e-01
3.315200000000000102e+01 3.716100000000000136e+01 3.392699999999999960e+01 2.388673000000000002e+01 -5.255467071437165683e-02
3.315200000000000102e+01 2.773400000000000176e+01 3.203699999999999903e+01 1.101534999999999975e+01 -3.836540627139378712e-01
3.315299999999999869e+01 6.516299999999999670e+01 4.328900000000000148e+01 -2.216174000000000088e+00 -2.603227595098022151e-01
3.315299999999999869e+01 4.856900000000000261e+01 7.165699999999999648e+01 -5.137557000000000151e+00 -2.590340480879987917e-01
3.315299999999999869e+01 5.813700000000000045e+01 6.030199999999999960e+01 1.887163999999999930e+01 -2.601120669420865505e-01
3.315500000000000114e+01 5.156000000000000227e+01 4.254599999999999937e+01 -2.995617000000000019e+01 -3.885093180679435876e-03
3.315500000000000114e+01 5.242499999999999716e+01 4.114600000000000080e+01 -3.301323000000000008e+01 -6.485039746076870157e-03
3.315500000000000114e+01 5.242499999999999716e+01 4.254599999999999937e+01 -1.625493000000000166e+01 -3.750785447981804833e-03
3.315899999999999892e+01 4.601899999999999835e+01 2.055999999999999872e+01 3.682417999999999803e-02 -4.445728854939562380e-02
3.315999999999999659e+01 5.157999999999999829e+01 4.096200000000000330e+01 -1.648096999999999923e+01 -7.091590767411171115e-03
3.316400000000000148e+01 1.584699999999999953e+01 3.822500000000000142e+01 1.383389999999999898e+00 -1.651793628253263660e-02
3.316400000000000148e+01 1.607799999999999940e+01 3.740999999999999659e+01 1.379316000000000031e+01 -1.624166574583055245e-02
3.316400000000000148e+01 1.607799999999999940e+01 3.903999999999999915e+01 6.296968999999999816e+00 -1.626370283936595662e-02
3.316499999999999915e+01 5.381700000000000017e+01 3.955400000000000205e+01 -2.549299999999999855e+01 -9.137655101557919796e-03
3.316799999999999926e+01 5.991199999999999903e+01 6.396800000000000352e+01 -1.604560999999999993e+01 -2.590773870280012048e-01
3.317399999999999949e+01 5.876299999999999812e+01 2.144399999999999906e+01 6.038808000000000398e+00 -5.047192482413824510e-02
3.318399999999999750e+01 3.861599999999999966e+01 2.008399999999999963e+01 -1.870799000000000101e+00 -1.317240686685148543e-01
3.318500000000000227e+01 5.493399999999999750e+01 4.293299999999999983e+01 -1.752849000000000101e+00 -2.919787356725953541e-03
3.318800000000000239e+01 3.148199999999999932e+01 3.121499999999999986e+01 -1.160543000000000013e+01 -3.829395272805171113e-01
3.318999999999999773e+01 4.637599999999999767e+01 6.144200000000000017e+01 2.170173000000000130e+00 -1.942468747974266940e-01
3.319200000000000017e+01 3.311099999999999710e+01 5.552400000000000091e+01 6.002373000000000403e+00 -1.557161058875033144e-01
3.319200000000000017e+01 5.467300000000000182e+01 2.329599999999999937e+01 -1.977544999999999931e+01 -5.052384175613873485e-02
3.319299999999999784e+01 4.892999999999999972e+01 4.107200000000000273e+01 -3.566150999999999982e+01 -7.893351627761970718e-03
3.319500000000000028e+01 2.733200000000000074e+01 5.475600000000000023e+01 1.809418000000000148e+01 -1.565072654458286583e-01
3.319899999999999807e+01 4.395100000000000051e+01 4.175600000000000023e+01 -3.184957999999999956e+01 -9.262962416905804602e-03
3.319899999999999807e+01 4.535099999999999909e+01 4.175600000000000023e+01 -1.089199999999999946e+00 -8.272020022587131538e-03
3.320000000000000284e+01 2.423499999999999943e+01 5.098400000000000176e+01 -4.852498999999999896e+00 -2.522802519255575859e-01
3.320000000000000284e+01 3.627100000000000080e+01 3.161700000000000088e+01 -5.597575000000000189e-01 -1.401597225375341704e-01
3.320400000000000063e+01 4.197999999999999687e+01 6.051500000000000057e+01 1.154804000000000030e+01 -1.947293591594076168e-01
3.320700000000000074e+01 5.444500000000000028e+01 3.372599999999999909e+01 8.907473000000000241e+01 -1.876091745008648740e-02
3.321099999999999852e+01 1.732199999999999918e+01 3.989800000000000324e+01 4.005371999999999844e+01 -1.468919609628126580e-02
3.321099999999999852e+01 4.568800000000000239e+01 3.435300000000000153e+01 -1.442146999999999935e+01 -5.795221022725257493e-02
3.321200000000000330e+01 4.414600000000000080e+01 3.671699999999999875e+01 -1.942687000000000097e+01 -2.153412164024587697e-02
3.321600000000000108e+01 6.024499999999999744e+01 6.639100000000000534e+01 -1.680506000000000055e+00 -2.586498024714221633e-01
3.321600000000000108e+01 6.129500000000000171e+01 6.469100000000000250e+01 2.062717999999999829e+00 -2.588265593695427969e-01
3.321600000000000108e+01 6.129500000000000171e+01 6.639100000000000534e+01 1.219444000000000017e+01 -2.585633012917376572e-01
3.321800000000000352e+01 5.052400000000000091e+01 2.153000000000000114e+01 -5.024524999999999686e-01 -4.753268100549166292e-02
3.321800000000000352e+01 5.052400000000000091e+01 2.239499999999999957e+01 -9.087548999999999211e+00 -4.819546995375501020e-02
3.321800000000000352e+01 5.738799999999999812e+01 2.052299999999999969e+01 9.247313999999999368e+00 -4.950504119979044770e-02
3.321800000000000352e+01 5.738799999999999812e+01 2.341499999999999915e+01 1.909508999999999901e+01 -5.141225418808834796e-02
3.321800000000000352e+01 5.499300000000000210e+01 2.044099999999999895e+01 -7.383620999999999768e+00 -4.863755020147163266e-02
3.322599999999999909e+01 6.198400000000000176e+01 6.029299999999999926e+01 3.586509000000000214e+01 -2.595724190254455888e-01
3.322699999999999676e+01 6.256499999999999773e+01 5.212500000000000000e+01 2.067077999999999971e+00 -2.610459475560424347e-01
3.322999999999999687e+01 5.415299999999999869e+01 4.032900000000000063e+01 -7.173086000000000695e+01 -7.651327393237218263e-03
3.322999999999999687e+01 2.435900000000000176e+01 5.005299999999999727e+01 -4.480815999999999910e+00 -1.710439619281315477e-03
3.323599999999999710e+01 4.924300000000000210e+01 2.505399999999999849e+01 -1.001834999999999987e+01 -4.991003217910305184e-02
3.323599999999999710e+01 4.292699999999999960e+01 4.258299999999999841e+01 -3.608827000000000140e+01 -7.911778423579719430e-03
3.324199999999999733e+01 5.751899999999999835e+01 5.651800000000000068e+01 -6.514679000000000109e+00 -2.613204897209499000e-01
3.324499999999999744e+01 1.993400000000000105e+01 3.197700000000000031e+01 2.686757000000000062e+00 -1.069599817844387249e-02
3.324799999999999756e+01 4.335499999999999687e+01 6.143599999999999994e+01 -9.919014000000000664e+00 -1.945098904933677264e-01
3.324799999999999756e+01 6.479800000000000182e+01 6.021099999999999852e+01 3.153078000000000003e+01 -2.592759675253671348e-01
3.324900000000000233e+01 3.467399999999999949e+01 2.443599999999999994e+01 2.562842999999999982e+00 -1.305662728953382312e-01
3.325099999999999767e+01 2.492599999999999838e+01 5.344200000000000017e+01 -1.647019999999999840e+01 -2.509581250353901671e-01
3.325300000000000011e+01 6.197299999999999898e+01 5.851500000000000057e+01 5.186929000000000123e+00 -2.599642124663418263e-01
3.325399999999999778e+01 2.151599999999999824e+01 4.738900000000000290e+01 -3.458930000000000060e+00 -6.866799222714198465e-03
3.325600000000000023e+01 4.693099999999999739e+01 3.757300000000000040e+01 -1.410816999999999943e+01 -1.711434775690314977e-02
3.325800000000000267e+01 6.531999999999999318e+01 5.058200000000000074e+01 -1.878670999999999935e+01 -2.601436821302368085e-01
3.326100000000000279e+01 4.689200000000000301e+01 5.195199999999999818e+01 2.428586999999999829e+00 -1.954873750898007967e-01
3.326299999999999812e+01 4.006300000000000239e+01 3.403699999999999903e+01 2.238790999999999976e+00 -5.469600956125777319e-02
3.326299999999999812e+01 3.954200000000000159e+01 1.914099999999999824e+01 5.973496000000000361e-01 -1.321360091763985334e-01
