1.006400000000000006e+01 2.423400000000000176e+01 1.216799999999999926e+01 1.470765000000000100e+00 -1.328617855307863693e-01
1.006499999999999950e+01 2.547899999999999920e+01 3.329500000000000171e+01 -1.433521000000000001e+01 -1.744812930217419511e-01
1.006900000000000084e+01 1.870499999999999829e+01 3.752199999999999847e+01 -1.839965999999999990e+00 -1.750084803781702947e-01
1.006900000000000084e+01 2.040500000000000114e+01 3.752199999999999847e+01 9.710898999999999504e+00 -1.755202814180371607e-01
1.007000000000000028e+01 1.543800000000000061e+01 6.944600000000000328e+00 1.995646000000000087e-01 -1.164478066692264530e-01
1.008099999999999952e+01 3.581499999999999773e+01 2.928900000000000148e+01 2.824394999999999989e+00 -2.182411728328686740e-01
1.008799999999999919e+01 2.231400000000000006e+01 3.382200000000000273e+01 -2.961723999999999890e+01 -1.754503083803688190e-01
1.009699999999999953e+01 1.929500000000000171e+01 1.123399999999999999e+01 1.410664000000000051e+01 -7.593817670051648816e-02
1.010100000000000087e+01 2.434600000000000009e+01 3.253600000000000136e+01 -2.264318000000000097e+01 -1.749373146831964543e-01
1.010200000000000031e+01 4.055199999999999960e+01 2.314699999999999847e+01 9.094578000000000273e+00 -8.596393148687464514e-02
1.010599999999999987e+01 3.900800000000000267e+01 1.806400000000000006e+01 2.523499999999999943e+01 -8.880910203076972098e-02
1.010800000000000054e+01 4.235799999999999699e+01 2.314499999999999957e+01 1.569692000000000087e+00 -8.675018844452249411e-02
1.011100000000000065e+01 3.588600000000000279e+01 1.791499999999999915e+01 9.447974000000000316e+00 -1.736574790223106568e-01
1.011800000000000033e+01 3.275200000000000244e+01 1.577800000000000047e+01 1.109498999999999924e+01 -6.734030645928260062e-02
1.012299999999999933e+01 3.037399999999999878e+01 3.497200000000000131e+01 7.209797000000000011e-01 -2.164204399822236558e-01
1.012599999999999945e+01 1.282499999999999929e+01 2.830300000000000082e+01 5.920922000000000018e+00 -2.457805345553440435e-01
1.013000000000000078e+01 1.399399999999999977e+01 2.955099999999999838e+01 -4.863637999999999906e+00 -2.464886945981750177e-01
1.013000000000000078e+01 1.399399999999999977e+01 3.041600000000000037e+01 -6.302057999999999716e+00 -2.467291987884029647e-01
1.013299999999999912e+01 2.042699999999999960e+01 9.610599999999999810e+00 1.314026999999999923e+01 -8.521119053958227385e-02
1.013400000000000034e+01 2.606400000000000006e+01 3.396600000000000108e+01 -4.830988999999999756e+00 -1.743445193988636399e-01
1.013599999999999923e+01 1.018900000000000006e+01 2.692599999999999838e+01 -2.630441999999999947e+00 -2.447391800735813361e-01
1.014199999999999946e+01 1.431900000000000084e+01 3.651100000000000279e+01 2.135068999999999995e-01 -1.735683903482987678e-01
1.014899999999999913e+01 1.263000000000000078e+01 2.140099999999999980e+01 4.377085000000000115e+00 -2.420386429337360867e-01
1.014899999999999913e+01 1.263000000000000078e+01 2.226599999999999824e+01 -4.523674999999999891e+00 -2.426716588885017845e-01
1.016300000000000026e+01 3.495799999999999841e+01 2.254700000000000060e+01 -2.240562000000000165e+00 -1.737946622298509047e-01
1.016300000000000026e+01 3.582300000000000040e+01 2.254700000000000060e+01 8.489501000000000408e-01 -1.756818643092152021e-01
1.016300000000000026e+01 3.897699999999999676e+01 2.254700000000000060e+01 -8.207713999999999288e+00 -8.524686576369261415e-02
1.016300000000000026e+01 3.984199999999999875e+01 2.254700000000000060e+01 4.169512000000000107e+00 -8.574185609241435913e-02
1.017300000000000004e+01 1.342800000000000082e+01 1.168200000000000038e+01 -2.000500000000000056e-01 -9.532313249996957061e-02
1.017600000000000016e+01 3.648599999999999710e+01 2.593199999999999861e+01 6.171432000000000251e+00 -8.376200136707998012e-02
1.017900000000000027e+01 1.021799999999999997e+01 2.358299999999999841e+01 -4.133464000000000027e+00 -2.432447954660207079e-01
1.018800000000000061e+01 3.391700000000000159e+01 3.217699999999999960e+01 -3.548239000000000232e+01 -2.175533747733167100e-01
1.019299999999999962e+01 1.179400000000000048e+01 1.479800000000000004e+01 1.413847999999999994e+00 -9.089711220988742901e-02
1.020100000000000051e+01 1.208900000000000041e+01 3.403000000000000114e+01 -8.085686000000000817e+00 -2.470844898748975615e-01
1.021000000000000085e+01 3.739999999999999858e+01 2.314900000000000091e+01 -3.966953000000000173e+01 -8.415855522444237735e-02
1.021199999999999974e+01 1.305100000000000016e+01 3.605599999999999739e+01 7.206603999999999566e+00 -1.731804728732924403e-01
1.021499999999999986e+01 1.149799999999999933e+01 2.809299999999999997e+01 6.463162999999999769e+00 -2.454664921450530335e-01
1.021599999999999930e+01 2.111400000000000077e+01 1.293900000000000006e+01 8.523232000000000141e+00 -5.117040754833866723e-02
1.021700000000000053e+01 3.253900000000000148e+01 1.497000000000000064e+01 3.683957999999999955e-01 7.757152690314036980e-02
1.022100000000000009e+01 3.465400000000000347e+01 2.324699999999999989e+01 2.222235999999999834e+01 -1.735064332841394497e-01
1.022199999999999953e+01 3.228600000000000136e+01 3.368699999999999761e+01 -2.320843999999999951e+01 -2.170424233215274834e-01
1.022199999999999953e+01 3.357900000000000063e+01 3.296600000000000108e+01 -8.413876999999999384e+01 -2.174295681572090133e-01
1.023000000000000043e+01 3.516799999999999926e+01 1.777199999999999847e+01 1.216336000000000084e+01 -1.697978559454831893e-01
1.023099999999999987e+01 1.824699999999999989e+01 5.832799999999999763e+00 2.426299000000000206e+00 -1.333655577964074079e-01
1.026099999999999923e+01 1.717699999999999960e+01 3.747999999999999687e+01 -5.492289000000000243e+01 -1.746301150717555206e-01
1.026600000000000001e+01 3.215500000000000114e+01 1.406499999999999950e+01 -3.476029000000000035e+00 8.067920807268681715e-02
1.026900000000000013e+01 4.093900000000000006e+01 2.389099999999999824e+01 3.080932999999999922e+00 -8.574850879572194773e-02
1.026900000000000013e+01 4.198899999999999721e+01 2.389099999999999824e+01 1.196044999999999980e+01 -8.619349027501313487e-02
1.027200000000000024e+01 1.138499999999999979e+01 1.378700000000000081e+01 -2.203714000000000173e+00 -9.345282833131043909e-02
1.027399999999999913e+01 3.086599999999999966e+01 1.318500000000000050e+01 -2.522206000000000170e-01 7.189935557906346197e-02
1.027699999999999925e+01 2.050000000000000000e+01 5.329600000000000115e+00 -4.425472000000000072e+00 -1.590361164667773164e-01
1.029199999999999982e+01 3.113400000000000034e+01 3.403199999999999648e+01 -1.458356000000000030e+01 -2.167866097724538699e-01
1.029400000000000048e+01 1.188799999999999990e+01 1.309900000000000020e+01 -1.729638999999999927e+00 -9.406879358907559163e-02
1.029800000000000004e+01 3.345499999999999829e+01 1.713200000000000145e+01 7.208531999999999584e+01 -4.273653049167680518e-02
1.029800000000000004e+01 3.464600000000000080e+01 1.779599999999999937e+01 1.502328999999999937e+01 -1.671579233016072807e-01
1.029899999999999949e+01 3.956000000000000227e+01 1.803800000000000026e+01 6.757463999999999693e+00 -8.886414587209071070e-02
1.030599999999999916e+01 1.141699999999999982e+01 1.670799999999999841e+01 9.468370999999999427e+00 -8.887438316162540874e-02
1.031700000000000017e+01 3.535099999999999909e+01 2.480499999999999972e+01 6.982680000000000575e+01 -2.188563796049359245e-01
1.031799999999999962e+01 1.447000000000000064e+01 8.757999999999999119e+00 -1.893965999999999994e+01 -1.059867694339180905e-01
1.033099999999999952e+01 3.181899999999999906e+01 1.328999999999999915e+01 4.381684000000000134e-01 7.845979723877426204e-02
1.034399999999999942e+01 1.155400000000000027e+01 1.577299999999999969e+01 3.738850999999999924e+00 -8.977978844103060019e-02
1.034600000000000009e+01 1.261100000000000065e+01 3.529099999999999682e+01 -8.231666999999999845e+00 -1.729724391855619325e-01
1.035599999999999987e+01 2.939699999999999847e+01 1.267699999999999960e+01 -2.694270999999999749e-01 -2.338367563223712753e-01
1.035599999999999987e+01 1.218500000000000050e+01 3.289099999999999824e+01 -6.914660999999999724e+00 -2.469750559380224642e-01
1.036200000000000010e+01 2.837199999999999989e+01 1.236899999999999977e+01 -2.481469000000000147e+00 -2.355915404976287042e-01
1.036999999999999922e+01 3.529800000000000182e+01 2.390399999999999991e+01 3.643742000000000303e+01 -2.189472051353372195e-01
1.037299999999999933e+01 3.474900000000000233e+01 2.969999999999999929e+01 -1.398522999999999961e+00 -2.182962733892921392e-01
1.037500000000000000e+01 2.707100000000000151e+01 3.507900000000000063e+01 -3.466683999999999877e+00 -1.742432870556235858e-01
1.038100000000000023e+01 1.414100000000000001e+01 9.518000000000000682e+00 -1.118688000000000038e+01 -1.025759509084463728e-01
1.039199999999999946e+01 1.553100000000000058e+01 3.734000000000000341e+01 -2.733215999999999823e+01 -1.741912114696725911e-01
1.039700000000000024e+01 1.356099999999999994e+01 2.885099999999999909e+01 -7.635275999999999869e-03 -2.463419068949864454e-01
1.039799999999999969e+01 2.271600000000000108e+01 1.292200000000000060e+01 -6.425434000000000090e+00 -1.338219495328130670e-01
1.040499999999999936e+01 2.839300000000000068e+01 3.611599999999999966e+01 1.046737000000000029e+00 -1.738690420221402078e-01
1.040700000000000003e+01 3.685999999999999943e+01 2.871300000000000097e+01 7.751829999999999998e+00 -1.264763569800336773e-01
1.040900000000000070e+01 2.118599999999999994e+01 9.482300000000000395e+00 4.777121000000000173e+00 -8.082670937435978975e-02
1.041300000000000026e+01 4.327700000000000102e+01 2.176000000000000156e+01 -1.709769999999999968e+01 -8.744955888886910000e-02
1.041399999999999970e+01 1.560399999999999920e+01 7.900599999999999845e+00 -6.099307999999999730e+00 -1.106389633344011109e-01
1.042600000000000016e+01 3.640899999999999892e+01 2.918400000000000105e+01 8.668248000000000175e+00 -1.263929437642165865e-01
1.042699999999999960e+01 2.271000000000000085e+01 6.571299999999999919e+00 -1.185003999999999946e+00 -1.736445503283783331e-01
1.042999999999999972e+01 3.539000000000000057e+01 2.324699999999999989e+01 1.807453999999999894e+01 -1.751184184423706935e-01
1.043099999999999916e+01 3.444500000000000028e+01 3.039999999999999858e+01 -2.854756000000000071e+00 -2.181914855414709697e-01
1.043900000000000006e+01 1.383699999999999974e+01 1.021799999999999997e+01 -5.038179000000000407e+00 -9.987791710159460434e-02
1.043999999999999950e+01 2.182300000000000040e+01 9.239000000000000767e+00 6.546573999999999671e+00 -8.004662638257441232e-02
1.044500000000000028e+01 1.034399999999999942e+01 1.215799999999999947e+01 -7.484503000000000128e+00 -9.825543377597230343e-02
1.044599999999999973e+01 2.982000000000000028e+01 3.583400000000000318e+01 2.255933000000000188e+00 -2.165128300454342569e-01
1.044699999999999918e+01 3.318500000000000227e+01 1.673199999999999932e+01 1.353889000000000031e+01 -4.165692840100908290e-02
1.044800000000000040e+01 1.235999999999999943e+01 1.265700000000000003e+01 6.214201000000000086e+00 -9.425576116040702834e-02
1.046899999999999942e+01 2.030499999999999972e+01 1.249000000000000021e+01 5.368553000000000353e+00 -5.974058230249391921e-02
1.046899999999999942e+01 9.748300000000000409e+00 2.434299999999999997e+01 -5.189408000000000243e+00 -2.437920476513701362e-01
1.046899999999999942e+01 9.748300000000000409e+00 2.528300000000000125e+01 -1.398156999999999961e+01 -2.442186445003108053e-01
1.047199999999999953e+01 4.318399999999999750e+01 2.012699999999999889e+01 -2.629951000000000150e+00 -8.837264978126158077e-02
1.047199999999999953e+01 4.341100000000000136e+01 2.092599999999999838e+01 -2.517664999999999864e+01 -8.791189366378793224e-02
1.049200000000000088e+01 3.734000000000000341e+01 1.802700000000000102e+01 1.735041999999999973e+01 -8.596702298235980866e-02
1.049300000000000033e+01 1.747899999999999920e+01 5.899000000000000021e+00 -9.227883999999999531e+00 -1.286759215538725576e-01
1.049799999999999933e+01 2.477899999999999991e+01 3.302700000000000102e+01 -3.911099999999999710e+01 -1.751902554090371544e-01
1.050200000000000067e+01 3.929299999999999926e+01 2.319300000000000139e+01 2.841781999999999808e+00 -8.485392341002409577e-02
1.051999999999999957e+01 2.181400000000000006e+01 1.299699999999999989e+01 -1.844714000000000076e-02 -1.331577320879337445e-01
1.052100000000000080e+01 2.280499999999999972e+01 3.342499999999999716e+01 -3.290561999999999898e+01 -1.757718670432440178e-01
1.052200000000000024e+01 2.192800000000000082e+01 3.558800000000000097e+01 6.556752000000000358e+00 -1.757433575843404816e-01
1.052599999999999980e+01 2.554799999999999827e+01 3.352900000000000347e+01 -1.579078999999999944e+01 -1.749326505147393018e-01
1.053400000000000070e+01 3.663199999999999790e+01 2.311700000000000088e+01 -2.089682000000000173e+01 -8.333790016922913713e-02
1.053400000000000070e+01 3.816799999999999926e+01 2.311700000000000088e+01 -4.259177999999999997e+01 -8.419275135001490218e-02
1.053500000000000014e+01 1.894699999999999918e+01 5.774499999999999744e+00 -3.481043999999999805e+00 -1.379609771486318415e-01
1.053999999999999915e+01 1.393299999999999983e+01 3.085500000000000043e+01 -5.716851000000000127e+00 -2.470812471556915191e-01
1.054100000000000037e+01 1.611100000000000065e+01 6.555200000000000138e+00 -6.772878999999999650e+00 -1.196543933216485112e-01
1.055499999999999972e+01 2.311299999999999955e+01 7.204699999999999882e+00 -6.228570000000000384e+00 -1.544615911845240164e-01
1.055499999999999972e+01 2.311299999999999955e+01 8.255300000000000082e+00 -3.159997999999999863e+00 -1.035099396748075107e-01
1.055599999999999916e+01 4.322299999999999898e+01 2.269500000000000028e+01 1.229033000000000042e+00 -8.685422743412832269e-02
1.056099999999999994e+01 1.583500000000000085e+01 7.377200000000000202e+00 -5.296527000000000207e+00 -1.139411601893877135e-01
1.056300000000000061e+01 1.122899999999999920e+01 1.220400000000000063e+01 -7.332811000000000412e+00 -9.703710056944131468e-02
1.057600000000000051e+01 2.667099999999999937e+01 1.221100000000000030e+01 -1.501756000000000091e+00 -1.893401436299040341e-01
1.057900000000000063e+01 4.046999999999999886e+01 1.816799999999999926e+01 4.855290000000000106e+00 -8.875382551987522073e-02
1.058000000000000007e+01 1.363100000000000023e+01 1.091499999999999915e+01 -3.030104000000000131e+00 -9.739243965198926545e-02
1.058699999999999974e+01 3.158599999999999852e+01 3.384300000000000352e+01 -2.350357999999999947e+01 -2.171842094929199996e-01
1.058799999999999919e+01 1.081799999999999962e+01 1.292600000000000016e+01 -7.302502999999999744e+00 -9.595029584990551197e-02
1.058900000000000041e+01 2.508399999999999963e+01 1.184299999999999997e+01 5.918339999999999712e-01 -1.414395709351933261e-01
1.059399999999999942e+01 1.955499999999999972e+01 3.784700000000000131e+01 -1.422924999999999995e+00 -1.756358386159348195e-01
1.059399999999999942e+01 2.100100000000000122e+01 3.704099999999999682e+01 9.157783999999999480e+00 -1.758243658017411282e-01
1.059600000000000009e+01 3.622999999999999687e+01 2.978000000000000114e+01 2.794499000000000066e+00 -1.263291385097687347e-01
1.059600000000000009e+01 1.513000000000000078e+01 9.448499999999999233e+00 -2.189181999999999917e+01 -1.017838856112318335e-01
1.059800000000000075e+01 1.381799999999999962e+01 3.564900000000000091e+01 -3.106136999999999926e+00 -1.735124058416053494e-01
1.060599999999999987e+01 1.272799999999999976e+01 1.194899999999999984e+01 -1.829183999999999921e+00 -9.547276814955177326e-02
1.060899999999999999e+01 3.718200000000000216e+01 2.632100000000000151e+01 -6.390798000000000201e+00 -1.265780044345708455e-01
1.062199999999999989e+01 2.008599999999999852e+01 1.015900000000000070e+01 8.413824999999999221e+00 -7.919598874447532355e-02
1.062500000000000000e+01 1.069500000000000028e+01 1.374699999999999989e+01 -2.941894000000000009e+00 -9.447056494427572004e-02
1.064000000000000057e+01 3.518099999999999739e+01 3.039999999999999858e+01 -3.826774000000000009e-01 -2.186825641580036894e-01
1.064199999999999946e+01 2.663800000000000168e+01 3.437899999999999778e+01 -4.985711000000000226e+00 -1.746530510167563222e-01
1.064300000000000068e+01 4.007399999999999807e+01 2.366000000000000014e+01 4.525358999999999909e+00 -8.502263625486515541e-02
1.064899999999999913e+01 3.687299999999999756e+01 2.712999999999999901e+01 -4.971916000000000224e+00 -1.264698851184854478e-01
1.065099999999999980e+01 4.286599999999999966e+01 2.359900000000000020e+01 8.838763000000000147e+00 -8.630315981128375280e-02
1.066099999999999959e+01 1.078500000000000014e+01 2.740700000000000003e+01 3.805165999999999826e+00 -2.453690877249103952e-01
1.067099999999999937e+01 1.089000000000000057e+01 2.320200000000000173e+01 -3.187079999999999913e+00 -2.435070639908924195e-01
1.067200000000000060e+01 9.544900000000000162e+00 1.215799999999999947e+01 -3.976786000000000154e+00 -9.900033097803997983e-02
1.067300000000000004e+01 2.214600000000000080e+01 5.786100000000000243e+00 -6.258637999999999701e-01 -1.806291360632312770e-01
1.068200000000000038e+01 1.506099999999999994e+01 3.657999999999999829e+01 -3.517045000000000243e+01 -1.740919273693505853e-01
1.068500000000000050e+01 3.135500000000000043e+01 1.269999999999999929e+01 -1.168118999999999963e-01 6.032238700856742269e-02
1.068599999999999994e+01 3.807000000000000028e+01 1.770599999999999952e+01 7.944954000000000072e+00 -8.669837801177489311e-02
1.069200000000000017e+01 3.304599999999999937e+01 3.339699999999999847e+01 -9.136790000000000589e+01 -2.177122908914825850e-01
1.069599999999999973e+01 1.221199999999999974e+01 2.179899999999999949e+01 -2.919782999999999795e+00 -2.428397725817259545e-01
1.070800000000000018e+01 1.982799999999999940e+01 1.089199999999999946e+01 1.236853999999999942e+01 -7.355640721221451406e-02
1.070899999999999963e+01 1.980000000000000071e+01 5.597000000000000419e+00 2.977491999999999805e+00 -1.467501760252428733e-01
1.071499999999999986e+01 1.192699999999999960e+01 1.195700000000000074e+01 -2.559892000000000056e+00 -9.663749428482412696e-02
1.071700000000000053e+01 3.474499999999999744e+01 3.112099999999999866e+01 -2.636570999999999998e+00 -2.185308855752042256e-01
1.072100000000000009e+01 1.629100000000000037e+01 3.740299999999999869e+01 -4.879518999999999807e+01 -1.746082502296979755e-01
1.072899999999999920e+01 3.695000000000000284e+01 2.808899999999999864e+01 3.840127999999999986e+00 -1.264387979520080196e-01
1.072899999999999920e+01 3.675900000000000034e+01 2.556099999999999994e+01 -6.602529000000000314e-01 -1.264836407644883698e-01
1.073099999999999987e+01 3.394599999999999795e+01 1.752799999999999869e+01 1.815730999999999895e+01 -2.125239715540154783e-01
1.073099999999999987e+01 2.752199999999999847e+01 1.229800000000000004e+01 -1.281432000000000127e-01 -2.182390300248865933e-01
1.073499999999999943e+01 9.874299999999999855e+00 1.139799999999999969e+01 -4.043713000000000335e+00 -1.003013245318623570e-01
1.073499999999999943e+01 9.874299999999999855e+00 1.291799999999999926e+01 -4.225461000000000134e+00 -9.711114946631707601e-02
1.073499999999999943e+01 1.081400000000000006e+01 1.139799999999999969e+01 -4.163134999999999586e+00 -9.942205138042922719e-02
1.073600000000000065e+01 1.987199999999999989e+01 1.178999999999999915e+01 6.863355000000000317e+00 -6.659714655907199299e-02
1.074499999999999922e+01 3.581499999999999773e+01 3.048000000000000043e+01 -1.127805999999999947e-01 -2.189715124519884260e-01
1.074799999999999933e+01 2.130699999999999861e+01 5.470200000000000173e+00 -2.408563000000000009e+00 -1.685348292427201189e-01
1.075000000000000000e+01 4.146399999999999864e+01 2.448699999999999832e+01 1.070292000000000066e+01 -8.541076000027834902e-02
1.075099999999999945e+01 1.188499999999999979e+01 2.245200000000000173e+01 -4.768000999999999934e+00 -2.432751425040181048e-01
1.075300000000000011e+01 1.219100000000000072e+01 2.029200000000000159e+01 1.742304000000000075e+00 -2.417941949444762373e-01
1.075300000000000011e+01 1.240000000000000036e+01 2.102799999999999869e+01 3.982682000000000055e+00 -2.423706765929632412e-01
1.076200000000000045e+01 1.585299999999999976e+01 8.321300000000000807e+00 -5.602754000000000012e+00 -1.077410907254006400e-01
1.076399999999999935e+01 1.457499999999999929e+01 1.021799999999999997e+01 -1.255524999999999913e+01 -9.863737948366889385e-02
1.077200000000000024e+01 2.100499999999999901e+01 1.254800000000000004e+01 2.787532000000000121e+00 -5.214993798964682320e-02
1.077599999999999980e+01 3.270499999999999829e+01 1.455300000000000082e+01 -1.358080999999999960e+01 6.814854808976271439e-02
1.077999999999999936e+01 3.903499999999999659e+01 1.744200000000000017e+01 1.090539000000000058e+01 -8.793790772294443614e-02
1.078400000000000070e+01 3.698700000000000188e+01 2.991499999999999915e+01 5.156231000000000009e+00 -1.264015221638911390e-01
1.078800000000000026e+01 2.237199999999999989e+01 3.412500000000000000e+01 -2.419719999999999871e+01 -1.760488578218355471e-01
1.079199999999999982e+01 2.074200000000000088e+01 1.010299999999999976e+01 5.344437000000000104e+00 -7.393377114256746707e-02
1.079299999999999926e+01 1.337199999999999989e+01 3.163599999999999923e+01 -6.174733999999999945e+00 -2.472525128088645940e-01
1.079499999999999993e+01 2.314900000000000091e+01 1.243099999999999916e+01 1.001495000000000024e+00 -1.302423761968679317e-01
1.079499999999999993e+01 2.907199999999999918e+01 1.263599999999999923e+01 -9.679532999999999887e-02 -2.418584472903663740e-01
1.079599999999999937e+01 3.723199999999999932e+01 2.906899999999999906e+01 1.040239000000000047e+01 -1.264499053642897386e-01
1.080899999999999928e+01 4.170900000000000318e+01 1.917599999999999838e+01 -2.976338000000000150e+00 -8.801766482451819917e-02
1.081000000000000050e+01 3.259400000000000119e+01 1.358600000000000030e+01 -3.163281000000000009e+00 6.653619149466476201e-02
1.081099999999999994e+01 1.159099999999999930e+01 1.886599999999999966e+01 7.843750999999999918e-01 -2.407196452069790271e-01
1.081400000000000006e+01 3.039699999999999847e+01 1.277999999999999936e+01 -2.726363000000000092e+00 4.951382775358258853e-02
1.081799999999999962e+01 3.248499999999999943e+01 1.534500000000000064e+01 -6.638406999999999947e+00 -7.544741088226455950e-02
1.081799999999999962e+01 3.269400000000000261e+01 1.608099999999999952e+01 2.504472999999999949e+00 -7.312899939288117213e-02
1.081900000000000084e+01 1.103800000000000026e+01 1.447400000000000020e+01 2.443445000000000089e+00 -9.255038416929435574e-02
1.083000000000000007e+01 2.484799999999999898e+01 3.347099999999999653e+01 -1.943512000000000128e+01 -1.754787078978898851e-01
1.083000000000000007e+01 1.405199999999999960e+01 2.924699999999999989e+01 -2.826652000000000164e+00 -2.469038484535197586e-01
1.083000000000000007e+01 1.426099999999999923e+01 2.998300000000000054e+01 -1.685011999999999954e+00 -2.471572785182415688e-01
1.085100000000000087e+01 1.575200000000000067e+01 1.007900000000000063e+01 -1.053309999999999924e+01 -9.721987201086015884e-02
1.085699999999999932e+01 2.154200000000000159e+01 3.624099999999999966e+01 6.286951000000000178e+00 -1.760106268231845239e-01
1.088000000000000078e+01 2.258800000000000097e+01 9.105299999999999727e+00 5.487596000000000140e-01 -7.354315606616219914e-02
1.089600000000000080e+01 1.467900000000000027e+01 3.578199999999999648e+01 -2.516376999999999953e+01 -1.739602175024765329e-01
1.090300000000000047e+01 1.143599999999999994e+01 1.762399999999999878e+01 -1.168259999999999993e-01 -2.397975126167012083e-01
1.090300000000000047e+01 4.227000000000000313e+01 2.457900000000000063e+01 2.140146000000000015e+01 -8.560189346328191118e-02
1.091000000000000014e+01 4.321699999999999875e+01 2.452299999999999969e+01 9.466507000000000005e+00 -8.597301690514187744e-02
1.091300000000000026e+01 1.164300000000000068e+01 2.789199999999999946e+01 1.269316000000000111e+00 -2.458942476709492231e-01
1.091600000000000037e+01 2.224599999999999866e+01 1.250600000000000023e+01 -3.726821000000000161e+00 -1.293126806846263410e-01
1.092600000000000016e+01 3.676400000000000290e+01 3.053900000000000148e+01 7.098141000000000034e+00 -1.263408053215773763e-01
1.092900000000000027e+01 2.889099999999999824e+01 3.606300000000000239e+01 2.238500999999999852e+00 -1.741777074162354222e-01
1.092900000000000027e+01 3.033699999999999974e+01 3.525699999999999790e+01 5.351812999999999931e+00 -2.170412665236192695e-01
1.092999999999999972e+01 3.620000000000000284e+01 2.360800000000000054e+01 3.548652000000000140e+00 -1.263465496804809240e-01
1.092999999999999972e+01 3.620000000000000284e+01 2.500799999999999912e+01 7.116036000000000250e+00 -1.262990212638408494e-01
1.092999999999999972e+01 3.706499999999999773e+01 2.360800000000000054e+01 -7.831892999999999994e+00 -1.266266233514569406e-01
1.092999999999999972e+01 3.773499999999999943e+01 2.360800000000000054e+01 -5.409720000000000084e+00 -1.268449153491345571e-01
1.093299999999999983e+01 3.953099999999999881e+01 2.383399999999999963e+01 3.975385000000000169e+00 -8.441492354133336984e-02
1.093800000000000061e+01 1.764199999999999946e+01 3.724600000000000222e+01 -7.004559000000000424e+00 -1.751443449303995981e-01
1.094200000000000017e+01 4.265100000000000335e+01 1.969600000000000151e+01 -3.829797999999999814e+00 -8.786537963456220179e-02
1.096299999999999919e+01 1.671900000000000119e+01 6.189300000000000246e+00 -4.370684999999999931e+00 -1.231877636653769537e-01
1.096499999999999986e+01 4.337500000000000000e+01 2.378999999999999915e+01 1.055777999999999928e+01 -8.618123754020901028e-02
1.096599999999999930e+01 2.320700000000000074e+01 6.553600000000000314e+00 -8.026920000000000499e+00 -1.819939353588300168e-01
1.096700000000000053e+01 1.824699999999999989e+01 6.041900000000000048e+00 -5.300665000000000404e+00 -1.303476603392708377e-01
1.098099999999999987e+01 3.361399999999999721e+01 3.269800000000000040e+01 -6.620484000000000435e+01 -2.182513095059736286e-01
1.098600000000000065e+01 1.025999999999999979e+01 2.655699999999999861e+01 -2.312126000000000126e+00 -2.451712380615174713e-01
1.098600000000000065e+01 3.069399999999999906e+01 3.445400000000000063e+01 1.208132999999999901e+00 -2.172464255807317612e-01
1.098900000000000077e+01 3.589600000000000080e+01 2.430799999999999983e+01 1.773745999999999867e+01 -1.262103896693202998e-01
1.099099999999999966e+01 3.862199999999999989e+01 2.371900000000000119e+01 -1.290911999999999893e-01 -1.270881260859873518e-01
1.099099999999999966e+01 1.282499999999999929e+01 2.830300000000000082e+01 1.074111000000000082e+01 -2.463856193468256239e-01
1.099399999999999977e+01 2.741499999999999915e+01 3.538100000000000023e+01 -1.449932999999999916e+00 -1.747052705315626508e-01
1.099499999999999922e+01 1.338599999999999923e+01 3.515800000000000125e+01 -1.152445999999999948e+01 -1.735166924736026017e-01
1.099600000000000044e+01 1.672700000000000031e+01 9.385699999999999932e+00 -1.873774000000000051e+00 -9.956773878450446424e-02
1.099900000000000055e+01 1.166300000000000026e+01 1.132600000000000051e+01 -3.645052999999999876e+00 -9.856434587913998069e-02
1.100200000000000067e+01 4.365999999999999659e+01 2.298400000000000176e+01 5.054344999999999644e+00 -8.651407340163079496e-02
1.100600000000000023e+01 1.041499999999999915e+01 2.396999999999999886e+01 -5.955257999999999718e+00 -2.441076150059070249e-01
1.100699999999999967e+01 3.220000000000000284e+01 1.274900000000000055e+01 -1.807065999999999950e-01 5.460292391880303825e-02
1.101200000000000045e+01 3.745100000000000051e+01 2.432600000000000051e+01 4.939792000000000072e-01 -1.266534387769859271e-01
1.101299999999999990e+01 1.314000000000000057e+01 1.131199999999999939e+01 -7.959119000000000055e-01 -9.655427124662428751e-02
1.102100000000000080e+01 3.228600000000000136e+01 3.346000000000000085e+01 -7.140400999999999954e+01 -2.178189348953357418e-01
1.102500000000000036e+01 3.988100000000000023e+01 1.742999999999999972e+01 9.908749000000000251e+00 -9.957869083750060801e-02
1.102999999999999936e+01 3.531700000000000017e+01 3.146499999999999986e+01 -8.793961000000000139e-01 -2.189849133460136099e-01
1.103400000000000070e+01 4.371900000000000119e+01 2.201099999999999923e+01 -2.987727000000000022e+00 -8.688638972972821672e-02
1.103400000000000070e+01 4.085199999999999676e+01 2.464699999999999847e+01 8.100400000000000489e+00 -8.487196320829290541e-02
1.104400000000000048e+01 1.113499999999999979e+01 1.533999999999999986e+01 6.229538999999999938e+00 -9.092392528439234567e-02
1.104400000000000048e+01 4.122299999999999898e+01 1.845599999999999952e+01 6.903240000000000265e+00 -9.927006498127861900e-02
1.105000000000000071e+01 2.434600000000000009e+01 3.348499999999999943e+01 -3.846623999999999910e+01 -1.758557625338099117e-01
1.105400000000000027e+01 1.642399999999999949e+01 8.685700000000000642e+00 -1.009932000000000052e+01 -1.047964812299544690e-01
1.105400000000000027e+01 1.642399999999999949e+01 1.008600000000000030e+01 2.369852000000000070e-01 -9.553643628631876272e-02
1.105899999999999928e+01 1.008500000000000085e+01 2.481299999999999883e+01 -1.293674999999999997e+01 -2.444837634331489817e-01
1.107000000000000028e+01 3.634000000000000341e+01 3.132999999999999829e+01 4.127118000000000286e+00 -1.262638267040977480e-01
1.109099999999999930e+01 3.989900000000000091e+01 2.454200000000000159e+01 6.661673999999999651e+00 -8.438418950982437550e-02
1.109399999999999942e+01 1.017500000000000071e+01 2.556700000000000017e+01 -9.707834999999999326e+00 -2.448437147421569371e-01
1.110599999999999987e+01 2.284600000000000009e+01 6.053399999999999892e+00 -6.407051000000000052e+00 -1.881782085691037776e-01
1.110899999999999999e+01 2.145299999999999940e+01 9.914999999999999147e+00 2.298829000000000011e+00 -6.848081346012967197e-02
1.111100000000000065e+01 2.599299999999999855e+01 3.383899999999999864e+01 -7.246646000000000143e+00 -1.753702456838010237e-01
1.111400000000000077e+01 2.593400000000000105e+01 1.216799999999999926e+01 -1.999141000000000112e-01 -1.680537202873068903e-01
1.111500000000000021e+01 3.138400000000000034e+01 3.351700000000000301e+01 -4.475775999999999755e+01 -2.176483162950927919e-01
1.111899999999999977e+01 1.125799999999999912e+01 1.625199999999999889e+01 3.819316000000000155e+00 -8.944364774798178874e-02
1.111899999999999977e+01 1.136999999999999922e+01 1.705799999999999983e+01 -1.396566999999999892e+00 -2.395748418576706396e-01
1.111899999999999977e+01 2.040500000000000114e+01 3.752199999999999847e+01 2.792862999999999829e+01 -1.762348523796841426e-01
1.114000000000000057e+01 3.726899999999999835e+01 2.507900000000000063e+01 -1.106729999999999992e+00 -1.265075789792233507e-01
1.114199999999999946e+01 2.050000000000000000e+01 5.329600000000000115e+00 -4.880493999999999666e+00 -1.564210923521993368e-01
1.114199999999999946e+01 3.509300000000000352e+01 1.789499999999999957e+01 2.675324999999999953e+00 -2.195762502497237700e-01
1.114199999999999946e+01 3.664399999999999835e+01 1.833599999999999852e+01 2.055443999999999960e+01 -1.273086054251051924e-01
1.114499999999999957e+01 2.712699999999999889e+01 3.476800000000000068e+01 -4.836662999999999712e+00 -1.749699883995262661e-01
1.114899999999999913e+01 3.818500000000000227e+01 1.751300000000000168e+01 1.121837000000000018e+01 -8.567854184944616314e-02
1.115199999999999925e+01 1.582099999999999973e+01 3.686999999999999744e+01 -3.191819999999999879e+01 -1.746346405535472435e-01
1.116099999999999959e+01 1.414199999999999946e+01 1.070899999999999963e+01 -1.882665000000000033e+00 -9.699497911409152295e-02
1.116600000000000037e+01 2.147400000000000020e+01 1.244699999999999918e+01 -2.589901999999999926e+00 -4.679750452668723221e-02
1.116600000000000037e+01 1.034399999999999942e+01 1.086500000000000021e+01 -4.154601999999999684e+00 -1.009998770023665671e-01
1.116900000000000048e+01 2.057199999999999918e+01 1.205700000000000038e+01 1.176928999999999892e+00 -5.802072612514472955e-02
1.117099999999999937e+01 3.765299999999999869e+01 2.692000000000000171e+01 -9.784553000000000722e+00 -1.265040301130461453e-01
1.117800000000000082e+01 4.078300000000000125e+01 1.769099999999999895e+01 3.922861999999999849e+00 -9.928049913178589592e-02
1.119800000000000040e+01 3.663199999999999790e+01 2.430799999999999983e+01 3.413114999999999899e+00 -1.263451276526046940e-01
1.119899999999999984e+01 3.751899999999999835e+01 2.585099999999999909e+01 -2.484065999999999885e+00 -1.265127801977320166e-01
1.120500000000000007e+01 9.114300000000000068e+00 1.168800000000000061e+01 -4.138524999999999565e+00 -1.001670283719506560e-01
1.120500000000000007e+01 9.114300000000000068e+00 1.262800000000000011e+01 -4.163170000000000037e+00 -9.834061172075590773e-02
1.121100000000000030e+01 3.082999999999999829e+01 1.228899999999999970e+01 -7.892441999999999513e-01 3.578247806061465169e-02
1.121100000000000030e+01 3.187999999999999901e+01 1.228899999999999970e+01 -1.807065999999999950e-01 4.132745437650357789e-02
1.121100000000000030e+01 1.269599999999999973e+01 3.235999999999999943e+01 -5.113576000000000121e+00 -2.474497036675974704e-01
1.122100000000000009e+01 2.307199999999999918e+01 3.385799999999999699e+01 -1.688418000000000063e+01 -1.763199548745496004e-01
1.122300000000000075e+01 2.238400000000000034e+01 3.500399999999999778e+01 -6.598911000000000193e+00 -1.763046158909753747e-01
1.122700000000000031e+01 2.026899999999999835e+01 1.135699999999999932e+01 4.698798000000000030e+00 -6.513423961413303265e-02
1.123099999999999987e+01 1.688700000000000045e+01 3.708700000000000330e+01 -3.191796000000000078e+01 -1.750496965669018912e-01
1.123199999999999932e+01 4.312100000000000222e+01 2.045599999999999952e+01 -3.728435999999999950e+01 -8.720194695630967274e-02
1.123399999999999999e+01 2.423100000000000165e+01 1.199499999999999922e+01 -7.368792999999999871e-02 -1.327236158905575336e-01
1.123499999999999943e+01 1.231600000000000072e+01 3.324699999999999989e+01 -4.786726999999999954e+00 -2.475152233823300629e-01
1.123700000000000010e+01 1.201099999999999923e+01 1.936599999999999966e+01 4.042875999999999692e+00 -2.415965385095855122e-01
1.123700000000000010e+01 1.222000000000000064e+01 2.010300000000000153e+01 2.027852999999999906e+00 -2.421860752810542083e-01
1.124000000000000021e+01 4.347699999999999676e+01 2.118799999999999883e+01 -1.965108000000000033e+01 -8.695907399284906469e-02
1.124000000000000021e+01 1.399099999999999966e+01 3.115800000000000125e+01 -5.061156000000000432e+00 -2.475988094021365493e-01
1.124000000000000021e+01 1.419999999999999929e+01 3.042200000000000060e+01 -4.701480000000000103e+00 -2.475129640672165399e-01
1.124099999999999966e+01 3.772800000000000153e+01 2.844999999999999929e+01 8.673683000000000476e+00 -1.264544032723578793e-01
1.124900000000000055e+01 3.774000000000000199e+01 2.962699999999999889e+01 5.808422000000000196e+00 -1.264307716445827734e-01
1.125300000000000011e+01 1.624899999999999878e+01 6.949300000000000033e+00 -8.400430999999999315e+00 -1.165485735136641693e-01
1.125300000000000011e+01 1.624899999999999878e+01 7.888700000000000045e+00 -1.198498000000000019e+01 -1.101441700003321922e-01
1.126299999999999990e+01 1.356099999999999994e+01 2.885099999999999909e+01 4.192451999999999845e-01 -2.469532113091693348e-01
1.126699999999999946e+01 2.922200000000000131e+01 1.271700000000000053e+01 -3.752969999999999917e-01 -1.144519733372530990e-01
1.127200000000000024e+01 1.493999999999999950e+01 1.070899999999999963e+01 -1.745087000000000055e+00 -9.542624152820385064e-02
1.127299999999999969e+01 4.410000000000000142e+01 2.446399999999999864e+01 3.053574999999999928e+00 -8.603796685125200683e-02
1.127599999999999980e+01 2.205399999999999849e+01 3.581099999999999994e+01 -3.180753000000000164e+00 -1.762956849249576741e-01
1.128999999999999915e+01 2.355399999999999849e+01 6.793800000000000061e+00 -8.026920000000000499e+00 -1.739823736799941123e-01
1.129199999999999982e+01 1.747899999999999920e+01 6.126000000000000334e+00 -7.506141000000000396e+00 -1.257013653317722024e-01
1.130000000000000071e+01 3.742399999999999949e+01 2.775000000000000000e+01 -2.146723000000000159e+00 -1.264028607467672927e-01
1.131000000000000050e+01 3.443999999999999773e+01 3.194200000000000017e+01 -1.418008999999999986e+01 -2.189756163336147865e-01
1.131099999999999994e+01 1.129400000000000048e+01 2.285900000000000176e+01 -2.926165000000000127e+00 -2.439341833968445283e-01
1.131600000000000072e+01 1.243999999999999950e+01 1.136999999999999922e+01 -2.397237000000000062e+00 -9.728530211447504461e-02
1.131799999999999962e+01 1.264000000000000057e+01 3.432800000000000296e+01 -5.798854999999999649e+00 -1.733149025866562165e-01
1.132199999999999918e+01 4.187100000000000222e+01 2.507900000000000063e+01 7.068217999999999890e+00 -8.502827309164880110e-02
1.132399999999999984e+01 1.415600000000000058e+01 3.520499999999999829e+01 -2.049893000000000143e+01 -1.739459985656876539e-01
1.132399999999999984e+01 1.237700000000000067e+01 2.817200000000000060e+01 4.984765000000000335e+00 -2.464549313587506008e-01
1.132499999999999929e+01 2.827799999999999869e+01 1.251900000000000013e+01 2.795961000000000141e+00 -2.381672685531327771e-01
1.133699999999999974e+01 1.845299999999999940e+01 3.754099999999999682e+01 -1.670505999999999958e+01 -1.756815058381257788e-01
1.134099999999999930e+01 1.974899999999999878e+01 2.499099999999999966e+01 -2.516223000000000209e-01 -2.485853017305256762e-01
1.134399999999999942e+01 4.268099999999999739e+01 2.531400000000000006e+01 7.797499000000000180e+00 -8.530488328731355985e-02
1.134399999999999942e+01 4.373100000000000165e+01 2.531400000000000006e+01 5.455062999999999995e+00 -8.568811473758594643e-02
1.134699999999999953e+01 2.271600000000000108e+01 1.197300000000000075e+01 1.150282000000000027e+00 -1.248971653228468232e-01
1.135399999999999920e+01 1.039000000000000057e+01 1.415799999999999947e+01 -2.637652000000000108e+00 -9.394646565378758640e-02
1.137400000000000055e+01 4.215999999999999659e+01 1.930000000000000071e+01 -6.218939999999999912e+00 -8.726304196126910551e-02
1.139700000000000024e+01 1.071799999999999997e+01 1.497899999999999920e+01 -2.906476000000000059e-01 -9.207944658294406337e-02
1.139899999999999913e+01 2.237099999999999866e+01 5.285899999999999821e+00 -3.396422999999999970e+00 -1.887700674835031400e-01
1.140099999999999980e+01 3.753300000000000125e+01 3.027799999999999869e+01 4.477914000000000172e+00 -1.263654462236760145e-01
1.140499999999999936e+01 2.318400000000000105e+01 8.623699999999999477e+00 -4.124678000000000289e+00 -8.064567559636001692e-02
1.140499999999999936e+01 2.343799999999999883e+01 7.730000000000000426e+00 -5.410446000000000311e+00 -1.217654125761910289e-01
1.141099999999999959e+01 1.596400000000000041e+01 1.071199999999999974e+01 1.421246000000000009e+01 -9.289353220993952498e-02
1.141600000000000037e+01 1.109999999999999964e+01 2.742899999999999849e+01 9.051401999999999504e+00 -2.459518168107961422e-01
1.142500000000000071e+01 1.092699999999999960e+01 2.353999999999999915e+01 -2.902519999999999989e+00 -2.443240641748176678e-01
1.143900000000000006e+01 3.853099999999999881e+01 2.841100000000000136e+01 9.401818999999999704e+00 -1.265520652897371146e-01
1.144200000000000017e+01 1.065900000000000070e+01 2.433200000000000074e+01 -5.658771999999999913e+00 -2.446643101201564363e-01
1.144500000000000028e+01 1.980000000000000071e+01 5.387900000000000134e+00 -7.300089999999999968e+00 -1.466830613093478841e-01
1.145199999999999996e+01 3.275600000000000023e+01 3.292699999999999960e+01 -5.002647000000000332e+01 -2.184577091202337673e-01
1.145299999999999940e+01 1.213199999999999967e+01 2.059499999999999886e+01 2.965305999999999997e+00 -2.427815383371330071e-01
1.145299999999999940e+01 1.213199999999999967e+01 2.146099999999999852e+01 1.031835999999999975e+00 -2.433761143697593388e-01
1.145400000000000063e+01 2.804100000000000037e+01 3.573799999999999955e+01 8.175959000000000421e-01 -1.749174270187861813e-01
1.145400000000000063e+01 2.974099999999999966e+01 3.573799999999999955e+01 5.562755000000000116e+00 -2.172522017347431889e-01
1.145700000000000074e+01 2.360300000000000153e+01 6.121000000000000441e+00 -2.422847000000000151e+01 -2.011884296743787215e-01
1.148000000000000043e+01 2.098799999999999955e+01 3.683700000000000330e+01 2.169264000000000081e+00 -1.764918874303764151e-01
1.148300000000000054e+01 2.508399999999999963e+01 1.209699999999999953e+01 -4.964323999999999959e-01 -1.476490800707785378e-01
1.148399999999999999e+01 2.364600000000000080e+01 3.386800000000000210e+01 -1.915274000000000143e+01 -1.764248454768204133e-01
1.148700000000000010e+01 1.712399999999999878e+01 9.818300000000000693e+00 -5.774884000000000128e+00 -9.510484864897054968e-02
1.148799999999999955e+01 1.955499999999999972e+01 3.759300000000000352e+01 -1.646212999999999838e+01 -1.761618890632709600e-01
1.149000000000000021e+01 4.422599999999999909e+01 2.344900000000000162e+01 8.612607000000000568e+00 -8.618223737657355887e-02
1.149499999999999922e+01 9.583999999999999631e+00 1.092800000000000082e+01 -4.237476000000000020e+00 -1.013212722762900919e-01
1.149499999999999922e+01 1.110399999999999920e+01 1.092800000000000082e+01 -4.412185000000000024e+00 -1.000378417446572132e-01
1.150799999999999912e+01 3.115700000000000003e+01 3.289600000000000080e+01 -3.590843999999999880e+01 -2.180407420732820012e-01
1.150900000000000034e+01 3.815999999999999659e+01 2.775000000000000000e+01 -4.655606999999999940e-01 -1.264925215910010226e-01
1.151099999999999923e+01 2.214399999999999835e+01 9.667600000000000193e+00 -1.871100999999999903e+00 -6.309066174794281112e-02
1.151099999999999923e+01 1.888700000000000045e+01 5.846099999999999852e+00 -5.109577999999999953e+00 -1.345346750381847534e-01
1.151800000000000068e+01 3.275200000000000244e+01 1.321799999999999997e+01 -4.616529999999999800e-01 4.627449965738202053e-02
1.151999999999999957e+01 2.327400000000000091e+01 5.360999999999999766e+00 -8.497439999999999216e+00 -2.101770176005119395e-01
1.152399999999999913e+01 2.111599999999999966e+01 5.192899999999999849e+00 -4.487968999999999653e+00 -1.646499784720491522e-01
1.152999999999999936e+01 1.399399999999999977e+01 2.955099999999999838e+01 -1.277184000000000097e+00 -2.474524238243593077e-01
1.152999999999999936e+01 4.037800000000000011e+01 2.508599999999999852e+01 3.930986999999999654e+01 -1.271818892149167435e-01
1.153100000000000058e+01 2.170100000000000051e+01 5.135900000000000354e+00 -4.171825000000000117e+00 -1.752460135561298427e-01
1.153299999999999947e+01 1.570800000000000018e+01 3.538799999999999812e+01 -1.741193000000000168e+01 -1.746083404021819274e-01
1.153999999999999915e+01 3.821500000000000341e+01 2.451999999999999957e+01 5.096830999999999889e+00 -1.266735710129918147e-01
1.153999999999999915e+01 3.907999999999999829e+01 2.451999999999999957e+01 8.322062999999999988e+00 -1.269204330707076056e-01
1.153999999999999915e+01 1.622899999999999920e+01 3.610999999999999943e+01 -2.259868000000000166e+01 -1.748941802508234000e-01
1.153999999999999915e+01 3.297999999999999687e+01 1.636400000000000077e+01 -5.495587999999999695e+00 -2.144144221822674723e-01
1.154400000000000048e+01 2.529299999999999926e+01 3.357200000000000273e+01 -4.594595999999999947e+01 -1.760693799048792529e-01
1.154700000000000060e+01 2.663400000000000034e+01 1.243500000000000050e+01 -2.661364999999999981e+00 -1.907452364222031738e-01
1.155000000000000071e+01 1.901300000000000168e+01 2.499099999999999966e+01 2.554260000000000197e+00 -2.483990992308394152e-01
1.155000000000000071e+01 2.048499999999999943e+01 2.499099999999999966e+01 -6.528340999999999728e-01 -1.740488807274525596e-01
1.155100000000000016e+01 3.581499999999999773e+01 3.192599999999999838e+01 -3.999778999999999973e-01 -1.261353923773191610e-01
1.155499999999999972e+01 3.181400000000000006e+01 3.297999999999999687e+01 -3.800641999999999854e+01 -2.182760426966638967e-01
1.155700000000000038e+01 2.160000000000000142e+01 3.654500000000000171e+01 -1.018838000000000044e+01 -1.764868319762689652e-01
1.156199999999999939e+01 2.104100000000000037e+01 1.055599999999999916e+01 4.023917000000000188e-01 -6.377222800559155524e-02
1.156199999999999939e+01 2.104100000000000037e+01 1.195599999999999952e+01 -3.958617999999999970e+00 -5.317492468258403632e-02
1.156199999999999939e+01 2.190700000000000003e+01 1.195599999999999952e+01 -6.462786999999999615e+00 -4.252775225792592567e-02
1.157499999999999929e+01 3.439300000000000068e+01 1.762800000000000011e+01 -2.967077000000000186e+00 -2.219918417897737140e-01
1.157499999999999929e+01 3.734400000000000119e+01 1.806800000000000139e+01 6.555209999999999759e+00 -1.276357112141674466e-01
1.157600000000000051e+01 1.721799999999999997e+01 8.916000000000000369e+00 -1.264804999999999957e+01 -1.016417135550997247e-01
1.158099999999999952e+01 1.119899999999999984e+01 1.817399999999999949e+01 -5.659226000000000312e+00 -2.410565305053471441e-01
1.158500000000000085e+01 3.275200000000000244e+01 1.577800000000000047e+01 -3.571851999999999805e+00 -7.874754748619419709e-02
1.158500000000000085e+01 3.276500000000000057e+01 1.489199999999999946e+01 -1.791398999999999830e+01 -8.141035249659786532e-02
1.159200000000000053e+01 2.350799999999999912e+01 1.196599999999999930e+01 -6.228311999999999848e+00 -1.276804820676709085e-01
1.159500000000000064e+01 3.718999999999999773e+01 3.100499999999999901e+01 8.871181999999999235e+00 -1.262847357693576700e-01
1.159800000000000075e+01 4.414099999999999824e+01 2.245899999999999963e+01 4.718919999999999781e+00 -8.636594216053132544e-02
1.160299999999999976e+01 1.398199999999999932e+01 1.110899999999999999e+01 1.278468999999999944e+01 -9.549263689245232611e-02
1.160800000000000054e+01 1.931700000000000017e+01 2.429100000000000037e+01 5.158951000000000064e+00 -2.484094439121958264e-01
1.160800000000000054e+01 1.931700000000000017e+01 2.569099999999999895e+01 -1.098597999999999963e+00 -1.736063116955654240e-01
1.160800000000000054e+01 2.018199999999999861e+01 2.429100000000000037e+01 2.156388000000000194e+00 -2.490186537870035521e-01
1.160800000000000054e+01 2.018199999999999861e+01 2.569099999999999895e+01 -1.452125000000000110e+00 -1.742729263364626302e-01
1.161200000000000010e+01 1.061700000000000088e+01 2.510099999999999909e+01 -1.230458999999999925e+01 -2.451205562733727028e-01
1.161200000000000010e+01 1.061700000000000088e+01 2.603200000000000003e+01 -5.720903999999999989e+00 -2.454857627358841832e-01
1.161899999999999977e+01 1.178200000000000003e+01 2.206700000000000017e+01 -2.374549000000000021e+00 -2.438598163160341503e-01
1.162400000000000055e+01 3.809000000000000341e+01 2.652899999999999991e+01 -7.021284999999999776e+00 -1.264940096205676157e-01
1.163000000000000078e+01 3.590200000000000102e+01 1.807999999999999829e+01 1.845636000000000010e+01 -1.261990968931729074e-01
1.163899999999999935e+01 1.511500000000000021e+01 1.103700000000000081e+01 1.192126000000000019e+01 -9.336113576545830572e-02
1.165900000000000070e+01 4.025800000000000267e+01 1.709499999999999886e+01 2.233737000000000084e+00 -9.771273731473281710e-02
1.166900000000000048e+01 1.151999999999999957e+01 1.896999999999999886e+01 -7.714832999999999608e+00 -2.417691606810706551e-01
1.166999999999999993e+01 3.934599999999999653e+01 2.841100000000000136e+01 7.297240000000000393e+00 -1.266439523051324789e-01
1.167399999999999949e+01 3.903499999999999659e+01 1.718799999999999883e+01 3.575050000000000061e+00 -1.298193169981460837e-01
1.167800000000000082e+01 3.289699999999999847e+01 1.385399999999999920e+01 -9.265069999999999695e+00 -8.678338203830243680e-02
1.168999999999999950e+01 3.791499999999999915e+01 2.541900000000000048e+01 9.690984999999999738e-01 -1.264820878027535789e-01
1.169200000000000017e+01 3.135500000000000043e+01 1.169299999999999962e+01 -2.048981000000000066e-02 1.632971732079319116e-02
1.169299999999999962e+01 4.465699999999999648e+01 2.434900000000000020e+01 4.027511999999999759e+00 -8.596564975713659462e-02
1.169999999999999929e+01 2.992200000000000060e+01 1.244899999999999984e+01 -9.356326000000000365e-01 -1.170030892591382710e-01
1.170299999999999940e+01 4.163300000000000267e+01 1.801599999999999824e+01 9.033239000000000019e+00 -9.789183819724073254e-02
