2.995200000000000173e+01 -2.337800000000000011e+01 6.054299999999999926e+01 3.336352999999999902e+00 -2.408528184224631441e-02
2.996000000000000085e+01 -2.766199999999999903e+01 4.081700000000000017e+01 1.378632999999999953e+01 -7.263076159423600964e-02
2.996099999999999852e+01 -2.702100000000000080e+01 4.023199999999999932e+01 2.009741999999999962e+01 -2.509193277659642618e-01
2.996600000000000108e+01 -2.624599999999999866e+01 4.012599999999999767e+01 2.067980000000000018e+01 -2.499462185388803825e-01
2.996900000000000119e+01 -3.887000000000000011e+00 4.900399999999999778e+01 -4.454955999999999960e+01 -1.038910732328247322e-01
2.997100000000000009e+01 -8.816100000000000492e+00 5.474900000000000233e+01 4.099204000000000292e+00 -7.830227152972388249e-02
2.997299999999999898e+01 -2.807000000000000028e+01 4.047599999999999909e+01 1.140616999999999948e+01 -7.993033771523448683e-02
2.997400000000000020e+01 -6.581299999999999706e+00 7.630599999999999739e+01 1.070301000000000080e+01 -2.758334086472309377e-01
2.997700000000000031e+01 -1.819999999999999929e+01 5.832099999999999795e+01 3.762039000000000133e+00 -2.793440894987931911e-01
2.998300000000000054e+01 -1.055199999999999960e+01 5.739699999999999847e+01 -4.107485999999999748e+00 -7.523167382076949294e-02
2.998400000000000176e+01 -1.899899999999999878e+01 4.945900000000000318e+01 1.864076000000000022e+01 -2.731544363368935135e-01
2.998499999999999943e+01 -2.237600000000000122e+01 3.537599999999999767e+01 1.137632999999999939e+01 -2.629627145261368426e-01
2.998499999999999943e+01 -9.904999999999999361e+00 4.082099999999999795e+01 1.469675999999999982e+00 2.329566195786998972e-01
2.998699999999999832e+01 -2.148400000000000176e+01 2.898499999999999943e+01 -4.861857999999999791e+00 -2.029330701151386279e-02
2.999200000000000088e+01 -2.660200000000000031e+01 4.082200000000000273e+01 1.509427999999999948e+01 -2.495926146602437667e-01
2.999899999999999878e+01 -2.055099999999999838e+01 5.886200000000000188e+01 1.392134000000000071e+01 -1.871734529897148974e-02
3.000000000000000000e+01 -1.143599999999999994e+01 7.219100000000000250e+01 -8.033333000000000723e+00 -2.035118327850641770e-02
3.000400000000000134e+01 -1.073399999999999999e+01 6.211500000000000199e+01 5.640283000000000380e-01 -2.754364645222038832e-01
3.000600000000000023e+01 -2.391100000000000136e+01 3.590299999999999869e+01 1.242107000000000028e+01 -2.602446529497520755e-01
3.001200000000000045e+01 -1.301299999999999990e+01 6.784600000000000364e+01 -1.362376000000000076e+01 -1.874218130322235012e-02
3.001599999999999824e+01 -2.882400000000000162e+01 3.664200000000000301e+01 -1.721306999999999920e+00 -1.162118525622850979e-01
3.001699999999999946e+01 -2.241000000000000014e+01 4.272999999999999687e+01 5.227990000000000137e+00 -2.587868740046224136e-01
3.001899999999999835e+01 -1.678699999999999903e+01 3.576299999999999812e+01 -7.382630999999999943e+00 1.864723972851928813e-01
3.001899999999999835e+01 -2.303300000000000125e+01 4.366100000000000136e+01 2.348177999999999876e+00 -2.627192914687621061e-01
3.001899999999999835e+01 -2.000900000000000034e+01 4.836099999999999710e+01 -9.846557000000000226e-01 -2.716246090703875460e-01
3.001999999999999957e+01 -2.915500000000000114e+01 4.117999999999999972e+01 1.331884999999999941e+01 -9.029144380464823594e-02
3.002100000000000080e+01 -1.808999999999999986e+01 4.936800000000000210e+01 1.150305000000000000e+01 -3.499999999999999778e-01
3.002199999999999847e+01 -7.119200000000000195e+00 7.290699999999999648e+01 1.769097999999999971e+01 -7.959492931006587058e-02
3.002199999999999847e+01 -7.119200000000000195e+00 7.377200000000000557e+01 2.291786000000000101e+01 -2.756861855714073939e-01
3.003200000000000003e+01 -2.178099999999999881e+01 3.579299999999999926e+01 6.537071000000000076e+00 -2.604409889536892786e-01
3.004500000000000171e+01 -2.134499999999999886e+01 4.008700000000000330e+01 1.033023999999999987e+01 -2.408114688544312487e-01
3.004500000000000171e+01 -2.111400000000000077e+01 3.927199999999999847e+01 5.745764999999999567e+00 -2.419403380013294136e-01
3.004700000000000060e+01 -8.233700000000000685e+00 6.364500000000000313e+01 -5.685417000000000165e+00 -7.867246645858014253e-02
3.004700000000000060e+01 -1.112299999999999933e+01 6.965800000000000125e+01 -3.822551999999999950e+00 -1.778661414296836898e-02
3.004799999999999827e+01 -2.054299999999999926e+01 6.966400000000000148e+01 2.270759999999999934e+01 -2.975599519742135393e-02
3.005000000000000071e+01 -3.024899999999999878e+01 4.519200000000000017e+01 1.031561999999999983e+02 -3.850513877379628247e-01
3.005099999999999838e+01 -2.844200000000000017e+01 3.739900000000000091e+01 1.347969999999999935e+01 -1.051643764108112916e-01
3.005699999999999861e+01 -1.804700000000000060e+01 4.787599999999999767e+01 1.781695999999999946e+00 -3.500000000000000333e-01
3.005799999999999983e+01 -1.113299999999999912e+01 7.149099999999999966e+01 -9.220871000000000706e+00 -1.936432137547261512e-02
3.005999999999999872e+01 -2.880300000000000082e+01 4.493399999999999750e+01 1.637300000000000111e+01 -2.715762388537980021e-01
3.006200000000000117e+01 -2.626399999999999935e+01 4.163199999999999790e+01 1.258797999999999995e+01 -2.483986904553915076e-01
3.006299999999999883e+01 -4.746000000000000441e+00 7.125499999999999545e+01 5.260300000000000153e+01 -8.110850376225242631e-02
3.006299999999999883e+01 -2.623300000000000054e+01 2.969399999999999906e+01 5.558474000000000359e+00 -3.177515426652485764e-01
3.006400000000000006e+01 -1.665299999999999869e+01 6.539199999999999591e+01 -3.516326999999999980e+00 -2.212196777178156160e-02
3.006400000000000006e+01 -1.380799999999999983e+01 3.901400000000000290e+01 -6.380637000000000114e+00 -7.489737412897401470e-02
3.006599999999999895e+01 -1.187800000000000011e+01 6.042900000000000205e+01 1.986367999999999867e+01 -2.759781220292256143e-01
3.006599999999999895e+01 -1.187800000000000011e+01 6.129500000000000171e+01 1.132203999999999944e+01 -2.762118818727987146e-01
3.007000000000000028e+01 -1.418099999999999916e+01 6.854600000000000648e+01 -1.181034000000000006e+01 -2.098861421776868769e-02
3.007400000000000162e+01 -1.842399999999999949e+01 7.183499999999999375e+01 6.424165000000000347e+00 -2.840737643480486380e-02
3.008099999999999952e+01 -2.529899999999999949e+01 6.522899999999999920e+01 -8.926925999999999917e+00 -2.933198667105741536e-02
3.008899999999999864e+01 -1.867500000000000071e+01 4.268200000000000216e+01 1.019345000000000034e+01 -3.499999999999999778e-01
3.008899999999999864e+01 -1.720299999999999940e+01 4.268200000000000216e+01 -2.781041999999999792e+00 -3.499999999999999778e-01
3.008999999999999986e+01 -3.150300000000000011e+01 4.339399999999999835e+01 1.043909000000000020e+01 -1.030764042672314140e-01
3.008999999999999986e+01 -3.150300000000000011e+01 4.435199999999999676e+01 1.173438999999999943e+01 -9.935054671643951674e-02
3.008999999999999986e+01 -1.889699999999999847e+01 5.841799999999999926e+01 -2.073315000000000019e+00 -2.795453585499665938e-01
3.009499999999999886e+01 -9.807800000000000296e+00 5.645300000000000296e+01 9.110341999999999274e+00 -7.638641160254186491e-02
3.009799999999999898e+01 -1.081499999999999950e+01 7.054099999999999682e+01 -5.799167999999999878e+00 -1.810479877207688687e-02
3.010000000000000142e+01 -3.176299999999999901e+00 4.435399999999999920e+01 1.304178000000000059e+00 -1.034764142861240438e-01
3.010200000000000031e+01 -2.411199999999999832e+01 6.035199999999999676e+01 -3.390832000000000068e+00 -2.383987384192505152e-02
3.010300000000000153e+01 -2.468199999999999861e+01 2.977899999999999991e+01 3.350581999999999727e-01 -1.832209494424391072e-01
3.010399999999999920e+01 -2.742800000000000082e+01 4.401299999999999812e+01 2.447241000000000000e+01 -2.690378283058785236e-01
3.010600000000000165e+01 -2.126800000000000068e+01 6.191199999999999903e+01 -8.076995999999999398e+00 -2.409885951127133455e-02
3.010699999999999932e+01 -2.264099999999999824e+01 5.843200000000000216e+01 -4.828081000000000067e+00 -1.928613144345374050e-02
3.010800000000000054e+01 -2.431899999999999906e+01 6.526300000000000523e+01 -2.288295000000000190e+00 -2.892920449833870020e-02
3.011199999999999832e+01 -2.036599999999999966e+01 4.758500000000000085e+01 -2.492138000000000186e+00 -2.701410765718491591e-01
3.011199999999999832e+01 -1.889399999999999835e+01 4.758500000000000085e+01 7.055654999999999566e-01 -3.499999999999999778e-01
3.011299999999999955e+01 -3.380500000000000060e+00 4.524000000000000199e+01 4.489741999999999900e-01 -1.031477549276592631e-01
3.011400000000000077e+01 -3.036400000000000077e+01 4.235300000000000153e+01 8.198133999999999588e+00 -9.750701848372177183e-02
3.011599999999999966e+01 -1.774299999999999855e+01 4.857600000000000051e+01 5.115033000000000385e+00 -3.499999999999999778e-01
3.011899999999999977e+01 -6.982700000000000351e+00 6.573999999999999488e+01 -5.818616999999999706e+00 -7.982859286901768103e-02
3.012199999999999989e+01 -2.362800000000000011e+01 5.468500000000000227e+01 -5.598546999999999940e+00 -2.787236680118563292e-01
3.012199999999999989e+01 -1.635000000000000142e+01 6.469199999999999307e+01 -2.000104999999999933e+01 -2.069393250376092702e-02
3.012199999999999989e+01 -2.964600000000000080e+01 3.491799999999999926e+01 -3.590488000000000124e+00 -3.475436354399410316e-02
3.012199999999999989e+01 -2.941900000000000048e+01 3.411899999999999977e+01 -2.920417000000000041e+00 -6.822537022831769160e-02
3.012199999999999989e+01 -2.941900000000000048e+01 3.571699999999999875e+01 -3.205430999999999919e+00 -2.758489171812450458e-02
3.012300000000000111e+01 -2.133099999999999952e+01 2.950000000000000000e+01 -1.491934000000000093e+00 -2.996553336020783484e-02
3.012999999999999901e+01 -2.276300000000000168e+01 6.682899999999999352e+01 -9.935693999999999804e+00 -2.918994476854054262e-02
3.012999999999999901e+01 -2.519000000000000128e+01 6.077799999999999869e+01 -2.074424000000000046e+00 -2.505445274685883655e-02
3.013100000000000023e+01 -4.567899999999999849e+00 4.336899999999999977e+01 6.086711000000000205e+00 -9.039767475376053740e-02
3.013299999999999912e+01 -2.663299999999999912e+01 4.248199999999999932e+01 1.127102000000000004e+01 -2.653598953202555011e-01
3.013400000000000034e+01 -2.355099999999999838e+01 3.536200000000000188e+01 4.584336999999999662e+00 -2.639349130947361011e-01
3.013599999999999923e+01 -1.784499999999999886e+01 6.559300000000000352e+01 7.002379000000000353e+00 -2.417543204650259708e-02
3.013899999999999935e+01 -1.792200000000000060e+01 3.218599999999999994e+01 -2.816619000000000206e+00 2.371530540408354759e-01
3.014099999999999824e+01 -8.843999999999999417e+00 2.594800000000000040e+01 -1.030693999999999999e+00 2.402450440766124573e-01
3.014699999999999847e+01 -1.837199999999999989e+01 4.198199999999999932e+01 1.421648000000000067e+01 -3.499999999999999778e-01
3.014699999999999847e+01 -1.837199999999999989e+01 4.338199999999999790e+01 6.153660000000000352e+00 -3.500000000000000333e-01
3.014699999999999847e+01 -1.750600000000000023e+01 4.198199999999999932e+01 1.869583999999999913e+00 -3.500000000000000333e-01
3.014699999999999847e+01 -1.750600000000000023e+01 4.338199999999999790e+01 -1.958874999999999922e+00 -3.499999999999999778e-01
3.015099999999999980e+01 -2.040800000000000125e+01 3.649699999999999989e+01 5.137002999999999986e+00 -2.556126126293875034e-01
3.015899999999999892e+01 -2.175199999999999889e+01 6.841400000000000148e+01 -6.222436999999999552e-01 -2.952269801170602850e-02
3.016100000000000136e+01 -2.242099999999999937e+01 6.125399999999999778e+01 1.061531999999999920e+00 -2.380893626984834782e-02
3.016100000000000136e+01 -1.218999999999999950e+01 7.292600000000000193e+01 -8.471049999999999969e+00 -2.142793716471518006e-02
3.016100000000000136e+01 -2.851599999999999824e+01 3.297999999999999687e+01 -4.161913000000000196e+00 -5.382900659710027069e-02
3.016199999999999903e+01 -1.622400000000000020e+01 3.776899999999999835e+01 2.689252999999999894e+00 1.874176680744370493e-01
3.016499999999999915e+01 -1.965700000000000003e+01 6.336800000000000210e+01 2.550732999999999961e+01 -2.470792975784010664e-02
3.017000000000000171e+01 -2.307199999999999918e+01 6.605599999999999739e+01 -1.529194000000000031e+01 -2.879960093015136030e-02
3.017099999999999937e+01 -3.544700000000000184e+00 4.350399999999999778e+01 5.349268000000000356e-01 -9.841025160226378465e-02
3.017299999999999827e+01 -6.296000000000000263e+00 7.172899999999999920e+01 2.039433999999999969e+01 -8.012400501241326300e-02
3.017500000000000071e+01 -2.920799999999999841e+01 2.844600000000000151e+01 3.707453999999999805e+00 -3.098137385268594501e-01
3.017500000000000071e+01 -2.750799999999999912e+01 2.844600000000000151e+01 6.346009000000000233e-01 -3.089755359054415229e-01
3.017800000000000082e+01 -5.038999999999999702e+00 6.589900000000000091e+01 -8.193445999999999785e+00 -8.157909721791825608e-02
3.017999999999999972e+01 -2.332499999999999929e+01 5.538499999999999801e+01 -3.382134999999999891e+00 -2.789385348466443260e-01
3.018299999999999983e+01 -2.837399999999999878e+01 6.450100000000000477e+01 -4.305365000000000109e+00 -6.487416668242822204e-02
3.018299999999999983e+01 -2.837399999999999878e+01 6.544100000000000250e+01 -5.274738000000000149e+00 -6.525952547638758094e-02
3.018400000000000105e+01 -2.202299999999999969e+01 4.198599999999999710e+01 8.010925999999999547e+00 -2.413928767231749983e-01
3.018700000000000117e+01 -1.935800000000000054e+01 7.073699999999999477e+01 2.799119999999999919e+01 -2.896713327012527886e-02
3.019099999999999895e+01 -2.693599999999999994e+01 4.318200000000000216e+01 9.409169999999999590e+00 -2.669896201278981751e-01
3.019399999999999906e+01 -1.921900000000000119e+01 4.843699999999999761e+01 1.455842000000000080e+00 -3.499999999999999778e-01
3.019800000000000040e+01 -1.154199999999999982e+01 5.839500000000000313e+01 -4.409436999999999607e+00 2.359294523912070472e-03
3.019800000000000040e+01 -2.814900000000000091e+01 3.239900000000000091e+01 -5.185627000000000209e+00 -4.526580465584719576e-02
3.020299999999999940e+01 -8.707100000000000506e+00 4.134000000000000341e+01 4.278318999999999761e+00 -3.857187180416922490e-02
3.020499999999999829e+01 -1.685800000000000054e+01 3.224600000000000222e+01 -2.471277999999999864e+00 2.341278249304231951e-01
3.021099999999999852e+01 -2.288599999999999923e+01 4.758400000000000318e+01 2.448863999999999902e-02 -2.714031511361607030e-01
3.021099999999999852e+01 -2.288599999999999923e+01 4.852400000000000091e+01 -1.102647999999999961e-01 -2.729253122455740921e-01
3.021199999999999974e+01 -2.501399999999999935e+01 5.117999999999999972e+01 2.979517999999999889e-01 -2.766144226655435356e-01
3.021199999999999974e+01 -2.298400000000000176e+01 5.005700000000000216e+01 3.189624999999999932e+00 -2.749781389694715417e-01
3.021199999999999974e+01 -2.277499999999999858e+01 4.932099999999999795e+01 3.281896999999999731e-01 -2.739991753381970652e-01
3.021399999999999864e+01 -9.278999999999999915e+00 2.726699999999999946e+01 -2.110643000000000047e+00 8.366875146637761662e-02
3.021600000000000108e+01 -1.051600000000000001e+01 4.036200000000000188e+01 -5.963277000000000161e-02 2.307474047452923449e-01
3.021699999999999875e+01 -1.633899999999999864e+01 7.231900000000000261e+01 8.470565999999999818e+00 -2.584430121574501915e-02
3.021900000000000119e+01 -2.142599999999999838e+01 3.659000000000000341e+01 6.964654000000000345e+00 -2.565358832471337225e-01
3.021900000000000119e+01 -1.951000000000000156e+01 3.659000000000000341e+01 2.782272999999999996e+00 -2.550992567971209768e-01
3.021900000000000119e+01 -1.951000000000000156e+01 3.799000000000000199e+01 9.737056000000000822e+00 -2.456647134421434675e-01
3.022200000000000131e+01 -2.714399999999999835e+01 6.626399999999999579e+01 -5.211489000000000260e+01 -3.021289108475254739e-02
3.022599999999999909e+01 -2.315700000000000003e+01 3.593200000000000216e+01 5.555323999999999707e+00 -2.614793350581359754e-01
3.022700000000000031e+01 -1.724800000000000111e+01 6.103399999999999892e+01 -3.153611000000000075e+01 -1.730940481871510311e-02
3.023000000000000043e+01 -1.669000000000000128e+01 6.398700000000000188e+01 -2.849825999999999837e+01 -2.021947761439845531e-02
3.023000000000000043e+01 -2.060500000000000043e+01 4.662800000000000011e+01 -3.487064999999999859e+00 -2.679805995208257574e-01
3.023400000000000176e+01 -1.209200000000000053e+01 7.549899999999999523e+01 -2.577871000000000024e+01 -2.261998691923940152e-02
3.023600000000000065e+01 -1.729700000000000060e+01 6.002900000000000347e+01 -7.264770999999999646e+00 -2.789675914926558753e-01
3.023799999999999955e+01 -2.227299999999999969e+01 3.596200000000000330e+01 5.987326999999999622e+00 -2.612836577888438816e-01
3.023900000000000077e+01 -1.480000000000000071e+01 7.128700000000000614e+01 -1.606091999999999942e+01 -2.341284898558166488e-02
3.023900000000000077e+01 -7.361299999999999955e+00 5.318500000000000227e+01 -1.365798000000000023e+01 -9.639752629922238025e-02
3.023999999999999844e+01 -3.745999999999999996e+00 6.671800000000000352e+01 -1.522070000000000078e+01 -8.255643995794706425e-02
3.023999999999999844e+01 -3.421100000000000030e+00 6.745499999999999829e+01 -1.065623000000000076e+01 -8.265838498275193680e-02
3.024299999999999855e+01 -2.453099999999999881e+01 5.460999999999999943e+01 -2.562895999999999841e+00 -2.786537102206769756e-01
3.024699999999999989e+01 -8.331300000000000594e+00 5.388900000000000290e+01 1.414093000000000089e+01 -7.978039656729779550e-02
3.024800000000000111e+01 -3.862600000000000033e+00 7.024599999999999511e+01 1.550858000000000025e+01 -8.184196763985598921e-02
3.025000000000000000e+01 -2.023100000000000165e+01 4.574300000000000210e+01 8.863841999999999555e-01 -3.500000000000000333e-01
3.025000000000000000e+01 -1.936499999999999844e+01 4.574300000000000210e+01 2.073395000000000099e+00 -3.499999999999999778e-01
3.025000000000000000e+01 -1.936499999999999844e+01 4.714300000000000068e+01 4.627646000000000259e-01 -3.499999999999999778e-01
3.025600000000000023e+01 -1.184500000000000064e+01 5.909499999999999886e+01 3.818359000000000059e+00 -2.754085916817290425e-01
3.025799999999999912e+01 -3.528000000000000025e+00 4.650699999999999790e+01 -4.247948000000000057e+00 -1.020191752811050040e-01
3.025799999999999912e+01 -2.374699999999999989e+01 5.965200000000000102e+01 -4.266688000000000258e+00 -2.197578493698191734e-02
3.025900000000000034e+01 -3.417300000000000004e+00 4.730400000000000205e+01 -2.208221999999999952e+01 -1.029202604801570525e-01
3.025900000000000034e+01 -3.417300000000000004e+00 4.824399999999999977e+01 -3.271600000000000108e+01 -1.032486317527066821e-01
3.026599999999999824e+01 -9.013700000000000045e+00 7.802200000000000557e+01 -1.867334999999999923e+01 -2.092784851527720869e-02
3.026599999999999824e+01 -2.584700000000000131e+01 6.553400000000000603e+01 -3.993950000000000244e+01 -2.934877271267830046e-02
3.026800000000000068e+01 -7.429000000000000270e+00 4.151100000000000279e+01 4.601072000000000273e+00 -3.779304704291602118e-02
3.026800000000000068e+01 -6.110500000000000043e+00 4.224600000000000222e+01 7.045126000000000444e-01 -6.363799359594538019e-02
3.026899999999999835e+01 -2.568599999999999994e+01 6.109499999999999886e+01 -4.869041000000000063e-01 -2.534729363177058020e-02
3.027100000000000080e+01 -2.073300000000000054e+01 3.847299999999999898e+01 7.439236000000000182e+00 -2.459076971316195015e-01
3.027100000000000080e+01 -2.045499999999999829e+01 3.784499999999999886e+01 6.122307000000000166e+00 -2.483136218417534846e-01
3.027700000000000102e+01 -1.920700000000000074e+01 3.728999999999999915e+01 3.903144000000000169e+00 -2.503028101493800506e-01
3.028000000000000114e+01 -2.841499999999999915e+01 3.171399999999999864e+01 -8.560221000000000302e+00 -4.253789307347947274e-02
3.028200000000000003e+01 -6.636000000000000121e+00 5.140500000000000114e+01 1.878454999999999941e+01 -9.627867478066495788e-02
3.028200000000000003e+01 -6.426899999999999835e+00 5.066899999999999693e+01 -8.208328999999999764e-01 -9.608010653102311283e-02
3.029100000000000037e+01 -1.559800000000000075e+01 3.353699999999999903e+01 -9.662977999999999845e-01 2.130135207869018055e-01
3.029100000000000037e+01 -1.559800000000000075e+01 3.458700000000000330e+01 -7.935136999999999885e-01 1.070467110677152389e-01
3.029799999999999827e+01 -1.128299999999999947e+01 7.614799999999999613e+01 -1.197831000000000046e+01 -2.204207747141209706e-02
3.029799999999999827e+01 -9.627599999999999270e+00 6.183299999999999841e+01 -2.800399000000000083e+00 -7.719862283405762304e-02
3.029899999999999949e+01 -1.994900000000000162e+01 6.241499999999999915e+01 -4.698179999999999801e+00 -2.333999515346068740e-02
3.030000000000000071e+01 -1.813100000000000023e+01 7.286100000000000421e+01 -4.857998000000000038e-01 -2.793541031246449258e-02
3.030399999999999849e+01 -2.012900000000000134e+01 7.033499999999999375e+01 1.074075999999999986e+01 -2.945634602611873348e-02
3.030799999999999983e+01 -1.906200000000000117e+01 4.644299999999999784e+01 1.124106999999999967e+00 -3.499999999999999778e-01
3.031500000000000128e+01 -2.366100000000000136e+01 4.440500000000000114e+01 5.000113000000000474e-01 -2.652311973158330005e-01
3.031599999999999895e+01 -1.069400000000000084e+01 5.839500000000000313e+01 -3.762510999999999939e+00 -7.540053074812701206e-02
3.031800000000000139e+01 -2.343700000000000117e+01 3.672099999999999653e+01 5.861672000000000438e+00 -2.581497586238005737e-01
3.031899999999999906e+01 -2.089900000000000091e+01 3.038599999999999923e+01 1.229627999999999943e+01 -3.518410494262605992e-01
3.032100000000000151e+01 -1.962999999999999901e+01 4.758500000000000085e+01 -6.877560000000000617e-02 -3.499999999999999778e-01
3.032100000000000151e+01 -2.948199999999999932e+01 4.522699999999999676e+01 5.164047000000000054e+01 -2.720933445584441390e-01
3.032400000000000162e+01 -2.845299999999999940e+01 3.684799999999999898e+01 1.033258000000000010e+01 -1.628893449887718406e-02
3.032499999999999929e+01 -1.848000000000000043e+01 4.857600000000000051e+01 2.745538999999999952e+00 -3.499999999999999778e-01
3.032600000000000051e+01 -1.196400000000000041e+01 7.239300000000000068e+01 -8.112111000000000516e+00 -2.052855382563101641e-02
3.033299999999999841e+01 -2.901300000000000168e+01 3.129599999999999937e+01 -6.223404000000000380e+00 -1.742339447918907491e-01
3.033299999999999841e+01 -4.588099999999999845e+00 4.915999999999999659e+01 -6.529143000000000541e+01 -9.958929964848775573e-02
3.033500000000000085e+01 -1.977599999999999980e+01 5.879699999999999704e+01 5.862530999999999715e+00 -1.678652313174211139e-02
3.033999999999999986e+01 -2.701699999999999946e+01 6.201700000000000301e+01 -1.955568999999999891e+00 -2.690761459756416812e-02
3.034400000000000119e+01 -7.730000000000000426e+00 7.877299999999999613e+01 -1.793383000000000038e+01 -9.317890792575825309e-02
3.034799999999999898e+01 -1.160200000000000031e+01 7.073199999999999932e+01 -7.252708000000000155e+00 -1.878130421514642365e-02
3.036100000000000065e+01 -1.947200000000000131e+01 3.256900000000000261e+01 1.646916000000000047e+00 -3.806221005408848973e-02
3.036100000000000065e+01 -2.339900000000000091e+01 2.875400000000000134e+01 7.773517000000000010e+00 -3.127385405887743719e-01
3.036100000000000065e+01 -2.234900000000000020e+01 2.875400000000000134e+01 1.450862000000000052e+01 -3.176106527079933239e-01
3.036799999999999855e+01 -1.913400000000000034e+01 4.283599999999999852e+01 1.075449000000000055e+01 -3.499999999999999778e-01
3.036799999999999855e+01 -1.164000000000000057e+01 3.919899999999999807e+01 -1.369574000000000069e+00 2.073377502234022285e-01
3.037399999999999878e+01 -1.458099999999999952e+01 3.905400000000000205e+01 -1.294738000000000078e+01 -7.229630099153654121e-02
3.037399999999999878e+01 -1.208300000000000018e+01 6.845000000000000284e+01 -1.077743000000000073e+01 -1.721575643791477261e-02
3.037500000000000000e+01 -2.307400000000000162e+01 5.913199999999999790e+01 -4.335148000000000224e+00 -2.014270280537110852e-02
3.038200000000000145e+01 -1.363000000000000078e+01 6.845499999999999829e+01 -2.145714999999999861e+01 -1.941650379848160538e-02
3.038299999999999912e+01 -6.500300000000000189e+00 7.795000000000000284e+01 -3.384006000000000114e+01 -9.091761787052618504e-02
3.038299999999999912e+01 -1.186999999999999922e+01 7.149099999999999966e+01 -1.039531999999999989e+01 -1.965796346374649659e-02
3.038599999999999923e+01 -3.102400000000000091e+01 4.261899999999999977e+01 3.301610000000000156e+00 -1.017582687166259381e-01
3.038599999999999923e+01 -3.102400000000000091e+01 4.512700000000000244e+01 9.798740999999999701e+00 -3.848579010201055861e-01
3.038899999999999935e+01 -1.668100000000000094e+01 3.616299999999999670e+01 -7.919088000000000349e+00 1.771813993698158340e-01
3.038899999999999935e+01 -1.668100000000000094e+01 3.702799999999999869e+01 3.494438999999999851e+00 1.871867635744011993e-01
3.039099999999999824e+01 -1.028500000000000014e+01 7.753799999999999670e+01 -1.539095000000000013e+01 -2.164828493592612854e-02
3.039399999999999835e+01 -1.777799999999999869e+01 7.335999999999999943e+01 -1.093316000000000088e+01 -2.751874267576331912e-02
3.039399999999999835e+01 -1.704799999999999827e+01 7.335999999999999943e+01 -1.358459000000000039e+01 -2.671782440936664241e-02
3.039499999999999957e+01 -9.737700000000000244e+00 2.594800000000000040e+01 1.018332999999999933e+00 2.481007778422886223e-01
3.039499999999999957e+01 -7.950300000000000367e+00 2.594800000000000040e+01 -3.492306999999999828e+00 2.461450885675827427e-01
3.039699999999999847e+01 -2.737399999999999878e+01 6.282000000000000028e+01 -3.419125999999999888e+00 -2.770371445399795116e-02
3.039799999999999969e+01 -2.068700000000000117e+01 3.157700000000000173e+01 1.157056000000000040e+01 -4.135522963289598591e-02
3.039900000000000091e+01 -2.290099999999999980e+01 5.967000000000000171e+01 -2.074279999999999902e+01 -2.091037396063479339e-02
3.041000000000000014e+01 -2.056800000000000139e+01 6.196999999999999886e+01 -1.414023000000000074e+01 -2.283205608964709171e-02
3.041300000000000026e+01 -6.720299999999999940e+00 5.246300000000000097e+01 -6.968637000000000192e+00 -9.643583675316667880e-02
3.042099999999999937e+01 -1.754599999999999937e+01 5.923400000000000176e+01 -3.994226999999999972e+00 -2.787082603859922236e-01
3.042299999999999827e+01 -9.718400000000000816e+00 7.803000000000000114e+01 -2.153022999999999954e+01 -2.133598695072053825e-02
3.042599999999999838e+01 -1.883099999999999952e+01 4.353600000000000136e+01 6.016774999999999984e+00 -3.499999999999999778e-01
3.042699999999999960e+01 -2.485000000000000142e+01 6.035199999999999676e+01 -4.092953999999999759e+00 -2.333882187127038488e-02
3.042800000000000082e+01 -2.285399999999999920e+01 6.055400000000000205e+01 -9.429468999999999212e+00 -2.225958838653625121e-02
3.042899999999999849e+01 -2.795299999999999940e+01 4.486299999999999955e+01 3.151916999999999902e+01 -2.704118500854162388e-01
3.042899999999999849e+01 -2.253300000000000125e+01 4.590500000000000114e+01 -6.130934999999999580e-01 -2.674846428369573315e-01
3.042999999999999972e+01 -2.871499999999999986e+01 4.052100000000000080e+01 9.191596999999999795e+00 -8.740925009453336114e-02
3.043100000000000094e+01 -9.887999999999999901e+00 2.646099999999999852e+01 -9.989411999999999736e-01 6.233973957654320719e-02
3.043700000000000117e+01 -2.168400000000000105e+01 4.113499999999999801e+01 1.199418999999999969e+01 -2.429381433446674843e-01
3.043700000000000117e+01 -2.350499999999999901e+01 6.535599999999999454e+01 -5.474351000000000411e+00 -2.802123218385008802e-02
3.043900000000000006e+01 -6.239200000000000301e+00 7.693899999999999295e+01 2.790889999999999760e-01 -8.015657723860902806e-02
3.044099999999999895e+01 -6.728600000000000136e+00 7.242900000000000205e+01 1.305359999999999943e+01 -7.990572239002925736e-02
3.044399999999999906e+01 -7.393299999999999983e+00 6.500499999999999545e+01 -4.100960999999999856e+00 -7.958835998618633834e-02
3.045299999999999940e+01 -1.125999999999999979e+01 6.003600000000000136e+01 -9.961759999999999504e-01 -2.750281337955248206e-01
3.045599999999999952e+01 -2.538500000000000156e+01 4.032000000000000028e+01 2.144521999999999906e+01 -2.503530994796692721e-01
3.046000000000000085e+01 -1.291699999999999982e+01 7.456100000000000705e+01 -8.702431000000000694e+00 -2.264484170424062651e-02
3.046300000000000097e+01 -2.126500000000000057e+01 6.928199999999999648e+01 5.681371000000000393e+00 -2.921912260482941240e-02
3.046399999999999864e+01 -2.585000000000000142e+01 3.005399999999999849e+01 -5.232620999999999967e+00 -3.178219577648122574e-01
3.046399999999999864e+01 -2.172100000000000009e+01 5.892999999999999972e+01 -1.121232999999999969e+01 -1.832491560094694910e-02
3.046499999999999986e+01 -1.110899999999999999e+01 5.909499999999999886e+01 3.733886000000000149e-01 9.914830524990997200e-04
3.046600000000000108e+01 -9.369300000000000850e+00 2.509799999999999898e+01 7.152973000000000248e+00 2.539551824883168885e-01
3.046600000000000108e+01 -8.318699999999999761e+00 2.509799999999999898e+01 -1.534111999999999976e-01 2.463378068559400336e-01
3.046799999999999997e+01 -1.017300000000000004e+01 2.726699999999999946e+01 5.944475999999999649e-01 7.092591178966688170e-02
3.046799999999999997e+01 -8.385300000000000864e+00 2.726699999999999946e+01 -6.487401000000000195e+00 -2.687954233846341287e-02
3.047299999999999898e+01 -1.015499999999999936e+01 5.782999999999999829e+01 -9.896437000000000594e+00 -7.617405838921158245e-02
3.047400000000000020e+01 -7.700000000000000178e+00 6.411100000000000421e+01 3.376034999999999897e+00 -7.934317209205139776e-02
3.047700000000000031e+01 -5.596000000000000085e+00 7.167100000000000648e+01 2.641543000000000063e+01 -8.062497496299803057e-02
3.047800000000000153e+01 -2.486599999999999966e+01 6.473799999999999955e+01 2.033040000000000180e+00 -2.805737013968208002e-02
3.048499999999999943e+01 -2.504599999999999937e+01 3.939999999999999858e+01 5.928005000000000280e+01 -2.518184272119660672e-01
3.048499999999999943e+01 -2.454599999999999937e+01 5.965200000000000102e+01 -3.467798999999999854e+00 -2.185185698693455775e-02
3.048600000000000065e+01 -1.994300000000000139e+01 3.728999999999999915e+01 7.139542999999999751e+00 -2.534395158808325776e-01
3.049800000000000111e+01 -6.679000000000000270e+00 7.391700000000000159e+01 1.349590000000000067e+01 -7.994053641459794579e-02
3.049899999999999878e+01 -1.117800000000000082e+01 6.156199999999999761e+01 -3.694583000000000172e-01 -2.754304253638918953e-01
3.050000000000000000e+01 -2.973300000000000054e+01 2.929599999999999937e+01 -7.645057000000000241e-03 -1.565965846514051907e-01
3.050000000000000000e+01 -2.973300000000000054e+01 3.034600000000000009e+01 9.037942999999999671e-02 -1.703570918091831254e-01
3.050199999999999889e+01 -2.520200000000000173e+01 3.021900000000000119e+01 -3.925475000000000048e+00 -3.167412425987995439e-01
3.050300000000000011e+01 -1.278200000000000003e+01 7.338200000000000500e+01 -8.191157999999999717e+00 -2.178092757960176790e-02
3.050799999999999912e+01 -2.221999999999999886e+01 3.668200000000000216e+01 -1.316739000000000104e-01 -2.591273010196707971e-01
3.050799999999999912e+01 -2.549299999999999855e+01 5.195499999999999829e+01 -7.262953999999999688e+00 -2.769518897933869739e-01
3.051200000000000045e+01 -6.387100000000000222e+00 7.487199999999999989e+01 2.734922999999999860e+01 -8.009702449059377671e-02
3.051300000000000168e+01 -6.722599999999999909e+00 7.334000000000000341e+01 1.312113000000000085e+01 -7.991971028905715813e-02
3.051500000000000057e+01 -2.575600000000000023e+01 4.218999999999999773e+01 1.417769999999999975e+01 -2.487334566956150572e-01
3.051699999999999946e+01 -1.979799999999999827e+01 4.644299999999999784e+01 1.103134999999999977e+00 -3.499999999999999778e-01
3.051999999999999957e+01 -2.800900000000000034e+01 3.943200000000000216e+01 1.347119000000000000e+01 -2.552294520586185222e-01
3.051999999999999957e+01 -2.780000000000000071e+01 3.869599999999999795e+01 1.552576000000000001e+01 -2.564218102640700159e-01
3.052299999999999969e+01 -2.574299999999999855e+01 4.113400000000000034e+01 1.607607000000000141e+01 -2.499140049431264610e-01
3.052400000000000091e+01 -2.439699999999999847e+01 4.440500000000000114e+01 -4.606429000000000329e+00 -2.658989490571997960e-01
3.052499999999999858e+01 -1.414600000000000080e+01 7.106000000000000227e+01 -3.382216999999999985e+01 -2.189048787461145285e-02
3.052799999999999869e+01 -2.378600000000000136e+01 2.949800000000000111e+01 6.905348000000000042e+00 -3.192807779037244442e-01
3.052799999999999869e+01 -2.196199999999999974e+01 2.949800000000000111e+01 3.438813999999999815e+00 -3.306763524943336363e-01
3.053200000000000003e+01 -2.335900000000000176e+01 4.304500000000000171e+01 3.135358000000000089e+00 -2.610585992400247246e-01
3.053900000000000148e+01 -9.804299999999999571e+00 2.811700000000000088e+01 5.629541999999999824e+00 2.329644673246516751e-01
3.053900000000000148e+01 -8.753700000000000259e+00 2.811700000000000088e+01 -5.044553999999999760e+00 -2.434811269025456693e-02
3.054400000000000048e+01 -2.835800000000000054e+01 2.837500000000000000e+01 1.967611999999999917e+00 -3.076036791390610592e-01
3.054400000000000048e+01 -1.793900000000000006e+01 4.149099999999999966e+01 2.699108000000000018e+01 -3.499999999999999778e-01
3.054400000000000048e+01 -1.793900000000000006e+01 4.387299999999999756e+01 3.228851000000000138e+00 -3.500000000000000333e-01
3.054500000000000171e+01 -3.000499999999999901e+01 4.150500000000000256e+01 4.023410000000000153e+00 -9.691690669586837392e-02
3.054599999999999937e+01 -2.562999999999999901e+01 5.289000000000000057e+01 -2.071765999999999885e-01 -2.775474339147783742e-01
3.054700000000000060e+01 -9.846000000000000085e+00 6.141899999999999693e+01 -6.697961000000000054e-01 -7.701455531027559531e-02
3.054799999999999827e+01 -2.421699999999999875e+01 5.889200000000000301e+01 -6.880658999999999637e+00 -2.005936389414082754e-02
3.055000000000000071e+01 -1.741300000000000026e+01 7.406000000000000227e+01 -1.099582000000000015e+01 -2.705822134953226807e-02
3.055699999999999861e+01 -1.148099999999999987e+01 6.086200000000000188e+01 7.554952000000000334e-01 -2.754656330381083373e-01
3.055799999999999983e+01 -2.288800000000000168e+01 4.221699999999999875e+01 6.870728999999999864e+00 -2.446379037429819159e-01
3.055900000000000105e+01 -8.770099999999999341e+00 6.317499999999999716e+01 -5.760589000000000404e+00 -7.829486083789823081e-02
3.055999999999999872e+01 -5.215799999999999770e+00 4.957200000000000273e+01 -1.047352999999999978e+00 -9.676064947985330011e-02
3.056200000000000117e+01 -1.893900000000000006e+01 7.138100000000000023e+01 1.776276999999999973e+01 -2.789292704443196297e-02
3.056500000000000128e+01 -3.542800000000000171e+00 6.956199999999999761e+01 1.325456999999999930e+01 -8.223228954471409335e-02
3.056500000000000128e+01 -3.299700000000000077e+00 6.832699999999999818e+01 -1.149217999999999940e+01 -8.263905280989955471e-02
3.056500000000000128e+01 -1.084999999999999964e+01 7.684799999999999898e+01 -1.319021000000000043e+01 -2.158983987822618925e-02
3.056500000000000128e+01 -9.265000000000000568e+00 5.593999999999999773e+01 1.462581999999999915e+01 -7.762429888165083003e-02
3.056500000000000128e+01 -1.600900000000000034e+01 3.547500000000000142e+01 -6.469871000000000372e+00 1.372040666786462360e-01
3.056899999999999906e+01 -2.563100000000000023e+01 5.357000000000000028e+01 -7.152294999999999625e-01 -2.779132442606672693e-01
3.057000000000000028e+01 -6.099700000000000344e+00 7.578100000000000591e+01 9.439458999999999378e+00 -8.024829752273376915e-02
3.057100000000000151e+01 -1.965500000000000114e+01 6.395300000000000296e+01 3.873622000000000298e+01 -2.431775514831278559e-02
3.057100000000000151e+01 -1.944600000000000151e+01 6.468899999999999295e+01 4.392076999999999742e+01 -2.498415160377164684e-02
3.057100000000000151e+01 -1.825499999999999901e+01 6.535299999999999443e+01 1.469935000000000080e+01 -2.348324087832479382e-02
3.057199999999999918e+01 -2.384900000000000020e+01 4.374900000000000233e+01 2.047365999999999797e+00 -2.636095910748047499e-01
3.057400000000000162e+01 -2.266400000000000148e+01 4.682900000000000063e+01 -2.228723000000000010e+00 -2.693655149989543363e-01
3.057999999999999829e+01 -1.680600000000000094e+01 4.224900000000000233e+01 -1.833185999999999982e+00 -3.499999999999999778e-01
3.057999999999999829e+01 -1.680600000000000094e+01 4.311500000000000199e+01 -4.427596999999999561e+00 -3.499999999999999778e-01
3.057999999999999829e+01 -2.430600000000000094e+01 5.102199999999999847e+01 -8.088024999999999798e-01 -2.758627335331393926e-01
3.058399999999999963e+01 -2.449800000000000111e+01 3.848199999999999932e+01 5.831606000000000023e+01 -2.540314285590203891e-01
3.058399999999999963e+01 -2.417000000000000171e+01 3.773799999999999955e+01 3.924980999999999653e+01 -2.561660608416255203e-01
3.058800000000000097e+01 -4.149899999999999700e+00 7.077400000000000091e+01 3.440373000000000303e+01 -8.165183902110755010e-02
3.059199999999999875e+01 -2.888599999999999923e+01 3.368800000000000239e+01 -4.831019999999999648e+00 -5.627447557518196197e-02
3.059199999999999875e+01 -2.888599999999999923e+01 3.614800000000000324e+01 -1.013569000000000031e+01 -2.365507422135736462e-02
3.059400000000000119e+01 -1.016999999999999993e+01 5.909199999999999875e+01 1.472709999999999964e+00 -7.637270331963311176e-02
3.060500000000000043e+01 -7.507600000000000051e+00 2.517399999999999949e+01 -2.167129999999999779e+00 -8.485554846982826249e-02
3.060600000000000165e+01 -1.877799999999999869e+01 5.851100000000000279e+01 6.706577000000000233e-01 -2.789749364702916457e-01
3.060800000000000054e+01 -2.196900000000000119e+01 6.157699999999999818e+01 -7.029021000000000186e+00 -2.265334722573988588e-02
3.060900000000000176e+01 -2.410900000000000176e+01 5.521800000000000352e+01 -6.267362000000000322e+00 -2.785172883942312327e-01
3.061199999999999832e+01 -8.488899999999999224e+00 7.880800000000000693e+01 -1.383966999999999992e+01 -2.042458236297501825e-02
3.061599999999999966e+01 -1.612300000000000111e+01 3.268699999999999761e+01 -8.479982999999999826e-01 2.512852840531388798e-01
3.061700000000000088e+01 -1.060500000000000043e+01 5.990999999999999659e+01 3.093109999999999804e+00 -7.594271729056881193e-02
3.061899999999999977e+01 -9.505000000000000782e+00 4.129200000000000159e+01 2.158598000000000017e+00 -5.692318910400000209e-02
3.062600000000000122e+01 -2.656400000000000006e+01 4.369599999999999795e+01 4.655859999999999665e+00 -2.669898981110633840e-01
3.063700000000000045e+01 -1.683699999999999974e+01 6.209599999999999653e+01 -2.401836000000000126e+01 -1.672348651313154688e-02
3.063800000000000168e+01 -9.078099999999999170e+00 6.247899999999999920e+01 -5.568738999999999884e+00 -7.797628079307668270e-02
3.064099999999999824e+01 -1.391600000000000037e+01 6.915000000000000568e+01 -2.284132999999999925e+01 -1.988909997884978631e-02
3.064099999999999824e+01 -1.391600000000000037e+01 7.001500000000000057e+01 -2.361499999999999844e+01 -2.060285399102475615e-02
3.064099999999999824e+01 -1.165000000000000036e+01 6.915000000000000568e+01 -9.325295999999999808e+00 -1.679439366318328380e-02
3.064099999999999824e+01 -1.165000000000000036e+01 7.001500000000000057e+01 -8.980790000000000717e+00 -1.764231865799567242e-02
3.064199999999999946e+01 -6.513600000000000279e+00 6.567000000000000171e+01 -4.339367000000000196e+00 -8.040749729005167157e-02
3.064199999999999946e+01 -5.113599999999999923e+00 6.567000000000000171e+01 -3.090133999999999936e+00 -8.167649957561581853e-02
3.064300000000000068e+01 -1.710699999999999932e+01 3.233800000000000097e+01 -3.065974000000000199e+00 -8.425224502180191088e-02
3.064399999999999835e+01 -2.273100000000000165e+01 3.672200000000000131e+01 -1.316739000000000104e-01 -2.601818878521472422e-01
3.064499999999999957e+01 -2.347500000000000142e+01 5.045400000000000063e+01 2.667564000000000046e+00 -2.749983053989617510e-01
3.064699999999999847e+01 -2.085600000000000165e+01 7.014100000000000534e+01 1.430157999999999952e+01 -2.913254606544989772e-02
3.064999999999999858e+01 -1.563899999999999935e+01 7.205200000000000671e+01 -1.145056000000000074e+00 -2.407029696689403503e-02
3.065200000000000102e+01 -4.070000000000000284e+00 4.290800000000000125e+01 7.114295000000000480e-01 -8.371338403772098091e-02
3.065299999999999869e+01 -2.761400000000000077e+01 6.573099999999999454e+01 -5.185459999999999781e+01 -2.929319169625167057e-02
3.065299999999999869e+01 -2.667399999999999949e+01 6.573099999999999454e+01 -8.482617999999999370e+01 -2.901224683636525678e-02
3.065800000000000125e+01 -2.609700000000000131e+01 4.294599999999999795e+01 9.450537999999999883e+00 -2.649720860197774530e-01
3.066300000000000026e+01 -9.846000000000000085e+00 5.990400000000000347e+01 1.910017000000000076e+00 -7.691954121426564095e-02
3.066400000000000148e+01 -2.017200000000000060e+01 3.251100000000000279e+01 4.176520000000000010e+00 -3.273227202123433210e-01
3.066400000000000148e+01 -1.877199999999999847e+01 3.251100000000000279e+01 -4.065058999999999756e+00 -4.868680886473349123e-02
3.066499999999999915e+01 -7.807599999999999874e+00 5.314000000000000057e+01 -8.988552000000000319e+00 -9.407503956770739417e-02
3.066700000000000159e+01 -1.258300000000000018e+01 7.510299999999999443e+01 -1.112213999999999992e+01 -2.224643432875867202e-02
3.067099999999999937e+01 -9.083500000000000796e+00 5.518099999999999739e+01 1.345794000000000068e+01 -7.808706040125663883e-02
3.067299999999999827e+01 -6.969999999999999751e+00 7.870999999999999375e+01 -4.347901999999999845e+01 -9.173834662536699269e-02
3.067500000000000071e+01 -2.553099999999999881e+01 6.078499999999999659e+01 -2.105884000000000089e+00 -2.366072701292939312e-02
3.067699999999999960e+01 -1.528100000000000058e+01 3.899600000000000222e+01 4.726261000000000045e+00 -7.123409156682630750e-02
3.067699999999999960e+01 -1.278299999999999947e+01 6.839199999999999591e+01 -2.657030999999999921e+01 -1.750216528190081874e-02
3.067999999999999972e+01 -9.031299999999999883e+00 5.415699999999999648e+01 -1.829641000000000073e+00 -7.832567311944305111e-02
3.068100000000000094e+01 -2.704299999999999926e+01 2.936199999999999832e+01 6.959403000000000006e+00 -3.122696001904524676e-01
3.068199999999999861e+01 -2.357100000000000151e+01 5.793500000000000227e+01 -4.266803999999999597e+00 -1.711763191260847611e-02
3.068299999999999983e+01 -2.335900000000000176e+01 4.530799999999999983e+01 -4.696812000000000431e+00 -2.666041251244018473e-01
3.069000000000000128e+01 -1.015099999999999980e+01 7.873000000000000398e+01 -1.019339000000000084e+01 -2.167611761729995590e-02
3.069300000000000139e+01 -1.111500000000000021e+01 4.004899999999999949e+01 -6.003566999999999654e-01 2.150807735719704183e-01
3.069600000000000151e+01 -2.694700000000000095e+00 4.382900000000000063e+01 5.590036999999999784e-02 1.011940200501081424e-02
3.069600000000000151e+01 -2.694700000000000095e+00 4.487899999999999778e+01 -2.546247999999999845e+00 -9.938167135750632097e-02
3.070100000000000051e+01 -5.619600000000000151e+00 4.264300000000000068e+01 1.543509000000000020e+00 -6.573959756631993223e-02
3.070400000000000063e+01 -2.487900000000000134e+01 4.360799999999999699e+01 1.996397999999999895e+00 -2.645900692463185044e-01
3.071300000000000097e+01 -2.529100000000000037e+01 5.432000000000000028e+01 -3.855732999999999855e+00 -2.781175476267087054e-01
3.071499999999999986e+01 -5.935999999999999943e+00 5.027199999999999847e+01 -2.240298999999999818e+00 -9.474951550158522418e-02
3.071600000000000108e+01 -2.794300000000000139e+01 6.497100000000000364e+01 -1.809403000000000006e+01 -2.883478282484252045e-02
3.071999999999999886e+01 -1.651999999999999957e+01 7.315800000000000125e+01 -1.068539999999999957e+01 -2.546816237756298687e-02
3.072299999999999898e+01 -1.243699999999999939e+01 3.901200000000000045e+01 -1.506837999999999900e+00 1.767605017879562701e-01
3.072400000000000020e+01 -5.810100000000000264e+00 6.582899999999999352e+01 -3.323498999999999981e+00 -8.104455224224918486e-02
3.072899999999999920e+01 -4.177299999999999791e+00 4.853399999999999892e+01 -6.543376999999999555e+01 -9.782041523570519925e-02
3.074399999999999977e+01 -2.055099999999999838e+01 5.918999999999999773e+01 2.243134999999999835e+01 -1.698884242162176927e-02
3.074500000000000099e+01 -2.161199999999999832e+01 4.052000000000000313e+01 1.190911999999999971e+01 -2.457323434037506082e-01
3.074699999999999989e+01 -6.653999999999999915e+00 4.180700000000000216e+01 4.515843000000000274e+01 -4.332468279145606366e-02
3.075000000000000000e+01 -2.830300000000000082e+01 3.978799999999999670e+01 4.203981999999999886e+00 -8.534234091307159320e-02
3.075100000000000122e+01 -2.519600000000000151e+01 4.440500000000000114e+01 8.626880999999999577e-01 -2.665963719523509190e-01
3.075100000000000122e+01 -2.767500000000000071e+01 6.421200000000000330e+01 -1.400436000000000014e+01 -2.812203591692361004e-02
3.075400000000000134e+01 -2.392800000000000082e+01 4.526400000000000290e+01 -3.265168000000000070e+00 -2.669973585684282669e-01
3.076000000000000156e+01 -2.768299999999999983e+01 3.277199999999999847e+01 -5.383600000000000385e+00 -1.989630538084907752e-01
3.076300000000000168e+01 -2.176500000000000057e+01 2.992599999999999838e+01 8.220150999999999542e+00 -3.383328915585228081e-01
3.077700000000000102e+01 -1.821199999999999974e+01 7.406000000000000227e+01 -6.702913999999999817e+00 -2.749853592850904846e-02
3.077700000000000102e+01 -1.661400000000000077e+01 7.406000000000000227e+01 -9.086895000000000167e+00 -2.581791922831870936e-02
3.078099999999999881e+01 -2.556599999999999895e+01 6.479600000000000648e+01 -1.544360999999999962e+01 -2.767452061031619448e-02
3.078099999999999881e+01 -2.416600000000000037e+01 6.479600000000000648e+01 4.084832999999999714e+00 -2.705257888792562265e-02
3.078200000000000003e+01 -2.796999999999999886e+01 3.774900000000000233e+01 2.721253000000000100e+01 -2.593956251759293452e-01
3.078999999999999915e+01 -4.552299999999999791e+00 7.159799999999999898e+01 1.667661000000000016e+01 -8.134624867371251233e-02
3.078999999999999915e+01 -1.054700000000000060e+01 6.078999999999999915e+01 6.442145000000000232e-01 -7.623309352610704859e-02
3.079200000000000159e+01 -1.231300000000000061e+01 7.176000000000000512e+01 -1.039531999999999989e+01 -1.964928913589284940e-02
3.079200000000000159e+01 -1.231300000000000061e+01 7.262500000000000000e+01 -1.057521000000000022e+01 -2.027339946706237239e-02
3.079899999999999949e+01 -1.235500000000000043e+01 7.094899999999999807e+01 -7.981785999999999603e+00 -1.904898423449133751e-02
3.080000000000000071e+01 -1.380799999999999983e+01 3.922299999999999898e+01 -2.306807000000000052e+00 -8.560826624501667592e-02
3.080099999999999838e+01 -4.035499999999999865e+00 6.628000000000000114e+01 -4.644681000000000282e+00 -8.254529859160912586e-02
3.080199999999999960e+01 -2.287399999999999878e+01 2.948900000000000077e+01 1.353057000000000087e+01 -3.238000385334028897e-01
3.080499999999999972e+01 -2.652899999999999991e+01 6.145100000000000051e+01 -1.777344999999999953e+00 -2.473994950835309292e-02
3.080999999999999872e+01 -2.204200000000000159e+01 6.837800000000000011e+01 2.261465000000000003e-01 -2.853921585771462127e-02
3.081400000000000006e+01 -1.333300000000000018e+01 7.097499999999999432e+01 -8.105204000000000519e+00 -2.025542038150434515e-02
3.081400000000000006e+01 -2.486700000000000088e+01 4.516499999999999915e+01 -9.385646000000000266e-02 -2.676644259714658913e-01
3.081700000000000017e+01 -2.797200000000000131e+01 3.695400000000000063e+01 2.114856999999999942e+01 -6.924790395689645224e-03
3.082300000000000040e+01 -1.839799999999999969e+01 4.402700000000000102e+01 5.235591000000000328e+00 -3.499999999999999778e-01
3.082300000000000040e+01 -2.615700000000000003e+01 6.493899999999999295e+01 -6.577680999999999756e+01 -2.793005275901905976e-02
3.082999999999999829e+01 -2.270400000000000063e+01 6.652599999999999625e+01 -1.151285000000000025e+01 -2.762996818835682447e-02
