3.136499999999999844e+00 3.003299999999999859e-01 4.227199999999999847e+01 6.889439999999999564e+00 -2.478260234780303439e-01
3.142599999999999838e+00 -5.664299999999999891e+00 3.495100000000000051e+01 9.281132000000000271e-02 -2.336708018734795778e-01
3.152899999999999814e+00 -6.038700000000000401e+00 3.209000000000000341e+01 -1.485097999999999985e+01 -2.323440469080953752e-01
3.153900000000000148e+00 -7.470600000000000129e+00 1.521000000000000085e+01 -1.762712999999999974e+00 -3.990698090832194012e-02
3.154900000000000038e+00 -5.908699999999999619e+00 3.410499999999999687e+01 1.682765000000000066e+00 -2.331749093941370143e-01
3.158500000000000085e+00 -4.009800000000000253e+00 4.249900000000000233e+01 7.097520000000000273e+00 -2.360093808037026231e-01
3.162999999999999812e+00 -1.353200000000000003e+01 5.679999999999999716e+01 7.075453999999999688e+00 -6.918710842700040442e-02
3.162999999999999812e+00 -1.353200000000000003e+01 5.785000000000000142e+01 1.060069000000000017e+01 -6.912502040066946518e-02
3.162999999999999812e+00 -1.353200000000000003e+01 5.871600000000000108e+01 6.406469999999999665e+00 -6.908318540130257979e-02
3.163600000000000190e+00 -6.194399999999999906e+00 3.874600000000000222e+01 2.950401999999999969e+00 -2.340960856419457836e-01
3.168099999999999916e+00 -3.425499999999999989e+00 4.253699999999999903e+01 1.030128999999999984e+01 -2.363460838404397857e-01
3.168200000000000127e+00 -5.952799999999999869e+00 3.792199999999999704e+01 1.894317000000000029e+00 -2.341107628352094017e-01
3.177000000000000046e+00 2.544999999999999929e+00 6.903100000000000591e+01 -5.031025999999999954e+01 -2.467486517041118932e-01
3.179499999999999993e+00 3.392999999999999794e+00 6.825799999999999557e+01 -2.238788999999999874e+01 -2.467550085279991701e-01
3.180299999999999905e+00 9.999000000000000554e+00 4.650000000000000000e+01 -2.969756999999999980e+00 -2.356530873006713322e-01
3.180299999999999905e+00 -9.462899999999999645e-01 4.298100000000000165e+01 -1.169928999999999969e-01 -2.477755413521907091e-01
3.181900000000000173e+00 -1.443800000000000061e+01 3.515599999999999881e+01 -2.229028000000000009e+00 -8.372238868482209662e-02
3.183300000000000018e+00 3.770000000000000018e-01 1.349799999999999933e+01 5.530011000000000010e+00 -3.076401023231117304e-01
3.185500000000000220e+00 1.762999999999999901e+01 2.570799999999999841e+01 1.152255000000000074e+01 -3.532984771852064054e-01
3.186399999999999899e+00 9.526700000000000168e-01 5.419500000000000028e+01 -3.432371999999999979e+00 -2.470531349120105857e-01
3.187699999999999978e+00 9.316000000000000725e+00 7.001000000000000512e+01 -1.304208999999999996e+01 -2.364764509222200550e-01
3.187699999999999978e+00 1.083600000000000030e+01 7.001000000000000512e+01 -9.753982999999999493e+01 -2.362821248624946691e-01
3.188200000000000145e+00 9.402799999999999159e+00 1.543500000000000050e+01 -4.156386999999999610e+00 -3.635718850146334447e-01
3.189299999999999802e+00 2.673999999999999932e+00 5.408599999999999852e+01 -2.742154999999999898e+00 -2.470437890080282028e-01
3.190900000000000070e+00 -2.715899999999999981e+00 7.961700000000000443e+01 2.422181000000000139e+01 -2.466729416098376593e-01
3.195800000000000196e+00 1.053400000000000070e+01 6.532999999999999829e+01 7.021908999999999512e-01 -2.362358086796186307e-01
3.198999999999999844e+00 -2.003600000000000136e+01 3.778699999999999903e+01 -5.849426000000000236e+00 -9.724187044281985826e-02
3.200899999999999856e+00 5.181899999999999729e+00 5.829599999999999937e+01 3.210821999999999843e+00 -2.469056420382520489e-01
3.201999999999999957e+00 9.303200000000000358e+00 6.154200000000000159e+01 -1.190358999999999945e+01 -2.363662348903834420e-01
3.201999999999999957e+00 9.303200000000000358e+00 6.240800000000000125e+01 -4.661825999999999937e+01 -2.363805993693074980e-01
3.202700000000000102e+00 1.315799999999999947e+01 3.827600000000000335e+01 8.992995999999999768e+00 -2.334778927579044816e-01
3.203399999999999803e+00 -2.005999999999999872e+01 3.685099999999999909e+01 -8.793551000000000784e+00 -1.078905035753892072e-01
3.205200000000000049e+00 -2.085699999999999932e+01 3.518800000000000239e+01 2.131362999999999985e+01 -1.041500720174153571e-01
3.206300000000000150e+00 -6.682000000000000384e+00 7.184900000000000375e+01 -2.556560000000000166e+00 -2.362439790197786438e-01
3.206300000000000150e+00 -5.161999999999999922e+00 7.184900000000000375e+01 3.869312000000000040e+01 -2.364303403085400157e-01
3.206999999999999851e+00 -1.480300000000000082e+01 1.745400000000000063e+01 3.058800000000000185e+00 6.465836019894868891e-02
3.206999999999999851e+00 -1.454899999999999949e+01 1.655999999999999872e+01 6.207482999999999862e+00 7.425073882016512694e-02
3.206999999999999851e+00 -1.354199999999999982e+01 1.555300000000000082e+01 8.216767999999999850e-01 -1.118190202139016237e-01
3.213999999999999968e+00 -1.434500000000000064e+01 6.009899999999999665e+01 9.043873000000000051e-01 -6.949351809462611662e-02
3.213999999999999968e+00 -1.401999999999999957e+01 5.936099999999999710e+01 -5.926514999999999977e-01 -6.933746919507211004e-02
3.214199999999999946e+00 -1.625199999999999889e+01 3.349600000000000222e+01 3.879462000000000188e+00 1.849363060201810946e-02
3.214199999999999946e+00 -1.538599999999999923e+01 3.349600000000000222e+01 8.378527999999999532e-01 2.002811064547158071e-02
3.214300000000000157e+00 3.705000000000000071e+00 4.309799999999999898e+01 -1.090165000000000051e+00 -2.476296771102529104e-01
3.216000000000000192e+00 -9.013899999999999579e+00 1.915700000000000003e+01 2.651349000000000089e+01 -2.387312442199111262e-01
3.216000000000000192e+00 -8.759999999999999787e+00 1.826300000000000168e+01 7.551178000000000168e+00 -2.384151462416352896e-01
3.217000000000000082e+00 -1.416999999999999993e+01 3.439699999999999847e+01 -1.696463999999999972e+00 -8.458743652631459109e-02
3.227100000000000080e+00 1.877700000000000102e+01 1.916499999999999915e+01 -2.946068999999999960e+01 -3.636690383503692892e-01
3.228299999999999947e+00 -3.911300000000000221e+00 7.903400000000000603e+01 4.675166000000000111e+01 -2.466762553278143977e-01
3.234500000000000153e+00 1.653500000000000014e+01 1.829400000000000048e+01 3.043562000000000101e+00 -3.636674197459557889e-01
3.236899999999999888e+00 -1.201099999999999923e+01 5.518099999999999739e+01 7.978348999999999691e+00 -6.813620158492877943e-02
3.237000000000000099e+00 5.437000000000000277e+00 6.779300000000000637e+01 7.169919000000000153e+00 -2.467536607851002484e-01
3.237000000000000099e+00 -1.097400000000000020e+01 3.142000000000000171e+01 3.901867999999999892e+00 -8.040548928326959888e-02
3.238599999999999923e+00 -3.565399999999999903e+00 5.354999999999999716e+01 2.892272999999999872e+00 -2.365099734656890829e-01
3.238999999999999879e+00 -1.415099999999999980e+01 6.645900000000000318e+01 2.354820000000000135e+00 -2.350481186531487299e-01
3.238999999999999879e+00 -1.270500000000000007e+01 6.726500000000000057e+01 -1.733826000000000089e+00 -2.352944320959408364e-01
3.238999999999999879e+00 -1.122899999999999920e+01 6.658299999999999841e+01 1.239391999999999960e+01 -2.354627442961610417e-01
3.245099999999999874e+00 -7.737400000000000055e+00 1.601599999999999824e+01 -2.123912999999999940e+00 -3.616295390853518227e-02
3.245800000000000018e+00 9.758300000000000196e+00 3.973599999999999710e+01 7.311677000000000426e+00 -2.351774979801278531e-01
3.249000000000000110e+00 1.046700000000000053e+01 4.304899999999999949e+01 1.967969000000000079e+01 -2.351874959540788956e-01
3.250900000000000123e+00 2.479000000000000092e+00 4.302300000000000324e+01 -9.432069000000000258e+00 -2.476856305140188730e-01
3.252299999999999969e+00 1.456900000000000084e+01 3.748400000000000176e+01 6.939422999999999675e+00 -2.328075017683687575e-01
3.254700000000000149e+00 8.352999999999999758e+00 5.899799999999999756e+01 2.687368999999999897e+00 -2.365067496365241273e-01
3.255599999999999827e+00 1.532100000000000017e+00 1.301999999999999957e+01 8.166487999999999525e-01 -3.838188712680837833e-01
3.262999999999999901e+00 -1.521400000000000041e+01 6.129999999999999716e+01 5.736419999999999852e+00 -6.990492589709820792e-02
3.266999999999999904e+00 9.916800000000000281e+00 3.725200000000000244e+01 2.219542000000000126e+00 -2.348023770539333643e-01
3.272499999999999964e+00 -1.655499999999999972e+01 3.279599999999999937e+01 1.123427000000000042e+01 1.714078589662191773e-02
3.272800000000000153e+00 -3.063000000000000167e+00 5.432900000000000063e+01 2.505246000000000084e+00 -2.366581142194197906e-01
3.273899999999999810e+00 -1.811500000000000110e+00 1.752799999999999869e+01 -1.243768000000000029e+01 -3.735088954365966551e-01
3.274000000000000021e+00 -1.733999999999999986e+01 5.867999999999999972e+01 5.720829000000000164e+00 -7.142438493436939484e-02
3.275700000000000056e+00 -1.460699999999999932e+01 2.087000000000000099e+01 -2.256345999999999918e+01 -2.471999095785831213e-01
3.278300000000000214e+00 -2.233000000000000096e+00 1.787500000000000000e+01 -5.718187000000000353e+00 -3.739327684032984211e-01
3.280299999999999994e+00 -1.449900000000000055e+01 3.363700000000000045e+01 -2.674821999999999811e+00 -8.724269237959139667e-02
3.280400000000000205e+00 -1.784400000000000119e+01 3.191600000000000037e+01 1.883855000000000146e+01 -1.136225811304382161e-01
3.281699999999999839e+00 -9.017400000000000304e+00 2.828999999999999915e+01 -1.689849999999999852e+01 3.679662874940411998e-02
3.282999999999999918e+00 -5.667500000000000426e+00 3.585999999999999943e+01 -2.903913999999999884e+00 -2.339042212843470137e-01
3.282999999999999918e+00 -5.667500000000000426e+00 3.672599999999999909e+01 -2.286973999999999840e+00 -2.341034046613714170e-01
3.283799999999999830e+00 -4.650199999999999889e+00 5.345700000000000074e+01 3.094091999999999842e+00 -2.362012102031502414e-01
3.286900000000000155e+00 -1.014899999999999913e+01 3.118799999999999883e+01 3.392583000000000126e-01 -7.733795002097443305e-02
3.287700000000000067e+00 -6.473499999999999588e+00 3.300699999999999790e+01 -6.258443999999999896e+00 -6.117718975068335563e-02
3.288699999999999957e+00 -1.085200000000000031e+01 5.441299999999999670e+01 5.230888000000000204e+00 -2.345866741499081642e-01
3.289499999999999869e+00 -1.662600000000000078e+00 7.668500000000000227e+01 1.088089000000000084e+00 -2.466891103356956827e-01
3.293099999999999916e+00 5.533400000000000318e+00 4.793699999999999761e+01 1.480874999999999986e+01 -2.472534198103524816e-01
3.294700000000000184e+00 -1.750899999999999901e+00 5.505199999999999960e+01 -1.219309999999999894e+00 -2.470327825015719014e-01
3.298999999999999932e+00 1.797500000000000142e+01 3.217000000000000171e+01 -5.961652999999999736e+01 -2.308241558417233885e-01
3.298999999999999932e+00 1.885699999999999932e+01 2.087900000000000134e+01 -8.436730999999999980e+00 -3.636420962409358526e-01
3.298999999999999932e+00 1.926800000000000068e+01 2.985099999999999909e+01 -1.676399999999999935e+01 -3.537455344316192685e-01
3.298999999999999932e+00 1.926800000000000068e+01 3.144900000000000162e+01 -7.000202000000000169e+01 -2.304858726830920079e-01
3.298999999999999932e+00 1.949500000000000099e+01 3.064999999999999858e+01 -1.734055000000000035e+01 -3.538084006436578166e-01
3.299100000000000144e+00 -4.279700000000000060e+00 7.818399999999999750e+01 5.329480000000000217e+00 -2.466807735589785777e-01
3.303999999999999826e+00 9.454900000000000304e+00 4.043599999999999994e+01 4.834408999999999929e-02 -2.353779246500936062e-01
3.309000000000000163e+00 -1.876399999999999935e+01 3.894899999999999807e+01 -1.574921999999999933e+01 -9.857554534392967693e-02
3.312500000000000000e+00 -6.042300000000000004e+00 3.968500000000000227e+01 -8.248398000000000119e-01 -2.344026252765098184e-01
3.313899999999999846e+00 1.090700000000000003e+01 4.422800000000000153e+01 1.204017999999999944e+01 -2.351135290093208374e-01
3.315700000000000092e+00 -7.816300000000000026e+00 5.304899999999999949e+01 2.450314000000000103e+00 -2.352665770318327909e-01
3.318299999999999805e+00 -5.697000000000000064e+00 2.212099999999999866e+01 -5.005499999999999616e+00 -2.349547122276095801e-01
3.320199999999999818e+00 4.730999999999999872e+00 1.474000000000000021e+01 4.343353999999999715e+00 -3.499999999999999778e-01
3.321099999999999941e+00 1.173499999999999943e+01 3.759100000000000108e+01 1.818091000000000079e+01 -2.339151683888963107e-01
3.321899999999999853e+00 -1.491900000000000048e+01 1.839000000000000057e+01 2.854361000000000259e-01 5.857998871338478825e-02
3.322999999999999954e+00 -8.932399999999999451e+00 6.716599999999999682e+01 -1.218671999999999978e+00 -2.358225943589859208e-01
3.330299999999999816e+00 -4.048300000000000232e+00 7.580400000000000205e+01 5.405755000000000088e+00 -2.466955048460182653e-01
3.330299999999999816e+00 -2.997700000000000031e+00 7.580400000000000205e+01 7.170016999999999641e+00 -2.466953044490743652e-01
3.330999999999999961e+00 1.187800000000000011e+01 1.595199999999999996e+01 6.641785999999999746e+00 -3.636393876176716722e-01
3.332199999999999829e+00 -1.508099999999999996e+00 1.682799999999999940e+01 -1.472404000000000046e+01 -3.729297361550859558e-01
3.337000000000000188e+00 -1.689099999999999824e+01 3.202100000000000080e+01 2.743755000000000166e+01 -1.060272491759402802e-01
3.338000000000000078e+00 -3.210999999999999854e+00 1.788599999999999923e+01 -1.438932000000000100e+00 -3.744892670384777356e-01
3.339999999999999858e+00 -1.024900000000000055e+01 2.745499999999999829e+01 -2.604706999999999883e+00 3.210049388672316095e-02
3.339999999999999858e+00 -8.714000000000000412e+00 2.898999999999999844e+01 -6.520307999999999993e+00 3.744861808234960926e-02
3.340800000000000214e+00 1.804299999999999926e+01 2.900600000000000023e+01 2.617286000000000001e+00 -3.536448966635400981e-01
3.343199999999999950e+00 -9.919000000000000483e+00 3.069600000000000151e+01 -2.699446000000000012e+00 -7.726057321341275874e-02
3.343999999999999861e+00 -2.536300000000000221e+00 5.516599999999999682e+01 3.752906999999999771e-01 -2.368025825286397823e-01
3.346000000000000085e+00 -6.170099999999999696e+00 3.370700000000000074e+01 7.051819000000000059e+00 -2.327570008375009214e-01
3.346999999999999975e+00 5.375000000000000000e+00 4.705599999999999739e+01 3.065683999999999898e+01 -2.473036516423759434e-01
3.346999999999999975e+00 5.606499999999999595e+00 4.624099999999999966e+01 1.563136000000000081e+00 -2.473415897359298454e-01
3.352100000000000080e+00 1.550699999999999967e+01 3.258500000000000085e+01 -1.562969999999999970e+01 -2.314699651295292759e-01
3.352100000000000080e+00 1.669800000000000040e+01 3.192099999999999937e+01 -9.571895999999999738e-01 -2.310178908350069560e-01
3.354999999999999982e+00 -6.539900000000000269e+00 1.457099999999999973e+01 -1.074779000000000018e+01 -4.783169565127479844e-02
3.356700000000000017e+00 -4.699999999999999734e-01 7.723900000000000432e+01 -9.479794000000000054e+00 -2.466845486604825055e-01
3.356700000000000017e+00 -4.699999999999999734e-01 7.969899999999999807e+01 -4.137612000000000023e+01 -2.466706056105682499e-01
3.357299999999999951e+00 7.239399999999999835e+00 1.486200000000000010e+01 9.185363999999999862e+00 -3.634971875217098414e-01
3.357400000000000162e+00 -2.953399999999999803e+00 7.911400000000000432e+01 1.803260999999999825e+01 -2.466749913741374256e-01
3.360100000000000087e+00 -7.665000000000000036e+00 3.280599999999999739e+01 -1.397810999999999915e+01 -6.510701546153702113e-02
3.363100000000000200e+00 3.789600000000000080e+00 1.386899999999999977e+01 4.627650000000000041e+00 -2.760458375986895585e-01
3.365000000000000213e+00 -1.211799999999999988e+00 1.589000000000000057e+01 -6.244163000000000352e+00 -3.722802120549070226e-01
3.367300000000000182e+00 1.469699999999999918e+01 1.588899999999999935e+01 6.410074000000000050e-01 -3.636936053800565727e-01
3.369400000000000173e+00 1.037700000000000067e+01 3.827499999999999858e+01 4.395761000000000251e+00 -2.346535168551033834e-01
3.369699999999999918e+00 4.655300000000000438e+00 5.737100000000000222e+01 -3.284657000000000160e+00 -2.469305795431936124e-01
3.369899999999999896e+00 -1.038299999999999912e+01 5.312400000000000233e+01 -1.572499000000000091e+00 -2.345595376382589026e-01
3.374099999999999877e+00 1.897899999999999920e+01 1.997700000000000031e+01 -1.662165999999999855e+01 -3.636591181690996821e-01
3.375000000000000000e+00 -1.938100000000000023e+01 3.172500000000000142e+01 1.841553000000000040e+01 -1.062588317163895429e-01
3.380300000000000082e+00 -3.430000000000000271e-01 7.134199999999999875e+01 -1.633264000000000138e+01 -2.467290445040137836e-01
3.380300000000000082e+00 1.177000000000000046e+00 7.134199999999999875e+01 -3.491814000000000107e+01 -2.467271968712890506e-01
3.388399999999999856e+00 1.378899999999999970e+01 3.416400000000000148e+01 1.058991999999999933e+01 -2.323664823417226355e-01
3.397200000000000220e+00 6.342800000000000438e+00 1.489799999999999969e+01 1.440986000000000011e+01 -3.634484751307877071e-01
3.398600000000000065e+00 1.076099999999999923e+01 3.742199999999999704e+01 7.632037999999999656e+00 -2.343284514253175244e-01
3.400999999999999801e+00 -2.154299999999999926e+01 3.200399999999999778e+01 4.602337999999999596e+00 -9.690785774164421829e-02
3.400999999999999801e+00 -2.154299999999999926e+01 3.451200000000000045e+01 1.448802000000000056e+01 -1.012183826901223299e-01
3.401100000000000012e+00 -4.416699999999999626e+00 7.665399999999999636e+01 4.513588000000000378e+00 -2.466896006780252004e-01
3.403200000000000003e+00 -5.237700000000000244e+00 4.103000000000000114e+01 1.279959000000000069e+00 -2.351615951528330528e-01
3.403300000000000214e+00 -9.919700000000000628e+00 2.669500000000000028e+01 -5.306767999999999930e+00 3.382084664184008271e-02
3.403300000000000214e+00 -9.919700000000000628e+00 2.821499999999999986e+01 -8.427823000000000064e+00 3.332220323605224188e-02
3.405199999999999783e+00 -3.602300000000000058e+00 2.014099999999999824e+01 -1.739378000000000091e+00 -2.341492495182448119e-01
3.406499999999999861e+00 -7.198400000000000354e+00 2.243299999999999983e+01 -7.684499000000000191e-01 -2.361305932455019241e-01
3.408199999999999896e+00 6.264899999999999913e+00 6.771099999999999852e+01 2.227082000000000050e+01 -2.467506667867061521e-01
3.408199999999999896e+00 7.664900000000000269e+00 6.771099999999999852e+01 3.600607000000000113e+01 -2.366733487672610659e-01
3.410000000000000142e+00 -1.208900000000000041e+01 1.483699999999999974e+01 4.156457999999999764e+00 -1.121979862367842029e-01
3.410099999999999909e+00 -9.054999999999999716e+00 5.236200000000000188e+01 -1.893319999999999892e+00 -2.348469993985236037e-01
3.418099999999999916e+00 -9.416299999999999670e+00 1.998100000000000165e+01 1.117507999999999974e-01 -2.394294960038837183e-01
3.418299999999999894e+00 -7.808699999999999974e+00 1.381099999999999994e+01 -8.536472000000000504e-01 -4.323675632514699385e-02
3.418299999999999894e+00 -6.869299999999999962e+00 1.381099999999999994e+01 -1.153499000000000052e+00 -4.891230902867169106e-02
3.418299999999999894e+00 -6.869299999999999962e+00 1.533099999999999952e+01 -1.768241000000000085e+01 -4.379580697541832213e-02
3.420999999999999819e+00 9.446199999999999264e+00 4.782099999999999795e+01 -5.774696999999999747e+00 -2.358748913265414637e-01
3.420999999999999819e+00 -5.020199999999999996e+00 2.184700000000000131e+01 -6.917290000000000383e-01 -2.345779752221103520e-01
3.423099999999999810e+00 -1.329900000000000082e+00 6.935500000000000398e+01 2.326127000000000056e+00 -2.467494970647495234e-01
3.424999999999999822e+00 9.318300000000000693e+00 6.325000000000000000e+01 -9.861879000000000062e+00 -2.363728535048908452e-01
3.425300000000000011e+00 1.839999999999999858e+01 2.269300000000000139e+01 -6.012704000000000271e+00 -3.530570665466341018e-01
3.425300000000000011e+00 1.839999999999999858e+01 2.355799999999999983e+01 -1.178145999999999916e+01 -3.531463562253279176e-01
3.428500000000000103e+00 -1.705900000000000105e+01 3.948799999999999955e+01 -7.616590999999999667e+00 -8.167194960370485757e-02
3.437199999999999811e+00 -9.412699999999999179e+00 3.223700000000000188e+01 1.374422999999999950e+00 -7.216155430885916322e-02
3.442899999999999849e+00 3.526899999999999924e+00 5.635000000000000142e+01 -3.445494999999999663e+01 -2.469659610361783775e-01
3.443000000000000060e+00 3.954699999999999882e+00 6.807099999999999795e+01 -9.709925999999999391e+00 -2.467541215905577623e-01
3.444500000000000117e+00 -1.055300000000000082e+01 2.092999999999999972e+01 3.413508000000000209e+01 4.581202570268137070e-02
3.445300000000000029e+00 -5.357999999999999652e+00 3.086899999999999977e+01 -1.051205999999999996e+01 -2.328349509232773840e-01
3.445300000000000029e+00 -5.357999999999999652e+00 3.226899999999999835e+01 -3.033671000000000006e+00 -2.332860944465586783e-01
3.445300000000000029e+00 -4.492700000000000138e+00 3.086899999999999977e+01 -1.723010999999999981e+01 -2.341050641518237219e-01
3.445300000000000029e+00 -4.492700000000000138e+00 3.226899999999999835e+01 1.030103000000000080e+01 -2.344230003657667982e-01
3.452900000000000080e+00 1.806200000000000117e+01 2.500799999999999912e+01 -6.397269999999999790e+00 -3.532760613254158910e-01
3.454400000000000137e+00 9.076900000000000190e+00 4.860699999999999932e+01 -5.449557999999999680e+00 -2.360304005164633734e-01
3.459000000000000075e+00 1.015600000000000058e+01 1.551399999999999935e+01 1.875472999999999946e+00 -3.636026181340284991e-01
3.462299999999999933e+00 -1.802100000000000080e+01 3.950800000000000267e+01 -3.014966999999999953e+00 -8.315729949092603990e-02
3.463099999999999845e+00 -4.710399999999999920e+00 4.165899999999999892e+01 2.832014000000000031e+00 -2.355694275244427927e-01
3.463400000000000034e+00 -3.905699999999999950e+00 2.084100000000000108e+01 -3.546898999999999802e+00 -2.341603765039852458e-01
3.464999999999999858e+00 -8.092299999999999827e+00 6.912900000000000489e+01 1.326651999999999987e+01 -2.360083643373943330e-01
3.467000000000000082e+00 1.441499999999999915e+01 3.433800000000000097e+01 6.159966999999999970e+00 -2.321316287285787594e-01
3.470800000000000107e+00 -4.079299999999999926e+00 7.746399999999999864e+01 1.459829000000000043e+01 -2.466842129065035805e-01
3.476100000000000190e+00 9.180699999999999861e+00 3.725200000000000244e+01 3.568544999999999856e+00 -2.351438605181855601e-01
3.476900000000000102e+00 8.747899999999999565e+00 6.931100000000000705e+01 -1.423108999999999902e-01 -2.365267895515365260e-01
3.480500000000000149e+00 1.009299999999999997e+01 4.218399999999999750e+01 1.121101999999999954e+01 -2.351992603674633031e-01
3.487499999999999822e+00 -1.045800000000000018e+01 3.047599999999999909e+01 7.550909000000000093e-01 -8.004963212547397400e-02
3.487699999999999800e+00 -1.300699999999999967e+01 5.595000000000000284e+01 4.345035000000000203e+00 -6.873915427925027244e-02
3.487999999999999989e+00 -1.586400000000000077e+01 6.246699999999999875e+01 3.559919999999999973e+00 -7.011816793469981268e-02
3.487999999999999989e+00 2.346999999999999975e+00 1.307699999999999996e+01 1.927985000000000060e+00 -2.750965364349919340e-01
3.490899999999999892e+00 -1.186800000000000033e+01 3.142000000000000171e+01 1.341304999999999970e+00 -8.384298740269290062e-02
3.491999999999999993e+00 -6.128999999999999559e+00 5.404899999999999949e+01 2.932977000000000167e+00 -2.358196693221678575e-01
3.492900000000000116e+00 1.863500000000000156e+01 2.439900000000000091e+01 -8.709778999999999272e+00 -3.532526119041236590e-01
3.494299999999999962e+00 -2.015899999999999803e+00 7.967499999999999716e+01 -1.286430000000000007e+01 -2.466710206153623353e-01
3.495200000000000085e+00 -3.638100000000000112e+00 1.881400000000000006e+01 6.978158999999999779e+00 -2.344636391114397200e-01
3.499000000000000110e+00 1.238000000000000078e+01 6.704699999999999704e+01 1.733928999999999832e+01 -2.359914693016223752e-01
3.499000000000000110e+00 1.238000000000000078e+01 6.883499999999999375e+01 1.441829000000000072e+01 -2.360404998532124599e-01
3.499000000000000110e+00 1.263400000000000034e+01 6.794100000000000250e+01 8.769985000000000142e+00 -2.359833179824740446e-01
3.503499999999999837e+00 -9.608000000000000221e-03 5.435199999999999676e+01 -2.936507000000000200e+00 -2.470513935971410113e-01
3.503600000000000048e+00 -5.661400000000000432e+00 3.156899999999999906e+01 -1.294017999999999979e+01 -2.326464490381610628e-01
3.503600000000000048e+00 -4.189300000000000246e+00 3.156899999999999906e+01 -7.471677999999999820e+00 -2.347010194750949741e-01
3.506499999999999950e+00 -3.845299999999999940e+00 6.919299999999999784e+01 -3.006860000000000088e+00 -2.467515216647546139e-01
3.506499999999999950e+00 -2.654399999999999871e+00 6.852899999999999636e+01 -2.310122000000000142e+01 -2.467588419271504185e-01
3.509300000000000086e+00 5.656500000000000306e+00 4.322899999999999920e+01 -3.387386999999999926e+00 -2.475334665512053112e-01
3.516599999999999948e+00 -1.228999999999999915e+01 2.074399999999999977e+01 -1.864902999999999977e+00 5.279839633020577683e-02
3.516799999999999926e+00 -2.643200000000000216e+00 7.660099999999999909e+01 2.242218000000000089e+01 -2.466890294886600332e-01
3.517100000000000115e+00 1.007600000000000051e+01 7.007299999999999329e+01 -2.097732999999999848e+01 -2.363586897665747588e-01
3.527200000000000113e+00 -4.181600000000000428e+00 6.966299999999999670e+01 -3.379574000000000189e-01 -2.365478970455187624e-01
3.527899999999999814e+00 -1.644600000000000151e+01 5.867999999999999972e+01 6.384217999999999726e+00 -7.079452445781217462e-02
3.530499999999999972e+00 -8.750000000000000000e+00 2.610399999999999920e+01 -5.528470999999999691e+00 3.986516097662179403e-02
3.534400000000000208e+00 9.484099999999999753e+00 3.655199999999999960e+01 -1.166552000000000078e+01 -2.348571945284650686e-01
3.534400000000000208e+00 9.484099999999999753e+00 3.795199999999999818e+01 8.634665000000000035e+00 -2.350286917437753309e-01
3.534400000000000208e+00 1.034900000000000020e+01 3.655199999999999960e+01 -9.476283000000000456e+00 -2.343620976704333947e-01
3.536599999999999966e+00 -1.529299999999999926e+01 6.548799999999999955e+01 4.921615000000000073e+00 -6.968388010066077498e-02
3.537900000000000045e+00 1.723499999999999943e+01 1.835200000000000031e+01 -2.027833999999999914e+00 -3.636782008606996297e-01
3.537900000000000045e+00 -1.576600000000000001e+01 3.868399999999999750e+01 -2.480490999999999957e+01 -8.044261669913106705e-02
3.539000000000000146e+00 -1.044200000000000017e+01 5.480400000000000205e+01 1.401964000000000077e+01 -2.347397015469544213e-01
3.540999999999999925e+00 -8.579599999999999227e+00 6.798000000000000398e+01 7.553083000000000435e-01 -2.359082615640701042e-01
3.543899999999999828e+00 -2.063899999999999901e-01 1.418299999999999983e+01 -4.177550000000000013e-02 -3.070787615667747161e-01
3.548299999999999788e+00 -8.935999999999999943e+00 3.271500000000000341e+01 -2.664727000000000068e+00 -6.945401175270890515e-02
3.551699999999999857e+00 2.894699999999999829e+00 4.316799999999999926e+01 -1.136722999999999928e+01 -2.476624677428889976e-01
3.552999999999999936e+00 -3.386000000000000121e+00 7.818399999999999750e+01 2.031838000000000122e+01 -2.466794504550296474e-01
3.553100000000000147e+00 -8.508800000000000807e+00 1.384399999999999942e+01 6.901329999999999965e-01 -3.821595967584508896e-02
3.556000000000000050e+00 -1.128500000000000014e+01 5.511299999999999955e+01 1.093680999999999948e+01 -2.345692175529980883e-01
3.556799999999999962e+00 -1.583699999999999974e+01 6.127300000000000324e+01 4.972275999999999918e+00 -7.016852895853634142e-02
3.559899999999999842e+00 -9.732400000000000162e+00 1.410699999999999932e+01 2.872015000000000207e+00 -2.568815709284899551e-02
3.560599999999999987e+00 -1.584699999999999953e+01 3.257800000000000296e+01 5.870875999999999983e+00 1.789858566872417484e-02
3.561700000000000088e+00 -1.149900000000000055e+01 3.057000000000000028e+01 1.458916000000000102e+00 2.754341571417285792e-02
3.561700000000000088e+00 -1.149900000000000055e+01 3.227000000000000313e+01 1.054143000000000052e+00 -8.022150575692346686e-02
3.561700000000000088e+00 -1.044899999999999984e+01 3.227000000000000313e+01 3.815110999999999919e+00 -7.604926130109487814e-02
3.565999999999999837e+00 -1.507699999999999996e+01 1.917000000000000171e+01 -1.038292999999999999e+01 -2.423693657879576191e-01
3.565999999999999837e+00 -1.507699999999999996e+01 2.010999999999999943e+01 -1.436686000000000085e+01 -2.448272752752598258e-01
3.566899999999999959e+00 -1.193899999999999961e-01 4.278399999999999892e+01 -1.217076000000000047e+00 -2.477922223979955874e-01
3.569999999999999840e+00 1.104899999999999949e+01 6.975700000000000500e+01 -2.590962999999999994e+01 -2.362259685540437637e-01
3.570399999999999796e+00 1.121299999999999963e+00 1.333099999999999952e+01 2.600565000000000015e+00 -3.086636398610064225e-01
3.573199999999999932e+00 5.986600000000000144e+00 4.544200000000000017e+01 -2.909337000000000173e-01 -2.473752776884795279e-01
3.573199999999999932e+00 5.986600000000000144e+00 4.867000000000000171e+01 2.595652999999999988e+00 -2.472065372972864772e-01
3.580299999999999816e+00 1.719000000000000083e+00 4.296000000000000085e+01 -4.984130999999999645e+00 -2.477249375179658430e-01
3.583000000000000185e+00 -7.383700000000000152e+00 5.374900000000000233e+01 5.334335999999999700e+01 -2.354562467962239281e-01
3.587600000000000122e+00 -1.832700000000000173e+01 5.874000000000000199e+01 3.587439999999999962e+00 -7.192231827807540889e-02
3.595899999999999874e+00 -2.727300000000000058e+00 5.360699999999999932e+01 9.265364000000000377e-01 -2.367756090593164942e-01
3.596299999999999830e+00 7.362000000000000099e+00 4.904299999999999926e+01 3.224280999999999953e+00 -2.366009533299580636e-01
3.597500000000000142e+00 1.305300000000000082e+01 3.416400000000000148e+01 2.426638000000000162e+01 -2.325611209364485954e-01
3.597999999999999865e+00 -8.768000000000000682e+00 4.350000000000000000e+01 2.959124999999999783e+00 -2.335714057085084561e-01
3.598700000000000010e+00 -1.786499999999999844e+01 5.782999999999999829e+01 3.216912999999999911e+00 -7.179640602363578095e-02
3.598700000000000010e+00 -1.786499999999999844e+01 5.953000000000000114e+01 2.436526000000000192e+00 -7.151398306855252796e-02
3.598700000000000010e+00 -1.681500000000000128e+01 5.782999999999999829e+01 4.429304000000000130e+00 -7.112382386896992648e-02
3.598700000000000010e+00 -1.681500000000000128e+01 5.953000000000000114e+01 7.410932999999999993e+00 -7.089180401920026908e-02
3.600099999999999856e+00 -5.577099999999999724e+00 4.043800000000000239e+01 9.055594999999999617e-01 -2.348766833228708995e-01
3.600699999999999790e+00 -2.725499999999999812e+00 4.280499999999999972e+01 1.185978000000000065e+01 -2.368110955414594321e-01
3.601999999999999869e+00 -1.981599999999999895e+01 3.810300000000000153e+01 -2.167971999999999966e+01 -9.776501248206771744e-02
3.604099999999999859e+00 -8.072800000000000864e+00 1.671399999999999864e+01 9.034981999999999402e+00 -3.277514913587108863e-02
3.605300000000000171e+00 1.493999999999999950e+01 3.511800000000000210e+01 1.294181999999999988e+01 -2.320522084243647476e-01
3.605300000000000171e+00 1.493999999999999950e+01 3.681799999999999784e+01 8.793132999999999200e+00 -2.324093434160323657e-01
3.607699999999999907e+00 -1.490900000000000070e+01 3.675900000000000034e+01 -2.098317000000000121e+01 -8.160531580443124156e-02
3.607699999999999907e+00 -1.469999999999999929e+01 3.602300000000000324e+01 -2.163055999999999912e+01 -8.242596657487202827e-02
3.607899999999999885e+00 -6.417099999999999582e+00 3.466299999999999670e+01 2.996091999999999977e+00 -2.328104030860774221e-01
3.609599999999999920e+00 3.035899999999999821e+00 6.863500000000000512e+01 -3.836824000000000012e+01 -2.467494416170397942e-01
3.610899999999999999e+00 -1.415999999999999925e+00 4.351400000000000290e+01 -2.458992999999999984e+00 -2.374958928617077747e-01
3.611200000000000188e+00 1.304199999999999982e+01 1.576299999999999990e+01 -2.590447000000000166e+00 -3.636758318292511727e-01
3.612000000000000099e+00 -1.467900000000000027e+01 6.577700000000000102e+01 8.088682999999999623e+00 -6.937613499569147968e-02
3.612899999999999778e+00 1.049000000000000021e+01 4.610399999999999920e+01 -2.045955999999999886e+00 -2.353619505894217201e-01
3.615299999999999958e+00 -2.009400000000000119e+01 3.165500000000000114e+01 4.783731000000000400e+00 -1.031086156491066025e-01
3.615800000000000125e+00 -5.853100000000000414e+00 4.359300000000000352e+01 -1.202173999999999951e-02 -2.351237003321204333e-01
3.616800000000000015e+00 -1.493299999999999983e+01 3.304699999999999704e+01 5.303949999999999498e-01 2.018163623218360153e-02
3.620299999999999851e+00 -4.558099999999999596e+00 4.284899999999999665e+01 1.272153000000000089e+00 -2.357748288499956213e-01
3.627600000000000158e+00 5.937999999999999723e+00 5.839600000000000080e+01 1.489352999999999927e+00 -2.468948039036173991e-01
3.629300000000000193e+00 -1.549300000000000033e+01 6.089900000000000091e+01 5.736419999999999852e+00 -6.998172097105263834e-02
3.630700000000000038e+00 1.102699999999999925e+01 6.540099999999999625e+01 3.821704000000000212e-01 -2.361297634726606809e-01
3.632299999999999862e+00 -7.792099999999999582e-01 1.518999999999999950e+01 -2.098818000000000072e+00 -2.957885113253057585e-01
3.634300000000000086e+00 -2.066600000000000215e+00 5.440599999999999881e+01 -1.129008000000000012e+00 -2.470540424149604841e-01
3.634700000000000042e+00 6.750600000000000378e+00 4.905799999999999983e+01 4.247584999999999944e+00 -2.368086223365962473e-01
3.634900000000000020e+00 1.492600000000000016e+01 3.345100000000000051e+01 -9.199875999999999721e+00 -2.316838602202038744e-01
3.646599999999999842e+00 -1.504499999999999993e+01 6.036599999999999966e+01 3.392466000000000204e+00 -6.975453956794265553e-02
3.646999999999999797e+00 -2.939999999999999905e-04 7.799899999999999523e+01 -9.772071999999999647e+00 -2.466783265259055169e-01
3.646999999999999797e+00 -2.939999999999999905e-04 7.893899999999999295e+01 -2.415318999999999861e+01 -2.466730461658755702e-01
3.650300000000000100e+00 -1.432499999999999929e+01 5.895600000000000307e+01 2.237912999999999819e+00 -6.940433503711687657e-02
3.652299999999999880e+00 1.536299999999999955e+01 1.670799999999999841e+01 5.192426000000000208e+00 -3.636926643477652599e-01
3.653000000000000025e+00 -7.748300000000000409e+00 2.269399999999999906e+01 -1.500926999999999900e+00 4.868267308427391693e-02
3.653000000000000025e+00 1.702700000000000102e+01 2.724800000000000111e+01 -4.883695000000000164e+01 -3.534673926838051150e-01
3.653000000000000025e+00 1.702700000000000102e+01 2.811299999999999955e+01 -2.399097000000000079e+01 -3.535539914162280639e-01
3.653000000000000025e+00 -1.583500000000000085e+01 6.493000000000000682e+01 3.382760000000000211e+00 -6.992973297185271775e-02
3.653500000000000192e+00 8.650000000000000355e+00 1.514799999999999969e+01 1.458015999999999979e+00 -3.635593535451610014e-01
3.653700000000000170e+00 1.820799999999999841e+01 1.856700000000000017e+01 -7.002632000000000190e+00 -3.636830458381470343e-01
3.653700000000000170e+00 -1.252699999999999925e+01 5.558700000000000330e+01 6.102559000000000289e+00 -6.833425088351553767e-02
3.653900000000000148e+00 -1.392900000000000027e+01 5.828300000000000125e+01 6.695572000000000301e+00 -6.918849521590104967e-02
3.654999999999999805e+00 -3.523000000000000131e+00 7.665399999999999636e+01 2.154755000000000109e+01 -2.466882863600409481e-01
3.655499999999999972e+00 -1.401600000000000001e+01 5.759400000000000119e+01 8.820572999999999553e+00 -6.928521009957078203e-02
3.655800000000000161e+00 1.335699999999999932e+01 3.346399999999999864e+01 1.905427999999999855e+01 -2.322552201154867435e-01
3.655800000000000161e+00 1.422199999999999953e+01 3.346399999999999864e+01 -4.722404000000000046e+00 -2.319183391842278286e-01
3.656699999999999839e+00 1.839900000000000091e+01 2.198000000000000043e+01 4.180026999999999937e+00 -3.529998787157312967e-01
3.656699999999999839e+00 1.860800000000000054e+01 2.124399999999999977e+01 5.285738000000000270e+00 -3.636393923611461187e-01
3.656899999999999817e+00 1.560399999999999920e+01 1.749599999999999866e+01 2.090472000000000108e+01 -3.636806569069993555e-01
3.658500000000000085e+00 -6.101099999999999746e+00 3.542399999999999949e+01 5.966441000000000106e-01 -2.333817740866321877e-01
3.658999999999999808e+00 1.913999999999999924e+00 5.379599999999999937e+01 -3.817814999999999959e+00 -2.470586443449179215e-01
3.658999999999999808e+00 3.206999999999999851e+00 5.451700000000000301e+01 -5.572919999999999874e+00 -2.470225585008981040e-01
3.658999999999999808e+00 3.434000000000000163e+00 5.531600000000000250e+01 -4.229655000000000342e+01 -2.469954670340948899e-01
3.665599999999999969e+00 -9.415700000000000180e-01 5.448199999999999932e+01 -2.320552000000000170e+00 -2.470493528207814704e-01
3.666700000000000070e+00 -4.146300000000000097e+00 5.275699999999999790e+01 1.614533999999999914e+00 -2.363590682856398784e-01
3.666700000000000070e+00 -3.095699999999999896e+00 5.275699999999999790e+01 1.623647000000000007e-01 -2.366741019323691797e-01
3.675600000000000200e+00 8.097500000000000142e+00 6.841100000000000136e+01 2.679092999999999947e+01 -2.365969940469401234e-01
3.676000000000000156e+00 -7.442000000000000171e+00 7.061899999999999977e+01 -1.220444000000000084e+00 -2.361381435315084154e-01
3.676000000000000156e+00 -7.214999999999999858e+00 7.141800000000000637e+01 -1.004016999999999982e+01 -2.361839253035267761e-01
3.676000000000000156e+00 -5.921999999999999709e+00 7.213899999999999579e+01 4.229942999999999564e+00 -2.363554610130297051e-01
3.676000000000000156e+00 -4.628999999999999559e+00 7.141800000000000637e+01 1.274508999999999936e+01 -2.365075755858118689e-01
3.676000000000000156e+00 -4.402000000000000135e+00 7.061899999999999977e+01 -1.039080000000000048e+01 -2.365305359227684590e-01
3.676099999999999923e+00 1.530899999999999928e+01 3.596800000000000352e+01 1.003259000000000079e+01 -2.320852019626896967e-01
3.678300000000000125e+00 1.127500000000000036e+01 3.696500000000000341e+01 3.455472999999999928e+01 -2.338857354618128492e-01
3.684299999999999908e+00 1.263299999999999912e+01 3.767999999999999972e+01 1.209515999999999991e+01 -2.333938245038678638e-01
3.684299999999999908e+00 1.368299999999999983e+01 3.767999999999999972e+01 1.408123999999999931e+01 -2.329822177555517515e-01
3.686100000000000154e+00 -1.229999999999999982e+00 7.717600000000000193e+01 -1.560162000000000049e+01 -2.466839304831765778e-01
3.686100000000000154e+00 -1.229999999999999982e+00 7.976200000000000045e+01 -1.295904999999999951e+01 -2.466693250138456417e-01
3.697799999999999976e+00 -9.792299999999999116e+00 2.075900000000000034e+01 1.207791000000000059e+00 -2.401233356993421053e-01
3.698399999999999910e+00 -1.862399999999999878e+01 3.162199999999999989e+01 5.022605000000000430e+00 -1.104672235273230774e-01
3.699699999999999989e+00 -1.868499999999999872e+01 5.787400000000000233e+01 3.615448999999999913e+00 -7.227409500047109192e-02
3.700000000000000178e+00 -1.097400000000000020e+01 3.304999999999999716e+01 2.093707999999999902e+00 -7.645554469425476507e-02
3.700800000000000090e+00 9.674699999999999633e+00 6.422599999999999909e+01 1.979659999999999975e+00 -2.363085015736211270e-01
3.704800000000000093e+00 -1.619500000000000028e+01 3.946800000000000352e+01 -3.029081000000000135e+00 -8.005934671198662589e-02
3.704899999999999860e+00 -1.474200000000000088e+01 5.966599999999999682e+01 2.034167000000000058e+00 -6.960048318767587949e-02
3.708899999999999864e+00 -6.659699999999999953e+00 3.919599999999999795e+01 -1.379832000000000003e-01 -2.338792984597230507e-01
3.711599999999999788e+00 6.964900000000000091e+00 6.765200000000000102e+01 2.926690999999999931e+01 -2.467469541670756494e-01
3.712699999999999889e+00 -4.925300000000000011e+00 3.156899999999999906e+01 -8.726803000000000310e+00 -2.336951455366243768e-01
3.718300000000000161e+00 -1.985800000000000054e+01 3.619800000000000040e+01 1.756715000000000027e+00 -1.088064414703970584e-01
3.718700000000000117e+00 -2.687300000000000022e+00 1.714000000000000057e+01 -2.139158999999999811e+00 -3.734523014737099467e-01
3.720600000000000129e+00 -7.983200000000000074e+00 2.353500000000000014e+01 3.094488999999999920e-02 4.677133659488571377e-02
3.720600000000000129e+00 -7.774099999999999788e+00 2.427100000000000080e+01 -9.968683999999999656e+00 4.696109295817335605e-02
3.725000000000000089e+00 -1.917000000000000037e+00 1.605300000000000082e+01 -3.038495000000000168e+00 -3.723870835533252266e-01
3.727899999999999991e+00 -1.513400000000000034e+01 3.779299999999999926e+01 -1.642229999999999990e+01 -8.035131114609836422e-02
3.728000000000000203e+00 -1.931400000000000006e+01 3.862100000000000222e+01 -3.168875999999999848e+01 -9.834286871727360158e-02
3.729999999999999982e+00 -7.788000000000000256e+00 5.441400000000000148e+01 6.462417999999999552e+01 -2.354004845148479075e-01
3.732299999999999951e+00 -1.395299999999999940e+01 1.607900000000000063e+01 3.994603000000000126e+00 9.942876124695394779e-02
3.735599999999999810e+00 -7.395500000000000185e+00 4.303900000000000148e+01 1.369410000000000016e+00 -2.342063896737044959e-01
3.736200000000000188e+00 -7.888200000000000323e+00 4.355299999999999727e+01 2.113293000000000088e+00 -2.340399213503678022e-01
3.736899999999999888e+00 -1.052899999999999991e+01 6.631600000000000250e+01 5.428897000000000084e+00 -2.355651778468601520e-01
3.737800000000000011e+00 -1.134699999999999953e+01 1.467999999999999972e+01 2.876596999999999849e+00 -3.605294442033363245e-03
3.739799999999999791e+00 -9.486399999999999721e+00 2.880499999999999972e+01 -1.221271999999999913e+00 3.491385585708762368e-02
3.739799999999999791e+00 -9.486399999999999721e+00 3.020499999999999829e+01 -6.980418000000000456e-01 -7.554943695478308352e-02
3.743599999999999817e+00 -7.566499999999999559e+00 6.971200000000000330e+01 1.245451000000000086e+01 -2.361027886092347539e-01
3.743700000000000028e+00 -1.743700000000000117e+01 3.138400000000000034e+01 5.285654000000000075e+00 -8.230771673029125060e-03
3.746100000000000207e+00 -2.519800000000000040e+00 7.893800000000000239e+01 4.721849999999999881e+00 -2.466740661049451888e-01
3.747100000000000097e+00 5.519000000000000128e+00 6.814100000000000534e+01 7.033220999999999501e-01 -2.467468544719740586e-01
3.748099999999999987e+00 -9.706099999999999284e+00 5.480400000000000205e+01 1.590450000000000053e+01 -2.349320646599044604e-01
3.750000000000000000e+00 -1.373900000000000077e+01 3.486699999999999733e+01 -8.305270999999999404e+00 -8.202687578895878628e-02
3.750900000000000123e+00 -6.397000000000000242e+00 2.238800000000000168e+01 -1.854495000000000005e+00 -2.355392834875046637e-01
3.752899999999999903e+00 7.990999999999999659e+00 1.500699999999999967e+01 4.436880000000000379e+00 -3.635359114393889035e-01
3.755599999999999827e+00 -9.423299999999999343e+00 6.676999999999999602e+01 2.479743000000000031e+00 -2.357489243152849634e-01
3.756699999999999928e+00 -7.232400000000000162e+00 3.329699999999999704e+01 3.858927000000000190e-02 -6.237304754051892219e-02
3.762100000000000222e+00 -2.649999999999999911e+00 7.818399999999999750e+01 4.992409000000000319e+00 -2.466782693164085993e-01
3.763599999999999834e+00 1.117800000000000082e+01 1.568500000000000050e+01 7.487644000000000410e+00 -3.636372970328146104e-01
3.764299999999999979e+00 -1.355499999999999972e+01 6.693999999999999773e+01 9.884228999999999488e+00 -2.351722896571268873e-01
3.764299999999999979e+00 -1.185500000000000043e+01 6.693999999999999773e+01 4.703960000000000363e+00 -2.354069542843164609e-01
3.768699999999999939e+00 1.873499999999999943e+01 2.942000000000000171e+01 1.181522999999999968e+01 -3.537438579302039088e-01
3.768699999999999939e+00 1.873499999999999943e+01 3.187999999999999901e+01 -3.916713000000000022e+01 -2.304072150997809876e-01
3.770000000000000018e+00 -1.101200000000000045e+01 3.379299999999999926e+01 2.846159000000000106e+00 -7.522623550823945293e-02
3.773000000000000131e+00 1.737300000000000111e+01 2.632799999999999940e+01 -2.471013000000000126e+00 -3.534024992763569184e-01
3.773899999999999810e+00 -6.064099999999999824e+00 3.629299999999999926e+01 -2.437654000000000210e+00 -2.336662953741797111e-01
3.777800000000000047e+00 -8.121100000000000207e+00 2.519500000000000028e+01 -2.248825000000000129e-01 4.423920494493248368e-02
3.779999999999999805e+00 7.503000000000000114e+00 5.867300000000000182e+01 2.440192999999999834e+00 -2.366305472625072071e-01
3.781499999999999861e+00 1.272899999999999920e+01 3.467099999999999937e+01 9.038576000000000832e+00 -2.327148277416529465e-01
3.782999999999999918e+00 1.215099999999999980e+01 6.656399999999999295e+01 8.654973000000000027e+00 -2.359876469785648911e-01
3.785400000000000098e+00 -3.115200000000000191e+00 7.741500000000000625e+01 6.377137000000000278e+00 -2.466828483131790206e-01
3.791100000000000136e+00 -5.449499999999999567e+00 4.439699999999999847e+01 -1.662907999999999831e+01 -2.354370097938081885e-01
3.791300000000000114e+00 -1.637800000000000011e+01 3.154599999999999937e+01 1.478248999999999924e+01 1.528361523416652337e-02
3.793600000000000083e+00 -8.335399999999999920e+00 4.257000000000000028e+01 5.089368999999999588e+00 -2.335928879559935611e-01
3.797800000000000065e+00 9.045700000000000074e+00 5.965899999999999892e+01 2.156036999999999981e+00 -2.363245550069900391e-01
3.798099999999999810e+00 -9.182999999999999829e+00 2.950499999999999901e+01 -9.952386000000000621e+00 -7.539780634069896681e-02
3.804399999999999782e+00 -2.243300000000000072e+00 7.735399999999999920e+01 2.442988000000000159e+00 -2.466828181287091526e-01
3.808100000000000041e+00 -8.265000000000000568e+00 3.341299999999999670e+01 1.239085999999999999e+01 -6.575747589428306006e-02
3.814400000000000013e+00 -1.042999999999999972e+01 2.869699999999999918e+01 -5.352966000000000335e+00 3.116912930963898140e-02
3.814999999999999947e+00 -6.929000000000000270e+00 3.399699999999999989e+01 7.940451999999999622e+00 -6.100648565938941725e-02
3.818099999999999827e+00 -7.929999999999999716e+00 5.492600000000000193e+01 3.813369999999999749e+01 -2.354041177765253678e-01
3.825000000000000178e+00 -1.289799999999999969e+01 2.089000000000000057e+01 -1.297117000000000075e+01 4.942340907683198670e-02
3.826400000000000023e+00 -1.086200000000000010e+01 5.557600000000000051e+01 1.635135000000000005e+01 -2.347290107180005914e-01
3.826400000000000023e+00 -9.996999999999999886e+00 5.557600000000000051e+01 1.586680999999999919e+01 -2.349367338778073633e-01
3.828899999999999970e+00 1.070599999999999952e+01 1.539700000000000024e+01 9.816577999999999804e+00 -3.636322065825730032e-01
3.829000000000000181e+00 -1.001600000000000001e+01 3.296999999999999886e+01 6.218685999999999936e+00 -7.272948460201469900e-02
3.829899999999999860e+00 1.721600000000000108e+01 3.197800000000000153e+01 -1.111973000000000056e+01 -2.306598493461814170e-01
3.833699999999999886e+00 5.860100000000000087e+00 1.542500000000000071e+01 2.061596000000000117e+01 -3.634022919292993481e-01
3.833699999999999886e+00 6.855900000000000105e+00 1.542500000000000071e+01 1.482404999999999973e+01 -3.634628552263561851e-01
3.833899999999999864e+00 -9.449999999999999289e+00 2.616199999999999903e+01 -5.403067000000000064e+00 3.663500388929859242e-02
3.837299999999999933e+00 9.253299999999999415e+00 6.107900000000000063e+01 1.659386999999999901e+01 -2.363093709289732780e-01
3.837699999999999889e+00 -9.333099999999999952e+00 3.347200000000000131e+01 1.250301999999999936e+01 -6.949245910810222804e-02
3.839799999999999880e+00 1.303200000000000003e+01 3.537100000000000222e+01 -1.526680000000000037e+00 -2.327016897846378440e-01
3.840700000000000003e+00 -8.585300000000000153e+00 5.289500000000000313e+01 1.554923000000000000e-01 -2.350561522591897712e-01
3.843300000000000161e+00 -1.752899999999999991e+01 4.017999999999999972e+01 -1.015213999999999928e+01 -8.127701126687580935e-02
3.843300000000000161e+00 -1.658899999999999864e+01 4.017999999999999972e+01 -1.744142000000000081e+01 -7.974555427226373561e-02
