7.351399999999999579e+01 2.669500000000000028e+01 5.701299999999999812e+01 -1.125266000000000099e+00 2.005593268025732123e-01
7.351500000000000057e+01 4.553099999999999881e+01 2.207100000000000151e+01 -8.446354000000000362e-01 -2.826131165188182082e-01
7.351600000000000534e+01 3.609799999999999898e+01 6.117999999999999972e+01 3.254239999999999799e+00 1.349457844070433843e-01
7.351600000000000534e+01 3.739099999999999824e+01 6.190100000000000335e+01 -2.834388000000000130e+00 1.512186268599251260e-01
7.351600000000000534e+01 3.868399999999999750e+01 6.117999999999999972e+01 -2.601230999999999938e+01 1.164423629391031084e-01
7.351600000000000534e+01 3.891100000000000136e+01 6.038100000000000023e+01 -3.862212000000000245e+01 1.157833947288152976e-01
7.351600000000000534e+01 2.190299999999999869e+01 5.200200000000000244e+01 5.071327000000000140e+00 1.188075742635717608e-01
7.352299999999999613e+01 3.586899999999999977e+01 1.011700000000000017e+02 3.115193000000000101e+00 5.839774602590638158e-02
7.352500000000000568e+01 3.503099999999999881e+01 5.945799999999999841e+01 3.079193000000000069e+00 -2.108538763595210752e-02
7.352500000000000568e+01 2.891400000000000148e+01 3.284300000000000352e+01 3.754459000000000213e+00 -1.427302011354626976e-01
7.352700000000000102e+01 3.862700000000000244e+01 8.043399999999999750e+01 1.671564000000000050e+00 -1.137725306627053179e-01
7.353199999999999648e+01 4.316799999999999926e+01 1.637199999999999989e+01 3.703340999999999994e+00 -1.057255862463937213e-01
7.353300000000000125e+01 3.767999999999999972e+01 9.683100000000000307e+01 -1.358649999999999913e+01 2.024944799684801761e-02
7.353300000000000125e+01 2.000400000000000134e+01 5.358700000000000330e+01 6.467501000000000388e+00 1.417099464265986486e-01
7.353300000000000125e+01 2.000400000000000134e+01 5.528699999999999903e+01 2.328296999999999883e+01 1.253694390135156600e-01
7.353400000000000603e+01 4.326200000000000045e+01 8.504399999999999693e+01 -1.469772000000000078e+00 -2.163523023549843161e-01
7.354099999999999682e+01 2.235900000000000176e+01 5.772399999999999665e+01 -8.484303999999999846e+00 -4.477317640281792965e-02
7.354200000000000159e+01 4.555400000000000205e+01 2.085600000000000165e+01 6.608869000000000327e+00 -2.699669647840646780e-02
7.354300000000000637e+01 4.802300000000000324e+01 2.990500000000000114e+01 -1.751729999999999876e+01 1.204969503696820821e-01
7.354300000000000637e+01 1.923900000000000077e+01 9.179000000000000625e+01 -7.912880999999999609e+00 8.529880708951859125e-03
7.354300000000000637e+01 1.966300000000000026e+01 5.749900000000000233e+01 7.600050000000000416e+00 4.517833258351511283e-02
7.354500000000000171e+01 4.772500000000000142e+01 2.172899999999999920e+01 -1.056265999999999927e+01 -2.765864016312858942e-01
7.354600000000000648e+01 2.363200000000000145e+01 5.384199999999999875e+01 1.356085999999999991e+01 7.759349287264177830e-02
7.354699999999999704e+01 4.955799999999999983e+01 4.612800000000000011e+01 -8.881278999999999257e+00 -2.498112383198819730e-01
7.354800000000000182e+01 3.447299999999999898e+01 4.744599999999999795e+01 1.947099000000000046e+01 8.325861973093220958e-02
7.354900000000000659e+01 3.439900000000000091e+01 5.786699999999999733e+01 -3.098715999999999937e+01 3.442178525405359402e-02
7.355200000000000671e+01 4.828099999999999881e+01 2.907100000000000151e+01 -2.524781000000000120e+01 2.319447816245964571e-03
7.355400000000000205e+01 2.049399999999999977e+01 5.334799999999999898e+01 2.986727999999999827e+00 1.379939840288862407e-01
7.355400000000000205e+01 3.252799999999999869e+01 5.956900000000000261e+01 1.902441000000000049e+00 3.144849116180203213e-02
7.355500000000000682e+01 5.003799999999999670e+01 8.374899999999999523e+01 -2.819936999999999827e+01 -2.326217758910523181e-01
7.355700000000000216e+01 4.199600000000000222e+01 9.251300000000000523e+01 2.250535000000000174e+00 -2.015087000078220891e-01
7.355700000000000216e+01 4.628600000000000136e+01 8.284300000000000352e+01 -3.064949000000000012e+01 -2.604028656217228788e-01
7.355700000000000216e+01 5.174099999999999966e+01 8.280899999999999750e+01 2.069284999999999997e+01 -3.595723356468843446e-01
7.355899999999999750e+01 4.029899999999999949e+01 8.357399999999999807e+01 1.585968000000000089e+01 -7.060560875686063172e-03
7.356100000000000705e+01 1.400099999999999945e+01 7.759699999999999420e+01 -5.718327000000000132e-02 -3.132533296648599974e-02
7.356100000000000705e+01 1.536200000000000010e+01 7.679900000000000659e+01 1.034070999999999962e+00 -3.665027443032838061e-02
7.356199999999999761e+01 2.090700000000000003e+01 8.230700000000000216e+01 1.087936000000000014e+01 3.015448442656649686e-01
7.356199999999999761e+01 2.111599999999999966e+01 8.304300000000000637e+01 6.144687000000000232e+00 2.500634337883697045e-01
7.356399999999999295e+01 4.193999999999999773e+01 8.400700000000000500e+01 -3.291970000000000174e-01 -4.191797038454842667e-02
7.356499999999999773e+01 1.221299999999999919e+01 8.580299999999999727e+01 3.883226000000000067e+00 -2.673399073847009255e-01
7.356999999999999318e+01 3.130600000000000094e+01 4.547500000000000142e+01 -2.293907000000000096e+01 -4.051032893617690922e-01
7.357200000000000273e+01 3.329800000000000182e+01 4.681199999999999761e+01 8.717183000000000348e+00 -1.191154359832989618e-02
7.357299999999999329e+01 2.102700000000000102e+01 5.780400000000000205e+01 -3.209184000000000037e+00 -7.211221515806426514e-03
7.357399999999999807e+01 4.583400000000000318e+01 2.277100000000000080e+01 2.278003999999999862e-01 -2.746943407308487517e-01
7.357399999999999807e+01 2.070899999999999963e+01 8.104200000000000159e+01 -1.360276999999999958e+00 -1.015473259653609378e-01
7.357399999999999807e+01 2.091799999999999926e+01 8.030599999999999739e+01 -2.152021999999999835e+01 -1.325980921007249291e-01
7.357399999999999807e+01 2.091799999999999926e+01 8.177800000000000580e+01 1.381049999999999933e+01 -8.703127819614918381e-02
7.357599999999999341e+01 2.047400000000000020e+01 9.264799999999999613e+01 -3.023706999999999923e+00 6.772479380177365282e-02
7.357699999999999818e+01 3.694700000000000273e+01 9.810200000000000387e+01 2.172630999999999979e+00 6.615692774365375395e-02
7.357999999999999829e+01 2.920299999999999940e+01 2.797200000000000131e+01 4.938769999999999882e+00 2.724550483985621607e-01
7.358100000000000307e+01 2.656800000000000139e+01 7.481699999999999307e+01 -5.152594999999999814e+00 1.426683389976295679e-01
7.358199999999999363e+01 1.251900000000000013e+01 8.104600000000000648e+01 1.843822000000000116e+01 -3.204474664644730297e-01
7.359000000000000341e+01 4.227799999999999869e+01 9.165800000000000125e+01 5.745866999999999614e+00 1.170529300714325399e-01
7.359000000000000341e+01 4.910300000000000153e+01 8.366500000000000625e+01 -1.342475999999999914e+01 -2.349624643762629472e-01
7.359099999999999397e+01 4.603000000000000114e+01 2.606099999999999994e+01 7.977742000000000644e+01 -2.661011663962752349e-01
7.359699999999999420e+01 3.339300000000000068e+01 5.315599999999999881e+01 8.782009000000000398e+00 3.215091645963836231e-01
7.359699999999999420e+01 4.755700000000000216e+01 8.203000000000000114e+01 -4.304592000000000418e+00 -2.468976496269336685e-01
7.359900000000000375e+01 1.601000000000000156e+01 8.643099999999999739e+01 1.054418000000000077e+01 -2.388375745414745288e-01
7.359900000000000375e+01 1.748199999999999932e+01 8.643099999999999739e+01 7.973268999999999496e-01 -2.131987967735966549e-01
7.359900000000000375e+01 3.218099999999999739e+01 4.402199999999999847e+01 -9.314261999999999819e-01 -3.977858145073439600e-01
7.360099999999999909e+01 4.509599999999999653e+01 4.528499999999999659e+01 3.507428999999999775e+01 -3.651488442533004641e-01
7.360399999999999920e+01 4.756700000000000017e+01 8.364000000000000057e+01 -1.445297000000000054e+01 -2.448473372408509763e-01
7.360399999999999920e+01 1.963500000000000156e+01 5.443699999999999761e+01 6.441550999999999583e+00 1.368949020287114071e-01
7.361199999999999477e+01 1.204599999999999937e+01 8.021200000000000330e+01 1.391309000000000040e+01 -3.089216744669591175e-01
7.361299999999999955e+01 3.068299999999999983e+01 2.699399999999999977e+01 5.198493000000000031e+00 2.673895755472633917e-01
7.361299999999999955e+01 2.196900000000000119e+01 9.409499999999999886e+01 3.005447999999999897e+00 -3.356958863607966137e-01
7.361299999999999955e+01 2.963299999999999912e+01 8.369899999999999807e+01 -1.731322000000000116e+01 1.892831760253488316e-01
7.361400000000000432e+01 3.180699999999999861e+01 4.444800000000000040e+01 -2.132105999999999835e+00 -4.004556961740988186e-01
7.361700000000000443e+01 2.296900000000000119e+01 7.797799999999999443e+01 -5.466366999999999976e+00 -2.060470552312242687e-01
7.361799999999999500e+01 1.207499999999999929e+01 8.492300000000000182e+01 8.122424999999999784e+00 -2.632252585478458973e-01
7.361799999999999500e+01 1.232900000000000063e+01 8.402899999999999636e+01 4.230267999999999695e+00 -3.593880668998323258e-01
7.361799999999999500e+01 2.558399999999999963e+01 7.536400000000000432e+01 -3.136693000000000175e+00 2.240747830294755327e-01
7.361899999999999977e+01 2.147299999999999898e+01 8.388100000000000023e+01 1.058586999999999989e+01 2.117625288914014026e-01
7.362099999999999511e+01 5.072899999999999920e+01 4.427199999999999847e+01 -2.883448999999999884e+01 6.973376472951978156e-02
7.362099999999999511e+01 5.072899999999999920e+01 4.521200000000000330e+01 -5.426187999999999789e+01 7.207311901209635663e-02
7.362099999999999511e+01 4.675099999999999767e+01 4.099399999999999977e+01 4.311931999999999654e+00 2.814004802650766912e-01
7.362699999999999534e+01 3.248199999999999932e+01 4.605899999999999750e+01 3.937301999999999857e+00 1.197709172950400455e-02
7.362699999999999534e+01 4.560099999999999909e+01 5.244700000000000273e+01 -8.126170999999999367e+00 -8.413771136223655023e-02
7.363299999999999557e+01 4.754399999999999693e+01 2.353900000000000148e+01 -6.080021999999999593e+00 -2.681585962372555754e-01
7.363700000000000045e+01 2.039300000000000068e+01 6.672199999999999420e+01 4.125449999999999839e+00 -1.875569197315241632e-01
7.363899999999999579e+01 1.654899999999999949e+01 7.376099999999999568e+01 -9.025890000000000413e+00 -3.669831164642872734e-01
7.364100000000000534e+01 2.261799999999999855e+01 8.563200000000000500e+01 -1.297298000000000062e-01 8.934405835689719633e-02
7.364199999999999591e+01 2.126899999999999835e+01 7.954900000000000659e+01 -2.399716000000000093e+01 -1.673429562067590970e-01
7.364199999999999591e+01 3.583700000000000330e+01 2.270100000000000051e+01 8.489923999999999804e-01 -7.848095595325342566e-02
7.364199999999999591e+01 4.663600000000000279e+01 2.455699999999999861e+01 2.774129999999999896e+01 -3.668744423356531392e-01
7.365000000000000568e+01 3.860600000000000165e+01 2.109199999999999875e+01 7.244648999999999894e+00 -1.452581337765708747e-01
7.365000000000000568e+01 4.628000000000000114e+01 2.528900000000000148e+01 8.224610000000000198e+00 -2.397494588774041480e-01
7.365000000000000568e+01 1.871799999999999997e+01 8.934799999999999898e+01 -4.325966000000000200e+00 -9.901570007917223637e-02
7.365000000000000568e+01 4.878499999999999659e+01 8.290200000000000102e+01 -1.125412000000000035e+01 -2.357968551040130478e-01
7.365399999999999636e+01 2.420100000000000051e+01 9.345600000000000307e+01 -1.666213000000000122e+01 -3.400271219627549191e-01
7.365699999999999648e+01 3.926299999999999812e+01 8.076099999999999568e+01 5.351485000000000269e+00 -1.115374065468635878e-01
7.365699999999999648e+01 4.707200000000000273e+01 4.574699999999999989e+01 7.459429000000000087e+00 -2.374560290538950957e-01
7.365699999999999648e+01 1.631299999999999883e+01 8.573099999999999454e+01 1.288599999999999923e+01 -2.321495377462556020e-01
7.365699999999999648e+01 1.717899999999999849e+01 8.573099999999999454e+01 7.107928000000000246e+00 -2.129994662686948426e-01
7.365900000000000603e+01 2.926099999999999923e+01 7.914900000000000091e+01 -8.986252999999999602e+00 -8.349557120022801926e-02
7.366100000000000136e+01 4.644200000000000017e+01 3.841700000000000159e+01 2.105220999999999876e+01 1.153919236127401715e-01
7.366200000000000614e+01 4.790100000000000335e+01 8.287199999999999989e+01 -3.030596999999999852e+01 -2.423776651741019195e-01
7.366200000000000614e+01 2.675700000000000145e+01 9.528499999999999659e+01 -1.956015000000000059e+00 7.932798572360751088e-02
7.366299999999999670e+01 2.837099999999999866e+01 8.396200000000000330e+01 -1.037850000000000072e+01 1.832764164003838070e-01
7.366299999999999670e+01 1.902100000000000080e+01 6.184899999999999665e+01 4.671727999999999881e+00 -2.682504695457320620e-01
7.366299999999999670e+01 5.070400000000000063e+01 7.979099999999999682e+01 5.692778999999999812e+00 -2.346683153378253672e-01
7.366299999999999670e+01 5.163499999999999801e+01 7.979099999999999682e+01 7.341005000000000003e+00 -3.577899511200005600e-01
7.366400000000000148e+01 4.750300000000000011e+01 3.366499999999999915e+01 1.271374999999999922e+00 2.465204606071955129e-01
7.366500000000000625e+01 4.558200000000000074e+01 5.604099999999999682e+01 -8.709986000000000672e+00 -4.347237142766583601e-02
7.366800000000000637e+01 2.101099999999999923e+01 5.535900000000000176e+01 1.333258999999999972e+01 1.042962581889319978e-01
7.366899999999999693e+01 3.016799999999999926e+01 6.056099999999999994e+01 -7.405805999999999500e-02 2.360016483756218475e-01
7.367100000000000648e+01 2.246300000000000097e+01 7.815999999999999659e+01 -3.836822999999999873e+00 -2.357022789528553375e-01
7.367400000000000659e+01 3.419200000000000017e+01 2.577599999999999980e+01 4.250015999999999572e+00 1.874194451426168251e-01
7.367600000000000193e+01 2.909600000000000009e+01 3.144000000000000128e+01 2.406033000000000044e+01 2.848515549053420304e-01
7.367600000000000193e+01 2.909600000000000009e+01 3.238799999999999812e+01 2.332579000000000136e+01 -1.345461457070965539e-01
7.367700000000000671e+01 2.148600000000000065e+01 8.487300000000000466e+01 9.962047999999999348e+00 1.697133360816655834e-01
7.367700000000000671e+01 2.375100000000000122e+01 8.487300000000000466e+01 3.137433000000000138e+00 8.272062440737179556e-02
7.367799999999999727e+01 3.423400000000000176e+01 4.066400000000000148e+01 4.694938999999999751e+00 -3.381087885077821431e-01
7.367799999999999727e+01 3.444299999999999784e+01 4.139999999999999858e+01 2.624607000000000134e+00 -3.368701037716840263e-01
7.367799999999999727e+01 4.665699999999999648e+01 4.009199999999999875e+01 -3.910858000000000168e+00 2.238315524376309207e-01
7.368099999999999739e+01 3.193700000000000117e+01 2.752799999999999869e+01 4.735552000000000206e+00 2.570845761035499000e-01
7.368200000000000216e+01 4.394400000000000261e+01 4.723599999999999710e+01 2.161931999999999832e+01 -3.648747731555458396e-01
7.368200000000000216e+01 4.394400000000000261e+01 4.810199999999999676e+01 9.273486999999999369e+00 -3.671502499515756357e-01
7.368200000000000216e+01 3.708700000000000330e+01 2.171600000000000108e+01 1.568772999999999973e+00 -1.545015841990105832e-01
7.368500000000000227e+01 2.992200000000000060e+01 6.803799999999999670e+01 -3.854229999999999823e+00 1.044391212945829234e-01
7.368600000000000705e+01 1.997700000000000031e+01 6.468899999999999295e+01 -2.318433000000000188e+00 -9.676598582534236270e-02
7.368600000000000705e+01 2.867399999999999949e+01 6.041700000000000159e+01 2.225048999999999833e+00 2.429300854410501587e-01
7.368800000000000239e+01 4.783599999999999852e+01 2.279299999999999926e+01 -9.577842000000000411e+00 -2.714667153944979039e-01
7.369299999999999784e+01 1.334200000000000053e+01 7.811199999999999477e+01 1.948303999999999869e-01 1.003304629517790120e-01
7.369400000000000261e+01 3.541499999999999915e+01 7.740300000000000580e+01 -5.658051999999999637e+00 -1.713205785785767987e-01
7.369499999999999318e+01 3.522599999999999909e+01 1.015799999999999983e+02 -3.679485999999999812e+00 5.737374095400706031e-02
7.369700000000000273e+01 4.166499999999999915e+01 5.829599999999999937e+01 9.784684000000000159e-01 -8.328613879272904474e-02
7.369700000000000273e+01 4.311099999999999710e+01 5.910199999999999676e+01 -6.419293999999999834e+00 4.829469147258132200e-02
7.369700000000000273e+01 4.455700000000000216e+01 5.829599999999999937e+01 -1.276275000000000048e+01 -6.541004555160133405e-02
7.369799999999999329e+01 4.757399999999999807e+01 3.765899999999999892e+01 5.316952999999999818e+00 1.045443191858641263e-01
7.369899999999999807e+01 3.098900000000000077e+01 6.086899999999999977e+01 -2.959574999999999845e-01 3.383199667032570079e-02
7.369899999999999807e+01 3.398799999999999955e+01 1.019699999999999989e+02 -2.315139999999999976e+00 3.870266666563229596e-02
7.370000000000000284e+01 1.302100000000000080e+01 8.745799999999999841e+01 -1.495548999999999928e+01 -2.737855666752277428e-01
7.370000000000000284e+01 1.454100000000000037e+01 8.745799999999999841e+01 2.074500999999999920e+02 -2.461427475767596351e-01
7.370199999999999818e+01 2.022599999999999909e+01 6.554800000000000182e+01 5.751089000000000340e+00 -1.356581559789457048e-01
7.370300000000000296e+01 2.780000000000000071e+01 7.543500000000000227e+01 -7.844317000000000206e+00 -9.231438205932132601e-02
7.370399999999999352e+01 4.491499999999999915e+01 5.744599999999999795e+01 -1.013626000000000005e+01 -6.216434357657336929e-02
7.370699999999999363e+01 2.132999999999999829e+01 7.891800000000000637e+01 -1.228730000000000011e+01 -1.855039900063061853e-01
7.370699999999999363e+01 2.747299999999999898e+01 8.398999999999999488e+01 -1.057088000000000072e+01 8.713266735176553035e-02
7.370799999999999841e+01 3.356099999999999994e+01 2.654899999999999949e+01 3.439636000000000138e+00 -1.630341513387697505e-01
7.370900000000000318e+01 3.974699999999999989e+01 8.182399999999999807e+01 2.035416999999999987e+01 4.095043372016968913e-02
7.371099999999999852e+01 4.641400000000000148e+01 3.909199999999999875e+01 1.456349999999999945e+01 1.550522277447905772e-01
7.371800000000000352e+01 2.879400000000000048e+01 2.964600000000000080e+01 7.945533000000000179e+00 3.297952325589272871e-01
7.371800000000000352e+01 4.479899999999999949e+01 4.627000000000000313e+01 2.674299999999999855e+01 -3.652789976978254582e-01
7.372199999999999420e+01 3.572899999999999920e+01 2.430600000000000094e+01 -4.339725999999999750e+00 1.761591102048683244e-01
7.372199999999999420e+01 4.719899999999999807e+01 3.296500000000000341e+01 7.311372999999999678e+00 8.986852865637939836e-02
7.372400000000000375e+01 2.258800000000000097e+01 9.365000000000000568e+01 1.876189000000000107e+00 -3.362615998799051709e-01
7.372499999999999432e+01 1.642800000000000082e+01 7.584300000000000352e+01 -1.735281000000000162e+01 -3.615378353153309576e-01
7.372899999999999920e+01 4.705199999999999960e+01 5.289399999999999835e+01 -3.263339999999999907e+00 2.561418319771651200e-02
7.373000000000000398e+01 2.903900000000000148e+01 2.880000000000000071e+01 3.342906999999999851e+00 3.423334610772389430e-01
7.373099999999999454e+01 3.086100000000000065e+01 1.027399999999999949e+02 -1.037871999999999950e+01 -1.251686363508654198e-01
7.373099999999999454e+01 3.238100000000000023e+01 1.027399999999999949e+02 -3.030773999999999901e+01 1.006630004805694582e-02
7.373099999999999454e+01 3.161299999999999955e+01 6.090899999999999892e+01 1.822367999999999988e+00 2.622524523162610838e-02
7.373099999999999454e+01 1.683800000000000097e+01 7.455500000000000682e+01 -1.523798000000000030e+01 -3.659329556036644004e-01
7.373699999999999477e+01 1.556499999999999950e+01 8.663100000000000023e+01 3.530528999999999940e+01 -2.426902742276561276e-01
7.374399999999999977e+01 2.897700000000000031e+01 6.111699999999999733e+01 1.421610000000000040e+00 2.683798304607702412e-01
7.374399999999999977e+01 2.984199999999999875e+01 6.111699999999999733e+01 6.781742000000000326e-02 2.601667492553049188e-01
7.374599999999999511e+01 4.666700000000000159e+01 2.349299999999999855e+01 5.727693999999999619e+00 -2.684824363200894459e-01
7.374699999999999989e+01 2.906500000000000128e+01 3.049399999999999977e+01 2.436928999999999945e+01 3.140807154643219246e-01
7.374699999999999989e+01 3.919200000000000017e+01 5.845900000000000318e+01 3.132321999999999917e+01 -2.699880392303200677e-02
7.375499999999999545e+01 1.207300000000000040e+01 7.912900000000000489e+01 2.546327999999999925e+00 -2.995421023676998473e-01
7.376099999999999568e+01 2.863899999999999935e+01 5.801500000000000057e+01 -1.555546000000000095e+00 1.903134423626343108e-01
7.376699999999999591e+01 4.043699999999999761e+01 5.755599999999999739e+01 2.986565999999999832e+00 -7.121110296324986710e-02
7.376699999999999591e+01 4.842399999999999949e+01 4.624000000000000199e+01 1.834589000000000025e+00 -2.425488149656179204e-01
7.376800000000000068e+01 4.645799999999999841e+01 8.886899999999999977e+01 -2.376698000000000022e+01 -1.011237170148648473e-01
7.376800000000000068e+01 4.645799999999999841e+01 8.980899999999999750e+01 -5.602685000000000315e+01 -1.012812520385674570e-01
7.376800000000000068e+01 2.414999999999999858e+01 7.612000000000000455e+01 -3.021599000000000146e+01 7.319265936164590092e-02
7.376900000000000546e+01 1.310999999999999943e+01 8.181999999999999318e+01 1.416649999999999920e+01 -3.373462397997543660e-01
7.376900000000000546e+01 1.310999999999999943e+01 8.268600000000000705e+01 1.283131999999999984e+01 -3.534316491535848259e-01
7.377800000000000580e+01 2.857499999999999929e+01 3.369400000000000261e+01 4.347813999999999623e+00 -1.331847200688388022e-01
7.378400000000000603e+01 4.708500000000000085e+01 8.284300000000000352e+01 -3.408003999999999678e+01 -2.510997223574026882e-01
7.378900000000000148e+01 2.876200000000000045e+01 7.123799999999999955e+01 -1.005959999999999965e+01 2.494087632114395936e-02
7.379099999999999682e+01 1.787699999999999889e+01 6.065299999999999869e+01 3.658401000000000014e+00 -2.911346803310903009e-01
7.379200000000000159e+01 3.128800000000000026e+01 3.706799999999999784e+01 3.040349000000000146e+01 -1.875948217072833102e-01
7.379200000000000159e+01 2.687800000000000011e+01 3.517099999999999937e+01 4.762256999999999740e-01 -8.735275958072223623e-02
7.379200000000000159e+01 2.687800000000000011e+01 3.622099999999999653e+01 5.821555999999999953e-01 -7.958967388167509371e-02
7.379200000000000159e+01 3.348599999999999710e+01 5.729999999999999716e+01 -2.490390000000000015e+01 3.554912249729373641e-02
7.379399999999999693e+01 4.700399999999999778e+01 5.555499999999999972e+01 -2.456263999999999825e+01 -8.384114703828052934e-03
7.379399999999999693e+01 4.867799999999999727e+01 8.173499999999999943e+01 8.457905000000000006e-01 -2.380198128071042696e-01
7.379600000000000648e+01 2.844999999999999929e+01 7.213500000000000512e+01 -4.190906000000000020e+00 1.962957350307129728e-02
7.379699999999999704e+01 3.889200000000000301e+01 5.935799999999999699e+01 1.874450999999999823e+01 3.119413317155773080e-01
7.379800000000000182e+01 2.991000000000000014e+01 5.810999999999999943e+01 -1.550723000000000074e+00 1.104600057911350880e-01
7.379800000000000182e+01 3.869700000000000273e+01 9.603799999999999670e+01 -2.990785999999999945e+01 -3.568204974800158469e-02
7.379800000000000182e+01 1.857300000000000040e+01 8.838100000000000023e+01 -3.381816000000000155e+00 -4.481439863792537059e-02
7.380400000000000205e+01 2.301699999999999946e+01 7.687900000000000489e+01 -2.344170000000000087e+01 -1.737032537431789092e-01
7.380599999999999739e+01 4.632500000000000284e+01 4.556099999999999994e+01 1.019402000000000008e+01 -3.670528278938565148e-01
7.380599999999999739e+01 4.403699999999999903e+01 8.726600000000000534e+01 2.829819999999999780e+00 -1.803245366421211415e-01
7.380700000000000216e+01 3.817399999999999949e+01 7.970000000000000284e+01 4.307457999999999743e+01 -1.165611185097647773e-01
7.380700000000000216e+01 4.522800000000000153e+01 8.804600000000000648e+01 -2.066801999999999850e+01 -1.284054769657890505e-01
7.380700000000000216e+01 4.522800000000000153e+01 9.063200000000000500e+01 -2.349658000000000158e+01 1.888916772448963610e-01
7.380800000000000693e+01 2.856599999999999895e+01 5.985699999999999932e+01 3.342512000000000150e+00 2.273404213875885316e-01
7.380800000000000693e+01 4.505700000000000216e+01 2.130399999999999849e+01 -7.577339000000000269e+00 -2.962242318653530160e-01
7.380800000000000693e+01 2.464799999999999969e+01 8.369499999999999318e+01 -3.333603000000000094e+00 1.014884123947108058e-01
7.380800000000000693e+01 2.569800000000000040e+01 8.369499999999999318e+01 -1.218811999999999962e+01 -3.607050814318794180e-02
7.380800000000000693e+01 2.656400000000000006e+01 8.369499999999999318e+01 -1.317999999999999972e+01 7.781732393521355318e-02
7.381000000000000227e+01 3.238400000000000034e+01 7.540999999999999659e+01 1.588466000000000045e-01 9.489687400452267996e-02
7.381100000000000705e+01 4.777300000000000324e+01 4.197299999999999898e+01 9.341010000000000701e+00 8.505100740573852403e-02
7.381100000000000705e+01 1.786400000000000077e+01 5.952100000000000080e+01 1.946566999999999936e+00 -1.721876444724041444e-01
7.381100000000000705e+01 3.346699999999999875e+01 7.659499999999999886e+01 -3.074351000000000056e+00 -1.379717450661943068e-01
7.381100000000000705e+01 3.228099999999999881e+01 3.690400000000000347e+01 3.413146999999999931e+00 -1.726611155192167013e-01
7.381799999999999784e+01 2.587999999999999901e+01 5.707200000000000273e+01 1.701422999999999908e+00 8.468105205356689369e-02
7.381799999999999784e+01 2.751000000000000156e+01 5.707200000000000273e+01 -2.234494000000000202e+00 1.917165152667929251e-01
7.381999999999999318e+01 1.273099999999999987e+01 8.320499999999999829e+01 7.607631999999999728e+00 -3.568374433347861752e-01
7.382200000000000273e+01 3.624900000000000233e+01 1.004000000000000057e+02 5.658726999999999840e+00 5.206237094164327395e-02
7.382299999999999329e+01 2.953000000000000114e+01 7.402100000000000080e+01 4.682591000000000392e+00 -9.925425993820573278e-02
7.382500000000000284e+01 4.483299999999999841e+01 1.675400000000000134e+01 1.468355999999999995e+00 -9.325399758115816840e-02
7.382599999999999341e+01 3.986599999999999966e+01 8.287399999999999523e+01 2.296253000000000100e+01 2.102742388236111121e-02
7.383299999999999841e+01 4.823400000000000176e+01 5.379200000000000159e+01 -8.962586999999999193e+00 1.848600600538487237e-02
7.383299999999999841e+01 4.823400000000000176e+01 5.473199999999999932e+01 -2.832719000000000165e+01 1.245834435242371141e-02
7.383599999999999852e+01 2.825300000000000011e+01 3.714200000000000301e+01 5.997314000000000256e-01 -1.976517604523215232e-01
7.383599999999999852e+01 2.792599999999999838e+01 9.848699999999999477e+01 -1.609890999999999961e+00 1.641830397279273324e-01
7.383700000000000330e+01 3.497599999999999909e+01 4.970700000000000074e+01 -5.544369999999999798e+00 -2.843157201100924292e-01
7.383899999999999864e+01 3.218200000000000216e+01 6.293099999999999739e+01 -3.394451999999999803e+00 7.671568239274853540e-02
7.384000000000000341e+01 3.992199999999999704e+01 9.519299999999999784e+01 -1.618374000000000024e+01 -7.698735396463551872e-02
7.384199999999999875e+01 3.557200000000000273e+01 6.051500000000000057e+01 1.245419999999999972e+00 1.246677622702286187e-01
7.384399999999999409e+01 2.305900000000000105e+01 5.766599999999999682e+01 2.894950000000000134e+00 -6.555095733822499660e-02
7.384799999999999898e+01 1.972400000000000020e+01 7.001099999999999568e+01 -4.737473999999999741e+00 -1.500103127899115318e-01
7.384900000000000375e+01 3.151699999999999946e+01 6.167199999999999704e+01 1.974887999999999977e+00 4.998669344357285771e-02
7.385200000000000387e+01 2.090700000000000003e+01 6.920000000000000284e+01 -2.582195000000000018e+00 5.042994470034025539e-02
7.385200000000000387e+01 2.111599999999999966e+01 6.846399999999999864e+01 -6.356484999999999497e-01 -1.998397889624217993e-01
7.385699999999999932e+01 3.215800000000000125e+01 6.725100000000000477e+01 -5.311328000000000316e+01 9.272680055895020368e-02
7.385800000000000409e+01 2.777499999999999858e+01 9.749399999999999977e+01 -2.302465999999999902e+00 1.986091249221250965e-01
7.385899999999999466e+01 4.226100000000000279e+01 1.635900000000000176e+01 4.766201999999999828e+00 -1.043025947873412462e-01
7.386100000000000421e+01 4.814699999999999847e+01 3.139199999999999946e+01 -1.213619999999999921e+00 -1.261817377766040124e-02
7.386100000000000421e+01 2.698000000000000043e+01 9.589499999999999602e+01 -2.031317000000000039e+00 2.635446219100919807e-01
7.386100000000000421e+01 2.832999999999999829e+01 7.312699999999999534e+01 -3.560083000000000109e+00 -1.048359449746158606e-01
7.386599999999999966e+01 2.883599999999999852e+01 7.820399999999999352e+01 -9.163671000000000788e+00 1.704636035341005607e-01
7.386599999999999966e+01 2.886899999999999977e+01 5.915699999999999648e+01 3.175066000000000166e+00 2.095958930673035570e-01
7.386599999999999966e+01 2.973499999999999943e+01 5.915699999999999648e+01 2.989272000000000151e+00 2.061519861440200274e-01
7.387000000000000455e+01 2.453800000000000026e+01 5.722200000000000131e+01 4.126193999999999917e+00 -6.257473305094016225e-02
7.387399999999999523e+01 3.405700000000000216e+01 3.830799999999999983e+01 3.086440999999999946e+01 -3.269276708544942567e-01
7.387399999999999523e+01 1.676599999999999824e+01 7.100799999999999557e+01 -3.446120000000000072e+00 -1.157593356837519349e-01
7.387600000000000477e+01 2.032700000000000173e+01 5.774600000000000222e+01 1.063607000000000014e+01 9.222459030833067561e-03
7.387800000000000011e+01 3.090399999999999991e+01 5.746099999999999852e+01 -3.811439000000000021e+00 -5.809029220195758431e-02
7.387999999999999545e+01 4.137100000000000222e+01 9.326500000000000057e+01 5.524498999999999604e+00 -2.221413410422136414e-01
7.387999999999999545e+01 4.626800000000000068e+01 2.685600000000000165e+01 2.547501000000000104e+01 -2.792430913552166882e-01
7.388200000000000500e+01 1.606500000000000128e+01 7.654399999999999693e+01 -7.107039999999999580e+00 -3.587226524089079938e-01
7.388400000000000034e+01 1.847400000000000020e+01 7.071599999999999397e+01 -1.766772000000000009e+00 -1.237703232285782551e-01
7.389400000000000546e+01 3.989800000000000324e+01 1.908399999999999963e+01 4.698362999999999623e+00 -1.694099690866527896e-01
7.389400000000000546e+01 4.001400000000000290e+01 1.814799999999999969e+01 5.129654999999999632e+00 -1.769986383742155334e-01
7.389400000000000546e+01 4.026800000000000068e+01 1.725400000000000134e+01 3.677125000000000199e+00 -6.627438918587993943e-02
7.389400000000000546e+01 4.171399999999999864e+01 1.644800000000000040e+01 4.877715000000000245e+00 -9.560375163325945946e-02
7.389600000000000080e+01 3.462800000000000011e+01 5.060300000000000153e+01 -1.305112000000000050e+00 -2.799241558971642396e-01
7.389600000000000080e+01 3.495300000000000296e+01 5.134100000000000108e+01 6.865038999999999447e-01 6.231291454221245252e-02
7.389600000000000080e+01 3.495300000000000296e+01 5.220600000000000307e+01 5.930683000000000149e+00 8.175726588905406211e-02
7.389799999999999613e+01 2.266000000000000014e+01 5.203699999999999903e+01 5.771458000000000421e-01 1.017982837061570389e-01
7.390099999999999625e+01 2.998499999999999943e+01 8.145199999999999818e+01 -1.464844000000000079e+01 -9.734558103925752826e-02
7.390099999999999625e+01 4.644200000000000017e+01 5.245600000000000307e+01 -5.053031999999999968e+00 -7.341691385635766565e-02
7.390800000000000125e+01 4.027300000000000324e+01 9.443600000000000705e+01 1.293948999999999927e+01 -1.118597489048774041e-01
7.390800000000000125e+01 3.685699999999999932e+01 7.890800000000000125e+01 1.421831000000000067e+01 -2.133190452536652959e-01
7.390900000000000603e+01 3.517900000000000205e+01 4.877499999999999858e+01 1.302777999999999992e+00 5.093339551803568316e-02
7.390999999999999659e+01 2.131599999999999895e+01 5.312800000000000011e+01 -1.973707000000000100e-01 1.190733532588697796e-01
7.390999999999999659e+01 2.227400000000000091e+01 5.467799999999999727e+01 1.695401999999999987e+02 8.450765522079126124e-02
7.391100000000000136e+01 5.025900000000000034e+01 4.351200000000000045e+01 -3.884025999999999978e+00 6.922830443911388854e-02
7.391100000000000136e+01 5.025900000000000034e+01 4.597200000000000131e+01 -5.132688999999999879e+01 -2.500506958751249620e-01
7.391299999999999670e+01 3.366199999999999903e+01 4.331799999999999784e+01 3.222192000000000167e+00 -3.004179935262915602e-01
7.391299999999999670e+01 4.109300000000000352e+01 8.367600000000000193e+01 5.168129000000000417e+00 -2.745046713537318411e-02
7.391299999999999670e+01 4.967600000000000193e+01 8.048099999999999454e+01 2.536734000000000044e+00 -2.362011089788999540e-01
7.391299999999999670e+01 5.122599999999999909e+01 8.298900000000000432e+01 2.115625000000000000e+02 -3.598485274354757957e-01
7.391500000000000625e+01 4.375999999999999801e+01 9.098300000000000409e+01 -3.504093000000000124e+00 1.655574959493147924e-01
7.391599999999999682e+01 4.854500000000000171e+01 2.143799999999999883e+01 -2.644483999999999924e+01 -2.757361692750589510e-01
7.391599999999999682e+01 4.854500000000000171e+01 2.295799999999999841e+01 -4.506907999999999959e+01 -3.499999999999999778e-01
7.391599999999999682e+01 4.948499999999999943e+01 2.143799999999999883e+01 -3.648563999999999652e+01 -2.723503947909829970e-01
7.391599999999999682e+01 4.948499999999999943e+01 2.295799999999999841e+01 -6.403847000000000378e+01 -3.499999999999999223e-01
7.391700000000000159e+01 3.121900000000000119e+01 6.734999999999999432e+01 -7.413745999999999725e+00 1.052940899929186713e-01
7.391899999999999693e+01 4.498400000000000176e+01 1.951899999999999835e+01 4.502252000000000365e+00 -4.534392119167941770e-02
7.391899999999999693e+01 4.498400000000000176e+01 2.038400000000000034e+01 2.643313999999999941e-01 -3.493430030783606366e-02
7.391899999999999693e+01 4.784400000000000119e+01 3.209199999999999875e+01 2.931991000000000014e+00 -2.013791000006777063e-02
7.391899999999999693e+01 2.309900000000000020e+01 5.167499999999999716e+01 -4.196045999999999943e+00 9.590497334616186753e-02
7.391899999999999693e+01 2.405699999999999861e+01 5.167499999999999716e+01 1.935693000000000108e+00 -1.262230769365721428e-01
7.391899999999999693e+01 2.405699999999999861e+01 5.322500000000000142e+01 2.760375999999999976e+02 7.144038706257585525e-02
7.392000000000000171e+01 3.083399999999999963e+01 7.493600000000000705e+01 4.037259000000000242e+01 4.982507512152399565e-02
7.393600000000000705e+01 3.060099999999999909e+01 5.816100000000000136e+01 -5.218728999999999729e+00 1.317120969678157727e-01
7.393600000000000705e+01 3.060099999999999909e+01 5.986099999999999710e+01 -1.985524000000000067e+00 2.174356705416597424e-01
7.393600000000000705e+01 3.165099999999999980e+01 5.986099999999999710e+01 1.157671999999999990e+01 1.428336570745003878e-02
7.393899999999999295e+01 4.509700000000000131e+01 5.163199999999999790e+01 -5.089222000000000357e+00 -4.950767448616426314e-02
7.394199999999999307e+01 2.420799999999999841e+01 8.445999999999999375e+01 1.906242999999999910e+00 9.105288858795058948e-02
7.394299999999999784e+01 1.166799999999999926e+01 7.968699999999999761e+01 5.067917999999999701e+00 -3.056160859801466123e-01
7.394499999999999318e+01 1.639699999999999847e+01 7.185800000000000409e+01 -7.319094999999999906e+00 -3.499999999999999778e-01
7.395000000000000284e+01 3.409700000000000131e+01 3.926599999999999824e+01 2.051448999999999856e+01 -1.988846308420499920e-02
7.395199999999999818e+01 2.948900000000000077e+01 6.873799999999999955e+01 -1.209929999999999950e+01 1.024772288265430598e-01
7.395399999999999352e+01 4.739699999999999847e+01 2.784100000000000108e+01 -1.650529999999999831e+01 -1.445192846042182011e-01
7.395799999999999841e+01 2.490099999999999980e+01 9.351399999999999579e+01 -2.725639999999999930e+01 -3.421952165592519468e-01
7.395900000000000318e+01 1.775600000000000023e+01 7.090000000000000568e+01 -4.321426999999999907e+00 -1.156642238660799960e-01
7.395999999999999375e+01 2.818799999999999883e+01 3.421999999999999886e+01 1.282666000000000084e+00 -1.161956256988790903e-01
7.396200000000000330e+01 1.921900000000000119e+01 5.806199999999999761e+01 9.944414000000000087e+00 1.938854168317823840e-02
7.396500000000000341e+01 3.817099999999999937e+01 9.643399999999999750e+01 -1.288291000000000075e+01 -2.385461371629694211e-02
7.396599999999999397e+01 3.055600000000000094e+01 6.156900000000000261e+01 -2.210859999999999825e+00 -7.178596568435825775e-02
7.396699999999999875e+01 4.797500000000000142e+01 3.362400000000000233e+01 -1.181688000000000072e+00 1.727640915188231596e-01
7.396699999999999875e+01 3.920100000000000051e+01 2.039300000000000068e+01 9.354348999999999137e+00 -1.524277628999041179e-01
7.396800000000000352e+01 2.044800000000000040e+01 5.446600000000000108e+01 9.735462999999999312e+00 1.189194592631213909e-01
7.396999999999999886e+01 2.823199999999999932e+01 7.613500000000000512e+01 -1.120881999999999934e+01 -6.727398271076409642e-02
7.396999999999999886e+01 3.009299999999999997e+01 2.762000000000000099e+01 7.980938000000000088e+00 2.697363585031490318e-01
7.396999999999999886e+01 3.114300000000000068e+01 2.762000000000000099e+01 7.884272000000000169e+00 2.623546733061125624e-01
7.397199999999999420e+01 2.968799999999999883e+01 2.964600000000000080e+01 1.497383999999999915e+01 2.550408061718004160e-01
7.397299999999999898e+01 3.537299999999999756e+01 5.998299999999999699e+01 5.856634999999999813e+00 1.217859972175898697e-01
7.397400000000000375e+01 2.176300000000000168e+01 7.821800000000000352e+01 -1.313280999999999921e+01 -2.012386513996058945e-01
7.397700000000000387e+01 3.676100000000000279e+01 9.963200000000000500e+01 2.705229999999999801e+00 -1.600000000000000033e-01
7.397799999999999443e+01 2.613500000000000156e+01 7.530800000000000693e+01 -3.865683000000000202e+00 2.434933286741142733e-01
7.397799999999999443e+01 2.700100000000000122e+01 7.530800000000000693e+01 -8.098665999999999698e+00 -7.658707170762454886e-02
7.397899999999999920e+01 2.750100000000000122e+01 9.669599999999999795e+01 -1.479783000000000071e+00 2.347913898254866960e-01
7.397899999999999920e+01 4.821600000000000108e+01 2.219800000000000040e+01 -2.501195999999999842e+01 -2.749187728250405138e-01
7.397899999999999920e+01 4.981400000000000006e+01 2.219800000000000040e+01 -7.907312000000000296e+01 -3.499999999999999778e-01
7.397899999999999920e+01 3.740999999999999659e+01 9.753199999999999648e+01 7.220045999999999964e-01 -2.366847331065379534e-01
7.398099999999999454e+01 3.496399999999999864e+01 4.784199999999999875e+01 1.655743000000000009e+01 8.130756088805395077e-02
7.398199999999999932e+01 3.509899999999999665e+01 5.813499999999999801e+01 -4.070962999999999887e+00 5.587678415825710065e-02
7.398199999999999932e+01 3.509899999999999665e+01 5.907099999999999795e+01 2.740927000000000113e+00 8.219990017506822316e-03
7.398199999999999932e+01 1.668199999999999861e+01 7.266400000000000148e+01 -3.444983999999999824e+00 -3.499999999999999778e-01
7.398300000000000409e+01 1.137700000000000067e+01 8.072899999999999920e+01 3.959757000000000193e+00 -3.155307823525752564e-01
7.398399999999999466e+01 2.439300000000000068e+01 5.245000000000000284e+01 5.443247000000000213e+01 -1.421630070673988722e-01
7.398399999999999466e+01 2.996900000000000119e+01 3.656400000000000006e+01 2.883230000000000182e+00 -2.268889959482841001e-01
7.398499999999999943e+01 3.263700000000000045e+01 2.746900000000000119e+01 3.097404000000000046e+00 2.369534521101016311e-01
7.398600000000000421e+01 3.663100000000000023e+01 6.161099999999999710e+01 -1.800694999999999979e+01 1.411349021252076563e-01
7.398600000000000421e+01 3.815100000000000335e+01 6.161099999999999710e+01 -4.187626000000000204e+01 1.223544317189725616e-01
7.398600000000000421e+01 2.947599999999999909e+01 6.965500000000000114e+01 -3.248217000000000354e+01 -1.943416986334408070e-01
7.398900000000000432e+01 3.529699999999999704e+01 2.500600000000000023e+01 2.553561999999999887e+00 1.431096872562770683e-01
7.399200000000000443e+01 4.489500000000000313e+01 4.995300000000000296e+01 5.632128000000000134e-02 -2.717903702797492757e-03
7.399500000000000455e+01 3.255199999999999960e+01 6.653900000000000148e+01 -3.753940000000000055e+01 5.237581083685547562e-02
7.399699999999999989e+01 4.479399999999999693e+01 5.093200000000000216e+01 -2.591511999999999816e+00 -2.455547532931416990e-02
7.399800000000000466e+01 2.720599999999999952e+01 8.430700000000000216e+01 -1.899247000000000085e+01 1.607547775616117169e-01
7.400000000000000000e+01 4.393900000000000006e+01 1.631599999999999895e+01 1.788766999999999996e+00 -9.913855761929499244e-02
7.400100000000000477e+01 3.167699999999999960e+01 5.445499999999999829e+01 -5.304945000000000022e+00 4.591641085545333789e-02
7.400199999999999534e+01 3.373799999999999955e+01 4.700500000000000256e+01 4.290123000000000353e+00 1.032113076527780421e-01
7.400499999999999545e+01 3.280700000000000216e+01 4.366499999999999915e+01 8.001262999999999570e-01 -2.913896354856345128e-01
7.400499999999999545e+01 3.280700000000000216e+01 4.641499999999999915e+01 3.937301999999999857e+00 3.456668976688346932e-03
7.400600000000000023e+01 4.513400000000000034e+01 2.250400000000000134e+01 -4.852513000000000076e+00 -2.821263257677837366e-01
7.400700000000000500e+01 3.202000000000000313e+01 5.901100000000000279e+01 6.469763000000000375e+00 -7.294148654562836176e-02
7.400900000000000034e+01 1.998300000000000054e+01 9.225100000000000477e+01 -9.778188000000000102e+00 4.966267509593497859e-02
7.401200000000000045e+01 1.857799999999999940e+01 9.050000000000000000e+01 -8.351885999999999477e-01 -4.624607098779651843e-02
7.401200000000000045e+01 1.880499999999999972e+01 9.129900000000000659e+01 -7.871363999999999805e+00 -1.277305665069577122e-02
7.401999999999999602e+01 2.913800000000000168e+01 7.044400000000000261e+01 -2.219654999999999845e+01 3.498744825861841573e-02
7.401999999999999602e+01 5.215999999999999659e+01 8.041700000000000159e+01 1.343594000000000044e+01 -3.583344817038632835e-01
7.401999999999999602e+01 5.215999999999999659e+01 8.211700000000000443e+01 2.025354000000000099e+01 -3.592856745423000375e-01
7.402100000000000080e+01 3.039099999999999824e+01 1.019800000000000040e+02 -2.168381000000000114e+00 -3.755874048502296642e-02
7.402299999999999613e+01 4.276899999999999835e+01 9.126099999999999568e+01 5.723857999999999890e+00 1.265320137772028564e-01
7.402899999999999636e+01 2.992000000000000171e+01 3.046099999999999852e+01 2.576512999999999920e+01 2.288681226696845650e-01
7.403199999999999648e+01 2.273199999999999932e+01 5.396900000000000119e+01 9.105432000000000414e+01 8.433892546911889165e-02
7.403300000000000125e+01 4.823700000000000188e+01 3.285600000000000165e+01 -2.506955000000000044e+00 -4.286294524810068188e-03
7.403499999999999659e+01 4.962899999999999778e+01 8.306499999999999773e+01 1.786286000000000129e+01 -2.348470208227408096e-01
7.403700000000000614e+01 1.780199999999999960e+01 8.696699999999999875e+01 -2.998639999999999972e+00 -2.093099386504865822e-01
7.403700000000000614e+01 2.099500000000000099e+01 9.314600000000000080e+01 1.656814000000000064e-01 -3.337863835844119831e-01
7.404099999999999682e+01 3.258400000000000318e+01 6.375500000000000256e+01 2.325104000000000060e+00 9.290302105611129846e-02
7.404099999999999682e+01 3.283800000000000097e+01 6.464900000000000091e+01 1.940581999999999852e+01 1.045647627033364085e-01
7.404099999999999682e+01 2.511499999999999844e+01 5.711899999999999977e+01 3.198332999999999871e+00 -5.817003221497164811e-02
7.404099999999999682e+01 2.972400000000000020e+01 2.846999999999999886e+01 4.370953000000000088e+00 2.683462806523504440e-01
7.404099999999999682e+01 1.869999999999999929e+01 8.968399999999999750e+01 -4.132486000000000104e+00 -7.569188203337259835e-02
7.404600000000000648e+01 3.012399999999999878e+01 8.330200000000000671e+01 -1.065949999999999953e+01 1.710645250700296160e-01
7.404600000000000648e+01 3.033299999999999841e+01 8.256600000000000250e+01 -1.125329999999999941e+01 1.772181791840996001e-01
7.404699999999999704e+01 2.133899999999999864e+01 5.471600000000000108e+01 4.791718000000000366e+00 9.929601419103362137e-02
7.404699999999999704e+01 2.225100000000000122e+01 5.309000000000000341e+01 4.680547999999999931e+00 1.018619459707695851e-01
7.405200000000000671e+01 1.615099999999999980e+01 8.312099999999999511e+01 -3.072750000000000092e+00 -3.159021753391075271e-01
7.405400000000000205e+01 4.745100000000000051e+01 4.126100000000000279e+01 7.785252999999999979e+00 3.106403047553646379e-01
7.405400000000000205e+01 3.779299999999999926e+01 2.128999999999999915e+01 3.328143999999999991e+00 -1.497426610940342795e-01
7.405400000000000205e+01 1.674599999999999866e+01 8.523999999999999488e+01 1.814369999999999905e+01 -2.150505065871404775e-01
7.405599999999999739e+01 2.312199999999999989e+01 5.326299999999999812e+01 9.858947999999999823e+00 8.515325920877223065e-02
7.406000000000000227e+01 3.162099999999999866e+01 1.027999999999999972e+02 -3.560826999999999742e+01 -2.879984080438630512e-03
7.406100000000000705e+01 3.170299999999999940e+01 4.504200000000000159e+01 -1.217152999999999929e+00 -4.022644128153600174e-01
7.406199999999999761e+01 2.186100000000000065e+01 5.818500000000000227e+01 1.567851000000000106e+00 -6.037637039762985131e-02
7.406600000000000250e+01 1.814099999999999824e+01 8.768099999999999739e+01 1.226763999999999966e+00 -4.238389211067714046e-02
7.406799999999999784e+01 4.605499999999999972e+01 5.171200000000000330e+01 -2.847717999999999972e+00 -4.832906110008421130e-02
7.406999999999999318e+01 3.973700000000000188e+01 5.761399999999999721e+01 2.009300000000000086e+00 -3.897003629858741824e-02
7.406999999999999318e+01 4.113700000000000045e+01 5.761399999999999721e+01 3.234881999999999813e+00 -7.919940744696687962e-02
7.407200000000000273e+01 2.344999999999999929e+01 7.617900000000000205e+01 -2.224258000000000024e+01 -1.332268230546976295e-01
7.407399999999999807e+01 2.128000000000000114e+01 9.395199999999999818e+01 5.919100999999999946e-01 -3.349914070076163153e-01
7.407699999999999818e+01 3.168199999999999861e+01 5.820100000000000051e+01 -5.937526000000000082e+00 -4.709687168841111826e-02
7.407999999999999829e+01 1.259800000000000075e+01 7.827899999999999636e+01 5.299576000000000064e+00 9.833377761258996208e-02
7.408100000000000307e+01 2.096799999999999997e+01 5.386999999999999744e+01 1.221616999999999953e+00 1.152160519627777047e-01
7.408400000000000318e+01 2.909499999999999886e+01 9.944100000000000250e+01 -3.489380999999999733e-02 -1.321722871139103805e-01
7.408599999999999852e+01 1.462700000000000067e+01 7.723999999999999488e+01 4.557712999999999681e+00 -1.494880313048004873e-02
7.408899999999999864e+01 3.711200000000000188e+01 9.837199999999999989e+01 3.172359999999999847e+00 -2.531528498962228313e-01
7.409000000000000341e+01 2.191199999999999903e+01 8.563299999999999557e+01 1.212837000000000032e+01 1.271342125159361514e-01
7.409000000000000341e+01 2.331200000000000117e+01 8.563299999999999557e+01 3.789358999999999922e-01 8.018612310295622492e-02
7.409000000000000341e+01 1.787900000000000134e+01 8.599800000000000466e+01 8.407356000000000051e+00 -1.993140890566281742e-01
7.409099999999999397e+01 5.252900000000000347e+01 8.126699999999999591e+01 2.076239999999999952e+01 -3.589143086919084902e-01
7.409399999999999409e+01 3.270000000000000284e+01 6.552899999999999636e+01 4.587711999999999790e+00 1.068163510835509894e-01
7.409399999999999409e+01 4.714200000000000301e+01 3.814999999999999858e+01 6.370651999999999759e+00 1.125360297050363306e-01
7.409499999999999886e+01 3.278600000000000136e+01 5.735799999999999699e+01 -4.599463000000000079e+01 1.302872012415090888e-02
7.409600000000000364e+01 1.853000000000000114e+01 6.145199999999999818e+01 8.549580000000000624e+00 -2.752811689082578228e-01
7.409600000000000364e+01 3.026999999999999957e+01 1.010799999999999983e+02 -5.272261000000000308e+00 -6.385263229840452970e-02
7.409799999999999898e+01 4.509100000000000108e+01 5.643699999999999761e+01 -1.539921999999999969e+01 -5.189178180668561208e-02
