5.180499999999999972e+01 2.705600000000000094e+01 -8.419100000000000472e-01 -4.405530999999999864e+01 -1.495670652074281570e-01
5.180799999999999983e+01 3.413300000000000267e+01 -3.322400000000000020e+00 -7.916248999999999647e+00 -1.797259742429024587e-01
5.181000000000000227e+01 3.410000000000000142e+01 8.810999999999999943e+00 -1.140233000000000052e+00 -1.121680820840816051e-01
5.181199999999999761e+01 2.746700000000000141e+00 2.546600000000000197e+00 -9.744799999999999685e+00 3.641939032767603588e-03
5.181600000000000250e+01 3.996099999999999852e+01 -1.258199999999999985e+00 -3.610486000000000217e+01 -1.741934392255660435e-01
5.181700000000000017e+01 3.439099999999999824e+01 -4.114899999999999558e+00 -7.056048999999999793e+00 -1.784263596220462822e-01
5.181900000000000261e+01 2.311400000000000077e+01 -1.404499999999999993e+01 -9.332380000000000564e+00 -1.946242773617733735e-01
5.182800000000000296e+01 3.450000000000000000e+01 6.503300000000000303e+00 -4.263228999999999758e+01 -1.137288690327800111e-01
5.182800000000000296e+01 1.189700000000000024e+01 -6.011499999999999844e+00 -6.091459000000000401e+00 -2.013529307500173116e-01
5.182900000000000063e+01 2.882600000000000051e+01 2.883899999999999864e+01 -1.467102000000000039e+01 -1.247160528779751171e-01
5.183500000000000085e+01 1.211200000000000010e+01 -3.804499999999999993e+00 1.650505000000000111e+00 -2.048951571279090944e-01
5.183899999999999864e+01 1.221700000000000053e+01 1.733700000000000019e+00 1.177426999999999957e+01 -1.740739996513664400e-01
5.184000000000000341e+01 1.007900000000000063e+01 -8.834499999999999575e-01 -7.432267999999999653e+00 -3.061633446867083608e-01
5.184599999999999653e+01 2.859900000000000020e+01 -3.981100000000000083e+00 1.178654000000000091e+00 -1.724943487285147126e-01
5.184599999999999653e+01 2.978900000000000148e+01 -3.317099999999999937e+00 -8.645837000000000216e+00 -1.732224503261675930e-01
5.184700000000000131e+01 2.950300000000000011e+01 2.687800000000000011e+01 1.158150999999999931e+00 -3.198651590525798671e-02
5.184700000000000131e+01 3.381499999999999773e+01 8.005300000000000082e+00 -1.693203000000000102e+01 -1.126358699478531705e-01
5.184799999999999898e+01 3.137000000000000099e+01 -3.273400000000000087e+00 -1.020902000000000065e+01 -1.768812342136588112e-01
5.185000000000000142e+01 3.124399999999999977e+01 1.993599999999999994e+01 -8.869056000000000495e+00 -2.560095133047127214e-02
5.185099999999999909e+01 3.260699999999999932e+01 -2.565799999999999859e+00 -1.854701000000000022e+01 -1.804128094844579810e-01
5.185099999999999909e+01 1.060899999999999999e+01 2.811899999999999977e+01 -2.999133000000000138e+01 -2.096101300215237606e-01
5.185300000000000153e+01 2.276599999999999824e+01 -6.325300000000000367e+00 -7.445656999999999748e+00 -1.896084177850499430e-01
5.185300000000000153e+01 2.276599999999999824e+01 -3.574699999999999989e+00 -1.072981000000000051e+01 -1.659114209825380826e-01
5.186800000000000210e+01 1.082399999999999984e+01 2.892800000000000082e+01 -1.832205000000000084e+01 -2.105559416719325339e-01
5.187400000000000233e+01 1.495500000000000007e+01 3.094099999999999895e+01 2.293725999999999843e+01 -1.001956100091275781e-01
5.187400000000000233e+01 1.635500000000000043e+01 3.094099999999999895e+01 1.971171000000000006e+00 -1.013817512666256720e-01
5.187500000000000000e+01 3.523199999999999932e+01 5.102299999999999613e+00 3.214253999999999944e+00 -9.270822259853958580e-02
5.187700000000000244e+01 3.570000000000000284e+01 1.727799999999999869e+01 -1.514409999999999989e+01 -1.656731112929478791e-02
5.188100000000000023e+01 3.710000000000000142e+01 2.034699999999999953e+00 -7.856544000000000416e+00 -9.471449715595578467e-02
5.188600000000000279e+01 3.711999999999999744e+01 1.592399999999999949e+01 -1.245031999999999961e+01 -2.237954827998069052e-01
5.188700000000000045e+01 1.136400000000000077e+01 3.042299999999999827e+01 -4.123695999999999806e+00 1.001336539998423369e-01
5.188700000000000045e+01 1.281000000000000050e+01 3.122899999999999920e+01 4.700806000000000040e+00 -9.857967713099673179e-02
5.189099999999999824e+01 3.874199999999999733e+01 1.404800000000000004e+01 1.912581000000000131e+01 -2.087201047072918814e-01
5.189099999999999824e+01 7.415000000000000036e+00 -6.953700000000000436e+00 -1.512701000000000029e+01 -2.060518406189196516e-01
5.189099999999999824e+01 8.935000000000000497e+00 -6.953700000000000436e+00 -3.270461999999999847e+01 -2.045014934961753850e-01
5.189099999999999824e+01 3.152499999999999858e+00 1.765600000000000058e+00 -1.047292000000000023e+01 -3.083703251203360751e-01
5.189099999999999824e+01 2.102700000000000102e+01 -9.562699999999999534e+00 1.583235999999999954e+01 -1.975376077110294615e-01
5.189600000000000080e+01 8.914600000000000080e+00 -2.519200000000000106e+00 -1.080823999999999963e+01 -3.040265904937590746e-01
5.189600000000000080e+01 8.914600000000000080e+00 -1.653899999999999926e+00 -1.556293999999999933e+01 -3.057858106526629149e-01
5.190599999999999881e+01 3.411800000000000210e+01 7.305299999999999905e+00 -2.793668999999999869e+01 -1.131893031734107768e-01
5.190699999999999648e+01 2.324299999999999855e+01 -6.775100000000000122e+00 -7.163191999999999560e+00 -1.888709036335621261e-01
5.190800000000000125e+01 3.668399999999999750e+01 1.626200000000000045e+01 -1.075821000000000005e+01 -2.238532043908180447e-01
5.190899999999999892e+01 1.612999999999999989e+00 3.403300000000000214e+00 -9.357922999999999547e+00 -7.453873005357461445e-02
5.190899999999999892e+01 1.612999999999999989e+00 5.862700000000000244e+00 -1.269025000000000070e+01 -7.666130665718595694e-02
5.191599999999999682e+01 1.986599999999999966e+01 -9.110500000000000043e+00 -2.887450999999999990e+00 -1.928927306221318305e-01
5.192300000000000182e+01 1.864199999999999946e+01 -1.208699999999999974e+01 -4.091580999999999690e+00 -1.853313231584687304e-01
5.192799999999999727e+01 6.253999999999999559e+00 1.832900000000000063e+01 -2.155451000000000050e+01 -3.832364175732745348e-01
5.192900000000000205e+01 3.938600000000000279e+01 -9.026199999999999779e-01 -2.291088999999999842e+01 -1.745818799023059475e-01
5.192900000000000205e+01 2.002199999999999847e+01 -1.295899999999999963e+01 -2.706144999999999801e+00 -1.892252974493323636e-01
5.193399999999999750e+01 9.867599999999999483e+00 2.476099999999999923e+01 -7.723989999999999689e+00 -2.048798907023024474e-01
5.194100000000000250e+01 3.066799999999999926e+01 2.578099999999999881e+01 -2.766618000000000066e+01 -1.241260423115987666e-01
5.194400000000000261e+01 1.100699999999999967e+01 2.962000000000000099e+01 -1.032978999999999914e+01 -2.113483935666571889e-01
5.194700000000000273e+01 3.480299999999999727e+01 1.729599999999999937e+01 -2.259352000000000160e+01 -1.703111808208088856e-02
5.195199999999999818e+01 3.184600000000000009e+01 2.538400000000000034e+01 -6.490578999999999610e+01 -1.223729551439654839e-01
5.195400000000000063e+01 3.782900000000000063e+01 1.544000000000000039e+00 -1.250203999999999915e+01 -9.473929629482370773e-02
5.196000000000000085e+01 2.336299999999999955e+01 3.243900000000000006e+01 -4.299154999999999838e+00 -1.067669501906831908e-01
5.196000000000000085e+01 3.849399999999999977e+01 -5.262100000000000222e+00 1.553903000000000090e-01 4.526330023088766252e-02
5.196699999999999875e+01 2.558500000000000085e+01 2.974599999999999866e+01 -1.658077000000000112e+01 -1.099533666872656718e-01
5.197200000000000131e+01 2.428000000000000114e+01 -9.130000000000000782e+00 1.205626999999999960e+01 -1.887704804782476820e-01
5.197200000000000131e+01 2.428000000000000114e+01 -7.658000000000000362e+00 -6.130691999999999808e-01 -1.867455276176082923e-01
5.197200000000000131e+01 2.448900000000000077e+01 -8.394000000000000128e+00 9.251174999999999926e+00 -1.872851242616858092e-01
5.197399999999999665e+01 1.110699999999999932e+01 2.727100000000000080e+01 -1.569331000000000031e+01 -2.097432094089021481e-01
5.197800000000000153e+01 3.950699999999999790e+01 1.325999999999999979e+01 2.009152999999999878e+01 -2.076680914436202507e-01
5.197899999999999920e+01 3.950899999999999856e+00 1.092099999999999937e+01 1.727208999999999861e+01 -1.056371021874954672e-02
5.198100000000000165e+01 2.395700000000000074e+01 -2.939099999999999824e+00 -1.026793999999999940e+01 -1.470704490795416430e-01
5.198100000000000165e+01 2.814399999999999835e+01 6.760699999999999932e+00 -1.617943999999999960e+01 -7.713705966812275938e-02
5.198199999999999932e+01 2.948400000000000176e+01 5.190999999999999837e+00 -1.071715000000000018e+01 -8.159543698304112802e-02
5.199600000000000222e+01 1.098900000000000077e+01 2.637999999999999901e+01 -1.514484999999999992e+01 -2.086991232721609468e-01
5.199900000000000233e+01 3.386999999999999744e+01 1.686199999999999832e+01 7.889808999999999628e+00 -1.644603953193223000e-02
5.199900000000000233e+01 3.357500000000000284e+01 9.481299999999999173e+00 -7.117829000000000406e+00 -1.116181726844737571e-01
5.200099999999999767e+01 2.425900000000000034e+01 -1.479800000000000004e+01 -8.919971000000000316e+00 -1.013794384187118175e-01
5.200200000000000244e+01 1.983299999999999841e+01 1.133399999999999963e+01 -2.353147999999999840e+01 -6.391099080306532343e-02
5.200900000000000034e+01 3.689400000000000013e+00 1.168299999999999894e+00 -1.096541999999999994e+01 -3.084778250659028220e-01
5.201200000000000045e+01 2.021499999999999986e+01 3.240699999999999648e+01 -1.489971000000000068e+01 -1.044400095325130617e-01
5.201200000000000045e+01 2.150799999999999912e+01 3.312800000000000011e+01 -3.765899999999999892e+01 -1.052034833190470531e-01
5.201599999999999824e+01 2.677799999999999869e+01 2.899500000000000099e+01 -1.612426999999999921e+01 -1.113546719380648087e-01
5.202799999999999869e+01 2.823900000000000077e+01 2.900300000000000011e+01 -1.292140999999999984e+01 -1.252491777767726355e-01
5.203499999999999659e+01 2.262999999999999901e+01 -9.976900000000000546e+00 4.100598000000000098e+01 -2.015975728274201906e-01
5.204099999999999682e+01 3.599399999999999977e+01 1.022400000000000020e+01 -1.096291000000000082e+01 -1.120022714780803952e-01
5.204299999999999926e+01 1.149499999999999922e+01 6.851399999999999713e-01 -2.065508000000000166e+01 -3.084595824067017933e-01
5.205100000000000193e+01 3.990899999999999892e+01 -4.313900000000000290e+00 -5.506725000000000314e+00 -1.760449016329714289e-01
5.205299999999999727e+01 3.184100000000000108e+01 2.068900000000000006e+01 -4.914661999999999864e+00 -2.647336833949808649e-02
5.205499999999999972e+01 3.589900000000000091e+01 2.837800000000000100e+00 7.098138999999999754e+00 -9.460127119332530088e-02
5.205799999999999983e+01 3.387800000000000011e+01 1.018099999999999916e+01 -9.484595999999999805e+00 -1.113552583699095599e-01
5.205799999999999983e+01 3.474399999999999977e+01 1.018099999999999916e+01 -1.025366999999999962e+01 -1.116618282988371125e-01
5.205899999999999750e+01 1.257300000000000040e+01 2.556000000000000050e+00 3.032989999999999853e+01 7.648664807583625824e-02
5.205899999999999750e+01 1.791900000000000048e+01 3.108699999999999974e+01 3.714806000000000097e+01 -1.027535396034727766e-01
5.205899999999999750e+01 1.931899999999999906e+01 3.108699999999999974e+01 -6.932865999999999751e-01 -1.040184269601848593e-01
5.205899999999999750e+01 1.293399999999999928e+01 4.250300000000000189e+00 6.529312999999999922e-01 -3.232614733673174756e-01
5.206199999999999761e+01 3.760099999999999909e+01 9.715700000000000003e+00 -7.173448999999999742e+00 -1.911276653020466676e-01
5.206199999999999761e+01 3.930100000000000193e+01 9.715700000000000003e+00 -4.269730000000000025e+00 -1.899492939587323626e-01
5.206499999999999773e+01 1.361700000000000088e+01 6.081199999999999939e+00 -1.341184999999999938e+01 -3.084723488895601551e-01
5.206700000000000017e+01 3.261599999999999966e+01 1.632799999999999940e+01 -6.268774999999999764e+00 -1.571551924512368595e-02
5.207099999999999795e+01 3.553199999999999648e+01 3.600999999999999979e+00 -1.602000000000000091e+00 -9.406706465393148420e-02
5.207300000000000040e+01 2.170499999999999829e+01 -1.284299999999999997e+01 -4.607337000000000238e+00 -1.935185881378184980e-01
5.208200000000000074e+01 2.526099999999999923e+01 -1.030299999999999994e+00 -2.123025000000000162e+01 -1.294593189049239035e-01
5.208299999999999841e+01 1.821900000000000119e+01 8.780599999999999739e+00 -1.936226999999999876e+01 -4.277608302320320272e-02
5.208800000000000097e+01 2.427900000000000169e+00 9.035700000000000287e+00 -7.585791999999999646e+00 -7.880725123203587146e-02
5.208800000000000097e+01 2.797899999999999920e+01 8.367699999999999250e+00 -1.735471000000000075e+01 -9.387046005914607971e-02
5.209499999999999886e+01 3.493200000000000216e+01 5.803300000000000125e+00 -1.342107000000000028e+01 -1.948661343173849758e-01
5.209499999999999886e+01 2.582700000000000173e+01 1.316900000000000048e+01 -1.551681999999999917e+01 -8.410963609878380903e-03
5.209499999999999886e+01 2.683800000000000097e+01 1.231000000000000050e+01 -1.476805000000000057e+01 1.967620163701894707e-03
5.209700000000000131e+01 1.271000000000000085e+01 3.490899999999999892e+00 4.656766999999999967e+01 6.789358562382864781e-02
5.210199999999999676e+01 3.648700000000000188e+01 -4.961100000000000065e+00 -1.135368000000000066e+01 -1.782258203440412470e-01
5.210199999999999676e+01 3.534199999999999875e+01 4.338499999999999801e+00 -3.071323000000000025e+00 -9.340281681489787102e-02
5.210600000000000165e+01 3.495900000000000318e+01 -4.813699999999999868e+00 -8.485853999999999786e+00 -1.780143065373596400e-01
5.210699999999999932e+01 4.033200000000000074e+01 -3.017700000000000049e+00 -3.290814999999999912e+01 -1.747919886215669183e-01
5.210699999999999932e+01 4.033200000000000074e+01 -2.078300000000000036e+00 -2.979908000000000001e+01 -1.741596226453988872e-01
5.210900000000000176e+01 2.283699999999999974e+01 -1.360100000000000087e+01 -6.884026000000000423e+00 -1.947234378279794620e-01
5.211399999999999721e+01 2.363599999999999923e+01 1.310800000000000054e+01 -2.197293000000000163e+01 -1.311372822682597139e-01
5.211399999999999721e+01 7.396399999999999864e+00 2.039900000000000091e+01 -2.787603999999999971e+01 -1.190917439826049418e-01
5.211500000000000199e+01 3.416400000000000148e+01 6.819099999999999717e+00 -2.337030000000000030e+01 -1.135977339553340126e-01
5.211599999999999966e+01 1.044100000000000072e+01 -4.644900000000000140e-01 -1.729643000000000086e+01 -3.077327272414883130e-01
5.211599999999999966e+01 2.810399999999999920e+01 7.783900000000000041e+00 -1.712297999999999831e+01 -7.521840636441037842e-02
5.211699999999999733e+01 1.269100000000000072e+01 -5.918999999999999595e+00 -7.865041999999999867e+00 -1.988661980509608684e-01
5.211699999999999733e+01 1.374099999999999966e+01 -5.918999999999999595e+00 -8.413807000000000258e+00 -1.974683799852998412e-01
5.211699999999999733e+01 1.374099999999999966e+01 -4.219000000000000306e+00 1.658940000000000126e+01 -2.005455522000439417e-01
5.211899999999999977e+01 8.347099999999999298e+00 2.253200000000000003e+01 -9.452004000000000516e+00 -1.993809848309621158e-01
5.211899999999999977e+01 2.432100000000000151e+01 3.159600000000000009e+01 9.876635999999999527e+00 -1.078665115154229526e-01
5.211899999999999977e+01 1.362500000000000000e+01 3.128600000000000136e+01 -4.176154999999999617e+00 -9.916421760824774279e-02
5.212299999999999756e+01 1.637699999999999889e+01 8.250500000000000611e+00 -3.572565999999999775e+01 -1.212640657043321940e-01
5.212400000000000233e+01 1.131799999999999962e+01 -5.597000000000000419e+00 -7.213481999999999950e+00 -2.014820694176449878e-01
5.212400000000000233e+01 1.131799999999999962e+01 -3.896999999999999797e+00 4.107952000000000048e+00 -2.043927924096677340e-01
5.212400000000000233e+01 1.218399999999999928e+01 -5.597000000000000419e+00 -7.576524000000000036e+00 -1.999629326380009675e-01
5.212599999999999767e+01 2.724299999999999855e+01 -8.444100000000000605e+00 -1.827053000000000083e+01 -1.760127538779526213e-01
5.212700000000000244e+01 1.842800000000000082e+01 -9.638500000000000512e+00 -4.609378000000000419e+00 -1.837891109345790586e-01
5.212899999999999778e+01 2.578800000000000026e+01 -1.492800000000000082e+01 -1.143895000000000017e+01 -1.013914817147345826e-01
5.213000000000000256e+01 1.903000000000000114e+01 9.417899999999999494e+00 -1.976216000000000150e+01 -4.527077823262196099e-02
5.213300000000000267e+01 4.570000000000000284e+00 6.546199999999999797e-01 -1.198784999999999989e+01 -3.087500537589963345e-01
5.213300000000000267e+01 5.969999999999999751e+00 6.546199999999999797e-01 -1.432966000000000051e+01 -3.094181519974115724e-01
5.213900000000000290e+01 2.069000000000000128e+01 1.147700000000000031e+01 -2.439394000000000062e+01 -6.698106475353235445e-02
5.215200000000000102e+01 2.772599999999999909e+01 -8.670499999999999874e-01 -2.110229999999999961e+01 -1.552424608201387612e-01
5.215500000000000114e+01 9.479699999999999349e+00 2.329100000000000037e+01 -8.866208000000000311e+00 -2.022686759480241958e-01
5.215800000000000125e+01 3.830899999999999750e+01 1.474799999999999933e+01 1.812184999999999846e+01 -2.231843927158101426e-01
5.216100000000000136e+01 3.868500000000000227e+01 5.562599999999999767e-01 -1.888251999999999953e+01 -1.738500827903114443e-01
5.216299999999999670e+01 9.347300000000000608e+00 -9.539199999999999902e-01 -1.775230000000000175e+01 -3.077054938406089124e-01
5.216499999999999915e+01 5.864600000000000257e+00 1.311299999999999955e+01 -1.202333999999999925e+01 -1.416854087030564036e-02
5.216599999999999682e+01 5.211199999999999832e+00 -2.375599999999999934e+00 6.744680999999999926e+00 -3.061704304125113518e-01
5.216899999999999693e+01 1.501399999999999935e+01 6.669999999999999929e+00 -3.747603000000000151e+01 -2.767951734189489504e-02
5.217699999999999960e+01 1.565499999999999936e+01 3.088299999999999912e+01 2.000355000000000061e+01 -1.007597184294029002e-01
5.217799999999999727e+01 2.224099999999999966e+01 -5.475299999999999834e+00 -7.929804999999999771e-01 -1.898793550537384855e-01
5.217799999999999727e+01 2.224099999999999966e+01 -4.424699999999999633e+00 -4.642371999999999943e+00 -1.808242291507953237e-01
5.217999999999999972e+01 6.846899999999999764e+00 -6.254900000000000126e+00 -1.090577000000000041e+01 -2.066102618029510563e-01
5.218299999999999983e+01 2.489300000000000068e+01 1.341600000000000037e+01 -1.718906000000000134e+01 -1.369664850990535108e-02
5.218399999999999750e+01 6.253599999999999604e+00 1.426699999999999946e+01 -1.230596000000000068e+01 -1.137153532742240236e-01
5.218399999999999750e+01 6.253599999999999604e+00 1.513199999999999967e+01 -1.862662999999999869e+01 -1.133034806549260143e-01
5.218500000000000227e+01 2.749299999999999855e+01 -1.015600000000000058e+01 -1.984112000000000009e+01 -8.017525355479671045e-02
5.218500000000000227e+01 2.749299999999999855e+01 -9.216300000000000381e+00 -2.828913999999999973e+01 -1.763100374482138855e-01
5.218800000000000239e+01 1.410999999999999943e+01 -5.068999999999999950e+00 -1.132005999999999979e+01 -1.975733691482821908e-01
5.218800000000000239e+01 1.782199999999999918e+01 -1.135299999999999976e+01 -5.834220000000000184e+00 -1.817815375007063583e-01
5.218900000000000006e+01 2.920700000000000074e+00 6.850999999999999979e+00 -1.346230000000000082e+01 -4.495260372727268375e-03
5.218900000000000006e+01 2.920700000000000074e+00 8.250999999999999446e+00 -7.804419000000000217e+00 -7.105526908188242521e-03
5.219299999999999784e+01 3.336699999999999733e+01 1.243999999999999950e+01 -1.406588999999999956e+01 -1.103380118238622698e-01
5.219500000000000028e+01 7.443599999999999994e+00 2.090700000000000003e+01 -2.189758000000000138e+01 -1.193835485271285135e-01
5.219599999999999795e+01 3.895400000000000063e+01 -2.026199999999999946e-01 -1.482440000000000069e+01 -1.742925289231716246e-01
5.220000000000000284e+01 2.711899999999999977e+01 -1.400600000000000023e+01 -4.403847999999999985e+00 -1.016099405288382468e-01
5.220000000000000284e+01 2.737300000000000111e+01 -1.311200000000000010e+01 3.851586000000000176e+00 -7.988029446934212519e-02
5.220300000000000296e+01 2.423900000000000166e+00 1.002100000000000080e+01 -6.284478000000000009e+00 -8.016152195535085345e-02
5.220400000000000063e+01 1.263100000000000023e+01 -4.430200000000000138e+00 -4.834753000000000078e+00 -2.006832771759440581e-01
5.220600000000000307e+01 2.262000000000000099e+01 1.185999999999999943e+01 -2.048470000000000013e+01 -2.013295665798896239e-01
5.221500000000000341e+01 2.834900000000000020e+01 -6.197000000000000064e+00 -1.229583000000000048e+01 -1.759407302773802473e-01
5.221999999999999886e+01 8.175000000000000711e+00 -7.017000000000000348e+00 -8.615605000000000402e+00 -2.047836709173506409e-01
5.222699999999999676e+01 1.794200000000000017e+01 -1.202800000000000047e+01 -3.298690999999999818e+00 -1.826104378555858943e-01
5.222699999999999676e+01 2.858399999999999963e+01 2.800199999999999889e+01 -1.118889000000000067e+01 -1.256156195635026174e-01
5.222999999999999687e+01 6.573599999999999888e+00 -5.817000000000000171e+00 -7.922521999999999842e+00 -2.070849450530838354e-01
5.223799999999999955e+01 3.317499999999999716e+01 8.821899999999999409e+00 -1.145024000000000086e+01 -1.119477324199360940e-01
5.224000000000000199e+01 5.487700000000000244e+00 1.625700000000000145e+01 -1.242943999999999960e+01 -1.143975104544335542e-01
5.224199999999999733e+01 1.032600000000000051e+01 -3.831999999999999851e+00 -3.972154000000000185e+00 -2.054940210414048507e-01
5.224600000000000222e+01 1.103800000000000026e+01 2.857100000000000151e+01 -1.140011999999999937e+01 1.006034749680691648e-01
5.224699999999999989e+01 3.224099999999999966e+00 7.551000000000000156e+00 -8.736255999999999133e+00 -5.612072399408759606e-03
5.224900000000000233e+01 3.639600000000000080e+01 2.074699999999999989e+00 -4.291038000000000352e+00 -9.496999296820129999e-02
5.225099999999999767e+01 3.134900000000000020e+01 1.723000000000000043e+01 -1.299892999999999965e+01 -2.034327411652824338e-02
5.225200000000000244e+01 1.932000000000000028e+01 9.903000000000000469e+00 -2.218036999999999992e+01 -5.161405034527609403e-02
5.225300000000000011e+01 2.723499999999999943e+01 -1.223199999999999932e+01 8.092291000000000345e-01 -7.991662584594685925e-02
5.225500000000000256e+01 9.474700000000000344e+00 -6.250399999999999956e+00 -3.190715000000000146e+01 -2.035037026541515193e-01
5.225800000000000267e+01 5.291000000000000369e+00 -5.255300000000000082e+00 -2.636141999999999985e+00 -2.083718359726448310e-01
5.226100000000000279e+01 3.353399999999999892e+01 2.204799999999999827e+01 6.840626999999999569e+00 -1.193585443984897659e-01
5.226100000000000279e+01 3.353399999999999892e+01 2.383599999999999852e+01 1.944378000000000029e+01 -1.195803450458770290e-01
5.226100000000000279e+01 3.378799999999999670e+01 2.294200000000000017e+01 1.285472000000000037e+01 -1.190089525452105168e-01
5.226899999999999835e+01 1.939999999999999858e+01 1.063400000000000034e+01 -2.547082999999999942e+01 -5.982381628684917130e-02
5.227799999999999869e+01 2.908899999999999864e+01 -3.584499999999999797e+00 -6.419959000000000415e+00 -1.742767527793830651e-01
5.227799999999999869e+01 2.801999999999999957e+01 -6.956999999999999851e+00 -1.278304999999999936e+01 -1.763608592781306661e-01
5.228300000000000125e+01 5.806899999999999729e+00 -1.643100000000000005e+00 -9.375391000000000474e+00 -3.072461647762744219e-01
5.228399999999999892e+01 1.922500000000000142e+01 -1.277200000000000024e+01 -1.304832999999999910e+00 -1.867815676024518756e-01
5.228499999999999659e+01 2.888700000000000045e+01 2.730199999999999960e+01 -1.025517999999999930e+01 -1.257662078496807057e-01
5.229299999999999926e+01 2.871499999999999986e+01 6.634800000000000419e-02 -8.938741000000000270e+00 -1.814542646248906155e-01
5.229299999999999926e+01 2.353099999999999881e+01 -3.440999999999999837e+00 -9.353486000000000189e+00 -1.608722323995732950e-01
5.229599999999999937e+01 2.920799999999999841e+01 9.350300000000000278e-01 -6.221011999999999986e+00 -6.187562836665653349e-02
5.230199999999999960e+01 2.029200000000000159e+01 -9.122299999999999187e+00 -2.500770000000000159e+00 -1.948618572955082839e-01
5.231099999999999994e+01 1.167300000000000004e+01 -4.694200000000000372e+00 -6.037993000000000166e+00 -2.013523991398636359e-01
5.231199999999999761e+01 2.786499999999999844e+01 1.036400000000000077e+01 -1.799344999999999928e+01 -9.055015914554560841e-02
5.231300000000000239e+01 2.805799999999999983e+01 8.973699999999999122e+00 -1.743020999999999887e+01 -9.222578100268030710e-02
5.231799999999999784e+01 3.782000000000000028e+01 1.565600000000000058e+01 6.585820000000000007e+00 -2.225458340855828998e-01
5.231900000000000261e+01 3.108500000000000085e+01 1.833099999999999952e+01 -8.409402999999999295e+00 -2.385590186942985330e-02
5.232000000000000028e+01 3.055699999999999861e+01 -3.459999999999999964e+00 -1.215498999999999974e+01 -1.760214529882822565e-01
5.232000000000000028e+01 3.190700000000000003e+01 -2.833200000000000163e+00 -1.703932999999999964e+01 -1.804029256180406937e-01
5.232000000000000028e+01 3.314999999999999858e+01 9.679999999999999716e+00 -1.179107999999999912e+01 -1.113604869588995933e-01
5.232000000000000028e+01 3.247399999999999665e+01 2.475300000000000011e+01 -6.516222000000000680e-02 -1.214118414351188224e-01
5.232399999999999807e+01 1.236899999999999977e+01 -5.068999999999999950e+00 -9.581663999999999959e+00 -1.992557468964865630e-01
5.232500000000000284e+01 2.661799999999999944e+00 2.234599999999999920e+00 -9.997951999999999728e+00 -7.227881522828900895e-02
5.232999999999999829e+01 5.369500000000000384e+00 1.714099999999999824e+01 -1.314295000000000080e+01 -1.145198372091479067e-01
5.233100000000000307e+01 9.945899999999999963e+00 -4.746999999999999886e+00 -1.466810000000000080e+01 -2.042022832882643413e-01
5.233100000000000307e+01 2.182799999999999940e+01 -9.874299999999999855e+00 1.101838000000000051e+01 -1.996389526945590298e-01
5.233200000000000074e+01 1.318500000000000050e+01 5.381199999999999761e+00 5.601609999999999978e+00 -3.164859337805983053e-01
5.233800000000000097e+01 3.341799999999999926e+01 7.572700000000000209e+00 -1.402581999999999951e+01 -1.130197584308658409e-01
5.233800000000000097e+01 9.768200000000000216e+00 -5.493000000000000327e+00 -2.430096999999999952e+01 -2.035284025037933375e-01
5.233899999999999864e+01 2.332999999999999829e+01 -9.918599999999999639e+00 7.377572000000000685e+01 -2.033511344609754690e-01
5.234300000000000352e+01 3.972500000000000142e+01 1.243599999999999994e+01 -1.240628000000000064e+01 -1.891369044157987234e-01
5.234400000000000119e+01 3.523599999999999710e+01 1.680499999999999972e+01 -5.266683999999999699e+00 -1.635656596666428680e-02
5.235000000000000142e+01 5.645800000000000374e+00 1.796300000000000097e+01 -2.526322000000000045e+01 -3.834261764796837446e-01
5.235099999999999909e+01 7.715900000000000425e+00 2.166900000000000048e+01 -1.187307000000000023e+01 -1.196295998558609963e-01
5.235300000000000153e+01 1.417999999999999972e+01 3.123699999999999832e+01 -1.081108999999999959e-01 -9.956167547762931336e-02
5.235999999999999943e+01 7.253700000000000259e+00 1.969500000000000028e+01 -1.412358000000000047e+01 -1.198547946753989873e-01
5.236899999999999977e+01 2.500600000000000023e+01 -1.519800000000000040e+01 -1.528599999999999959e+01 -1.012461834000916994e-01
5.237100000000000222e+01 3.191600000000000037e+01 1.638700000000000045e+01 -7.403946999999999612e+00 -1.726424212791412283e-02
5.237199999999999989e+01 2.479100000000000037e+01 -1.790300000000000002e+00 -2.033312000000000097e+01 -1.434479856184353586e-01
5.237599999999999767e+01 2.100499999999999901e+01 -1.290099999999999980e+01 -1.973838999999999899e+00 -1.916406078838553129e-01
5.237599999999999767e+01 2.240500000000000114e+01 -1.290099999999999980e+01 -4.842126000000000374e+00 -1.948691332648139207e-01
5.237800000000000011e+01 3.345300000000000296e+01 1.038000000000000078e+01 -9.134259000000000128e+00 -1.110988846135580327e-01
5.237899999999999778e+01 8.529999999999999805e-01 4.633000000000000007e+00 -1.024699000000000026e+01 -7.880490982066631900e-02
5.237899999999999778e+01 1.080000000000000071e+00 3.833899999999999864e+00 -9.043646999999999991e+00 -7.775540301399999632e-02
5.237899999999999778e+01 1.080000000000000071e+00 5.432100000000000151e+00 -9.858306999999999931e+00 -7.899856886475432882e-02
5.237899999999999778e+01 2.028799999999999937e+00 2.885099999999999998e+00 -9.630155999999999494e+00 -7.480349478049840017e-02
5.237899999999999778e+01 2.028799999999999937e+00 6.380899999999999572e+00 -1.529692999999999969e+01 -7.796754924520062080e-02
5.238199999999999790e+01 2.755900000000000016e+00 1.332999999999999963e+00 -9.805429999999999424e+00 -7.157959731792516711e-02
5.238499999999999801e+01 4.024000000000000021e+00 4.739300000000000179e-01 -1.137703999999999915e+01 -3.086965250025913710e-01
5.238700000000000045e+01 3.832000000000000028e+01 1.147399999999999975e+00 -1.687302000000000035e+01 -1.733969519556271821e-01
5.238700000000000045e+01 3.982600000000000051e+01 1.056600000000000072e+01 1.087608999999999959e+01 -1.893237946315043663e-01
5.238700000000000045e+01 3.982600000000000051e+01 1.161599999999999966e+01 3.459632000000000041e+00 -1.891827197808347849e-01
5.239200000000000301e+01 2.773600000000000065e+01 1.132199999999999918e+01 -1.571044999999999980e+01 -9.017823164689388327e-02
5.239800000000000324e+01 5.855999999999999872e+00 1.554899999999999949e+01 -1.318303000000000047e+01 -1.147146283654672666e-01
5.239999999999999858e+01 6.402599999999999625e+00 -9.106199999999999850e-01 -1.652996999999999872e+01 -3.084708555383691708e-01
5.239999999999999858e+01 6.402599999999999625e+00 -4.537599999999999967e-02 -1.944134999999999991e+01 -3.094683826893789291e-01
5.240200000000000102e+01 3.263100000000000023e+01 1.243999999999999950e+01 -1.617048000000000130e+01 -1.099867815324656328e-01
5.240200000000000102e+01 3.410300000000000153e+01 1.243999999999999950e+01 -1.717042000000000002e+01 -2.147603826820404238e-01
5.240299999999999869e+01 2.714000000000000057e+01 -1.097000000000000064e+01 -5.482457000000000136e+00 -8.002082765939835807e-02
5.240599999999999881e+01 1.057799999999999940e+01 2.531800000000000139e+01 -1.180204999999999949e+01 -2.073144779721780573e-01
5.240899999999999892e+01 2.367800000000000082e+01 -1.443599999999999994e+01 -8.152464999999999407e+00 -1.013296709411488222e-01
5.240999999999999659e+01 2.761700000000000088e+01 2.898199999999999932e+01 -1.441677999999999926e+01 -1.259436057236851536e-01
5.241100000000000136e+01 2.602100000000000080e+01 -9.670100000000000362e-01 -4.088931000000000182e+01 -1.399481663512858465e-01
5.241199999999999903e+01 4.441799999999999748e+00 1.131700000000000017e+01 4.521734000000000364e+00 -1.220977363854609463e-02
5.241199999999999903e+01 4.650900000000000034e+00 1.205400000000000027e+01 -5.688717999999999719e+00 -1.335052529284552758e-02
5.241199999999999903e+01 1.196000000000000085e+01 3.090399999999999991e+01 7.546313999999999522e-01 1.005249724427013380e-01
5.241499999999999915e+01 3.364900000000000091e+01 -2.883999999999999897e+00 -8.079475999999999658e+00 -1.818344077941050907e-01
5.242000000000000171e+01 3.249600000000000222e+01 2.113800000000000168e+01 4.621786000000000172e+00 -1.215670258543966736e-01
5.242199999999999704e+01 9.047100000000000364e+00 2.259100000000000108e+01 -6.504827999999999832e+00 -2.007338772893717815e-01
5.243099999999999739e+01 3.845100000000000051e+01 9.644899999999999807e+00 -1.415820999999999996e+00 -1.902261228237435153e-01
5.243399999999999750e+01 3.343999999999999773e+01 1.634700000000000131e+01 1.346189999999999998e+01 -1.606809951978136961e-02
5.243599999999999994e+01 5.269999999999999574e+00 7.129100000000000437e-01 -1.259725000000000072e+01 -3.096030445934329078e-01
5.244100000000000250e+01 3.901899999999999835e+01 -4.666000000000000369e+00 4.541267999999999638e+00 -1.771956860787454180e-01
5.244200000000000017e+01 1.321599999999999930e+01 -5.068999999999999950e+00 -1.196258000000000088e+01 -1.967389222112325142e-01
5.244200000000000017e+01 2.962000000000000099e+01 1.639799999999999924e+00 -1.532944000000000084e+00 -6.161468124079885061e-02
5.244299999999999784e+01 3.607900000000000063e+01 1.686299999999999955e+01 -1.114700999999999986e+01 -1.093503511318939803e-01
5.244400000000000261e+01 2.964999999999999858e+01 4.981700000000000017e+00 -1.486294000000000004e+01 -8.246988598245984237e-02
5.244500000000000028e+01 3.085300000000000153e+00 5.729999999999999538e-01 -9.833797999999999817e+00 -3.083601024970903937e-01
5.244700000000000273e+01 2.467000000000000171e+01 -2.692600000000000104e+00 -1.502533999999999992e+01 -1.511457199835073706e-01
5.244800000000000040e+01 1.187400000000000055e+01 2.756400000000000006e+01 -2.149911000000000172e+01 -2.117966229041745585e-01
5.244899999999999807e+01 1.079299999999999926e+01 -4.746999999999999886e+00 -7.265075999999999645e+00 -2.024303958089782307e-01
5.245199999999999818e+01 3.906799999999999784e+01 1.375600000000000023e+01 1.505193999999999903e+02 -3.020249956883312992e-01
5.245300000000000296e+01 2.630499999999999972e+01 2.951099999999999923e+01 -1.370193000000000083e+01 -1.107096006104044406e-01
5.245300000000000296e+01 2.998300000000000054e+01 2.599200000000000177e+00 -1.286171000000000042e+01 -6.161052011637009607e-02
5.245400000000000063e+01 3.109299999999999997e+01 2.509600000000000009e+01 -2.855068999999999946e+01 -1.237367366094015708e-01
5.245400000000000063e+01 3.431099999999999994e+01 1.067200000000000060e+01 -1.016343999999999959e+01 -1.113161360220348978e-01
5.245600000000000307e+01 4.210799999999999876e+00 -3.335100000000000176e+00 -4.403277000000000108e+00 -3.054677324866278409e-01
5.246000000000000085e+01 2.484600000000000009e+01 3.074500000000000099e+01 2.393091000000000079e+00 -1.087935248534313698e-01
5.246000000000000085e+01 3.293399999999999750e+01 1.174000000000000021e+01 -1.432199999999999918e+01 -1.103048397776029421e-01
5.246000000000000085e+01 3.293399999999999750e+01 1.314000000000000057e+01 -1.257525000000000048e+01 -3.593297360065838327e-03
5.246000000000000085e+01 3.379999999999999716e+01 1.174000000000000021e+01 -1.318044000000000082e+01 -1.107075623090235383e-01
5.246000000000000085e+01 3.379999999999999716e+01 1.314000000000000057e+01 -1.239259999999999984e+01 -2.153893497715497207e-01
5.246500000000000341e+01 1.011899999999999977e+01 2.435399999999999920e+01 -1.467848000000000042e+01 -2.053295489810512409e-01
5.246600000000000108e+01 1.731200000000000117e+01 8.347099999999999298e+00 -2.065243999999999858e+01 -1.268333950596527704e-01
5.246600000000000108e+01 1.598300000000000054e+01 7.563100000000000378e+00 -4.731672999999999973e+01 -1.153072957731229586e-01
5.246800000000000352e+01 3.000400000000000134e+01 4.126000000000000334e+00 -1.620402999999999949e+01 -6.198960821452499659e-02
5.246800000000000352e+01 3.021399999999999864e+01 3.390000000000000124e+00 -1.673482999999999876e+01 -6.168024328143678625e-02
5.247800000000000153e+01 2.376200000000000045e+01 3.227100000000000080e+01 -1.502593000000000067e+00 -1.071351591671283743e-01
5.247899999999999920e+01 2.994200000000000017e+01 2.588400000000000034e+01 -5.942833000000000254e+01 -1.252435684235464752e-01
5.248199999999999932e+01 2.074800000000000111e+01 3.283800000000000097e+01 -2.154520000000000124e+01 -1.047541311350558002e-01
5.248499999999999943e+01 3.436800000000000210e+01 1.631599999999999895e+01 3.216403999999999996e+01 -1.562784796618615912e-02
5.248599999999999710e+01 1.153700000000000081e+01 2.685099999999999909e+01 -2.118700000000000117e+01 -2.106779351116280508e-01
5.248700000000000188e+01 9.574199999999999378e+00 -3.817699999999999871e+00 -4.186961000000000155e+00 -2.058833795748511442e-01
5.249199999999999733e+01 2.765899999999999892e+01 -7.773900000000000254e+00 -9.267198999999999742e+00 -1.770548175846838601e-01
5.249199999999999733e+01 1.861899999999999977e+01 3.081899999999999906e+01 1.583009999999999984e+01 -1.034378978709675490e-01
5.250500000000000256e+01 1.729100000000000037e+01 -1.053100000000000058e+01 -9.876134999999999664e+00 -1.780811668998653619e-01
5.250699999999999790e+01 1.157099999999999973e+01 2.826399999999999935e+01 -2.116619999999999990e+01 1.011728960858308685e-01
5.250800000000000267e+01 3.698799999999999955e+01 1.016399999999999970e+01 -9.606332000000000093e+00 -1.911800266629511691e-01
5.251599999999999824e+01 1.707700000000000173e+01 -1.135299999999999976e+01 -5.985854999999999926e+00 -1.784757362604764142e-01
5.251700000000000301e+01 1.709700000000000131e+01 3.122400000000000020e+01 -1.972163000000000110e+00 -1.019989098383677906e-01
5.252000000000000313e+01 4.560699999999999754e+00 -2.441899999999999959e+00 -8.827131000000000283e-01 -3.064972696980234890e-01
5.252600000000000335e+01 3.802900000000000347e+01 -4.773600000000000065e+00 3.275262999999999813e+00 4.584146639505404935e-02
5.253000000000000114e+01 6.685900000000000176e+00 1.879299999999999926e+01 -1.630361999999999867e+01 -3.834260317839060517e-01
5.253999999999999915e+01 9.209799999999999542e+00 -4.746999999999999886e+00 -1.875277000000000172e+01 -2.048023067082661020e-01
5.254599999999999937e+01 2.865700000000000003e+01 -4.284500000000000419e+00 -1.034041000000000032e+01 -1.756517728980762638e-01
5.254699999999999704e+01 2.314499999999999957e+01 1.271100000000000030e+01 -1.834653000000000134e+01 -1.274003146349486360e-01
5.254800000000000182e+01 2.197299999999999898e+01 1.109299999999999997e+01 -2.241300000000000026e+01 -7.172417954243329175e-02
5.254800000000000182e+01 1.093200000000000038e+01 -6.789399999999999602e-02 -3.129311999999999827e+01 -3.101148252567134112e-01
5.254999999999999716e+01 3.118599999999999994e+01 2.023900000000000077e+01 -1.094172999999999973e+01 -2.784200295603440206e-02
5.256099999999999994e+01 1.308600000000000030e+01 4.668499999999999872e+00 4.626883000000000301e+00 -3.228011172452723843e-01
5.256099999999999994e+01 3.513499999999999801e+01 3.168400000000000105e+00 1.216719999999999935e+01 -9.461012623211954853e-02
5.256300000000000239e+01 1.853900000000000148e+01 9.021300000000000097e+00 -1.890100999999999942e+01 -4.831986981352595634e-02
5.256400000000000006e+01 2.882900000000000063e+01 6.400100000000000122e+00 -1.515704999999999991e+01 -7.935325602560691638e-02
5.256499999999999773e+01 2.889999999999999858e+01 2.683899999999999864e+01 -2.898576999999999870e+01 -1.261254053198875846e-01
5.256900000000000261e+01 3.092999999999999972e+01 1.953200000000000003e+01 -8.975754999999999484e+00 -2.718089447604947820e-02
5.257399999999999807e+01 2.642299999999999827e+01 1.282900000000000063e+01 -1.500555999999999912e+01 -6.403642069182547032e-03
5.257500000000000284e+01 3.496500000000000341e+01 5.535000000000000142e+00 -6.029887000000000441e+00 -1.944429426722658061e-01
5.257600000000000051e+01 3.822299999999999898e+01 1.592699999999999960e+01 -9.255952999999999875e+00 -3.016074044928895304e-01
5.257600000000000051e+01 3.410099999999999909e+01 -3.645900000000000141e+00 -7.983299999999999841e+00 -1.806929215231777297e-01
5.257600000000000051e+01 3.442600000000000193e+01 -4.383099999999999774e+00 -1.028701000000000043e+01 -1.793429018932807817e-01
5.257600000000000051e+01 3.571900000000000119e+01 -5.104000000000000092e+00 -6.682887000000000022e+00 -7.713394631459634387e-02
5.258100000000000307e+01 1.741300000000000026e+01 -1.212800000000000011e+01 -1.673021000000000091e+00 -1.804834485331653915e-01
5.258500000000000085e+01 3.944299999999999784e+01 -3.875100000000000211e+00 -3.747564000000000117e+00 -1.761558821127520713e-01
5.258800000000000097e+01 2.380499999999999972e+01 -9.524300000000000210e+00 1.978864000000000090e+01 -2.054377843103997459e-01
5.258899999999999864e+01 3.992099999999999937e+01 -1.567700000000000093e+00 -7.102509000000000405e+00 -1.739201986007961331e-01
5.259199999999999875e+01 2.726300000000000168e+01 -1.441400000000000015e+00 -2.087105999999999995e+01 -1.510364399653663092e-01
5.259499999999999886e+01 4.322700000000000209e+00 -4.261899999999999800e+00 -5.402116000000000362e+00 -3.046341383533029967e-01
5.259599999999999653e+01 8.647299999999999542e+00 -2.086500000000000021e+00 -3.039581000000000088e+01 -3.068540267892915230e-01
5.259599999999999653e+01 8.856299999999999173e+00 -2.822599999999999998e+00 -3.705610999999999677e+01 -3.050440747550628440e-01
5.259599999999999653e+01 8.856299999999999173e+00 -1.350500000000000034e+00 -2.709771999999999892e+01 -3.083893595328027759e-01
5.259599999999999653e+01 1.004700000000000060e+01 -6.865499999999999936e-01 -2.422155000000000058e+01 -3.094695546375060280e-01
5.260199999999999676e+01 1.431400000000000006e+01 6.251000000000000334e+00 -1.160974000000000039e+01 -4.978111977212007488e-02
5.260300000000000153e+01 2.512099999999999866e+01 3.032900000000000063e+01 -4.290784000000000376e+00 -1.092933594228379934e-01
5.260699999999999932e+01 2.850100000000000122e+01 7.285999999999999588e+00 -1.761914000000000158e+01 -7.720088857486032130e-02
5.260699999999999932e+01 2.850100000000000122e+01 8.216599999999999682e+00 -1.976395000000000124e+01 -1.102151729415165315e-01
5.260799999999999699e+01 3.695100000000000051e+01 1.669500000000000028e+01 -1.953058000000000050e+01 -1.073098656832815190e-01
5.260900000000000176e+01 3.968299999999999983e+01 -6.508300000000000196e-01 -1.205536000000000030e+01 -1.733653488680793053e-01
5.261299999999999955e+01 3.496900000000000119e+01 3.821299999999999919e+00 -1.884516000000000080e+00 -9.398884526320809563e-02
5.261299999999999955e+01 3.496900000000000119e+01 4.686499999999999666e+00 -3.205287999999999915e+00 -9.301458746073734685e-02
5.261800000000000210e+01 1.883800000000000097e+01 -8.877000000000000668e+00 -1.027045000000000030e+01 -1.852375488554678928e-01
5.262100000000000222e+01 3.786800000000000210e+01 1.666100000000000136e+01 -1.883696000000000126e+01 -1.058784235573614063e-01
5.262700000000000244e+01 6.141000000000000014e+00 -5.326100000000000279e+00 -1.410684999999999967e+00 -2.073826459464879757e-01
5.264000000000000057e+01 3.990100000000000335e+01 -2.548000000000000043e+00 -7.935290000000000177e+00 -1.746758423966043305e-01
5.264200000000000301e+01 1.758800000000000097e+01 -1.001699999999999946e+01 -1.074657000000000018e+01 -1.783466087943632039e-01
5.264699999999999847e+01 3.248700000000000188e+01 -2.142300000000000093e+00 -2.524699000000000026e+01 -1.839207828618879548e-01
5.264699999999999847e+01 3.335199999999999676e+01 -2.142300000000000093e+00 -8.114710999999999785e+00 -1.841378400128014514e-01
5.264900000000000091e+01 3.870600000000000307e+01 1.518099999999999916e+01 2.367610000000000170e+01 -3.016110885604212366e-01
5.265100000000000335e+01 7.705300000000000260e+00 -6.483999999999999986e+00 -1.207278999999999947e+01 -2.049875163493298236e-01
5.265100000000000335e+01 8.644700000000000273e+00 -6.483999999999999986e+00 -2.382594999999999885e+01 -2.037756101926996577e-01
5.265200000000000102e+01 3.340300000000000047e+00 1.064300000000000068e+01 -3.070605000000000029e+00 -1.215017540943390609e-02
5.265200000000000102e+01 3.157799999999999940e+01 2.495100000000000051e+01 -1.076631000000000071e+01 -1.229115780288094067e-01
5.265500000000000114e+01 1.223300000000000054e+01 2.993799999999999795e+00 2.595570999999999984e+01 6.650575839844778681e-02
5.266100000000000136e+01 3.519400000000000261e+01 1.049699999999999989e+01 -1.501941000000000059e+01 -1.117136336266950219e-01
5.266599999999999682e+01 2.382100000000000151e+01 -7.222699999999999676e+00 -2.810922000000000143e+00 -1.895064489739499147e-01
5.267000000000000171e+01 1.848300000000000054e+01 -1.262400000000000055e+01 1.964733999999999925e-02 -1.841436067348643513e-01
5.267199999999999704e+01 2.422200000000000131e+01 -8.826599999999999113e+00 4.251432999999999574e+00 -1.900279447909878905e-01
5.267199999999999704e+01 2.422200000000000131e+01 -7.961400000000000254e+00 2.615384000000000153e+00 -1.891173796300862353e-01
5.267499999999999716e+01 3.963300000000000267e+01 -3.306900000000000173e+00 -7.544788999999999746e+00 -1.755152676102758047e-01
5.267699999999999960e+01 2.991199999999999903e+01 -3.498600000000000154e+00 -1.087346999999999930e+01 -1.763239212521442445e-01
5.267699999999999960e+01 1.963500000000000156e+01 -8.653900000000000148e+00 -1.736676999999999893e+01 -1.911309409385306968e-01
5.268099999999999739e+01 3.709599999999999653e+01 1.807299999999999907e+00 -8.019349000000000061e+00 -1.740898013134701550e-01
5.268500000000000227e+01 3.729599999999999937e+01 -4.600299999999999834e+00 -5.899856999999999907e+00 4.637873132331463144e-02
5.268699999999999761e+01 3.935000000000000142e+01 2.300000000000000100e-01 -2.897796999999999912e+01 -1.727762527182702124e-01
5.268999999999999773e+01 2.265800000000000036e+00 7.769199999999999662e+00 -8.878776999999999475e+00 -8.002474313093613234e-02
5.269599999999999795e+01 1.104700000000000060e+01 2.607700000000000173e+01 -1.313307000000000002e+01 1.014430357875708288e-01
5.269800000000000040e+01 2.424599999999999866e+01 -1.513499999999999979e+01 -9.458600999999999814e+00 -1.011330320016084749e-01
5.269800000000000040e+01 2.576599999999999824e+01 -1.513499999999999979e+01 -1.768196999999999974e+01 -1.012241957845839424e-01
5.270199999999999818e+01 2.010000000000000142e+01 1.090099999999999980e+01 -2.152892999999999901e+01 -6.682726583841222534e-02
5.270300000000000296e+01 2.309100000000000108e+01 -4.099999999999999645e+00 -4.901347999999999594e+00 -1.727261199544597725e-01
5.271099999999999852e+01 1.986199999999999832e+01 3.142999999999999972e+01 -1.053003000000000000e+01 -1.044434550835935394e-01
5.271200000000000330e+01 2.412900000000000134e+01 -3.714900000000000091e+00 -1.684520000000000017e+00 -1.582978561342320289e-01
5.271399999999999864e+01 8.974099999999999966e+00 -5.724000000000000199e+00 -2.392833999999999861e+01 -2.037297742238565468e-01
5.271399999999999864e+01 2.070699999999999985e+00 8.575699999999999434e+00 -8.319535000000000124e+00 -8.117811738945279743e-02
5.271399999999999864e+01 2.070699999999999985e+00 9.626300000000000523e+00 -7.872983999999999760e+00 -8.206854942925836949e-02
5.271800000000000352e+01 2.806899999999999906e+01 2.841700000000000159e+01 -1.428499000000000052e+01 -1.259219951893704725e-01
5.271800000000000352e+01 2.818700000000000117e+01 2.756899999999999906e+01 -1.913766000000000034e+01 -1.264858776521932682e-01
5.273499999999999943e+01 2.678999999999999915e+01 -1.430799999999999983e+01 -8.873780000000000001e+00 -1.014291903805701195e-01
5.273700000000000188e+01 1.143500000000000050e+01 2.900400000000000134e+01 -5.997594999999999565e+00 1.009724365777719679e-01
5.273700000000000188e+01 1.143500000000000050e+01 3.005399999999999849e+01 -3.184274999999999967e+00 1.006445042215425856e-01
5.274799999999999756e+01 2.878000000000000114e+01 -6.666699999999999626e+00 -1.946415999999999968e+01 -1.779232801262871644e-01
5.274799999999999756e+01 2.878000000000000114e+01 -5.727299999999999613e+00 -3.512210999999999927e+01 -1.776105549302212094e-01
5.274900000000000233e+01 2.866900000000000048e+01 -4.929999999999999716e+00 -1.463155000000000072e+01 -1.770540213464242008e-01
5.275000000000000000e+01 5.291800000000000281e+00 1.262400000000000055e+01 -2.010534000000000177e+01 -1.510249327121087302e-02
5.275000000000000000e+01 3.902100000000000080e+01 9.899999999999999911e-01 -2.716650999999999883e+01 -1.721990348782697633e-01
5.275300000000000011e+01 3.944200000000000017e+01 1.292399999999999949e+01 2.593589000000000144e+00 -3.018700599291920250e-01
5.275699999999999790e+01 2.102700000000000102e+01 -9.562699999999999534e+00 2.782440999999999942e+00 -1.972147028081395193e-01
5.275699999999999790e+01 3.039300000000000068e+01 2.515399999999999991e+01 -2.030931999999999960e+01 -1.249393647518163980e-01
5.276599999999999824e+01 4.820100000000000051e+00 1.659100000000000108e+01 -6.596517999999999660e+00 -1.170798113701865262e-01
5.277000000000000313e+01 5.831599999999999895e+00 1.449099999999999966e+01 -1.385449000000000019e+01 -1.763358863498784568e-02
5.277100000000000080e+01 2.262999999999999901e+01 -1.018599999999999994e+01 3.795877000000000123e+01 -2.011191270252123131e-01
