3.700600000000000023e+01 2.738999999999999879e+00 2.165500000000000114e+02 3.581803000000000026e+01 -1.926709126106474212e-01
3.700699999999999790e+01 -1.303100000000000058e+01 1.921999999999999886e+02 1.008135999999999921e+00 -2.952892375706567263e-01
3.700699999999999790e+01 -1.303100000000000058e+01 1.930999999999999943e+02 8.652743999999999991e-01 -2.960496781436493530e-01
3.700900000000000034e+01 5.266399999999999970e+00 1.913600000000000136e+02 -7.607490000000000308e+00 -1.323879351546204952e-01
3.701299999999999812e+01 6.443999999999999950e+00 2.168799999999999955e+02 -5.736740000000000173e+00 -1.911065390058516167e-01
3.701899999999999835e+01 -3.415999999999999925e+00 1.743000000000000114e+02 5.883002000000000287e+00 -6.904191177886954967e-02
3.702499999999999858e+01 -9.237000000000000099e+00 1.782800000000000011e+02 1.092980000000000018e+01 -8.110376776638129892e-02
3.702600000000000335e+01 1.455000000000000071e+01 2.104600000000000080e+02 -1.796831999999999852e+01 -1.865557582666808323e-01
3.702600000000000335e+01 -9.597300000000000608e+00 1.815300000000000011e+02 7.240279000000000131e+00 -1.169261542546223553e-01
3.702600000000000335e+01 1.299799999999999933e+01 2.128199999999999932e+02 -1.777812000000000003e-01 -1.877283944142755234e-01
3.702900000000000347e+01 -1.266900000000000048e+01 1.914399999999999977e+02 -2.797490999999999950e+00 -2.949966190090772544e-01
3.703199999999999648e+01 6.340600000000000236e+00 1.914699999999999989e+02 -9.850989999999999469e+00 -1.305258381417679081e-01
3.703300000000000125e+01 9.762100000000000222e+00 2.076599999999999966e+02 -6.460264999999999702e+01 -1.871107963370009508e-01
3.703300000000000125e+01 9.762100000000000222e+00 2.085200000000000102e+02 -6.254574999999999996e+00 -1.873497002892986207e-01
3.703399999999999892e+01 -8.401899999999999480e+00 2.149699999999999989e+02 -1.050129000000000090e+00 -1.970401582095526183e-01
3.705400000000000205e+01 -9.376400000000000290e-01 2.183899999999999864e+02 1.927201000000000164e+01 -1.941111202697042293e-01
3.705599999999999739e+01 6.392100000000000115e+00 1.855600000000000023e+02 -3.430107000000000284e+01 -4.296844598104097857e-02
3.706300000000000239e+01 -9.373799999999999244e+00 1.807700000000000102e+02 8.964339000000000723e+00 -1.174535596261934434e-01
3.706400000000000006e+01 1.987999999999999901e+01 1.981599999999999966e+02 3.231545999999999808e+00 -2.682365155511979848e-01
3.706400000000000006e+01 1.081499999999999950e+01 2.155900000000000034e+02 -3.094787999999999872e+00 -1.892354806569995218e-01
3.706400000000000006e+01 6.876000000000000334e+00 1.915000000000000000e+02 -1.007313000000000081e+01 -1.306822777219711629e-01
3.706400000000000006e+01 1.436100000000000065e+01 1.721599999999999966e+02 1.340509999999999913e+01 -2.831068333022396244e-01
3.706799999999999784e+01 5.452600000000000335e+00 1.754699999999999989e+02 5.568147999999999875e+00 4.930486939100527793e-02
3.707000000000000028e+01 -6.124900000000000233e+00 1.921399999999999864e+02 -1.134464000000000006e+01 -2.774883903965154053e-01
3.707200000000000273e+01 1.714000000000000057e+01 1.853499999999999943e+02 1.797132999999999825e+01 6.473222423594103547e-02
3.707300000000000040e+01 5.694200000000000372e+00 1.746800000000000068e+02 3.492722000000000104e+00 -1.400862736170258860e-01
3.707600000000000051e+01 -4.473300000000000054e+00 2.198600000000000136e+02 8.114098000000000255e+00 -1.951230419670074157e-01
3.707800000000000296e+01 -3.746799999999999908e+00 1.873499999999999943e+02 -7.974796999999999692e+00 -6.337724659315416287e-02
3.707800000000000296e+01 -2.346799999999999997e+00 1.873499999999999943e+02 -4.495169999999999888e+00 -5.985863463840387227e-02
3.707900000000000063e+01 1.438400000000000034e+01 1.739199999999999875e+02 2.669500999999999991e+01 -1.398649837091460457e-01
3.708200000000000074e+01 1.462100000000000044e+01 1.730600000000000023e+02 3.779428999999999661e+01 -2.832308047004452600e-01
3.708200000000000074e+01 -6.175699999999999967e+00 2.171899999999999977e+02 4.347108000000000416e+00 -1.959787865685768682e-01
3.708500000000000085e+01 1.319200000000000017e+01 2.113300000000000125e+02 3.069427000000000127e+00 -1.870597488313914258e-01
3.709000000000000341e+01 -9.572900000000000631e+00 1.790600000000000023e+02 8.679591999999999530e+01 -8.269456546124283325e-02
3.709599999999999653e+01 -1.234299999999999997e+01 1.873300000000000125e+02 2.739164000000000154e+00 -1.098305913987673021e-01
3.709700000000000131e+01 -1.639300000000000068e+01 1.997400000000000091e+02 2.639858999999999956e+00 -1.652646088235606991e-01
3.709799999999999898e+01 -7.676300000000000345e+00 1.921699999999999875e+02 -7.513442000000000398e+00 -2.769679928447147943e-01
3.709899999999999665e+01 -4.490999999999999659e+00 1.880900000000000034e+02 -8.741863000000000383e+00 -6.307095155241947138e-02
3.710000000000000142e+01 2.273100000000000165e+01 1.914099999999999966e+02 1.164952000000000076e+01 -2.669267696242725307e-01
3.710099999999999909e+01 1.216200000000000081e+01 2.144199999999999875e+02 -1.934854999999999992e+00 -1.884761277039845029e-01
3.710199999999999676e+01 -7.815999999999999837e+00 1.761800000000000068e+02 5.620904999999999596e+00 -7.632314206439572146e-02
3.710799999999999699e+01 -7.503400000000000070e+00 2.163400000000000034e+02 -1.933361999999999981e+01 -1.965034949631880579e-01
3.711299999999999955e+01 1.363899999999999935e+01 1.756500000000000057e+02 1.747132999999999825e+01 -1.431872715139919650e-01
3.711599999999999966e+01 -1.688700000000000090e+00 1.897599999999999909e+02 -1.323908999999999914e+01 -4.788488946160598253e-02
3.711800000000000210e+01 1.360699999999999932e+01 1.767100000000000080e+02 2.439472999999999914e+01 -1.457627910099363044e-01
3.712199999999999989e+01 1.336500000000000021e+01 1.775000000000000000e+02 3.440109999999999779e+00 -1.478546664520378473e-01
3.712500000000000000e+01 1.933299999999999841e+01 1.955999999999999943e+02 9.116988999999999788e-01 -2.670280597774437048e-01
3.713199999999999790e+01 -1.121000000000000085e+01 1.857100000000000080e+02 1.869673999999999836e+01 -1.106485700954652901e-01
3.713199999999999790e+01 -1.121000000000000085e+01 1.865699999999999932e+02 1.402252000000000010e+01 -1.108181494963139391e-01
3.714000000000000057e+01 -2.518100000000000005e+00 1.907500000000000000e+02 -1.817699999999999960e+01 -4.846784238547201251e-02
3.714099999999999824e+01 -2.996999999999999886e+00 2.205500000000000114e+02 7.952628999999999948e+00 -1.946350464474131403e-01
3.714099999999999824e+01 -1.550899999999999945e+00 2.197400000000000091e+02 1.615528000000000119e+01 -1.942375530133060024e-01
3.714300000000000068e+01 1.561200000000000010e+01 1.841599999999999966e+02 1.156911000000000023e+01 6.184597403051128595e-02
3.714800000000000324e+01 1.295199999999999996e+01 2.102299999999999898e+02 -6.513644000000000212e+00 -1.866054353299218538e-01
3.714999999999999858e+01 2.246000000000000085e+01 2.030699999999999932e+02 -3.543667999999999818e+00 -1.870279702478055972e-01
3.714999999999999858e+01 2.246000000000000085e+01 2.046699999999999875e+02 -2.621405000000000030e+01 -1.869111218186200185e-01
3.714999999999999858e+01 2.268700000000000117e+01 2.038700000000000045e+02 -3.843921999999999883e+01 -1.870361964867167104e-01
3.715400000000000347e+01 -1.569299999999999962e+01 1.982400000000000091e+02 3.274916000000000160e+00 -1.652132525806233598e-01
3.715500000000000114e+01 -1.570000000000000007e-01 2.176699999999999875e+02 1.158398000000000039e+01 -1.938484296754020841e-01
3.715899999999999892e+01 8.987199999999999633e+00 1.819799999999999898e+02 -3.285855000000000103e+01 5.248711339834419981e-02
3.715899999999999892e+01 8.987199999999999633e+00 1.833799999999999955e+02 -3.788345000000000340e+01 3.772088072352716703e-02
3.715899999999999892e+01 9.852499999999999147e+00 1.819799999999999898e+02 -2.964019000000000048e+01 5.282629232636247563e-02
3.715899999999999892e+01 9.852499999999999147e+00 1.833799999999999955e+02 -2.563362000000000052e+01 6.391182057203845246e-02
3.716400000000000148e+01 2.019800000000000040e+01 1.906999999999999886e+02 2.580207000000000139e+00 -2.659484694045138320e-01
3.716400000000000148e+01 -7.998199999999999754e+00 2.158899999999999864e+02 -1.471405999999999992e+01 -1.967251131253879570e-01
3.716599999999999682e+01 7.580000000000000071e+00 1.996699999999999875e+02 5.281214000000000297e+00 -2.776783027108095103e-01
3.716700000000000159e+01 -4.107000000000000206e+00 1.744699999999999989e+02 3.323636000000000035e+00 -6.979122640327302396e-02
3.717199999999999704e+01 7.196600000000000108e+00 1.910099999999999909e+02 -1.150998000000000054e+01 -1.306162847357925094e-01
3.717399999999999949e+01 2.115200000000000102e+01 2.055600000000000023e+02 -1.074943000000000026e+01 -1.864208959625776318e-01
3.717399999999999949e+01 1.706099999999999994e+01 2.109600000000000080e+02 6.929121000000000308e-01 -1.866845272333529926e-01
3.717399999999999949e+01 7.797600000000000087e+00 1.890900000000000034e+02 -1.118481000000000058e+01 -8.308704647245439626e-03
3.717499999999999716e+01 2.219200000000000017e+01 1.921500000000000057e+02 1.633909999999999840e+01 -2.668827594833263483e-01
3.718299999999999983e+01 3.718999999999999861e+00 1.875399999999999920e+02 1.522929000000000066e+01 -3.185382391478591702e-02
3.718399999999999750e+01 1.333399999999999919e+00 1.731100000000000136e+02 8.530103000000000435e+00 -3.933770527544956652e-02
3.719200000000000017e+01 2.049899999999999878e+01 1.947500000000000000e+02 1.877646000000000015e+01 -2.670235524154655482e-01
3.719299999999999784e+01 -1.583600000000000030e+01 2.014900000000000091e+02 9.462253000000000469e+00 -1.655622433245119429e-01
3.719500000000000028e+01 1.180599999999999916e+01 1.715300000000000011e+02 6.886692000000000036e+00 -1.346001156996687320e-01
3.719500000000000028e+01 1.350600000000000023e+01 1.715300000000000011e+02 9.467199000000000808e+00 -2.824132984763059739e-01
3.719500000000000028e+01 -1.038899999999999935e+01 1.826599999999999966e+02 5.797634999999999650e+00 -1.153350474441940249e-01
3.719800000000000040e+01 -1.193599999999999994e+00 2.189399999999999977e+02 1.494547999999999988e+01 -1.941562449592721951e-01
3.720199999999999818e+01 -1.631500000000000128e+01 2.104099999999999966e+02 -2.422889000000000070e+00 -1.663844642688915576e-01
3.720199999999999818e+01 2.620400000000000063e+00 1.755600000000000023e+02 2.321053000000000033e+00 5.088590394538000661e-02
3.720300000000000296e+01 1.890200000000000102e+01 1.890300000000000011e+02 -1.696040999999999910e+00 -2.652569797596323609e-01
3.720499999999999829e+01 -1.413100000000000023e+01 2.127700000000000102e+02 7.106720000000000148e+00 -1.670536781680738436e-01
3.720600000000000307e+01 -1.072499999999999964e+01 2.139199999999999875e+02 1.588526000000000060e+01 -2.627933214604408763e-01
3.721000000000000085e+01 -7.765200000000000102e+00 1.894199999999999875e+02 -6.120972000000000079e+00 -6.622294191848097922e-02
3.721399999999999864e+01 -1.215799999999999947e+01 2.131599999999999966e+02 2.782470999999999961e+01 -1.676010714850950101e-01
3.721500000000000341e+01 4.554000000000000270e+00 1.913899999999999864e+02 -4.049906000000000006e+00 -1.339310870677464793e-01
3.721500000000000341e+01 -1.882400000000000073e+00 1.722299999999999898e+02 6.937566999999999595e+00 -6.230572699597895781e-02
3.721699999999999875e+01 8.683799999999999741e+00 1.826800000000000068e+02 -4.550885999999999854e+01 3.222741399596000533e-02
3.721699999999999875e+01 1.015600000000000058e+01 1.826800000000000068e+02 -1.610839999999999961e+01 5.778646897329588195e-02
3.721900000000000119e+01 9.513300000000000090e-01 1.723600000000000136e+02 1.589647000000000077e+01 -3.892529487906289110e-02
3.722500000000000142e+01 -1.345800000000000018e+01 2.042299999999999898e+02 2.721372000000000235e-01 -1.666001075114039165e-01
3.722500000000000142e+01 2.190399999999999991e+01 1.913799999999999955e+02 9.487826000000000093e+00 -2.666687438842584301e-01
3.722999999999999687e+01 -9.306400000000000006e+00 1.797199999999999989e+02 3.804444000000000159e+01 -1.177320342033887773e-01
3.723100000000000165e+01 -1.619300000000000139e+01 2.095999999999999943e+02 9.162145999999999901e-01 -1.663333854718853366e-01
3.723299999999999699e+01 -1.458200000000000074e+01 2.023300000000000125e+02 4.262127999999999872e+01 -1.659975167266032892e-01
3.723299999999999699e+01 3.048299999999999788e+00 1.913000000000000114e+02 2.171835000000000093e+01 -1.432944739017743829e-01
3.723799999999999955e+01 2.101800000000000068e+01 1.913400000000000034e+02 7.200186999999999671e+00 -2.663581682590449029e-01
3.723799999999999955e+01 3.753000000000000114e+00 1.763100000000000023e+02 6.478295000000000137e+00 4.922697875247218635e-02
3.724399999999999977e+01 1.186100000000000065e+01 2.058100000000000023e+02 -2.692550999999999917e+01 -1.851424952750549968e-01
3.725000000000000000e+01 -1.616300000000000026e+01 2.112800000000000011e+02 -2.323224000000000178e+00 -1.664683343713713737e-01
3.725200000000000244e+01 1.052299999999999969e+01 1.722700000000000102e+02 4.895510999999999946e+00 -1.350487638858712536e-01
3.726200000000000045e+01 7.959900000000000198e+00 1.869499999999999886e+02 -5.417000000000000171e+01 -3.072922915905863112e-02
3.726299999999999812e+01 -4.239999999999999880e-01 1.714399999999999977e+02 7.051431000000000004e+00 -2.594712569879110142e-01
3.726500000000000057e+01 7.128099999999999881e+00 1.855600000000000023e+02 -4.902163999999999788e+01 -4.288790067866155020e-02
3.726599999999999824e+01 1.572899999999999965e+00 1.742299999999999898e+02 1.334154000000000018e+01 -3.985617589512906178e-02
3.726899999999999835e+01 -1.344899999999999984e+01 2.030900000000000034e+02 -2.584133000000000013e+00 -1.664509989118554134e-01
3.727300000000000324e+01 7.612000000000000099e+00 1.915000000000000000e+02 3.020244999999999735e-01 -1.309973588854891902e-01
3.727700000000000102e+01 -1.416300000000000026e+01 2.057599999999999909e+02 3.452719000000000094e+00 -1.664945421477424525e-01
3.727799999999999869e+01 -9.040200000000000458e+00 2.141299999999999955e+02 1.716269000000000133e+01 -2.630210491488290669e-01
3.727799999999999869e+01 -5.657000000000000028e+00 1.749399999999999977e+02 3.613337000000000021e+00 -7.203040073158284429e-02
3.727900000000000347e+01 1.338899999999999935e+01 2.073499999999999943e+02 -6.987504000000000381e+00 -1.852021518546007328e-01
3.728099999999999881e+01 1.332799999999999940e+01 2.018400000000000034e+02 -1.312015000000000065e+01 -2.720057187265660925e-01
3.728499999999999659e+01 1.417200000000000060e+01 2.014600000000000080e+02 -1.923983000000000132e+01 -2.712045915277939701e-01
3.729200000000000159e+01 -1.524799999999999933e+01 1.963799999999999955e+02 6.410516999999999577e+00 -2.744743313919417727e-01
3.729599999999999937e+01 8.092599999999999127e+00 1.883700000000000045e+02 -1.983950000000000102e+01 -1.665566355156817765e-02
3.730599999999999739e+01 4.434499999999999886e+00 2.161100000000000136e+02 8.325969999999999871e+00 -1.918111072041119303e-01
3.730599999999999739e+01 5.625399999999999956e+00 2.167800000000000011e+02 1.224039000000000099e+00 -1.913593564748988507e-01
3.731199999999999761e+01 3.206300000000000150e+00 1.879099999999999966e+02 -1.219430999999999976e+01 -3.095546985908394916e-02
3.731300000000000239e+01 7.298199999999999577e+00 2.169000000000000057e+02 -5.352190000000000225e+00 -1.907024205762951896e-01
3.731300000000000239e+01 1.304700000000000060e+01 2.065900000000000034e+02 -1.483916999999999931e+01 -1.849395438312992357e-01
3.731400000000000006e+01 5.073000000000000398e+00 1.866299999999999955e+02 2.564340999999999937e+01 -3.648936658431246871e-02
3.732200000000000273e+01 5.943500000000000227e+00 1.922199999999999989e+02 -8.281708999999999321e+00 -1.295476655642723018e-01
3.732399999999999807e+01 6.824699999999999989e+00 1.848600000000000136e+02 -3.018763999999999825e+01 4.751552314513224351e-02
3.732500000000000284e+01 -5.301300000000000345e+00 2.187500000000000000e+02 8.447115999999999403e+00 -1.954770416651484821e-01
3.732699999999999818e+01 1.124000000000000021e+01 2.103499999999999943e+02 9.939916000000000196e+00 -1.870424963830152887e-01
3.732699999999999818e+01 1.262400000000000055e+01 2.136500000000000057e+02 1.184190999999999994e+00 -1.879880341331474081e-01
3.733100000000000307e+01 7.308600000000000207e+00 1.921999999999999886e+02 -3.826888999999999985e+00 -1.306855483121029948e-01
3.733100000000000307e+01 2.354599999999999937e+01 1.914099999999999966e+02 6.994432999999999900e+00 -2.671945099584921435e-01
3.733500000000000085e+01 -3.963999999999999968e+00 1.913400000000000034e+02 -3.424020000000000152e+01 -5.359857402498095780e-02
3.733599999999999852e+01 -1.407699999999999996e+01 2.067500000000000000e+02 4.696118000000000237e+00 -1.665892061552966263e-01
3.733599999999999852e+01 -1.512100000000000044e+01 2.085900000000000034e+02 2.447002000000000166e+01 -1.664622148909285226e-01
3.734300000000000352e+01 -2.361099999999999977e+00 1.730500000000000114e+02 6.539489999999999803e+00 -6.574715874694736506e-02
3.734499999999999886e+01 -5.273500000000000298e+00 1.920500000000000114e+02 -1.674851999999999919e+01 -2.780947239770867330e-01
3.734899999999999665e+01 5.312700000000000422e+00 1.856899999999999977e+02 2.818280000000000030e+01 -4.469183932854339791e-02
3.735499999999999687e+01 -5.713199999999999612e+00 2.179399999999999977e+02 8.032410000000000494e+00 -1.957110964787567575e-01
3.735999999999999943e+01 2.038100000000000023e+01 1.992299999999999898e+02 5.527151999999999621e-01 -2.687921743377154060e-01
3.736500000000000199e+01 5.787799999999999834e+00 1.849199999999999875e+02 -2.131791000000000125e+01 4.545169218826856927e-02
3.737199999999999989e+01 1.740099999999999980e+01 1.864799999999999898e+02 1.665525999999999840e+01 -8.406734324269510283e-02
3.737299999999999756e+01 1.361400000000000077e+01 1.801299999999999955e+02 -2.788253000000000092e+00 -1.619127006215993481e-01
3.737299999999999756e+01 1.456300000000000061e+01 1.810800000000000125e+02 -7.645653000000000254e+00 4.704231044312448540e-02
3.737299999999999756e+01 1.478999999999999915e+01 1.818799999999999955e+02 -1.844269999999999854e+01 5.065578237971619935e-02
3.737299999999999756e+01 1.499900000000000055e+01 1.826200000000000045e+02 -1.478836000000000084e+01 5.411474893658128199e-02
3.737800000000000011e+01 7.235000000000000320e+00 1.723799999999999955e+02 1.854212999999999889e+00 -1.341955703191511362e-01
3.738199999999999790e+01 -6.600900000000000212e+00 1.884699999999999989e+02 -9.676493000000000677e+00 -6.678888936432217371e-02
3.738499999999999801e+01 -1.402699999999999925e+01 2.049699999999999989e+02 3.209748999999999963e+00 -1.663989240771546196e-01
3.738600000000000279e+01 -8.501200000000000756e+00 1.782800000000000011e+02 1.102753000000000050e+01 -8.057008947762843432e-02
3.739000000000000057e+01 1.585100000000000087e+01 2.103100000000000023e+02 -3.861292999999999864e+01 -1.862365827831699572e-01
3.739399999999999835e+01 -1.399000000000000021e+01 2.077400000000000091e+02 3.239527999999999963e+00 -1.666785878816193778e-01
3.739600000000000080e+01 2.225199999999999889e+01 1.906399999999999864e+02 1.735483999999999938e+01 -2.667035986204708831e-01
3.739600000000000080e+01 2.321000000000000085e+01 1.906399999999999864e+02 3.996943000000000268e+01 -2.670075721103378763e-01
3.739600000000000080e+01 2.321000000000000085e+01 1.921899999999999977e+02 2.904864999999999853e+01 -2.672191096279098455e-01
3.739900000000000091e+01 1.495899999999999963e+01 2.016200000000000045e+02 -1.551223000000000063e+01 -2.709379413986899299e-01
3.739999999999999858e+01 2.007199999999999918e+01 2.000399999999999920e+02 -1.450616999999999912e+01 -2.691423847784108481e-01
3.740599999999999881e+01 1.019299999999999962e+01 2.067500000000000000e+02 -4.719454000000000349e+01 -1.861561555715780247e-01
3.740699999999999648e+01 -1.138499999999999979e+01 1.839000000000000057e+02 6.804302999999999990e+00 -1.135600416767756499e-01
3.740699999999999648e+01 -1.138499999999999979e+01 1.848300000000000125e+02 1.961448999999999998e+01 -1.098838027441794152e-01
3.740699999999999648e+01 8.879099999999999326e+00 2.159000000000000057e+02 6.607994999999999841e+00 -1.898473726550605201e-01
3.740999999999999659e+01 1.517900000000000027e+01 1.834600000000000080e+02 3.355834999999999901e+00 5.806289549212084733e-02
3.741899999999999693e+01 8.605999999999999872e+00 1.717500000000000000e+02 2.989634999999999820e+00 -1.332690642383714541e-01
3.742499999999999716e+01 1.837199999999999989e+01 2.123000000000000114e+02 -1.493041000000000018e+01 -1.871678201272961584e-01
3.742499999999999716e+01 1.989199999999999946e+01 2.123000000000000114e+02 -2.178162999999999982e+01 -1.873730776348407068e-01
3.742600000000000193e+01 9.419800000000000395e+00 1.826800000000000068e+02 -4.573004000000000246e+01 5.672832903082954126e-02
3.742699999999999960e+01 -8.341300000000000381e+00 1.770300000000000011e+02 7.140827999999999953e+00 -7.799712696666510903e-02
3.743099999999999739e+01 1.976500000000000057e+01 1.900000000000000000e+02 -6.786933000000000549e-01 -2.657179906745125164e-01
3.743399999999999750e+01 1.714399999999999835e+01 1.873100000000000023e+02 3.121609000000000123e+01 -8.183374149225457195e-02
3.743399999999999750e+01 1.735300000000000153e+01 1.880500000000000114e+02 2.306120999999999910e+01 -5.112312904523554080e-02
3.743399999999999750e+01 2.008500000000000085e+01 2.009199999999999875e+02 -7.874200000000000088e+00 -1.863543195643408146e-01
3.743500000000000227e+01 9.921200000000000685e+00 2.157299999999999898e+02 5.660809999999999675e+00 -1.894286629314026194e-01
3.743500000000000227e+01 -1.492699999999999960e+01 2.122299999999999898e+02 2.755287000000000153e-01 -1.667496035933063725e-01
3.743900000000000006e+01 3.439000000000000057e+00 2.162800000000000011e+02 1.240737999999999985e+01 -1.922607819123247075e-01
3.744200000000000017e+01 2.195800000000000196e+00 2.169900000000000091e+02 2.968203000000000102e+01 -1.928468285775230551e-01
3.744299999999999784e+01 1.757999999999999829e+01 1.850699999999999932e+02 7.380212000000000216e+00 6.177859717520872707e-02
3.744400000000000261e+01 -8.804600000000000648e+00 1.789799999999999898e+02 1.635594999999999999e+01 -8.213086192912635863e-02
3.744599999999999795e+01 1.631200000000000117e+01 1.842100000000000080e+02 3.810572000000000070e+00 6.010153117545019574e-02
3.745100000000000051e+01 -1.402999999999999936e+01 1.944099999999999966e+02 2.752186000000000021e+00 -2.955703403044743216e-01
3.746000000000000085e+01 1.124799999999999933e+01 2.150999999999999943e+02 -4.609386999999999790e-01 -1.888130226524178945e-01
3.746200000000000330e+01 6.846000000000000085e+00 1.727700000000000102e+02 2.307516000000000123e+00 -1.347075593041282826e-01
3.746699999999999875e+01 2.089799999999999969e+01 1.907500000000000000e+02 8.889592000000000382e+00 -2.662526536836749558e-01
3.746800000000000352e+01 2.030699999999999861e+01 1.982500000000000000e+02 3.221880000000000077e+00 -2.683780003507757472e-01
3.746800000000000352e+01 2.030699999999999861e+01 2.016800000000000068e+02 -1.248606999999999978e+01 -1.862002434218683333e-01
3.746900000000000119e+01 -6.919999999999999929e+00 2.170300000000000011e+02 1.275463000000000013e+00 -1.962024865494713111e-01
3.747999999999999687e+01 -1.264000000000000057e+01 1.877700000000000102e+02 3.583460000000000090e+00 -1.090870568737393603e-01
3.749000000000000199e+01 1.259200000000000053e+01 2.018400000000000034e+02 -1.188465000000000060e+01 -2.727046771653987567e-01
3.749699999999999989e+01 1.366099999999999959e+01 1.750900000000000034e+02 1.433290000000000042e+01 -1.414059017012251063e-01
3.750000000000000000e+01 -1.359600000000000009e+01 2.130000000000000000e+02 3.002079000000000164e+01 -1.670990262271682125e-01
3.750099999999999767e+01 4.961700000000000443e+00 1.758600000000000136e+02 3.965805000000000025e+00 5.024596560760293679e-02
3.750600000000000023e+01 1.725100000000000122e+01 1.843100000000000023e+02 1.325210999999999917e+00 5.896216827668959715e-02
3.751100000000000279e+01 -3.046800000000000175e+00 1.870800000000000125e+02 -9.965306999999999249e+00 -6.429248191734715512e-02
3.751299999999999812e+01 -1.529899999999999949e+01 1.954300000000000068e+02 7.664367999999999626e+00 -2.949222944539570679e-01
3.751299999999999812e+01 -1.529899999999999949e+01 1.973400000000000034e+02 4.339692999999999579e+00 -1.649664284292211014e-01
3.751800000000000068e+01 -1.285800000000000054e+01 2.130999999999999943e+02 5.077353000000000094e+01 -1.672933551687842413e-01
3.751899999999999835e+01 2.047100000000000009e+01 2.063199999999999932e+02 1.336140999999999934e+01 -1.860358398598639940e-01
3.752000000000000313e+01 1.403100000000000058e+01 1.723799999999999955e+02 2.788147000000000020e+01 -2.828599514622847089e-01
3.752499999999999858e+01 -1.769800000000000040e+00 1.879000000000000057e+02 -9.857597999999999416e+00 -5.771344891775286035e-02
3.753099999999999881e+01 -8.376300000000000523e+00 1.910399999999999920e+02 8.829905999999999588e-01 -2.769977935860176155e-01
3.753099999999999881e+01 -8.167299999999999116e+00 1.917700000000000102e+02 -1.454309999999999992e+00 -2.771125846766303025e-01
3.753099999999999881e+01 -6.976300000000000168e+00 1.924399999999999977e+02 1.788488000000000078e+00 -2.776103292993182814e-01
3.753199999999999648e+01 2.203099999999999881e+01 1.927899999999999920e+02 2.713971000000000089e+01 -2.669942327753533351e-01
3.753900000000000148e+01 -1.474599999999999911e+00 1.888000000000000114e+02 -1.469323999999999941e+01 -5.258795562562162962e-02
3.754099999999999682e+01 -1.086899999999999977e+01 1.832700000000000102e+02 8.544594000000000023e+00 -1.141430916989359945e-01
3.754200000000000159e+01 -1.159299999999999997e+01 1.872899999999999920e+02 -2.649372000000000060e+00 -1.099088559583230734e-01
3.754200000000000159e+01 -7.051499999999999879e+00 1.760500000000000114e+02 9.927675000000000693e+00 -7.502252624207819687e-02
3.754200000000000159e+01 7.828599999999999781e+00 1.897800000000000011e+02 -1.030978999999999957e+01 6.287015314072376144e-04
3.754399999999999693e+01 1.251900000000000013e+01 2.107199999999999989e+02 2.679552999999999940e+01 -1.866495814828864619e-01
3.754800000000000182e+01 1.116099999999999959e+01 2.058700000000000045e+02 -3.002174000000000120e+01 -1.850941324279273270e-01
3.754800000000000182e+01 1.256099999999999994e+01 2.058700000000000045e+02 -1.846283999999999992e+01 -1.845101818316984277e-01
3.754800000000000182e+01 1.289600000000000080e+01 2.011399999999999864e+02 -1.183808999999999934e+01 -2.719943863609542989e-01
3.754800000000000182e+01 1.289600000000000080e+01 2.025399999999999920e+02 -1.440498000000000012e+01 -1.840689659796574951e-01
3.754800000000000182e+01 1.376099999999999923e+01 2.025399999999999920e+02 -1.284857000000000049e+01 -1.839357708548604586e-01
3.755199999999999960e+01 1.373900000000000077e+01 2.007599999999999909e+02 -3.139692000000000149e+01 -2.710800578153391149e-01
3.755199999999999960e+01 1.460500000000000043e+01 2.007599999999999909e+02 -2.793374999999999986e+01 -2.705774214380281539e-01
3.755199999999999960e+01 1.460500000000000043e+01 2.021599999999999966e+02 -1.225991999999999926e+01 -1.840352454668081339e-01
3.755499999999999972e+01 1.380599999999999916e+01 1.742899999999999920e+02 1.857078999999999880e+01 -1.396597659109030665e-01
3.755499999999999972e+01 -6.983200000000000518e-01 2.181399999999999864e+02 1.710670999999999964e+01 -1.939890739317549906e-01
3.755499999999999972e+01 -1.288000000000000034e+00 1.719699999999999989e+02 9.003657999999999717e+00 -6.142867837445580015e-02
3.755599999999999739e+01 9.822599999999999554e+00 1.722100000000000080e+02 9.740837000000000856e+00 -1.340559830313008960e-01
3.755599999999999739e+01 1.122300000000000075e+01 1.722100000000000080e+02 6.055571999999999733e+00 -1.346373171033716232e-01
3.755700000000000216e+01 1.381199999999999939e+01 2.106699999999999875e+02 -8.366222999999999743e+00 -1.863751089908318170e-01
3.755799999999999983e+01 1.982400000000000162e+01 1.951999999999999886e+02 9.703773999999999234e+00 -2.670478592613072522e-01
3.756099999999999994e+01 1.424399999999999977e+01 2.073199999999999932e+02 -6.386631999999999643e+00 -1.848249535518072528e-01
3.756199999999999761e+01 2.049200000000000088e+01 2.072700000000000102e+02 3.579720000000000013e+00 -1.861646317972431297e-01
3.756400000000000006e+01 1.265600000000000058e+01 1.714499999999999886e+02 8.511103000000000307e+00 -1.342578536046683535e-01
3.756700000000000017e+01 2.113299999999999912e+01 1.943700000000000045e+02 1.730248999999999882e+01 -2.671267267898833064e-01
3.757399999999999807e+01 -3.926800000000000068e+00 2.203499999999999943e+02 1.468509000000000064e+01 -1.948945989740410445e-01
3.757500000000000284e+01 -1.157499999999999929e+01 2.138499999999999943e+02 1.497818999999999967e+01 -2.626003513671210099e-01
3.757600000000000051e+01 2.062999999999999901e+01 2.081699999999999875e+02 2.911618999999999957e+00 -1.863771234060067061e-01
3.757999999999999829e+01 2.773699999999999832e+00 1.886100000000000136e+02 -2.236077999999999832e+01 -2.687492250439060815e-02
3.757999999999999829e+01 1.365199999999999925e+01 2.099699999999999989e+02 -1.620470999999999862e+01 -1.860561902083393004e-01
3.758400000000000318e+01 2.599800000000000111e+00 1.893300000000000125e+02 -4.419877000000000322e+01 -2.069673028089928993e-02
3.758700000000000330e+01 5.430000000000000382e-01 2.174000000000000057e+02 1.898881000000000085e+01 -1.935282069512715419e-01
3.758899999999999864e+01 -8.146399999999999864e+00 1.902599999999999909e+02 3.345836999999999839e-01 -2.770577136293310705e-01
3.759499999999999886e+01 -9.827500000000000568e+00 2.139799999999999898e+02 2.167940000000000111e+01 -2.628578315816127997e-01
3.759499999999999886e+01 -4.273699999999999832e+00 1.877400000000000091e+02 -8.055424999999999613e+00 -6.529378200288789291e-02
3.759700000000000131e+01 -1.336800000000000033e+01 1.917299999999999898e+02 1.555460000000000065e+00 -2.939698529499477075e-01
3.759700000000000131e+01 -1.336800000000000033e+01 1.926699999999999875e+02 1.535085000000000033e+00 -2.948032010035352979e-01
3.759700000000000131e+01 -1.336800000000000033e+01 1.935300000000000011e+02 2.113901999999999948e+00 -2.955223614102408525e-01
3.760000000000000142e+01 -4.807000000000000384e+00 1.747400000000000091e+02 5.212454000000000143e+00 -7.031498911611758218e-02
3.760199999999999676e+01 1.992200000000000060e+01 1.978799999999999955e+02 3.221880000000000077e+00 -2.681921417794957962e-01
3.760499999999999687e+01 -1.436200000000000010e+01 2.086299999999999955e+02 1.470358000000000054e+00 -1.665546091504186976e-01
3.760799999999999699e+01 1.569500000000000028e+01 2.016200000000000045e+02 -4.397867000000000104e+01 -1.843096244658979366e-01
3.761800000000000210e+01 1.414100000000000001e+01 1.734799999999999898e+02 1.537626999999999988e+01 -1.381668117963486264e-01
3.761899999999999977e+01 1.386200000000000010e+01 2.085200000000000102e+02 -1.598942000000000085e+01 -1.853229982568047329e-01
3.761999999999999744e+01 1.394100000000000072e+01 2.066200000000000045e+02 -5.401633999999999602e+00 -1.844896595872199119e-01
3.761999999999999744e+01 2.192699999999999960e+01 2.026399999999999864e+02 -2.137180999999999997e+00 -1.866088968738041920e-01
3.761999999999999744e+01 2.192699999999999960e+01 2.050999999999999943e+02 -3.237812999999999874e+01 -1.864569202969410810e-01
3.762800000000000011e+01 -9.898400000000000531e+00 1.822599999999999909e+02 5.298807000000000045e+00 -1.155631367877155286e-01
3.763000000000000256e+01 1.181600000000000072e+01 2.145900000000000034e+02 -1.293733000000000022e+00 -1.884136033441939639e-01
3.763000000000000256e+01 -2.947099999999999831e+00 1.737500000000000000e+02 4.641712000000000060e+00 -6.664639776952149819e-02
3.763100000000000023e+01 1.030799999999999983e+01 2.093799999999999955e+02 2.536505999999999972e+01 -1.868312947062621965e-01
3.763400000000000034e+01 1.694800000000000040e+01 2.104799999999999898e+02 1.231927999999999912e+00 -1.862396861058535358e-01
3.763900000000000290e+01 -3.263999999999999790e+00 1.912800000000000011e+02 -2.389403000000000077e+01 -5.184463948870556699e-02
3.764699999999999847e+01 -8.125500000000000611e+00 1.893499999999999943e+02 -6.552996000000000265e+00 -9.236166658611748292e-02
3.765200000000000102e+01 -5.839999999999999858e+00 1.884499999999999886e+02 -6.938678999999999597e+00 -6.653578262465720261e-02
3.765200000000000102e+01 2.147599999999999909e+01 1.905699999999999932e+02 6.688037999999999705e+00 -2.664598154804772023e-01
3.765800000000000125e+01 1.509200000000000053e+01 2.102800000000000011e+02 -5.054663999999999646e+01 -1.860435833411042961e-01
3.766100000000000136e+01 -1.370299999999999940e+01 2.025000000000000000e+02 5.588607999999999798e+00 -1.660488777464531329e-01
3.766599999999999682e+01 2.348300000000000054e+00 1.901699999999999875e+02 -1.318079999999999963e+01 -1.484584068751622875e-02
3.766599999999999682e+01 2.557399999999999896e+00 1.909000000000000057e+02 4.683607000000000298e+00 -6.298933172160972593e-03
3.766599999999999682e+01 3.748299999999999965e+00 1.915699999999999932e+02 1.096659999999999968e+00 -1.366874125185083833e-01
3.766599999999999682e+01 -2.146999999999999797e+00 2.202199999999999989e+02 1.596184000000000047e+01 -1.943622907959957902e-01
3.766599999999999682e+01 1.539199999999999946e+01 2.009199999999999875e+02 -2.973885999999999896e+01 -2.703716007700996959e-01
3.766599999999999682e+01 1.539199999999999946e+01 2.023199999999999932e+02 -2.348984000000000094e+01 -1.839615039094239513e-01
3.767199999999999704e+01 -1.555499999999999972e+01 2.116399999999999864e+02 -4.225624999999999964e+00 -1.664805363766467261e-01
3.767199999999999704e+01 -1.506099999999999994e+01 2.017899999999999920e+02 1.077854999999999990e+02 -1.655298978507789287e-01
3.768099999999999739e+01 7.646300000000000097e+00 1.860300000000000011e+02 -6.457647000000000048e+01 -4.000943658803236824e-02
3.768500000000000227e+01 -8.969500000000000028e+00 1.794699999999999989e+02 2.971912999999999982e+01 -8.314320930941174193e-02
3.768900000000000006e+01 -1.562700000000000067e+01 2.012500000000000000e+02 1.581096999999999930e+01 -1.652996544809920698e-01
3.769299999999999784e+01 1.491699999999999982e+01 2.070999999999999943e+02 -5.960001000000000104e+00 -1.846179316311914176e-01
3.769599999999999795e+01 -6.218499999999999694e+00 1.756599999999999966e+02 4.514853999999999701e+00 -7.331967913800042924e-02
3.769599999999999795e+01 5.079299999999999926e+00 1.919900000000000091e+02 -7.553059000000000189e+00 -1.283009528613920924e-01
3.769700000000000273e+01 -1.570299999999999940e+01 2.092199999999999989e+02 2.582460000000000200e+00 -1.662292737449075353e-01
3.770100000000000051e+01 1.956500000000000128e+01 1.895699999999999932e+02 -6.786933000000000549e-01 -2.656281591609830350e-01
3.771099999999999852e+01 1.608299999999999841e+01 2.026200000000000045e+02 -3.445566999999999780e+01 -1.840442937464163153e-01
3.771399999999999864e+01 2.025100000000000122e+01 2.098000000000000114e+02 7.618217999999999712e+00 -1.865995718512119816e-01
3.771500000000000341e+01 1.790200000000000102e+01 2.115399999999999920e+02 -6.419368000000000407e+00 -1.867143585358386482e-01
3.771500000000000341e+01 2.036199999999999832e+01 2.105999999999999943e+02 -1.512993999999999950e+01 -1.868490248983683544e-01
3.771500000000000341e+01 2.036199999999999832e+01 2.115399999999999920e+02 -2.503772999999999982e+01 -1.871203443334268635e-01
3.771800000000000352e+01 1.380199999999999960e+01 2.094600000000000080e+02 -2.460322999999999993e+01 -1.856923342253284648e-01
3.771800000000000352e+01 6.376100000000000101e+00 1.927100000000000080e+02 -6.055958000000000396e+00 -1.278718170413202793e-01
3.771999999999999886e+01 6.392100000000000115e+00 1.843700000000000045e+02 -3.627181000000000211e+01 3.956133647857788815e-02
3.772800000000000153e+01 6.876000000000000334e+00 1.926899999999999977e+02 -6.055958000000000396e+00 -1.283396252850949049e-01
3.773899999999999721e+01 5.134500000000000064e+00 2.163799999999999955e+02 3.815399000000000207e+00 -1.914224896823557842e-01
3.774199999999999733e+01 1.304299999999999926e+01 1.790000000000000000e+02 2.782913999999999888e+00 -1.649878604594018916e-01
3.774199999999999733e+01 1.325200000000000067e+01 1.782599999999999909e+02 1.061150999999999955e+00 -1.495771490404836090e-01
3.774199999999999733e+01 1.325200000000000067e+01 1.797299999999999898e+02 2.501936999999999856e+00 -1.637497308931873674e-01
3.774300000000000210e+01 6.212600000000000122e+00 1.735399999999999920e+02 3.543928999999999885e+00 -1.356805776853847456e-01
3.774900000000000233e+01 6.443999999999999950e+00 2.170900000000000034e+02 -4.148926999999999587e+00 -1.909702851723018846e-01
3.775000000000000000e+01 4.597500000000000142e+00 1.868799999999999955e+02 6.017717000000000205e+00 -3.670616569058673256e-02
3.775200000000000244e+01 1.800000000000000000e+01 1.885800000000000125e+02 1.281764000000000081e+01 -1.475131701487866764e-01
3.775399999999999778e+01 1.913200000000000145e+01 2.123600000000000136e+02 -3.635217000000000098e+01 -1.871516382742822171e-01
3.775600000000000023e+01 -1.614499999999999957e+01 2.002599999999999909e+02 3.831290000000000084e+00 -1.650054448386216455e-01
3.775999999999999801e+01 -1.616600000000000037e+01 1.986299999999999955e+02 3.194825999999999944e+00 -1.647792741532832228e-01
3.776400000000000290e+01 1.054800000000000004e+01 2.151599999999999966e+02 5.662369999999999903e-02 -1.889316717103534937e-01
3.776400000000000290e+01 8.008599999999999497e+00 1.919300000000000068e+02 -7.054848000000000230e-01 -1.299834949377625393e-01
3.776800000000000068e+01 -1.321899999999999942e+01 1.910399999999999920e+02 2.069728000000000012e+00 -2.933093151272608834e-01
3.777600000000000335e+01 -1.311899999999999977e+01 1.885399999999999920e+02 1.970987999999999829e+01 -1.084229344946540524e-01
3.777600000000000335e+01 -1.311899999999999977e+01 1.895000000000000000e+02 3.715138000000000318e+01 -2.918843006649701199e-01
3.777799999999999869e+01 -4.782600000000000406e+00 1.916500000000000057e+02 -1.579434999999999967e+01 -5.705548297050283546e-02
3.778000000000000114e+01 7.586199999999999832e+00 1.850900000000000034e+02 -6.878727999999999554e+01 4.930054195910142656e-02
3.779399999999999693e+01 -8.013700000000000045e+00 2.153799999999999955e+02 -2.075230000000000175e+01 -1.968363894741860798e-01
3.779699999999999704e+01 -1.645100000000000051e+01 1.994399999999999977e+02 2.946791000000000160e+00 -1.648070762706947967e-01
3.779999999999999716e+01 -7.496900000000000119e+00 1.885900000000000034e+02 -8.259736999999999441e+00 -9.384644045805466683e-02
3.780100000000000193e+01 1.210399999999999920e+01 2.141100000000000136e+02 -2.980512000000000050e+00 -1.880865848447146604e-01
3.780100000000000193e+01 1.306300000000000061e+01 2.131500000000000057e+02 9.588770999999999489e+00 -1.874762991455570238e-01
3.780100000000000193e+01 1.329400000000000048e+01 2.123400000000000034e+02 1.076781999999999906e+00 -1.870755720090684082e-01
3.780199999999999960e+01 -8.370200000000000529e+00 2.146500000000000057e+02 4.178696000000000410e+00 -1.971067189015599241e-01
3.780199999999999960e+01 -4.250899999999999679e+00 1.916899999999999977e+02 -3.790109999999999957e+01 -5.522615563668588357e-02
3.781199999999999761e+01 8.002399999999999736e+00 2.163199999999999932e+02 -3.037816999999999990e+00 -1.901691862789332554e-01
3.781600000000000250e+01 -1.630400000000000071e+00 1.900699999999999932e+02 -1.423725999999999914e+01 -4.872283546908943996e-02
3.781600000000000250e+01 -1.421300000000000008e+00 1.893300000000000125e+02 -1.615407000000000082e+01 -5.101243485867995586e-02
3.782000000000000028e+01 -1.398799999999999955e+01 2.018899999999999864e+02 4.148324000000000211e+01 -1.657706140351521973e-01
3.782099999999999795e+01 1.298000000000000043e+01 2.007299999999999898e+02 -1.709405999999999892e+01 -2.717633369052735448e-01
3.782200000000000273e+01 7.142099999999999838e-02 1.719199999999999875e+02 1.684269000000000105e+01 -2.589760775015997329e-01
3.782500000000000284e+01 1.939099999999999824e+01 1.959000000000000057e+02 1.179177000000000003e-01 -2.672668011000259858e-01
3.783200000000000074e+01 9.488500000000000156e+00 2.152400000000000091e+02 1.461311000000000071e+01 -1.892948468013508079e-01
3.783299999999999841e+01 1.456700000000000017e+01 2.025800000000000125e+02 -8.088838000000000861e+00 -1.834971096599366525e-01
3.783299999999999841e+01 1.456700000000000017e+01 2.064499999999999886e+02 -7.823602000000000167e+00 -1.841893724367986152e-01
3.783500000000000085e+01 2.273100000000000165e+01 1.900900000000000034e+02 4.478401000000000209e+01 -2.954165585505477698e-01
3.783500000000000085e+01 2.273100000000000165e+01 1.927299999999999898e+02 8.396644999999999470e+01 -2.672276850346804733e-01
3.783800000000000097e+01 -1.477399999999999913e+01 1.945800000000000125e+02 9.026113999999999749e+00 -2.946209539278896727e-01
3.783800000000000097e+01 7.282799999999999940e+00 1.843899999999999864e+02 -5.475283000000000300e+01 4.114953468452092061e-02
3.784000000000000341e+01 4.916100000000000136e+00 1.852500000000000000e+02 -2.715660000000000096e+01 4.357742077789941021e-02
3.784000000000000341e+01 4.916100000000000136e+00 1.861200000000000045e+02 -1.047514999999999930e+01 -4.385298520552959045e-02
3.784300000000000352e+01 1.402999999999999936e+01 1.806500000000000057e+02 -2.133789000000000158e+01 -1.624063598862181546e-01
3.784300000000000352e+01 1.587899999999999956e+01 1.837199999999999989e+02 1.440641999999999978e+00 5.710150670628937053e-02
3.784799999999999898e+01 1.181900000000000084e+01 2.106699999999999875e+02 1.795110000000000028e+01 -1.866193167555192656e-01
3.784799999999999898e+01 -1.193200000000000038e+01 1.876100000000000136e+02 3.124423999999999868e+00 -1.091436652078002778e-01
3.785000000000000142e+01 1.339799999999999969e+01 2.114000000000000057e+02 3.254547000000000079e+00 -1.865941503811327506e-01
3.785099999999999909e+01 -5.620899999999999785e+00 1.783600000000000136e+02 1.858245000000000147e+01 -7.857174452517864949e-02
3.785799999999999699e+01 -3.940999999999999837e+00 1.745999999999999943e+02 6.915775000000000006e+00 -6.863122613915148551e-02
3.786299999999999955e+01 5.466400000000000148e+00 1.927400000000000091e+02 -6.460344000000000086e+00 -1.281760310447092321e-01
3.786399999999999721e+01 2.046499999999999986e+01 1.902599999999999909e+02 1.226643999999999934e+01 -2.660782447912902748e-01
3.786800000000000210e+01 -1.764999999999999902e+00 1.725699999999999932e+02 1.019172000000000011e+01 -6.133670328188813720e-02
3.786899999999999977e+01 1.948999999999999844e+01 1.971800000000000068e+02 6.749736999999999654e+00 -2.678615024030530090e-01
3.787100000000000222e+01 2.738999999999999879e+00 2.165500000000000114e+02 2.723336000000000112e+01 -1.925205932344719872e-01
3.787199999999999989e+01 1.753900000000000148e+01 2.108400000000000034e+02 8.344585000000000363e+00 -1.863243321506401207e-01
3.787500000000000000e+01 2.398499999999999943e+01 1.909300000000000068e+02 1.319387000000000043e+01 -2.957496807145624795e-01
3.787500000000000000e+01 2.398499999999999943e+01 1.918899999999999864e+02 3.895772999999999797e+01 -2.674460705650559267e-01
3.787599999999999767e+01 2.064499999999999957e+01 1.951599999999999966e+02 1.185622000000000043e+01 -2.672900431350747619e-01
3.787700000000000244e+01 1.443500000000000005e+00 2.173100000000000023e+02 1.889442999999999984e+01 -1.931118920993632471e-01
3.788100000000000023e+01 8.073100000000000165e+00 1.909300000000000068e+02 -5.807269999999999932e+00 -1.294098013045693329e-01
3.788199999999999790e+01 2.556999999999999940e+00 1.751399999999999864e+02 4.810920999999999559e+00 -3.985425171086111329e-02
3.788300000000000267e+01 5.763899999999999579e+00 1.743400000000000034e+02 4.089934999999999654e+00 -1.373897484737021113e-01
3.788300000000000267e+01 -2.643499999999999961e+00 1.909399999999999977e+02 -1.798847999999999914e+01 -5.088592189026748536e-02
3.788799999999999812e+01 4.156399999999999650e+00 1.759099999999999966e+02 6.883094999999999963e+00 5.196435128430841599e-02
3.788900000000000290e+01 9.474500000000000810e+00 2.079399999999999977e+02 -1.898360000000000047e-01 -1.865519701252096041e-01
3.788900000000000290e+01 9.683600000000000207e+00 2.071999999999999886e+02 -1.602797999999999945e+01 -1.861199282259031473e-01
3.788900000000000290e+01 9.683600000000000207e+00 2.086699999999999875e+02 1.387737000000000087e+01 -1.866897959869492640e-01
3.789800000000000324e+01 7.831000000000000405e+00 1.720500000000000114e+02 1.834165000000000045e+00 -1.324507943951255262e-01
3.789800000000000324e+01 9.381000000000000227e+00 1.720500000000000114e+02 3.957281000000000049e+00 -1.328664139741627670e-01
3.789999999999999858e+01 -6.272300000000000431e+00 1.923700000000000045e+02 3.983566000000000162e+00 -2.783055516394628559e-01
3.790100000000000335e+01 2.079799999999999827e+01 2.020800000000000125e+02 -6.541167999999999871e+00 -1.860234004953001397e-01
3.790200000000000102e+01 1.565300000000000047e+01 2.070999999999999943e+02 -5.010479000000000127e+00 -1.845014185493907000e-01
3.790999999999999659e+01 2.106400000000000006e+01 2.054000000000000057e+02 -3.512051000000000300e+01 -1.859500739402714375e-01
3.790999999999999659e+01 2.239699999999999847e+01 2.034000000000000057e+02 -4.830881000000000114e+01 -1.865616259865210402e-01
3.790999999999999659e+01 2.239699999999999847e+01 2.043400000000000034e+02 -8.235114000000000090e+01 -1.865051035605888585e-01
3.791199999999999903e+01 5.400500000000000078e+00 1.751500000000000057e+02 1.317005999999999943e+01 -1.397411751672979485e-01
3.791899999999999693e+01 8.930399999999999450e-01 1.726599999999999966e+02 1.131578000000000017e+01 -3.749940076526794841e-02
3.792000000000000171e+01 1.681899999999999906e+01 2.026200000000000045e+02 -3.600307999999999709e+01 -1.840535654164174861e-01
3.792499999999999716e+01 -1.340000000000000036e+01 2.045399999999999920e+02 4.332491000000000092e+00 -1.662567461851126305e-01
3.792600000000000193e+01 -1.577899999999999991e+01 1.978899999999999864e+02 4.977808999999999706e+00 -1.646552769303947783e-01
3.792799999999999727e+01 1.332799999999999940e+01 1.777800000000000011e+02 2.601968999999999976e+00 -1.479599321643449150e-01
3.792799999999999727e+01 1.353700000000000081e+01 1.770500000000000114e+02 8.507296000000000191e+00 -1.458185558134670323e-01
3.792799999999999727e+01 1.379100000000000037e+01 1.761500000000000057e+02 8.598338000000000036e+00 -1.434160973760532642e-01
3.793699999999999761e+01 1.678099999999999881e+01 1.837800000000000011e+02 1.044202000000000075e+00 5.601349938743534207e-02
3.793800000000000239e+01 1.063599999999999923e+01 1.727599999999999909e+02 6.408856000000000108e+00 -1.345118056307119114e-01
3.794100000000000250e+01 1.885699999999999932e+01 1.887800000000000011e+02 1.143046999999999969e+01 -2.939839085247288875e-01
3.794400000000000261e+01 -3.746799999999999908e+00 1.873499999999999943e+02 -1.382704000000000022e+01 -6.674982393738819464e-02
3.794400000000000261e+01 -2.346799999999999997e+00 1.873499999999999943e+02 -1.105821000000000076e+01 -6.361174638268332626e-02
3.794700000000000273e+01 -1.303299999999999947e+01 1.904499999999999886e+02 4.302229999999999777e+00 -2.927267489777501952e-01
3.794700000000000273e+01 -1.318599999999999994e+01 2.036599999999999966e+02 4.992490000000000094e+00 -1.662056859064084957e-01
3.794899999999999807e+01 1.417200000000000060e+01 2.002700000000000102e+02 -4.367417999999999978e+01 -2.705977489775748812e-01
3.795000000000000284e+01 2.071799999999999997e+01 1.987599999999999909e+02 -4.744006999999999863e+00 -2.687082667556324744e-01
3.795000000000000284e+01 2.071799999999999997e+01 1.996999999999999886e+02 -2.894848999999999961e+01 -1.867175616431955842e-01
3.795199999999999818e+01 -7.491299999999999848e+00 1.767100000000000080e+02 1.130877000000000088e+01 -7.627901231278107208e-02
3.796000000000000085e+01 1.534999999999999964e+01 2.064000000000000057e+02 -6.568160999999999916e+00 -1.841231859723258257e-01
