8.823999999999999488e+01 6.878799999999999670e+01 2.541500000000000057e+02 -1.016379000000000055e+01 -1.258631320935736930e-01
8.824399999999999977e+01 8.202299999999999613e+01 2.382800000000000011e+02 -1.756474000000000046e+01 -2.675042497623839055e-01
8.824699999999999989e+01 7.816500000000000625e+01 2.290999999999999943e+02 3.905244000000000160e+00 -2.951999274633000381e-01
8.824899999999999523e+01 8.334199999999999875e+01 2.391800000000000068e+02 -2.410526000000000124e+01 -2.687981210785308495e-01
8.824899999999999523e+01 6.721299999999999386e+01 2.512899999999999920e+02 -4.468322999999999823e+00 -1.113222084167781178e-01
8.824899999999999523e+01 7.079600000000000648e+01 2.195900000000000034e+02 -3.889806999999999793e+00 -4.175008999774769691e-01
8.825100000000000477e+01 6.517400000000000659e+01 2.243799999999999955e+02 4.500386000000000308e+01 -4.176885657007636254e-01
8.825199999999999534e+01 7.493200000000000216e+01 2.600699999999999932e+02 -2.893295999999999868e+00 -7.375741381914782679e-02
8.825700000000000500e+01 7.186299999999999955e+01 2.185600000000000023e+02 9.166176000000000101e+00 -4.174626295652303365e-01
8.825900000000000034e+01 6.143999999999999773e+01 2.238100000000000023e+02 1.196499999999999986e+01 -1.952363936859946858e-01
8.825900000000000034e+01 6.426399999999999579e+01 2.255099999999999909e+02 4.165279000000000309e+01 -4.177141175805176299e-01
8.825900000000000034e+01 6.426399999999999579e+01 2.263700000000000045e+02 -1.059192000000000000e+01 -4.177214689593997110e-01
8.826000000000000512e+01 7.166299999999999670e+01 2.293899999999999864e+02 1.334436000000000000e+01 -1.324942739812024484e-01
8.826900000000000546e+01 7.949399999999999977e+01 2.096699999999999875e+02 -4.076996000000000286e+00 -3.832548521443100986e-01
8.827400000000000091e+01 7.895999999999999375e+01 2.184799999999999898e+02 -2.339757000000000176e+01 -2.923272383577281142e-01
8.827599999999999625e+01 7.579099999999999682e+01 2.146699999999999875e+02 -3.810564999999999980e+00 -3.829274278491248684e-01
8.827700000000000102e+01 6.376599999999999824e+01 2.501200000000000045e+02 -1.258898999999999990e+00 -6.614243518772691677e-02
8.827899999999999636e+01 7.893699999999999761e+01 2.173600000000000136e+02 -4.049813999999999936e+01 -2.920912765464128702e-01
8.828300000000000125e+01 4.534599999999999653e+01 2.388700000000000045e+02 9.017726000000000353e-01 -2.703864701935708159e-01
8.828300000000000125e+01 4.534599999999999653e+01 2.404000000000000057e+02 2.327417000000000158e+01 -1.655553137503871231e-01
8.828400000000000603e+01 8.020399999999999352e+01 2.167100000000000080e+02 -1.347944000000000031e+01 -2.931251852597864804e-01
8.828400000000000603e+01 8.020399999999999352e+01 2.178499999999999943e+02 -1.306298999999999921e+01 -2.933973869653375699e-01
8.828499999999999659e+01 7.604300000000000637e+01 2.368899999999999864e+02 -2.417558999999999969e+01 -8.358016951813981160e-03
8.828499999999999659e+01 7.756300000000000239e+01 2.368899999999999864e+02 -3.015296999999999983e+01 2.574140054502972383e-03
8.828700000000000614e+01 7.345499999999999829e+01 2.170600000000000023e+02 -4.256419000000000175e+00 -3.827098520204618715e-01
8.828799999999999670e+01 6.279399999999999693e+01 2.205999999999999943e+02 -8.592864000000000405e-03 -1.975900474973039944e-01
8.829300000000000637e+01 7.479300000000000637e+01 2.590400000000000205e+02 4.388495999999999952e+00 -7.340966211806695951e-02
8.830100000000000193e+01 4.802499999999999858e+01 2.522599999999999909e+02 1.607941999999999894e+01 -1.741850274469915749e-01
8.830100000000000193e+01 5.791700000000000159e+01 2.254900000000000091e+02 -1.101887999999999934e+01 -3.957391277928469231e-01
8.830200000000000671e+01 8.347100000000000364e+01 2.381200000000000045e+02 -1.736298999999999992e+01 -2.678441630984359501e-01
8.830500000000000682e+01 8.226999999999999602e+01 2.426100000000000136e+02 -2.789417999999999864e+01 -2.715977023556790937e-01
8.830599999999999739e+01 8.215600000000000591e+01 2.230099999999999909e+02 -1.439376000000000033e+01 -2.610254575404663546e-01
8.831000000000000227e+01 8.227800000000000580e+01 2.410600000000000023e+02 -5.840469999999999828e+01 -2.701494334133714426e-01
8.831000000000000227e+01 8.256600000000000250e+01 2.125800000000000125e+02 1.973534000000000077e+01 -2.940866475499365196e-01
8.831499999999999773e+01 6.637399999999999523e+01 2.238000000000000114e+02 8.176930999999999727e+00 -4.176647348874123478e-01
8.831600000000000250e+01 8.508700000000000330e+01 2.221800000000000068e+02 -2.009636000000000067e+01 -2.609635981548348305e-01
8.831799999999999784e+01 4.507500000000000284e+01 2.396399999999999864e+02 1.055255999999999972e+00 -2.708974791436353224e-01
8.832200000000000273e+01 6.186899999999999977e+01 2.228899999999999864e+02 1.083010999999999946e+01 -1.959412362672814656e-01
8.832500000000000284e+01 4.638100000000000023e+01 2.570600000000000023e+02 -1.984415000000000040e+00 -3.804494771445867674e-01
8.832599999999999341e+01 7.446899999999999409e+01 2.551299999999999955e+02 2.615116000000000085e+01 -1.667072595833153370e-01
8.832599999999999341e+01 7.409499999999999886e+01 2.168499999999999943e+02 -4.515229999999999855e+00 -3.827199069763684847e-01
8.833100000000000307e+01 8.339900000000000091e+01 2.401399999999999864e+02 -2.273985000000000056e+01 -2.697884309339024234e-01
8.833700000000000330e+01 7.923999999999999488e+01 2.166599999999999966e+02 -2.726105000000000089e+01 -2.922235661579140054e-01
8.833700000000000330e+01 7.923999999999999488e+01 2.180600000000000023e+02 -1.787888999999999839e+01 -2.924899553754989334e-01
8.834000000000000341e+01 5.914699999999999847e+01 2.246699999999999875e+02 -4.116620000000000168e+00 -1.963209137696240725e-01
8.834000000000000341e+01 5.914699999999999847e+01 2.272500000000000000e+02 -5.530187999999999704e+01 -3.817229297536572363e-01
8.834600000000000364e+01 8.435599999999999454e+01 2.498600000000000136e+02 1.935249999999999915e+01 -1.908681224279550892e-01
8.834600000000000364e+01 8.269499999999999318e+01 2.107899999999999920e+02 6.618971000000000160e+00 -2.937903318720082591e-01
8.834799999999999898e+01 7.855700000000000216e+01 2.391800000000000068e+02 -3.036835999999999913e+01 -1.640384012332627706e-01
8.834799999999999898e+01 8.082200000000000273e+01 2.391800000000000068e+02 -1.977590000000000003e+01 -2.677262903009397510e-01
8.835500000000000398e+01 5.199799999999999756e+01 2.275300000000000011e+02 -2.544458000000000109e+00 -3.955852778468618713e-01
8.835699999999999932e+01 4.472099999999999653e+01 2.353199999999999932e+02 -8.347925000000000484e-01 -2.686274028473264464e-01
8.835999999999999943e+01 6.012700000000000244e+01 2.271999999999999886e+02 -2.715228000000000108e+01 -3.818009887512888167e-01
8.835999999999999943e+01 6.159899999999999665e+01 2.271999999999999886e+02 -4.966529000000000416e+00 -3.035222714478332806e-01
8.835999999999999943e+01 6.523600000000000421e+01 2.500200000000000102e+02 -6.828850000000000087e+00 -8.120548239232336374e-02
8.836100000000000421e+01 4.442799999999999727e+01 2.343700000000000045e+02 6.742099999999999760e-01 -2.683010858905450213e-01
8.836100000000000421e+01 4.621600000000000108e+01 2.343700000000000045e+02 9.794468999999999426e+00 -3.980676356090152579e-01
8.836100000000000421e+01 4.768800000000000239e+01 2.343700000000000045e+02 -1.240556000000000020e-01 -3.979404906441944556e-01
8.836400000000000432e+01 8.403100000000000591e+01 2.251699999999999875e+02 -7.296986000000000416e+00 -2.614550833773530703e-01
8.836499999999999488e+01 8.229000000000000625e+01 2.238400000000000034e+02 -2.644177000000000177e+01 -2.611503170972026000e-01
8.836799999999999500e+01 8.197499999999999432e+01 2.417599999999999909e+02 -3.126601000000000141e+01 -2.706439362080447220e-01
8.837000000000000455e+01 4.720300000000000296e+01 2.525200000000000102e+02 9.615793000000000035e+00 -2.635224001876133593e-01
8.837399999999999523e+01 8.203199999999999648e+01 2.220999999999999943e+02 -1.214312999999999931e+01 -2.608742256161877271e-01
8.837500000000000000e+01 7.372499999999999432e+01 2.552100000000000080e+02 1.981800000000000139e+01 -4.739378829226666839e-02
8.837600000000000477e+01 5.801400000000000290e+01 2.288799999999999955e+02 -2.572145000000000081e+01 -3.817423293579820243e-01
8.837999999999999545e+01 5.520100000000000051e+01 2.277800000000000011e+02 -6.439784000000000397e+00 -3.952143120434028489e-01
8.838100000000000023e+01 5.096399999999999864e+01 2.559300000000000068e+02 1.023704000000000036e+01 -2.923692527886938008e-01
8.838100000000000023e+01 8.293500000000000227e+01 2.117299999999999898e+02 1.116117000000000026e+01 -2.941366372436183263e-01
8.838500000000000512e+01 6.771800000000000352e+01 2.520200000000000102e+02 -5.024574999999999569e+00 -1.178674741307221135e-01
8.838500000000000512e+01 6.678600000000000136e+01 2.266999999999999886e+02 -1.708396999999999943e+00 -4.176819187988884963e-01
8.838599999999999568e+01 8.140600000000000591e+01 2.134799999999999898e+02 -5.561068999999999596e-01 -2.933997009537376854e-01
8.838700000000000045e+01 6.546500000000000341e+01 2.272899999999999920e+02 -2.381987000000000165e+01 -4.177184728599073194e-01
8.838899999999999579e+01 8.081699999999999307e+01 2.095099999999999909e+02 -6.286356999999999751e+00 -2.923710113521081899e-01
8.839000000000000057e+01 7.980800000000000693e+01 2.399799999999999898e+02 -1.855225000000000080e+01 -2.678178262955249744e-01
8.839000000000000057e+01 8.149399999999999977e+01 2.510000000000000000e+02 4.528605000000000130e-02 -2.632633978049711554e-01
8.839300000000000068e+01 6.987099999999999511e+01 2.569900000000000091e+02 -3.121000999999999914e-01 5.948872036617097736e-02
8.839400000000000546e+01 7.412800000000000011e+01 2.382800000000000011e+02 -2.179613000000000156e+01 -1.490210305850980799e-01
8.839600000000000080e+01 7.471999999999999886e+01 2.114499999999999886e+02 -3.793282000000000043e+00 -3.830516357402649619e-01
8.839600000000000080e+01 7.471999999999999886e+01 2.123899999999999864e+02 -4.780573999999999657e+00 -3.829837705846784734e-01
8.840200000000000102e+01 4.578000000000000114e+01 2.370800000000000125e+02 3.800221000000000154e-02 -2.692837771942774294e-01
8.840200000000000102e+01 8.541100000000000136e+01 2.470500000000000114e+02 -1.844309000000000154e+01 -1.958454882511780348e-01
8.840200000000000102e+01 7.218800000000000239e+01 2.289499999999999886e+02 2.304260000000000019e+01 -1.318226767802563870e-01
8.840699999999999648e+01 6.808899999999999864e+01 2.331200000000000045e+02 -3.158507000000000176e+01 -1.380661939135310878e-01
8.840999999999999659e+01 7.363700000000000045e+01 2.611999999999999886e+02 1.863836999999999833e+01 -7.409128706639536710e-02
8.841700000000000159e+01 8.472499999999999432e+01 2.490099999999999909e+02 1.100697000000000036e+00 -1.937004701637620729e-01
8.841800000000000637e+01 6.043099999999999739e+01 2.265000000000000000e+02 -4.425887000000000171e+01 -1.927991528887633421e-01
8.841800000000000637e+01 6.129599999999999937e+01 2.265000000000000000e+02 1.343013000000000012e+00 -4.177447599626015196e-01
8.841800000000000637e+01 6.129599999999999937e+01 2.279000000000000057e+02 -1.417889000000000088e+01 -3.037726834091197814e-01
8.842400000000000659e+01 7.308899999999999864e+01 2.289000000000000057e+02 2.243203000000000102e+01 -1.323561024840457234e-01
8.842700000000000671e+01 4.928699999999999903e+01 2.314000000000000057e+02 -1.552931999999999979e+00 -3.967830565968635259e-01
8.842700000000000671e+01 5.784199999999999875e+01 2.279300000000000068e+02 -1.382602999999999938e+01 -3.816441772640658536e-01
8.843000000000000682e+01 8.115699999999999648e+01 2.154399999999999977e+02 -9.357060000000000599e+00 -2.936124985289655376e-01
8.843200000000000216e+01 4.479699999999999704e+01 2.335200000000000102e+02 4.449826999999999977e+00 -3.978872257859921158e-01
8.843200000000000216e+01 4.584700000000000131e+01 2.335200000000000102e+02 4.981582999999999650e+00 -3.978078238055670068e-01
8.843200000000000216e+01 4.584700000000000131e+01 2.352199999999999989e+02 -7.040994999999999893e-01 -2.683841574415508080e-01
8.843399999999999750e+01 6.065699999999999648e+01 2.280800000000000125e+02 -1.719543000000000177e+01 -3.037689692542065445e-01
8.843500000000000227e+01 7.595000000000000284e+01 2.106299999999999955e+02 -1.663792000000000115e+01 -3.830046362628877765e-01
8.843999999999999773e+01 8.576800000000000068e+01 2.247800000000000011e+02 -6.169984000000000179e+01 -2.613989460577116342e-01
8.843999999999999773e+01 8.334999999999999432e+01 2.248300000000000125e+02 -1.144120000000000026e+01 -2.613463795284757807e-01
8.844199999999999307e+01 6.422899999999999920e+01 2.499199999999999875e+02 -1.872125000000000039e+00 -7.241339480159286746e-02
8.844599999999999795e+01 5.243999999999999773e+01 2.552500000000000000e+02 1.773600000000000065e+01 -2.908257460273652173e-01
8.844599999999999795e+01 5.384000000000000341e+01 2.552500000000000000e+02 6.373872999999999678e+00 -2.863370413575027085e-01
8.845099999999999341e+01 5.710300000000000153e+01 2.548199999999999932e+02 8.445178000000000296e+00 -2.590863043314157177e-01
8.845300000000000296e+01 5.369599999999999795e+01 2.276299999999999955e+02 -4.789882999999999669e+00 -3.953591450831143161e-01
8.845499999999999829e+01 7.851300000000000523e+01 2.264300000000000068e+02 -1.913798999999999850e+01 -2.942135081421869969e-01
8.845600000000000307e+01 6.804699999999999704e+01 2.259199999999999875e+02 1.531404000000000032e+01 -4.176455496044101379e-01
8.845999999999999375e+01 8.002800000000000580e+01 2.507299999999999898e+02 5.669762999999999664e+01 -2.931523658200608784e-01
8.846299999999999386e+01 8.067600000000000193e+01 2.210099999999999909e+02 -3.514052000000000220e+01 -2.948250682679205426e-01
8.846500000000000341e+01 6.808599999999999852e+01 2.354499999999999886e+02 -2.822272999999999854e+01 -1.457438974636138529e-01
8.846999999999999886e+01 7.382299999999999329e+01 2.296299999999999955e+02 3.713042000000000087e+01 -1.330545672002703961e-01
8.847299999999999898e+01 6.867600000000000193e+01 2.536800000000000068e+02 -1.016379000000000055e+01 -1.288780044822189219e-01
8.847499999999999432e+01 8.339799999999999613e+01 2.499399999999999977e+02 5.809330000000000105e+00 -1.900424625505627019e-01
8.847799999999999443e+01 5.774399999999999977e+01 2.295200000000000102e+02 -5.620600000000000307e+01 -3.817545868285877053e-01
8.847799999999999443e+01 5.774399999999999977e+01 2.317800000000000011e+02 -3.806331000000000131e+01 -3.820334541271330764e-01
8.847799999999999443e+01 5.914399999999999835e+01 2.317800000000000011e+02 -3.799007000000000289e+01 -3.821682190632511578e-01
8.848300000000000409e+01 7.822400000000000375e+01 2.184799999999999898e+02 -3.563911999999999836e+01 -2.914981192086539830e-01
8.848300000000000409e+01 7.969599999999999795e+01 2.184799999999999898e+02 -1.849046999999999841e+01 -2.929727478250374606e-01
8.848499999999999943e+01 7.015999999999999659e+01 2.577799999999999727e+02 -5.468067000000000066e-02 7.301237778838423620e-02
8.848600000000000421e+01 8.234799999999999898e+01 2.184399999999999977e+02 2.899175999999999931e+01 -2.604447384345920380e-01
8.848600000000000421e+01 8.330599999999999739e+01 2.184399999999999977e+02 6.706834000000000628e+01 -2.604584685561935897e-01
8.848900000000000432e+01 8.393999999999999773e+01 2.390800000000000125e+02 -1.593585000000000029e+01 -2.689200106585936112e-01
8.848999999999999488e+01 6.324399999999999977e+01 2.219399999999999977e+02 2.048882000000000048e+01 -4.176891229029133790e-01
8.848999999999999488e+01 6.417499999999999716e+01 2.219399999999999977e+02 2.475175000000000125e+01 -4.176832451593098794e-01
8.849200000000000443e+01 7.066400000000000148e+01 2.600000000000000000e+02 -4.153224999999999767e+01 -7.194737348494587015e-02
8.849200000000000443e+01 6.046399999999999864e+01 2.288499999999999943e+02 -1.744049000000000049e+01 -3.041320903260071873e-01
8.849699999999999989e+01 8.288400000000000034e+01 2.501699999999999875e+02 1.903861000000000026e+00 -1.890579871873613871e-01
8.850000000000000000e+01 4.663300000000000267e+01 2.455900000000000034e+02 -1.793550000000000111e+01 -1.652843863104138944e-01
8.850000000000000000e+01 7.358199999999999363e+01 2.304499999999999886e+02 -5.583860999999999741e+00 -1.345241119087297044e-01
8.850100000000000477e+01 4.884100000000000108e+01 2.520900000000000034e+02 1.580067999999999984e+01 -1.746059201699420860e-01
8.850199999999999534e+01 7.610500000000000398e+01 2.150200000000000102e+02 -3.676378999999999841e+00 -3.829376639722393283e-01
8.850300000000000011e+01 8.609699999999999420e+01 2.240200000000000102e+02 -5.720655000000000001e+01 -2.612423731423307305e-01
8.851600000000000534e+01 7.849699999999999989e+01 2.204699999999999989e+02 -3.791313999999999851e+01 -2.921471129537725475e-01
8.851600000000000534e+01 7.936199999999999477e+01 2.204699999999999989e+02 -3.080124999999999957e+01 -2.931208085502175487e-01
8.851800000000000068e+01 5.783800000000000097e+01 2.265500000000000114e+02 -7.799320999999999948e+00 -3.956598050098004693e-01
8.852500000000000568e+01 7.143000000000000682e+01 2.192599999999999909e+02 -1.401926000000000005e+00 -4.174944522842473082e-01
8.852599999999999625e+01 6.100699999999999790e+01 2.245099999999999909e+02 2.907621999999999929e+00 -1.948313833618964819e-01
8.852599999999999625e+01 6.469700000000000273e+01 2.270699999999999932e+02 -4.801149999999999807e+01 -4.177472674012575604e-01
8.852700000000000102e+01 6.505400000000000205e+01 2.218400000000000034e+02 5.686704999999999899e+01 -4.176748941369858303e-01
8.852800000000000580e+01 7.574899999999999523e+01 2.157400000000000091e+02 -2.916685000000000194e+00 -3.828901179320861603e-01
8.852800000000000580e+01 6.983100000000000307e+01 2.559600000000000080e+02 2.238782000000000050e+00 4.386005965010157659e-02
8.852899999999999636e+01 8.426999999999999602e+01 2.381200000000000045e+02 -1.602683999999999997e+01 -2.680526482544894895e-01
8.853000000000000114e+01 4.592900000000000205e+01 2.530000000000000000e+02 3.840726999999999780e+00 -3.842290054282114231e-01
8.853199999999999648e+01 4.541299999999999670e+01 2.379499999999999886e+02 -8.030505000000000282e-02 -2.697890121479467607e-01
8.853300000000000125e+01 7.281199999999999761e+01 2.173899999999999864e+02 -1.265327000000000091e+00 -3.827749062522688428e-01
8.853499999999999659e+01 7.135500000000000398e+01 2.364300000000000068e+02 -1.463466000000000022e+01 -1.520244920941334621e-01
8.853600000000000136e+01 6.777899999999999636e+01 2.266800000000000068e+02 2.712376000000000076e+01 -4.176636583941519265e-01
8.853700000000000614e+01 5.804599999999999937e+01 2.271500000000000057e+02 -1.946251000000000175e+01 -3.815872142273054601e-01
8.854099999999999682e+01 7.852700000000000102e+01 2.191800000000000068e+02 -2.701003000000000043e+01 -2.919013904254182945e-01
8.854099999999999682e+01 7.939199999999999591e+01 2.191800000000000068e+02 -2.391059999999999874e+01 -2.928051150405285297e-01
8.854200000000000159e+01 8.068200000000000216e+01 2.183600000000000136e+02 -2.204835999999999885e+01 -2.939009920090477346e-01
8.854300000000000637e+01 7.571099999999999852e+01 2.305800000000000125e+02 -2.226105000000000089e+01 -2.907996387764711921e-01
8.854300000000000637e+01 5.584400000000000119e+01 2.555200000000000102e+02 1.293743000000000087e+01 -2.758715038899748895e-01
8.854500000000000171e+01 8.289499999999999602e+01 2.409399999999999977e+02 -3.512543999999999755e+01 -2.704337646026728215e-01
8.854600000000000648e+01 5.665999999999999659e+01 2.274399999999999977e+02 -8.835478999999999417e+00 -3.954256901360751475e-01
8.854699999999999704e+01 7.637699999999999534e+01 2.550000000000000000e+02 5.079805999999999955e+01 -1.607221644816633210e-01
8.854699999999999704e+01 7.769599999999999795e+01 2.542599999999999909e+02 1.147319999999999993e+02 -1.572606307035986084e-01
8.854699999999999704e+01 7.792700000000000671e+01 2.534499999999999886e+02 7.935605999999999938e+01 -2.873763482724596141e-01
8.854900000000000659e+01 7.851300000000000523e+01 2.509600000000000080e+02 8.597386000000000195e+00 -1.585627767713586045e-01
8.855100000000000193e+01 8.364199999999999591e+01 2.192100000000000080e+02 5.096036999999999750e+01 -2.605256566229033899e-01
8.855400000000000205e+01 8.490699999999999648e+01 2.478600000000000136e+02 -2.668468000000000018e+01 -1.959331425222722856e-01
8.855599999999999739e+01 7.894700000000000273e+01 2.104199999999999875e+02 -4.809586999999999612e+00 -3.832078788650261081e-01
8.855700000000000216e+01 8.157800000000000296e+01 2.210699999999999932e+02 -2.034189999999999898e+01 -2.606921746628808600e-01
8.855899999999999750e+01 7.327800000000000580e+01 2.311500000000000057e+02 -1.395678999999999981e+01 -1.361482366849393055e-01
8.855899999999999750e+01 7.421800000000000352e+01 2.326699999999999875e+02 -8.551373999999999853e+01 -1.357919649613353041e-01
8.855899999999999750e+01 6.773399999999999466e+01 2.201899999999999977e+02 5.865782000000000496e-01 -4.176030175524986232e-01
8.856499999999999773e+01 6.635399999999999920e+01 2.210699999999999932e+02 9.575948000000000349e+00 -4.176446241228291001e-01
8.856999999999999318e+01 4.532200000000000273e+01 2.360000000000000000e+02 -8.255909999999999638e-01 -2.687734765053186314e-01
8.856999999999999318e+01 4.695199999999999818e+01 2.343700000000000045e+02 1.608149000000000037e-02 -3.979847891302501495e-01
8.857099999999999795e+01 7.733599999999999852e+01 2.107700000000000102e+02 -7.475487000000000215e+00 -3.830935502570058104e-01
8.857200000000000273e+01 6.643099999999999739e+01 2.275000000000000000e+02 -2.529598999999999975e+01 -4.177129229202054539e-01
8.857399999999999807e+01 7.547499999999999432e+01 2.375900000000000034e+02 -2.534305000000000163e+01 -1.286181591142115076e-02
8.857500000000000284e+01 7.536299999999999955e+01 2.164199999999999875e+02 -4.768524000000000207e+00 -3.828364340402714006e-01
8.857500000000000284e+01 7.803300000000000125e+01 2.376500000000000057e+02 -3.452839999999999776e+01 6.809897500061677482e-03
8.857599999999999341e+01 8.530299999999999727e+01 2.464000000000000057e+02 -3.841904999999999859e+01 -1.949003383900024255e-01
8.857800000000000296e+01 6.957099999999999795e+01 2.551399999999999864e+02 7.239691999999999794e-01 3.302263969956550221e-02
8.857800000000000296e+01 7.053499999999999659e+01 2.360200000000000102e+02 -1.574840000000000018e+01 -1.497664129705252312e-01
8.857999999999999829e+01 6.997599999999999909e+01 2.311200000000000045e+02 -2.156575000000000131e+01 -1.340103440924053924e-01
8.858299999999999841e+01 7.838899999999999579e+01 2.383799999999999955e+02 -7.730652000000000612e+01 -1.639625294169423930e-01
8.858400000000000318e+01 8.515600000000000591e+01 2.454499999999999886e+02 -2.424691999999999936e+01 -1.933492222286506690e-01
8.858400000000000318e+01 7.298799999999999955e+01 2.552100000000000080e+02 3.533599999999999852e+01 -5.489129448442701259e-02
8.858599999999999852e+01 8.337099999999999511e+01 2.199799999999999898e+02 -3.616326000000000107e+01 -2.605956741268024568e-01
8.858899999999999864e+01 4.836399999999999721e+01 2.574200000000000159e+02 3.114158000000000115e+01 -3.810582691414940992e-01
8.858899999999999864e+01 4.968299999999999983e+01 2.566800000000000068e+02 2.107785000000000153e+01 -1.086395407507647626e-01
8.859099999999999397e+01 6.119800000000000040e+01 2.497700000000000102e+02 -3.758805999999999869e+00 -3.197031672137712333e-01
8.859199999999999875e+01 6.815800000000000125e+01 2.275500000000000114e+02 1.807188999999999934e+00 -4.176530722004166973e-01
8.859199999999999875e+01 8.300100000000000477e+01 2.373600000000000136e+02 -1.597012999999999927e+01 -2.670147314658955495e-01
8.859199999999999875e+01 8.394100000000000250e+01 2.373600000000000136e+02 -1.475084999999999980e+01 -2.672591288193714165e-01
8.859499999999999886e+01 4.638400000000000034e+01 2.353199999999999932e+02 -4.276184000000000096e-01 -2.682948856198608123e-01
8.859499999999999886e+01 4.638400000000000034e+01 2.367199999999999989e+02 1.026365999999999890e+00 -2.689591388015456497e-01
8.859499999999999886e+01 4.725000000000000000e+01 2.353199999999999932e+02 1.917444000000000093e-01 -3.983097165508165949e-01
8.859499999999999886e+01 4.725000000000000000e+01 2.367199999999999989e+02 3.434912999999999883e+00 -2.688374489723335259e-01
8.859699999999999420e+01 5.116199999999999903e+01 2.277899999999999920e+02 -2.375090000000000146e+00 -3.956829373907178593e-01
8.859799999999999898e+01 6.283500000000000085e+01 2.501299999999999955e+02 -3.735224000000000100e+00 -5.874019134978111095e-02
8.859799999999999898e+01 4.908500000000000085e+01 2.498600000000000136e+02 7.610867999999999967e+00 -1.705552175798746295e-01
8.860200000000000387e+01 4.993200000000000216e+01 2.277899999999999920e+02 -1.657918000000000003e+00 -3.958458660918392491e-01
8.860699999999999932e+01 4.667099999999999937e+01 2.465900000000000034e+02 -1.309808999999999912e+01 -1.663062086161821440e-01
8.861100000000000421e+01 8.472499999999999432e+01 2.247100000000000080e+02 -1.389897000000000027e+01 -2.613188372606751186e-01
8.861100000000000421e+01 7.734000000000000341e+01 2.301999999999999886e+02 4.519356000000000151e+00 -2.939316954771936663e-01
8.861199999999999477e+01 7.687300000000000466e+01 2.256800000000000068e+02 -4.869644000000000261e+01 -2.912317086207656391e-01
8.861199999999999477e+01 7.024099999999999966e+01 2.583399999999999750e+02 -4.362824999999999953e+00 -7.175648506243210989e-02
8.861400000000000432e+01 7.680299999999999727e+01 2.368300000000000125e+02 -3.677508999999999872e+01 -2.604196264212769313e-03
8.861499999999999488e+01 7.951200000000000045e+01 2.277599999999999909e+02 -2.443018999999999963e+01 -2.965883633096479399e-01
8.861499999999999488e+01 6.930200000000000671e+01 2.199399999999999977e+02 -3.039636999999999922e+00 -4.175657714898231565e-01
8.861599999999999966e+01 8.233299999999999841e+01 2.208799999999999955e+02 -6.968631999999999604e-02 -2.606731958018309037e-01
8.861599999999999966e+01 7.144299999999999784e+01 2.289199999999999875e+02 3.592524000000000228e+01 -1.307683340402362449e-01
8.861799999999999500e+01 6.707399999999999807e+01 2.238499999999999943e+02 1.522528999999999932e+01 -4.176737543557931254e-01
8.861899999999999977e+01 7.327899999999999636e+01 2.327700000000000102e+02 -6.782716999999999530e+01 -1.386451091945435921e-01
8.862099999999999511e+01 7.025600000000000023e+01 2.592599999999999909e+02 -1.649327999999999861e+01 -7.158802252228110841e-02
8.862199999999999989e+01 7.454699999999999704e+01 2.319099999999999966e+02 8.060148999999999120e+00 -1.336688868587081191e-01
8.862500000000000000e+01 6.068200000000000216e+01 2.259600000000000080e+02 -1.165057999999999971e+01 -1.933002839118179161e-01
8.862800000000000011e+01 8.406000000000000227e+01 2.443199999999999932e+02 -1.573320999999999970e+01 -1.899547925596412057e-01
8.863500000000000512e+01 4.640299999999999869e+01 2.334699999999999989e+02 3.481066000000000216e+00 -3.977190444031257210e-01
8.863500000000000512e+01 4.726899999999999835e+01 2.334699999999999989e+02 2.362532999999999994e+00 -3.976340593145386015e-01
8.863800000000000523e+01 8.129200000000000159e+01 2.384199999999999875e+02 -2.392012000000000072e+01 -2.672980316626694663e-01
8.864000000000000057e+01 7.837000000000000455e+01 2.177500000000000000e+02 -2.852589000000000041e+01 -2.914590389206711540e-01
8.864300000000000068e+01 7.329200000000000159e+01 2.545099999999999909e+02 1.614069999999999894e+01 -5.401971816378960123e-02
8.864300000000000068e+01 7.329200000000000159e+01 2.559099999999999966e+02 1.190515000000000079e+01 5.238067580255857669e-02
8.864300000000000068e+01 7.415699999999999648e+01 2.545099999999999909e+02 2.045025000000000048e+01 -4.504146517317620529e-02
8.864700000000000557e+01 7.327299999999999613e+01 2.380399999999999920e+02 -2.413559000000000054e+01 -1.517628231954182283e-01
8.864900000000000091e+01 7.576200000000000045e+01 2.239199999999999875e+02 5.821672999999999654e+00 -3.826465219142832774e-01
8.864900000000000091e+01 7.597100000000000364e+01 2.231800000000000068e+02 4.848063999999999929e+00 -3.827030160668394854e-01
8.864900000000000091e+01 7.597100000000000364e+01 2.246599999999999966e+02 -8.134603000000000250e+00 -3.826529068887984386e-01
8.865000000000000568e+01 6.596599999999999397e+01 2.234699999999999989e+02 6.561867000000000338e+00 -4.176964085006608651e-01
8.865000000000000568e+01 8.293999999999999773e+01 2.205200000000000102e+02 -1.237142000000000053e+01 -2.606357808280813648e-01
8.865000000000000568e+01 8.542400000000000659e+01 2.230099999999999909e+02 -1.489544000000000068e+01 -2.610216614466374652e-01
8.865099999999999625e+01 8.134000000000000341e+01 2.144900000000000091e+02 -2.197355999999999909e+01 -2.934740218123584321e-01
8.865200000000000102e+01 7.584099999999999397e+01 2.135000000000000000e+02 -4.779608999999999774e+00 -3.829393565438122815e-01
8.865300000000000580e+01 4.755299999999999727e+01 2.360200000000000102e+02 6.256029999999999980e+00 -3.985596905569069315e-01
8.865300000000000580e+01 8.183899999999999864e+01 2.127800000000000011e+02 9.788235000000000241e+00 -2.935005364593236132e-01
8.865500000000000114e+01 4.597099999999999653e+01 2.560400000000000205e+02 2.450708999999999804e+00 -3.812694123608248442e-01
8.865500000000000114e+01 7.386100000000000421e+01 2.288400000000000034e+02 9.458612999999999715e+00 -3.820552140335903291e-01
8.865999999999999659e+01 6.041400000000000148e+01 2.251999999999999886e+02 -4.440774000000000221e+00 -1.945472902523774084e-01
8.866200000000000614e+01 5.958100000000000307e+01 2.497100000000000080e+02 2.369574000000000069e+01 -1.855176139412397507e-01
8.866400000000000148e+01 6.507699999999999818e+01 2.234300000000000068e+02 2.950086999999999904e+01 -4.177121324929737867e-01
8.866599999999999682e+01 5.526500000000000057e+01 2.554600000000000080e+02 9.427374000000000365e+00 -2.797472243750193099e-01
8.866700000000000159e+01 7.286199999999999477e+01 2.611399999999999864e+02 2.296924999999999955e+02 -7.377789125861589081e-02
8.867300000000000182e+01 4.555199999999999960e+01 2.550500000000000114e+02 1.393235999999999954e-02 -3.822516110934805478e-01
8.867799999999999727e+01 5.743599999999999994e+01 2.272599999999999909e+02 -8.655195000000000860e+00 -3.955476075430457983e-01
8.868000000000000682e+01 7.485099999999999909e+01 2.312100000000000080e+02 5.677985999999999756e+00 -1.319022440842094468e-01
8.868200000000000216e+01 6.672199999999999420e+01 2.508899999999999864e+02 -9.489202000000000581e+00 -9.642917159849623276e-02
8.868200000000000216e+01 7.009600000000000364e+01 2.198600000000000136e+02 -1.330680000000000085e+01 -4.175473573470777078e-01
8.868399999999999750e+01 7.224899999999999523e+01 2.372100000000000080e+02 -2.067406000000000077e+01 -5.626128639679247451e-02
8.869299999999999784e+01 4.757200000000000273e+01 2.327700000000000102e+02 1.135767000000000060e+01 -3.973632101428374308e-01
8.869400000000000261e+01 4.971900000000000119e+01 2.288300000000000125e+02 6.672379000000000282e+00 -3.960512879071101944e-01
8.869400000000000261e+01 4.971900000000000119e+01 2.297700000000000102e+02 1.733222999999999958e+00 -3.962546660617835559e-01
8.869400000000000261e+01 4.971900000000000119e+01 2.306999999999999886e+02 -1.880533000000000066e-01 -3.964820356265028600e-01
8.869499999999999318e+01 7.826699999999999591e+01 2.107400000000000091e+02 -1.032065999999999928e+00 -3.831549053664903282e-01
8.869599999999999795e+01 6.822100000000000364e+01 2.528300000000000125e+02 -2.037418999999999869e+00 -1.273882358423562844e-01
8.869700000000000273e+01 7.288400000000000034e+01 2.319000000000000057e+02 -2.467811000000000021e+01 -1.378404401891713538e-01
8.869799999999999329e+01 6.687399999999999523e+01 2.280300000000000011e+02 -3.200829999999999842e+01 -4.177116663485064829e-01
8.870000000000000284e+01 7.407099999999999795e+01 2.305099999999999909e+02 -2.485278000000000098e+00 -1.331004507124189384e-01
8.870600000000000307e+01 7.422199999999999420e+01 2.311500000000000057e+02 -4.820009999999999906e+00 -1.334605985139306339e-01
8.870900000000000318e+01 8.324299999999999500e+01 2.212199999999999989e+02 -1.253836000000000084e+01 -2.607128915584481232e-01
8.870900000000000318e+01 8.410899999999999466e+01 2.247899999999999920e+02 -1.753558999999999912e+01 -2.612933016840967571e-01
8.870999999999999375e+01 6.731100000000000705e+01 2.275500000000000114e+02 -1.208357999999999954e+01 -4.176979177613042715e-01
8.871099999999999852e+01 6.472700000000000387e+01 2.226200000000000045e+02 2.856886000000000081e+01 -4.177068775274072610e-01
8.871299999999999386e+01 4.670900000000000318e+01 2.476500000000000057e+02 -3.157254000000000005e+00 -1.675801440278648080e-01
8.871399999999999864e+01 7.269199999999999307e+01 2.281399999999999864e+02 8.743176000000000059e+00 -1.302772106857736922e-01
8.871399999999999864e+01 7.355700000000000216e+01 2.281399999999999864e+02 5.967097000000000095e-01 -3.820375472168898723e-01
8.872100000000000364e+01 7.425400000000000489e+01 2.604700000000000273e+02 -2.996976000000000084e+01 -7.376774645227586469e-02
8.872199999999999420e+01 4.786500000000000199e+01 2.487400000000000091e+02 -1.602963000000000093e+01 -1.687896708197318407e-01
8.872400000000000375e+01 6.576200000000000045e+01 2.216999999999999886e+02 1.853963999999999857e+01 -4.176768600696915135e-01
8.872499999999999432e+01 4.560600000000000165e+01 2.412899999999999920e+02 5.228749999999999787e+00 -1.652666288758354307e-01
8.872499999999999432e+01 4.581499999999999773e+01 2.420200000000000102e+02 -8.672406000000000503e+00 -1.650396686368101051e-01
8.872700000000000387e+01 4.551599999999999824e+01 2.538499999999999943e+02 2.784616000000000202e+00 -3.835919887325840993e-01
8.873199999999999932e+01 6.765300000000000580e+01 2.338899999999999864e+02 -2.539108999999999838e+01 -1.392905962494316585e-01
8.873199999999999932e+01 6.765300000000000580e+01 2.347500000000000000e+02 -2.647867000000000104e+01 -1.422081763886976213e-01
8.873399999999999466e+01 7.967300000000000182e+01 2.161699999999999875e+02 -3.387639999999999674e+01 -2.923677444202639197e-01
8.873499999999999943e+01 7.894499999999999318e+01 2.198199999999999932e+02 -2.370080000000000098e+01 -2.923886196112955860e-01
8.873799999999999955e+01 8.296999999999999886e+01 2.428799999999999955e+02 -4.211596999999999724e+01 -2.725893130995734048e-01
8.874200000000000443e+01 7.453499999999999659e+01 2.595899999999999750e+02 1.535810999999999993e+01 -7.347269133046319123e-02
8.874399999999999977e+01 6.933100000000000307e+01 2.546100000000000136e+02 -9.449332000000000065e+00 2.594496818417291878e-02
8.874800000000000466e+01 8.221099999999999852e+01 2.197199999999999989e+02 -1.460609999999999964e+01 -2.605161546707467357e-01
8.875100000000000477e+01 7.421899999999999409e+01 2.586600000000000250e+02 2.253858999999999924e+01 -7.313837325294791913e-02
8.875199999999999534e+01 7.485299999999999443e+01 2.545999999999999943e+02 5.604648999999999859e+01 -3.814913668360569998e-02
8.875300000000000011e+01 4.629399999999999693e+01 2.447400000000000091e+02 -2.171294999999999931e+01 -1.647680790061600564e-01
8.875600000000000023e+01 5.439600000000000080e+01 2.276899999999999977e+02 -5.273007999999999917e+00 -3.952010984344737632e-01
8.876200000000000045e+01 7.729900000000000659e+01 2.219099999999999966e+02 -4.497164000000000161e-01 -2.908957068779035593e-01
8.876500000000000057e+01 5.768099999999999739e+01 2.509099999999999966e+02 7.625683000000000433e+00 -1.839373949245829143e-01
8.876600000000000534e+01 7.067000000000000171e+01 2.300000000000000000e+02 -3.829943999999999793e+00 -1.317774473228634224e-01
8.876600000000000534e+01 7.067000000000000171e+01 2.308600000000000136e+02 -1.025083000000000055e+01 -1.335464615452941484e-01
8.876699999999999591e+01 4.677000000000000313e+01 2.530099999999999909e+02 5.667399999999999771e+00 -2.616695647637924949e-01
8.876699999999999591e+01 7.618800000000000239e+01 2.142400000000000091e+02 -3.688833999999999946e+00 -3.829487494250759516e-01
8.876800000000000068e+01 6.878600000000000136e+01 2.355099999999999909e+02 -2.644406999999999996e+01 -1.460045165848654347e-01
8.876800000000000068e+01 6.973399999999999466e+01 2.355099999999999909e+02 -2.166994000000000042e+01 -1.468025486682407732e-01
8.876999999999999602e+01 7.854000000000000625e+01 2.169300000000000068e+02 -3.283798000000000172e+01 -2.914464909761646516e-01
8.877100000000000080e+01 6.001299999999999812e+01 2.295800000000000125e+02 -1.817865000000000109e+01 -3.819018786807530375e-01
8.877100000000000080e+01 5.867699999999999960e+01 2.251999999999999886e+02 -5.369558999999999749e+00 -1.963089858731775772e-01
8.877100000000000080e+01 5.867699999999999960e+01 2.267199999999999989e+02 -2.713853999999999900e+01 -1.944023994866984073e-01
8.877100000000000080e+01 5.961699999999999733e+01 2.251999999999999886e+02 -7.633058000000000121e+00 -1.953493393871197081e-01
8.877100000000000080e+01 5.961699999999999733e+01 2.267199999999999989e+02 -4.088121000000000294e+01 -1.933714002251263053e-01
8.877100000000000080e+01 7.801699999999999591e+01 2.529399999999999977e+02 1.408511000000000024e+01 -2.836958559092527254e-01
8.877200000000000557e+01 4.695900000000000318e+01 2.459399999999999977e+02 -1.802946999999999989e+01 -1.652704559192390565e-01
8.877599999999999625e+01 8.291599999999999682e+01 2.242400000000000091e+02 -2.505369999999999919e+01 -2.611392769771578859e-01
8.877599999999999625e+01 8.443600000000000705e+01 2.217800000000000011e+02 -1.399769000000000041e+01 -2.607934308628944153e-01
8.878100000000000591e+01 7.925700000000000500e+01 2.394399999999999977e+02 -1.665509000000000128e+01 -2.670844326530465995e-01
8.878100000000000591e+01 8.012199999999999989e+01 2.394399999999999977e+02 -2.622267000000000081e+01 -2.675479584849119741e-01
8.878199999999999648e+01 8.282699999999999818e+01 2.192100000000000080e+02 1.612263000000000090e+01 -2.604685831244072380e-01
8.878300000000000125e+01 8.194299999999999784e+01 2.189600000000000080e+02 -9.657629999999999271e+00 -2.604307378052274080e-01
8.878300000000000125e+01 5.646300000000000097e+01 2.552800000000000011e+02 7.592107000000000383e+00 -2.587012275966493191e-01
8.878700000000000614e+01 8.390200000000000102e+01 2.491200000000000045e+02 -1.086045999999999978e+01 -1.930307189859223338e-01
8.878900000000000148e+01 4.625300000000000011e+01 2.328899999999999864e+02 -8.961354000000000264e-01 -3.975276067544853964e-01
8.879200000000000159e+01 6.593600000000000705e+01 2.502899999999999920e+02 -1.011271999999999949e+01 -9.059888611731871377e-02
8.879600000000000648e+01 4.492499999999999716e+01 2.362800000000000011e+02 -9.108983000000000496e-01 -2.689116857279523209e-01
8.879600000000000648e+01 8.266700000000000159e+01 2.421800000000000068e+02 -4.026641000000000048e+01 -2.716884720023121647e-01
8.879999999999999716e+01 7.237900000000000489e+01 2.180900000000000034e+02 -2.470352999999999799e+00 -4.174699030190991422e-01
8.880100000000000193e+01 6.889400000000000546e+01 2.275500000000000114e+02 -4.521306000000000047e+00 -4.176415150094836548e-01
8.880299999999999727e+01 7.378100000000000591e+01 2.568199999999999932e+02 7.015736999999999668e+00 -1.768015509592582024e-01
8.880700000000000216e+01 4.847500000000000142e+01 2.320099999999999909e+02 -3.193886000000000225e-01 -3.969974411502153466e-01
8.881000000000000227e+01 7.737900000000000489e+01 2.184699999999999989e+02 -2.963965999999999923e+01 -3.829837233377891836e-01
8.881600000000000250e+01 7.142799999999999727e+01 2.603799999999999955e+02 -1.179044999999999987e+01 -7.244286964941762386e-02
8.882500000000000284e+01 7.393200000000000216e+01 2.578100000000000023e+02 9.011310999999999183e+00 -1.847184544122630334e-01
8.882699999999999818e+01 6.862500000000000000e+01 2.265900000000000034e+02 7.025221000000000160e+00 -4.176582639829330423e-01
8.882800000000000296e+01 8.535999999999999943e+01 2.240200000000000102e+02 -5.052611999999999881e+01 -2.611488422913674778e-01
8.882899999999999352e+01 7.892700000000000671e+01 2.285900000000000034e+02 -2.142856000000000094e+01 -2.959344727934209995e-01
8.883400000000000318e+01 5.834799999999999898e+01 2.259600000000000080e+02 -1.070626999999999995e+01 -1.957579841427956602e-01
8.883400000000000318e+01 5.994599999999999795e+01 2.259600000000000080e+02 -4.636408000000000129e+01 -1.940600469538767969e-01
8.883899999999999864e+01 6.466200000000000614e+01 2.494300000000000068e+02 6.538052999999999670e+00 -8.063290014103889625e-02
8.884699999999999420e+01 6.271900000000000119e+01 2.225699999999999932e+02 2.725935000000000130e+01 -1.957745567020041100e-01
8.884699999999999420e+01 6.376899999999999835e+01 2.225699999999999932e+02 4.401156000000000290e+01 -4.177259259354109133e-01
8.884799999999999898e+01 6.954399999999999693e+01 2.318199999999999932e+02 -1.953134999999999977e+01 -1.346963115280146173e-01
8.884900000000000375e+01 5.596000000000000085e+01 2.275000000000000000e+02 -1.315419999999999945e+01 -3.952987762260842808e-01
8.885099999999999909e+01 6.199600000000000222e+01 2.276299999999999955e+02 -1.847925000000000040e+01 -4.178042548765802389e-01
8.885099999999999909e+01 7.817499999999999716e+01 2.514699999999999989e+02 1.412894999999999968e+01 -1.580924560539003210e-01
8.885399999999999920e+01 4.359799999999999898e+01 2.353499999999999943e+02 -6.019442000000000403e-01 -2.687005423028819284e-01
8.885399999999999920e+01 4.522800000000000153e+01 2.369799999999999898e+02 1.304573999999999900e+00 -2.692065216629008217e-01
8.885500000000000398e+01 6.832200000000000273e+01 2.248700000000000045e+02 1.021823999999999977e+01 -4.176657789951025990e-01
8.885899999999999466e+01 6.603100000000000591e+01 2.282500000000000000e+02 -3.210352999999999923e+01 -4.177569734031562620e-01
8.885899999999999466e+01 6.772599999999999909e+01 2.282500000000000000e+02 -2.566735999999999862e+01 -4.176953335797545241e-01
8.885899999999999466e+01 6.859099999999999397e+01 2.282500000000000000e+02 -1.448722000000000065e+01 -4.176567011115224770e-01
8.885999999999999943e+01 6.198700000000000188e+01 2.266800000000000068e+02 4.624935999999999936e+00 -4.177964808070512848e-01
8.886199999999999477e+01 4.463600000000000279e+01 2.391599999999999966e+02 -2.161976999999999927e-01 -2.705842048388296672e-01
8.886199999999999477e+01 4.463600000000000279e+01 2.401100000000000136e+02 1.726503999999999886e-02 -2.712177140325953695e-01
8.886199999999999477e+01 4.681700000000000017e+01 2.360200000000000102e+02 1.692379000000000078e+00 -2.684677786310178949e-01
8.886599999999999966e+01 7.548000000000000398e+01 2.111599999999999966e+02 -1.741760999999999981e+01 -3.830183319993867852e-01
8.886599999999999966e+01 7.548000000000000398e+01 2.126800000000000068e+02 -3.341051999999999822e+01 -3.829195052557888834e-01
8.886700000000000443e+01 4.380199999999999960e+01 2.344699999999999989e+02 -1.359291000000000027e+00 -2.683036168794542542e-01
8.886700000000000443e+01 8.213400000000000034e+01 2.105000000000000000e+02 -5.055582000000000242e+00 -2.932274446576631499e-01
8.886899999999999977e+01 7.768300000000000693e+01 2.177700000000000102e+02 -4.258476000000000283e+01 -3.830241088672975414e-01
8.886899999999999977e+01 7.768300000000000693e+01 2.191699999999999875e+02 -2.890014000000000038e+01 -3.830036048854467134e-01
8.887099999999999511e+01 8.201900000000000546e+01 2.504099999999999966e+02 4.611062000000000438e+00 -1.671741222465967236e-01
8.887399999999999523e+01 8.468600000000000705e+01 2.446899999999999977e+02 -1.631293000000000148e+01 -1.914451404241924171e-01
8.887699999999999534e+01 7.258400000000000318e+01 2.550000000000000000e+02 5.425865000000000293e+01 -6.034466902558063145e-02
8.887999999999999545e+01 6.214300000000000068e+01 2.233400000000000034e+02 2.466171999999999898e+01 -1.953486239708442651e-01
8.888599999999999568e+01 7.946099999999999852e+01 2.505999999999999943e+02 -7.999755000000000060e-02 -2.907482510835182055e-01
8.888700000000000045e+01 7.900400000000000489e+01 2.268300000000000125e+02 -1.959212000000000131e+01 -2.949620232211409010e-01
8.889000000000000057e+01 8.286700000000000443e+01 2.216999999999999886e+02 -1.973091000000000150e+01 -2.607265916310595455e-01
8.889300000000000068e+01 4.741499999999999915e+01 2.570899999999999750e+02 1.160723999999999911e+01 -3.811507486819106783e-01
8.889400000000000546e+01 8.020600000000000307e+01 2.189600000000000080e+02 -2.022934000000000054e+01 -2.934424381513946467e-01
8.889400000000000546e+01 8.020600000000000307e+01 2.204799999999999898e+02 -3.392058000000000106e+01 -2.939035615068814611e-01
8.889400000000000546e+01 8.114600000000000080e+01 2.189600000000000080e+02 -1.805561000000000149e+01 -2.944174656277706026e-01
8.889400000000000546e+01 8.114600000000000080e+01 2.204799999999999898e+02 -3.033547000000000082e+01 -2.949681371213989656e-01
8.889499999999999602e+01 8.362800000000000011e+01 2.436200000000000045e+02 -3.552606999999999715e+01 -2.739268123640976604e-01
8.890300000000000580e+01 4.683599999999999852e+01 2.327700000000000102e+02 3.248838000000000115e+00 -3.974135523256978608e-01
8.890600000000000591e+01 5.181400000000000006e+01 2.556100000000000136e+02 1.350852000000000075e+01 -2.928107966567816689e-01
8.890800000000000125e+01 8.432800000000000296e+01 2.485699999999999932e+02 -2.239293999999999940e+01 -1.951543543248501211e-01
8.891100000000000136e+01 5.704399999999999693e+01 2.306500000000000057e+02 -7.382681999999999789e+01 -3.817061228527557915e-01
8.891100000000000136e+01 5.725300000000000011e+01 2.299099999999999966e+02 -1.153201999999999998e+02 -3.816430625791493170e-01
8.891100000000000136e+01 5.725300000000000011e+01 2.313799999999999955e+02 -2.436517999999999873e+01 -3.818157536564067422e-01
8.891100000000000136e+01 5.844400000000000261e+01 2.320500000000000114e+02 -2.021516000000000091e+01 -3.820269921362972054e-01
8.891100000000000136e+01 5.963499999999999801e+01 2.313799999999999955e+02 -3.199294000000000082e+01 -3.820514225663202978e-01
8.891100000000000136e+01 5.984400000000000119e+01 2.306500000000000057e+02 -3.072784000000000049e+01 -3.819746130127086858e-01
8.891299999999999670e+01 4.532200000000000273e+01 2.329199999999999875e+02 4.581421999999999883e+00 -3.976073252905225064e-01
8.891800000000000637e+01 6.413800000000000523e+01 2.234199999999999875e+02 5.494060999999999950e+01 -4.177449293709663003e-01
8.892000000000000171e+01 6.546299999999999386e+01 2.226200000000000045e+02 2.471715000000000018e+01 -4.177133060175284851e-01
8.892199999999999704e+01 7.065999999999999659e+01 2.583100000000000023e+02 9.145402000000000253e-01 -7.185770404663728572e-02
8.892300000000000182e+01 5.876599999999999824e+01 2.500200000000000102e+02 3.100179999999999936e+01 -1.869191486265042446e-01
8.892300000000000182e+01 7.766100000000000136e+01 2.208899999999999864e+02 -1.666218999999999895e+01 -2.910607138267246041e-01
8.892499999999999716e+01 4.396699999999999875e+01 2.361999999999999886e+02 2.862560000000000215e+00 -2.690027843411981756e-01
8.892499999999999716e+01 6.105400000000000205e+01 2.285099999999999909e+02 -1.381798000000000037e+01 -3.035706554924749723e-01
8.892799999999999727e+01 4.741299999999999670e+01 2.529499999999999886e+02 2.240154000000000067e+01 -2.633010523589165985e-01
8.892799999999999727e+01 4.571099999999999852e+01 2.429399999999999977e+02 -4.211788999999999561e+00 -1.651906952630428083e-01
8.892799999999999727e+01 6.167399999999999949e+01 2.258799999999999955e+02 2.266921999999999926e+01 -4.177919925468173146e-01
8.892900000000000205e+01 7.515099999999999625e+01 2.119199999999999875e+02 -1.032043999999999961e+01 -3.830002959867905288e-01
8.893200000000000216e+01 7.801200000000000045e+01 2.199300000000000068e+02 -4.083106999999999687e+01 -2.912911869880451810e-01
8.893300000000000693e+01 4.933200000000000074e+01 2.516899999999999977e+02 1.140023000000000053e+01 -1.740230686696017381e-01
8.893300000000000693e+01 4.954099999999999682e+01 2.509600000000000080e+02 1.436196999999999946e+01 -1.726031198793447352e-01
8.893500000000000227e+01 7.288700000000000045e+01 2.543000000000000114e+02 1.916912999999999911e+01 -5.902017567290095135e-02
8.894100000000000250e+01 7.490300000000000580e+01 2.305600000000000023e+02 -2.018324999999999925e+00 -1.306910520397735753e-01
