9.106600000000000250e+01 4.975500000000000256e+01 2.476799999999999891e+00 -1.312951999999999897e+00 -1.567597159980310684e-01
9.106799999999999784e+01 4.278000000000000114e+01 1.838599999999999923e+01 -8.049564999999999415e+00 -1.385526758370085598e-01
9.106799999999999784e+01 4.278000000000000114e+01 1.990599999999999881e+01 -6.074736999999999654e+01 -1.401761704436763623e-01
9.107599999999999341e+01 6.920900000000000318e+01 2.301399999999999935e+01 -2.773353999999999875e+00 -1.390183293266452902e-01
9.107599999999999341e+01 4.067900000000000205e+01 1.772899999999999920e+01 7.611575000000000202e+00 -1.367628981857573200e-01
9.107999999999999829e+01 3.827700000000000102e+01 1.622700000000000031e+01 -3.665398000000000156e+00 -1.331296285169535076e-01
9.107999999999999829e+01 6.768099999999999739e+01 2.286700000000000088e+01 1.602114999999999956e+00 -1.390316908162795850e-01
9.108799999999999386e+01 2.663400000000000034e+01 2.177400000000000091e+01 3.118282999999999916e+00 -1.209859602108400572e-02
9.109000000000000341e+01 6.687199999999999989e+01 2.136499999999999844e+01 7.693641000000000396e+00 -1.393307557340958958e-01
9.109099999999999397e+01 5.777499999999999858e+01 8.125799999999999912e+00 2.592970000000000041e+01 -1.564086014231703681e-01
9.109199999999999875e+01 4.927199999999999847e+01 1.409500000000000064e+01 3.922629000000000143e+00 -1.553863009418605112e-01
9.109199999999999875e+01 4.927199999999999847e+01 1.579499999999999993e+01 6.770755000000000301e+00 -1.385401334816856456e-01
9.109199999999999875e+01 5.032200000000000273e+01 1.409500000000000064e+01 5.468816999999999595e+00 -1.554810157010773353e-01
9.109199999999999875e+01 5.032200000000000273e+01 1.579499999999999993e+01 1.436447000000000074e+01 -1.388159433241609453e-01
9.109600000000000364e+01 2.698999999999999844e+01 2.104200000000000159e+01 2.094780000000000086e+00 -1.674735607341017868e-02
9.111100000000000421e+01 4.128300000000000125e+01 2.119600000000000151e+01 1.376488999999999940e+01 -1.404866526107920177e-01
9.111499999999999488e+01 6.479300000000000637e+01 2.750999999999999890e+00 4.301654000000000089e+00 -1.568142594272588508e-01
9.111499999999999488e+01 6.611199999999999477e+01 3.486099999999999977e+00 3.327492999999999768e+01 -1.567826862665895049e-01
9.111499999999999488e+01 6.634300000000000352e+01 4.301000000000000156e+00 2.112069999999999936e+01 -1.567451009370329496e-01
9.111799999999999500e+01 4.895000000000000284e+01 4.248999999999999666e+00 -1.452307000000000015e+00 -1.565560717447317951e-01
9.111799999999999500e+01 4.918099999999999739e+01 3.434099999999999930e+00 3.121640999999999999e-02 -1.566492224095192287e-01
9.111799999999999500e+01 4.918099999999999739e+01 5.063900000000000290e+00 -1.177837999999999941e-01 -1.564698239970330751e-01
9.111799999999999500e+01 5.050000000000000000e+01 5.799000000000000377e+00 -8.381586000000000425e+00 -1.564244745100593081e-01
9.111899999999999977e+01 5.221200000000000330e+01 4.226099999999999746e+00 7.940507000000000204e+00 -1.566180804374264768e-01
9.112099999999999511e+01 6.341199999999999903e+01 3.403599999999999959e+00 3.113017000000000145e+00 -1.567763898489839547e-01
9.112600000000000477e+01 6.621999999999999886e+01 5.192199999999999704e+00 2.210020000000000095e+01 -1.567011713538262463e-01
9.112699999999999534e+01 3.178999999999999915e+01 2.745599999999999952e+01 -5.065514000000000294e+01 -2.284696370172130397e-02
9.112800000000000011e+01 4.184100000000000108e+01 1.828699999999999903e+01 1.604821000000000097e+01 -1.379806282748561874e-01
9.113100000000000023e+01 4.310900000000000176e+01 1.914600000000000080e+01 -7.933861000000000274e+01 -1.394259272829492802e-01
9.114300000000000068e+01 3.453900000000000148e+01 2.825000000000000000e+01 5.318589000000000233e+00 -3.144915611889347040e-02
9.115699999999999648e+01 2.746699999999999875e+01 2.033599999999999852e+01 2.160957999999999934e+00 -2.127994494720828952e-02
9.116299999999999670e+01 4.890299999999999869e+01 1.494500000000000028e+01 6.243808999999999720e+00 -1.378242745668283864e-01
9.116299999999999670e+01 5.069100000000000250e+01 1.494500000000000028e+01 1.150937000000000054e+01 -1.383477133148250382e-01
9.116800000000000637e+01 6.884600000000000364e+01 1.948999999999999844e+01 3.803208999999999840e+00 -1.396633263183678364e-01
9.116899999999999693e+01 6.383599999999999852e+01 6.460099999999999731e+00 3.149772000000000105e+01 -1.566128218600412736e-01
9.117199999999999704e+01 5.189200000000000301e+01 5.129699999999999704e+00 -1.840305999999999997e+00 -1.565220650115612677e-01
9.119199999999999307e+01 5.587599999999999767e+01 6.482800000000000118e+00 5.909474000000000338e+00 -1.564860475348233970e-01
9.119400000000000261e+01 5.658700000000000330e+01 8.006399999999999295e+00 1.345795000000000030e+01 -1.563811960717166882e-01
9.119899999999999807e+01 3.412899999999999778e+01 1.697700000000000031e+01 2.000350000000000072e+00 -1.293689568112216803e-01
9.119899999999999807e+01 3.499399999999999977e+01 1.697700000000000031e+01 3.068086999999999787e+00 -1.305181020308750495e-01
9.120199999999999818e+01 5.153900000000000148e+01 2.510499999999999954e+00 -7.374687999999999910e+00 -1.567598518044448774e-01
9.120199999999999818e+01 4.185600000000000165e+01 1.994699999999999918e+01 -7.463168999999999720e+00 -1.397943999689639505e-01
9.120699999999999363e+01 3.021300000000000097e+01 2.627100000000000080e+01 -4.774555000000000327e+00 -2.230555285703249204e-03
9.120799999999999841e+01 7.008499999999999375e+01 1.936700000000000088e+01 -1.706889000000000101e+00 -1.396615700134536397e-01
9.121699999999999875e+01 6.501099999999999568e+01 6.349099999999999966e+00 1.596242999999999945e+01 -1.566287777438553630e-01
9.122499999999999432e+01 3.632200000000000273e+01 1.612500000000000000e+01 -2.933391000000000193e-01 -2.764656546756821265e-01
9.122899999999999920e+01 3.931600000000000250e+01 2.547899999999999920e+01 1.304162999999999961e+01 -1.363501535104490459e-01
9.124200000000000443e+01 7.179200000000000159e+01 2.081800000000000139e+01 1.925381000000000009e+00 -1.393948536183427511e-01
9.125400000000000489e+01 3.762199999999999989e+01 2.563100000000000023e+01 -7.293445000000000178e+00 -1.356811700649217245e-01
9.125700000000000500e+01 3.975200000000000244e+01 1.707300000000000040e+01 -4.160338000000000314e+00 -1.352312198679899713e-01
9.125700000000000500e+01 5.614500000000000313e+01 7.107300000000000395e+00 1.061345000000000027e+01 -1.564374531207037011e-01
9.126300000000000523e+01 2.864499999999999957e+01 2.564699999999999847e+01 1.810646999999999895e+00 5.618432440474760425e-03
9.126699999999999591e+01 3.284300000000000352e+01 2.833299999999999841e+01 4.784254999999999924e+00 -2.591534981423639777e-02
9.127500000000000568e+01 4.094200000000000017e+01 2.544999999999999929e+01 5.802982000000000085e+01 -1.366524837362149691e-01
9.128799999999999670e+01 6.767300000000000182e+01 2.005099999999999838e+01 -7.608591000000000104e-01 -1.395593021609571882e-01
9.129300000000000637e+01 3.045499999999999829e+01 1.756700000000000017e+01 -3.764102999999999977e+00 -2.895704966457216534e-01
9.130299999999999727e+01 3.076899999999999835e+01 1.668100000000000094e+01 1.432320000000000038e+00 -2.734267899533858182e-01
9.130700000000000216e+01 4.105299999999999727e+01 1.859299999999999997e+01 8.650463999999999487e+00 -1.377896983750723225e-01
9.131300000000000239e+01 3.202799999999999869e+01 1.584900000000000020e+01 -4.010206000000000159e+00 -2.767210555547279238e-01
9.135800000000000409e+01 4.231000000000000227e+01 1.914600000000000080e+01 -2.000695999999999941e+01 -1.389433002866444222e-01
9.136199999999999477e+01 3.067599999999999838e+01 1.831400000000000006e+01 -1.188973000000000058e+00 -1.259540294660416171e-01
9.136199999999999477e+01 3.067599999999999838e+01 1.917999999999999972e+01 7.486097000000000001e+00 -3.433548982053387377e-02
9.136899999999999977e+01 3.748299999999999699e+01 1.631899999999999906e+01 -2.217286000000000090e+00 -1.322710578533552173e-01
9.138200000000000500e+01 2.898799999999999955e+01 2.013500000000000156e+01 1.028529000000000027e+00 -2.718696239759665206e-02
9.138700000000000045e+01 3.854500000000000171e+01 1.691400000000000148e+01 -1.416985999999999990e+01 -1.339885427299573606e-01
9.140600000000000591e+01 5.073499999999999943e+01 2.400399999999999867e+00 1.902271999999999963e+01 -1.567448927184967034e-01
9.141700000000000159e+01 4.979699999999999704e+01 1.494500000000000028e+01 3.717798000000000158e+00 -1.379884660837645272e-01
9.142400000000000659e+01 4.110000000000000142e+01 1.991400000000000148e+01 1.877384999999999948e+01 -1.392578166628048453e-01
9.143500000000000227e+01 7.161299999999999955e+01 2.134100000000000108e+01 2.413108999999999948e+00 -1.392870335152910366e-01
9.144700000000000273e+01 3.601899999999999835e+01 2.724699999999999989e+01 -1.540221000000000018e+01 -1.314256760644607058e-01
9.147499999999999432e+01 6.302000000000000313e+01 4.301000000000000156e+00 5.155236000000000374e+00 -1.567073374799706209e-01
9.147700000000000387e+01 2.618400000000000105e+01 2.286100000000000065e+01 3.601328999999999780e+00 -1.684182632574395266e-01
9.148199999999999932e+01 4.102900000000000347e+01 2.245899999999999963e+01 -1.368546000000000085e+01 -1.392068709816953187e-01
9.148199999999999932e+01 4.140299999999999869e+01 1.914600000000000080e+01 5.942236000000000296e+00 -1.384486995300515666e-01
9.150000000000000000e+01 5.700000000000000000e+01 5.224999999999999645e+00 2.803415999999999997e+01 -1.565820235961923879e-01
9.150000000000000000e+01 5.854999999999999716e+01 5.224999999999999645e+00 2.661637999999999948e+01 -1.566043273593399621e-01
9.150000000000000000e+01 5.854999999999999716e+01 7.732999999999999652e+00 6.921775999999999840e+01 -1.564292454150103817e-01
9.150900000000000034e+01 3.997899999999999920e+01 1.746099999999999852e+01 -1.270585999999999949e+01 -1.356536459257285110e-01
9.151200000000000045e+01 3.368900000000000006e+01 2.832100000000000151e+01 7.747378000000000320e+00 -2.827489446580198212e-02
9.152100000000000080e+01 3.718999999999999773e+01 2.633099999999999952e+01 -2.083986000000000161e+01 -1.339918805603137475e-01
9.152100000000000080e+01 7.056199999999999761e+01 2.271600000000000108e+01 3.585329999999999728e+01 -1.390357436073265673e-01
9.152299999999999613e+01 3.135699999999999932e+01 2.696499999999999986e+01 -1.368631000000000064e+01 -6.428719666197050056e-03
9.152800000000000580e+01 6.343900000000000006e+01 5.926000000000000156e+00 4.097541999999999973e+01 -1.566192127950235546e-01
9.153799999999999670e+01 3.584499999999999886e+01 1.672400000000000020e+01 8.028971999999999776e-01 -1.309115810117274514e-01
9.154500000000000171e+01 3.876899999999999835e+01 2.546799999999999997e+01 4.622224000000000110e+00 -1.360320000719288658e-01
9.154999999999999716e+01 6.692100000000000648e+01 2.163700000000000045e+01 1.256413999999999920e+00 -1.392155712256702982e-01
9.154999999999999716e+01 6.714799999999999613e+01 2.083800000000000097e+01 -2.401594999999999980e-01 -1.393757133918132607e-01
9.154999999999999716e+01 6.714799999999999613e+01 2.243599999999999994e+01 7.505469000000000168e-01 -1.390547962693347850e-01
9.154999999999999716e+01 6.844100000000000250e+01 2.315700000000000003e+01 -1.919228999999999985e+01 -1.389265527551329371e-01
9.155899999999999750e+01 3.249000000000000199e+01 2.772299999999999898e+01 1.167304999999999993e+01 -2.457425632627535661e-02
9.156499999999999773e+01 5.700800000000000267e+01 7.833000000000000185e+00 2.026010000000000133e+01 -1.563809760904628365e-01
9.159399999999999409e+01 6.401800000000000068e+01 3.047000000000000153e+00 7.290352000000000388e+00 -1.567728133680273139e-01
9.159399999999999409e+01 6.556799999999999784e+01 3.047000000000000153e+00 4.022050999999999732e+01 -1.567787180572099426e-01
9.159499999999999886e+01 3.456199999999999761e+01 1.746799999999999997e+01 1.025159000000000020e+01 -1.303756329773683997e-01
9.159699999999999420e+01 4.972500000000000142e+01 5.503000000000000114e+00 -6.350801999999999836e+00 -1.563914221455092457e-01
9.159699999999999420e+01 5.127499999999999858e+01 5.503000000000000114e+00 -5.035645999999999844e+01 -1.564346112084027962e-01
9.159900000000000375e+01 6.307000000000000028e+01 5.075999999999999623e+00 7.513278999999999819e+00 -1.566586662665347962e-01
9.160200000000000387e+01 4.088700000000000045e+01 2.076300000000000168e+01 -4.324367000000000072e-01 -1.400103528589528579e-01
9.160200000000000387e+01 4.088700000000000045e+01 2.162900000000000134e+01 -5.600855000000000139e+00 -1.398335344871728947e-01
9.160999999999999943e+01 7.061499999999999488e+01 1.990500000000000114e+01 2.032769000000000048e+00 -1.395159643997193610e-01
9.161199999999999477e+01 6.844100000000000250e+01 2.001899999999999835e+01 -8.195588999999999791e-01 -1.395158421740698984e-01
9.161499999999999488e+01 3.079200000000000159e+01 2.644900000000000162e+01 -8.983333999999999264e+00 -4.262643854487306420e-03
9.162900000000000489e+01 3.024299999999999855e+01 1.987999999999999901e+01 7.682494000000000156e+00 -3.129478049331336359e-02
9.163200000000000500e+01 3.342900000000000205e+01 1.670899999999999963e+01 -1.348286000000000051e+01 -1.276141323343066569e-01
9.166200000000000614e+01 3.808800000000000097e+01 1.696099999999999852e+01 -1.416985999999999990e+01 -1.334346391355793193e-01
9.166400000000000148e+01 6.562500000000000000e+01 5.628700000000000259e+00 8.590652000000000044e+01 -1.566495828379995403e-01
9.169599999999999795e+01 2.794500000000000028e+01 2.537999999999999901e+01 3.117579000000000100e+00 -1.690562960500030243e-01
9.169599999999999795e+01 5.135999999999999943e+01 2.933199999999999807e+00 -1.306931000000000065e-01 -1.566768308843074498e-01
9.170799999999999841e+01 4.009100000000000108e+01 2.562300000000000111e+01 1.035820000000000007e+01 -1.360787249900224372e-01
9.170799999999999841e+01 4.140999999999999659e+01 2.488800000000000168e+01 -1.624556000000000111e+01 -1.369861838887009853e-01
9.170799999999999841e+01 4.164099999999999824e+01 2.407300000000000040e+01 6.359078000000000230e+00 -1.377112700910627652e-01
9.173300000000000409e+01 2.642899999999999849e+01 2.435399999999999920e+01 6.647432000000000230e+00 -1.685427115542110221e-01
9.173999999999999488e+01 4.035300000000000153e+01 1.832600000000000051e+01 -1.713832999999999940e+00 -1.367251004862038710e-01
9.174500000000000455e+01 4.148899999999999721e+01 2.320299999999999940e+01 -4.242873999999999590e+00 -1.384144438686062129e-01
9.177299999999999613e+01 3.130199999999999960e+01 1.625000000000000000e+01 1.058343000000000034e+00 -2.747525513031081612e-01
9.177299999999999613e+01 3.282200000000000273e+01 1.625000000000000000e+01 -2.121157999999999877e+00 -2.750612657248633908e-01
9.178400000000000603e+01 3.897800000000000153e+01 1.740500000000000114e+01 -1.745651999999999981e+00 -1.346363169521954950e-01
9.178600000000000136e+01 2.614199999999999946e+01 2.347500000000000142e+01 2.437882999999999800e+00 -1.691344991859360936e-01
9.179600000000000648e+01 5.652100000000000080e+01 6.000000000000000000e+00 3.087893000000000043e+01 -1.564955226773669106e-01
9.179600000000000648e+01 5.652100000000000080e+01 6.958000000000000185e+00 2.221323999999999899e+01 -1.564215196273360531e-01
9.179600000000000648e+01 5.902900000000000347e+01 6.000000000000000000e+00 1.750547999999999860e+01 -1.565404838846433944e-01
9.179600000000000648e+01 5.902900000000000347e+01 6.958000000000000185e+00 2.580234000000000094e+01 -1.564752462368975694e-01
9.180700000000000216e+01 2.939499999999999957e+01 2.596699999999999875e+01 -2.355977999999999906e+00 -1.677726267705361429e-01
9.181100000000000705e+01 3.671999999999999886e+01 2.709100000000000108e+01 -1.572263000000000055e+01 -1.320812479918243298e-01
9.183599999999999852e+01 5.777499999999999858e+01 5.160499999999999865e+00 2.625763999999999854e+01 -1.565764022306546654e-01
9.183599999999999852e+01 5.777499999999999858e+01 7.797500000000000320e+00 3.499694999999999823e+01 -1.563855384331419851e-01
9.184300000000000352e+01 2.644099999999999895e+01 2.260099999999999909e+01 1.143453000000000004e-02 -1.699601627246904445e-01
9.184600000000000364e+01 7.108700000000000330e+01 2.081599999999999895e+01 9.947803999999999647e+00 -1.393315401228302497e-01
9.184600000000000364e+01 7.108700000000000330e+01 2.186599999999999966e+01 1.621829999999999927e+01 -1.391521893297590906e-01
9.184799999999999898e+01 3.806900000000000261e+01 2.552599999999999980e+01 -2.320488000000000106e+00 -1.354062092566686304e-01
9.184799999999999898e+01 3.946900000000000119e+01 2.552599999999999980e+01 3.630079999999999973e+00 -1.359497862037452043e-01
9.185099999999999909e+01 2.715299999999999869e+01 2.517200000000000060e+01 3.136439999999999784e-01 -1.691922181583543905e-01
9.185599999999999454e+01 2.669999999999999929e+01 2.151200000000000045e+01 1.751324999999999965e-01 -1.303721184253437901e-02
9.185599999999999454e+01 2.692699999999999960e+01 2.071300000000000097e+01 -4.014663999999999788e+00 -1.691699188672351681e-02
9.185599999999999454e+01 2.821999999999999886e+01 1.999200000000000088e+01 1.303446000000000105e+00 -2.412459994007430664e-02
9.187500000000000000e+01 4.039300000000000068e+01 1.934900000000000020e+01 1.483172000000000068e+01 -1.378406834133358294e-01
9.189000000000000057e+01 6.971200000000000330e+01 1.989499999999999957e+01 -7.508016000000000689e-02 -1.394933578000985552e-01
9.189000000000000057e+01 6.353900000000000148e+01 3.822000000000000064e+00 5.072006000000000014e+00 -1.567149422329792707e-01
9.189000000000000057e+01 6.604699999999999704e+01 3.822000000000000064e+00 3.052481999999999829e+01 -1.567298989774324469e-01
9.189000000000000057e+01 6.604699999999999704e+01 4.780000000000000249e+00 1.422995999999999981e+02 -1.566839894863424898e-01
9.189100000000000534e+01 5.031300000000000239e+01 2.886099999999999888e+00 -2.187273000000000134e-01 -1.566503912558444567e-01
9.189300000000000068e+01 4.924600000000000222e+01 3.770000000000000018e+00 -2.349603000000000108e-01 -1.565413410617398637e-01
9.189300000000000068e+01 4.924600000000000222e+01 4.727999999999999758e+00 -4.038896000000000153e-01 -1.564369168974609203e-01
9.189300000000000068e+01 5.175399999999999778e+01 3.770000000000000018e+00 -2.064210999999999885e+01 -1.565883891290572316e-01
9.189300000000000068e+01 5.175399999999999778e+01 4.727999999999999758e+00 -3.295468000000000330e+01 -1.564977832791376589e-01
9.190200000000000102e+01 6.975499999999999545e+01 2.288700000000000045e+01 -1.684520999999999935e+00 -1.389537648221297883e-01
9.190699999999999648e+01 3.669500000000000028e+01 1.665299999999999869e+01 -2.036112999999999840e+00 -1.314901444689419718e-01
9.191500000000000625e+01 4.070300000000000296e+01 2.034600000000000009e+01 3.460503000000000107e+00 -1.391380563379845392e-01
9.193000000000000682e+01 6.479300000000000637e+01 2.982499999999999929e+00 2.113526999999999845e+01 -1.567624894932244106e-01
9.193000000000000682e+01 6.479300000000000637e+01 5.619500000000000384e+00 3.808807999999999794e+01 -1.566294422606759607e-01
9.193300000000000693e+01 5.050000000000000000e+01 5.567499999999999893e+00 -3.388891999999999882e+01 -1.563778815074600148e-01
9.195600000000000307e+01 3.528399999999999892e+01 1.744500000000000028e+01 1.149729999999999919e+01 -1.309368790082277578e-01
9.198600000000000421e+01 2.991100000000000136e+01 2.607000000000000028e+01 -5.399335999999999913e+00 -1.689359336134377831e-01
9.199299999999999500e+01 3.316400000000000148e+01 2.772500000000000142e+01 1.829889999999999972e+01 -2.621194245042555646e-02
9.199299999999999500e+01 3.421399999999999864e+01 2.772500000000000142e+01 1.033642000000000039e+01 -2.939376531393755876e-02
9.199500000000000455e+01 6.348199999999999932e+01 4.774799999999999933e+00 1.198422000000000054e+01 -1.566583066755079801e-01
9.200400000000000489e+01 6.388000000000000256e+01 5.535300000000000331e+00 2.168601999999999919e+01 -1.566208818089547816e-01
9.201900000000000546e+01 3.519200000000000017e+01 2.744699999999999918e+01 -1.053930000000000078e+01 -3.208280597062224820e-02
9.201999999999999602e+01 6.768099999999999739e+01 2.040700000000000003e+01 -9.522726999999999720e-01 -1.393973707591109334e-01
9.201999999999999602e+01 6.768099999999999739e+01 2.286700000000000088e+01 -1.995994000000000046e+00 -1.389162062727241354e-01
9.202700000000000102e+01 3.442399999999999949e+01 1.776899999999999835e+01 2.142116000000000131e+00 -1.302886363199383668e-01
9.204300000000000637e+01 3.143799999999999883e+01 2.653699999999999903e+01 -9.050057000000000684e+00 -6.434266194076808561e-03
9.206199999999999761e+01 3.073400000000000176e+01 1.948300000000000054e+01 3.663831000000000060e+00 -3.262581343540373741e-02
9.206199999999999761e+01 3.094300000000000139e+01 1.874699999999999989e+01 -2.983995999999999871e+00 -3.442016578443785751e-02
9.206300000000000239e+01 3.083200000000000074e+01 1.701000000000000156e+01 5.591589999999999616e-01 -2.900043678203950703e-01
9.206300000000000239e+01 3.083200000000000074e+01 1.794999999999999929e+01 -1.398374000000000006e+00 -2.898279608562973619e-01
9.206300000000000239e+01 3.329200000000000159e+01 1.701000000000000156e+01 -3.269823999999999842e+01 -1.275599640312162220e-01
9.208100000000000307e+01 6.920000000000000284e+01 2.296499999999999986e+01 -3.618983000000000061e+01 -1.389116678717238484e-01
9.210200000000000387e+01 3.206199999999999761e+01 1.618700000000000117e+01 -2.207955000000000112e+00 -2.748361123048422283e-01
9.212800000000000011e+01 2.864499999999999957e+01 2.564699999999999847e+01 2.092496000000000134e+00 -1.675229068778965602e-01
9.217100000000000648e+01 3.007600000000000051e+01 2.005699999999999861e+01 4.026819999999999844e+00 -2.952007303360953266e-02
9.218200000000000216e+01 4.097099999999999653e+01 2.276200000000000045e+01 -1.949681999999999960e+01 -1.385050056362090998e-01
9.218699999999999761e+01 4.086599999999999966e+01 2.532700000000000173e+01 -1.456071999999999989e+01 -1.362531492260239951e-01
9.221899999999999409e+01 3.278199999999999648e+01 2.689399999999999835e+01 -1.311558999999999919e+00 -1.095242088445885775e-02
9.226500000000000057e+01 3.950300000000000011e+01 1.800100000000000122e+01 -5.358487000000000222e+00 -1.353639842870323906e-01
9.227500000000000568e+01 5.729599999999999937e+01 5.703999999999999737e+00 2.993586000000000169e+01 -1.565011604945809043e-01
9.227500000000000568e+01 5.729599999999999937e+01 7.253999999999999559e+00 1.548596000000000039e+01 -1.563865605319029184e-01
9.227500000000000568e+01 5.825399999999999778e+01 5.703999999999999737e+00 2.092511999999999972e+01 -1.565184361586955397e-01
9.227500000000000568e+01 5.825399999999999778e+01 7.253999999999999559e+00 7.620369999999999777e+01 -1.564091967708668984e-01
9.228100000000000591e+01 3.596000000000000085e+01 2.738100000000000023e+01 -2.543444999999999823e+01 -3.347107234265457587e-02
9.228100000000000591e+01 3.725300000000000011e+01 2.666000000000000014e+01 -2.891329999999999956e+01 -1.326932792201776234e-01
9.228100000000000591e+01 3.757800000000000296e+01 2.592299999999999827e+01 -1.554308999999999941e+01 -1.339431573333383085e-01
9.231000000000000227e+01 6.721099999999999852e+01 2.116700000000000159e+01 -2.640915000000000123e+00 -1.392130370583724575e-01
9.231000000000000227e+01 6.721099999999999852e+01 2.210699999999999932e+01 -1.126736999999999966e+01 -1.390259642088080561e-01
9.232599999999999341e+01 2.746000000000000085e+01 2.028200000000000003e+01 -2.721344000000000207e+00 -2.003241710299536946e-02
9.232999999999999829e+01 3.372399999999999665e+01 1.771000000000000085e+01 -5.871145000000000280e+00 -1.290231001996356708e-01
9.233599999999999852e+01 3.987199999999999989e+01 1.885099999999999909e+01 -3.484446999999999850e+00 -1.365521237060796644e-01
9.233799999999999386e+01 4.040999999999999659e+01 2.133800000000000097e+01 -2.745623000000000147e+01 -1.396025919652455483e-01
9.234000000000000341e+01 5.696000000000000085e+01 6.479000000000000092e+00 1.222963000000000022e+01 -1.564326969976338744e-01
9.234000000000000341e+01 5.859000000000000341e+01 6.479000000000000092e+00 2.160704000000000136e+01 -1.564668706501376738e-01
9.234699999999999420e+01 4.066799999999999926e+01 2.212999999999999901e+01 -1.476721000000000039e+01 -1.389298728714115916e-01
9.234900000000000375e+01 6.844100000000000250e+01 2.034400000000000119e+01 -5.009256999999999849e+00 -1.393649338576369023e-01
9.234900000000000375e+01 6.844100000000000250e+01 2.292999999999999972e+01 -2.090531999999999968e+01 -1.388759293483420587e-01
9.235099999999999909e+01 2.932000000000000028e+01 2.584400000000000119e+01 -6.168782999999999905e-01 -1.690681566386313395e-01
9.236199999999999477e+01 3.782099999999999795e+01 1.739300000000000068e+01 -9.521117000000000052e-01 -1.331992171204229303e-01
9.236899999999999977e+01 6.431399999999999295e+01 3.525999999999999801e+00 6.243529000000000195e+01 -1.567111817480442704e-01
9.236899999999999977e+01 6.431399999999999295e+01 5.075999999999999623e+00 6.616003000000000611e+01 -1.566314507313270876e-01
9.236899999999999977e+01 6.527200000000000557e+01 3.525999999999999801e+00 2.522345999999999933e+01 -1.567171256183157446e-01
9.236899999999999977e+01 6.527200000000000557e+01 5.075999999999999623e+00 4.310882999999999754e+01 -1.566405403839778443e-01
9.237099999999999511e+01 7.023699999999999477e+01 2.049099999999999966e+01 1.783096999999999932e+00 -1.393307320981058695e-01
9.237099999999999511e+01 7.023699999999999477e+01 2.219099999999999895e+01 -8.912952000000000652e+00 -1.390318751538680564e-01
9.237199999999999989e+01 5.002100000000000080e+01 3.474000000000000199e+00 -1.791976999999999931e+00 -1.565448378542973473e-01
9.237199999999999989e+01 5.002100000000000080e+01 5.024000000000000021e+00 -1.434412000000000020e+01 -1.563839997117527081e-01
9.237199999999999989e+01 5.097899999999999920e+01 3.474000000000000199e+00 -2.872682999999999875e+00 -1.565629001340162751e-01
9.237199999999999989e+01 5.097899999999999920e+01 5.024000000000000021e+00 -2.238825999999999894e+01 -1.564104957966596932e-01
9.237300000000000466e+01 3.958700000000000330e+01 1.965700000000000003e+01 -2.045563999999999893e+01 -1.373099760228640998e-01
9.238100000000000023e+01 4.009400000000000119e+01 2.040599999999999881e+01 -1.236951999999999963e+01 -1.384836327597615546e-01
9.238800000000000523e+01 3.617000000000000171e+01 1.724899999999999878e+01 1.001034999999999897e+00 -1.313468191588216538e-01
9.238800000000000523e+01 3.721999999999999886e+01 1.724899999999999878e+01 -1.861153999999999975e+00 -1.324342086847232480e-01
9.239000000000000057e+01 3.464699999999999847e+01 2.723400000000000176e+01 -1.157910999999999913e+00 -3.028453649322009750e-02
9.240999999999999659e+01 3.487299999999999756e+01 1.797100000000000009e+01 7.415490000000000137e+00 -1.308317902192825399e-01
9.243399999999999750e+01 6.397800000000000153e+01 4.301000000000000156e+00 4.188768999999999920e+01 -1.566655998660973492e-01
9.243399999999999750e+01 6.560800000000000409e+01 4.301000000000000156e+00 4.020085999999999871e+01 -1.566785490350647014e-01
9.243699999999999761e+01 4.968500000000000227e+01 4.248999999999999666e+00 -3.959563000000000166e+00 -1.564515844465575178e-01
9.243699999999999761e+01 5.131499999999999773e+01 4.248999999999999666e+00 -3.283297999999999917e+01 -1.564897091607484747e-01
9.243699999999999761e+01 3.064099999999999824e+01 2.634900000000000020e+01 -1.807131000000000043e+01 -1.711192141964053559e-01
9.244199999999999307e+01 7.060599999999999454e+01 2.134100000000000108e+01 6.603633000000000308e+00 -1.391755262324757270e-01
9.245600000000000307e+01 6.924699999999999989e+01 2.038299999999999912e+01 -3.180451999999999835e+00 -1.393423224937924421e-01
9.248300000000000409e+01 4.134499999999999886e+01 2.359400000000000119e+01 6.385464000000000340e+01 -1.376558080112138815e-01
9.248300000000000409e+01 4.134499999999999886e+01 2.455199999999999960e+01 5.829167999999999950e+01 -1.368534601382976057e-01
9.250900000000000034e+01 3.878699999999999903e+01 2.502799999999999869e+01 4.337335999999999969e-01 -1.357544031054620237e-01
9.251000000000000512e+01 3.224600000000000222e+01 2.645599999999999952e+01 -9.433234000000000563e+00 -9.037234025461037684e-03
9.252299999999999613e+01 4.009100000000000108e+01 2.539199999999999946e+01 -2.883164000000000016e+01 -1.358485685609099602e-01
9.253300000000000125e+01 3.159199999999999875e+01 1.671999999999999886e+01 -3.796825999999999812e+00 -2.725954063609313804e-01
9.253300000000000125e+01 3.253199999999999648e+01 1.671999999999999886e+01 -9.097597000000000378e+00 -2.729240798291929782e-01
9.254300000000000637e+01 2.624500000000000099e+01 2.379799999999999827e+01 1.329388000000000014e+00 -1.718731187314005981e-01
9.254300000000000637e+01 2.649899999999999878e+01 2.290399999999999991e+01 1.807431999999999928e+00 -1.721080982628476197e-01
9.254300000000000637e+01 2.649899999999999878e+01 2.469200000000000017e+01 1.211840000000000028e+00 -1.717658808189780895e-01
9.254300000000000637e+01 2.794500000000000028e+01 2.549800000000000111e+01 -1.067460999999999993e+00 -1.719747891474141255e-01
9.257099999999999795e+01 5.777499999999999858e+01 6.479000000000000092e+00 4.155942999999999898e+01 -1.564360201608258616e-01
9.258499999999999375e+01 3.358500000000000085e+01 2.723799999999999955e+01 1.163067000000000029e+01 -1.283611556265448241e-02
9.259600000000000364e+01 3.126300000000000168e+01 1.748000000000000043e+01 -9.268587999999999383e+00 -2.900556181896050689e-01
9.260399999999999920e+01 2.937600000000000122e+01 2.032499999999999929e+01 2.126345999999999847e+00 -2.620041831196307652e-02
9.260399999999999920e+01 3.056700000000000017e+01 1.966100000000000136e+01 8.415858999999999313e+00 -3.101151488598970565e-02
9.261599999999999966e+01 2.698999999999999844e+01 2.104200000000000159e+01 -3.275263999999999953e+00 -1.570184714409991050e-02
9.261700000000000443e+01 2.678800000000000026e+01 2.205600000000000094e+01 -3.008614000000000011e-01 -1.727726475771238224e-01
9.264700000000000557e+01 3.874600000000000222e+01 1.803600000000000136e+01 -4.360440999999999789e+00 -1.345434972470585522e-01
9.265000000000000568e+01 3.802400000000000091e+01 2.518199999999999861e+01 -6.368439000000000405e+00 -1.348041822206836882e-01
9.265300000000000580e+01 3.116900000000000048e+01 1.838200000000000145e+01 -6.638395000000000046e+00 -3.456616126627572866e-02
9.265500000000000114e+01 2.821999999999999886e+01 2.021900000000000119e+01 -1.081004000000000076e+01 -2.259854596882090311e-02
9.266500000000000625e+01 6.479300000000000637e+01 4.301000000000000156e+00 9.333051000000000386e+01 -1.566611629755165214e-01
9.266800000000000637e+01 5.050000000000000000e+01 4.248999999999999666e+00 -3.951570000000000249e+01 -1.564518797071881573e-01
9.266899999999999693e+01 6.970799999999999841e+01 2.087800000000000011e+01 -1.352696000000000076e+01 -1.392286576897404926e-01
9.268899999999999295e+01 3.289600000000000080e+01 1.742099999999999937e+01 -3.571361999999999881e+01 -1.271656159180673817e-01
9.270900000000000318e+01 3.908200000000000074e+01 1.884700000000000131e+01 -7.227889000000000230e+00 -1.357124076303697635e-01
9.275100000000000477e+01 3.671999999999999886e+01 2.709100000000000108e+01 -1.581100999999999956e+01 -3.451461436773995556e-02
9.277100000000000080e+01 3.566599999999999682e+01 1.794900000000000162e+01 2.941405000000000047e+00 -1.314362944913891051e-01
9.277899999999999636e+01 3.143799999999999883e+01 2.632799999999999940e+01 -2.669791000000000025e+01 -1.723556349499859031e-01
9.278000000000000114e+01 6.797100000000000364e+01 2.087699999999999889e+01 -3.698096000000000050e+00 -1.392123952211226923e-01
9.278000000000000114e+01 6.797100000000000364e+01 2.239699999999999847e+01 -1.064504999999999946e+01 -1.389204421385633881e-01
9.278000000000000114e+01 6.891100000000000136e+01 2.087699999999999889e+01 -8.267628000000000199e+00 -1.392143159282946685e-01
9.278000000000000114e+01 6.891100000000000136e+01 2.239699999999999847e+01 -2.133764000000000038e+01 -1.389331809851547250e-01
9.278300000000000125e+01 2.991000000000000014e+01 2.618100000000000094e+01 -1.765519000000000105e+01 -1.712061429461025353e-01
9.278400000000000603e+01 2.862000000000000099e+01 2.557700000000000173e+01 -1.791322000000000081e+00 -1.694526043655204539e-01
9.282099999999999795e+01 3.990100000000000335e+01 2.088800000000000168e+01 -2.259927000000000064e+01 -1.385442148377321325e-01
9.282299999999999329e+01 3.206199999999999761e+01 1.748000000000000043e+01 -1.798178000000000054e+01 -1.258989408397350462e-01
9.282500000000000284e+01 3.824000000000000199e+01 1.808500000000000085e+01 -8.520902000000000198e-01 -1.340571968981315032e-01
9.282899999999999352e+01 3.662400000000000233e+01 1.798400000000000176e+01 5.901928999999999981e+00 -1.324499302467714579e-01
9.284300000000000352e+01 6.764199999999999591e+01 2.163700000000000045e+01 -2.811552999999999969e+00 -1.390565889275624245e-01
9.286400000000000432e+01 3.918999999999999773e+01 2.008899999999999864e+01 -1.815736000000000061e+01 -1.371491181789999125e-01
9.289400000000000546e+01 3.498799999999999955e+01 1.820899999999999963e+01 3.474502000000000201e+00 -1.309222647331708678e-01
9.294799999999999329e+01 6.925700000000000500e+01 2.163700000000000045e+01 -1.293863999999999947e+01 -1.390576710305886088e-01
9.295399999999999352e+01 3.728199999999999648e+01 1.800499999999999901e+01 2.425829999999999931e+00 -1.330173594373965096e-01
9.296200000000000330e+01 3.961200000000000188e+01 2.484799999999999898e+01 -3.792361999999999966e+01 -1.360071410368666189e-01
9.296200000000000330e+01 4.057000000000000028e+01 2.484799999999999898e+01 -5.059828999999999866e+01 -1.362162332356520456e-01
9.297799999999999443e+01 3.305499999999999972e+01 2.637399999999999878e+01 3.138921999999999990e+00 -1.127553020161284683e-02
9.301099999999999568e+01 3.372599999999999909e+01 2.690599999999999881e+01 3.783805000000000085e+00 -1.291926299652829471e-02
9.302700000000000102e+01 4.090599999999999881e+01 2.407300000000000040e+01 5.857741000000000042e+01 -1.369086330175552924e-01
9.303900000000000148e+01 4.025399999999999778e+01 2.170200000000000173e+01 -1.653413000000000110e+01 -1.388451931190657629e-01
9.304099999999999682e+01 3.718999999999999773e+01 2.633099999999999952e+01 -3.740156000000000347e+01 -3.543891160261679329e-02
9.306199999999999761e+01 4.063499999999999801e+01 2.330600000000000094e+01 -4.891600999999999644e+00 -1.375038746733577288e-01
9.306799999999999784e+01 2.709499999999999886e+01 2.517299999999999827e+01 -9.595966999999999691e-01 -1.736125560278228008e-01
9.306999999999999318e+01 6.844100000000000250e+01 2.163700000000000045e+01 -2.714568999999999832e+01 -1.390363273417421497e-01
9.307999999999999829e+01 3.596000000000000085e+01 2.715399999999999991e+01 -1.447840000000000060e+01 -3.248029190105552327e-02
9.308299999999999841e+01 3.015200000000000102e+01 2.017999999999999972e+01 2.549553999999999832e+01 -2.829149743255199301e-02
9.308599999999999852e+01 2.775000000000000000e+01 2.075199999999999889e+01 -8.542462999999999695e+00 -1.926449709964962384e-02
9.308599999999999852e+01 3.332900000000000063e+01 1.791199999999999903e+01 -6.154742999999999853e+00 -1.282347527115040020e-01
9.308899999999999864e+01 3.194200000000000017e+01 1.849800000000000111e+01 8.458456999999999226e+00 -3.539554894992117534e-02
9.309000000000000341e+01 3.249499999999999744e+01 1.817999999999999972e+01 -8.743213000000000790e+00 -1.274215355197142741e-01
9.311599999999999966e+01 3.731099999999999994e+01 2.542800000000000082e+01 -1.163761000000000045e+01 -3.611346638856118008e-02
9.312500000000000000e+01 3.834599999999999653e+01 2.452299999999999969e+01 2.718818999999999875e+00 -1.352798442346402619e-01
9.312500000000000000e+01 3.921200000000000330e+01 2.452299999999999969e+01 -1.165042000000000044e+01 -1.359190705498000973e-01
9.313800000000000523e+01 4.031400000000000006e+01 2.264099999999999824e+01 -4.678294000000000352e+01 -1.379955102714539861e-01
9.314600000000000080e+01 2.868900000000000006e+01 2.065299999999999869e+01 -2.813209000000000160e+01 -2.270647643827239034e-02
9.316200000000000614e+01 2.694399999999999906e+01 2.240800000000000125e+01 -2.302255999999999858e+00 -1.740877242437483818e-01
9.320300000000000296e+01 3.871800000000000352e+01 1.939000000000000057e+01 -1.914645000000000152e+01 -1.356955971067781430e-01
9.320600000000000307e+01 2.732700000000000173e+01 2.147599999999999909e+01 -3.687098999999999904e+00 -1.745871971672034451e-01
9.321699999999999875e+01 3.422999999999999687e+01 1.816300000000000026e+01 1.704684000000000088e+00 -1.296928045196713286e-01
9.325000000000000000e+01 4.000900000000000034e+01 2.385300000000000153e+01 -1.303060999999999936e+01 -1.368368614810371031e-01
9.325300000000000011e+01 2.932000000000000028e+01 2.584400000000000119e+01 -5.764230999999999661e+00 -1.715631812499989473e-01
9.325300000000000011e+01 3.067000000000000171e+01 2.647100000000000009e+01 -5.321779000000000082e+01 -1.731797329929071205e-01
9.325900000000000034e+01 3.955400000000000205e+01 2.083999999999999986e+01 -2.605649000000000015e+01 -1.378974692837735272e-01
9.328100000000000591e+01 3.638900000000000290e+01 1.849299999999999855e+01 3.196686999999999834e+00 -1.325257053758191472e-01
9.329200000000000159e+01 3.136599999999999966e+01 1.931700000000000017e+01 4.780346999999999902e+00 -3.265800215318692690e-02
9.332099999999999795e+01 3.449900000000000233e+01 2.686599999999999966e+01 1.508652000000000015e+01 -1.471526512398356121e-02
9.333599999999999852e+01 3.748799999999999955e+01 1.851000000000000156e+01 1.069281999999999933e+01 -1.335389401858173564e-01
9.338400000000000034e+01 3.774399999999999977e+01 2.472800000000000153e+01 3.604502999999999791e+00 -2.252425623410846817e-02
9.339300000000000068e+01 2.657000000000000028e+01 2.327299999999999969e+01 4.471834000000000087e-01 -1.746608059034097660e-01
9.339300000000000068e+01 2.657000000000000028e+01 2.432300000000000040e+01 4.318314999999999793e-01 -1.746639610292918254e-01
9.341100000000000136e+01 3.235499999999999687e+01 2.610699999999999932e+01 -1.278063000000000038e+01 -8.802049820126075716e-03
9.341700000000000159e+01 3.276299999999999812e+01 1.845499999999999829e+01 -3.193228000000000039e-02 -3.662141140493831160e-02
9.342499999999999716e+01 3.546699999999999875e+01 1.839600000000000080e+01 2.807875000000000121e+00 -1.313218044396066153e-01
9.343699999999999761e+01 2.794500000000000028e+01 2.524399999999999977e+01 4.306612999999999580e+00 -1.746177821903646121e-01
9.348499999999999943e+01 3.087300000000000111e+01 2.004200000000000159e+01 6.888646999999999743e+00 -3.006140640948899365e-02
9.350900000000000034e+01 3.949399999999999977e+01 2.293199999999999861e+01 -4.751221999999999923e+01 -1.372741659158419614e-01
9.351099999999999568e+01 3.642999999999999972e+01 2.662099999999999866e+01 -2.785079999999999956e+01 -1.904798956423585030e-02
9.351500000000000057e+01 3.903000000000000114e+01 2.377899999999999991e+01 -1.056795999999999935e+01 -1.361451371862702486e-01
9.357099999999999795e+01 3.549099999999999966e+01 2.671999999999999886e+01 1.430033000000000065e+01 -1.692317648569877792e-02
9.362600000000000477e+01 2.732700000000000173e+01 2.197200000000000131e+01 -1.373428999999999900e-01 -1.753776165467492709e-01
9.362999999999999545e+01 3.498799999999999955e+01 1.841799999999999926e+01 1.520122999999999891e+00 -1.306635691956753442e-01
9.363100000000000023e+01 3.685300000000000153e+01 2.589699999999999847e+01 -1.998120000000000118e+01 -2.007770274049552883e-02
9.367000000000000171e+01 2.870200000000000173e+01 2.105099999999999838e+01 -4.810025999999999691e+00 -2.157074677330343693e-02
9.369799999999999329e+01 2.965200000000000102e+01 2.080799999999999983e+01 8.469863000000000142e+00 -2.506626094591597395e-02
9.372299999999999898e+01 2.991000000000000014e+01 2.618100000000000094e+01 -2.410628000000000171e+01 -1.734975578853817091e-01
9.372700000000000387e+01 3.143799999999999883e+01 2.632799999999999940e+01 -3.116382000000000119e+01 -1.742283818474467394e-01
9.373300000000000409e+01 3.701899999999999835e+01 1.900100000000000122e+01 1.547382999999999953e+01 -1.334203169084004215e-01
9.373300000000000409e+01 3.795700000000000074e+01 1.900100000000000122e+01 1.015560000000000018e+00 -1.342275731367159886e-01
9.373499999999999943e+01 3.336699999999999733e+01 1.848300000000000054e+01 3.744778000000000273e-01 -3.728647065587600146e-02
9.373999999999999488e+01 2.864499999999999957e+01 2.530199999999999960e+01 7.682993999999999657e-01 -1.717879387385906065e-01
9.374699999999999989e+01 3.372599999999999909e+01 2.669699999999999918e+01 -8.894461000000000173e-01 -1.756957249444596747e-01
9.380599999999999739e+01 3.222200000000000131e+01 1.896300000000000097e+01 3.038857999999999837e+00 -3.441905158809085291e-02
9.380700000000000216e+01 3.914399999999999835e+01 2.041100000000000136e+01 -4.187742000000000075e+00 -1.366752996929834763e-01
9.381600000000000250e+01 3.725300000000000011e+01 2.512500000000000000e+01 2.158520999999999912e+00 -2.098893445872138802e-02
9.382500000000000284e+01 3.807900000000000063e+01 2.408999999999999986e+01 2.410241000000000078e+00 -2.287522712618307585e-02
9.384300000000000352e+01 3.305499999999999972e+01 2.637399999999999878e+01 3.071412000000000031e+00 -1.751487053383608827e-01
9.385800000000000409e+01 3.044800000000000040e+01 2.065899999999999892e+01 2.238394999999999868e+01 -2.753486278935229209e-02
9.386499999999999488e+01 3.966799999999999926e+01 2.214600000000000080e+01 -1.483454000000000050e+01 -4.386898812637424205e-02
9.390300000000000580e+01 3.865899999999999892e+01 1.969399999999999906e+01 -7.193379000000000190e+00 -1.354440861807978680e-01
9.391800000000000637e+01 2.742000000000000171e+01 2.464799999999999969e+01 1.593867000000000012e+01 -1.759301334499971670e-01
9.394100000000000250e+01 3.879399999999999693e+01 2.319900000000000162e+01 -1.700845999999999947e+01 -2.423956723341021136e-02
9.398900000000000432e+01 2.705099999999999838e+01 2.379799999999999827e+01 1.789860999999999924e+00 -1.761343238029428881e-01
9.400100000000000477e+01 2.729599999999999937e+01 2.295200000000000173e+01 1.205513999999999974e+00 -1.760745292255891103e-01
9.400600000000000023e+01 3.411999999999999744e+01 1.840399999999999991e+01 4.135493000000000086e-01 -1.293598504463229215e-01
9.401600000000000534e+01 3.007999999999999829e+01 2.136700000000000088e+01 1.055410000000000004e+01 -2.515590245909419403e-02
9.403600000000000136e+01 3.631900000000000261e+01 1.894300000000000139e+01 3.755158999999999914e+00 -1.324633488281394267e-01
9.404699999999999704e+01 2.837800000000000011e+01 2.472800000000000153e+01 1.151530999999999949e+01 -1.760282711338172490e-01
9.405700000000000216e+01 3.449900000000000233e+01 2.665700000000000003e+01 6.783619999999999983e+00 -1.408233334224422151e-02
9.408499999999999375e+01 3.603399999999999892e+01 2.632499999999999929e+01 -5.403081000000000245e+00 -1.775426713440140733e-02
9.408599999999999852e+01 3.942699999999999960e+01 2.119500000000000028e+01 -1.781700999999999979e+01 -4.374163476685054286e-02
9.408700000000000330e+01 2.937000000000000099e+01 2.547700000000000031e+01 -3.914032999999999873e+00 -1.731045859217523464e-01
9.412199999999999989e+01 3.165099999999999980e+01 1.986899999999999977e+01 9.276929000000000869e+00 -3.158744796080944356e-02
9.413400000000000034e+01 3.307000000000000028e+01 1.886700000000000088e+01 3.466650000000000009e+00 -3.583155820033748912e-02
9.414700000000000557e+01 3.235499999999999687e+01 2.631599999999999895e+01 -7.698732999999999826e+00 -1.752927033380056732e-01
9.415099999999999625e+01 2.817699999999999960e+01 2.164699999999999847e+01 -3.257762000000000158e-01 -1.764827056957469498e-01
9.416100000000000136e+01 3.546699999999999875e+01 1.860500000000000043e+01 5.841123999999999761e-01 -1.310786775949378535e-01
9.416500000000000625e+01 3.070400000000000063e+01 2.618400000000000105e+01 -3.476129000000000246e+01 -1.746553164265147173e-01
9.417000000000000171e+01 2.907700000000000173e+01 2.471999999999999886e+01 9.762422000000000821e+00 -1.762551496639944426e-01
9.419100000000000250e+01 3.748799999999999955e+01 1.951599999999999824e+01 1.704449999999999932e+01 -1.341040528372894614e-01
9.420900000000000318e+01 3.922599999999999909e+01 2.249899999999999878e+01 -3.185215000000000174e+01 -4.281611537326489303e-02
9.422199999999999420e+01 2.780799999999999983e+01 2.249699999999999989e+01 4.603472000000000008e+00 -1.765079556106385339e-01
9.424299999999999500e+01 2.794500000000000028e+01 2.379799999999999827e+01 1.275256000000000078e+01 -1.764458463704275393e-01
9.425799999999999557e+01 3.758800000000000097e+01 2.448699999999999832e+01 6.597570000000000157e+00 -2.141992593767470809e-02
9.426300000000000523e+01 3.520600000000000307e+01 2.651999999999999957e+01 1.536619999999999919e+01 -1.567051583882376684e-02
9.432399999999999807e+01 2.819800000000000040e+01 2.331200000000000117e+01 9.732411000000000811e+00 -1.765553091629178950e-01
9.432500000000000284e+01 2.851500000000000057e+01 2.428300000000000125e+01 1.095223999999999975e+01 -1.765812116310657154e-01
9.436400000000000432e+01 3.117000000000000171e+01 2.061100000000000065e+01 1.859931999999999919e+00 -2.913906175995316719e-02
9.440800000000000125e+01 3.849399999999999977e+01 2.332799999999999940e+01 3.242598000000000091e+00 -2.326616793510023068e-02
9.441299999999999670e+01 2.964699999999999847e+01 2.185800000000000054e+01 1.392027999999999999e+01 -1.768023024313025160e-01
9.444899999999999807e+01 3.078000000000000114e+01 2.110000000000000142e+01 3.723338000000000036e+00 -2.733039442399715774e-02
9.448300000000000409e+01 3.372599999999999909e+01 2.690599999999999881e+01 -1.182601999999999975e+01 -1.769802230358750172e-01
9.449399999999999977e+01 3.678799999999999670e+01 1.945700000000000074e+01 5.222164000000000250e+00 -4.092552439991557767e-02
9.449399999999999977e+01 3.818800000000000239e+01 1.945700000000000074e+01 1.012399000000000049e+00 -1.343778063601719919e-01
9.451600000000000534e+01 3.655899999999999750e+01 2.566799999999999926e+01 1.691856999999999944e+00 -1.871145925455117848e-02
9.452599999999999625e+01 3.605799999999999983e+01 1.883099999999999952e+01 5.793606000000000034e-01 -1.317327258596399375e-01
9.453300000000000125e+01 2.893400000000000105e+01 2.331200000000000117e+01 2.739292000000000016e+01 -1.768953487805517422e-01
9.453400000000000603e+01 2.925100000000000122e+01 2.428300000000000125e+01 1.577425000000000033e+01 -1.769643187714265709e-01
9.454300000000000637e+01 3.278699999999999903e+01 2.680699999999999861e+01 -4.749693999999999861e+00 -1.767016777094910229e-01
9.454999999999999716e+01 3.010699999999999932e+01 2.579400000000000048e+01 -1.711510000000000176e+01 -1.747597813157946989e-01
9.456499999999999773e+01 3.940100000000000335e+01 2.171399999999999864e+01 -3.200823000000000196e+00 -4.296908053286653539e-02
9.458100000000000307e+01 3.143799999999999883e+01 2.618100000000000094e+01 -8.596958000000000766e+00 -1.756085276135483930e-01
9.458599999999999852e+01 2.862099999999999866e+01 2.252599999999999980e+01 1.826248000000000005e+01 -1.771096147656633368e-01
9.460299999999999443e+01 2.977700000000000102e+01 2.498699999999999832e+01 -4.936225000000000307e+00 -1.736788790491865242e-01
9.461199999999999477e+01 3.473700000000000188e+01 1.832600000000000051e+01 -7.627483999999999931e-01 -3.869076611312852881e-02
9.464100000000000534e+01 3.873499999999999943e+01 2.289600000000000080e+01 -1.134604000000000029e-01 -2.359555752035484219e-02
9.466899999999999693e+01 3.247800000000000153e+01 1.947800000000000153e+01 4.797509999999999941e+00 -3.339068805850858163e-02
9.471599999999999397e+01 3.034700000000000131e+01 2.180000000000000071e+01 1.485383999999999993e+01 -1.773834474632003111e-01
9.471699999999999875e+01 3.594100000000000250e+01 2.607900000000000063e+01 1.870176000000000016e+01 -1.709121558085235915e-02
9.475000000000000000e+01 3.921399999999999864e+01 2.012500000000000000e+01 5.325662999999999592e+00 -1.356651550845291709e-01
9.476600000000000534e+01 3.464500000000000313e+01 2.682199999999999918e+01 -4.406705000000000205e-01 -1.774995056894797529e-01
