5.709100000000000108e+01 1.376900000000000013e+01 2.862800000000000011e+01 2.604932999999999943e+00 -2.748480981483871766e-01
5.709199999999999875e+01 9.225500000000000256e+00 3.502799999999999869e+01 -1.652077999999999847e+01 -2.746534287803611418e-01
5.709300000000000352e+01 1.579299999999999926e+01 1.440199999999999925e+01 -1.735929999999999973e+00 -2.757540738006824532e-01
5.709799999999999898e+01 2.256299999999999883e+01 -6.185900000000000176e+00 1.509770999999999930e+01 -1.626346927055924707e-01
5.710399999999999920e+01 4.280000000000000249e+00 2.808399999999999963e+01 2.769177000000000000e+00 -2.749726034982943879e-01
5.710399999999999920e+01 5.470900000000000318e+00 2.874800000000000111e+01 -1.464188000000000045e+01 -2.749417878973668961e-01
5.710600000000000165e+01 2.305499999999999972e+01 -1.042599999999999971e+00 1.263595999999999941e+00 -2.772972520290674092e-01
5.711200000000000188e+01 2.516999999999999904e+00 2.804100000000000037e+01 -2.928150000000000031e+00 -2.749741230996954333e-01
5.711500000000000199e+01 1.118900000000000006e+01 1.372600000000000087e+01 -2.100353999999999832e+00 -2.757534013010910501e-01
5.711500000000000199e+01 1.237899999999999956e+01 1.439000000000000057e+01 -3.518005000000000049e+00 -2.757269971342717896e-01
5.711500000000000199e+01 1.501699999999999946e+01 1.439000000000000057e+01 1.474747000000000030e+00 -2.757474436348048008e-01
5.711599999999999966e+01 1.109900000000000020e+01 4.590299999999999869e+01 -1.983538000000000023e+00 -2.742724896832303694e-01
5.711800000000000210e+01 2.361899999999999977e+01 4.205100000000000193e+01 -3.280290000000000150e-01 -1.556952600462055136e-01
5.712100000000000222e+01 2.800400000000000134e+01 -1.862900000000000000e+00 2.523435000000000095e+00 -2.774383242390990878e-01
5.712299999999999756e+01 8.546300000000000452e+00 1.002599999999999980e+01 -1.146535000000000082e+00 -2.758973876060417108e-01
5.712500000000000000e+01 3.369400000000000261e+01 -2.369600000000000151e+01 -1.668655000000000044e+01 -2.866989104334004557e-01
5.712700000000000244e+01 2.473000000000000043e+01 2.855099999999999838e+01 4.610822999999999894e+01 -2.743864628233134706e-01
5.712700000000000244e+01 2.567800000000000082e+01 2.855099999999999838e+01 3.300560000000000116e+01 -2.743224570079286773e-01
5.712700000000000244e+01 4.020199999999999818e+01 -1.570899999999999963e+01 -1.026248000000000005e+01 -8.270021296123300503e-02
5.712800000000000011e+01 2.409799999999999898e+01 3.813300000000000267e+01 1.251481000000000066e+01 -1.552026208800135199e-01
5.712800000000000011e+01 2.240099999999999980e+01 1.441499999999999915e+01 -3.873660000000000103e+00 -2.756024295382294431e-01
5.713100000000000023e+01 1.943299999999999983e+01 -1.252200000000000024e+01 4.173413999999999735e-01 -1.641284815791717866e-01
5.713400000000000034e+01 2.895400000000000063e+01 -2.241600000000000037e+01 7.525155999999999512e-01 -2.899314335334765569e-01
5.713700000000000045e+01 3.677900000000000347e+01 -9.506600000000000605e+00 -7.748132000000000019e+00 3.974276115621608318e-02
5.713700000000000045e+01 3.037300000000000111e+01 -2.295499999999999829e+01 1.295766999999999891e+00 -2.891004711148092987e-01
5.713799999999999812e+01 1.817899999999999849e+01 1.357399999999999984e+01 2.347304999999999975e+00 -2.758004814122995696e-01
5.713900000000000290e+01 2.546199999999999974e+01 -2.137099999999999866e+01 -4.083425000000000082e+00 -2.903422211176776568e-01
5.714000000000000057e+01 1.906500000000000128e+01 -1.418900000000000006e+01 -3.299240999999999868e+00 -1.644036936101106461e-01
5.714300000000000068e+01 2.404100000000000037e+01 -4.410300000000000331e+00 1.009023999999999965e+01 -1.619596840562503859e-01
5.714300000000000068e+01 -5.065999999999999837e+00 1.786100000000000065e+01 -2.313165000000000049e+01 -2.752477063325008411e-01
5.714699999999999847e+01 2.822899999999999920e+01 3.586099999999999710e+01 8.518959999999999866e+00 -2.462718025783335318e-01
5.714699999999999847e+01 2.146000000000000085e+01 1.277699999999999925e+01 5.542309999999999626e+00 -2.758099365363010369e-01
5.715699999999999648e+01 1.238400000000000056e-01 3.208800000000000097e+01 7.418307000000000428e+00 -2.748237708342617380e-01
5.715699999999999648e+01 1.096499999999999986e+01 4.497899999999999920e+01 -2.441730000000000178e+00 -2.742958353779392788e-01
5.715800000000000125e+01 2.322800000000000153e+01 3.666599999999999682e+01 -5.688082999999999778e+00 -2.741537622782634354e-01
5.715899999999999892e+01 4.327499999999999680e+00 1.086400000000000077e+01 5.777900999999999732e-01 -2.757168539853923073e-01
5.716299999999999670e+01 2.350900000000000034e+01 1.501600000000000001e+01 -4.245681000000000260e+00 -2.754615211122507512e-01
5.716599999999999682e+01 2.871399999999999864e+01 2.438400000000000034e+01 1.733620000000000161e+01 -2.742542370475826718e-01
5.716899999999999693e+01 3.286899999999999977e+01 -5.246100000000000207e+00 8.803290999999999755e+00 -2.756236190063655611e-01
5.716899999999999693e+01 3.286899999999999977e+01 -2.980900000000000105e+00 -8.168464000000000169e+00 -2.760184040360715296e-01
5.717099999999999937e+01 1.276900000000000013e+01 3.102599999999999980e+01 -9.224456999999999240e+00 -2.747435581959795092e-01
5.717099999999999937e+01 -3.234999999999999876e+00 8.258599999999999497e+00 8.989755000000000607e+00 -1.679636686242936272e-01
5.717300000000000182e+01 3.071399999999999864e+01 3.646099999999999852e+01 1.552312000000000047e+01 -2.601331415073672160e-01
5.717300000000000182e+01 3.226500000000000057e+01 3.690200000000000102e+01 1.012777999999999956e+01 -2.601086796755957553e-01
5.717300000000000182e+01 3.358400000000000318e+01 3.616700000000000159e+01 2.615356999999999843e+01 -2.600372230026127829e-01
5.717300000000000182e+01 3.381499999999999773e+01 3.535199999999999676e+01 1.154583999999999975e+02 -2.600588056690243954e-01
5.717600000000000193e+01 2.634499999999999886e+01 2.876800000000000068e+01 1.824765999999999977e+01 -2.742546288588710857e-01
5.717699999999999960e+01 2.394800000000000040e+00 9.785000000000000142e+00 2.306360999999999883e+00 -2.756917020787107431e-01
5.717699999999999960e+01 -4.062599999999999767e+00 1.784100000000000108e+01 -4.566049999999999898e+01 -2.752634706286365418e-01
5.717900000000000205e+01 -6.666299999999999670e+00 1.047199999999999953e+01 1.863372000000000028e+01 -2.753961975545049512e-01
5.717900000000000205e+01 1.100799999999999912e+01 2.731800000000000139e+01 1.157795999999999914e+01 -2.749490194719398373e-01
5.718099999999999739e+01 -6.016099999999999781e+00 2.429599999999999937e+01 -6.146232000000000362e-01 -2.750383705001198664e-01
5.718099999999999739e+01 -5.008899999999999686e+00 2.530300000000000082e+01 -2.717045000000000154e+00 -2.750187491027195619e-01
5.718299999999999983e+01 3.897200000000000131e+01 -1.821499999999999986e+01 -4.857748000000000066e-01 -1.901551656189636730e-01
5.718399999999999750e+01 2.517699999999999960e+01 1.434099999999999930e+00 4.644067999999999863e+00 -2.771187775969719547e-01
5.718599999999999994e+01 2.388500000000000156e+01 -2.076899999999999835e+01 -1.627839999999999954e+00 -2.896683606839249303e-01
5.718800000000000239e+01 5.283199999999999896e+00 9.711600000000000676e+00 -2.264467999999999925e+00 -2.757887801527169058e-01
5.718800000000000239e+01 3.130099999999999838e+01 -2.292399999999999949e+01 2.843869999999999898e+00 -2.888689208069387115e-01
5.719200000000000017e+01 3.599699999999999989e+01 -6.267699999999999605e+00 5.115262000000000420e+00 -2.698060409307122542e-01
5.719400000000000261e+01 1.369800000000000040e+01 1.468399999999999928e+01 9.767637000000000125e-01 -2.756980517967958511e-01
5.719500000000000028e+01 2.905199999999999960e+01 3.613100000000000023e+01 1.434047999999999945e+01 -2.598984796457480817e-01
5.719899999999999807e+01 3.290699999999999648e+01 -2.300300000000000011e+00 -1.057033999999999985e+01 -2.759563395098399985e-01
5.719899999999999807e+01 3.290699999999999648e+01 -1.249700000000000033e+00 -2.607057999999999875e+00 -2.759701479870264595e-01
5.720100000000000051e+01 2.898199999999999932e+01 3.214200000000000301e+01 1.703702000000000050e+00 -1.548095584719604012e-01
5.720199999999999818e+01 2.364900000000000091e+01 2.656800000000000139e+01 4.550140999999999991e+01 -2.745397417013365482e-01
5.720400000000000063e+01 2.285800000000000054e+01 2.948499999999999943e+01 3.900332000000000221e+01 -2.744398102612872758e-01
5.720400000000000063e+01 2.372400000000000020e+01 2.948499999999999943e+01 5.181277999999999651e+01 -2.743899347135875244e-01
5.720499999999999829e+01 1.078899999999999970e+01 4.403799999999999670e+01 8.503458999999999324e-02 -2.743204952610563963e-01
5.720499999999999829e+01 1.113400000000000034e+01 4.242600000000000193e+01 9.987394000000000549e-01 -2.743591307800620216e-01
5.720499999999999829e+01 2.792599999999999838e+01 3.516100000000000136e+01 9.268036999999999637e+01 -1.552541240267591438e-01
5.720799999999999841e+01 3.182400000000000162e+01 -2.279799999999999827e+01 6.890018000000000420e+00 -2.888507171767419335e-01
5.721000000000000085e+01 -6.379500000000000171e+00 2.348300000000000054e+01 -5.782614000000000365e-01 -2.750550184058699887e-01
5.721099999999999852e+01 -3.112600000000000089e-02 3.470900000000000318e+01 -9.555595999999999535e+00 -2.747333394284966479e-01
5.721300000000000097e+01 2.863899999999999935e+01 2.760699999999999932e+01 6.197648999999999830e+01 -2.741093096060462919e-01
5.721300000000000097e+01 2.995799999999999841e+01 2.524200000000000088e+01 2.567613000000000056e+01 -2.740740228687154612e-01
5.721300000000000097e+01 2.995799999999999841e+01 2.687199999999999989e+01 6.288154999999999717e+01 -2.740136831039202137e-01
5.721300000000000097e+01 3.018900000000000006e+01 2.605699999999999861e+01 2.086388000000000176e+01 -2.740192372637982321e-01
5.721399999999999864e+01 2.354600000000000026e+00 8.943500000000000227e+00 2.063340000000000174e+00 -2.757120475495041800e-01
5.721600000000000108e+01 2.455699999999999861e+01 1.835699999999999932e+01 1.623361999999999838e+01 -2.750406365378766926e-01
5.721699999999999875e+01 2.014000000000000057e+01 -1.025500000000000078e+01 2.853339000000000070e+00 -1.636618431942775120e-01
5.721699999999999875e+01 2.284600000000000009e+01 -5.188799999999999635e+00 8.930099999999999483e+00 -1.624791877796803452e-01
5.721800000000000352e+01 4.630899999999999572e+00 1.016399999999999970e+01 -8.344869999999999788e-01 -2.757432308265167498e-01
5.721800000000000352e+01 2.698999999999999844e+01 3.756799999999999784e+01 -3.134826999999999941e+01 -1.555233029079201301e-01
5.722099999999999653e+01 1.376900000000000013e+01 3.017999999999999972e+01 -8.496313000000000670e+00 -2.747525358466046397e-01
5.722099999999999653e+01 1.397799999999999976e+01 2.944399999999999906e+01 -2.421000999999999959e+00 -2.747825000749737900e-01
5.722099999999999653e+01 1.912199999999999989e+01 -1.311100000000000065e+01 1.756340999999999930e+00 -1.642336253264878865e-01
5.722299999999999898e+01 2.677599999999999980e+01 -1.012599999999999945e+00 5.492116000000000220e+00 -2.772920404638491432e-01
5.722599999999999909e+01 1.901100000000000012e+00 8.650100000000000122e+00 6.036381999999999692e+00 -2.757036842927165776e-01
5.722800000000000153e+01 2.380199999999999960e+01 5.133299999999999530e-01 2.100712000000000135e+00 -2.771344417545781313e-01
5.722800000000000153e+01 2.655199999999999960e+01 5.133299999999999530e-01 1.004654000000000025e+01 -2.771622665646259476e-01
5.722999999999999687e+01 1.227800000000000002e+00 3.175100000000000122e+01 2.925692000000000181e+00 -2.748262121613607167e-01
5.723599999999999710e+01 3.462199999999999989e+01 -5.346899999999999764e+00 2.211364999999999981e+01 -2.732203789967692087e-01
5.723700000000000188e+01 2.051200000000000045e+01 4.715299999999999869e+01 -1.490452999999999939e+01 -1.559217734838182490e-01
5.723700000000000188e+01 2.062800000000000011e+01 4.555599999999999739e+01 7.091967999999999606e+00 -1.557721504646515931e-01
5.723700000000000188e+01 2.073900000000000077e+01 4.635399999999999920e+01 -3.616725999999999885e+01 -1.558656165956297801e-01
5.723700000000000188e+01 2.083699999999999974e+01 4.482000000000000028e+01 1.216911999999999949e+01 -1.557143990486213603e-01
5.723799999999999955e+01 2.251599999999999824e+01 2.732700000000000173e+01 5.044713000000000136e+01 -2.745591560321074542e-01
5.724000000000000199e+01 3.767799999999999727e+01 -2.281299999999999883e+01 -4.352335000000000065e+01 -2.845578620856920038e-01
5.724900000000000233e+01 1.787699999999999889e+01 -1.611899999999999977e+01 4.796086999999999989e-01 -1.648851407962066418e-01
5.724900000000000233e+01 1.363100000000000023e+01 6.850199999999999623e-01 5.396338000000000079e+00 -1.659783537034796586e-01
5.724900000000000233e+01 1.363100000000000023e+01 3.193000000000000060e+00 1.137127000000000088e+01 -2.764231414441372103e-01
5.724900000000000233e+01 1.518099999999999916e+01 6.850199999999999623e-01 1.229297000000000040e+01 -1.656957069510032743e-01
5.724900000000000233e+01 1.518099999999999916e+01 3.193000000000000060e+00 4.353244999999999720e+01 -2.765074888307093581e-01
5.724900000000000233e+01 5.600299999999999834e+00 8.849800000000000111e+00 -5.735032999999999603e+00 -2.758219114626929147e-01
5.725300000000000011e+01 2.290399999999999991e+01 -2.759300000000000086e+00 4.611137000000000263e+00 -1.627887325161223031e-01
5.725300000000000011e+01 2.290399999999999991e+01 -1.708700000000000108e+00 1.272140000000000049e+00 -2.771941699697511585e-01
5.725699999999999790e+01 2.257999999999999829e+01 4.315400000000000347e+01 1.255878000000000050e+01 -1.557141284994380537e-01
5.725800000000000267e+01 2.375799999999999912e+01 4.145300000000000296e+01 1.529396000000000022e+01 -1.556427599949175566e-01
5.725900000000000034e+01 2.605900000000000105e+01 3.523499999999999943e+01 1.203171999999999908e+00 -1.549791396844664715e-01
5.725999999999999801e+01 2.026300000000000168e+01 -9.724899999999999878e+00 5.066970999999999670e+00 -1.635626938365289662e-01
5.726100000000000279e+01 3.163800000000000168e+01 -2.333500000000000019e-01 5.654478000000000115e+00 -2.763887640984602490e-01
5.726599999999999824e+01 -6.289399999999999658e+00 1.001200000000000045e+01 9.803254000000000801e+00 -2.754060440790201403e-01
5.726599999999999824e+01 -6.080300000000000260e+00 9.275900000000000034e+00 5.831618999999999886e+00 -1.681074400816636172e-01
5.727000000000000313e+01 3.972800000000000153e+01 -1.494100000000000072e+01 -5.957075999999999816e+00 -8.257336857480286618e-02
5.727199999999999847e+01 -5.284399999999999764e+00 1.955999999999999872e+01 -1.566929999999999934e+00 -2.751793287902150054e-01
5.727900000000000347e+01 2.087000000000000188e+00 3.610300000000000153e+01 1.225488000000000000e+02 -2.746724243428303458e-01
5.728499999999999659e+01 2.622800000000000153e+01 2.944200000000000017e+01 3.507368999999999915e+01 -2.742117205022851500e-01
5.728999999999999915e+01 2.488800000000000168e+01 2.735000000000000142e+01 4.015350000000000108e+01 -2.743971532955495896e-01
5.729200000000000159e+01 -5.997899999999999565e+00 1.686100000000000065e+01 -4.257732000000000183e-01 -2.752410021169529597e-01
5.729299999999999926e+01 3.579200000000000159e+01 -2.451599999999999824e+01 -3.967369000000000145e+00 -2.835275687224697583e-01
5.729500000000000171e+01 1.819999999999999929e+01 -1.530400000000000027e+01 1.005381999999999998e+00 -1.646901881131434264e-01
5.729500000000000171e+01 2.492599999999999838e+01 3.447599999999999909e+01 -1.791779000000000011e+00 -1.546734342890164760e-01
5.729599999999999937e+01 2.269200000000000017e+01 -2.035399999999999920e+01 4.466882999999999826e-01 -2.892686590706884386e-01
5.729800000000000182e+01 2.688400000000000034e+01 2.289300000000000068e+01 6.729715999999999809e+00 -2.744742729083134991e-01
5.729999999999999716e+01 -4.745000000000000107e+00 2.602100000000000080e+01 -2.946035000000000181e+00 -2.749873534097760919e-01
5.729999999999999716e+01 1.248499999999999943e+01 4.685000000000000142e+01 -1.520486000000000004e+01 -2.742036810596909513e-01
5.730199999999999960e+01 2.453000000000000114e+01 3.994200000000000017e+01 -9.058488999999999791e+00 -1.555383550853585151e-01
5.730700000000000216e+01 -9.766700000000000381e-01 2.614600000000000080e+01 2.281717000000000084e+01 -2.750099647517447732e-01
5.730799999999999983e+01 3.719400000000000261e+01 -1.000099999999999945e+01 7.154196999999999917e+00 -1.594902054926574109e-01
5.731199999999999761e+01 5.325000000000000178e+00 8.243999999999999773e+00 -2.162513999999999825e+00 -2.758224758569655100e-01
5.731400000000000006e+01 5.961299999999999599e+00 2.952199999999999847e+01 -2.527388999999999886e+00 -2.748809893222909917e-01
5.731499999999999773e+01 2.693700000000000117e+01 -2.128900000000000148e+01 -2.542830999999999975e+01 -2.909659412045357829e-01
5.731799999999999784e+01 6.307999999999999829e+00 3.042399999999999949e+01 6.407800000000000162e-01 -2.748415040785373020e-01
5.731799999999999784e+01 2.616299999999999848e+00 1.229599999999999937e+01 -3.457742999999999789e+00 -2.755833462289661862e-01
5.731900000000000261e+01 2.908999999999999986e+01 -9.333200000000000385e-01 1.673008000000000051e+00 -2.769863270719670201e-01
5.731900000000000261e+01 3.341000000000000192e+00 3.430499999999999972e+01 -1.042267999999999972e+00 -2.747196139336615661e-01
5.731900000000000261e+01 3.341000000000000192e+00 3.526299999999999812e+01 1.478088999999999942e+01 -2.746872520542095186e-01
5.732300000000000040e+01 3.151899999999999835e+01 3.264300000000000068e+01 -6.586940999999999491e-01 -2.465149265214173491e-01
5.732300000000000040e+01 3.245900000000000318e+01 3.264300000000000068e+01 -6.868865000000000443e+00 -2.601328045920414112e-01
5.732300000000000040e+01 2.101999999999999957e+01 -8.913199999999999790e+00 1.483583999999999925e+01 -1.631747312494506719e-01
5.732399999999999807e+01 -2.189000000000000057e+00 2.469200000000000017e+01 1.772306000000000026e+01 -2.750493045967505323e-01
5.732699999999999818e+01 9.866199999999999193e+00 3.707000000000000028e+01 2.449571000000000165e+00 -2.745420473972179365e-01
5.732699999999999818e+01 7.330400000000000249e-01 3.532800000000000296e+01 2.262789999999999857e+00 -2.747000268604885553e-01
5.732800000000000296e+01 1.103400000000000070e+01 4.053300000000000125e+01 -2.799450999999999912e+00 -2.744057424334228612e-01
5.733400000000000318e+01 1.916600000000000037e+01 -1.716300000000000026e+01 -3.192305000000000170e+00 -1.824209690899520342e-01
5.733500000000000085e+01 7.090499999999999581e-01 2.642000000000000171e+01 1.989713000000000065e+01 -2.750051876799984307e-01
5.733599999999999852e+01 2.475600000000000023e+00 3.214300000000000068e+01 2.017627000000000059e+00 -2.747976244158796821e-01
5.733700000000000330e+01 1.989999999999999858e+01 -1.792200000000000060e+01 -2.731441000000000008e-01 -1.825298281386034671e-01
5.733700000000000330e+01 6.323500000000000121e+00 3.148900000000000077e+01 5.421253000000000100e+00 -2.747969241257929296e-01
5.733800000000000097e+01 -3.725000000000000089e+00 1.682999999999999829e+01 -1.124699000000000026e+01 -2.752814586287010146e-01
5.733899999999999864e+01 -2.697400000000000020e+00 8.056499999999999773e+00 9.574578000000000699e+00 -1.679045261336825356e-01
5.734300000000000352e+01 6.637299999999999756e+00 8.761699999999999378e+00 -2.023849999999999927e+00 -2.758417394000493572e-01
5.734300000000000352e+01 -4.568699999999999761e+00 2.690500000000000114e+01 -1.493740000000000023e+01 -2.749574653373253463e-01
5.734300000000000352e+01 -2.109300000000000175e+00 2.690500000000000114e+01 8.341530000000000555e+00 -2.749736804413717151e-01
5.734700000000000131e+01 -1.264000000000000012e+00 7.299900000000000055e+00 2.359075999999999951e+00 -1.678007775024158432e-01
5.734799999999999898e+01 -4.746800000000000352e+00 8.272199999999999775e+00 4.872411999999999743e+00 -1.680072939356296036e-01
5.734899999999999665e+01 1.854899999999999949e+01 4.806499999999999773e+01 9.897624999999999895e-01 -1.558271851271478825e-01
5.735399999999999920e+01 2.342999999999999972e+01 3.599199999999999733e+01 -1.614945000000000164e+01 -2.741356148677732696e-01
5.735399999999999920e+01 4.100099999999999767e+01 -1.570899999999999963e+01 -4.576672000000000295e+00 -8.257418303262085979e-02
5.735399999999999920e+01 1.483600000000000030e+00 1.067200000000000060e+01 7.411158999999999608e+00 -2.756029301325276792e-01
5.735399999999999920e+01 1.483600000000000030e+00 1.153800000000000026e+01 -3.750646999999999842e+00 -2.755735789625678445e-01
5.735399999999999920e+01 3.748899999999999899e+00 1.153800000000000026e+01 2.846319999999999961e+00 -2.756371639837894016e-01
5.736599999999999966e+01 2.427400000000000091e+01 4.071800000000000352e+01 1.229261999999999944e+01 -1.556156160556696200e-01
5.736699999999999733e+01 2.673600000000000065e+01 3.042000000000000171e+01 4.614424000000000348e+01 -2.741217744681027080e-01
5.736999999999999744e+01 2.127599999999999980e+01 -1.952400000000000091e+01 5.235619999999999719e-01 -1.832048951108543045e-01
5.736999999999999744e+01 2.282600000000000051e+01 -7.675699999999999967e+00 1.268163999999999980e+01 -1.622206279102886284e-01
5.736999999999999744e+01 2.282600000000000051e+01 -6.810399999999999565e+00 1.201388000000000034e+01 -1.622451850857181965e-01
5.737299999999999756e+01 2.348699999999999832e+01 -3.425699999999999856e-01 -4.981734999999999913e-01 -2.770593879032492435e-01
5.737400000000000233e+01 3.768599999999999994e+01 -1.023399999999999999e+01 7.154196999999999917e+00 3.020656805037896797e-02
5.737700000000000244e+01 3.608200000000000074e+01 -7.879999999999999893e+00 1.369772000000000034e+01 5.191881772211891233e-02
5.738100000000000023e+01 1.014199999999999946e+01 3.005099999999999838e+01 2.603826000000000107e+01 -2.748050650179514887e-01
5.738199999999999790e+01 -3.338999999999999968e+00 2.772800000000000153e+01 -5.524052999999999969e+01 -2.749360178627183737e-01
5.738300000000000267e+01 2.301399999999999935e+01 3.739200000000000301e+01 1.418524000000000029e+01 -1.549610772426233962e-01
5.738600000000000279e+01 1.658700000000000063e+00 9.785000000000000142e+00 5.452659999999999840e+00 -2.756319927486877153e-01
5.738600000000000279e+01 -3.326600000000000001e+00 1.784100000000000108e+01 -3.237210000000000321e+01 -2.752519957199563438e-01
5.739399999999999835e+01 2.155000000000000071e+01 4.398400000000000176e+01 2.778444000000000003e+01 -1.557026058616722830e-01
5.739399999999999835e+01 9.888999999999999346e+00 3.873199999999999932e+01 6.423184000000000005e+00 -2.744785332681923817e-01
5.739399999999999835e+01 2.520400000000000063e+01 2.925100000000000122e+01 4.561307000000000045e+01 -2.742672580906265756e-01
5.739399999999999835e+01 2.610999999999999943e+01 2.785099999999999909e+01 2.284476000000000084e+01 -2.742622065900770512e-01
5.739600000000000080e+01 -8.614300000000000068e+00 1.432900000000000063e+01 1.421235000000000070e+01 -2.752377210867886226e-01
5.739600000000000080e+01 -8.614300000000000068e+00 1.537899999999999956e+01 6.239149000000000278e+00 -2.752136371184696895e-01
5.739900000000000091e+01 4.012599999999999767e+01 -1.342200000000000060e+01 -1.035012999999999961e+00 -6.863717822365315684e-03
5.740299999999999869e+01 1.656599999999999895e+01 1.436200000000000010e+01 9.200121999999999467e-01 -2.756618315514443029e-01
5.740699999999999648e+01 2.458699999999999974e+01 3.898899999999999721e+01 2.257126999999999839e+01 -1.554130477891325079e-01
5.741100000000000136e+01 -5.498700000000000365e+00 1.716100000000000136e+01 -7.741261999999999865e+00 -2.752289380336464530e-01
5.741199999999999903e+01 2.799800000000000111e+01 3.147500000000000142e+01 4.942571000000000048e+00 -1.544937207207072449e-01
5.741299999999999670e+01 2.516499999999999915e+01 -5.067400000000000126e+00 6.021921999999999997e+00 -1.608509379522277405e-01
5.741299999999999670e+01 2.516499999999999915e+01 -3.667400000000000215e+00 8.029301999999999495e+00 -1.611276312753904816e-01
5.741700000000000159e+01 4.067199999999999704e+01 -1.646900000000000119e+01 -3.426756999999999831e+00 -8.262771995342996223e-02
5.741700000000000159e+01 4.067199999999999704e+01 -1.494899999999999984e+01 -1.068838000000000044e+01 -8.246236944854709594e-02
5.741799999999999926e+01 1.128400000000000070e+01 4.099099999999999966e+01 -5.109379999999999811e+00 -2.743774481434127499e-01
5.742000000000000171e+01 2.362300000000000111e+01 -2.038400000000000034e+01 -1.627839999999999954e+00 -2.895269419477510819e-01
5.742300000000000182e+01 2.621300000000000097e+01 -3.000900000000000123e+00 4.272084999999999688e+00 -2.771267519391990009e-01
5.742300000000000182e+01 2.707799999999999940e+01 -3.000900000000000123e+00 4.126469000000000165e+00 -2.770939681550577682e-01
5.742300000000000182e+01 1.374000000000000110e+00 8.979300000000000281e+00 9.252124000000000237e+00 -2.756419144852269021e-01
5.742399999999999949e+01 2.222200000000000131e+01 2.874599999999999866e+01 3.605702999999999747e+01 -2.744659284886640793e-01
5.742499999999999716e+01 2.386100000000000065e+01 3.538400000000000034e+01 -2.983397000000000077e+01 -2.741216382028621168e-01
5.742499999999999716e+01 1.095500000000000007e+01 1.250300000000000011e+01 -1.060623000000000005e+01 -2.757494317359502345e-01
5.742699999999999960e+01 3.894899999999999807e+00 1.016399999999999970e+01 -1.164560999999999957e+00 -2.756805501390190982e-01
5.743200000000000216e+01 2.424200000000000088e+01 2.974800000000000111e+01 4.953737999999999886e+01 -2.743010487659024443e-01
5.743399999999999750e+01 6.141099999999999781e+00 8.214600000000000790e+00 -8.833781000000000549e-01 -2.758268842805675636e-01
5.743800000000000239e+01 9.911500000000000199e+00 2.928000000000000114e+01 2.249555000000000149e+01 -2.748344419924705906e-01
5.744100000000000250e+01 2.331700000000000017e+01 3.809199999999999875e+01 2.235651999999999973e+01 -1.551146369104216549e-01
5.744299999999999784e+01 2.677799999999999869e+01 2.806800000000000139e+01 1.816591000000000022e+01 -2.741908076897899837e-01
5.744400000000000261e+01 -3.629999999999999893e+00 1.854100000000000037e+01 -2.483896999999999977e+01 -2.752179946033281865e-01
5.744500000000000028e+01 2.798699999999999832e+01 2.384900000000000020e+01 1.290151000000000003e+01 -2.742714952292283348e-01
5.744599999999999795e+01 4.490700000000000358e+00 9.702899999999999636e+00 -1.304661999999999988e+00 -2.757126279552203352e-01
5.744599999999999795e+01 2.698999999999999844e+01 3.484199999999999875e+01 3.228938000000000130e+01 -1.550582370142944699e-01
5.745000000000000284e+01 2.659499999999999886e+01 -5.719999999999999751e+00 8.404795999999999268e+00 -1.595111559664778578e-01
5.745000000000000284e+01 2.746099999999999852e+01 -5.719999999999999751e+00 8.585445999999999245e+00 -1.586408193696733082e-01
5.745199999999999818e+01 -8.644899999999999807e+00 1.253500000000000014e+01 6.782259999999999422e+01 -2.752701150505613148e-01
5.745300000000000296e+01 9.809799999999999187e+00 3.597299999999999898e+01 1.027873999999999954e+00 -2.745674673722905967e-01
5.745700000000000074e+01 3.712100000000000222e+01 -2.337000000000000099e+01 -1.078580000000000005e+01 -2.840218551624581478e-01
5.746099999999999852e+01 3.285300000000000153e+01 3.335499999999999687e+01 -3.627465000000000117e+01 -2.602835481662522654e-01
5.746399999999999864e+01 4.003399999999999892e+01 -1.083699999999999974e+01 4.272657999999999845e+00 2.318834361268241190e-02
5.746500000000000341e+01 3.366000000000000103e+00 9.762999999999999901e+00 -1.009819000000000022e+00 -2.756718601628461718e-01
5.746600000000000108e+01 1.714499999999999957e+01 4.820400000000000063e+01 9.716549999999999798e+00 -1.557215954327565433e-01
5.746600000000000108e+01 1.833299999999999841e+01 -1.701899999999999835e+01 -1.883660000000000057e-01 -1.824919967675030785e-01
5.746999999999999886e+01 -4.528400000000000425e+00 1.706299999999999883e+01 -4.171726999999999919e+01 -2.752432564224003841e-01
5.747200000000000131e+01 2.486100000000000065e+01 -4.367399999999999949e+00 8.910028000000000503e+00 -1.611396307456943178e-01
5.747200000000000131e+01 1.393900000000000006e+01 4.800800000000000267e+01 1.201478999999999964e+01 -2.741287474703613669e-01
5.747399999999999665e+01 2.739399999999999835e+01 -3.761200000000000099e+00 4.410061999999999927e+00 -2.769924825435442495e-01
5.747599999999999909e+01 4.036800000000000210e+01 -1.424900000000000055e+01 -4.697313000000000294e+00 -2.020481173614435966e-01
5.748400000000000176e+01 2.327799999999999869e+01 -4.488800000000000345e+00 7.383327999999999669e+00 -1.621162412329209546e-01
5.748400000000000176e+01 2.327799999999999869e+01 -3.623499999999999943e+00 4.932717000000000240e+00 -1.622546721367535416e-01
5.748499999999999943e+01 -4.731600000000000250e+00 1.869300000000000139e+01 -1.418668000000000085e+01 -2.751901898527592261e-01
5.748599999999999710e+01 9.210599999999999454e+00 1.030599999999999916e+01 1.207273999999999958e+00 -2.758173291263451565e-01
5.748599999999999710e+01 1.043599999999999994e+01 1.115099999999999980e+01 -6.156125000000000291e+00 -2.758024854990110963e-01
5.748799999999999955e+01 -8.325100000000000833e+00 1.353500000000000014e+01 2.128282000000000096e+01 -2.752520094608320034e-01
5.749000000000000199e+01 3.000499999999999901e+01 3.322500000000000142e+01 1.188095999999999997e+01 -2.462868634182613925e-01
5.749000000000000199e+01 3.000499999999999901e+01 3.611699999999999733e+01 2.767710999999999899e+01 -2.600701113461339475e-01
5.749499999999999744e+01 9.889499999999999957e+00 2.837900000000000134e+01 5.009114999999999895e+01 -2.748669359022048453e-01
5.749699999999999989e+01 1.299799999999999933e+01 1.462599999999999945e+01 -6.663263000000000380e-01 -2.756201157994526141e-01
5.749699999999999989e+01 1.439799999999999969e+01 1.462599999999999945e+01 1.384706999999999910e+00 -2.756232914876978746e-01
5.750000000000000000e+01 -1.745800000000000018e+00 2.620400000000000063e+01 1.337030000000000030e+02 -2.749824157964854687e-01
5.750200000000000244e+01 2.171900000000000119e+01 -8.688900000000000290e+00 1.813233999999999924e+01 -1.627187046064550446e-01
5.750399999999999778e+01 4.794100000000000250e+00 9.002900000000000347e+00 -1.778501000000000110e+00 -2.757371235843416590e-01
5.750600000000000023e+01 2.294900000000000162e+01 2.662699999999999889e+01 4.928204999999999814e+01 -2.745111041757591908e-01
5.750600000000000023e+01 2.434900000000000020e+01 2.662699999999999889e+01 4.269740999999999786e+01 -2.744199380081578932e-01
5.750800000000000267e+01 2.776399999999999935e+01 -5.019999999999999574e+00 7.332581000000000238e+00 -1.583944990910491346e-01
5.750800000000000267e+01 2.224099999999999966e+01 2.766900000000000048e+01 5.560531000000000290e+01 -2.744997279676754109e-01
5.751100000000000279e+01 3.252400000000000091e+01 -2.285600000000000165e+01 2.083505000000000162e+00 -2.885787174848067349e-01
5.751100000000000279e+01 4.028900000000000148e+01 -1.277500000000000036e+01 -1.976264000000000021e+00 -1.566642047542368948e-03
5.751200000000000045e+01 -4.049800000000000066e-01 3.291899999999999693e+01 6.579875000000000362e+00 -2.747627094451389196e-01
5.751299999999999812e+01 2.021900000000000119e+01 1.225200000000000067e+01 2.958781000000000105e+00 -2.757510632593227484e-01
5.751400000000000290e+01 4.016499999999999915e+01 -1.716300000000000026e+01 -1.316384999999999916e+00 -1.963080231427593580e-01
5.751500000000000057e+01 8.030400000000000205e+00 9.588699999999999335e+00 -2.377219000000000193e+00 -2.758118201538967140e-01
5.751800000000000068e+01 1.551999999999999957e+01 4.817199999999999704e+01 1.184904000000000046e+01 -1.555876807683593266e-01
5.752000000000000313e+01 2.816000000000000014e+01 -2.202100000000000080e+01 9.007239000000000217e-01 -2.904472807851172789e-01
5.752000000000000313e+01 7.894999999999999574e+00 3.454699999999999704e+01 -1.967605000000000004e+01 -2.746419861906527204e-01
5.752199999999999847e+01 -7.920099999999999696e+00 1.149000000000000021e+01 1.631891999999999854e+01 -2.753017041935720277e-01
5.752499999999999858e+01 2.771000000000000085e+01 -4.521499999999999631e+00 6.031392000000000309e+00 -1.585715193000180323e-01
5.752799999999999869e+01 2.569300000000000139e+01 -5.205700000000000216e+00 5.746233000000000146e+00 -1.603061461044265612e-01
5.752799999999999869e+01 2.724099999999999966e+01 2.785500000000000043e+01 2.044057000000000102e+01 -2.741425313695434740e-01
5.753000000000000114e+01 3.793800000000000239e+01 -2.025600000000000023e+01 -3.916141999999999967e+01 -2.924852822132225638e-01
5.753000000000000114e+01 1.063199999999999967e+01 3.970900000000000318e+01 -8.063772999999999413e+00 -2.744187226836739546e-01
5.753099999999999881e+01 3.804899999999999949e+01 -2.199299999999999855e+01 -4.826214999999999833e+01 -2.865569757480471713e-01
5.753300000000000125e+01 -1.453000000000000069e+00 2.469200000000000017e+01 1.744939000000000107e+01 -2.750317798401396008e-01
5.753300000000000125e+01 1.927799999999999958e+00 3.180900000000000105e+01 7.293829999999999814e+00 -2.747906276038055706e-01
5.753699999999999903e+01 4.980000000000000426e+00 2.835099999999999909e+01 -3.465019999999999989e+00 -2.749057627318288177e-01
5.753900000000000148e+01 4.525900000000000034e+00 8.243999999999999773e+00 -1.606489000000000056e+00 -2.757486393958643589e-01
5.753999999999999915e+01 3.851200000000000045e+01 -1.884100000000000108e+01 -4.581290000000000084e+00 -2.978819337302139325e-01
5.754200000000000159e+01 4.036800000000000210e+01 -1.177599999999999980e+01 6.511116999999999599e+00 8.987182011933924144e-03
5.754599999999999937e+01 -5.163799999999999502e-01 3.388600000000000279e+01 -6.656068000000000318e+00 -2.747293333075205846e-01
5.754699999999999704e+01 2.470200000000000173e+01 -2.098300000000000054e+01 -6.079627000000000336e+00 -2.900489153090218819e-01
5.754699999999999704e+01 -2.988999999999999879e+00 1.682999999999999829e+01 -9.093889000000000777e+00 -2.752696899725268209e-01
5.754800000000000182e+01 1.167900000000000027e+01 1.412199999999999989e+01 -3.086564000000000085e+00 -2.756303822441905638e-01
5.755299999999999727e+01 2.432700000000000173e+01 1.363299999999999956e+00 1.639717000000000091e+00 -2.767944428800829249e-01
5.755299999999999727e+01 2.602700000000000102e+01 1.363299999999999956e+00 2.467058000000000106e+01 -2.767501937235534726e-01
5.755299999999999727e+01 1.051099999999999923e+01 3.055099999999999838e+01 3.426651999999999987e+01 -2.747538074992897372e-01
5.755299999999999727e+01 1.170199999999999996e+01 3.121499999999999986e+01 1.231560999999999950e+01 -2.747034108981135647e-01
5.755700000000000216e+01 1.970200000000000173e+01 -1.085100000000000087e+01 3.060674999999999812e+00 -1.636628478591174995e-01
5.755700000000000216e+01 7.083300000000000152e-01 7.597999999999999865e+00 1.012218999999999980e+01 -2.756366830431805082e-01
5.755799999999999983e+01 3.439399999999999835e+01 -2.396300000000000097e+01 -1.684947999999999979e+01 -2.858617204349451768e-01
5.755799999999999983e+01 1.291900000000000048e+01 2.731400000000000006e+01 6.521862999999999744e+00 -2.748559080368678798e-01
5.756099999999999994e+01 2.191000000000000014e+01 1.401800000000000068e+01 3.977301999999999893e+00 -2.754929162302995893e-01
5.756600000000000250e+01 3.221900000000000208e+00 9.010199999999999321e+00 -2.260794999999999888e+00 -2.756746926594850211e-01
5.757000000000000028e+01 3.607900000000000063e+01 -8.374000000000000554e+00 5.266424999999999912e+00 4.724517477457289977e-02
5.757000000000000028e+01 3.628799999999999670e+01 -9.109999999999999432e+00 -2.227605000000000146e+01 4.147836985876819649e-02
5.757000000000000028e+01 1.867000000000000171e+01 1.317699999999999960e+01 4.900045000000000428e+00 -2.756791526226393674e-01
5.757000000000000028e+01 2.163599999999999923e+01 1.317699999999999960e+01 1.124614000000000047e+01 -2.755854958440572267e-01
5.758500000000000085e+01 3.086799999999999855e+01 -2.243299999999999983e+01 3.964335999999999860e+00 -2.896338914455743874e-01
5.759100000000000108e+01 -2.621599999999999930e+00 2.399200000000000088e+01 1.273830000000000062e+01 -2.750393750853342700e-01
5.759100000000000108e+01 -1.756399999999999961e+00 2.399200000000000088e+01 1.161360999999999954e+01 -2.750466339741568511e-01
5.759300000000000352e+01 1.991700000000000026e+00 2.744500000000000028e+01 4.451958000000000304e+00 -2.749399298981841655e-01
5.759300000000000352e+01 3.042300000000000004e+00 2.744500000000000028e+01 1.558856999999999937e+00 -2.749395965762952421e-01
5.759300000000000352e+01 3.907599999999999962e+00 2.744500000000000028e+01 4.096710999999999991e+00 -2.749382432402358023e-01
5.759700000000000131e+01 2.861499999999999844e+01 3.528999999999999915e+01 1.273818999999999946e+01 -2.463674636146003516e-01
5.759799999999999898e+01 2.320400000000000063e+01 4.257000000000000028e+01 1.052364999999999995e+01 -1.557322120628343298e-01
5.760099999999999909e+01 2.329100000000000037e+01 2.997599999999999909e+01 5.296724999999999994e+01 -2.743156100987126367e-01
5.760099999999999909e+01 3.216899999999999693e+01 -4.113500000000000156e+00 -2.739838999999999913e+00 -2.751874592186783763e-01
5.760099999999999909e+01 3.237800000000000011e+01 -4.849499999999999922e+00 2.102695000000000203e+00 -2.748959683216977701e-01
5.760099999999999909e+01 3.237800000000000011e+01 -3.377499999999999947e+00 -8.878586999999999563e+00 -2.751371265558961166e-01
5.760199999999999676e+01 2.749299999999999855e+01 3.467099999999999937e+01 9.903011999999999659e+01 -1.551163612940589798e-01
5.760199999999999676e+01 4.855299999999999727e+00 7.483999999999999986e+00 -5.314010999999999818e+00 -2.757733423714452958e-01
5.760199999999999676e+01 5.794699999999999740e+00 7.483999999999999986e+00 -1.163073999999999941e+01 -2.758060787623578536e-01
5.760399999999999920e+01 -3.935000000000000053e+00 8.525999999999999801e+00 1.145445000000000046e+00 -2.754618804097804796e-01
5.760499999999999687e+01 -4.157600000000000406e+00 1.612999999999999901e+01 3.501310999999999840e+00 -2.752611311748232592e-01
5.760499999999999687e+01 -3.292400000000000215e+00 1.612999999999999901e+01 1.458209000000000088e+00 -2.752779350997621166e-01
5.760600000000000165e+01 1.707400000000000162e+01 -1.611899999999999977e+01 2.387446999999999875e+00 -1.649193647469367474e-01
5.760799999999999699e+01 2.622100000000000009e+01 -2.108099999999999952e+01 -9.395880999999999261e+00 -2.906549335311112148e-01
5.761200000000000188e+01 1.170800000000000018e+01 2.705099999999999838e+01 1.254505999999999943e+01 -2.748830815606955746e-01
5.761500000000000199e+01 1.312000000000000055e+00 3.603799999999999670e+01 8.849213999999999913e+00 -2.746478837963111652e-01
5.761500000000000199e+01 2.862000000000000099e+00 3.603799999999999670e+01 1.057634000000000043e+02 -2.746367288482171043e-01
5.762100000000000222e+01 2.641100000000000136e+01 2.195799999999999841e+01 -5.665353999999999779e+00 -2.744749273897131303e-01
5.762199999999999989e+01 -5.409600000000000186e+00 8.391700000000000159e+00 9.806120000000000392e-01 -1.680019745632360118e-01
5.762199999999999989e+01 1.916299999999999892e+00 1.223799999999999955e+01 -5.803193000000000268e+00 -2.755165677796062029e-01
5.762199999999999989e+01 3.316300000000000026e+00 1.223799999999999955e+01 -1.505563999999999902e+00 -2.755511488795903130e-01
5.762700000000000244e+01 2.566700000000000159e+01 1.966000000000000014e+01 1.615637999999999863e+01 -2.746940084498554202e-01
5.762700000000000244e+01 2.601200000000000045e+01 2.044200000000000017e+01 3.881623999999999963e+00 -2.746069224118184993e-01
5.762700000000000244e+01 2.612999999999999901e+01 2.128999999999999915e+01 1.732240000000000002e+00 -2.745405949050355732e-01
5.762800000000000011e+01 1.076699999999999990e+00 8.448000000000000398e+00 6.191005999999999787e+00 -2.756132356337481770e-01
5.763300000000000267e+01 2.404200000000000159e+01 1.544699999999999918e+01 -1.146499999999999986e+01 -2.751856614069971840e-01
5.763300000000000267e+01 2.426899999999999835e+01 1.624599999999999866e+01 -2.915846000000000160e+01 -2.750936584781685790e-01
5.763300000000000267e+01 2.439300000000000068e+01 1.715299999999999869e+01 -2.462056000000000111e+01 -2.750037278625012682e-01
5.763400000000000034e+01 1.935500000000000043e+01 4.810199999999999676e+01 -1.773704999999999998e+01 -1.559149970984898270e-01
5.763700000000000045e+01 2.215800000000000125e+01 2.921799999999999997e+01 4.881459999999999866e+01 -2.744055275754902490e-01
5.763799999999999812e+01 2.239399999999999835e+01 -8.375700000000000145e+00 1.160830999999999946e+01 -1.622641910681804078e-01
5.764200000000000301e+01 -2.822799999999999754e-01 7.490400000000000169e+00 2.815036999999999789e+00 -2.755928432923900329e-01
5.764399999999999835e+01 -3.048900000000000166e+00 2.483399999999999963e+01 1.242323000000000022e+01 -2.750029116239949833e-01
5.764399999999999835e+01 6.316900000000000404e+00 3.263300000000000267e+01 2.423912999999999940e+01 -2.747175693044315858e-01
5.764399999999999835e+01 3.369299999999999784e+01 -5.516099999999999781e+00 2.851396000000000086e+01 -2.731706079057045766e-01
5.764500000000000313e+01 1.822899999999999920e+01 -1.461100000000000065e+01 3.501612999999999865e+00 -1.644380089643394383e-01
5.764600000000000080e+01 -6.327300000000000146e+00 2.144500000000000028e+01 5.257157999999999554e-01 -2.750698080341205665e-01
5.764600000000000080e+01 -6.327300000000000146e+00 2.249500000000000099e+01 9.459566000000000363e-01 -2.750402824214475128e-01
5.764699999999999847e+01 -1.914199999999999902e+00 2.553399999999999892e+01 3.076510000000000034e+01 -2.749877485683100420e-01
5.764900000000000091e+01 7.735499999999999599e-01 3.172500000000000142e+01 3.247459000000000096e+00 -2.747851320832088162e-01
5.764900000000000091e+01 2.451500000000000057e+01 -1.762099999999999866e+01 -5.033287999999999762e+00 -1.818042356899073897e-01
5.765200000000000102e+01 3.148999999999999844e+01 3.660600000000000165e+01 4.628656999999999755e+01 -2.602641499941474867e-01
5.765200000000000102e+01 3.303999999999999915e+01 3.660600000000000165e+01 5.865753999999999913e+00 -2.601464777799608052e-01
5.765299999999999869e+01 1.607900000000000063e+01 1.939000000000000057e+00 3.707706000000000301e+01 -2.764458594109798217e-01
5.765299999999999869e+01 1.176600000000000001e+01 4.627600000000000335e+01 -5.764044000000000167e+00 -2.742025293769940197e-01
5.765400000000000347e+01 1.327800000000000047e+01 3.057600000000000051e+01 -1.244255000000000067e+01 -2.746814023383837844e-01
5.765599999999999881e+01 2.747599999999999909e+01 -1.279900000000000038e+00 2.069446000000000119e+00 -2.767231292616940674e-01
5.766100000000000136e+01 1.581799999999999962e+01 1.091699999999999893e+00 1.681322000000000116e+01 -2.764642282557229769e-01
5.766400000000000148e+01 3.262400000000000233e+01 -2.705400000000000027e+00 -1.811501999999999946e+00 -2.748628248629078619e-01
5.766799999999999926e+01 2.082999999999999829e+01 -1.873999999999999844e+01 3.552439000000000013e-01 -1.827749866440546156e-01
5.767099999999999937e+01 2.581500000000000128e+01 2.741600000000000037e+01 3.964661999999999864e+01 -2.742390333634002753e-01
5.767699999999999960e+01 1.744300000000000139e+01 -1.696900000000000119e+01 1.694291999999999909e+00 -1.825901407817711042e-01
5.767699999999999960e+01 1.744300000000000139e+01 -1.526900000000000013e+01 3.488326999999999956e+00 -1.647070960897663860e-01
5.767699999999999960e+01 6.613199999999999967e+00 3.357099999999999795e+01 2.303148999999999891e+00 -2.746762474096452467e-01
5.768399999999999750e+01 2.857499999999999929e+01 2.405499999999999972e+01 7.040259999999999962e+00 -2.741311967021616836e-01
5.768500000000000227e+01 2.879400000000000048e+01 3.279699999999999704e+01 5.964227000000000167e+00 -1.549598720192137402e-01
5.769100000000000250e+01 2.664499999999999957e+01 -3.700899999999999856e+00 3.796759999999999913e+00 -2.767726061247115510e-01
5.769200000000000017e+01 2.449399999999999977e+01 3.496699999999999875e+01 -9.346431000000000822e+00 -1.547350611429865186e-01
5.769200000000000017e+01 2.941400000000000148e+01 2.731099999999999994e+01 4.516329000000000349e+01 -2.739292527203938676e-01
5.769299999999999784e+01 2.515599999999999881e+01 1.867000000000000171e+01 1.633270999999999873e+01 -2.747913686871402694e-01
5.770199999999999818e+01 1.581900000000000084e+01 2.795999999999999819e+00 2.188828000000000173e+01 -2.763734745292946715e-01
5.770199999999999818e+01 -2.745499999999999829e+00 2.553399999999999892e+01 1.878006999999999849e+01 -2.749765070199422512e-01
5.770600000000000307e+01 2.007799999999999940e+01 4.764399999999999835e+01 -1.223319000000000045e+01 -1.559438399537360354e-01
5.770600000000000307e+01 -5.419999999999999929e+00 2.477700000000000102e+01 6.829032999999999909e+00 -2.749782456228368477e-01
5.770799999999999841e+01 3.982200000000000273e+01 -1.789000000000000057e+01 9.083021999999999707e+00 -1.924319187736077130e-01
5.771200000000000330e+01 1.872500000000000142e+01 -1.354400000000000048e+01 4.562651999999999930e+00 -1.641444647569750837e-01
5.771300000000000097e+01 4.057999999999999829e+00 9.002900000000000347e+00 -6.852934000000000303e+00 -2.756731640626774449e-01
5.771699999999999875e+01 2.702799999999999869e+01 -5.019999999999999574e+00 6.386347999999999914e+00 -1.589388822052329731e-01
5.771699999999999875e+01 3.514699999999999847e+01 -5.942999999999999616e+00 2.013654999999999973e+01 -2.700373709398790623e-01
5.772599999999999909e+01 3.000499999999999901e+01 -2.244099999999999895e+01 1.067047999999999996e+00 -2.898300525294338348e-01
5.772699999999999676e+01 1.553700000000000081e+01 6.712299999999999933e-01 1.166498999999999953e+01 -2.764365044453039877e-01
5.772800000000000153e+01 1.285599999999999987e+01 1.939000000000000057e+00 1.591976999999999975e+01 -2.762632080802188694e-01
5.772800000000000153e+01 1.308699999999999974e+01 1.124100000000000099e+00 6.913609000000000115e+00 -1.659340268857753820e-01
5.772800000000000153e+01 1.308699999999999974e+01 2.753899999999999793e+00 9.064987999999999602e+00 -2.762445886550162211e-01
5.772800000000000153e+01 1.440600000000000058e+01 3.488999999999999879e+00 6.888241999999999621e+01 -2.762705979247122579e-01
5.772899999999999920e+01 1.982999999999999829e+01 -1.028599999999999959e+01 7.303652999999999729e+00 -1.634813824366692370e-01
5.772999999999999687e+01 6.866299999999999626e-01 9.262900000000000134e+00 6.631624999999999659e+00 -2.755609290769384101e-01
5.773100000000000165e+01 8.760999999999999899e-01 9.785000000000000142e+00 5.424634000000000178e+00 -2.755508883157281041e-01
5.773400000000000176e+01 2.697400000000000020e+01 -4.521499999999999631e+00 4.927029000000000103e+00 -1.590956619868852395e-01
5.773400000000000176e+01 2.472500000000000142e+01 2.984700000000000131e+01 4.525354999999999706e+01 -2.742053478185554338e-01
5.773400000000000176e+01 2.568299999999999983e+01 2.984700000000000131e+01 1.089575999999999993e+02 -2.741406651527136251e-01
5.773799999999999955e+01 3.807099999999999795e+01 -2.108299999999999841e+01 -6.087863000000000113e+01 -2.896897975001677117e-01
5.773899999999999721e+01 1.773400000000000176e+01 4.816700000000000159e+01 7.715575000000000294e+00 -1.557782554709715717e-01
5.774099999999999966e+01 3.670300000000000296e+01 -9.604799999999999116e+00 -1.544006000000000078e+01 -1.600677169093288055e-01
5.774399999999999977e+01 1.599900000000000055e+01 1.444200000000000017e+01 8.218081999999999887e-01 -2.755585871086884131e-01
5.774600000000000222e+01 3.655299999999999727e+01 -2.406899999999999906e+01 -1.161645000000000039e+01 -2.834047415000046644e-01
5.774600000000000222e+01 -6.732999999999999652e+00 1.642000000000000171e+01 1.000895000000000046e+01 -2.751878038076697175e-01
5.774900000000000233e+01 2.628999999999999915e+01 3.489999999999999858e+01 1.079344999999999999e+01 -1.549813207086820355e-01
5.775099999999999767e+01 3.312500000000000000e+01 3.403600000000000136e+01 -9.895471000000000128e-01 -2.603072199230889727e-01
5.775800000000000267e+01 3.927000000000000313e+01 -1.075000000000000000e+01 2.472380999999999940e+00 2.827552748438954058e-02
5.775999999999999801e+01 3.218599999999999994e+01 -8.316700000000000204e-01 2.132756000000000096e+00 -2.750537526912791852e-01
