3.166900000000000048e+00 1.013799999999999990e+01 6.211699999999999733e+01 1.605329000000000050e+01 -1.202033237345466049e-01
3.170500000000000096e+00 3.064099999999999824e+01 3.440100000000000335e+01 3.526723000000000052e+00 -3.866349968614568589e-01
3.170500000000000096e+00 3.064099999999999824e+01 3.526599999999999824e+01 -3.647368999999999861e+00 -3.866856494596783711e-01
3.170799999999999841e+00 3.688699999999999868e+00 4.929599999999999937e+01 -1.666075999999999890e+00 -9.338053421210687488e-02
3.176099999999999923e+00 3.404800000000000182e+01 5.810399999999999920e+01 1.571489000000000047e+01 -3.750836950770365386e-01
3.185599999999999987e+00 4.537300000000000111e+00 6.439000000000000057e+01 1.752910999999999930e+01 -1.031902309031188097e-01
3.186399999999999899e+00 1.830900000000000105e+01 6.445999999999999375e+01 2.642697000000000074e+01 1.204640747901020437e-01
3.200099999999999945e+00 4.430299999999999905e+00 4.758899999999999864e+01 -1.885573000000000121e+01 -9.178146918574066337e-02
3.200099999999999945e+00 4.430299999999999905e+00 4.898899999999999721e+01 -1.144490999999999925e+00 -9.359464083016233449e-02
3.201099999999999834e+00 4.589099999999999824e+01 4.000300000000000011e+01 1.033506000000000036e+01 -3.870905647368249047e-01
3.206599999999999895e+00 3.327400000000000091e+01 4.753900000000000148e+01 1.678949000000000069e+01 -3.542306511132059521e-01
3.206599999999999895e+00 3.348299999999999699e+01 4.680299999999999727e+01 2.152298000000000044e+01 -3.541620690504846403e-01
3.206599999999999895e+00 3.467399999999999949e+01 4.613900000000000290e+01 1.095259000000000071e+01 -3.539482311596541253e-01
3.206900000000000084e+00 2.556000000000000050e+00 5.005400000000000205e+01 1.290227999999999930e+01 -9.357305761881769268e-02
3.212800000000000100e+00 4.735499999999999687e+01 4.076100000000000279e+01 1.468807999999999936e+01 -3.865802077446844343e-01
3.214300000000000157e+00 4.249499999999999744e+01 3.976400000000000290e+01 4.321490999999999971e+00 -3.529953697647382205e-01
3.215399999999999814e+00 1.479800000000000004e+00 4.628900000000000148e+01 -7.721782000000000146e+00 -8.755706300502844042e-02
3.220600000000000129e+00 3.049299999999999855e+01 3.365699999999999648e+01 1.718874999999999886e+01 -3.865738426804584682e-01
3.223700000000000010e+00 5.884999999999999787e+00 4.589000000000000057e+01 -8.800055000000000405e+00 -9.028092827365170880e-02
3.227799999999999780e+00 4.585099999999999909e+01 4.168999999999999773e+01 1.292864999999999931e+01 -3.867804489411994506e-01
3.228699999999999903e+00 3.238799999999999812e+01 3.649900000000000233e+01 -2.619705999999999868e+00 -3.871296536177999958e-01
3.233999999999999986e+00 2.918400000000000105e+01 3.274799999999999756e+01 1.583479999999999954e+01 -3.863192290502976967e-01
3.236499999999999932e+00 4.151399999999999757e+00 5.422899999999999920e+01 2.084845000000000059e+00 -1.094507735142515176e-01
3.237600000000000033e+00 4.427100000000000080e+01 3.819899999999999807e+01 -1.887060999999999922e+01 -3.528997694576535560e-01
3.238999999999999879e+00 6.346000000000000085e+00 6.427299999999999613e+01 -4.529002000000000194e+00 -1.066633698892952564e-01
3.245000000000000107e+00 4.914699999999999847e+01 4.225000000000000000e+01 5.681369000000000113e+01 -3.967272312874736140e-01
3.245000000000000107e+00 4.914699999999999847e+01 4.320799999999999841e+01 3.587527000000000044e+01 -3.966714466820681628e-01
3.245099999999999874e+00 2.188200000000000145e+01 6.455700000000000216e+01 -1.272396999999999956e+01 7.493770038257675792e-02
3.248400000000000176e+00 1.266099999999999959e+01 4.578000000000000114e+01 -2.650073000000000079e+01 -1.220678391255856504e-01
3.250999999999999890e+00 6.023999999999999841e-03 5.013499999999999801e+01 1.390405999999999942e+01 -9.194021126932634680e-02
3.250999999999999890e+00 6.023999999999999841e-03 5.168500000000000227e+01 4.740485999999999933e+01 -1.054570322135680860e-01
3.251599999999999824e+00 1.824299999999999855e+01 3.898199999999999932e+01 2.717839000000000116e+00 -2.737551192445296655e-01
3.253099999999999881e+00 1.418200000000000038e+01 4.351299999999999812e+01 1.092361000000000004e+01 -1.143517660315519074e-01
3.253099999999999881e+00 1.418200000000000038e+01 4.498499999999999943e+01 -1.373204000000000091e+00 -1.185303045605910349e-01
3.253099999999999881e+00 1.439100000000000001e+01 4.424900000000000233e+01 6.318664000000000058e+00 -1.161861856029820783e-01
3.253699999999999815e+00 2.932900000000000063e+01 5.464699999999999847e+01 2.991576999999999842e+01 -1.004292948187367751e-01
3.255199999999999871e+00 2.954700000000000060e+01 5.704800000000000182e+01 2.988109000000000037e+01 1.524133763901802663e-01
3.256200000000000205e+00 4.056899999999999729e+00 4.832300000000000040e+01 -7.588659999999999961e+00 -9.258041490868469670e-02
3.257000000000000117e+00 1.092099999999999937e+01 4.582000000000000028e+01 -4.040094999999999992e+00 -1.231650781691330243e-01
3.259799999999999809e+00 1.846600000000000108e+01 3.158599999999999852e+01 5.833683999999999870e+00 -2.756966294937869266e-01
3.261899999999999800e+00 4.302599999999999980e+00 4.470199999999999818e+01 -6.193734000000000073e+00 -8.727835237870826268e-02
3.266000000000000014e+00 4.464200000000000301e+01 3.369400000000000261e+01 3.722569000000000017e+00 -3.530061938706113844e-01
3.277000000000000135e+00 1.251700000000000035e+00 4.976500000000000057e+01 1.036974000000000018e+01 -9.242822330176291012e-02
3.278300000000000214e+00 3.379899999999999949e+01 3.729099999999999682e+01 -9.085018999999999734e-01 -3.875068710220499479e-01
3.278900000000000148e+00 5.453599999999999781e+00 4.758299999999999841e+01 -1.107264999999999944e+01 -9.260779387497256043e-02
3.278900000000000148e+00 5.453599999999999781e+00 4.898299999999999699e+01 2.766148999999999969e+00 -9.456714864079381055e-02
3.283599999999999852e+00 2.049399999999999977e+01 6.447199999999999420e+01 -1.162117999999999984e+00 9.289504593887708273e-02
3.284899999999999931e+00 4.789300000000000068e+01 4.404800000000000182e+01 1.362917999999999950e+02 -3.965747616668519049e-01
3.298999999999999932e+00 2.661499999999999844e+01 6.296900000000000119e+01 -2.543550000000000111e+01 6.386833209056952398e-02
3.298999999999999932e+00 2.694000000000000128e+01 6.223199999999999932e+01 -1.064677999999999969e+01 7.208263631840346186e-02
3.298999999999999932e+00 4.352700000000000102e+01 3.778799999999999670e+01 -2.278039000000000058e+01 -3.529710809208369549e-01
3.302299999999999791e+00 1.898799999999999955e+01 6.437600000000000477e+01 1.291319999999999979e+01 1.120986931735617753e-01
3.310299999999999798e+00 4.171699999999999875e+01 3.447899999999999920e+01 -1.228556999999999988e+01 -3.531784608145068227e-01
3.313000000000000167e+00 1.571499999999999986e+01 3.916100000000000136e+01 5.847456000000000209e+00 -2.745532787111531481e-01
3.313299999999999912e+00 2.886299999999999955e+01 3.315899999999999892e+01 1.452832000000000079e+01 -3.862867560333558825e-01
3.314299999999999802e+00 3.714300000000000068e+01 4.597599999999999909e+01 -7.495508000000000060e+00 -3.535444797829324637e-01
3.314299999999999802e+00 4.302300000000000324e+01 3.952499999999999858e+01 9.346527000000000029e-01 -3.529580851329859881e-01
3.315500000000000114e+00 -3.298800000000000066e-01 5.090999999999999659e+01 3.474797000000000224e+01 -1.053791709629545020e-01
3.321000000000000174e+00 3.803000000000000114e+01 5.499000000000000199e+01 -1.883901999999999965e+00 -3.965737167605406510e-01
3.323599999999999888e+00 5.028900000000000148e+00 4.553000000000000114e+01 -1.890835999999999828e+01 -8.928422083017420463e-02
3.328300000000000036e+00 3.794999999999999929e+00 5.726599999999999824e+01 -5.426642000000000188e+00 -1.081133680085796661e-01
3.328300000000000036e+00 4.003999999999999559e+00 5.652900000000000347e+01 -1.063914000000000026e+00 -1.087179000921403293e-01
3.330499999999999794e+00 2.320200000000000173e+01 6.487500000000000000e+01 -1.397946999999999917e+01 8.239495916489343597e-02
3.330999999999999961e+00 9.196799999999999642e+00 4.559000000000000341e+01 -1.798421000000000047e+00 -1.234841759414756907e-01
3.331300000000000150e+00 2.740599999999999881e+01 3.282000000000000028e+01 1.260553999999999952e+01 -3.860467308182171098e-01
3.332899999999999974e+00 3.287700000000000244e+01 6.138700000000000045e+01 -9.236330999999999847e+00 -1.142174377439122701e-01
3.336599999999999788e+00 1.243800000000000061e+01 6.193500000000000227e+01 -4.898432999999999815e+00 -1.309499515645218826e-01
3.337200000000000166e+00 5.756999999999999673e+00 4.828300000000000125e+01 -5.139029999999999987e-01 -9.392282957672751231e-02
3.342299999999999827e+00 1.874599999999999866e+01 3.063599999999999923e+01 7.491007999999999889e+00 -2.758304481090955163e-01
3.343399999999999928e+00 2.985399999999999920e+01 3.218200000000000216e+01 7.147461999999999982e+00 -3.864155208222543325e-01
3.346999999999999975e+00 7.380300000000000082e+00 6.491599999999999682e+01 -2.388910999999999873e+01 -1.082629636730354505e-01
3.347700000000000120e+00 1.810900000000000176e+01 3.216499999999999915e+01 1.353396000000000043e+01 -2.756327812599989047e-01
3.350099999999999856e+00 4.658200000000000074e+01 4.320300000000000296e+01 1.221269999999999989e+01 -3.965899736862014691e-01
3.350699999999999790e+00 4.794700000000000273e+01 4.133700000000000330e+01 1.090334999999999965e+01 -3.967357420456812944e-01
3.351300000000000168e+00 3.604099999999999682e+01 6.563800000000000523e+01 -1.319984999999999964e+00 -2.759747651636419996e-01
3.358000000000000096e+00 1.695599999999999952e+01 3.925600000000000023e+01 1.131019000000000041e+01 -2.740929100852765310e-01
3.362299999999999844e+00 3.140399999999999991e+01 5.285999999999999943e+01 9.424549000000000376e+01 -8.196818818489248759e-02
3.367999999999999883e+00 3.260900000000000176e+01 6.062800000000000011e+01 -3.464626999999999984e-02 -1.210971025869919809e-01
3.368599999999999817e+00 2.474200000000000088e+01 6.403700000000000614e+01 -2.490875000000000128e+01 8.969860636280160837e-02
3.369000000000000217e+00 3.738000000000000256e+01 6.401099999999999568e+01 4.148653000000000368e+00 -3.787432593192400776e-01
3.369699999999999918e+00 3.689500000000000313e+01 5.098499999999999943e+01 4.208196000000000048e+00 -3.535888507663961233e-01
3.370899999999999785e+00 3.946900000000000119e+01 4.006300000000000239e+01 1.234079000000000015e+01 -3.532859054119236175e-01
3.371999999999999886e+00 1.308300000000000018e+01 6.553499999999999659e+01 -2.508764999999999912e+00 -1.306965912004780239e-01
3.371999999999999886e+00 1.340799999999999947e+01 6.627200000000000557e+01 -1.144729000000000063e+01 -1.309220208640656247e-01
3.371999999999999886e+00 1.470100000000000051e+01 6.699299999999999500e+01 -1.199003000000000085e+01 -1.382587679858714169e-01
3.371999999999999886e+00 1.599399999999999977e+01 6.627200000000000557e+01 1.093529999999999944e+02 1.552183661339324727e-01
3.378800000000000026e+00 4.365599999999999881e+01 3.874600000000000222e+01 -1.071712999999999916e+00 -3.529322053147401217e-01
3.378899999999999793e+00 3.012500000000000000e+01 3.294899999999999807e+01 4.648338999999999999e+00 -3.864919700499459543e-01
3.381299999999999972e+00 3.779299999999999926e+01 6.202400000000000091e+01 -9.680965999999999738e+00 -3.748104717933061769e-01
3.381600000000000161e+00 3.389500000000000313e+01 5.472299999999999898e+01 2.133511000000000024e+01 -3.755581941631166432e-01
3.384999999999999787e+00 1.042999999999999927e+00 6.091299999999999670e+01 5.778908999999999629e+00 -1.024323639162153105e-01
3.387000000000000011e+00 3.392699999999999960e+01 5.618399999999999750e+01 1.446382999999999974e+01 -3.293715884866629806e-01
3.387000000000000011e+00 3.359000000000000341e+01 5.409700000000000131e+01 2.194844000000000150e+01 -3.544729023561252190e-01
3.388199999999999878e+00 9.409399999999999986e-01 5.172299999999999898e+01 2.621939000000000064e+01 -1.064102140066928159e-01
3.390699999999999825e+00 3.501800000000000068e+01 6.577299999999999613e+01 -9.402386000000000077e-02 -2.713136532943813406e-01
3.391999999999999904e+00 3.936099999999999710e+01 5.591199999999999903e+01 5.848455999999999655e+00 -3.817844039727324446e-01
3.391999999999999904e+00 3.936099999999999710e+01 5.770000000000000284e+01 9.899864000000000885e+00 -3.814674156254234116e-01
3.391999999999999904e+00 3.961500000000000199e+01 5.680599999999999739e+01 6.704026000000000352e+01 -3.815601398407607037e-01
3.393100000000000005e+00 1.882799999999999940e+01 3.724300000000000210e+01 3.687896999999999981e+00 -2.741083446247747912e-01
3.394000000000000128e+00 3.384000000000000341e+01 5.884499999999999886e+01 9.773450000000000415e+00 -3.747598813500591097e-01
3.394200000000000106e+00 3.514200000000000301e+01 5.028799999999999670e+01 2.189995999999999832e+00 -3.539758380861662834e-01
3.394400000000000084e+00 1.201800000000000068e+01 4.087700000000000244e+01 -5.508728999999999765e+00 -1.107157253629585253e-01
3.403500000000000192e+00 1.057699999999999996e+01 6.179299999999999926e+01 1.945405999999999835e+01 -1.226007350075658808e-01
3.404900000000000038e+00 7.126999999999999780e+00 4.541599999999999682e+01 -5.881510999999999711e+00 -1.239454024205476623e-01
3.407099999999999795e+00 4.660999999999999943e+01 4.236800000000000210e+01 1.681237000000000137e+01 -3.966383969746200555e-01
3.407799999999999940e+00 3.276100000000000279e+01 5.322299999999999898e+01 2.973986999999999981e+01 -3.546232142370120410e-01
3.411999999999999922e+00 4.640699999999999648e+01 4.088000000000000256e+01 1.862453999999999965e+01 -3.867574101242519102e-01
3.414699999999999847e+00 4.295799999999999841e+01 3.569400000000000261e+01 -8.178929999999999367e+00 -3.530697564120379162e-01
3.414699999999999847e+00 4.382300000000000040e+01 3.569400000000000261e+01 -1.276773999999999987e+01 -3.530099831462608639e-01
3.414699999999999847e+00 4.476299999999999812e+01 3.569400000000000261e+01 -1.214389000000000074e+01 -3.529477118299378935e-01
3.414699999999999847e+00 4.476299999999999812e+01 3.721399999999999864e+01 -2.402562999999999960e+01 -3.529007679024144251e-01
3.416999999999999815e+00 3.011599999999999966e+01 5.821000000000000085e+01 9.112475999999999132e+00 1.530487851526367293e-01
3.416999999999999815e+00 3.022700000000000031e+01 5.900800000000000267e+01 4.349963999999999942e+00 1.211484650795953827e-01
3.418800000000000061e+00 2.442099999999999937e+01 3.093199999999999861e+01 7.797598000000000029e-01 -3.716813615942179405e-01
3.418899999999999828e+00 2.913499999999999979e+00 5.345700000000000074e+01 1.017426000000000030e+01 -1.082026187756414959e-01
3.420599999999999863e+00 3.035200000000000031e+01 5.989999999999999858e+01 -2.271916000000000047e+00 1.253423558736042609e-01
3.426699999999999857e+00 3.378600000000000136e+01 5.726500000000000057e+01 1.407614000000000054e+01 -3.749140911104577589e-01
3.426800000000000068e+00 2.819900000000000162e+01 3.299000000000000199e+01 7.792646999999999657e+00 -3.861843055918637857e-01
3.431299999999999795e+00 3.293800000000000239e+01 5.986800000000000210e+01 5.955155000000000420e+00 -3.737098826265409235e-01
3.431299999999999795e+00 3.402799999999999869e+01 5.536399999999999721e+01 1.638812000000000069e+01 -3.750925792356131216e-01
3.434200000000000141e+00 9.705399999999999139e+00 6.281700000000000017e+01 7.805742999999999654e+00 -1.184187123065793823e-01
3.434699999999999864e+00 1.291099999999999914e+00 5.090999999999999659e+01 1.227039000000000044e+02 -1.069091335014151350e-01
3.435000000000000053e+00 7.094799999999999995e-01 5.005899999999999750e+01 1.091037999999999997e+01 -9.269895166033290113e-02
3.437899999999999956e+00 3.107300000000000040e+01 3.596600000000000108e+01 -3.895534000000000052e+00 -3.868383545966692649e-01
3.444399999999999906e+00 3.714699999999999847e+01 3.731799999999999784e+01 1.818575000000000053e+00 -3.535185628815341596e-01
3.445300000000000029e+00 1.798999999999999932e+00 4.355899999999999750e+01 -3.674247999999999958e+00 -8.482691050449853165e-02
3.445300000000000029e+00 3.318999999999999950e+00 4.355899999999999750e+01 -9.015710999999999586e+00 -8.562474608873407722e-02
3.447900000000000187e+00 3.747599999999999909e+01 6.300300000000000011e+01 -2.018799000000000010e-01 -3.767240703772827826e-01
3.448199999999999932e+00 3.347899999999999920e+01 6.369299999999999784e+01 1.660047999999999968e+00 -2.727335167220962253e-01
3.448700000000000099e+00 1.965200000000000102e+01 3.125000000000000000e+01 4.843346999999999625e+00 -2.755019242863303575e-01
3.453500000000000014e+00 3.546200000000000330e+01 3.735600000000000165e+01 3.555645000000000167e+00 -3.878598801849430511e-01
3.454299999999999926e+00 8.439999999999999725e-01 6.467600000000000193e+01 6.150528000000000439e+00 -9.910161944371785603e-02
3.458299999999999930e+00 2.353499999999999925e+00 5.338000000000000256e+01 9.123369000000000284e+00 -1.076058322124093108e-01
3.465500000000000025e+00 2.968700000000000117e+01 3.355199999999999960e+01 7.312331000000000358e+00 -3.864513628556555114e-01
3.469399999999999817e+00 4.663900000000000290e+01 4.169500000000000028e+01 1.635400999999999883e+01 -3.865170879362427314e-01
3.472999999999999865e+00 3.073900000000000077e+01 5.282999999999999829e+01 6.812577000000000282e+01 -8.603356340406601022e-02
3.474000000000000199e+00 2.968499999999999872e+01 5.382500000000000284e+01 8.950480000000000302e+01 -9.549560177594190735e-02
3.474299999999999944e+00 1.748400000000000176e+01 3.127599999999999980e+01 1.482197000000000031e+01 -2.759345085499889660e-01
3.478000000000000203e+00 4.509199999999999875e+01 3.645400000000000063e+01 -1.456727000000000061e+01 -3.529042854000218332e-01
3.482200000000000184e+00 2.910300000000000153e+01 5.569100000000000250e+01 8.733593999999999369e+01 1.526341278384532318e-01
3.484999999999999876e+00 3.915400000000000347e+01 3.539300000000000068e+01 4.356136999999999926e-01 -3.533563980747966293e-01
3.487999999999999989e+00 3.006099999999999994e+01 3.435699999999999932e+01 6.916242999999999697e+00 -3.865549509865836564e-01
3.487999999999999989e+00 3.092599999999999838e+01 3.140700000000000003e+01 3.359740000000000038e+01 -3.865609777299845451e-01
3.487999999999999989e+00 3.092599999999999838e+01 3.295700000000000074e+01 -2.855332999999999899e+00 -3.866325157720563732e-01
3.487999999999999989e+00 3.188400000000000034e+01 3.140700000000000003e+01 2.060086000000000084e+01 -3.867055302312973342e-01
3.487999999999999989e+00 3.188400000000000034e+01 3.295700000000000074e+01 -3.321217999999999648e+01 -3.867901831032232729e-01
3.496900000000000119e+00 1.336800000000000033e+01 3.869100000000000250e+01 -6.126175999999999844e-02 -2.754215137439711136e-01
3.497599999999999820e+00 2.089699999999999847e+01 3.218299999999999983e+01 3.882537000000000127e+00 -3.713963918687640531e-01
3.497599999999999820e+00 2.176300000000000168e+01 3.218299999999999983e+01 2.430521000000000154e+00 -3.714519037153883874e-01
3.508100000000000218e+00 4.279099999999999682e+01 3.778799999999999670e+01 -2.380920000000000147e+00 -3.530322718693734152e-01
3.513700000000000045e+00 3.878999999999999915e+01 3.620600000000000307e+01 3.839729000000000170e+00 -3.533809063997835342e-01
3.513999999999999790e+00 9.576299999999999812e+00 6.377499999999999858e+01 -7.448895000000000266e+00 -1.169225768394630549e-01
3.519899999999999807e+00 2.908899999999999864e+01 5.657999999999999829e+01 6.671504000000000190e+01 1.483404327305639092e-01
3.525999999999999801e+00 3.419899999999999807e+01 6.501000000000000512e+01 -2.778848000000000082e-02 -2.708145279209307477e-01
3.528399999999999981e+00 1.178200000000000003e+01 4.024600000000000222e+01 -7.897178999999999727e-01 -1.101755370748909446e-01
3.529100000000000126e+00 3.575400000000000134e+00 6.438700000000000045e+01 1.693440000000000012e+01 -1.024403625207742641e-01
3.531400000000000095e+00 3.865299999999999869e+01 4.025500000000000256e+01 1.604721999999999937e+01 -3.533699583703490132e-01
3.532099999999999795e+00 3.168799999999999883e+01 3.644100000000000250e+01 -3.409475000000000033e+00 -3.870054503148972480e-01
3.533999999999999808e+00 1.867599999999999838e+01 3.637599999999999767e+01 1.711724999999999941e+00 -2.743943594577408218e-01
3.537100000000000133e+00 1.203999999999999915e+01 3.945300000000000296e+01 -6.896139999999999493e-01 -1.086712481101558964e-01
3.537700000000000067e+00 2.335699999999999932e+01 3.100700000000000145e+01 3.255253999999999870e+00 -3.716107619853797894e-01
3.539000000000000146e+00 1.722700000000000031e+01 3.050100000000000122e+01 9.866478999999999999e+00 -2.761287159254682821e-01
3.540299999999999780e+00 4.216400000000000148e+01 3.493200000000000216e+01 -3.999540000000000095e+00 -3.531421810211020640e-01
3.546300000000000008e+00 5.020900000000000141e+00 4.828300000000000125e+01 -7.860483999999999583e+00 -9.385728387528922967e-02
3.547000000000000153e+00 4.849999999999999867e-01 5.090999999999999659e+01 2.598834000000000088e+01 -1.062581273454712427e-01
3.550100000000000033e+00 3.548899999999999721e+01 4.617300000000000182e+01 2.872958999999999818e+00 -3.538104256352186949e-01
3.552500000000000213e+00 3.058999999999999986e+01 3.218200000000000216e+01 1.801445999999999970e+01 -3.865470537366260118e-01
3.552500000000000213e+00 3.221999999999999886e+01 3.218200000000000216e+01 -1.240887000000000029e+01 -3.868032000555109429e-01
3.552999999999999936e+00 3.729999999999999716e+01 4.228799999999999670e+01 3.268383999999999645e+01 -3.535171417040420261e-01
3.552999999999999936e+00 3.729999999999999716e+01 4.315299999999999869e+01 3.308299999999999841e+01 -3.535183328301039207e-01
3.555000000000000160e+00 3.190399999999999991e+01 5.294800000000000040e+01 4.924360000000000070e+01 -8.043208110678215506e-02
3.566399999999999793e+00 4.309400000000000119e+01 3.708800000000000097e+01 -1.168458000000000041e+01 -3.530281915382310065e-01
3.566399999999999793e+00 4.396000000000000085e+01 3.708800000000000097e+01 -2.426929000000000158e+01 -3.529644382934044033e-01
3.576099999999999834e+00 4.054299999999999926e+01 3.448400000000000176e+01 -2.486179000000000028e-01 -3.532624471793150422e-01
3.576400000000000023e+00 2.949399999999999800e+00 4.808700000000000330e+01 -7.645783999999999914e+00 -9.224660336060962196e-02
3.580700000000000216e+00 2.842999999999999972e+01 3.385900000000000176e+01 8.830526000000000764e+00 -3.862603244832196192e-01
3.580700000000000216e+00 2.929500000000000171e+01 3.385900000000000176e+01 8.003190000000000026e+00 -3.864070084508569591e-01
3.584000000000000075e+00 1.786700000000000088e+01 3.066799999999999926e+01 7.739081999999999795e+00 -2.759626265411300183e-01
3.587000000000000188e+00 1.979400000000000048e+01 6.441299999999999670e+01 8.806399000000000754e+00 1.033066849344005111e-01
3.587899999999999867e+00 4.292000000000000171e+01 3.874600000000000222e+01 -2.917574999999999807e+00 -3.529964551405703199e-01
3.589500000000000135e+00 3.767199999999999704e+01 4.164999999999999858e+01 2.565073999999999899e+01 -3.534726184712665420e-01
3.593900000000000095e+00 4.349499999999999744e+01 3.645400000000000063e+01 -2.183352999999999966e+01 -3.530157819155955723e-01
3.596600000000000019e+00 2.917699999999999960e+01 6.123199999999999932e+01 1.762421000000000126e-01 1.127597151267833997e-01
3.598300000000000054e+00 1.954100000000000037e+01 3.057600000000000051e+01 6.080991000000000035e+00 -2.756528715843801769e-01
3.603499999999999925e+00 2.988700000000000134e+00 4.956300000000000239e+01 4.949628999999999834e+00 -9.414215839263483099e-02
3.604000000000000092e+00 3.177099999999999813e+00 5.812700000000000244e+01 1.461888999999999994e+00 -1.071456595085678309e-01
3.604000000000000092e+00 1.287100000000000044e+01 6.263499999999999801e+01 2.899478999999999917e+00 -1.334622965466691347e-01
3.611699999999999910e+00 1.700299999999999923e+00 5.168500000000000227e+01 3.589750999999999692e+01 -1.073429027174891831e-01
3.612600000000000033e+00 1.634199999999999875e+01 6.548999999999999488e+01 -3.174249999999999794e+00 1.460102881858534041e-01
3.626999999999999780e+00 5.728900000000000325e+00 4.558899999999999864e+01 -5.943435000000000024e+00 -1.253692802135286111e-01
3.635499999999999954e+00 8.312400000000000233e+00 6.506600000000000250e+01 -2.027020999999999873e+01 -1.111073906355135865e-01
3.636400000000000077e+00 1.495800000000000018e+01 3.905799999999999983e+01 2.467764000000000069e-01 -1.060808121893537653e-01
3.637599999999999945e+00 2.106700000000000017e+01 6.473199999999999932e+01 -9.549896999999999636e+00 8.886237984567264825e-02
3.638900000000000023e+00 1.759900000000000020e+01 3.461999999999999744e+01 1.923280000000000101e+00 -2.751361642934853080e-01
3.639200000000000212e+00 3.397399999999999665e+01 4.640699999999999648e+01 1.156456000000000017e+01 -3.540512119542855163e-01
3.642700000000000049e+00 4.754999999999999716e+01 4.176700000000000301e+01 3.292338999999999771e+01 -3.966631826669018701e-01
3.643800000000000150e+00 2.027200000000000113e+00 5.090999999999999659e+01 3.929876000000000147e+01 -1.077926296308037435e-01
3.653200000000000003e+00 4.118199999999999861e+00 5.580899999999999750e+01 4.320396000000000236e-01 -1.094863779021672673e-01
3.656499999999999861e+00 2.037500000000000089e+00 4.953099999999999881e+01 6.985462000000000060e+00 -9.349324781042789301e-02
3.659100000000000019e+00 8.152599999999999625e+00 4.534199999999999875e+01 -2.098958000000000101e+00 -1.242102720900920276e-01
3.661599999999999966e+00 3.824699999999999989e+01 6.128999999999999915e+01 -5.234555999999999898e+01 -3.739380028644261889e-01
3.661700000000000177e+00 3.292100000000000026e+00 4.886299999999999955e+01 -2.411687999999999832e+00 -9.360355568165172613e-02
3.665500000000000203e+00 2.612999999999999901e+01 3.248599999999999710e+01 3.757719999999999949e+00 -3.718063398831893407e-01
3.673099999999999810e+00 6.368100000000000094e+00 4.538100000000000023e+01 -5.428770000000000095e+00 -1.248374640139111175e-01
3.673099999999999810e+00 1.584600000000000009e+00 5.013499999999999801e+01 2.039900000000000091e+01 -1.074575053473519615e-01
3.674300000000000122e+00 4.016899999999999693e+01 4.012100000000000222e+01 3.702647999999999939e+00 -3.532170859414671682e-01
3.674300000000000122e+00 4.186899999999999977e+01 4.012100000000000222e+01 -2.824072000000000138e+00 -3.530517230235120651e-01
3.674900000000000055e+00 1.873199999999999932e+01 3.537899999999999778e+01 -4.661506000000000149e+00 -2.746437749414964435e-01
3.677599999999999980e+00 2.408099999999999952e+01 6.477599999999999625e+01 -1.406855999999999973e+01 9.722104717291436826e-02
3.677799999999999958e+00 2.258200000000000074e+01 6.482399999999999807e+01 -1.309683000000000064e+01 7.230987534257518612e-02
3.681000000000000050e+00 1.189300000000000068e+01 4.551299999999999812e+01 -3.897724000000000188e+00 -1.232717075132023082e-01
3.681299999999999795e+00 4.853799999999999670e+00 6.390800000000000125e+01 2.073135999999999868e+01 -1.051782069766232369e-01
3.684200000000000141e+00 1.873400000000000176e+01 3.858500000000000085e+01 4.557875000000000121e+00 -2.736782590320027686e-01
3.684200000000000141e+00 1.894300000000000139e+01 3.784899999999999665e+01 3.774315999999999782e+00 -2.738511068602471621e-01
3.685700000000000198e+00 1.369100000000000072e+01 4.311699999999999733e+01 7.164971000000000423e+00 -1.153600027716052273e-01
3.685700000000000198e+00 1.369100000000000072e+01 4.538199999999999790e+01 -8.822642999999999347e+00 -1.218565338264193387e-01
3.694500000000000117e+00 4.793499999999999872e+00 4.509799999999999898e+01 -1.021475000000000044e+01 -8.951564355323941846e-02
3.695500000000000007e+00 1.823100000000000165e+01 2.973900000000000077e+01 3.148976999999999915e+00 -2.760585282680000918e-01
3.705000000000000071e+00 4.429299999999999926e+01 3.645400000000000063e+01 -4.420644999999999669e+01 -3.529619004035865482e-01
3.708699999999999886e+00 6.935999999999999943e+00 6.460999999999999943e+01 -4.401700000000000301e+01 -1.084350417394511351e-01
3.709600000000000009e+00 1.951699999999999990e+00 4.723299999999999699e+01 -8.236141999999999186e+00 -9.071543654536619317e-02
3.709999999999999964e+00 9.548999999999999488e+00 6.432699999999999818e+01 -8.620324000000000098e+00 -1.164213327157434807e-01
3.711699999999999999e+00 2.986899999999999977e+01 6.076899999999999835e+01 -2.177439000000000124e+00 1.218966306157555080e-01
3.713400000000000034e+00 2.664900000000000091e+01 3.285499999999999687e+01 1.564151999999999987e+01 -3.718520326061757197e-01
3.714999999999999858e+00 3.857699999999999818e+01 5.954500000000000171e+01 -2.207492999999999839e+01 -3.722462253617103700e-01
3.714999999999999858e+00 3.857699999999999818e+01 6.044700000000000273e+01 -3.746119999999999806e+01 -3.729316043516529011e-01
3.721499999999999808e+00 5.759100000000000108e+00 6.388300000000000267e+01 2.710170000000000190e+00 -1.069232445124992381e-01
3.721799999999999997e+00 1.531800000000000050e+00 6.039000000000000057e+01 4.862855999999999845e+00 -1.037765850683654290e-01
3.724000000000000199e+00 4.741400000000000148e+01 4.350399999999999778e+01 3.525216000000000349e+01 -3.965332315685493048e-01
3.724000000000000199e+00 4.837199999999999989e+01 4.195400000000000063e+01 2.290850999999999971e+01 -3.966595269015503744e-01
3.724000000000000199e+00 4.837199999999999989e+01 4.350399999999999778e+01 4.315968999999999767e+01 -3.965597340261245440e-01
3.726100000000000190e+00 2.416300000000000114e+00 5.279500000000000171e+01 1.502375999999999934e+01 -1.080292618194778759e-01
3.730900000000000105e+00 1.770400000000000063e+01 2.967299999999999827e+01 3.511709000000000191e+00 -2.761645112777534883e-01
3.731599999999999806e+00 2.743100000000000094e+01 6.183500000000000085e+01 -2.490317999999999810e+00 8.415457211487706313e-02
3.749099999999999877e+00 1.011700000000000088e+01 4.563400000000000034e+01 -2.656166999999999945e+00 -1.246620795022191086e-01
3.753099999999999881e+00 2.852700000000000102e+01 6.163700000000000045e+01 -4.365291000000000032e+00 1.031919362734877998e-01
3.754900000000000126e+00 1.275900000000000034e+01 4.217900000000000205e+01 6.525322000000000067e-01 -1.140554348338395363e-01
3.758599999999999941e+00 3.424000000000000199e+01 4.991599999999999682e+01 6.553734999999999644e+00 -3.541306762320614032e-01
3.758700000000000152e+00 3.313900000000000290e+01 6.225399999999999778e+01 -3.088534999999999808e+00 -2.751902785469024781e-01
3.758700000000000152e+00 3.334799999999999898e+01 6.299000000000000199e+01 2.831783000000000161e+00 -2.740153529595215076e-01
3.767999999999999794e+00 2.618100000000000094e+01 6.346000000000000085e+01 -3.358498000000000161e+01 1.076631255679308535e-01
3.769899999999999807e+00 3.303999999999999915e+01 3.704999999999999716e+01 -1.528000000000000025e+00 -3.873540321698992206e-01
3.770500000000000185e+00 1.641199999999999903e+01 3.050100000000000122e+01 3.153265000000000207e+00 -2.762557689418102536e-01
3.771700000000000053e+00 2.695200000000000173e+01 3.355499999999999972e+01 2.058782000000000068e+01 -3.718755965013311182e-01
3.771700000000000053e+00 2.781700000000000017e+01 3.355499999999999972e+01 9.303779000000000465e+00 -3.861677974296240934e-01
3.778999999999999915e+00 3.186700000000000088e-01 6.382600000000000051e+01 7.293317000000000050e+00 -9.988138187373593602e-02
3.780299999999999994e+00 1.740899999999999892e+01 3.189799999999999969e+01 8.455185000000000173e+00 -2.757777340354651829e-01
3.782999999999999918e+00 1.790800000000000125e+01 3.270400000000000063e+01 1.138116999999999912e+01 -2.754940814093658763e-01
3.782999999999999918e+00 1.790800000000000125e+01 3.357000000000000028e+01 6.592909999999999826e+00 -2.752943876628167752e-01
3.783999999999999808e+00 3.140500000000000114e+01 3.218200000000000216e+01 1.987556000000000012e+01 -3.866912007317105937e-01
3.783999999999999808e+00 3.638300000000000267e+01 4.626599999999999824e+01 -9.526973999999999165e+00 -3.536649035194437407e-01
3.783999999999999808e+00 3.767600000000000193e+01 4.394700000000000273e+01 9.874651000000000067e+01 -3.534676034854450366e-01
3.783999999999999808e+00 3.767600000000000193e+01 4.554500000000000171e+01 2.603499999999999925e+00 -3.534613244511896069e-01
3.783999999999999808e+00 3.790299999999999869e+01 4.474600000000000222e+01 2.608434000000000097e+01 -3.534322905899901501e-01
3.784100000000000019e+00 3.212400000000000233e+01 6.008599999999999852e+01 5.330970999999999904e+00 -1.277560819371059975e-01
3.788499999999999979e+00 4.707800000000000296e+01 4.272899999999999920e+01 4.685992000000000246e+01 -3.965701386976486220e-01
3.788499999999999979e+00 4.870799999999999841e+01 4.272899999999999920e+01 4.335421999999999798e+01 -3.966112535436107644e-01
3.789299999999999891e+00 3.758700000000000330e+01 5.413799999999999812e+01 4.007463000000000442e+00 -3.968531891775525233e-01
3.790700000000000180e+00 1.923900000000000077e+01 2.981800000000000139e+01 2.866551999999999989e+00 -2.758429144986594972e-01
3.801299999999999901e+00 1.676700000000000135e-01 6.283299999999999841e+01 9.396051999999999182e+00 -1.006114406202910649e-01
3.803999999999999826e+00 1.151099999999999923e+01 6.136999999999999744e+01 -3.572779000000000149e+00 -1.273242397754531519e-01
3.822700000000000209e+00 1.693999999999999950e+00 6.474699999999999989e+01 4.227432000000000301e+01 -1.003575060715220235e-01
3.823199999999999932e+00 2.051699999999999946e+01 3.148100000000000165e+01 4.156428000000000011e+00 -3.714359423238951519e-01
3.823199999999999932e+00 2.138200000000000145e+01 3.148100000000000165e+01 2.480973999999999791e+00 -3.714877296449468624e-01
3.823500000000000121e+00 3.007799999999999940e+01 5.311099999999999710e+01 1.612355000000000018e+02 -9.201871911622479250e-02
3.824600000000000222e+00 3.884499999999999886e+01 5.530199999999999960e+01 4.890001999999999960e-01 -3.821500822701838773e-01
3.826299999999999812e+00 1.260800000000000054e+01 3.875399999999999778e+01 -6.193699000000000288e-01 -1.080342459285138501e-01
3.826299999999999812e+00 1.412800000000000011e+01 3.875399999999999778e+01 -5.128935000000000244e+00 -1.068832562869680702e-01
3.826700000000000212e+00 3.334899999999999665e+01 5.924199999999999733e+01 7.470392000000000365e+00 -3.742234286667113774e-01
3.826999999999999957e+00 1.250900000000000034e+01 4.127400000000000091e+01 -9.311664999999999637e+00 -1.125468901832510082e-01
3.826999999999999957e+00 9.114000000000000767e+00 6.506100000000000705e+01 -1.014175000000000004e+01 -1.139847098386302243e-01
3.834999999999999964e+00 1.674800000000000111e+01 2.972599999999999909e+01 3.078351000000000059e+00 -2.763197003328349277e-01
3.834999999999999964e+00 1.674800000000000111e+01 3.127599999999999980e+01 5.451724999999999710e+00 -2.760333825176313760e-01
3.839999999999999858e+00 1.037800000000000011e+01 6.212800000000000011e+01 2.156431999999999860e+01 -1.223103577077384874e-01
3.841699999999999893e+00 1.394100000000000072e+01 6.670300000000000296e+01 -1.201767000000000074e+01 -1.341285237867285152e-01
3.841699999999999893e+00 1.546100000000000030e+01 6.670300000000000296e+01 1.620354999999999990e+01 1.598705577412925238e-01
3.842200000000000060e+00 3.760699999999999932e+01 5.324000000000000199e+01 4.739671999999999663e+00 -3.970170901625865723e-01
3.844100000000000072e+00 4.237199999999999989e+01 3.724499999999999744e+01 -3.808965999999999852e+00 -3.530836381987670913e-01
3.847100000000000186e+00 2.038300000000000001e+00 5.968599999999999994e+01 9.012259999999999494e+00 -1.050150661878842262e-01
3.847100000000000186e+00 2.494699999999999918e+00 5.897200000000000131e+01 1.108417000000000030e+01 -1.060413360158960899e-01
3.847300000000000164e+00 4.225800000000000267e+01 3.542699999999999960e+01 -2.678100000000000147e+00 -3.531298491088143421e-01
3.851500000000000146e+00 3.613500000000000156e+00 5.372500000000000142e+01 3.198184000000000027e-01 -1.094350370164653141e-01
3.851799999999999891e+00 2.534700000000000131e+01 6.408499999999999375e+01 -2.554844999999999899e+01 1.064709124320799560e-01
3.858299999999999841e+00 3.418599999999999994e+01 3.797999999999999687e+01 5.155291000000000068e+00 -3.877050827354145968e-01
3.862299999999999844e+00 1.758899999999999864e+01 6.474099999999999966e+01 1.065357000000000021e+01 1.299996078408893196e-01
3.863399999999999945e+00 4.263000000000000256e+01 3.636999999999999744e+01 -5.880143000000000342e+00 -3.530841250933596243e-01
3.863999999999999879e+00 2.680000000000000160e-01 6.216700000000000159e+01 1.533189999999999920e+01 -1.013103797824406460e-01
3.863999999999999879e+00 4.994899999999999896e-01 6.135199999999999676e+01 4.252110000000000056e+00 -1.021499734216297639e-01
3.867399999999999949e+00 3.927200000000000024e+00 4.392499999999999716e+01 -1.864989999999999881e+01 -8.763921143583659756e-02
3.869299999999999962e+00 1.652499999999999858e+01 3.934499999999999886e+01 5.276099999999999568e+00 -1.060703530311824239e-01
3.869600000000000151e+00 3.117200000000000060e+01 5.233899999999999864e+01 4.892990999999999957e+01 -8.416463211476903072e-02
3.870499999999999829e+00 3.058200000000000074e+01 3.557000000000000028e+01 -6.983867999999999743e-01 -3.867515052006321175e-01
3.874800000000000022e+00 3.490899999999999892e+01 6.541899999999999693e+01 3.312119000000000035e+00 -9.839247843636360347e-02
3.893899999999999917e+00 3.658299999999999841e+01 6.488700000000000045e+01 -2.070666999999999813e+00 -6.976686983497706884e-02
3.895000000000000018e+00 3.604500000000000171e+01 5.065999999999999659e+01 1.719308999999999976e+00 -3.537697788905868612e-01
3.895000000000000018e+00 3.749099999999999966e+01 5.146600000000000108e+01 1.471257999999999955e+00 -3.534458392731155141e-01
3.895000000000000018e+00 3.774499999999999744e+01 5.235999999999999943e+01 -1.263107999999999898e+00 -3.971062949942645859e-01
3.900999999999999801e+00 3.217799999999999727e+01 6.109799999999999898e+01 -6.849412000000000056e+00 -1.234243078055159704e-01
3.901199999999999779e+00 3.346900000000000119e+01 4.887199999999999989e+01 1.510210999999999970e+01 -3.542211823029448592e-01
3.906600000000000072e+00 3.354099999999999682e+01 4.710699999999999932e+01 1.275393000000000043e+01 -3.541335068501290650e-01
3.915000000000000036e+00 1.038999999999999924e+00 4.478900000000000148e+01 -1.638064999999999927e+01 -8.714416867459309768e-02
3.915000000000000036e+00 1.266000000000000014e+00 4.399000000000000199e+01 -3.877613000000000198e+00 -8.627532163862752790e-02
3.915000000000000036e+00 2.559000000000000163e+00 4.326899999999999835e+01 -3.930010999999999921e+00 -8.609211394450028143e-02
3.923900000000000166e+00 2.470200000000000173e+00 4.883100000000000307e+01 -2.748390999999999806e+00 -9.351196935226738227e-02
3.924700000000000077e+00 3.837400000000000233e+01 3.695199999999999818e+01 4.676313000000000386e+00 -3.534136202927786741e-01
3.925699999999999967e+00 4.008000000000000007e+00 6.389600000000000080e+01 1.788473000000000113e+01 -1.042621826982182975e-01
3.942299999999999915e+00 1.829899999999999949e+01 3.467900000000000205e+01 -5.364459999999999784e-01 -2.749054360366924299e-01
3.942600000000000104e+00 3.467399999999999949e+01 4.634799999999999898e+01 2.849829999999999863e+00 -3.539317005239138725e-01
3.947299999999999809e+00 1.280899999999999928e+01 6.227100000000000080e+01 -5.896243000000000123e+00 -1.336007895350532215e-01
3.947999999999999954e+00 3.633200000000000074e+01 3.716599999999999682e+01 2.822363999999999873e+00 -3.880169738306293303e-01
3.948999999999999844e+00 1.281700000000000017e+01 6.419199999999999307e+01 1.059745000000000026e+01 -1.323241806130062703e-01
3.950200000000000156e+00 3.890800000000000125e+01 5.820799999999999841e+01 -4.427942999999999962e+00 -3.716170851870508329e-01
3.953100000000000058e+00 1.412299999999999933e+01 4.381700000000000017e+01 6.298055999999999877e+00 -1.178915606207968647e-01
3.953100000000000058e+00 1.412299999999999933e+01 4.468200000000000216e+01 7.632710000000000328e-01 -1.204092728264661155e-01
3.958699999999999886e+00 3.349099999999999966e+01 4.797099999999999653e+01 1.601770000000000138e+01 -3.541750607604804979e-01
3.963999999999999968e+00 3.816299999999999670e+01 4.065200000000000102e+01 2.048204000000000136e+01 -3.534212884153724588e-01
3.964799999999999880e+00 3.238799999999999812e+01 3.670799999999999841e+01 -7.594423000000000146e-01 -3.872008744323237606e-01
3.969700000000000006e+00 2.247100000000000009e+01 3.120299999999999940e+01 3.207397999999999971e+00 -3.715826763588497283e-01
3.973300000000000054e+00 3.123199999999999932e+01 5.998599999999999710e+01 6.062168999999999919e+00 -1.367994900157905314e-01
3.976999999999999869e+00 2.384300000000000086e+00 4.793299999999999983e+01 -3.385839999999999961e+00 -9.251239006873356041e-02
3.977300000000000058e+00 2.886299999999999955e+01 3.435000000000000142e+01 3.855215999999999976e+00 -3.863867734453459990e-01
3.981100000000000083e+00 2.188200000000000145e+01 6.476600000000000534e+01 -1.923026000000000124e+01 8.252080562359427607e-02
3.983600000000000030e+00 2.022599999999999909e+01 6.490399999999999636e+01 -1.086383999999999972e+01 1.020544848657324588e-01
3.984300000000000175e+00 3.329599999999999937e+01 3.814300000000000068e+01 2.493879000000000179e+00 -3.875450795281448202e-01
3.984399999999999942e+00 1.266099999999999959e+01 4.557099999999999795e+01 -8.665317999999999188e+00 -1.241806895343191552e-01
3.992999999999999883e+00 1.092099999999999937e+01 4.561099999999999710e+01 -2.760441999999999840e+00 -1.251106955446871782e-01
3.995299999999999851e+00 3.702300000000000324e+01 6.255499999999999972e+01 6.791203000000000323e+00 -3.769317502177667589e-01
3.999000000000000110e+00 4.239399999999999835e+01 3.822099999999999653e+01 -7.107491999999999699e-01 -3.530610075346060084e-01
3.999000000000000110e+00 4.239399999999999835e+01 3.927100000000000080e+01 1.200102999999999920e+00 -3.530336799091846611e-01
4.000700000000000145e+00 3.350800000000000267e+01 6.415900000000000603e+01 -1.487535999999999969e+00 -9.911826275238204420e-02
4.001800000000000246e+00 1.295500000000000007e+01 6.331199999999999761e+01 9.155053999999999803e+00 -1.340384343741619355e-01
4.007100000000000328e+00 1.721499999999999986e+01 3.938300000000000267e+01 6.237934000000000090e+00 -1.060660141140975232e-01
4.009599999999999831e+00 1.187400000000000011e+00 4.581600000000000250e+01 -4.083642000000000216e+00 -8.885335261886877223e-02
4.010299999999999976e+00 3.975000000000000000e+01 3.491199999999999903e+01 -3.469987999999999961e-01 -3.533177784720723524e-01
4.010299999999999976e+00 4.145000000000000284e+01 3.491199999999999903e+01 -1.351631999999999945e+00 -3.531967417310390434e-01
4.017699999999999605e+00 3.865999999999999659e+01 5.895199999999999818e+01 -7.798968000000000345e+00 -3.721926653566961507e-01
4.019300000000000317e+00 2.388200000000000145e+01 3.041100000000000136e+01 5.271412999999999904e+00 -3.717110829454072785e-01
4.019999999999999574e+00 4.789300000000000068e+01 4.272899999999999920e+01 1.129518000000000058e+02 -3.965577908794345463e-01
4.022700000000000387e+00 2.302400000000000091e+01 6.512399999999999523e+01 -7.192914000000000030e+00 1.023969393359078495e-01
4.025100000000000122e+00 3.319299999999999784e+01 5.372099999999999653e+01 2.449439999999999884e+01 -3.544806711223720264e-01
4.028299999999999770e+00 3.736699999999999910e+00 5.696200000000000330e+01 2.824902000000000246e-01 -1.089639240583687718e-01
4.035000000000000142e+00 2.813100000000000023e+01 6.177700000000000102e+01 -6.037333000000000283e+00 9.748133998652407095e-02
4.035800000000000054e+00 3.490999999999999659e+01 3.775900000000000034e+01 2.592009000000000007e+00 -3.878310771036047599e-01
4.036599999999999966e+00 2.686199999999999921e+00 5.852400000000000091e+01 3.134078000000000142e+00 -1.067727192745177717e-01
4.042699999999999960e+00 4.101899999999999835e+01 4.019200000000000017e+01 -3.002772999999999914e+00 -3.531371313038250692e-01
4.043400000000000105e+00 8.972500000000000142e+00 4.533200000000000074e+01 1.038379999999999997e-01 -1.251205679693205286e-01
4.048300000000000232e+00 6.386499999999999844e+00 6.396399999999999864e+01 -4.978508999999999851e+00 -1.087102589699426580e-01
4.050099999999999589e+00 3.077399999999999913e+00 6.392600000000000193e+01 2.010783999999999949e+01 -1.031235254479831581e-01
4.051300000000000345e+00 3.577400000000000091e+01 6.520499999999999829e+01 -1.189926999999999957e+00 -1.114109367928876326e-01
4.062999999999999723e+00 2.525700000000000145e+01 3.133200000000000074e+01 5.244113999999999720e-01 -3.717948015552431373e-01
4.066300000000000026e+00 2.961499999999999844e+01 5.757000000000000028e+01 -8.616319999999999535e-01 1.126085932814779034e-01
4.074200000000000266e+00 2.364799999999999969e+01 6.526699999999999591e+01 -1.185213000000000072e+01 1.092561744761242765e-01
4.075999999999999623e+00 2.874899999999999878e+01 5.506600000000000250e+01 3.340652999999999651e+01 1.497204641045936369e-01
4.075999999999999623e+00 2.909400000000000119e+01 5.428399999999999892e+01 2.801156999999999897e+01 1.661994403973630630e-01
4.083000000000000185e+00 2.868499999999999872e+01 5.602000000000000313e+01 3.346231999999999829e+01 1.448659958669148984e-01
4.091499999999999915e+00 3.846099999999999852e+01 4.006499999999999773e+01 1.453720000000000034e+01 -3.533935684234628116e-01
4.094000000000000306e+00 3.378199999999999648e+01 5.854200000000000159e+01 1.122085000000000043e+01 -3.746782330558123264e-01
4.097999999999999865e+00 3.884000000000000341e+01 3.790800000000000125e+01 7.623204999999999565e+00 -3.533701399733165660e-01
4.098099999999999632e+00 2.563899999999999935e+01 3.208899999999999864e+01 1.174195000000000100e+00 -3.718124742614559164e-01
4.102599999999999802e+00 2.096900000000000208e+00 5.211800000000000210e+01 1.405212000000000039e+01 -1.080999475655660680e-01
4.105000000000000426e+00 1.576899999999999968e+00 4.683899999999999864e+01 -2.828129000000000115e+00 -9.088838272153966502e-02
4.107400000000000162e+00 1.081099999999999994e+01 6.142799999999999727e+01 2.158911000000000158e+01 -1.247998741837260672e-01
4.107400000000000162e+00 1.221100000000000030e+01 6.142799999999999727e+01 -6.275103999999999793e+00 -1.308454546595589629e-01
4.110000000000000320e+00 1.833099999999999952e+01 6.469499999999999318e+01 1.181758999999999915e+01 1.225898321980645467e-01
4.110999999999999766e+00 3.687299999999999756e+01 6.401800000000000068e+01 6.144994999999999763e-01 -7.309805736458332981e-02
4.116999999999999993e+00 2.996000000000000085e+01 5.857500000000000284e+01 -2.236752999999999858e+01 1.175519741740644192e-01
4.116999999999999993e+00 3.016900000000000048e+01 5.931099999999999994e+01 -7.189420000000000144e+00 1.214847271430700426e-01
4.117700000000000138e+00 3.846300000000000097e+01 5.490899999999999892e+01 1.725849000000000133e-01 -3.823675903722332792e-01
4.118100000000000094e+00 5.326500000000000234e+00 6.339200000000000301e+01 2.781236000000000175e+01 -1.073516133041712006e-01
4.118900000000000006e+00 4.046100000000000030e+00 5.442499999999999716e+01 -1.540588000000000068e+00 -1.101615042097213309e-01
4.122300000000000075e+00 2.043199999999999861e+01 3.087000000000000099e+01 6.976717999999999975e+00 -3.714842829891233933e-01
4.131300000000000416e+00 3.375999999999999801e+01 5.493099999999999739e+01 2.012953999999999866e+01 -3.294763165211295197e-01
4.131999999999999673e+00 1.347100000000000009e+01 6.594299999999999784e+01 -1.278484000000000087e+01 -1.334451866870783598e-01
4.131999999999999673e+00 1.593099999999999916e+01 6.594299999999999784e+01 1.443050000000000068e+02 1.507092331981616795e-01
4.134299999999999642e+00 9.963900000000000645e+00 4.526899999999999835e+01 -2.427785000000000082e+00 -1.249036368097304894e-01
4.134999999999999787e+00 1.842100000000000071e+00 4.962700000000000244e+01 1.684210999999999903e+00 -9.442280107268544165e-02
4.135299999999999976e+00 1.715599999999999881e+01 3.226800000000000068e+01 5.074633000000000393e+00 -2.757045244713298704e-01
4.139599999999999724e+00 1.311500000000000021e+01 6.521099999999999852e+01 -1.480625999999999998e+00 -1.327643349010957374e-01
4.141300000000000203e+00 7.426899999999999835e+00 6.500600000000000023e+01 -1.513231000000000037e+01 -1.098946406780706847e-01
4.149799999999999933e+00 3.876400000000000290e+01 3.936500000000000199e+01 1.183576000000000050e+01 -3.533681780104143688e-01
