2.063100000000000023e+01 3.120799999999999841e+01 2.439199999999999946e+01 -1.750646000000000058e+01 -6.861720800151636934e-02
2.063200000000000145e+01 8.556699999999999307e+00 6.873999999999999488e+01 -1.583507999999999960e+01 -5.668579402837447406e-03
2.063200000000000145e+01 3.584700000000000131e+01 4.369599999999999795e+01 -1.210975999999999964e+01 1.984240397660160249e-01
2.063400000000000034e+01 4.819399999999999795e-01 5.038000000000000256e+01 -1.030837999999999965e+01 -2.238002906772751377e-01
2.063599999999999923e+01 1.903099999999999881e+01 2.885200000000000031e+01 -1.712827000000000055e+01 -2.851062616158333007e-01
2.063599999999999923e+01 1.928500000000000014e+01 2.795799999999999841e+01 -1.510732999999999926e+01 -2.847724379306648124e-01
2.063599999999999923e+01 2.061599999999999966e+01 2.703600000000000136e+01 -1.355020000000000024e+01 -2.833940155918279746e-01
2.064099999999999824e+01 3.997800000000000153e+01 5.857200000000000273e+01 -1.146903999999999968e+01 -1.975188303878355756e-02
2.064399999999999835e+01 1.942999999999999972e+01 4.235099999999999909e+01 -3.146080999999999861e+01 -3.499999999999999778e-01
2.064600000000000080e+01 2.950600000000000112e+00 4.818200000000000216e+01 -3.338320999999999827e+01 -2.226926241665949102e-01
2.064900000000000091e+01 1.582000000000000073e+00 6.404500000000000171e+01 -2.072370000000000090e+01 -7.198894745531462039e-03
2.064900000000000091e+01 2.875000000000000000e+00 6.476600000000000534e+01 -4.114688000000000301e+01 -6.932428115444705038e-03
2.064900000000000091e+01 3.848299999999999699e+01 5.971399999999999864e+01 -9.804864000000000246e+00 -3.093695402978747372e-02
2.065200000000000102e+01 2.260000000000000142e+01 5.111999999999999744e+01 -1.665261999999999887e+01 -5.415300733974408309e-02
2.065399999999999991e+01 4.460300000000000153e+01 3.112500000000000000e+01 -1.399113999999999969e+01 6.539454233730991606e-02
2.066499999999999915e+01 3.154299999999999926e+01 5.070000000000000284e+01 -2.995833000000000013e+01 1.774047964380087439e-01
2.066499999999999915e+01 3.154299999999999926e+01 5.164000000000000057e+01 -3.166899000000000086e+01 1.794359850400143730e-01
2.066700000000000159e+01 2.536400000000000077e+01 2.650300000000000011e+01 -1.583760000000000012e+01 -3.500000000000000333e-01
2.066700000000000159e+01 3.313400000000000034e+01 2.272800000000000153e+01 -9.468495000000000772e+00 9.915455903926423398e-02
2.067200000000000060e+01 3.415500000000000114e+01 4.468500000000000227e+01 3.522030999999999779e+01 9.177748806356460232e-02
2.067699999999999960e+01 3.711899999999999977e+01 5.585099999999999909e+01 -4.378908000000000023e+00 2.020879809251020232e-01
2.067800000000000082e+01 4.085900000000000176e+01 2.551699999999999946e+01 -7.026823000000000263e+00 1.756451652133384693e-04
2.067899999999999849e+01 1.812500000000000000e+00 5.494200000000000017e+01 -3.864060999999999968e+00 -4.462061291565650595e-02
2.067899999999999849e+01 2.091899999999999871e+00 4.692000000000000171e+01 -2.895525999999999911e+01 -2.225994264314012372e-01
2.067899999999999849e+01 3.690100000000000158e+00 4.692000000000000171e+01 -5.124537999999999727e+01 -2.220839347646099138e-01
2.068599999999999994e+01 1.820499999999999829e+01 4.319599999999999795e+01 -2.621001000000000047e+01 -2.832998240313489013e-01
2.068599999999999994e+01 2.519399999999999906e+01 3.922500000000000142e+01 -6.977255999999999858e+01 -3.499999999999999778e-01
2.068900000000000006e+01 2.418700000000000117e+01 3.340999999999999659e+01 -1.384755999999999858e+02 -3.500000000000000333e-01
2.069000000000000128e+01 8.546099999999999142e+00 5.092699999999999960e+01 -3.485618000000000194e+01 -2.216615900472514722e-01
2.069099999999999895e+01 4.342600000000000016e+00 6.489000000000000057e+01 -1.228157999999999994e+01 -6.595714492365950879e-03
2.069099999999999895e+01 2.391799999999999926e+01 3.839600000000000080e+01 -6.956685000000000230e+01 -3.499999999999999223e-01
2.069300000000000139e+01 2.611199999999999832e+01 3.314900000000000091e+01 -1.083209999999999980e+02 -3.499999999999999778e-01
2.069399999999999906e+01 4.265100000000000335e+01 5.552700000000000102e+01 -3.935537999999999670e+01 1.369462934101886228e-02
2.069500000000000028e+01 6.669500000000000428e-01 5.406799999999999784e+01 -2.983602000000000132e+01 -2.245835469634351322e-01
2.069800000000000040e+01 3.479399999999999693e+01 2.258699999999999974e+01 -9.247280999999999196e+00 3.652804930966316137e-03
2.070599999999999952e+01 3.716199999999999903e+01 4.896399999999999864e+01 -1.711154000000000153e+01 6.605519740133913853e-02
2.070700000000000074e+01 2.865099999999999869e-01 6.327000000000000313e+01 9.474306999999999590e+00 -7.457836565516020103e-03
2.070899999999999963e+01 3.328199999999999648e+01 6.880400000000000205e+01 -1.391662999999999961e+01 9.672609352003848360e-02
2.071399999999999864e+01 2.360100000000000087e+00 4.767900000000000205e+01 -2.344765999999999906e+01 -2.227363482793792149e-01
2.071399999999999864e+01 3.146300000000000097e+01 5.401899999999999835e+01 -2.661272999999999911e+01 1.687851243622284225e-01
2.071499999999999986e+01 2.406700000000000017e+01 4.159300000000000352e+01 -2.558006999999999920e+01 -3.499999999999999778e-01
2.071499999999999986e+01 4.112700000000000244e+01 5.952100000000000080e+01 -1.132879999999999932e+01 1.647553323271553141e-02
2.071600000000000108e+01 1.518500000000000050e+01 5.204999999999999716e+01 -2.167711999999999861e+01 -2.867714448347273293e-01
2.071900000000000119e+01 4.603600000000000136e+01 2.805499999999999972e+01 -9.369384000000000157e+00 -1.039678837770932965e-02
2.071900000000000119e+01 2.028200000000000003e+01 4.050099999999999767e+01 -3.576536999999999722e+01 -3.499999999999999778e-01
2.072200000000000131e+01 4.449099999999999966e+01 4.834499999999999886e+01 -1.691434999999999889e+01 -1.734698893166825573e-01
2.072400000000000020e+01 3.375300000000000011e+01 4.992799999999999727e+01 -2.712837000000000032e+01 1.088294014966691564e-01
2.073000000000000043e+01 2.628699999999999903e+01 2.630499999999999972e+01 -1.633971999999999980e+01 -3.500000000000000333e-01
2.073000000000000043e+01 2.892299999999999827e+01 5.405899999999999750e+01 -3.046114000000000033e+01 2.015244940337668211e-01
2.073600000000000065e+01 4.571800000000000352e+01 4.241499999999999915e+01 -1.509797000000000011e+01 3.088746798124053505e-01
2.073699999999999832e+01 9.580600000000000449e+00 7.026099999999999568e+01 -1.644031000000000020e+01 -5.547045968826871606e-03
2.073900000000000077e+01 2.031400000000000006e+01 4.149699999999999989e+01 -3.712178000000000111e+01 -3.499999999999999778e-01
2.074200000000000088e+01 4.164900000000000269e+00 5.057600000000000051e+01 -2.229441999999999879e+01 -2.231154054228018657e-01
2.074299999999999855e+01 3.807300000000000040e+01 2.408500000000000085e+01 -1.033126999999999995e+01 2.306300419108966993e-03
2.074299999999999855e+01 3.893800000000000239e+01 2.408500000000000085e+01 -4.938888999999999641e+00 2.361968683720344978e-03
2.074299999999999855e+01 2.757300000000000040e+01 5.203199999999999648e+01 -5.556951000000000107e+01 2.236085479680637866e-01
2.075300000000000011e+01 2.797100000000000009e+01 2.469399999999999906e+01 -1.594965000000000011e+01 -3.499999999999999778e-01
2.075499999999999901e+01 2.727299999999999969e+01 3.406700000000000017e+01 -1.141413000000000011e+02 -3.499999999999999778e-01
2.075799999999999912e+01 1.279299999999999926e+01 7.422599999999999909e+01 -4.269610999999999734e+01 -1.866085560147640737e-02
2.075799999999999912e+01 4.072999999999999687e+01 2.647500000000000142e+01 3.138416000000000139e+01 -1.731429455121758247e-03
2.075799999999999912e+01 1.084600000000000009e+01 7.163100000000000023e+01 -2.150449000000000055e+01 -5.363170152298603853e-03
2.075799999999999912e+01 2.208500000000000085e+01 2.478600000000000136e+01 -1.324239000000000033e+01 -2.823614278377583608e-01
2.075799999999999912e+01 2.360500000000000043e+01 2.478600000000000136e+01 -1.695289000000000001e+01 -3.499999999999999778e-01
2.076099999999999923e+01 2.761499999999999844e+01 2.542599999999999838e+01 -1.574057999999999957e+01 -3.500000000000000333e-01
2.076099999999999923e+01 3.619500000000000028e+01 6.577599999999999625e+01 -2.982162999999999897e+01 -4.828240808035392205e-03
2.076099999999999923e+01 3.738600000000000279e+01 6.511199999999999477e+01 -1.222070000000000078e+01 4.416261819796476492e-05
2.076399999999999935e+01 3.406300000000000239e+01 5.070100000000000051e+01 -6.663403999999999883e+01 1.041017552812923963e-01
2.076500000000000057e+01 4.802100000000000080e+01 3.655400000000000205e+01 -2.094825000000000159e+01 2.000388639975696492e-01
2.076599999999999824e+01 1.225699999999999967e+01 7.897799999999999443e+01 -1.549864999999999959e+01 -1.910606262029156122e-02
2.077199999999999847e+01 2.056700000000000195e+00 4.837899999999999778e+01 -1.964905999999999864e+01 -2.230216510615111447e-01
2.077400000000000091e+01 2.826699999999999946e+01 4.224300000000000210e+01 -3.509208000000000283e+01 -1.323087922867290656e-01
2.077400000000000091e+01 2.826699999999999946e+01 4.329299999999999926e+01 -3.181582999999999828e+01 -1.358341060159974079e-01
2.077400000000000091e+01 3.713700000000000045e+01 3.700000000000000000e+01 -1.497380000000000067e+01 1.529665808144204352e-02
2.077400000000000091e+01 3.800300000000000011e+01 3.700000000000000000e+01 1.172372000000000014e+01 -7.649265174661351585e-02
2.077499999999999858e+01 2.812399999999999878e+01 7.374800000000000466e+01 -3.313239999999999696e+01 -6.221928440000235733e-03
2.077700000000000102e+01 1.659600000000000009e+01 5.152799999999999869e+01 -2.418573999999999913e+01 -2.843955025618124521e-01
2.077799999999999869e+01 3.068400000000000105e+01 7.096099999999999852e+01 -1.609243000000000023e+01 9.820944889071883677e-02
2.077799999999999869e+01 3.650200000000000244e+01 4.075300000000000011e+01 -2.585090999999999894e+01 3.290099931628713559e-02
2.078399999999999892e+01 2.983299999999999841e+01 7.198199999999999932e+01 -1.454859000000000080e+01 9.906660667421249289e-02
2.078600000000000136e+01 4.482600000000000051e+01 5.203900000000000148e+01 1.468778000000000006e+01 -2.391171548604288100e-01
2.078600000000000136e+01 4.926500000000000057e+01 3.256000000000000227e+01 1.034118999999999922e+01 5.872716486657929280e-02
2.078600000000000136e+01 4.938300000000000267e+01 3.171300000000000097e+01 2.950180999999999898e+01 4.888353242109846897e-02
2.078800000000000026e+01 1.772599999999999909e+01 3.422800000000000153e+01 -1.866029999999999944e+01 -2.870023664317664647e-01
2.079200000000000159e+01 2.920100000000000051e+01 2.387099999999999866e+01 -1.982515000000000072e+01 -3.499999999999999778e-01
2.079599999999999937e+01 3.977700000000000102e+01 2.781599999999999895e+01 -7.010577999999999754e+00 6.553788206378091674e-02
2.079799999999999827e+01 2.185099999999999909e+01 7.561499999999999488e+01 1.173465999999999987e+01 -1.964928759413809567e-01
2.079899999999999949e+01 1.716199999999999903e+01 7.818099999999999739e+01 -2.712393000000000143e+01 -1.335904747926978109e-01
2.080000000000000071e+01 1.826500000000000057e+01 3.100900000000000034e+01 -1.887787000000000148e+01 -2.863663646872320334e-01
2.080000000000000071e+01 1.837600000000000122e+01 3.180699999999999861e+01 -3.790796000000000276e+01 -2.863265666322757363e-01
2.080000000000000071e+01 1.849200000000000088e+01 3.021000000000000085e+01 -1.771881000000000128e+01 -2.859084771371711020e-01
2.080199999999999960e+01 4.049000000000000199e+01 5.925300000000000011e+01 -1.208315999999999946e+01 -2.507272260629347157e-03
2.080600000000000094e+01 1.227299999999999969e+01 7.261199999999999477e+01 -1.453153000000000006e+01 -1.881375906451949673e-02
2.080999999999999872e+01 2.223400000000000176e+01 4.345600000000000307e+01 -2.963688000000000144e+01 -3.500000000000000333e-01
2.081400000000000006e+01 1.858800000000000097e+01 7.754500000000000171e+01 -1.289006000000000007e+01 -1.973263018183951667e-01
2.081400000000000006e+01 3.763499999999999801e+01 4.151100000000000279e+01 -2.187115999999999971e+01 3.471120982956919787e-02
2.081500000000000128e+01 4.008800000000000097e+01 3.104100000000000037e+01 -2.106229000000000084e+01 2.518137752486591593e-02
2.081700000000000017e+01 3.603600000000000136e+01 3.829999999999999716e+01 -2.684459000000000017e+01 4.166254650075883192e-02
2.081700000000000017e+01 3.603600000000000136e+01 3.916599999999999682e+01 -3.077002999999999844e+01 3.844577672899540666e-02
2.082000000000000028e+01 3.664000000000000057e+01 5.068800000000000239e+01 -2.199142000000000152e+01 3.764258052178778846e-01
2.082100000000000151e+01 1.246199999999999974e+01 5.159899999999999665e+01 -2.270860000000000056e+01 -2.200999254686098472e-01
2.082300000000000040e+01 2.371600000000000108e+01 5.077400000000000091e+01 -1.804216999999999871e+01 -5.488247291540512135e-02
2.082600000000000051e+01 3.923100000000000165e+01 2.332799999999999940e+01 -9.148656000000000788e+00 3.331864921418539044e-03
2.083599999999999852e+01 3.884700000000000131e+01 2.932100000000000151e+01 -1.501492000000000004e+01 2.455007524902966254e-02
2.083599999999999852e+01 3.884700000000000131e+01 3.018700000000000117e+01 -1.797514999999999930e+01 2.570667431129599126e-02
2.083599999999999852e+01 2.953600000000000136e+01 4.431000000000000227e+01 -3.330404000000000053e+01 1.408953277638377855e-01
2.083699999999999974e+01 -5.013600000000000279e-01 6.065100000000000335e+01 -5.681269000000000347e+00 -4.907167905746263881e-02
2.083999999999999986e+01 4.553900000000000148e+01 2.860300000000000153e+01 -9.675273000000000678e+00 -1.245519662104780864e-02
2.084100000000000108e+01 6.901099999999999568e+00 5.156499999999999773e+01 -3.798577999999999832e+01 -2.226707588836480678e-01
2.084400000000000119e+01 4.056000000000000227e+01 2.245599999999999952e+01 -8.791382000000000474e+00 4.884909398210689896e-03
2.084600000000000009e+01 1.802899999999999991e+01 3.352799999999999869e+01 -2.110544000000000153e+01 -2.866251720800093716e-01
2.084600000000000009e+01 1.469000000000000083e+00 5.423599999999999710e+01 -1.123315999999999981e+01 -2.245860426259166931e-01
2.085000000000000142e+01 2.530099999999999838e+01 5.052700000000000102e+01 -3.583270999999999873e+01 2.057657662399824117e-01
2.085099999999999909e+01 1.157199999999999918e+01 7.199399999999999977e+01 -3.307544999999999646e+01 -5.238895577359762787e-03
2.085200000000000031e+01 5.865700000000000358e+00 6.833599999999999852e+01 -1.097523999999999944e+01 -6.377685378685942104e-03
2.085399999999999920e+01 4.491199999999999903e+01 5.356900000000000261e+01 1.346345999999999954e+01 -2.408960932355681539e-01
2.085399999999999920e+01 4.491199999999999903e+01 5.461899999999999977e+01 1.479833999999999961e+01 -2.400722281765137467e-01
2.085600000000000165e+01 2.154700000000000060e+01 7.631499999999999773e+01 5.922724999999999795e+00 -1.967485990364477022e-01
2.085699999999999932e+01 4.779800000000000182e+01 2.989699999999999847e+01 -8.892110999999999876e+00 4.885360684375773116e-02
2.085699999999999932e+01 2.003200000000000003e+01 5.283599999999999852e+01 5.570168000000000319e+01 -3.500000000000000333e-01
2.085699999999999932e+01 2.089799999999999969e+01 5.283599999999999852e+01 1.804738000000000042e+01 -3.499999999999999778e-01
2.085900000000000176e+01 2.027899999999999991e+01 7.717400000000000659e+01 -1.028518000000000043e+01 -1.970943123122138041e-01
2.085999999999999943e+01 2.189000000000000057e+01 4.381700000000000017e+01 -3.204551000000000016e+01 -3.499999999999999778e-01
2.086199999999999832e+01 1.647700000000000031e+01 3.516299999999999670e+01 -1.583418999999999954e+01 -2.889685765394097161e-01
2.086299999999999955e+01 1.913599999999999923e+01 3.906199999999999761e+01 -2.465088000000000079e+01 -2.833322268220107021e-01
2.086299999999999955e+01 3.425300000000000011e+01 4.882300000000000040e+01 -1.129359000000000002e+00 8.989763645723221341e-02
2.086599999999999966e+01 3.442900000000000205e+01 5.150600000000000023e+01 -5.199645000000000294e+01 9.796410305305727761e-02
2.086799999999999855e+01 3.852400000000000091e+01 6.525400000000000489e+01 -8.165881999999999863e+00 9.989553961345142355e-03
2.086799999999999855e+01 3.996999999999999886e+01 6.444799999999999329e+01 -1.302101000000000042e+01 2.276077665775213046e-02
2.086799999999999855e+01 4.022399999999999665e+01 6.355400000000000205e+01 -1.024699000000000026e+01 2.327680874751351589e-02
2.086799999999999855e+01 4.043299999999999983e+01 6.281799999999999784e+01 -3.059458999999999929e+00 2.360126991687255121e-02
2.087300000000000111e+01 1.016699999999999982e+01 7.674500000000000455e+01 -2.582819999999999894e+01 -5.912932271889194402e-03
2.087300000000000111e+01 1.039400000000000013e+01 7.594599999999999795e+01 -1.669639000000000095e+01 -5.823886240960528780e-03
2.087300000000000111e+01 1.039400000000000013e+01 7.754399999999999693e+01 -2.189986000000000033e+01 -5.919880640430121022e-03
2.087800000000000011e+01 3.999399999999999977e+01 4.086399999999999721e+01 -2.480208000000000013e+01 5.242944851735921452e-02
2.087800000000000011e+01 9.641000000000000014e+00 5.177400000000000091e+01 -4.337115000000000009e+01 -2.216824017943121172e-01
2.087800000000000011e+01 3.056200000000000117e+01 4.753799999999999670e+01 -3.524018999999999835e+01 1.652550642790361068e-01
2.087900000000000134e+01 4.797200000000000131e+01 3.576899999999999835e+01 -2.849756000000000000e+01 1.779190840544762620e-01
2.087900000000000134e+01 4.818099999999999739e+01 3.503300000000000125e+01 -1.719301000000000101e+01 1.850828200746501007e-01
2.088400000000000034e+01 4.124099999999999966e+01 3.224300000000000210e+01 -3.315214999999999890e+01 2.578948849859580283e-02
2.088400000000000034e+01 4.264099999999999824e+01 3.224300000000000210e+01 -2.213484000000000052e+01 -5.564735880425890520e-03
2.088599999999999923e+01 3.806000000000000227e+01 4.625600000000000023e+01 -3.590252999999999872e+01 -9.182555908169333370e-02
2.088899999999999935e+01 4.356799999999999784e+01 5.038000000000000256e+01 -2.683324999999999960e+01 -2.356299975636849120e-01
2.088899999999999935e+01 4.392300000000000182e+01 3.149200000000000088e+01 -1.584503999999999913e+01 6.940602287894583056e-02
2.088899999999999935e+01 -1.833599999999999952e-01 6.007800000000000296e+01 2.036496000000000084e+00 -4.879570141163744323e-02
2.088899999999999935e+01 2.572500000000000134e-02 5.934199999999999875e+01 -4.749122999999999983e+00 -4.835063759932868577e-02
2.089199999999999946e+01 4.577400000000000091e+01 3.974300000000000210e+01 -2.335122000000000142e+01 2.970995938261026259e-01
2.089799999999999969e+01 4.353699999999999903e+01 5.553999999999999915e+01 -1.675915000000000177e+01 -2.595409250798585976e-01
2.089999999999999858e+01 4.176100000000000279e+01 2.338400000000000034e+01 -6.197949000000000375e+00 3.873304416441562814e-03
2.089999999999999858e+01 4.176100000000000279e+01 2.432400000000000162e+01 -1.204626000000000019e+01 2.178883296487808211e-03
2.090200000000000102e+01 2.466400000000000148e+01 2.588200000000000145e+01 -1.561936000000000035e+01 -3.500000000000000333e-01
2.090299999999999869e+01 1.894999999999999929e+01 4.430599999999999739e+01 -5.229146000000000072e+01 -2.804940533953946269e-01
2.090599999999999881e+01 2.891000000000000014e+00 4.692000000000000171e+01 -5.219044000000000239e+01 -2.224114712358654933e-01
2.090700000000000003e+01 3.584400000000000119e+01 5.815100000000000335e+01 1.685805999999999827e+01 2.062708699360060183e-01
2.090700000000000003e+01 3.605299999999999727e+01 5.741499999999999915e+01 7.447115000000000151e+00 2.035615877826086051e-01
2.090899999999999892e+01 3.535600000000000165e+01 5.161099999999999710e+01 -2.689010999999999996e+01 7.877637547147200991e-02
2.091000000000000014e+01 2.193499999999999872e+01 5.157200000000000273e+01 -7.033465999999999774e+00 -3.499999999999999778e-01
2.091499999999999915e+01 3.518299999999999983e+01 6.776600000000000534e+01 -3.322261999999999915e+01 9.725352512724119713e-02
2.091499999999999915e+01 3.551100000000000279e+01 6.702100000000000080e+01 -5.087592000000000070e+01 -3.568638680210534878e-03
2.091600000000000037e+01 2.362300000000000111e+01 3.754800000000000182e+01 -7.836937000000000353e+01 -3.499999999999999778e-01
2.091799999999999926e+01 2.939300000000000068e+01 7.274699999999999989e+01 -1.326440000000000019e+01 9.986744886488967132e-02
2.091900000000000048e+01 2.121799999999999997e+01 7.707500000000000284e+01 -7.359859000000000151e+00 -1.969978424402411832e-01
2.092099999999999937e+01 3.266400000000000148e+01 4.872800000000000153e+01 -1.505347000000000079e+01 1.300999140038841262e-01
2.092200000000000060e+01 4.503499999999999659e+01 3.042500000000000071e+01 -1.202748000000000062e+01 6.335440121087271281e-02
2.092299999999999827e+01 5.497300000000000075e+00 6.748600000000000421e+01 -4.030331000000000330e+00 -6.449811966067406366e-03
2.092500000000000071e+01 1.324300000000000033e+01 7.348000000000000398e+01 -2.653021999999999991e+01 -1.843787325133510596e-02
2.093100000000000094e+01 6.162399999999999822e-02 5.136500000000000199e+01 -1.153473999999999933e+01 -2.241524354028006094e-01
2.093100000000000094e+01 1.531900000000000039e+00 4.872800000000000153e+01 -1.371077000000000012e+01 -2.232780234969154454e-01
2.093400000000000105e+01 4.346399999999999864e+01 4.952100000000000080e+01 -2.717791000000000068e+01 -3.499999999999999778e-01
2.093400000000000105e+01 3.462199999999999989e+01 4.797299999999999898e+01 8.594117999999999924e+00 8.002580913187087863e-02
2.093400000000000105e+01 3.190800000000000125e+01 2.433399999999999963e+01 -7.675679999999999836e+00 -7.137764371726065815e-02
2.093499999999999872e+01 1.168699999999999939e+01 7.512699999999999534e+01 -4.621264999999999645e+01 -1.921493490873090251e-02
2.093499999999999872e+01 3.514699999999999847e+01 4.375500000000000256e+01 -9.878493999999999886e+00 -9.181225482749083566e-02
2.093499999999999872e+01 3.654699999999999704e+01 4.375500000000000256e+01 -3.293661999999999868e+00 -9.025324596693150292e-02
2.093700000000000117e+01 6.856300000000000061e+00 6.844400000000000261e+01 -2.512962999999999880e+01 -6.156617180421005038e-03
2.093700000000000117e+01 2.340599999999999881e+01 5.115699999999999648e+01 -1.621609000000000123e+01 -5.482138415850731222e-02
2.094099999999999895e+01 4.646200000000000330e+01 2.861899999999999977e+01 -3.645626000000000033e+00 -1.459571146922645189e-02
2.094399999999999906e+01 2.764499999999999957e+01 5.322399999999999665e+01 -5.252015000000000100e+01 2.162992241666522875e-01
2.094500000000000028e+01 -1.044699999999999962e+00 5.248899999999999721e+01 -1.915806999999999860e+01 -2.244918654125057089e-01
2.094500000000000028e+01 -1.044699999999999962e+00 5.400900000000000034e+01 -3.989793000000000234e+01 -4.442983966949819868e-02
2.094500000000000028e+01 -1.052899999999999947e-01 5.400900000000000034e+01 -8.355898000000000536e+01 -4.425417839173693968e-02
2.094600000000000151e+01 3.437700000000000244e+01 4.712700000000000244e+01 -8.585608999999999824e+00 8.461054005095842989e-02
2.094699999999999918e+01 4.645300000000000296e+01 3.951700000000000301e+01 -1.724095000000000155e+01 1.653478356072154432e-01
2.094699999999999918e+01 1.873000000000000043e+01 4.240899999999999892e+01 -2.516198999999999941e+01 -2.829933180125194236e-01
2.094800000000000040e+01 2.356099999999999994e+01 3.508299999999999841e+01 -1.162518000000000029e+02 -3.499999999999999778e-01
2.095299999999999940e+01 5.372899999999999565e+00 6.655500000000000682e+01 -1.045637999999999934e+01 -6.453123532954914421e-03
2.095400000000000063e+01 3.047500000000000142e+01 2.433999999999999986e+01 -2.681220000000000070e+01 -2.530462767091795628e-01
2.095400000000000063e+01 2.693599999999999994e+01 5.216499999999999915e+01 -3.887554999999999694e+01 2.214592479281597970e-01
2.095499999999999829e+01 -1.035900000000000043e+00 6.183400000000000318e+01 -1.275625999999999927e+01 -4.971132531286812095e-02
2.095499999999999829e+01 3.271800000000000352e+01 4.961399999999999721e+01 -2.580123999999999995e+01 1.351721025355295258e-01
2.095700000000000074e+01 1.821300000000000097e+01 4.962100000000000222e+01 -2.885037000000000162e+01 -3.499999999999999778e-01
2.095700000000000074e+01 1.915299999999999869e+01 4.962100000000000222e+01 -4.105447000000000202e+01 -3.500000000000000888e-01
2.096000000000000085e+01 1.663500000000000156e+01 3.787500000000000000e+01 -3.221011000000000024e+01 -2.887362837185785680e-01
2.096499999999999986e+01 1.294699999999999918e+01 7.923799999999999955e+01 -1.155613999999999919e+01 -1.892080951888189255e-02
2.096699999999999875e+01 -1.086300000000000043e+00 6.262700000000000244e+01 -2.592272000000000176e+01 -5.008632820456195706e-02
2.096699999999999875e+01 2.050000000000000000e+01 4.464399999999999835e+01 -2.723131000000000057e+01 -3.499999999999999778e-01
2.096799999999999997e+01 2.367800000000000082e+01 7.392100000000000648e+01 1.395828999999999986e+01 -1.958231134281567531e-01
2.096999999999999886e+01 3.617199999999999704e+01 5.906600000000000250e+01 2.561906000000000105e+01 2.117686334576140972e-01
2.097500000000000142e+01 1.056000000000000050e+00 6.338000000000000256e+01 1.042479999999999940e+01 -7.384821964257772334e-03
2.098000000000000043e+01 7.536999999999999922e+00 5.151500000000000057e+01 -4.488680999999999699e+01 -2.224604732281639241e-01
2.098199999999999932e+01 3.550500000000000256e+01 2.275600000000000023e+01 -8.845947000000000671e+00 3.359265808916654748e-03
2.098199999999999932e+01 4.791199999999999903e+01 3.942399999999999949e+01 -2.662706999999999979e+01 1.544768044199872903e-01
2.098300000000000054e+01 2.450000000000000000e+01 4.089300000000000068e+01 -4.730100000000000193e+01 -3.499999999999999778e-01
2.098300000000000054e+01 1.293999999999999950e+01 7.278000000000000114e+01 -6.009008999999999823e+00 -1.854351697631389378e-02
2.098799999999999955e+01 3.827300000000000324e+01 4.706799999999999784e+01 -2.324228000000000094e+01 -9.404264043097851355e-02
2.098900000000000077e+01 2.342699999999999960e+01 3.600699999999999790e+01 -1.140572999999999979e+02 -3.500000000000000888e-01
2.098900000000000077e+01 2.342699999999999960e+01 3.687199999999999989e+01 -1.000962999999999994e+02 -3.499999999999999778e-01
2.098999999999999844e+01 3.286899999999999977e+01 6.860599999999999454e+01 -1.358099999999999952e+01 9.594652812415438436e-02
2.099200000000000088e+01 4.376800000000000068e+01 4.882099999999999795e+01 -2.245026000000000010e+01 -1.629839182335428294e-01
2.099299999999999855e+01 2.521999999999999886e+01 7.353799999999999670e+01 -2.226594000000000051e+01 -2.958050619509060980e-02
2.099299999999999855e+01 7.414100000000000135e-01 5.768999999999999773e+01 6.267756999999999579e+00 -4.726883259231828144e-02
2.099599999999999866e+01 1.460699999999999932e+01 7.909699999999999420e+01 -2.262422000000000111e+01 -1.834710393286217295e-02
2.100000000000000000e+01 4.505599999999999739e+01 2.948199999999999932e+01 -1.200276999999999994e+01 6.040634757201079896e-02
2.100199999999999889e+01 2.411300000000000221e+00 4.868399999999999750e+01 -1.599282000000000004e+01 -2.230761003381549479e-01
2.100400000000000134e+01 4.528499999999999659e+01 4.171500000000000341e+01 -1.865393999999999863e+01 3.066527067919316840e-01
2.100400000000000134e+01 2.254500000000000171e+01 7.467900000000000205e+01 6.702295000000000336e+00 -1.963006077840680763e-01
2.100499999999999901e+01 4.128199999999999648e+01 5.471300000000000097e+01 -1.379089999999999927e+00 2.214852160205643961e-01
2.100499999999999901e+01 4.214699999999999847e+01 5.471300000000000097e+01 -1.143168999999999969e+01 -8.286043932627887992e-03
2.100799999999999912e+01 -1.374100000000000099e+00 5.324900000000000233e+01 -5.276756000000000313e+01 -2.246671459206077692e-01
2.100900000000000034e+01 1.810600000000000165e+01 3.292199999999999704e+01 -2.061001999999999867e+01 -2.866091776111837630e-01
2.101300000000000168e+01 2.723900000000000077e+01 5.286500000000000199e+01 -4.897749999999999915e+01 2.190353115018292551e-01
2.101300000000000168e+01 1.926699999999999946e+01 5.210199999999999676e+01 7.370186999999999955e+01 -3.499999999999999778e-01
2.101300000000000168e+01 1.378100000000000058e+01 5.210300000000000153e+01 -2.452637999999999963e+01 -2.198353902650332647e-01
2.101999999999999957e+01 1.948199999999999932e+01 5.038100000000000023e+01 -5.382083000000000084e+01 -3.499999999999999778e-01
2.102100000000000080e+01 4.914200000000000301e+01 3.766100000000000136e+01 -1.344633999999999929e+01 1.821035044917161116e-01
2.102100000000000080e+01 4.914200000000000301e+01 3.860099999999999909e+01 -1.560225999999999935e+01 1.594033920959599393e-01
2.102199999999999847e+01 1.233000000000000007e+01 7.497299999999999898e+01 -3.759006000000000114e+01 -1.896122670462408247e-02
2.102599999999999980e+01 3.173699999999999832e+01 6.936400000000000432e+01 -1.152262999999999948e+01 9.638885341276731689e-02
2.103500000000000014e+01 3.833599999999999852e+01 4.147999999999999687e+01 -2.215014000000000038e+01 3.998379142404760722e-02
2.103600000000000136e+01 3.398400000000000176e+01 2.265700000000000003e+01 -9.836071999999999704e+00 9.888160758433081621e-02
2.103600000000000136e+01 3.322399999999999665e+01 4.878799999999999670e+01 -1.490925999999999974e+01 1.139240897319490908e-01
2.103800000000000026e+01 3.121999999999999886e+01 4.753099999999999881e+01 -3.239871999999999730e+01 1.530044294900283486e-01
2.103999999999999915e+01 4.641799999999999926e+01 4.247299999999999898e+01 -1.702748000000000062e+01 3.100061502487653775e-01
2.104400000000000048e+01 4.495499999999999829e+01 4.796500000000000341e+01 -1.115005999999999986e+01 -1.809917864896331829e-01
2.104500000000000171e+01 3.111599999999999966e+01 7.026099999999999568e+01 -1.018374999999999986e+01 9.757899348918586124e-02
2.104700000000000060e+01 2.776399999999999935e+01 3.641100000000000136e+01 -1.211513000000000062e+02 -3.499999999999999778e-01
2.105499999999999972e+01 1.921399999999999864e+01 5.114000000000000057e+01 -2.814573999999999998e+01 -3.500000000000000333e-01
2.105900000000000105e+01 2.525500000000000078e+00 5.532500000000000284e+01 2.135153000000000034e+01 -4.510444740239501205e-02
2.105900000000000105e+01 2.525500000000000078e+00 5.619100000000000250e+01 -5.167162000000000255e+00 -4.594327975263651220e-02
2.106299999999999883e+01 3.992399999999999949e+01 3.824000000000000199e+01 -2.363907999999999987e+01 -7.647550228106306247e-02
2.106299999999999883e+01 2.189499999999999957e+01 4.430700000000000216e+01 -2.962244000000000099e+01 -3.499999999999999778e-01
2.106400000000000006e+01 3.933700000000000330e+01 5.937299999999999756e+01 -9.057430999999999344e+00 -2.740655651706232557e-02
2.106400000000000006e+01 7.856700000000000017e+00 6.847299999999999898e+01 -1.585445999999999955e+01 -5.922960177285494128e-03
2.106400000000000006e+01 9.047599999999999199e+00 6.913700000000000045e+01 -1.926453000000000060e+01 -5.649858286617603573e-03
2.106500000000000128e+01 3.607200000000000273e+01 3.776700000000000301e+01 -2.504975999999999914e+01 4.416932750701339783e-02
2.107000000000000028e+01 4.039600000000000080e+01 5.541499999999999915e+01 -9.146321999999999619e+00 2.165283501802229282e-01
2.107400000000000162e+01 2.742299999999999827e+01 7.408199999999999363e+01 -1.979463000000000150e+01 -4.875625375923979196e-03
2.107900000000000063e+01 5.086800000000000210e+00 6.578799999999999670e+01 -1.388225000000000087e+01 -6.529252247318298799e-03
2.107900000000000063e+01 4.764800000000000324e+01 4.329599999999999937e+01 -1.713072000000000017e+01 3.163406901272299843e-01
2.107900000000000063e+01 4.764800000000000324e+01 4.423599999999999710e+01 -2.796152000000000015e+01 9.390687174677639359e-02
2.107999999999999829e+01 2.594800000000000040e+01 5.093500000000000227e+01 -3.257838999999999885e+01 2.151196164775045772e-01
2.108099999999999952e+01 1.093099999999999916e+01 5.216899999999999693e+01 -2.412772999999999968e+01 -2.213808351233395033e-01
2.108200000000000074e+01 3.778300000000000125e+01 5.998100000000000165e+01 -8.104362000000000066e+00 -4.058146868544203201e-02
2.108200000000000074e+01 4.085900000000000176e+01 6.211200000000000188e+01 -7.673255000000000159e+00 2.725236618483057455e-02
2.108200000000000074e+01 4.111299999999999955e+01 6.121800000000000352e+01 -1.104026999999999958e+01 2.771911791977269696e-02
2.108999999999999986e+01 3.806799999999999784e+01 4.788000000000000256e+01 -1.987885999999999953e+01 -1.032497029823934431e-01
2.109499999999999886e+01 1.781899999999999906e+01 5.033299999999999841e+01 -3.276426000000000016e+01 -3.499999999999999778e-01
2.109600000000000009e+01 4.032999999999999829e+01 2.738100000000000023e+01 -7.070185999999999638e+00 6.505243497005365472e-02
2.110200000000000031e+01 1.567399999999999949e+01 3.643800000000000239e+01 -1.594764999999999944e+01 -2.903077407040677294e-01
2.110399999999999920e+01 1.076999999999999957e+01 7.833799999999999386e+01 -2.126584000000000074e+01 -5.931948318672723881e-03
2.110600000000000165e+01 1.738100000000000023e+01 3.809199999999999875e+01 -2.070109000000000066e+01 -2.872977831168881391e-01
2.110699999999999932e+01 1.610200000000000031e+01 7.845699999999999363e+01 8.779282000000000474e-01 -1.335410824927846796e-01
2.110999999999999943e+01 3.630100000000000193e+01 5.696500000000000341e+01 -5.513429000000000357e+00 2.016485153741863212e-01
2.110999999999999943e+01 3.641899999999999693e+01 5.611800000000000210e+01 -1.840269999999999939e+01 1.974394448739781593e-01
2.111599999999999966e+01 1.690500000000000114e+01 3.427100000000000080e+01 -1.520625000000000071e+01 -2.883823507739940450e-01
2.111899999999999977e+01 2.115000000000000213e+00 6.447599999999999909e+01 -2.043179999999999907e+01 -7.212771783774216301e-03
2.112000000000000099e+01 3.694400000000000261e+01 2.336499999999999844e+01 -2.958718000000000181e+00 2.743091506202454538e-03
2.112199999999999989e+01 2.348699999999999832e+01 3.454299999999999926e+01 -1.260747000000000071e+02 -3.499999999999999778e-01
2.112199999999999989e+01 2.369600000000000151e+01 3.380700000000000216e+01 -1.388109000000000037e+02 -3.500000000000000333e-01
2.112199999999999989e+01 2.488700000000000045e+01 3.314300000000000068e+01 -1.410490000000000066e+02 -3.499999999999999778e-01
2.112300000000000111e+01 4.833499999999999908e+00 6.528700000000000614e+01 -1.194650000000000034e+01 -6.589470229454890901e-03
2.112300000000000111e+01 2.461799999999999855e+01 3.866299999999999670e+01 -6.654046999999999912e+01 -3.499999999999999778e-01
2.112699999999999889e+01 2.935500000000000043e+01 5.454999999999999716e+01 -2.688465000000000060e+01 1.949355179710485220e-01
2.112699999999999889e+01 2.556599999999999895e+01 2.606599999999999895e+01 -1.481317999999999913e+01 -3.499999999999999778e-01
2.113100000000000023e+01 4.858899999999999864e+01 3.463300000000000267e+01 -7.615592000000000361e+00 1.724698870749664633e-03
2.113500000000000156e+01 3.230299999999999727e+01 5.040999999999999659e+01 -3.246394999999999698e+01 1.540339118086456738e-01
2.113500000000000156e+01 3.324300000000000210e+01 5.040999999999999659e+01 -3.269946999999999804e+01 1.224283139982373925e-01
2.113500000000000156e+01 4.097500000000000142e+01 6.033800000000000097e+01 -8.794893999999999323e+00 1.762584446220209072e-02
2.114000000000000057e+01 2.110699999999999932e+01 2.664000000000000057e+01 -1.361078999999999972e+01 -2.828037288140654026e-01
2.114000000000000057e+01 2.131599999999999895e+01 2.590399999999999991e+01 -1.703274000000000044e+01 -2.827177448151356742e-01
2.114099999999999824e+01 2.442899999999999849e+01 5.083700000000000330e+01 -3.137812999999999874e+01 -5.594720058167579335e-02
2.114499999999999957e+01 4.042699999999999960e+01 3.929899999999999949e+01 -2.449434000000000111e+01 -7.636971533984818206e-02
2.114499999999999957e+01 4.042699999999999960e+01 4.016400000000000148e+01 -2.376660000000000039e+01 2.120736127157809778e-02
2.114699999999999847e+01 3.195400000000000063e+01 5.362199999999999989e+01 -2.609193000000000140e+01 1.624174735229069744e-01
2.114799999999999969e+01 4.429599999999999937e+01 3.108599999999999852e+01 -1.457618000000000080e+01 6.887253167435539170e-02
2.114999999999999858e+01 1.121799999999999997e+01 7.897599999999999909e+01 -2.300394000000000005e+01 -5.902225763040060483e-03
2.115200000000000102e+01 1.600799999999999912e+01 3.759000000000000341e+01 -1.867302000000000106e+01 -2.900158434169441413e-01
2.115399999999999991e+01 4.650500000000000256e+01 4.749099999999999966e+01 5.747972999999999555e-01 8.899354994213667935e-02
2.115599999999999881e+01 4.400000000000000000e+01 5.107999999999999829e+01 -8.604611000000000232e+00 -2.379172092275710637e-01
2.115899999999999892e+01 4.534199999999999875e+01 4.044299999999999784e+01 -3.045433999999999841e+01 3.015568728553194022e-01
2.116100000000000136e+01 1.988100000000000023e+01 2.747700000000000031e+01 -1.544650999999999996e+01 -2.839980350399836095e-01
2.116300000000000026e+01 3.720799999999999841e+01 5.526599999999999824e+01 -9.617829000000000406e+00 1.970777700192768433e-01
2.116300000000000026e+01 3.807399999999999807e+01 5.526599999999999824e+01 -1.700897000000000103e+00 2.041528763959194470e-01
2.116600000000000037e+01 1.071399999999999908e+00 4.947200000000000131e+01 -1.181657000000000046e+01 -2.236220422452255829e-01
2.117099999999999937e+01 3.260099999999999909e+01 4.814099999999999824e+01 -2.198619000000000057e+01 1.256089253171477904e-01
2.117099999999999937e+01 3.757000000000000028e+01 3.650900000000000034e+01 -9.651080999999999577e+00 -7.651708648589874984e-02
2.117299999999999827e+01 2.015299999999999869e+00 5.689699999999999847e+01 -1.171987999999999985e+01 -4.669849747890416486e-02
2.117699999999999960e+01 3.768900000000000006e+01 4.543599999999999994e+01 -2.778437999999999874e+01 -9.146482054433383024e-02
2.117999999999999972e+01 3.633900000000000130e+00 6.457399999999999807e+01 -2.797672000000000025e+01 -6.888617840559779423e-03
2.118100000000000094e+01 5.822300000000000253e+00 5.191100000000000136e+01 -2.844124000000000052e+01 -2.232612076033872184e-01
2.118499999999999872e+01 3.733299999999999841e+01 4.470400000000000063e+01 -1.742801000000000045e+01 -9.009115373689172146e-02
2.118700000000000117e+01 4.194100000000000250e+01 3.230100000000000193e+01 -2.249608999999999881e+01 -3.430670321829038059e-03
2.118799999999999883e+01 2.657300000000000040e+01 3.379999999999999716e+01 -1.137360000000000042e+02 -3.499999999999999778e-01
2.119000000000000128e+01 2.547100000000000009e+01 3.916799999999999926e+01 -6.806811000000000433e+01 -3.500000000000000333e-01
2.119000000000000128e+01 3.026500000000000057e+01 4.617999999999999972e+01 -3.442096999999999696e+01 1.519004314684585244e-01
2.119000000000000128e+01 3.977100000000000080e+01 2.262399999999999878e+01 -1.034999999999999964e+01 3.986942945424999836e-03
2.119000000000000128e+01 4.129099999999999682e+01 2.262399999999999878e+01 -1.109656000000000020e+01 4.496638156813867297e-03
2.119099999999999895e+01 4.139000000000000057e+01 2.514399999999999835e+01 -2.416291000000000011e+01 1.521671614715099997e-04
2.119200000000000017e+01 4.322299999999999898e+01 3.155000000000000071e+01 -1.506678999999999924e+01 -5.880596805174564262e-03
2.119300000000000139e+01 2.602100000000000080e+01 7.371800000000000352e+01 -3.864661999999999864e+01 -3.197468298624233513e-02
2.119399999999999906e+01 3.668599999999999994e+01 6.537999999999999545e+01 -2.595510000000000161e+01 -5.056749194389905354e-03
2.119399999999999906e+01 2.574099999999999966e+01 3.971399999999999864e+01 -6.010258000000000322e+01 -3.500000000000000333e-01
2.119500000000000028e+01 4.715899999999999892e+01 2.960699999999999932e+01 -9.100068999999999519e+00 5.438015212612846982e-02
2.119800000000000040e+01 3.197400000000000020e+01 5.117000000000000171e+01 -3.014324999999999832e+01 1.692591365703686734e-01
2.120200000000000173e+01 3.938400000000000034e+01 3.103500000000000014e+01 -2.198337000000000074e+01 2.765354510063318741e-02
2.120499999999999829e+01 4.668800000000000061e+00 5.111899999999999977e+01 -2.273697999999999908e+01 -2.233016005868961040e-01
2.120599999999999952e+01 4.425999999999999801e+01 4.837199999999999989e+01 -1.593060000000000009e+01 -1.695849173322703796e-01
2.120700000000000074e+01 3.870300000000000296e+01 3.726700000000000301e+01 -7.152447000000000443e+00 -7.650569639550947043e-02
2.121000000000000085e+01 1.589600000000000080e+01 5.179599999999999937e+01 -2.288303000000000154e+01 -2.863916199370704074e-01
2.121099999999999852e+01 3.073000000000000043e+01 2.513899999999999935e+01 -2.681370000000000076e+01 -2.532218094983540446e-01
2.121099999999999852e+01 2.807799999999999940e+01 5.392399999999999949e+01 -3.398320999999999970e+01 2.106286812058462965e-01
2.121199999999999974e+01 4.571200000000000263e-01 6.307300000000000040e+01 -2.714164999999999939e+00 -7.560561184953020278e-03
2.122299999999999898e+01 2.873100000000000165e+01 2.440399999999999991e+01 -1.634804000000000102e+01 -3.499999999999999778e-01
2.122299999999999898e+01 2.967099999999999937e+01 2.440399999999999991e+01 -2.885428999999999888e+01 -3.499999999999999778e-01
2.122500000000000142e+01 2.520299999999999940e+01 4.064800000000000324e+01 -4.409902999999999906e+01 -3.500000000000000888e-01
2.122800000000000153e+01 2.155199999999999960e+01 2.521699999999999875e+01 -1.277144000000000013e+01 -2.825962500668520172e-01
2.122800000000000153e+01 2.284499999999999886e+01 2.449599999999999866e+01 -1.324380999999999986e+01 -2.816825530290348323e-01
2.122800000000000153e+01 2.413800000000000168e+01 2.521699999999999875e+01 -1.485061999999999927e+01 -3.500000000000000333e-01
2.122800000000000153e+01 3.928600000000000136e+01 2.821199999999999974e+01 -2.238140000000000018e+00 2.382639719391292307e-02
2.123499999999999943e+01 -5.749999999999999556e-01 5.324900000000000233e+01 -3.247576999999999714e+01 -2.246694788504658979e-01
2.123799999999999955e+01 2.002299999999999969e+01 4.124600000000000222e+01 -3.129907000000000039e+01 -3.499999999999999778e-01
2.124699999999999989e+01 1.928800000000000026e+01 7.727700000000000102e+01 -1.103342999999999918e+01 -1.975079911827504753e-01
2.124699999999999989e+01 1.868299999999999983e+01 5.038100000000000023e+01 -4.133229000000000042e+01 -3.499999999999999778e-01
2.124699999999999989e+01 1.850000000000000000e+01 3.854399999999999693e+01 -2.326142000000000110e+01 -2.848412883988780675e-01
2.125000000000000000e+01 -3.421799999999999842e-01 5.227300000000000324e+01 -1.681121999999999872e+01 -2.244666797617303478e-01
2.125000000000000000e+01 4.715299999999999869e+01 3.945900000000000318e+01 -4.043160000000000309e+01 1.637784440716127388e-01
2.125300000000000011e+01 4.070300000000000296e+01 3.153900000000000148e+01 -2.623924999999999841e+01 2.699850188611657709e-02
2.125400000000000134e+01 2.046499999999999986e+01 5.332699999999999818e+01 -9.524876000000000786e+00 -2.793900257680691501e-01
2.126000000000000156e+01 3.807500000000000284e+01 2.362399999999999878e+01 -1.048109999999999964e+01 2.383025221371275464e-03
2.126200000000000045e+01 2.714699999999999847e+01 2.601200000000000045e+01 -1.528928999999999938e+01 -3.499999999999999778e-01
2.126899999999999835e+01 3.002700000000000102e+01 4.470600000000000307e+01 -3.306210999999999700e+01 1.391089107740852426e-01
2.126899999999999835e+01 3.023600000000000065e+01 4.544200000000000017e+01 -3.256038999999999817e+01 1.438490869230431013e-01
2.127299999999999969e+01 3.363700000000000045e+01 5.112199999999999989e+01 -3.492907000000000295e+01 1.124091487958860658e-01
2.127499999999999858e+01 2.893299999999999983e+01 7.337300000000000466e+01 -1.613848000000000127e+01 1.005350679791166685e-01
2.127700000000000102e+01 1.722200000000000131e+01 5.108800000000000097e+01 -2.412950999999999979e+01 -2.836142167239276146e-01
2.127899999999999991e+01 2.169000000000000039e+00 5.450300000000000011e+01 3.361831999999999709e+01 -4.446945381234884004e-02
2.128300000000000125e+01 3.622099999999999653e+01 5.138000000000000256e+01 -1.867376000000000147e+01 3.759490610935982136e-01
2.128699999999999903e+01 1.505200000000000093e+00 5.760300000000000153e+01 -8.774965999999999156e+00 -4.738447508829544963e-02
2.128800000000000026e+01 3.378199999999999648e+01 4.796999999999999886e+01 -1.000536999999999921e+01 9.279060814953932201e-02
2.128999999999999915e+01 2.159799999999999898e+01 5.256900000000000261e+01 -1.277832000000000079e+01 -3.499999999999999778e-01
2.129100000000000037e+01 1.782300000000000040e+01 7.754800000000000182e+01 3.505018000000000189e+00 -1.336414969189896884e-01
2.129100000000000037e+01 2.000300000000000011e+01 4.034799999999999898e+01 -3.034910999999999959e+01 -3.499999999999999778e-01
2.129299999999999926e+01 3.216899999999999693e+01 6.866400000000000148e+01 -2.157295999999999836e+01 9.549241493743081122e-02
2.129700000000000060e+01 1.022199999999999953e+01 7.075799999999999557e+01 -2.501940000000000097e+01 -5.524467914339937884e-03
2.130199999999999960e+01 1.193699999999999939e+01 5.219500000000000028e+01 -2.331486999999999910e+01 -2.209551214077606907e-01
2.130199999999999960e+01 1.298700000000000010e+01 5.219500000000000028e+01 -2.403333999999999904e+01 -2.203981057221633399e-01
2.130499999999999972e+01 3.492399999999999949e+01 5.210199999999999676e+01 -2.907216999999999985e+01 8.420126946469105866e-02
2.130699999999999861e+01 3.216499999999999915e+01 5.279699999999999704e+01 -2.602439000000000036e+01 1.615841108565486683e-01
2.130999999999999872e+01 2.354400000000000048e+01 4.220400000000000063e+01 -2.292423000000000144e+01 -3.499999999999999778e-01
2.131099999999999994e+01 4.867199999999999704e+01 3.690100000000000335e+01 -1.705197000000000074e+01 2.042481384055208071e-01
2.131099999999999994e+01 4.867199999999999704e+01 3.936099999999999710e+01 -3.715984999999999872e+01 1.515347424074600657e-01
2.131099999999999994e+01 4.853300000000000125e+01 3.033800000000000097e+01 1.066337000000000090e+00 5.189732573789086756e-02
2.131400000000000006e+01 2.819600000000000151e+01 3.711099999999999710e+01 -9.638213000000000363e+01 -3.500000000000000888e-01
2.131400000000000006e+01 2.819600000000000151e+01 3.804699999999999704e+01 -8.060635999999999513e+01 -3.499999999999999778e-01
2.131599999999999895e+01 3.093300000000000161e+00 4.951299999999999812e+01 -1.437981000000000087e+01 -2.232311310567959839e-01
2.131800000000000139e+01 3.137300000000000111e+01 2.494500000000000028e+01 -1.129269999999999996e+01 -1.608262900680032248e-01
2.132100000000000151e+01 1.452599999999999980e+01 5.210999999999999943e+01 -2.236117000000000132e+01 -2.194827180167962799e-01
2.132300000000000040e+01 2.846999999999999886e+01 3.895900000000000318e+01 -7.291625999999999408e+01 -1.231010272230983749e-01
2.132799999999999940e+01 2.712000000000000099e+01 3.546900000000000119e+01 -1.166454999999999984e+02 -3.500000000000000333e-01
2.132900000000000063e+01 4.750399999999999778e+01 4.483599999999999852e+01 -3.641758999999999702e+01 3.523965523269170091e-02
2.132900000000000063e+01 1.925400000000000134e+01 5.251100000000000279e+01 4.401868000000000336e+00 -3.499999999999999778e-01
2.133200000000000074e+01 3.721000000000000085e+01 4.098799999999999955e+01 -2.578560999999999837e+01 3.708465093385511502e-02
2.133399999999999963e+01 2.297299999999999898e+01 5.164800000000000324e+01 -2.172979000000000127e+01 -5.393614127717574064e-02
2.133599999999999852e+01 3.683300000000000018e+00 5.019700000000000273e+01 -1.125062999999999924e+01 -2.232971936430965254e-01
2.133599999999999852e+01 1.964999999999999858e+01 4.457300000000000040e+01 -2.965193999999999974e+01 -3.500000000000000333e-01
2.133599999999999852e+01 2.135000000000000142e+01 4.457300000000000040e+01 -2.615728999999999971e+01 -3.499999999999999778e-01
2.133599999999999852e+01 1.876399999999999935e+01 2.928500000000000014e+01 -1.629823000000000022e+01 -2.853403032286865315e-01
2.133999999999999986e+01 4.436699999999999733e+01 5.155899999999999750e+01 -4.235562999999999967e+00 -2.394538397343623226e-01
2.133999999999999986e+01 1.248000000000000043e+01 7.215399999999999636e+01 -1.778096000000000032e+01 -1.881994715493349318e-02
2.134299999999999997e+01 1.092699999999999960e+01 7.551500000000000057e+01 -1.735050000000000026e+01 -5.760703581206073551e-03
