1.900499999999999901e+01 3.866199999999999903e+01 5.792000000000000171e+01 2.840196999999999861e+01 -2.027104249263724303e-02
1.900900000000000034e+01 4.484300000000000352e+01 1.015900000000000034e+02 -2.303910000000000124e+01 -1.868065778072414140e-01
1.901000000000000156e+01 3.232999999999999829e+01 8.462600000000000477e+01 1.370742000000000083e+01 -2.168036988434711154e-01
1.901599999999999824e+01 3.047899999999999920e+01 1.020400000000000063e+02 -2.005788000000000082e+01 -1.588150208367483107e-01
1.901999999999999957e+01 1.542600000000000016e+01 1.007500000000000000e+02 -1.058102000000000054e+01 -1.660270217077070842e-01
1.901999999999999957e+01 5.033100000000000307e+01 9.050400000000000489e+01 -1.673190999999999917e+01 4.246572454042912836e-02
1.902199999999999847e+01 4.798799999999999955e+01 8.511499999999999488e+01 -3.190647999999999840e+01 3.877395848993794164e-02
1.902299999999999969e+01 5.329099999999999682e+01 9.045199999999999818e+01 -7.533910000000000196e+01 -6.625738856864044068e-02
1.902299999999999969e+01 5.458400000000000318e+01 8.973099999999999454e+01 -3.780082999999999771e+01 -6.285198051681310794e-02
1.902299999999999969e+01 5.481099999999999994e+01 8.893200000000000216e+01 -4.847409999999999997e+01 -6.279661033273060966e-02
1.902499999999999858e+01 3.925699999999999790e+01 8.162900000000000489e+01 5.594427999999999734e+00 1.759428987191768642e-02
1.902499999999999858e+01 4.030700000000000216e+01 8.162900000000000489e+01 1.917168999999999901e+00 1.733793673695704224e-02
1.902499999999999858e+01 4.487899999999999778e+01 6.640399999999999636e+01 -4.700143999999999878e+00 -1.418086852216714775e-03
1.903200000000000003e+01 2.465599999999999881e+01 8.503000000000000114e+01 6.032722999999999836e+00 -1.948720189208212605e-02
1.903399999999999892e+01 2.753699999999999903e+01 8.426200000000000045e+01 2.461354000000000042e+01 -1.750637549300581297e-01
1.903500000000000014e+01 4.743099999999999739e+01 6.381799999999999784e+01 8.701190999999999676e+00 -3.006227891516440737e-03
1.903500000000000014e+01 4.922800000000000153e+01 9.686599999999999966e+01 1.016746999999999979e+01 -6.467038812858236230e-02
1.903800000000000026e+01 4.944100000000000250e+01 8.654999999999999716e+01 -2.298066000000000031e+01 3.994677569586471688e-02
1.903800000000000026e+01 4.944100000000000250e+01 8.741500000000000625e+01 -6.706131000000000064e+00 4.035433377294345147e-02
1.904299999999999926e+01 4.604200000000000159e+01 6.571500000000000341e+01 -8.547190000000000065e-01 -1.985020978791274260e-03
1.904299999999999926e+01 3.343500000000000227e+01 8.139700000000000557e+01 2.212980999999999909e+01 -6.021314637047617616e-03
1.904400000000000048e+01 4.984000000000000341e+01 6.847299999999999898e+01 -9.595369000000000259e-01 -1.868112080501211931e-03
1.904899999999999949e+01 4.544700000000000273e+01 9.114900000000000091e+01 -1.751372999999999891e+01 4.030323898246386538e-02
1.905199999999999960e+01 2.476800000000000068e+01 9.713899999999999579e+01 5.884872999999999799e+00 -1.626488658789741193e-01
1.905199999999999960e+01 2.476800000000000068e+01 9.853900000000000148e+01 -1.955426999999999893e+01 -1.622824952018466493e-01
1.905199999999999960e+01 2.563299999999999912e+01 9.713899999999999579e+01 6.033017999999999992e-01 -1.622405612916680284e-01
1.905199999999999960e+01 5.468900000000000006e+01 8.811599999999999966e+01 -3.143302999999999869e+01 -6.380639734354501269e-02
1.905399999999999849e+01 4.328499999999999659e+01 1.034000000000000057e+02 -1.025526999999999944e+01 -1.821297108362657236e-01
1.905900000000000105e+01 1.210200000000000031e+01 9.718000000000000682e+01 -4.980673000000000350e+00 -1.675426842698142793e-01
1.905900000000000105e+01 1.665599999999999881e+01 1.015699999999999932e+02 -3.632507999999999981e+01 -1.654985185794656255e-01
1.905900000000000105e+01 5.889200000000000301e+01 8.005400000000000205e+01 -1.786688000000000054e+00 -4.248700576007274216e-02
1.905900000000000105e+01 5.975699999999999790e+01 8.005400000000000205e+01 2.468477000000000032e+00 -4.089050436955621315e-02
1.905999999999999872e+01 3.249000000000000199e+01 7.962600000000000477e+01 6.455330000000000013e+00 -6.757355874093795220e-03
1.905999999999999872e+01 3.335600000000000165e+01 8.288599999999999568e+01 1.292836999999999925e+01 9.180951469100574747e-02
1.906500000000000128e+01 3.511500000000000199e+01 1.066599999999999966e+02 -1.608699000000000012e+01 -1.579052775038731760e-01
1.906500000000000128e+01 3.757500000000000284e+01 1.066599999999999966e+02 -4.955373000000000161e+01 -2.006831460717319326e-01
1.906800000000000139e+01 4.285499999999999687e+01 7.602200000000000557e+01 -9.989278999999999797e+00 2.036990331804600790e-02
1.906800000000000139e+01 4.110199999999999676e+01 1.057900000000000063e+02 -2.466695999999999955e+01 -2.202734654827971372e-01
1.906899999999999906e+01 4.266100000000000136e+01 4.868900000000000006e+01 -2.627257999999999871e+00 9.801472425069882033e-02
1.906899999999999906e+01 5.165200000000000102e+01 7.020199999999999818e+01 8.828787000000000162e-01 -1.617420965448425688e-03
1.907000000000000028e+01 3.374699999999999989e+01 8.212399999999999523e+01 1.668872999999999962e+01 9.205738205353686254e-02
1.907000000000000028e+01 4.691899999999999693e+01 6.123499999999999943e+01 -7.884566999999999659e+00 -3.594653626574776609e-03
1.907100000000000151e+01 2.170400000000000063e+01 8.777800000000000580e+01 5.715377999999999847e-01 -1.499445010278265336e-02
1.907300000000000040e+01 4.934000000000000341e+01 1.004000000000000057e+02 -2.486768999999999963e+01 -3.107607371315922462e-01
1.907600000000000051e+01 2.905199999999999960e+01 8.463200000000000500e+01 1.511159999999999926e+01 -1.750904008847700699e-01
1.907700000000000173e+01 4.403199999999999648e+01 5.012500000000000000e+01 -8.870381000000000071e+00 -1.759949847419546576e-02
1.907799999999999940e+01 5.025999999999999801e+01 7.657699999999999818e+01 -3.150035999999999947e-01 1.834173549648149271e-02
1.907799999999999940e+01 1.537199999999999989e+01 9.054900000000000659e+01 -4.317073000000000160e-01 -1.329845874133595354e-02
1.908599999999999852e+01 4.430599999999999739e+01 5.096600000000000108e+01 1.841714000000000073e+00 -1.764866397488525779e-02
1.909100000000000108e+01 5.883500000000000085e+01 8.442799999999999727e+01 -2.184453999999999851e+01 -1.571761231635926126e-01
1.909100000000000108e+01 2.438599999999999923e+01 9.985099999999999909e+01 -3.343263000000000318e+01 -1.622263584414009863e-01
1.909199999999999875e+01 4.606900000000000261e+01 1.008799999999999955e+02 -4.920374999999999943e+00 -3.031939146723120482e-01
1.909299999999999997e+01 5.747099999999999653e+01 8.617499999999999716e+01 -1.776246000000000080e+01 -5.757847968697592245e-02
1.909499999999999886e+01 4.642199999999999704e+01 6.222699999999999676e+01 -8.711786999999999281e+00 -3.221636594139762940e-03
1.909700000000000131e+01 4.682000000000000028e+01 9.268800000000000239e+01 2.745487999999999928e+00 4.167222600346200123e-02
1.909700000000000131e+01 2.793599999999999994e+01 1.015999999999999943e+02 2.447889999999999944e+01 -1.601746175522215376e-01
1.910099999999999909e+01 3.597899999999999920e+01 8.227100000000000080e+01 1.766688999999999865e+01 1.779739646317440860e-02
1.910099999999999909e+01 5.396600000000000108e+01 6.145300000000000296e+01 1.741741000000000028e+01 -5.077999123250773010e-03
1.910300000000000153e+01 1.795299999999999940e+01 1.008400000000000034e+02 -2.740070000000000050e+01 -1.650502112665095666e-01
1.910399999999999920e+01 3.634499999999999886e+01 1.074800000000000040e+02 -1.949812999999999974e+01 -2.012316089838503130e-01
1.910500000000000043e+01 2.647899999999999920e+01 9.818899999999999295e+01 -3.308825000000000127e+00 -1.615463195722276757e-01
1.910600000000000165e+01 4.453699999999999903e+01 8.903900000000000148e+01 -1.674161000000000143e+01 3.907205715361151271e-02
1.910999999999999943e+01 3.390400000000000347e+01 1.048199999999999932e+02 -3.691904999999999859e+01 -1.577265206513598916e-01
1.911199999999999832e+01 3.319299999999999784e+01 7.106900000000000261e+01 -4.713643000000000249e+00 -7.757886967248174212e-03
1.911499999999999844e+01 4.057900000000000063e+01 4.842199999999999704e+01 -1.684520000000000017e+00 9.828591433431264901e-02
1.911599999999999966e+01 4.246999999999999886e+01 1.051299999999999955e+02 -1.058065000000000033e+01 -1.796911768275886168e-01
1.911799999999999855e+01 3.381700000000000017e+01 8.055599999999999739e+01 1.609973000000000098e+01 -5.959600634026751033e-03
1.912199999999999989e+01 4.714399999999999835e+01 7.489100000000000534e+01 1.797140999999999877e+01 2.015537023598400201e-02
1.912199999999999989e+01 3.067699999999999960e+01 8.513700000000000045e+01 1.400831999999999944e+01 -1.749900089430994066e-01
1.912300000000000111e+01 5.602300000000000324e+01 7.782299999999999329e+01 -6.026890999999999998e+00 -4.908358865715639618e-02
1.912300000000000111e+01 2.471000000000000085e+01 9.908299999999999841e+01 -3.307527999999999935e+01 -1.622175063432362285e-01
1.912500000000000000e+01 3.932399999999999807e+01 1.052699999999999960e+02 -1.127177000000000007e+01 -2.012366258363192661e-01
1.912800000000000011e+01 2.959600000000000009e+01 1.017399999999999949e+02 -4.613160999999999845e+00 -1.593394910273825127e-01
1.913100000000000023e+01 5.879699999999999704e+01 8.355299999999999727e+01 -5.733063999999999716e+00 -1.577198277375570223e-01
1.913200000000000145e+01 5.870100000000000051e+01 8.535200000000000387e+01 -2.328527000000000058e+01 -1.568516783977501605e-01
1.913500000000000156e+01 5.463100000000000023e+01 6.036399999999999721e+01 9.856159999999999144e+00 -5.365418537869896462e-03
1.913599999999999923e+01 4.274600000000000222e+01 1.043100000000000023e+02 -2.026266999999999996e+01 -1.806601919135620571e-01
1.913599999999999923e+01 5.625399999999999778e+01 7.537199999999999989e+01 -7.365161999999999765e+00 1.732464017870869594e-02
1.913700000000000045e+01 4.936699999999999733e+01 6.673900000000000432e+01 -6.813119000000000369e+00 -2.451083599246839384e-03
1.914099999999999824e+01 2.580199999999999960e+01 8.248699999999999477e+01 2.937261000000000166e+01 1.868369410174646750e-01
1.914600000000000080e+01 1.549600000000000044e+01 8.964199999999999591e+01 -1.728032000000000012e+00 -1.446612539191235135e-02
1.914600000000000080e+01 1.572300000000000075e+01 8.884300000000000352e+01 -1.301493999999999929e+00 -1.548417581517743183e-02
1.914600000000000080e+01 1.701599999999999824e+01 8.812199999999999989e+01 -5.404792999999999736e+00 -1.606460433317997635e-02
1.914600000000000080e+01 4.578199999999999648e+01 6.632899999999999352e+01 -1.034868999999999950e+01 -1.643673306337612838e-03
1.914600000000000080e+01 4.815899999999999892e+01 9.510599999999999454e+01 -8.556169000000000580e+00 1.267437321956237095e-01
1.914699999999999847e+01 3.346200000000000330e+01 7.182800000000000296e+01 -1.136644000000000077e+01 -7.557980406177730939e-03
1.914799999999999969e+01 4.816199999999999903e+01 7.482099999999999795e+01 1.321369999999999933e+01 1.994438702606420033e-02
1.915500000000000114e+01 1.344699999999999918e+01 9.261100000000000421e+01 3.612719999999999931e+00 -1.154896550253522829e-02
1.915899999999999892e+01 3.920400000000000063e+01 4.934300000000000352e+01 -1.940085000000000059e+00 9.834663989378895910e-02
1.915899999999999892e+01 3.920400000000000063e+01 5.039300000000000068e+01 9.146292000000000311e-01 9.823839917475472860e-02
1.916300000000000026e+01 3.841700000000000159e+01 8.198799999999999955e+01 7.696945999999999621e+00 1.747747892314609891e-02
1.916600000000000037e+01 3.932699999999999818e+01 7.500700000000000500e+01 -8.164424999999999599e+00 -3.741072344204851054e-03
1.916700000000000159e+01 4.714900000000000091e+01 6.049300000000000210e+01 -7.210992000000000068e+00 -3.790570996625106711e-03
1.917200000000000060e+01 3.194800000000000040e+01 8.102500000000000568e+01 1.324208999999999925e+01 -6.637784754992127716e-03
1.917500000000000071e+01 1.202699999999999925e+01 9.618200000000000216e+01 -6.145830000000000126e+00 -1.677088802949130986e-01
1.917699999999999960e+01 4.694899999999999807e+01 9.364600000000000080e+01 1.332793000000000028e+01 2.247607881862185297e-01
1.917699999999999960e+01 2.636700000000000088e+01 8.325300000000000011e+01 4.705971000000000259e+01 -2.258422956575597759e-02
1.917699999999999960e+01 3.865999999999999659e+01 1.052800000000000011e+02 -1.320616000000000057e+01 -2.010270792614574642e-01
1.917999999999999972e+01 3.855599999999999739e+01 6.676099999999999568e+01 -2.059741999999999962e+01 -6.157465011019372901e-03
1.918100000000000094e+01 2.635699999999999932e+01 9.910099999999999909e+01 1.659486000000000061e+01 -1.614145501712886399e-01
1.918100000000000094e+01 3.327499999999999858e+01 1.040300000000000011e+02 -2.253295999999999921e+01 -1.578551883403197242e-01
1.918299999999999983e+01 4.480499999999999972e+01 8.734199999999999875e+01 -1.831326999999999927e+01 3.855606378026350117e-02
1.918599999999999994e+01 4.929099999999999682e+01 6.775799999999999557e+01 5.146665999999999741e+00 -1.983391817710958120e-03
1.918700000000000117e+01 5.622999999999999687e+01 7.363700000000000045e+01 1.639236999999999966e+01 1.832487049428476594e-02
1.918799999999999883e+01 4.166799999999999926e+01 5.639900000000000091e+01 -1.706745000000000090e+01 -1.678778956648411397e-02
1.918900000000000006e+01 3.239800000000000324e+01 8.140600000000000591e+01 1.399924000000000035e+01 -6.388720175570947180e-03
1.918900000000000006e+01 3.344800000000000040e+01 7.970600000000000307e+01 5.615446000000000382e+00 -6.304744138786751335e-03
1.918900000000000006e+01 4.708899999999999864e+01 8.477200000000000557e+01 -1.651251999999999853e+01 3.843235890275641803e-02
1.918900000000000006e+01 1.260500000000000043e+01 9.847400000000000375e+01 -5.803679999999999950e+00 -1.672294146198855802e-01
1.918900000000000006e+01 1.389799999999999969e+01 9.919499999999999318e+01 -5.638067999999999813e+01 -1.667313163902190420e-01
1.919099999999999895e+01 3.199200000000000088e+01 7.934600000000000364e+01 6.394538999999999973e+00 -6.940918858932705257e-03
1.919200000000000017e+01 2.316700000000000159e+01 8.656499999999999773e+01 1.181038999999999950e+00 -1.670762900456579381e-02
1.919500000000000028e+01 4.519100000000000250e+01 8.356399999999999295e+01 -1.340268999999999977e+01 1.365610666934878245e-02
1.919500000000000028e+01 4.381199999999999761e+01 5.347099999999999653e+01 7.744043999999999706e+00 -1.747773290488991230e-02
1.919500000000000028e+01 4.694200000000000017e+01 6.472599999999999909e+01 1.052027000000000001e+01 -2.539429851903302407e-03
1.919500000000000028e+01 4.969200000000000017e+01 6.472599999999999909e+01 1.267948999999999948e+01 -3.245438251595409666e-03
1.919500000000000028e+01 4.969200000000000017e+01 6.577599999999999625e+01 6.169926000000000244e+00 -2.890218213774907886e-03
1.919500000000000028e+01 4.262199999999999989e+01 5.428699999999999903e+01 4.594878999999999714e+00 -1.715034381964266816e-02
1.919500000000000028e+01 4.695199999999999818e+01 5.993699999999999761e+01 -4.293503000000000291e+00 -3.862857381385877663e-03
1.920299999999999940e+01 4.287199999999999989e+01 6.775000000000000000e+01 -2.806986000000000203e+00 -3.913091646846832659e-03
1.920499999999999829e+01 3.225099999999999767e+01 6.948000000000000398e+01 4.311590000000000145e-01 -8.181822756402230834e-03
1.921099999999999852e+01 3.934199999999999875e+01 5.355499999999999972e+01 6.285686999999999802e-01 9.780259933029804287e-02
1.921199999999999974e+01 4.455700000000000216e+01 8.814100000000000534e+01 -1.263124999999999964e+01 3.877979348539280224e-02
1.922200000000000131e+01 3.579500000000000171e+01 6.686400000000000432e+01 -4.811125999999999792e+00 -7.205808348301265612e-03
1.922200000000000131e+01 3.719500000000000028e+01 6.686400000000000432e+01 -2.227203000000000088e+01 -6.678990546964145951e-03
1.922700000000000031e+01 5.495400000000000063e+01 6.268299999999999983e+01 2.075860000000000039e+00 -5.023911348868046259e-03
1.922700000000000031e+01 5.647399999999999665e+01 6.022299999999999898e+01 -1.016666999999999987e+01 -5.685649820143763751e-03
1.922700000000000031e+01 5.647399999999999665e+01 6.268299999999999983e+01 -6.823493999999999460e+01 -5.338054806548819982e-03
1.922899999999999920e+01 4.920100000000000051e+01 7.460999999999999943e+01 1.469261999999999979e+01 1.974855514107253310e-02
1.922899999999999920e+01 3.783599999999999852e+01 5.365100000000000335e+01 2.218855000000000022e+00 -2.023822439292811970e-02
1.923000000000000043e+01 3.069999999999999929e+01 8.017400000000000659e+01 9.083384999999999820e+00 -7.193793875867987922e-03
1.923300000000000054e+01 6.183299999999999841e+01 7.824500000000000455e+01 -8.527259000000000810e+00 -2.624578466142419853e-01
1.923300000000000054e+01 6.183299999999999841e+01 7.920300000000000296e+01 -5.420218000000000202e+00 -3.835499061667054649e-02
1.923400000000000176e+01 4.933200000000000074e+01 7.821899999999999409e+01 -3.918362999999999818e+00 1.727533333504144980e-02
1.924099999999999966e+01 3.478499999999999659e+01 8.181499999999999773e+01 1.401980000000000004e+01 1.816328314189211840e-02
1.924500000000000099e+01 4.811299999999999955e+01 8.351699999999999591e+01 -1.235651999999999973e+01 3.844046714438589113e-02
1.924599999999999866e+01 3.781300000000000239e+01 1.058799999999999955e+02 -3.892233000000000231e+01 -2.008449987527228531e-01
1.925199999999999889e+01 3.449499999999999744e+01 7.290600000000000591e+01 -6.593009999999999593e+00 -6.938449841531420248e-03
1.925199999999999889e+01 3.482000000000000028e+01 7.364400000000000546e+01 3.044963999999999782e+00 -6.671079620320413857e-03
1.925799999999999912e+01 4.686399999999999721e+01 1.009399999999999977e+02 6.657324000000000019e+00 -3.047594799141605804e-01
1.926200000000000045e+01 5.539399999999999835e+01 7.203900000000000148e+01 9.504837999999999454e+00 -2.023229557839872472e-03
1.926200000000000045e+01 3.751100000000000279e+01 8.204000000000000625e+01 5.110179999999999723e+00 1.759153649432248709e-02
1.926500000000000057e+01 1.539300000000000068e+01 1.001899999999999977e+02 -1.552042999999999928e+01 -1.661118754359814931e-01
1.926800000000000068e+01 5.541599999999999682e+01 8.587600000000000477e+01 -8.421493999999999147e+00 -6.334635216238508615e-02
1.927299999999999969e+01 2.419900000000000162e+01 8.569100000000000250e+01 8.682665000000000077e+00 -1.807398129372527612e-02
1.927299999999999969e+01 6.057900000000000063e+01 7.740500000000000114e+01 9.014710000000000223e-01 -4.147048724690482330e-02
1.927299999999999969e+01 6.057900000000000063e+01 8.004300000000000637e+01 6.461030999999999835e+01 -3.962525512218940948e-02
1.927400000000000091e+01 5.789399999999999835e+01 8.127500000000000568e+01 1.115504999999999924e+01 -4.380240780933261635e-02
1.927400000000000091e+01 5.789399999999999835e+01 8.214000000000000057e+01 1.554482999999999926e+01 -1.595662607692231449e-01
1.927499999999999858e+01 3.618099999999999739e+01 5.627100000000000080e+01 -3.517450000000000188e+00 -2.060551647451747126e-02
1.927700000000000102e+01 3.276299999999999812e+01 8.392600000000000193e+01 1.266536999999999935e+01 1.765113073999971527e-02
1.927799999999999869e+01 2.614900000000000091e+01 9.716200000000000614e+01 -1.048116999999999965e+00 -1.620755522896630274e-01
1.928000000000000114e+01 3.288100000000000023e+01 8.303900000000000148e+01 1.191352000000000011e+01 -5.823612054521502476e-03
1.928200000000000003e+01 4.335499999999999687e+01 1.029099999999999966e+02 -1.470142000000000060e+01 -1.829829923283544657e-01
1.928200000000000003e+01 4.718900000000000006e+01 9.437500000000000000e+01 -1.124892000000000003e+01 2.255016535066912964e-01
1.928500000000000014e+01 5.252300000000000324e+01 9.051800000000000068e+01 -1.765311000000000163e+01 -6.835040198338351858e-02
1.928999999999999915e+01 3.426800000000000068e+01 8.136199999999999477e+01 1.662067000000000050e+01 -5.450580102848236880e-03
1.929500000000000171e+01 3.634899999999999665e+01 5.449399999999999977e+01 -2.691011000000000042e+00 -2.049290777597442825e-02
1.929500000000000171e+01 3.103600000000000136e+01 7.939900000000000091e+01 7.916503999999999763e+00 -7.204741450558656106e-03
1.929500000000000171e+01 3.103600000000000136e+01 8.094899999999999807e+01 1.970719000000000065e+01 -6.925794800965149982e-03
1.929500000000000171e+01 4.178499999999999659e+01 6.862800000000000011e+01 -9.250135999999999470e+00 -4.186709784265213799e-03
1.929899999999999949e+01 4.343399999999999750e+01 8.362999999999999545e+01 -1.117515999999999998e+01 1.440014580431750978e-02
1.930399999999999849e+01 5.428300000000000125e+01 8.663400000000000034e+01 -1.258577999999999975e+01 4.220426008559845232e-02
1.930399999999999849e+01 5.428300000000000125e+01 8.750000000000000000e+01 -2.088044999999999973e+01 -6.540677869170807845e-02
1.930399999999999849e+01 5.448899999999999721e+01 7.097799999999999443e+01 -6.044612000000000318e-01 -2.193163137222274052e-03
1.930499999999999972e+01 4.900900000000000034e+01 8.584999999999999432e+01 -3.428112999999999744e+01 3.956401184663177473e-02
1.930900000000000105e+01 4.038600000000000279e+01 7.610299999999999443e+01 -1.967232999999999876e+01 2.043381655173234779e-02
1.931200000000000117e+01 5.027300000000000324e+01 6.917300000000000182e+01 2.487737000000000087e+00 -1.592302832423469648e-03
1.931500000000000128e+01 4.372699999999999676e+01 5.842900000000000205e+01 8.451323000000000363e+00 -3.524926130721739263e-03
1.931500000000000128e+01 4.477700000000000102e+01 5.842900000000000205e+01 1.750632999999999839e+01 -3.716907619957807076e-03
1.931599999999999895e+01 3.910199999999999676e+01 5.718500000000000227e+01 9.453784000000000631e+00 -2.013955396059028888e-02
1.931899999999999906e+01 3.969299999999999784e+01 5.130100000000000193e+01 3.949638000000000204e+00 9.802977518324716699e-02
1.932100000000000151e+01 3.217900000000000205e+01 6.795799999999999841e+01 -1.679300000000000015e+00 -8.262206748654177951e-03
1.932100000000000151e+01 3.217900000000000205e+01 6.896599999999999397e+01 -3.496411999999999853e-01 -8.196580484757964857e-03
1.932300000000000040e+01 1.508999999999999986e+01 9.949399999999999977e+01 -1.776164999999999949e+01 -1.662990381916323590e-01
1.932799999999999940e+01 3.503000000000000114e+01 1.055400000000000063e+02 -4.197883000000000209e+01 -1.578045730766357846e-01
1.932999999999999829e+01 4.690200000000000102e+01 6.574899999999999523e+01 6.689293000000000156e+00 -2.116135472660539939e-03
1.933800000000000097e+01 3.222599999999999909e+01 1.034000000000000057e+02 -9.067833000000000254e+00 -1.583037422790908033e-01
1.934299999999999997e+01 3.956600000000000250e+01 6.828400000000000603e+01 -3.190613000000000099e+01 -5.365273572667602839e-03
1.934299999999999997e+01 4.075699999999999790e+01 6.894799999999999329e+01 -2.174400999999999939e+01 -4.617210066392892984e-03
1.935300000000000153e+01 2.258999999999999986e+01 1.012300000000000040e+02 -3.477461000000000269e+01 -1.630053484745806747e-01
1.935300000000000153e+01 2.353000000000000114e+01 1.012300000000000040e+02 -6.920135999999999399e+01 -1.625532782271710552e-01
1.935300000000000153e+01 1.907700000000000173e+01 1.001400000000000006e+02 3.107518999999999920e+01 -1.646971545616110477e-01
1.935399999999999920e+01 5.039900000000000091e+01 7.568300000000000693e+01 5.122532999999999781e+00 1.873614303976971901e-02
1.935699999999999932e+01 3.600600000000000023e+01 5.547200000000000131e+01 -3.127911000000000108e+00 -2.058661688009210539e-02
1.936199999999999832e+01 4.510699999999999932e+01 7.545600000000000307e+01 1.569949000000000083e+01 2.011597646033691858e-02
1.936299999999999955e+01 4.831700000000000017e+01 6.377499999999999858e+01 9.469262000000000512e+00 -3.143712887518594536e-03
1.936400000000000077e+01 5.920799999999999841e+01 7.781000000000000227e+01 1.220056999999999947e+00 -4.339508312698474313e-02
1.937099999999999866e+01 4.355499999999999972e+01 7.596399999999999864e+01 2.307371999999999979e+00 2.010963691294590655e-02
1.937199999999999989e+01 4.433299999999999841e+01 6.705500000000000682e+01 -4.108456000000000330e+00 -9.275947611258928988e-04
1.937300000000000111e+01 1.281000000000000050e+01 9.427299999999999613e+01 2.414226999999999990e+01 -9.852773222443876253e-03
1.937300000000000111e+01 1.281000000000000050e+01 9.513800000000000523e+01 1.057675000000000054e+01 -8.849010449044753673e-03
1.937800000000000011e+01 3.999699999999999989e+01 5.200099999999999767e+01 6.175281000000000020e+00 9.788394021273634504e-02
1.937800000000000011e+01 4.167900000000000205e+01 8.370900000000000318e+01 -6.307706999999999731e+00 1.506363790142260448e-02
1.937999999999999901e+01 3.769800000000000040e+01 6.668600000000000705e+01 -3.112661999999999907e+01 -6.453468543665516650e-03
1.938400000000000034e+01 3.282999999999999829e+01 8.222100000000000364e+01 1.177877999999999936e+01 -5.989098508145802337e-03
1.938599999999999923e+01 4.335799999999999699e+01 5.927900000000000347e+01 2.109655000000000058e+00 -3.261649238831534122e-03
1.938599999999999923e+01 3.472599999999999909e+01 1.048400000000000034e+02 -6.588088999999999373e+01 -1.577583315922621854e-01
1.938899999999999935e+01 4.659899999999999665e+01 6.644899999999999807e+01 2.294872999999999941e+00 -1.741781308529910142e-03
1.939000000000000057e+01 5.559000000000000341e+01 7.625700000000000500e+01 -1.412238999999999933e+01 1.680211940001789458e-02
1.939000000000000057e+01 5.559000000000000341e+01 7.712300000000000466e+01 -7.621540000000000425e+00 -4.998199665937391734e-02
1.939099999999999824e+01 4.637299999999999756e+01 7.488299999999999557e+01 5.854693999999999932e+01 2.014359918337795680e-02
1.939300000000000068e+01 2.083800000000000097e+01 8.814900000000000091e+01 4.780673000000000172e+00 -1.447503411586109970e-02
1.939499999999999957e+01 2.224299999999999855e+01 8.726999999999999602e+01 4.455567999999999751e-01 -1.553285576162626545e-02
1.939499999999999957e+01 3.200699999999999790e+01 8.468000000000000682e+01 1.526158999999999999e+01 -2.164951661935482219e-01
1.939699999999999847e+01 1.391200000000000081e+01 9.211400000000000432e+01 8.566599000000000297e-01 -1.184119320222506815e-02
1.939900000000000091e+01 2.732199999999999918e+01 1.005699999999999932e+02 7.807129999999999903e+00 -1.607612721176146509e-01
1.940399999999999991e+01 4.021500000000000341e+01 5.677300000000000324e+01 -1.930068999999999946e+01 -1.991809891686261574e-02
1.940700000000000003e+01 3.625800000000000267e+01 6.005700000000000216e+01 -1.099751999999999974e+01 -2.079312304955144644e-02
1.940700000000000003e+01 3.777799999999999869e+01 6.005700000000000216e+01 -3.916422000000000025e+01 -2.050241203716900856e-02
1.941400000000000148e+01 1.777299999999999969e+01 8.832200000000000273e+01 -1.565881000000000078e+00 -1.536124137405412392e-02
1.941400000000000148e+01 1.917299999999999827e+01 8.832200000000000273e+01 3.395484999999999864e+00 -1.483389978587129968e-02
1.941600000000000037e+01 2.385900000000000176e+01 1.004699999999999989e+02 -6.551548999999999978e+01 -1.625008238332708577e-01
1.941799999999999926e+01 4.367699999999999960e+01 6.014999999999999858e+01 1.930158999999999903e-01 -3.112190134944071897e-03
1.942200000000000060e+01 5.823100000000000165e+01 8.611199999999999477e+01 -2.407480999999999938e+01 -5.603138417090601509e-02
1.942599999999999838e+01 5.672299999999999898e+01 7.788100000000000023e+01 -1.087101999999999968e+01 -4.772607142453019063e-02
1.942699999999999960e+01 4.509199999999999875e+01 8.653100000000000591e+01 -2.025724999999999909e+01 3.847852147049032889e-02
1.943299999999999983e+01 5.090800000000000125e+01 6.959099999999999397e+01 1.856398999999999910e+00 -1.561159382603179288e-03
1.943499999999999872e+01 5.764200000000000301e+01 7.771500000000000341e+01 -2.667727000000000182e+00 -4.612986748011406457e-02
1.943499999999999872e+01 2.546499999999999986e+01 8.418800000000000239e+01 2.090024999999999977e+01 -2.063212293934058722e-02
1.943499999999999872e+01 2.567399999999999949e+01 8.345199999999999818e+01 1.253073999999999977e+01 -2.197159049266810688e-02
1.943599999999999994e+01 3.322999999999999687e+01 7.066599999999999682e+01 9.809968999999999495e-01 -7.656962629140194598e-03
1.943799999999999883e+01 5.667000000000000171e+01 8.624599999999999511e+01 -1.685332999999999970e+01 -5.976508924483843466e-02
1.944000000000000128e+01 4.461299999999999955e+01 9.000000000000000000e+01 -3.327543000000000006e+01 3.960418364594411877e-02
1.944099999999999895e+01 4.926100000000000279e+01 9.609399999999999409e+01 6.024181000000000097e+01 -6.703248484535248575e-02
1.944500000000000028e+01 2.990200000000000102e+01 8.470300000000000296e+01 1.661986999999999881e+01 -1.751717673276425580e-01
1.945299999999999940e+01 4.847599999999999909e+01 1.007000000000000028e+02 -7.357692000000000121e+00 -3.083703329679458038e-01
1.945599999999999952e+01 5.932399999999999807e+01 7.956300000000000239e+01 2.200185999999999975e+00 -4.218364489517060362e-02
1.946199999999999974e+01 2.056500000000000128e+01 9.939000000000000057e+01 -3.030943999999999861e+00 -1.641840844506037844e-01
1.946499999999999986e+01 2.514699999999999847e+01 8.463299999999999557e+01 6.037128000000000050e+00 -1.979772854022115308e-02
1.946600000000000108e+01 2.878600000000000136e+01 1.016700000000000017e+02 5.341565000000000119e+00 -1.599488603119426366e-01
1.946799999999999997e+01 4.884100000000000108e+01 8.226500000000000057e+01 -1.091038999999999959e+01 3.846779362406817226e-02
1.946799999999999997e+01 4.904999999999999716e+01 8.152899999999999636e+01 -3.152969000000000133e+00 1.406596606487016052e-02
1.946999999999999886e+01 2.686599999999999966e+01 8.400100000000000477e+01 2.715747000000000000e+01 -2.083434227743253750e-02
1.947800000000000153e+01 3.693900000000000006e+01 7.391800000000000637e+01 -3.239016000000000162e+01 -5.428463709911806982e-03
1.947800000000000153e+01 3.799799999999999756e+01 1.051299999999999955e+02 -1.134637999999999991e+01 -2.011010526504424245e-01
1.947899999999999920e+01 3.614099999999999824e+01 5.754299999999999926e+01 -2.717220000000000191e+00 -2.066188368490994021e-02
1.948000000000000043e+01 4.879699999999999704e+01 7.421099999999999852e+01 1.336396000000000051e+01 1.989085254982780882e-02
1.948400000000000176e+01 3.972899999999999920e+01 4.849300000000000210e+01 -2.461549999999999905e+00 9.828748130975084596e-02
1.948400000000000176e+01 3.029200000000000159e+01 1.017600000000000051e+02 -1.328275999999999968e+01 -1.592431012828410264e-01
1.948400000000000176e+01 2.406800000000000139e+01 9.740600000000000591e+01 -1.515073000000000114e-01 -1.630309368914290569e-01
1.948400000000000176e+01 2.406800000000000139e+01 9.827100000000000080e+01 -2.073773999999999873e+01 -1.628190305904148039e-01
1.948699999999999832e+01 4.932900000000000063e+01 9.999500000000000455e+01 -1.738920999999999939e-01 -5.600543408750211644e-02
1.948799999999999955e+01 5.585600000000000165e+01 7.280500000000000682e+01 -1.067849999999999966e+00 1.870265070094696835e-02
1.948900000000000077e+01 3.356799999999999784e+01 7.135999999999999943e+01 6.505136000000000251e+00 -7.434010280757611180e-03
1.948999999999999844e+01 1.618599999999999994e+01 1.010400000000000063e+02 -1.273612999999999928e+01 -1.657621039082355918e-01
1.948999999999999844e+01 1.712600000000000122e+01 1.010400000000000063e+02 -3.471480999999999995e+01 -1.654064523985496193e-01
1.949099999999999966e+01 4.429099999999999682e+01 5.173799999999999955e+01 -4.730966999999999811e-01 2.286920610082601030e-02
1.949099999999999966e+01 4.429099999999999682e+01 5.269599999999999795e+01 -1.661559000000000008e+00 2.281549256646425369e-02
1.949200000000000088e+01 4.962400000000000233e+01 8.917100000000000648e+01 -1.799752000000000152e+01 4.143689020537241058e-02
1.949200000000000088e+01 4.985099999999999909e+01 8.996999999999999886e+01 -1.396180000000000021e+01 4.195923628806366018e-02
1.949200000000000088e+01 5.114399999999999835e+01 9.069100000000000250e+01 -4.404269000000000034e+01 4.298364266119907018e-02
1.949200000000000088e+01 4.638900000000000290e+01 8.483100000000000307e+01 -4.016396999999999906e+01 3.837379625243406145e-02
1.949200000000000088e+01 4.778900000000000148e+01 8.483100000000000307e+01 -1.859956999999999994e+01 3.881992711539171415e-02
1.949299999999999855e+01 5.405100000000000193e+01 9.016200000000000614e+01 -3.555940999999999974e+01 -6.409912282678635609e-02
1.949899999999999878e+01 3.914200000000000301e+01 6.731000000000000227e+01 -1.360609000000000002e+01 -5.708213000074753747e-03
1.949899999999999878e+01 4.775399999999999778e+01 7.430500000000000682e+01 3.255931000000000353e+01 2.006812529259711236e-02
1.950199999999999889e+01 4.513199999999999790e+01 5.922599999999999909e+01 1.245049999999999990e+00 -3.578397632359085756e-03
1.950199999999999889e+01 4.189099999999999824e+01 5.572899999999999920e+01 -7.920303999999999789e+00 -1.688100847715424263e-02
1.950199999999999889e+01 4.200200000000000244e+01 5.493099999999999739e+01 -4.859384999999999621e+00 -1.695374620045531772e-02
1.950600000000000023e+01 3.978199999999999648e+01 8.103300000000000125e+01 5.508231999999999573e+00 1.766127096033045726e-02
1.950900000000000034e+01 4.480599999999999739e+01 6.157900000000000063e+01 -7.402178000000000146e+00 -2.949139565615469753e-03
1.950900000000000034e+01 4.591799999999999926e+01 5.977900000000000347e+01 -4.769434999999999647e+00 -3.610402748012871664e-03
1.950900000000000034e+01 4.591799999999999926e+01 6.157900000000000063e+01 -1.159248000000000012e+01 -3.180163135642068064e-03
1.951399999999999935e+01 4.393500000000000227e+01 1.020999999999999943e+02 -1.027516999999999925e+01 -1.850501280464235121e-01
1.951500000000000057e+01 1.494999999999999929e+01 9.092600000000000193e+01 -4.467695999999999890e-01 -1.281476225396423543e-02
1.951500000000000057e+01 4.473400000000000176e+01 9.090300000000000580e+01 -4.649913000000000096e+01 4.003716021637208911e-02
1.951699999999999946e+01 5.448400000000000176e+01 6.098299999999999699e+01 4.099904000000000082e+01 -5.121208026279563952e-03
1.951699999999999946e+01 5.448400000000000176e+01 6.192300000000000182e+01 3.373993999999999716e+01 -4.964096621505074275e-03
1.951699999999999946e+01 5.694400000000000261e+01 6.098299999999999699e+01 -2.923691000000000173e+01 -5.576166974630156550e-03
1.951699999999999946e+01 5.694400000000000261e+01 6.192300000000000182e+01 -4.011352999999999724e+01 -5.445456095457716812e-03
1.951800000000000068e+01 3.305299999999999727e+01 6.610399999999999920e+01 -2.896711999999999954e+00 -8.051398156914409826e-03
1.951800000000000068e+01 3.475300000000000011e+01 6.610399999999999920e+01 -3.305860000000000021e+00 -7.533283630619794224e-03
1.951899999999999835e+01 3.406199999999999761e+01 7.220600000000000307e+01 1.456320000000000059e+00 -7.117995813498849238e-03
1.952400000000000091e+01 4.536899999999999977e+01 1.011500000000000057e+02 -5.867343000000000330e+01 -1.887791664549957060e-01
1.952400000000000091e+01 4.185999999999999943e+01 4.845400000000000063e+01 -5.793560999999999850e-02 9.803003465375069447e-02
1.952899999999999991e+01 4.314800000000000324e+01 4.923799999999999955e+01 -9.450772999999999868e+00 -1.741206699481271519e-02
1.953099999999999881e+01 1.993199999999999861e+01 9.935200000000000387e+01 3.945472000000000090e+00 -1.644730147985584423e-01
1.953200000000000003e+01 3.984000000000000341e+01 7.571999999999999886e+01 -6.288026000000000337e+00 2.050286432302742684e-02
1.953300000000000125e+01 3.674399999999999977e+01 8.200499999999999545e+01 6.493422999999999945e+00 1.764744583486556329e-02
1.953500000000000014e+01 3.587500000000000000e+01 1.069500000000000028e+02 -4.451552000000000220e+01 -2.010524671114687911e-01
1.953500000000000014e+01 3.681499999999999773e+01 1.069500000000000028e+02 -6.453963000000000250e+01 -2.009808299540766785e-01
1.953800000000000026e+01 4.034199999999999875e+01 1.055000000000000000e+02 -2.099190000000000111e+01 -1.775133707522867366e-01
1.953800000000000026e+01 4.186200000000000188e+01 1.055000000000000000e+02 -6.822594999999999743e+01 -1.792581719232244075e-01
1.953999999999999915e+01 5.809799999999999898e+01 8.031499999999999773e+01 -4.294961999999999946e+00 -4.403297895733142980e-02
1.954100000000000037e+01 4.131099999999999994e+01 8.300900000000000034e+01 1.778552000000000177e+01 1.573804665388830321e-02
1.954700000000000060e+01 3.871900000000000119e+01 7.475000000000000000e+01 -1.337526000000000082e+01 -4.111391952770515092e-03
1.955000000000000071e+01 5.062500000000000000e+01 7.713400000000000034e+01 -5.928968000000000016e-01 1.756177509341809093e-02
1.955000000000000071e+01 4.115699999999999648e+01 8.195399999999999352e+01 9.799681999999999560e-01 1.662133080566090271e-02
1.955300000000000082e+01 1.585699999999999932e+01 1.002800000000000011e+02 -1.630895999999999901e+01 -1.659596368191312843e-01
1.955600000000000094e+01 5.571399999999999864e+01 6.015999999999999659e+01 -3.192018000000000022e+00 -5.454243634223048323e-03
1.955600000000000094e+01 5.571399999999999864e+01 6.274600000000000222e+01 -2.551758999999999844e+01 -5.056584567281796443e-03
1.955600000000000094e+01 2.206099999999999994e+01 1.001599999999999966e+02 7.537568000000000268e+00 -1.634285240171349241e-01
1.955999999999999872e+01 1.289499999999999957e+01 9.357699999999999818e+01 7.163662999999999670e+00 -1.056960864058569156e-02
1.957100000000000151e+01 5.471600000000000108e+01 8.593399999999999750e+01 -1.426783999999999963e+01 4.203705772721195999e-02
1.957100000000000151e+01 5.611599999999999966e+01 8.593399999999999750e+01 -1.970529000000000153e+01 -6.147679926732806110e-02
1.957900000000000063e+01 4.885900000000000176e+01 9.537300000000000466e+01 9.036917000000000755e+00 -7.003012033915703705e-02
1.958200000000000074e+01 2.398999999999999844e+01 9.941800000000000637e+01 -1.862890000000000157e+01 -1.626541840657887428e-01
1.958399999999999963e+01 4.441599999999999682e+01 6.067900000000000205e+01 -9.551778999999999797e+00 -3.087444314813482093e-03
1.958399999999999963e+01 4.630799999999999983e+01 6.067900000000000205e+01 -1.468717999999999968e+01 -3.466466005397881439e-03
1.958899999999999864e+01 5.068900000000000006e+01 7.601999999999999602e+01 3.049755000000000216e+00 1.830461180177346894e-02
1.958899999999999864e+01 4.219400000000000261e+01 7.656900000000000261e+01 -9.770723999999999521e+00 1.986572077622845295e-02
1.959600000000000009e+01 2.687600000000000122e+01 9.862199999999999989e+01 1.643355999999999995e+01 -1.614563184925879857e-01
1.959600000000000009e+01 2.687600000000000122e+01 9.957999999999999829e+01 6.952016000000000417e+01 -1.612438448844055461e-01
1.959700000000000131e+01 4.309100000000000108e+01 5.360900000000000176e+01 5.447039000000000186e+01 -1.728037180276696672e-02
1.959799999999999898e+01 3.698599999999999710e+01 5.372200000000000131e+01 3.271577000000000179e+00 -2.034566381035494975e-02
1.959799999999999898e+01 3.554599999999999937e+01 1.061899999999999977e+02 -2.404867000000000132e+01 -1.581283157655987426e-01
1.959799999999999898e+01 3.714399999999999835e+01 1.061899999999999977e+02 -4.992313000000000045e+01 -2.010287581410063473e-01
1.959799999999999898e+01 3.058800000000000097e+01 7.891899999999999693e+01 7.111486000000000196e+00 -7.319186815237875565e-03
1.960399999999999920e+01 1.243599999999999994e+01 9.600300000000000011e+01 -4.380920999999999843e+00 -1.676296971999577112e-01
1.961599999999999966e+01 1.625600000000000023e+01 8.841200000000000614e+01 -1.947785000000000100e+00 -1.566488038057661444e-02
1.961899999999999977e+01 4.547899999999999920e+01 6.685399999999999920e+01 -4.216288999999999731e+00 -1.235850296768104374e-03
1.962500000000000000e+01 4.572800000000000153e+01 8.400400000000000489e+01 -2.457095999999999947e+01 3.804443283946983001e-02
1.962600000000000122e+01 3.167999999999999972e+01 1.026200000000000045e+02 -8.160823000000000604e+00 -1.587180971973553845e-01
1.962900000000000134e+01 2.493700000000000117e+01 9.634499999999999886e+01 2.019007999999999914e+00 -1.629990625541986593e-01
1.962900000000000134e+01 2.580199999999999960e+01 9.634499999999999886e+01 -5.048572000000000060e-01 -1.626260686191424720e-01
1.962900000000000134e+01 5.501400000000000290e+01 7.182800000000000296e+01 5.361856999999999873e-01 -1.858017318035520447e-03
1.963299999999999912e+01 3.526599999999999824e+01 8.194199999999999307e+01 1.523593999999999937e+01 1.788273143207949611e-02
1.963299999999999912e+01 3.581400000000000006e+01 1.054300000000000068e+02 -2.132910000000000039e+01 -1.579174212419323653e-01
1.963400000000000034e+01 3.442699999999999960e+01 8.098900000000000432e+01 1.318689999999999962e+01 -5.296914476503585510e-03
1.963599999999999923e+01 4.984700000000000131e+01 9.739700000000000557e+01 6.254081000000000223e+00 -6.189604089042753665e-02
1.964000000000000057e+01 4.425200000000000244e+01 5.927900000000000347e+01 1.498367000000000004e+01 -3.370614733133556976e-03
1.964099999999999824e+01 4.993399999999999750e+01 7.493000000000000682e+01 1.152851000000000070e+01 1.914125541929469904e-02
1.964300000000000068e+01 3.300399999999999778e+01 1.034800000000000040e+02 -2.303379999999999939e+01 -1.582761456213809814e-01
1.964699999999999847e+01 3.402799999999999869e+01 1.043199999999999932e+02 -2.525754999999999839e+01 -1.580654234503937328e-01
1.965399999999999991e+01 2.686199999999999832e+01 9.759300000000000352e+01 1.023331999999999908e+00 -1.617696276331721528e-01
1.965399999999999991e+01 3.649499999999999744e+01 6.713100000000000023e+01 -1.052116999999999969e+01 -6.768374921532737884e-03
1.965599999999999881e+01 3.744800000000000040e+01 1.054899999999999949e+02 -1.439334000000000024e+01 -2.011211708580907531e-01
1.965599999999999881e+01 2.993299999999999983e+01 7.976900000000000546e+01 9.794152000000000413e+00 -7.347463039837865036e-03
1.965899999999999892e+01 1.313799999999999990e+01 9.890500000000000114e+01 -1.057888999999999946e+01 -1.670325384683040704e-01
1.966100000000000136e+01 4.879800000000000182e+01 7.868500000000000227e+01 -5.029073999999999600e+00 1.684091918014687245e-02
1.966100000000000136e+01 5.838799999999999812e+01 8.328900000000000148e+01 -9.746268999999999849e+00 -1.585189697662996444e-01
1.966199999999999903e+01 3.243900000000000006e+01 8.398000000000000398e+01 1.365902999999999956e+01 1.760249845261474544e-02
1.966799999999999926e+01 5.850800000000000267e+01 7.786799999999999500e+01 -4.436170999999999864e-01 -4.460440384721747059e-02
1.966799999999999926e+01 3.146099999999999852e+01 8.156600000000000250e+01 2.743712999999999980e+01 -6.549733318627034770e-03
1.967000000000000171e+01 3.292300000000000182e+01 7.910999999999999943e+01 5.154226000000000418e+00 -6.486217823548372577e-03
1.967099999999999937e+01 3.276899999999999835e+01 6.992199999999999704e+01 2.039371000000000045e+00 -7.799167422874947811e-03
1.967299999999999827e+01 5.363900000000000290e+01 7.090699999999999648e+01 -4.699288000000000132e+00 -1.791994106866174859e-03
1.968199999999999861e+01 3.681900000000000261e+01 1.054200000000000017e+02 -1.950422000000000011e+01 -1.578712139165679151e-01
1.968400000000000105e+01 1.230700000000000038e+01 9.696099999999999852e+01 -5.378739000000000381e+00 -1.675296075943674412e-01
1.968400000000000105e+01 2.281099999999999994e+01 8.657099999999999795e+01 8.775494999999999823e-01 -1.645325042346593852e-02
1.968700000000000117e+01 3.974499999999999744e+01 5.272099999999999653e+01 1.391641000000000084e+01 9.773651609108972849e-02
1.968900000000000006e+01 1.830199999999999960e+01 1.002000000000000028e+02 8.920483000000000828e+00 -1.650555342964247219e-01
1.968900000000000006e+01 4.973100000000000165e+01 9.917100000000000648e+01 8.108999000000000734e+00 -5.735328923160608328e-02
1.968900000000000006e+01 4.998499999999999943e+01 9.827700000000000102e+01 -9.064406999999999881e-01 -5.916202061974097648e-02
1.969099999999999895e+01 3.551100000000000279e+01 1.047300000000000040e+02 -2.554795999999999978e+01 -1.578608130245250929e-01
1.969300000000000139e+01 4.874499999999999744e+01 8.053000000000000114e+01 -4.675046000000000035e+00 1.515278566159670125e-02
1.969399999999999906e+01 2.822500000000000142e+01 8.449200000000000443e+01 1.809064000000000050e+01 -1.748018479951152504e-01
1.969500000000000028e+01 4.647299999999999898e+01 6.688899999999999579e+01 1.210971999999999937e+00 -1.449992113264989609e-03
1.969600000000000151e+01 4.056199999999999761e+01 7.642400000000000659e+01 -4.661380000000000301e+00 2.005629078680039659e-02
1.969600000000000151e+01 4.150999999999999801e+01 7.642400000000000659e+01 -1.284101000000000070e+01 1.995838188531122090e-02
1.969699999999999918e+01 3.578799999999999670e+01 5.835699999999999932e+01 -3.568878000000000217e+00 -2.074701201764701103e-02
1.969699999999999918e+01 3.578799999999999670e+01 5.929699999999999704e+01 -6.700534000000000212e+00 -2.080220210010442008e-02
1.969699999999999918e+01 3.824799999999999756e+01 5.929699999999999704e+01 1.595619000000000085e+02 -2.034947767749681335e-02
1.969699999999999918e+01 4.448400000000000176e+01 6.009400000000000119e+01 -5.487186000000000341e+00 -3.216759562765672629e-03
1.969900000000000162e+01 3.130699999999999861e+01 8.473900000000000432e+01 1.419073000000000029e+01 -2.160099386072971139e-01
1.970200000000000173e+01 3.530199999999999960e+01 7.388100000000000023e+01 -4.029741999999999713e+00 -6.216616469887954397e-03
1.970299999999999940e+01 4.255700000000000216e+01 8.379900000000000659e+01 -1.341060000000000052e+01 1.452655453530446103e-02
1.970299999999999940e+01 3.821099999999999852e+01 8.165399999999999636e+01 4.852388999999999619e+00 1.750825306299175904e-02
1.970499999999999829e+01 3.920799999999999841e+01 1.046500000000000057e+02 -1.054782999999999937e+01 -1.770112065617473474e-01
1.971199999999999974e+01 6.105799999999999983e+01 7.794899999999999807e+01 -7.643688000000000038e+00 -4.062626774059395485e-02
1.971199999999999974e+01 6.105799999999999983e+01 7.949899999999999523e+01 1.674242000000000132e+02 -3.955574957914464312e-02
1.971399999999999864e+01 3.429800000000000182e+01 8.003100000000000591e+01 1.174013000000000062e+01 -5.543199895320030310e-03
1.971399999999999864e+01 4.854699999999999704e+01 8.302599999999999625e+01 -1.600685000000000002e+01 3.865605828755192680e-02
1.971399999999999864e+01 1.587599999999999945e+01 9.968500000000000227e+01 -1.028406000000000020e+01 -1.660312061631399883e-01
1.971499999999999986e+01 4.864600000000000080e+01 8.554600000000000648e+01 -4.142942000000000036e+01 3.946062330091786724e-02
1.971499999999999986e+01 4.767999999999999972e+01 9.477100000000000080e+01 -1.017977999999999916e+01 2.264098870865617064e-01
1.971999999999999886e+01 1.465700000000000003e+01 9.900300000000000011e+01 -5.387657999999999703e+01 -1.665328001534189528e-01
1.971999999999999886e+01 4.779200000000000159e+01 6.440099999999999625e+01 7.368224999999999802e+00 -2.718707772435276660e-03
1.971999999999999886e+01 4.884199999999999875e+01 6.440099999999999625e+01 8.345214000000000354e+00 -2.976948333474139889e-03
1.972100000000000009e+01 1.632000000000000028e+01 9.815900000000000603e+01 -1.355009000000000086e+01 -1.660736863390717133e-01
1.972100000000000009e+01 2.967599999999999838e+01 7.899399999999999977e+01 7.546827999999999648e+00 -7.518342269697178559e-03
1.972299999999999898e+01 3.861200000000000188e+01 5.347899999999999920e+01 6.171781000000000184e+00 9.777518311039434806e-02
1.972299999999999898e+01 4.646300000000000097e+01 9.314799999999999613e+01 5.362769000000000119e+00 2.229550086355313598e-01
1.972700000000000031e+01 4.601800000000000068e+01 9.223900000000000432e+01 -1.025520000000000032e+01 4.117566906946484862e-02
1.972700000000000031e+01 4.665899999999999892e+01 1.007500000000000000e+02 4.006780000000000008e+00 -3.046886989681251712e-01
1.972800000000000153e+01 4.108500000000000085e+01 6.889499999999999602e+01 -1.054146000000000072e+01 -4.356954838237685548e-03
1.972800000000000153e+01 4.227600000000000335e+01 6.823099999999999454e+01 -2.890444000000000013e+00 -3.942011847120314473e-03
1.973600000000000065e+01 3.701800000000000068e+01 6.011999999999999744e+01 -3.959098000000000184e+01 -2.062107413454782393e-02
