7.473199999999999843e-01 9.141599999999999682e+01 8.142499999999999716e+01 -5.913966000000000500e-01 1.253904383698626890e-01
7.490999999999999881e-01 5.598599999999999710e+01 1.006899999999999977e+02 2.942285000000000039e-01 -1.876299690133048093e-01
7.506599999999999939e-01 1.106700000000000017e+02 5.111899999999999977e+01 -1.337842999999999982e+01 -1.898153525906322303e-01
7.526300000000000212e-01 7.669799999999999329e+01 8.567400000000000659e+01 2.659253000000000089e+00 4.300485373060654315e-02
7.530200000000000227e-01 5.695400000000000063e+01 7.577500000000000568e+01 2.004728000000000065e+00 -1.885440939717952236e-01
7.540000000000000036e-01 4.911299999999999955e+01 7.791400000000000148e+01 9.681256000000000306e-01 -1.864382999764561122e-01
7.580700000000000216e-01 6.120700000000000074e+01 8.630400000000000205e+01 3.070218000000000114e+00 -1.915458125578373694e-01
7.580700000000000216e-01 6.120700000000000074e+01 8.716899999999999693e+01 -2.280233000000000121e-01 -1.912310026406534580e-01
7.586399999999999810e-01 6.116799999999999926e+01 9.980400000000000205e+01 1.493244000000000016e+00 -1.881347439780082786e-01
7.586399999999999810e-01 6.264000000000000057e+01 9.980400000000000205e+01 5.246373000000000175e+00 -1.882092630832271074e-01
7.590000000000000080e-01 9.180599999999999739e+01 5.817600000000000193e+01 5.223886000000000251e+00 -3.541486063380284988e-02
7.590000000000000080e-01 9.203700000000000614e+01 5.736099999999999710e+01 3.518213999999999952e+00 -4.262103610110980906e-02
7.590000000000000080e-01 9.203700000000000614e+01 5.899099999999999966e+01 2.840212000000000181e+00 -4.058583568369952127e-02
7.590000000000000080e-01 9.335599999999999454e+01 5.972599999999999909e+01 6.219816000000000145e+01 -7.278559653770273752e-02
7.590000000000000080e-01 9.454699999999999704e+01 6.039000000000000057e+01 1.455489999999999995e+01 -8.219558849584539251e-02
7.591799999999999660e-01 6.924699999999999989e+01 7.931900000000000261e+01 1.871051000000000020e+00 -2.015924233128933152e-01
7.606100000000000083e-01 1.072600000000000051e+02 4.328399999999999892e+01 -1.687691999999999970e+00 -1.955578087008315313e-01
7.636199999999999655e-01 7.853000000000000114e+01 9.149599999999999511e+01 3.827800000000000091e-01 3.759096040373855613e-02
7.640099999999999669e-01 7.029000000000000625e+01 8.573499999999999943e+01 9.239841999999999445e+00 -1.930037957583009278e-01
7.641200000000000214e-01 1.043100000000000023e+02 4.009199999999999875e+01 -4.911927000000000376e+00 -1.912462054699074765e-01
7.641200000000000214e-01 1.070799999999999983e+02 4.009199999999999875e+01 -9.548189000000000703e+00 -2.958036238010032168e-02
7.641200000000000214e-01 1.070799999999999983e+02 4.175999999999999801e+01 -1.654557000000000144e+01 -2.531052915201011458e-02
7.672900000000000276e-01 8.886199999999999477e+01 9.079500000000000171e+01 -9.421578000000000230e+00 1.608165838214887372e-02
7.675199999999999800e-01 9.976699999999999591e+01 5.035999999999999943e+01 -7.702217000000000091e+00 -2.698415315848697316e-01
7.680099999999999705e-01 1.046599999999999966e+02 7.360399999999999920e+01 -2.175302999999999898e+01 -3.848647625767917524e-01
7.680500000000000105e-01 1.113199999999999932e+02 5.263799999999999812e+01 -1.655337000000000103e+01 -1.871379071607718603e-01
7.717199999999999616e-01 7.364000000000000057e+01 8.568099999999999739e+01 2.043686000000000114e+00 -1.916101611005146255e-01
7.719599999999999795e-01 1.044200000000000017e+02 3.921000000000000085e+01 -2.427859999999999907e+00 -1.904887310126976707e-01
7.719599999999999795e-01 1.069699999999999989e+02 4.264200000000000301e+01 -3.210655000000000037e+00 -2.914532447623838229e-01
7.720200000000000395e-01 1.017500000000000000e+02 4.492999999999999972e+01 -1.783593999999999902e+00 -2.590259700938416509e-01
7.720200000000000395e-01 1.017500000000000000e+02 4.586800000000000210e+01 -4.190742000000000189e+00 -2.588320374762528298e-01
7.747399999999999842e-01 7.823600000000000421e+01 8.966599999999999682e+01 2.037167000000000172e+00 3.822129340613129173e-02
7.763099999999999445e-01 5.629999999999999716e+01 1.000799999999999983e+02 5.973897999999999708e-01 -1.877235790491000311e-01
7.800200000000000466e-01 4.928099999999999881e+01 8.001800000000000068e+01 2.474993000000000054e-01 -1.868987892459138545e-01
7.800500000000000211e-01 6.171099999999999852e+01 8.109399999999999409e+01 1.977869000000000099e+01 -1.939848578410581781e-01
7.800500000000000211e-01 6.171099999999999852e+01 8.195900000000000318e+01 1.087504000000000026e+01 -1.936213566895667870e-01
7.808899999999999730e-01 1.105499999999999972e+02 5.018800000000000239e+01 -6.275856000000000101e+00 -1.904674139448916115e-01
7.814499999999999780e-01 9.693899999999999295e+01 5.723299999999999699e+01 1.455357000000000012e+00 -1.129085915044470562e-01
7.819599999999999884e-01 7.241500000000000625e+01 8.497899999999999920e+01 3.706733999999999973e+00 -1.925834157583779238e-01
7.863299999999999734e-01 6.639499999999999602e+01 8.777500000000000568e+01 3.401388999999999996e+00 -1.920712868448630206e-01
7.867499999999999494e-01 6.129099999999999682e+01 9.831300000000000239e+01 -1.910042999999999935e+00 -1.883849903853823116e-01
7.867499999999999494e-01 6.215699999999999648e+01 9.831300000000000239e+01 1.511532999999999904e-01 -1.884395951247709866e-01
7.887399999999999967e-01 8.591200000000000614e+01 7.644899999999999807e+01 3.141188999999999787e-02 -2.897328652109416175e-02
7.914900000000000269e-01 9.359099999999999397e+01 8.698000000000000398e+01 1.008353999999999928e+01 1.110691122225140187e-02
7.940500000000000336e-01 1.044399999999999977e+02 3.844700000000000273e+01 -2.050615000000000077e+00 -1.899046972920885035e-01
7.947100000000000275e-01 9.806999999999999318e+01 7.990699999999999648e+01 -6.546263999999999328e+01 3.588629491568316732e-02
7.956400000000000139e-01 6.568699999999999761e+01 7.851000000000000512e+01 6.913297000000000470e-01 -2.017896985616806360e-01
7.956699999999999884e-01 5.308200000000000074e+01 9.291299999999999670e+01 9.915324999999999278e+00 -1.880812430180374140e-01
7.960099999999999953e-01 1.004300000000000068e+02 4.880100000000000193e+01 -1.313361999999999918e+00 -2.682674163110222443e-01
7.982599999999999696e-01 6.807299999999999329e+01 7.936899999999999977e+01 1.039653999999999989e+01 -2.019573782978563992e-01
7.986699999999999910e-01 1.069500000000000028e+02 7.125199999999999534e+01 4.146249000000000251e+01 -1.399509267633535781e-01
8.010000000000000453e-01 9.295799999999999841e+01 9.035500000000000398e+01 2.061789999999999878e+01 1.424301139250009826e-02
8.010000000000000453e-01 9.440399999999999636e+01 8.776099999999999568e+01 8.113172999999999746e+00 1.185070354469226761e-02
8.010000000000000453e-01 9.440399999999999636e+01 8.954900000000000659e+01 1.545167999999999964e+01 1.338424355034350741e-02
8.010000000000000453e-01 9.465800000000000125e+01 8.865500000000000114e+01 2.702024000000000115e+01 1.263604141129457889e-02
8.018899999999999917e-01 9.388700000000000045e+01 7.117700000000000671e+01 -2.552256999999999998e+00 2.985103877821672705e-02
8.018899999999999917e-01 9.551699999999999591e+01 7.280700000000000216e+01 2.450757999999999992e+00 3.387280157200370234e-02
8.019500000000000517e-01 6.905400000000000205e+01 8.578100000000000591e+01 1.322514999999999930e+01 -1.932333237737904053e-01
8.022899999999999476e-01 6.390999999999999659e+01 8.451200000000000045e+01 -1.691332999999999975e+00 -1.935168705975149339e-01
8.040000000000000480e-01 5.664999999999999858e+01 9.368999999999999773e+01 7.545701999999999687e-01 -1.886187038187791820e-01
8.053399999999999448e-01 1.109599999999999937e+02 5.379800000000000182e+01 -1.221030000000000015e+01 -1.869009387106942977e-01
8.100000000000000533e-01 5.526100000000000279e+01 7.552500000000000568e+01 1.793557999999999986e+00 -1.874864801459245056e-01
8.124799999999999800e-01 1.020600000000000023e+02 4.415699999999999648e+01 8.317823000000000577e-02 -2.587828359164524583e-01
8.138300000000000534e-01 1.101099999999999994e+02 5.751599999999999824e+01 -2.790125000000000099e+01 -3.633934010854962260e-01
8.149399999999999977e-01 5.976299999999999812e+01 7.237699999999999534e+01 -1.918493000000000137e+01 -1.866610151641826809e-01
8.160699999999999621e-01 6.284300000000000352e+01 8.033499999999999375e+01 5.321489999999999831e+00 -1.955196583438067182e-01
8.192899999999999627e-01 7.018600000000000705e+01 7.941800000000000637e+01 6.895518999999999954e-02 -2.001405151878238864e-01
8.192899999999999627e-01 7.105100000000000193e+01 7.941800000000000637e+01 -1.977209000000000050e-01 -1.987943642818205958e-01
8.229999999999999538e-01 1.041800000000000068e+02 4.092600000000000193e+01 -2.777509999999999923e+00 -1.920047635204267245e-01
8.286599999999999522e-01 1.043100000000000023e+02 4.321099999999999852e+01 -1.155580999999999969e+00 -1.916173032195383485e-01
8.331199999999999717e-01 9.589400000000000546e+01 8.070099999999999341e+01 5.453856000000000037e+00 3.210041146409639556e-02
8.363699999999999468e-01 9.445499999999999829e+01 5.627600000000000335e+01 9.414894000000000318e-01 -8.515053901839851613e-02
8.409200000000000008e-01 6.195400000000000063e+01 1.010600000000000023e+02 1.713306999999999913e+00 -1.879660077648447614e-01
8.425000000000000266e-01 6.725600000000000023e+01 9.700700000000000500e+01 3.519997000000000043e+01 -1.888232155431403270e-01
8.430299999999999461e-01 6.415900000000000603e+01 7.625000000000000000e+01 4.738793000000000255e+00 -1.998839292761118158e-01
8.436700000000000310e-01 1.071899999999999977e+02 6.644100000000000250e+01 -5.218618000000000201e+00 -1.175834276586207039e-01
8.436700000000000310e-01 1.071899999999999977e+02 6.730599999999999739e+01 1.102138000000000062e+01 -1.177978982799838120e-01
8.450400000000000134e-01 6.098799999999999955e+01 9.901300000000000523e+01 1.373772999999999911e+00 -1.882353913278287660e-01
8.450400000000000134e-01 6.246000000000000085e+01 9.901300000000000523e+01 2.895163000000000153e+00 -1.883200317231187304e-01
8.462899999999999867e-01 5.298199999999999932e+01 7.917700000000000671e+01 8.559609000000000245e-01 -1.878540534330868095e-01
8.491800000000000459e-01 7.539499999999999602e+01 8.647400000000000375e+01 -2.322423000000000126e+00 -1.810550840419486440e-01
8.497400000000000508e-01 1.007699999999999960e+02 5.040100000000000335e+01 -1.500582000000000082e+00 -2.704127620139342159e-01
8.526599999999999735e-01 9.343600000000000705e+01 7.349800000000000466e+01 1.346266999999999925e+01 2.281810332771821645e-02
8.531199999999999894e-01 6.278999999999999915e+01 8.810200000000000387e+01 6.939354999999999940e+00 -1.912856339670008232e-01
8.538599999999999524e-01 7.901900000000000546e+01 7.887600000000000477e+01 2.558717999999999826e+00 9.570951019335124932e-03
8.554699999999999527e-01 9.840099999999999625e+01 5.764800000000000324e+01 5.426670999999999800e+00 -1.083523354100604380e-01
8.577900000000000524e-01 5.290800000000000125e+01 1.065799999999999983e+02 4.800000000000000000e+01 -1.868550440881644181e-01
8.585300000000000153e-01 7.947499999999999432e+01 8.782099999999999795e+01 2.960078000000000209e+00 2.265345510257379610e-02
8.586200000000000498e-01 4.932300000000000040e+01 1.038700000000000045e+02 8.876872000000000540e+00 -1.867908334282630534e-01
8.615699999999999470e-01 1.079899999999999949e+02 4.410199999999999676e+01 -2.156836999999999893e+00 -1.952619753391536539e-01
8.618999999999999995e-01 5.821800000000000352e+01 9.071599999999999397e+01 -1.135341000000000022e+01 -1.894222172836553253e-01
8.630400000000000293e-01 4.941499999999999915e+01 7.840099999999999625e+01 1.869788999999999923e+00 -1.865816916331806963e-01
8.632800000000000473e-01 5.953900000000000148e+01 9.698900000000000432e+01 -2.199985999999999886e-01 -1.884521121616589689e-01
8.649999999999999911e-01 9.521500000000000341e+01 6.190800000000000125e+01 3.097142999999999979e+00 -6.042125840349390348e-02
8.653699999999999726e-01 4.976299999999999812e+01 9.156600000000000250e+01 8.831248999999999905e-01 -1.875440677537399681e-01
8.662999999999999590e-01 9.008199999999999363e+01 8.967300000000000182e+01 -3.823240000000000194e+00 1.465760691345432444e-02
8.662999999999999590e-01 9.148199999999999932e+01 8.967300000000000182e+01 1.667869999999999919e+01 1.410939083808519443e-02
8.670999999999999819e-01 5.737299999999999756e+01 1.066299999999999955e+02 2.221804000000000112e+00 -1.870884688592899248e-01
8.726699999999999458e-01 9.425600000000000023e+01 7.202700000000000102e+01 1.076314000000000021e-01 3.047513008306538748e-02
8.734800000000000342e-01 9.956199999999999761e+01 5.693699999999999761e+01 6.920643000000000100e+00 -1.029373882381413863e-01
8.760099999999999554e-01 6.222200000000000131e+01 1.018199999999999932e+02 -8.226343999999999212e+00 -1.878588243034460814e-01
8.761700000000000044e-01 8.121800000000000352e+01 9.321099999999999852e+01 5.532105999999999746e+00 2.153100582314151218e-02
8.876199999999999646e-01 7.395699999999999363e+01 8.236700000000000443e+01 -1.933311999999999919e+00 -1.926990515993919351e-01
8.883799999999999475e-01 1.062600000000000051e+02 7.173000000000000398e+01 -2.414422000000000068e+00 -1.361168265915414233e-01
8.898899999999999588e-01 7.788599999999999568e+01 7.963400000000000034e+01 4.446163000000000309e+00 1.342678007297734913e-02
8.906100000000000128e-01 4.880899999999999750e+01 1.011899999999999977e+02 1.503505999999999965e+01 -1.869028427767393252e-01
8.930200000000000360e-01 9.540800000000000125e+01 5.638100000000000023e+01 -8.194576999999999556e-01 -1.059337725483774084e-01
8.942900000000000293e-01 4.690899999999999892e+01 8.864300000000000068e+01 1.465348000000000006e+01 -1.870457472794474774e-01
8.990000000000000213e-01 4.998700000000000188e+01 1.056599999999999966e+02 6.454246999999999623e+00 -1.867250684401506600e-01
8.990000000000000213e-01 5.021800000000000352e+01 1.064800000000000040e+02 1.395942999999999934e+01 -1.866892380591685385e-01
8.990000000000000213e-01 5.153699999999999903e+01 1.072099999999999937e+02 2.970771000000000051e+00 -1.867240871332192798e-01
8.990700000000000358e-01 5.054800000000000182e+01 7.915900000000000603e+01 -5.236275000000000013e+00 -1.870278036297094992e-01
8.990700000000000358e-01 5.206600000000000250e+01 7.915900000000000603e+01 -1.054959000000000024e+01 -1.874958221775772649e-01
8.996699999999999697e-01 9.086899999999999977e+01 8.550199999999999534e+01 1.258713000000000015e+01 9.682700211820789021e-03
9.016699999999999715e-01 6.755100000000000193e+01 9.103499999999999659e+01 -1.111380999999999952e+00 -1.905373795607404885e-01
9.036100000000000243e-01 5.636599999999999966e+01 1.073599999999999994e+02 2.040570999999999913e+00 -1.869720750082792260e-01
9.062900000000000400e-01 7.241100000000000136e+01 7.968200000000000216e+01 -2.315996000000000166e+01 -1.960262884056536425e-01
9.080300000000000038e-01 1.010699999999999932e+02 5.110099999999999909e+01 -1.258755999999999986e+00 -2.715132921123508680e-01
9.092900000000000427e-01 7.633400000000000318e+01 8.637500000000000000e+01 -2.099982999999999933e+01 4.330811495295737445e-02
9.093400000000000372e-01 9.531600000000000250e+01 6.272800000000000153e+01 -5.727345999999999826e-02 -4.879997119159436292e-02
9.186400000000000121e-01 5.841299999999999670e+01 7.289300000000000068e+01 -7.548424000000000245e-01 -1.866730658929520170e-01
9.187499999999999556e-01 1.000499999999999972e+02 7.754200000000000159e+01 -1.620863999999999905e+01 5.575320913200237927e-02
9.195400000000000240e-01 6.687399999999999523e+01 9.212999999999999545e+01 -6.948460999999999999e+00 -1.901433912309364316e-01
9.195400000000000240e-01 6.687399999999999523e+01 9.353000000000000114e+01 3.750288999999999984e+00 -1.896990846339227654e-01
9.223700000000000232e-01 7.751099999999999568e+01 8.540500000000000114e+01 1.694034999999999869e+01 4.067145736994523531e-02
9.256699999999999928e-01 6.352400000000000091e+01 7.289000000000000057e+01 1.920797000000000088e+00 -1.904694162055486639e-01
9.321199999999999486e-01 4.744899999999999807e+01 8.297400000000000375e+01 5.004856000000000193e+00 -1.868311847989485852e-01
9.321899999999999631e-01 1.102199999999999989e+02 4.922299999999999898e+01 -2.206713999999999842e+00 -1.909770392435039543e-01
9.323900000000000521e-01 5.607699999999999818e+01 7.549599999999999511e+01 1.762303999999999959e+01 -1.877513075198254389e-01
9.336100000000000509e-01 7.914100000000000534e+01 9.245799999999999841e+01 5.135392999999999653e+00 2.270775407338179036e-02
9.339899999999999869e-01 6.224699999999999989e+01 1.006200000000000045e+02 6.056947000000000081e+00 -1.880298587638482843e-01
9.340000000000000524e-01 4.840800000000000125e+01 9.031100000000000705e+01 2.527911000000000019e+00 -1.873151066290573152e-01
9.346700000000000008e-01 5.736399999999999721e+01 9.755100000000000193e+01 1.621601999999999988e+00 -1.881249637800015972e-01
9.356799999999999562e-01 1.067099999999999937e+02 6.017699999999999960e+01 3.192400999999999911e+01 -1.307618842663920214e-02
9.356799999999999562e-01 1.067099999999999937e+02 6.104299999999999926e+01 9.294782999999999618e+01 -1.145573103267370635e-01
9.392899999999999583e-01 6.095300000000000296e+01 1.025799999999999983e+02 -8.446858000000000644e+00 -1.876929963097137000e-01
9.392899999999999583e-01 6.189300000000000068e+01 1.025799999999999983e+02 -1.870865999999999829e+01 -1.877303313632113779e-01
9.411000000000000476e-01 8.738700000000000045e+01 7.695300000000000296e+01 -8.449079999999999924e-01 1.157180919278649051e-01
9.421699999999999520e-01 5.577000000000000313e+01 9.374299999999999500e+01 2.529552999999999940e+00 -1.884308029901559656e-01
9.442300000000000137e-01 1.044699999999999989e+02 3.789500000000000313e+01 -1.604100999999999999e+00 -2.018458538958369658e-02
9.455700000000000216e-01 6.753300000000000125e+01 8.493699999999999761e+01 1.172639000000000031e+01 -1.939021650638059202e-01
9.460499999999999465e-01 6.784300000000000352e+01 9.206199999999999761e+01 -9.901716000000000406e+00 -1.901418631344663768e-01
9.467700000000000005e-01 6.178399999999999892e+01 7.272700000000000387e+01 1.159259000000000039e+00 -1.881311564411573545e-01
9.484500000000000153e-01 6.712600000000000477e+01 9.836899999999999977e+01 -9.879448000000000008e+00 -1.885154588554289190e-01
9.486200000000000188e-01 4.569299999999999784e+01 8.689400000000000546e+01 3.253652999999999906e+00 -1.867637396359885238e-01
9.488900000000000112e-01 4.748199999999999932e+01 1.021200000000000045e+02 5.595451999999999870e+00 -1.867253095365563609e-01
9.494000000000000217e-01 5.979699999999999704e+01 9.625600000000000023e+01 5.668703999999999965e+00 -1.885871773267289164e-01
9.509499999999999620e-01 1.069099999999999966e+02 6.189900000000000091e+01 2.246080999999999861e+01 -1.156710707052358567e-01
9.524799999999999933e-01 1.043199999999999932e+02 4.263700000000000045e+01 -5.774397000000000002e-01 -1.924082034940089725e-01
9.529100000000000348e-01 5.573499999999999943e+01 7.629300000000000637e+01 2.835573999999999817e+00 -1.880011159119280573e-01
9.533899999999999597e-01 4.710600000000000165e+01 1.030000000000000000e+02 6.223868999999999652e+00 -1.866490832310169212e-01
9.545000000000000151e-01 5.127799999999999869e+01 9.186700000000000443e+01 9.376580999999999833e+00 -1.877912531467155755e-01
9.546900000000000386e-01 9.679600000000000648e+01 8.062600000000000477e+01 -2.345943000000000112e+01 3.418762918030438663e-02
9.553500000000000325e-01 4.809400000000000119e+01 1.030600000000000023e+02 1.035905999999999949e+01 -1.867277157295428314e-01
9.579600000000000337e-01 9.056499999999999773e+01 8.480200000000000671e+01 -1.775769999999999982e+01 8.656501477007257084e-03
9.589499999999999691e-01 4.967600000000000193e+01 8.068099999999999739e+01 -8.450008999999999659e+00 -1.870543098164423046e-01
9.589499999999999691e-01 4.967600000000000193e+01 8.154600000000000648e+01 -1.364935999999999927e+00 -1.871830793742528809e-01
9.599999999999999645e-01 7.493600000000000705e+01 8.268099999999999739e+01 5.827500999999999820e+00 -1.916489451392374421e-01
9.599999999999999645e-01 7.612699999999999534e+01 8.201699999999999591e+01 3.842112000000000194e+00 -1.017111232330949883e-01
9.599999999999999645e-01 7.633599999999999852e+01 8.128100000000000591e+01 4.829139999999999766e+00 -1.011943278767034188e-01
9.599999999999999645e-01 7.656699999999999307e+01 8.046599999999999397e+01 3.972281000000000173e+00 -1.004854882679220990e-01
9.608900000000000219e-01 4.544800000000000040e+01 8.773999999999999488e+01 7.105377999999999972e+00 -1.867533356888614882e-01
9.634899999999999576e-01 1.031200000000000045e+02 7.439199999999999591e+01 5.237786999999999971e+00 -1.379448157286108922e-01
9.646700000000000275e-01 8.180200000000000671e+01 7.561899999999999977e+01 -1.621016000000000123e-02 2.003141104791641286e-02
9.646700000000000275e-01 8.350199999999999534e+01 7.561899999999999977e+01 -9.965247000000000410e-01 -4.572283096537994515e-03
9.654000000000000359e-01 6.411199999999999477e+01 7.546099999999999852e+01 4.956883000000000372e+00 -1.988073226212560274e-01
9.677200000000000246e-01 6.190400000000000347e+01 9.980400000000000205e+01 4.765519000000000283e+00 -1.881369759838065203e-01
9.718700000000000117e-01 9.072100000000000364e+01 7.515300000000000580e+01 3.495835000000000026e+00 -1.621586968860757845e-04
9.719999999999999751e-01 4.619500000000000028e+01 8.381399999999999295e+01 2.923305000000000042e+00 -1.866493111155519136e-01
9.736399999999999499e-01 5.878900000000000148e+01 1.034899999999999949e+02 -1.118748000000000076e+01 -1.874709904627729906e-01
9.750199999999999978e-01 9.183899999999999864e+01 7.357399999999999807e+01 -2.111298999999999815e+00 1.038829985157291649e-02
9.776700000000000390e-01 5.618200000000000216e+01 9.281799999999999784e+01 4.161566999999999794e+00 -1.886218782093524171e-01
9.776700000000000390e-01 5.465100000000000335e+01 7.733700000000000330e+01 2.073812000000000211e+00 -1.879266079112622834e-01
9.778299999999999770e-01 6.657099999999999795e+01 9.282999999999999829e+01 1.812402000000000069e+00 -1.898931350187053613e-01
9.785099999999999909e-01 4.878799999999999670e+01 9.116899999999999693e+01 3.355281000000000180e+00 -1.873593938184063556e-01
9.785700000000000509e-01 9.917199999999999704e+01 7.907200000000000273e+01 -1.741710000000000136e+01 3.826159979211475604e-02
9.806700000000000417e-01 6.629099999999999682e+01 9.970600000000000307e+01 9.362253000000000824e+00 -1.882628638955008704e-01
9.874000000000000554e-01 1.073199999999999932e+02 3.897899999999999920e+01 9.625927000000000788e+00 -3.347280968771407239e-02
9.886200000000000543e-01 6.210000000000000142e+01 8.508299999999999841e+01 1.236369000000000051e+00 -1.922782511277071893e-01
9.912400000000000100e-01 4.920900000000000318e+01 1.005999999999999943e+02 1.238452999999999982e+01 -1.869636765540155787e-01
9.918900000000000494e-01 7.944400000000000261e+01 9.315800000000000125e+01 3.581434999999999924e+00 2.251894677919749274e-02
9.949700000000000211e-01 4.854399999999999693e+01 7.992199999999999704e+01 7.333249000000000350e+00 -1.866388094287318444e-01
9.951299999999999590e-01 1.080400000000000063e+02 6.931999999999999318e+01 7.162551999999999808e+00 8.757827391418110397e-02
9.981400000000000272e-01 6.624099999999999966e+01 8.421500000000000341e+01 2.997182000000000102e+01 -1.943313840742133536e-01
9.984800000000000342e-01 1.071599999999999966e+02 6.269899999999999807e+01 -2.590136999999999912e+00 -1.170972758432532457e-01
9.996099999999999985e-01 5.621699999999999875e+01 9.135999999999999943e+01 1.026140000000000008e+01 -1.888310234010673050e-01
1.001600000000000046e+00 7.940300000000000580e+01 8.551900000000000546e+01 8.600982999999999379e+00 2.289233932425882578e-02
1.001900000000000013e+00 5.472999999999999687e+01 7.628400000000000603e+01 3.247066999999999926e+00 -1.875077029044961707e-01
1.006499999999999950e+00 5.701200000000000045e+01 1.071299999999999955e+02 -4.335579000000000072e+00 -1.870107293504079116e-01
1.008299999999999974e+00 5.114999999999999858e+01 9.896399999999999864e+01 3.275526000000000160e+00 -1.872711010112002861e-01
1.008899999999999908e+00 6.500799999999999557e+01 1.002699999999999960e+02 8.518247000000000568e+00 -1.881514861920146608e-01
1.009600000000000053e+00 5.661699999999999733e+01 9.097299999999999898e+01 3.897377999999999787e+00 -1.889726545930021095e-01
1.009900000000000020e+00 1.105900000000000034e+02 5.421600000000000108e+01 -7.908462000000000103e+00 -1.864805836406255857e-01
1.010999999999999899e+00 1.104899999999999949e+02 5.668900000000000006e+01 -1.848585999999999885e+01 -2.987171889849803419e-01
1.019700000000000051e+00 4.785099999999999909e+01 1.012699999999999960e+02 6.835703999999999780e+00 -1.867939411504142277e-01
1.022599999999999953e+00 8.304000000000000625e+01 7.936499999999999488e+01 2.316434999999999889e+01 1.023122048128404307e-02
1.022599999999999953e+00 8.304000000000000625e+01 8.076500000000000057e+01 2.061853999999999942e+01 1.294902318190966316e-02
1.022599999999999953e+00 8.390600000000000591e+01 7.936499999999999488e+01 3.085657000000000139e+01 5.789509132460861698e-03
1.022599999999999953e+00 8.390600000000000591e+01 8.076500000000000057e+01 2.576586999999999961e+01 9.795040511197485034e-03
1.024599999999999955e+00 9.281900000000000261e+01 8.037099999999999511e+01 1.617423000000000144e+01 1.202468573240060429e-01
1.031700000000000061e+00 4.581700000000000017e+01 8.859000000000000341e+01 9.494733000000000089e+00 -1.868283219757903013e-01
1.032699999999999951e+00 5.540800000000000125e+01 1.072800000000000011e+02 5.008702999999999683e+00 -1.869190133400757958e-01
1.032999999999999918e+00 6.718500000000000227e+01 9.600700000000000500e+01 -1.103189000000000064e+01 -1.890065420740322244e-01
1.033400000000000096e+00 9.383599999999999852e+01 6.989900000000000091e+01 -7.242698999999999998e+00 -1.902350639957416101e-01
1.034000000000000030e+00 9.796399999999999864e+01 4.408800000000000097e+01 -1.454337999999999909e+00 -2.767797101434049667e-01
1.035700000000000065e+00 9.304699999999999704e+01 7.301900000000000546e+01 4.291450000000000209e+00 2.264151954759187346e-02
1.036999999999999922e+00 5.446200000000000330e+01 7.552500000000000568e+01 8.669810000000000016e+00 -1.870220702102512456e-01
1.037700000000000067e+00 7.986100000000000421e+01 7.726300000000000523e+01 1.254356999999999944e+00 2.938543186907383031e-02
1.042100000000000026e+00 6.029399999999999693e+01 9.154900000000000659e+01 6.007468999999999726e-01 -1.896076842120827943e-01
1.042100000000000026e+00 6.029399999999999693e+01 9.241500000000000625e+01 -3.439363999999999866e+00 -1.894045663568771076e-01
1.045500000000000096e+00 5.891400000000000148e+01 9.707699999999999818e+01 4.147597000000000200e+00 -1.883373029125506859e-01
1.046000000000000041e+00 1.081599999999999966e+02 6.371200000000000330e+01 -1.591131000000000029e+01 9.979567103133828165e-02
1.046000000000000041e+00 1.081599999999999966e+02 6.531000000000000227e+01 -3.826051999999999964e+01 9.583943383815984873e-02
1.046000000000000041e+00 1.083799999999999955e+02 6.451099999999999568e+01 -4.244863999999999749e+01 9.697963535616749287e-02
1.048200000000000021e+00 9.938400000000000034e+01 4.253199999999999648e+01 -2.312378999999999962e-01 -2.619962859256440568e-01
1.050000000000000044e+00 6.268999999999999773e+01 1.010600000000000023e+02 4.893037999999999776e+00 -1.879595262034973457e-01
1.050100000000000033e+00 1.092600000000000051e+02 5.751200000000000045e+01 -2.564178000000000068e+01 -2.652002572960933113e-01
1.050300000000000011e+00 8.918899999999999295e+01 7.705599999999999739e+01 -6.241995999999999656e-01 1.090828151511669120e-01
1.051299999999999901e+00 1.058599999999999994e+02 3.706799999999999784e+01 5.036287999999999876e-01 -2.903717491148573651e-02
1.052000000000000046e+00 4.977499999999999858e+01 9.988500000000000512e+01 7.450631999999999699e+00 -1.870563919273160736e-01
1.054100000000000037e+00 6.172399999999999665e+01 9.901300000000000523e+01 2.008141999999999872e+00 -1.882406721418528328e-01
1.054499999999999993e+00 7.736599999999999966e+01 9.022299999999999898e+01 1.289565000000000072e+00 3.949191455417051799e-02
1.056999999999999940e+00 5.988199999999999790e+01 9.440000000000000568e+01 4.340016999999999570e+00 -1.889193871012225523e-01
1.056999999999999940e+00 5.988199999999999790e+01 9.526600000000000534e+01 6.015260999999999747e+00 -1.887528409560445541e-01
1.057900000000000063e+00 5.591400000000000148e+01 9.206000000000000227e+01 6.729682999999999637e+00 -1.886554506685252097e-01
1.057900000000000063e+00 5.754399999999999693e+01 9.368999999999999773e+01 -5.555617000000000472e-01 -1.887049952548443543e-01
1.059900000000000064e+00 7.970600000000000307e+01 8.621899999999999409e+01 2.810388000000000108e+00 2.244948770773847607e-02
1.061299999999999910e+00 9.467400000000000659e+01 7.301200000000000045e+01 2.226288999999999962e+00 3.217135049318487622e-02
1.062699999999999978e+00 7.981300000000000239e+01 9.400799999999999557e+01 9.875769000000000020e+00 2.231887661037029041e-02
1.062699999999999978e+00 8.086299999999999955e+01 9.400799999999999557e+01 5.177006999999999692e+00 2.176645867298603390e-02
1.064599999999999991e+00 7.870499999999999829e+01 8.890699999999999648e+01 3.438212000000000046e+00 2.318691891072987774e-02
1.074000000000000066e+00 1.090699999999999932e+02 4.518200000000000216e+01 -9.520728999999999997e-01 -1.950652559278958642e-01
1.074000000000000066e+00 1.093199999999999932e+02 4.607600000000000051e+01 1.417755999999999972e+01 -1.940076778836568872e-01
1.074000000000000066e+00 7.821099999999999852e+01 8.531799999999999784e+01 1.582924000000000042e+01 3.845570743070032826e-02
1.078100000000000058e+00 5.916199999999999903e+01 9.079099999999999682e+01 -6.222100000000000186e+00 -1.895456019685619053e-01
1.078699999999999992e+00 4.688799999999999812e+01 7.706399999999999295e+01 1.698536999999999964e+00 -1.857297980867922138e-01
1.078699999999999992e+00 4.688799999999999812e+01 7.981399999999999295e+01 5.139934000000000225e+00 -1.862557281311674751e-01
1.078699999999999992e+00 4.858800000000000097e+01 7.706399999999999295e+01 1.182795999999999959e+00 -1.860184555735275858e-01
1.080899999999999972e+00 8.273699999999999477e+01 8.006499999999999773e+01 1.881650000000000134e+01 1.292555476839729600e-02
1.080899999999999972e+00 8.420900000000000318e+01 8.006499999999999773e+01 3.713519000000000148e+01 6.631507222179376486e-03
1.086100000000000065e+00 1.081299999999999955e+02 5.827000000000000313e+01 8.770212000000000785e+00 -2.656282087473869069e-01
1.090999999999999970e+00 4.888700000000000045e+01 8.276200000000000045e+01 -9.567164000000000224e-02 -1.870923104404222936e-01
1.093099999999999961e+00 1.007000000000000028e+02 4.179099999999999682e+01 1.503230999999999984e+00 -2.606450235295115769e-01
1.094000000000000083e+00 9.334999999999999432e+01 7.231900000000000261e+01 -1.515211000000000086e+00 2.683254811392692812e-02
1.094999999999999973e+00 1.072300000000000040e+02 3.798899999999999721e+01 7.144909000000000177e+00 -3.500673339948207757e-02
1.094999999999999973e+00 7.943800000000000239e+01 8.697799999999999443e+01 1.489370000000000083e+00 2.268524792477281601e-02
1.097299999999999942e+00 9.829300000000000637e+01 4.332800000000000296e+01 -1.448712999999999917e+00 -2.630046246814564670e-01
1.097299999999999942e+00 9.829300000000000637e+01 4.484799999999999898e+01 -2.186653000000000180e+00 -2.755859366889364392e-01
1.097599999999999909e+00 9.154500000000000171e+01 8.295900000000000318e+01 -5.614266999999999896e+00 4.947368580429297238e-03
1.100100000000000078e+00 5.185999999999999943e+01 9.218300000000000693e+01 9.563159999999999883e+00 -1.878491605528530284e-01
1.100300000000000056e+00 5.479099999999999682e+01 7.476500000000000057e+01 3.981126999999999860e+00 -1.866941574487796796e-01
1.100300000000000056e+00 5.573100000000000165e+01 7.476500000000000057e+01 2.008510999999999935e+00 -1.870255248188480157e-01
1.100999999999999979e+00 9.395999999999999375e+01 6.899200000000000443e+01 -8.185781000000000418e+00 5.545495487543804225e-02
1.100999999999999979e+00 9.418699999999999761e+01 6.819299999999999784e+01 -3.589316000000000173e+00 6.370477033449442605e-02
1.102000000000000091e+00 6.529099999999999682e+01 7.736899999999999977e+01 7.036006999999999678e+00 -2.019329203581829990e-01
1.102400000000000047e+00 5.407300000000000040e+01 1.003299999999999983e+02 1.169767999999999919e+00 -1.874416520751959747e-01
1.102600000000000025e+00 8.495699999999999363e+01 7.633299999999999841e+01 -1.961160000000000125e-01 -2.363357433537034008e-02
1.103599999999999914e+00 6.339900000000000091e+01 1.007800000000000011e+02 5.128951999999999956e+00 -1.880164099723385385e-01
1.103900000000000103e+00 6.476600000000000534e+01 8.445000000000000284e+01 -2.004172000000000065e+00 -1.936461406494104920e-01
1.104899999999999993e+00 1.098400000000000034e+02 4.848700000000000188e+01 4.265151999999999788e+01 -1.912759835959016441e-01
1.107499999999999929e+00 4.553000000000000114e+01 7.817000000000000171e+01 1.507257999999999987e+00 -1.857367300575265001e-01
1.107900000000000107e+00 6.702500000000000568e+01 8.855700000000000216e+01 1.881520999999999999e+00 -1.915143743223831629e-01
1.108100000000000085e+00 6.554500000000000171e+01 8.756799999999999784e+01 8.230064000000000490e+00 -1.919191243862304330e-01
1.109599999999999920e+00 8.755700000000000216e+01 9.167400000000000659e+01 1.984134999999999849e+01 1.723847155517554269e-02
1.113699999999999912e+00 5.339999999999999858e+01 7.852100000000000080e+01 1.635424999999999907e+00 -1.877162433266858776e-01
1.115899999999999892e+00 9.916200000000000614e+01 5.085300000000000153e+01 -1.745478999999999914e+01 -2.706861906627459069e-01
1.116999999999999993e+00 8.067799999999999727e+01 7.678199999999999648e+01 5.503420999999999452e-01 2.563663062210554469e-02
1.117099999999999982e+00 1.003400000000000034e+02 5.110099999999999909e+01 -2.353585999999999956e+00 -2.716436303023853638e-01
1.117299999999999960e+00 1.005100000000000051e+02 5.471699999999999875e+01 9.153061999999999587e-01 -2.841968848626278410e-01
1.118999999999999995e+00 1.037099999999999937e+02 3.844700000000000273e+01 -4.649136000000000379e+00 -1.898257817449339191e-01
1.118999999999999995e+00 7.770199999999999818e+01 8.944799999999999329e+01 2.690914999999999946e+00 3.897063755632561299e-02
1.120900000000000007e+00 7.772700000000000387e+01 9.143899999999999295e+01 1.013161999999999896e+00 3.862585717842663413e-02
1.122200000000000086e+00 4.728300000000000125e+01 8.923499999999999943e+01 8.994476999999999833e+00 -1.870765359927455684e-01
1.123299999999999965e+00 9.124899999999999523e+01 8.526300000000000523e+01 2.644859999999999989e+00 9.143716015792118998e-03
1.123399999999999954e+00 7.120199999999999818e+01 8.540200000000000102e+01 1.291505000000000081e+01 -1.926221981757537116e-01
1.127000000000000002e+00 5.834100000000000108e+01 1.052500000000000000e+02 -3.657030999999999921e+00 -1.872376999221197491e-01
1.127000000000000002e+00 5.859499999999999886e+01 1.043599999999999994e+02 6.520205999999999502e-01 -1.873435296020158625e-01
1.127299999999999969e+00 9.465200000000000102e+01 7.468000000000000682e+01 -8.352634999999999366e+00 3.029876510200323753e-02
1.127299999999999969e+00 9.551699999999999591e+01 7.328000000000000114e+01 1.964997000000000105e+00 3.541781627869496074e-02
1.127299999999999969e+00 9.551699999999999591e+01 7.468000000000000682e+01 -1.319101999999999997e+01 3.356300923510777134e-02
1.128700000000000037e+00 5.612500000000000000e+01 9.454000000000000625e+01 1.215811999999999893e+00 -1.883392766893046688e-01
1.128700000000000037e+00 5.717499999999999716e+01 9.284000000000000341e+01 9.614654000000000256e-01 -1.887605360616199657e-01
1.128700000000000037e+00 5.717499999999999716e+01 9.454000000000000625e+01 2.188800000000000079e+00 -1.884978864887690564e-01
1.131499999999999950e+00 1.114500000000000028e+02 5.300600000000000023e+01 -3.436077999999999832e+01 -1.874870646324566514e-01
1.132500000000000062e+00 9.405599999999999739e+01 5.988100000000000023e+01 9.726273000000000835e+00 1.628507371456527630e-01
1.133000000000000007e+00 1.019500000000000028e+02 4.263100000000000023e+01 3.408436000000000021e+00 -2.592181026924083587e-01
1.133000000000000007e+00 1.042199999999999989e+02 4.176599999999999824e+01 -2.902867000000000086e+00 -1.927040187957305972e-01
1.133899999999999908e+00 6.729800000000000182e+01 7.945600000000000307e+01 1.243179999999999952e+00 -2.008017690776121300e-01
1.133999999999999897e+00 5.763400000000000034e+01 9.109000000000000341e+01 -1.139705999999999975e+01 -1.891399502883084616e-01
1.134900000000000020e+00 1.008799999999999955e+02 7.698099999999999454e+01 1.284178000000000042e+00 6.204235394911222778e-02
1.138800000000000034e+00 6.340400000000000347e+01 8.240200000000000102e+01 -7.929090000000000416e+00 -1.943390161605545730e-01
1.138900000000000023e+00 5.956700000000000017e+01 9.343200000000000216e+01 -3.887220000000000120e-01 -1.890463592101844226e-01
1.139999999999999902e+00 9.382299999999999329e+01 7.272700000000000387e+01 1.680897000000000086e+00 2.926220587526095346e-02
1.143599999999999950e+00 9.122199999999999420e+01 8.371699999999999875e+01 -6.238045999999999758e+00 6.468661594015037361e-03
1.147999999999999909e+00 1.116599999999999966e+02 5.219700000000000273e+01 -1.455450000000000088e+01 -1.876573218841214030e-01
1.149100000000000010e+00 9.367400000000000659e+01 5.631700000000000017e+01 1.792998000000000092e+00 -9.472739985309548694e-02
1.149599999999999955e+00 5.652199999999999847e+01 7.528400000000000603e+01 1.029907000000000039e+01 -1.876577185484043786e-01
1.149599999999999955e+00 5.738700000000000045e+01 7.528400000000000603e+01 4.606494999999999784e+00 -1.881119922713462012e-01
1.153399999999999981e+00 1.076700000000000017e+02 6.794400000000000261e+01 4.475420999999999871e+00 9.092036519774374104e-02
1.155000000000000027e+00 9.793200000000000216e+01 4.909000000000000341e+01 -1.486787000000000081e+00 -2.671894916304339285e-01
1.155000000000000027e+00 9.793200000000000216e+01 5.003000000000000114e+01 -1.339609999999999967e+00 -2.666405051350720368e-01
1.155299999999999994e+00 5.282200000000000273e+01 9.957099999999999795e+01 6.050470999999999933e+00 -1.873792926498719091e-01
1.155599999999999961e+00 9.859699999999999420e+01 4.554800000000000182e+01 -3.105720999999999954e+00 -2.743406313969095622e-01
1.157699999999999951e+00 4.594599999999999795e+01 8.522499999999999432e+01 3.235713000000000061e+00 -1.866726858812981227e-01
1.161200000000000010e+00 5.360799999999999699e+01 1.065199999999999960e+02 2.154880999999999958e+01 -1.868689723383140655e-01
1.165399999999999991e+00 1.103400000000000034e+02 5.565100000000000335e+01 4.596419000000000032e+00 -1.867087119140703189e-01
1.166700000000000070e+00 1.015400000000000063e+02 5.204800000000000182e+01 2.255212999999999912e+00 -2.733445658468838246e-01
1.166700000000000070e+00 1.015400000000000063e+02 5.344800000000000040e+01 1.914145999999999903e+00 -2.879322789365413859e-01
1.169899999999999940e+00 9.426500000000000057e+01 7.391599999999999682e+01 2.178061999999999898e+01 2.979230267007700397e-02
1.174099999999999921e+00 9.840200000000000102e+01 4.629899999999999949e+01 -1.213248000000000104e+00 -2.716012308737814629e-01
1.174099999999999921e+00 9.840200000000000102e+01 4.726500000000000057e+01 -1.183367000000000058e+00 -2.683510501677762727e-01
1.174900000000000055e+00 8.190800000000000125e+01 9.337399999999999523e+01 4.511093999999999937e+00 2.111204969039435012e-02
1.174900000000000055e+00 8.309900000000000375e+01 9.270999999999999375e+01 -5.358774000000000370e+00 2.029038633205341308e-02
1.175699999999999967e+00 6.247500000000000142e+01 8.231399999999999295e+01 1.298564999999999969e+00 -1.936816515640178149e-01
1.180700000000000083e+00 7.846299999999999386e+01 7.926699999999999591e+01 5.553405999999999842e+00 1.012533582017654914e-02
1.181599999999999984e+00 9.094599999999999795e+01 8.456300000000000239e+01 -5.984562999999999633e+00 8.060095170385681018e-03
1.182299999999999907e+00 1.040400000000000063e+02 3.768699999999999761e+01 -1.092610000000000081e+00 -1.891904742634910597e-01
1.183300000000000018e+00 1.113700000000000045e+02 5.138600000000000279e+01 -1.293829999999999991e+01 -1.869804822842798253e-01
1.184700000000000086e+00 1.079099999999999966e+02 5.881900000000000261e+01 1.610576000000000008e+01 -1.103122679938688122e-01
1.185200000000000031e+00 1.012900000000000063e+02 7.656699999999999307e+01 4.647230999999999668e+00 -1.375938522988279233e-01
1.185599999999999987e+00 9.582099999999999795e+01 7.398000000000000398e+01 -6.719905999999999935e+00 3.575601093450238299e-02
1.186900000000000066e+00 6.730700000000000216e+01 9.282999999999999829e+01 -3.340027000000000079e+00 -1.898189249395746125e-01
1.188700000000000090e+00 6.018099999999999739e+01 1.026400000000000006e+02 -2.015044000000000057e+00 -1.876125775163591247e-01
1.188700000000000090e+00 6.356499999999999773e+01 8.801500000000000057e+01 1.624606999999999957e+01 -1.913283777064738733e-01
1.191699999999999982e+00 7.809600000000000364e+01 9.228900000000000148e+01 4.905101000000000044e-01 3.792346740121931709e-02
1.193200000000000038e+00 1.079599999999999937e+02 4.355100000000000193e+01 -2.453282000000000185e+00 -1.962133968031298248e-01
1.202299999999999924e+00 8.442499999999999716e+01 9.333400000000000318e+01 -1.488806999999999992e+00 1.965673860785590449e-02
1.202299999999999924e+00 8.612500000000000000e+01 9.333400000000000318e+01 1.354574000000000034e+01 1.872814048853084154e-02
1.204299999999999926e+00 7.293999999999999773e+01 8.541400000000000148e+01 4.411011000000000237e+00 -1.917648893651646980e-01
1.207000000000000073e+00 1.073599999999999994e+02 4.147099999999999653e+01 -5.603060000000000151e+00 -2.779666553173366569e-02
1.207000000000000073e+00 1.073599999999999994e+02 4.233700000000000330e+01 -3.245115000000000194e+00 -2.266135873465717834e-02
1.207899999999999974e+00 5.768999999999999773e+01 7.458400000000000318e+01 1.075407999999999920e+00 -1.876728527888401610e-01
1.209100000000000064e+00 1.079099999999999966e+02 6.994799999999999329e+01 9.273559000000000552e+00 1.002003242640491232e-01
1.211799999999999988e+00 6.979500000000000171e+01 8.625700000000000500e+01 5.173464000000000063e+00 -1.924670546194933163e-01
1.212699999999999889e+00 6.241100000000000136e+01 8.082599999999999341e+01 1.414983999999999931e+01 -1.943136005801760491e-01
1.212699999999999889e+00 6.327600000000000335e+01 8.082599999999999341e+01 -9.750729999999999675e-01 -1.951801465335029073e-01
1.225000000000000089e+00 1.018400000000000034e+02 5.274799999999999756e+01 2.578483999999999998e+00 -2.744372278043957225e-01
1.227300000000000058e+00 9.757899999999999352e+01 8.030299999999999727e+01 -1.921065000000000111e+01 3.633633547007922293e-02
1.227400000000000047e+00 5.899499999999999744e+01 7.220000000000000284e+01 -1.525624999999999898e-01 -1.856051207943215930e-01
1.229400000000000048e+00 9.949899999999999523e+01 7.842499999999999716e+01 -2.049916999999999945e+01 5.353232181169906984e-02
1.230900000000000105e+00 1.026899999999999977e+02 7.509199999999999875e+01 -8.077165000000000816e+00 -1.391118135031506609e-01
1.232699999999999907e+00 6.435699999999999932e+01 1.007000000000000028e+02 6.397960999999999565e+00 -1.880292818841871050e-01
1.232900000000000107e+00 6.343999999999999773e+01 8.504500000000000171e+01 -7.483520999999999646e+00 -1.926878675710457234e-01
1.233999999999999986e+00 6.364300000000000068e+01 8.161400000000000432e+01 -1.614818000000000087e-01 -1.949524038718337959e-01
1.235700000000000021e+00 1.074099999999999966e+02 5.921399999999999864e+01 2.285536000000000101e+01 -1.389713023855559081e-02
1.237000000000000099e+00 8.817000000000000171e+01 9.120900000000000318e+01 -4.070712999999999582e+00 1.662566937146457008e-02
1.237999999999999989e+00 9.258100000000000307e+01 5.692199999999999704e+01 9.932688000000000628e+00 -6.949858148246697287e-02
1.237999999999999989e+00 9.258100000000000307e+01 5.942999999999999972e+01 2.188177000000000039e+00 -7.532752756472368971e-02
1.238499999999999934e+00 1.076099999999999994e+02 7.084199999999999875e+01 2.309666999999999959e+01 -1.778946899505562118e-01
1.243999999999999995e+00 8.953199999999999648e+01 7.632899999999999352e+01 -1.231435999999999975e+00 -3.780042802738245618e-03
1.247600000000000042e+00 5.500600000000000023e+01 9.351399999999999579e+01 4.422914999999999708e+00 -1.882596075706097771e-01
1.249900000000000011e+00 6.971599999999999397e+01 7.888500000000000512e+01 6.604324999999999779e-01 -2.006660774682761106e-01
1.250599999999999934e+00 9.894700000000000273e+01 7.952100000000000080e+01 -3.334033999999999764e+01 3.857996698242167899e-02
1.251500000000000057e+00 1.076500000000000057e+02 4.285099999999999909e+01 -2.678970000000000073e+00 -2.037247569531411284e-02
1.251600000000000046e+00 6.301599999999999824e+01 1.015900000000000034e+02 1.144431999999999894e+00 -1.878570360667831673e-01
1.254999999999999893e+00 1.039099999999999966e+02 3.965899999999999892e+01 -3.047323000000000004e+00 -1.906558317557369153e-01
1.254999999999999893e+00 1.074800000000000040e+02 3.965899999999999892e+01 1.079137999999999931e+00 -3.299892930682277181e-02
1.255200000000000093e+00 5.542499999999999716e+01 1.000799999999999983e+02 -3.378336000000000117e-01 -1.875692912741170060e-01
1.261300000000000088e+00 1.027399999999999949e+02 4.347800000000000153e+01 3.045144000000000073e+00 -2.581752912790197252e-01
1.261300000000000088e+00 1.036099999999999994e+02 4.347800000000000153e+01 -7.469029999999999836e-01 -2.569808958052434145e-01
1.262100000000000000e+00 7.714799999999999613e+01 8.615699999999999648e+01 -1.203786999999999940e+00 4.093743707091847955e-02
1.266899999999999915e+00 1.038199999999999932e+02 7.433299999999999841e+01 -9.356583000000000538e+00 -3.850562644608271912e-01
1.266999999999999904e+00 5.664999999999999858e+01 9.206000000000000227e+01 2.199238999999999944e+00 -1.887446539162812298e-01
1.267700000000000049e+00 9.387300000000000466e+01 9.014799999999999613e+01 1.211880999999999986e+01 1.384733072466591032e-02
1.268000000000000016e+00 8.949299999999999500e+01 9.021699999999999875e+01 -2.538313000000000130e+01 1.528234370029966926e-02
1.268000000000000016e+00 4.667399999999999949e+01 8.303900000000000148e+01 3.251084999999999781e+00 -1.865977257456653271e-01
1.268599999999999950e+00 9.307800000000000296e+01 8.643899999999999295e+01 2.600118000000000151e+00 1.042949619468760102e-02
1.269400000000000084e+00 1.111200000000000045e+02 5.065299999999999869e+01 -8.719410999999999135e+00 -1.906070438991927518e-01
1.270999999999999908e+00 6.210699999999999932e+01 8.152599999999999625e+01 7.523780999999999608e+00 -1.936609880482265400e-01
1.270999999999999908e+00 6.857999999999999829e+01 9.206199999999999761e+01 -1.907175999999999982e+00 -1.899871196298004439e-01
1.276999999999999913e+00 5.704999999999999716e+01 9.167300000000000182e+01 -2.462060000000000137e+00 -1.888798225958149002e-01
1.289700000000000069e+00 7.081499999999999773e+01 8.614600000000000080e+01 5.876165000000000305e+00 -1.921982576152787836e-01
1.290000000000000036e+00 8.347299999999999898e+01 8.006499999999999773e+01 4.197115999999999758e+01 9.523522272133868802e-03
1.292000000000000037e+00 9.238599999999999568e+01 8.107099999999999795e+01 2.867933999999999983e+01 1.218200086439735347e-01
1.292000000000000037e+00 6.279999999999999716e+01 8.502500000000000568e+01 -6.912315000000000431e+00 -1.923984184026668043e-01
1.294499999999999984e+00 6.209000000000000341e+01 8.771599999999999397e+01 7.928484000000000087e+00 -1.910341498252699499e-01
1.294999999999999929e+00 5.795100000000000051e+01 7.289600000000000080e+01 -7.548424000000000245e-01 -1.860867777651002974e-01
1.296999999999999931e+00 6.714000000000000057e+01 8.954300000000000637e+01 4.849465999999999610e+00 -1.909686827769767059e-01
1.296999999999999931e+00 6.714000000000000057e+01 9.458100000000000307e+01 1.805427999999999855e+01 -1.892883571476168536e-01
1.296999999999999931e+00 6.734900000000000375e+01 9.027899999999999636e+01 1.938258000000000036e+00 -1.906652956612339134e-01
