3.061599999999999966e+01 8.993999999999999773e+00 -2.094600000000000151e+01 8.208811000000000035e+01 -2.714134201407732983e-01
3.062000000000000099e+01 -8.416999999999999815e+00 1.248600000000000065e+01 -1.935181999999999958e+00 -2.459847019833456550e-01
3.062099999999999866e+01 1.773699999999999832e+01 -4.424999999999999822e+00 -6.384231999999999907e+00 -3.499999999999999778e-01
3.062500000000000000e+01 -1.431799999999999962e+01 -1.015300000000000047e+01 -2.060399999999999920e+01 -1.037732311573842658e-01
3.062500000000000000e+01 -3.185599999999999987e+00 -9.292400000000000659e+00 8.446802999999999173e+00 -1.872127243472745117e-01
3.062600000000000122e+01 2.755900000000000105e+01 -3.532500000000000195e+00 4.416076000000000334e+01 -3.499999999999999778e-01
3.062699999999999889e+01 -1.037299999999999933e+01 1.534899999999999931e+00 -6.603597999999999413e-02 -1.533150616223686313e-01
3.062699999999999889e+01 -3.215599999999999881e+01 -1.290099999999999980e+01 1.471330999999999989e+01 -2.763108734841956404e-01
3.063100000000000023e+01 -1.154599999999999937e+01 -1.136199999999999988e-01 -6.466344000000000314e+00 -1.530404648960974334e-01
3.063299999999999912e+01 -1.391499999999999915e+01 4.622899999999999565e+00 9.620958999999999151e+00 -1.505963748089511334e-01
3.063899999999999935e+01 -2.840399999999999991e+01 -2.132999999999999829e+01 5.539437999999999640e+00 -2.758211545978072055e-01
3.064000000000000057e+01 -1.196100000000000030e+01 -1.073099999999999987e+01 1.674334999999999951e+01 2.741116870840906369e-03
3.064699999999999847e+01 -1.657300000000000040e+01 -1.172199999999999953e+01 4.498382999999999576e+00 7.597467651552471113e-02
3.064699999999999847e+01 2.035500000000000043e+01 -2.486700000000000088e+01 2.658967000000000080e+00 -1.320332919352161169e-02
3.064699999999999847e+01 3.230299999999999838e-02 -1.028400000000000070e+01 4.368367000000000111e+00 -1.831149925273908852e-01
3.064999999999999858e+01 -7.566300000000000026e+00 5.493199999999999861e+00 2.213370000000000104e+01 -2.472697821108686411e-01
3.065099999999999980e+01 1.204299999999999926e+01 9.464299999999999713e+00 9.182496999999999687e+00 -2.440043064605685319e-01
3.065700000000000003e+01 1.566699999999999982e+01 1.054899999999999949e+01 6.369628999999999763e+00 -2.439732908075889772e-01
3.066000000000000014e+01 -2.489499999999999957e+01 -2.699399999999999977e+01 1.891094000000000008e+01 -1.692005144845336317e-01
3.066199999999999903e+01 -1.534200000000000053e+01 -1.098000000000000043e+01 -1.085735999999999990e+01 -1.043830584313597959e-01
3.066400000000000148e+01 1.531900000000000084e+01 4.352699999999999569e+00 6.297788999999999859e+00 -3.500000000000000333e-01
3.067000000000000171e+01 -2.588800000000000168e+01 -4.956400000000000250e-01 -3.058623000000000047e+01 -1.462876789955673273e-01
3.067899999999999849e+01 2.115599999999999881e+01 -2.404700000000000060e+01 5.501116999999999813e+00 -1.118525022126925020e-02
3.068100000000000094e+01 -3.192399999999999949e+01 -8.371199999999999752e-01 -7.385492000000000168e-01 -2.573958176566865097e-01
3.068199999999999861e+01 1.956299999999999883e+01 -2.542399999999999949e+01 1.066383000000000081e+00 -1.470151719645187462e-02
3.068199999999999861e+01 -9.032999999999999474e+00 5.399499999999999744e+00 2.792941000000000074e+01 -2.470123090938395050e-01
3.068400000000000105e+01 -3.397399999999999665e+01 -1.279599999999999937e+01 1.832725999999999900e+01 -2.761004010122581898e-01
3.068400000000000105e+01 -3.310900000000000176e+01 -1.279599999999999937e+01 2.151241999999999877e+01 -2.762055938233322627e-01
3.068400000000000105e+01 1.740800000000000125e+01 -3.665000000000000036e+00 -3.324453999999999798e+00 -3.499999999999999778e-01
3.068400000000000105e+01 1.528800000000000026e+01 -2.115299999999999869e+01 2.440227000000000146e+00 -4.783574750236893949e-03
3.068499999999999872e+01 1.167200000000000060e+01 8.617800000000000793e+00 4.045260999999999996e+00 -2.431866338180969644e-01
3.068700000000000117e+01 1.583799999999999919e+01 -2.599899999999999878e+01 -1.871947999999999945e+00 -1.846313922055251716e-02
3.069099999999999895e+01 1.405300000000000082e+01 3.649999999999999911e+00 1.448845000000000027e+01 -3.499999999999999778e-01
3.069999999999999929e+01 5.901399999999999757e+00 5.889599999999999724e+00 -1.596157000000000004e+01 -3.499999999999999778e-01
3.070100000000000051e+01 -2.337399999999999878e+01 -2.288500000000000156e+01 3.497028000000000247e+01 -1.705084993316732522e-01
3.070100000000000051e+01 -8.011400000000000077e+00 1.364400000000000013e+01 -8.423762999999999668e-01 -2.458912820714946323e-01
3.070799999999999841e+01 1.256799999999999962e+01 1.804400000000000004e+00 1.641103999999999896e+00 -3.499999999999999778e-01
3.071600000000000108e+01 1.907999999999999918e+00 -1.608399999999999963e+01 -4.281755000000000422e+00 -8.922546712526766011e-02
3.071699999999999875e+01 -4.310999999999999943e+00 -9.432000000000000106e-02 -1.799600999999999829e+01 -2.604002750319726056e-01
3.071699999999999875e+01 -4.101899999999999658e+00 -8.303399999999999670e-01 -1.970529000000000153e+01 -1.703292784550492212e-01
3.071999999999999886e+01 -2.277199999999999847e+01 -1.681899999999999906e+01 7.583381999999999623e-01 -9.661089617215253000e-02
3.072500000000000142e+01 1.708800000000000097e+01 1.189799999999999969e+01 1.494369000000000058e+00 -2.447584726577091419e-01
3.072599999999999909e+01 -2.833699999999999974e+01 -1.506199999999999939e+01 1.259104999999999919e+01 -2.766705101395717237e-01
3.072599999999999909e+01 -2.833699999999999974e+01 -1.419699999999999918e+01 1.316877999999999993e+01 -2.767962823882305079e-01
3.073199999999999932e+01 -2.333399999999999963e+01 3.893400000000000194e+00 -2.815939000000000081e-01 -1.443665372201229369e-01
3.073799999999999955e+01 -8.062900000000000844e+00 -1.248799999999999955e+01 4.777251999999999832e+00 -2.021229386788566118e-01
3.073799999999999955e+01 1.269200000000000017e+01 2.734999999999999876e+00 1.294419999999999904e+00 -3.499999999999999778e-01
3.073900000000000077e+01 -1.787399999999999878e+01 5.910999999999999588e+00 -1.464916000000000018e+01 -1.499115249606418065e-01
3.073900000000000077e+01 -1.693400000000000105e+01 5.910999999999999588e+00 -4.686804999999999666e+01 -1.499794443342475636e-01
3.073900000000000077e+01 -2.925799999999999912e+01 -1.940899999999999892e+01 7.505455999999999683e+00 -2.759503806385767977e-01
3.074399999999999977e+01 1.143500000000000050e+01 1.046200000000000019e+00 6.652790000000000425e+00 -3.500000000000000333e-01
3.074500000000000099e+01 -3.872800000000000153e+01 -1.156199999999999939e+01 5.656278999999999613e+00 -2.757878142114861819e-01
3.074500000000000099e+01 -3.847399999999999665e+01 -1.245599999999999952e+01 7.937772999999999968e+00 -2.757293973657906072e-01
3.074500000000000099e+01 -3.702799999999999869e+01 -1.326200000000000045e+01 1.044716999999999985e+01 -2.757676117037315966e-01
3.074500000000000099e+01 2.843100000000000094e+01 -1.973300000000000054e+01 -2.456147000000000080e+00 -2.682578953134569510e-01
3.074899999999999878e+01 -3.481499999999999773e+01 -1.328899999999999970e+01 1.036639000000000088e+01 -2.759677702176451253e-01
3.075199999999999889e+01 -3.309700000000000131e+01 -1.296599999999999975e+00 1.714388999999999941e+00 -2.573207389729331718e-01
3.075300000000000011e+01 -2.410000000000000142e+01 -1.771199999999999974e+01 -1.121260000000000012e+01 -9.514922592182394057e-02
3.075499999999999901e+01 -8.072499999999999787e+00 1.151900000000000013e+01 -7.728766000000000247e-01 -2.461325594922347815e-01
3.075700000000000145e+01 1.040099999999999980e+01 9.430999999999999162e+00 4.637845999999999691e+00 -2.428683379159307099e-01
3.075900000000000034e+01 1.278700000000000081e+01 -2.027599999999999980e+01 -2.404898999999999898e+00 -1.643472704298062567e-03
3.076200000000000045e+01 -2.946900000000000119e+01 -1.343800000000000061e+01 1.454163999999999923e+01 -2.766969853516734190e-01
3.076399999999999935e+01 9.663299999999999557e+00 5.972900000000000098e+00 2.153296000000000099e+00 -3.499999999999999778e-01
3.076500000000000057e+01 -5.295099999999999696e+00 -5.403699999999999726e+00 1.113380000000000081e+01 -3.769459801573948332e-01
3.076500000000000057e+01 -4.104099999999999859e+00 -4.739700000000000024e+00 -2.416164999999999896e+00 -3.767144869566151355e-01
3.076500000000000057e+01 -4.104099999999999859e+00 -3.267599999999999838e+00 -1.252216999999999913e+01 -3.766292193521788567e-01
3.076500000000000057e+01 -3.895099999999999785e+00 -4.003700000000000259e+00 -7.154634999999999856e+00 -3.766361099041247718e-01
3.076800000000000068e+01 -8.187300000000000466e+00 -1.341900000000000048e+01 5.689974999999999561e+00 -1.889991579918193498e-01
3.077599999999999980e+01 -1.820700000000000074e+01 -1.473099999999999987e+01 1.483959999999999946e+00 7.581664368757667916e-02
3.077700000000000102e+01 1.898799999999999955e+01 -7.267900000000000027e+00 -1.871317999999999870e-01 -3.635177321025048758e-01
3.077799999999999869e+01 1.370199999999999996e+01 -2.036299999999999955e+01 -5.342335000000000278e+00 -1.939460510527314706e-03
3.077899999999999991e+01 5.129699999999999704e+00 -2.217999999999999972e+01 1.449784000000000006e+01 4.563897929634797013e-03
3.078000000000000114e+01 -2.348799999999999955e+01 -2.845100000000000051e+01 4.854972000000000065e+01 -1.692921146229218465e-01
3.078000000000000114e+01 -2.253000000000000114e+01 -2.845100000000000051e+01 1.508844000000000030e+01 -1.694987485042355746e-01
3.078300000000000125e+01 -7.224000000000000199e+00 -5.160000000000000142e+00 1.444083000000000006e+01 -1.839318919038252509e-01
3.078300000000000125e+01 -3.857000000000000028e+01 -1.068699999999999939e+01 1.672415000000000163e+01 -2.758809551913069535e-01
3.078500000000000014e+01 2.546399999999999864e+01 -1.550699999999999967e+01 3.695682000000000134e+00 -9.725803979555201761e-02
3.078500000000000014e+01 2.567299999999999827e+01 -1.624299999999999855e+01 1.315828999999999915e+01 -9.790734406467262174e-02
3.078500000000000014e+01 2.567299999999999827e+01 -1.477100000000000080e+01 7.515920999999999852e-01 -3.631700383690263934e-01
3.078500000000000014e+01 2.335500000000000043e+01 -1.831800000000000095e+00 7.130708000000000268e+00 -3.499999999999999778e-01
3.079200000000000159e+01 2.651200000000000045e+01 -1.713400000000000034e+01 2.121790000000000020e+01 -9.887031349811173375e-02
3.079700000000000060e+01 2.369000000000000128e+01 -1.217900000000000027e+01 -1.600016000000000105e+00 -3.632743040323573869e-01
3.080199999999999960e+01 -1.820299999999999940e+01 5.150999999999999801e+00 -2.100369999999999848e+01 -1.499425293476952803e-01
3.080300000000000082e+01 1.577899999999999991e+01 8.639699999999999491e+00 2.693030999999999953e+00 -2.420587903764611915e-01
3.080900000000000105e+01 1.306099999999999994e+01 3.584999999999999964e+00 1.269816000000000056e+00 -3.499999999999999778e-01
3.081299999999999883e+01 2.525199999999999889e+01 -2.172400000000000020e+01 1.667431000000000108e+00 -2.699059453335452274e-01
3.081299999999999883e+01 2.678699999999999903e+01 -2.216000000000000014e+01 -6.381918999999999897e+00 -2.698058865825129216e-01
3.081299999999999883e+01 2.807999999999999829e+01 -2.143900000000000006e+01 -7.178961000000000148e+00 -2.691961296821319682e-01
3.081299999999999883e+01 2.830699999999999861e+01 -2.064000000000000057e+01 -3.007509999999999906e+01 -2.687501899150926410e-01
3.081599999999999895e+01 -3.714300000000000068e+01 -9.746299999999999741e+00 2.538833999999999946e+01 -2.560626977964615691e-01
3.081599999999999895e+01 2.406899999999999906e+01 -2.226899999999999835e+01 6.358861000000000097e+00 -7.137229604734752000e-03
3.081700000000000017e+01 -2.409799999999999898e+01 -2.155999999999999872e+01 9.630746000000000029e-01 -9.545933911825883744e-02
3.081800000000000139e+01 -2.806900000000000173e+00 9.720100000000000406e+00 -6.494628999999999763e+00 -2.468332584334488600e-01
3.082100000000000151e+01 -2.385699999999999932e+01 -2.234900000000000020e+01 1.764958999999999989e+01 -9.571696515433750219e-02
3.082199999999999918e+01 2.595799999999999841e+01 -1.396499999999999986e+01 4.501157000000000075e+00 -3.632670290779544953e-01
3.082199999999999918e+01 1.073700000000000010e+01 8.656000000000000583e+00 2.966495000000000104e+00 -2.426170723895982317e-01
3.082199999999999918e+01 1.073700000000000010e+01 1.020599999999999952e+01 8.106120999999999910e+00 -2.435142292068243619e-01
3.082199999999999918e+01 1.169500000000000028e+01 1.020599999999999952e+01 1.384262999999999977e+01 -2.441061835096035859e-01
3.082600000000000051e+01 2.150799999999999912e+01 5.055699999999999861e+00 -7.414530000000000065e+00 -3.500000000000000333e-01
3.082999999999999829e+01 -4.977599999999999802e+00 1.063899999999999935e+01 1.457829000000000041e+00 -2.465215414398139182e-01
3.083299999999999841e+01 1.339000000000000057e+01 8.705000000000000071e+00 5.909326000000000079e+00 -2.427053242368480412e-01
3.083500000000000085e+01 8.462999999999999190e+00 6.362099999999999866e+00 3.269131999999999927e+00 -3.499999999999999778e-01
3.083500000000000085e+01 -2.738700000000000045e+01 -2.397800000000000153e+01 6.945440999999999754e+00 -9.371231102477470265e-02
3.083500000000000085e+01 -2.785699999999999932e+01 -2.322400000000000020e+01 1.018374000000000024e+01 -9.338463785542404361e-02
3.083699999999999974e+01 9.588699999999999335e+00 3.563000000000000167e+00 6.819619999999999571e+00 -3.499999999999999778e-01
3.083899999999999864e+01 -9.606299999999999173e+00 -1.426900000000000013e+01 2.698110999999999926e+00 -2.987773882463492028e-03
3.083899999999999864e+01 -8.555699999999999861e+00 -1.426900000000000013e+01 4.774081999999999937e+00 -2.694690857831409658e-03
3.083899999999999864e+01 -8.851000000000000867e+00 1.668199999999999905e+00 -6.219687999999999661e+00 -1.547740408034170012e-01
3.083999999999999986e+01 -7.560999999999999943e+00 1.064300000000000024e+00 -8.152381000000000100e+00 -1.562991819003685945e-01
3.084199999999999875e+01 1.675700000000000145e+01 -1.322000000000000064e+00 1.115496000000000087e+01 -3.499999999999999778e-01
3.084499999999999886e+01 -2.219399999999999906e+01 -2.767599999999999838e+01 -4.082823999999999565e+00 -1.697542549009892765e-01
3.084600000000000009e+01 -3.112500000000000000e+01 -1.333000000000000007e+01 9.814438000000000883e+00 -2.764494912606327848e-01
3.084600000000000009e+01 3.898000000000000131e+00 -1.731800000000000139e+01 1.164104000000000028e+00 -8.718012551432319235e-02
3.084700000000000131e+01 8.506700000000000372e+00 -2.182100000000000151e+01 8.250951999999999842e+00 -2.715126579320281119e-01
3.085000000000000142e+01 1.910099999999999909e+01 1.067600000000000016e+01 1.025881000000000043e+01 -2.433247002318227048e-01
3.085000000000000142e+01 4.761300000000000310e+00 -2.132999999999999829e+01 2.177110000000000056e+01 -2.711025043643857102e-01
3.085399999999999920e+01 -2.460300000000000153e+01 -2.007600000000000051e+01 -3.864945000000000164e+01 -9.499670555188921561e-02
3.085399999999999920e+01 -2.460300000000000153e+01 -1.921000000000000085e+01 -9.892307999999999879e+00 -9.493743417314223776e-02
3.085399999999999920e+01 -2.955799999999999983e+01 -1.593599999999999994e+01 8.410417999999999950e+00 -2.763634878962905050e-01
3.085699999999999932e+01 6.150400000000000311e+00 -2.229100000000000037e+01 7.203357999999999706e+00 3.363435229220670345e-03
3.085999999999999943e+01 -1.850700000000000145e+01 4.450999999999999623e+00 8.006842999999999932e+00 -1.428384067615036668e-01
3.086400000000000077e+01 1.542999999999999972e+01 5.190900000000000070e+00 -4.553129000000000204e+00 -3.499999999999999778e-01
3.086400000000000077e+01 1.575500000000000078e+01 5.928099999999999703e+00 -1.314475000000000060e+00 -3.499999999999999778e-01
3.086599999999999966e+01 -3.845000000000000195e+00 9.881000000000000227e+00 5.325525999999999982e+00 -2.467405474882026495e-01
3.086899999999999977e+01 1.217399999999999949e+01 -1.986400000000000077e+01 -4.900388000000000410e+00 1.742223737337023244e-04
3.087500000000000000e+01 7.394000000000000128e+00 6.148299999999999876e+00 -8.979840000000000044e-01 -3.500000000000000333e-01
3.087800000000000011e+01 -8.818699999999999761e+00 -5.998499999999999943e+00 7.991157000000000288e+00 -1.878212615911188932e-01
3.087900000000000134e+01 -1.288000000000000034e+00 9.621700000000000585e+00 -1.642460000000000164e+01 -2.469057627379357966e-01
3.087999999999999901e+01 -3.588000000000000256e+01 -7.905000000000000249e+00 3.642564000000000135e+01 -1.830923085972057107e-01
3.087999999999999901e+01 -3.565299999999999869e+01 -7.105900000000000105e+00 1.215659999999999918e+01 -1.832858041993886689e-01
3.087999999999999901e+01 2.003500000000000014e+01 9.730299999999999727e+00 1.488325000000000031e+01 -2.424408480097491325e-01
3.087999999999999901e+01 2.010200000000000031e+01 7.972000000000000419e+00 2.344224000000000174e+01 -3.499999999999999778e-01
3.087999999999999901e+01 9.838400000000000034e+00 2.153999999999999915e+00 1.738213000000000008e+01 -3.499999999999999778e-01
3.089199999999999946e+01 1.895599999999999952e+01 -5.348300000000000276e-01 3.505968000000000195e+00 -3.499999999999999778e-01
3.089199999999999946e+01 -3.618300000000000072e+00 -8.592399999999999594e+00 9.395117000000000829e+00 -1.860052152747629362e-01
3.089399999999999835e+01 -3.647599999999999909e+01 -1.337899999999999956e+01 8.602534999999999599e+00 -2.758264136365448094e-01
3.089499999999999957e+01 -5.152000000000000135e+00 -8.560100000000000264e+00 3.222249000000000052e+01 -1.887150470159762172e-01
3.089699999999999847e+01 -7.421999999999999709e+00 -1.027299999999999969e+01 1.834091000000000093e+01 -1.962582628450053324e-01
3.089799999999999969e+01 1.739100000000000090e+00 -1.308200000000000074e+01 1.106104000000000021e+01 -8.265806786644110116e-02
3.089900000000000091e+01 1.410800000000000054e+00 -1.237199999999999989e+01 -4.001325999999999716e+00 -8.192340243468435035e-02
3.090099999999999980e+01 2.252100000000000080e+01 -1.058200000000000074e+01 2.687049999999999983e+01 -3.633595755360851109e-01
3.090099999999999980e+01 -6.042099999999999582e+00 9.659200000000000008e-01 -2.894510000000000005e+01 -2.483566537650498118e-01
3.090299999999999869e+01 -1.996300000000000097e+01 -1.603300000000000125e+01 1.819610000000000127e+01 -1.012409273369403173e-01
3.090399999999999991e+01 1.197100000000000009e+01 7.855000000000000426e+00 1.615882000000000041e+00 -2.421606782765436117e-01
3.090399999999999991e+01 1.302100000000000080e+01 7.855000000000000426e+00 2.758182999999999829e+00 -3.499999999999999778e-01
3.090399999999999991e+01 1.302100000000000080e+01 9.554999999999999716e+00 4.645405000000000229e+00 -2.437311173474123738e-01
3.090500000000000114e+01 1.104100000000000037e+01 -1.910600000000000165e+01 -5.845286999999999900e+00 -2.707983012148055257e-01
3.090599999999999881e+01 -4.990800000000000125e+00 1.227899999999999991e+01 -2.330847999999999942e+01 -2.462512301278016180e-01
3.090700000000000003e+01 -1.131900000000000084e+01 -6.155000000000000249e+00 8.976908999999999139e+00 -1.732535176987654579e-01
3.090700000000000003e+01 -1.012800000000000011e+01 -6.818999999999999950e+00 4.998727999999999838e+00 -8.531093821559956880e-02
3.091100000000000136e+01 -6.412200000000000344e+00 -9.376400000000000290e+00 5.204865000000000208e+01 -1.927959061851143019e-01
3.091300000000000026e+01 -7.067700000000000315e+00 1.024300000000000033e+01 -9.365337999999999719e-01 -2.464107694899494994e-01
3.091300000000000026e+01 -6.963199999999999612e+00 9.442600000000000549e+00 -7.109237999999999946e-01 -2.465574889931854974e-01
3.091300000000000026e+01 3.737999999999999989e+00 6.884900000000000020e+00 -1.094866999999999990e+01 -2.383808790834249791e-01
3.091499999999999915e+01 -3.531400000000000006e+01 -3.669000000000000039e+00 2.083852999999999955e+00 -2.572565108111746768e-01
3.091499999999999915e+01 -3.508700000000000330e+01 -2.869899999999999896e+00 3.067811999999999983e+00 -2.572386970985452992e-01
3.091799999999999926e+01 1.193000000000000060e+00 7.961999999999999744e+00 6.995056999999999903e+01 -2.427487475885329038e-01
3.091799999999999926e+01 -3.497099999999999653e+01 -5.269400000000000084e+00 4.564409999999999634e+00 -2.573504425576197963e-01
3.091900000000000048e+01 1.574099999999999966e+01 -2.185000000000000142e+01 2.404145000000000199e+00 -6.776881898564901530e-03
3.092000000000000171e+01 1.013499999999999979e+01 5.246100000000000207e+00 1.911769000000000052e+00 -3.500000000000000333e-01
3.092200000000000060e+01 1.453599999999999959e+01 9.381999999999999673e+00 3.448338999999999821e+00 -2.430975024377675930e-01
3.092200000000000060e+01 2.548600000000000065e+01 -2.517500000000000071e+00 8.185303999999999292e+01 -3.500000000000000333e-01
3.092299999999999827e+01 -1.342200000000000060e+01 -1.009200000000000053e+01 8.040573999999999444e+00 3.718163862659119943e-03
3.092399999999999949e+01 -1.110500000000000043e+01 -1.205300000000000082e+01 -6.374891999999999781e-01 -1.457957359953668340e-04
3.092999999999999972e+01 -1.076600000000000001e+01 -1.296700000000000053e+01 -5.896650999999999976e-02 -2.311982303395238372e-03
3.092999999999999972e+01 -3.519100000000000250e+01 -4.492600000000000371e+00 4.963670999999999722e+00 -2.573009294900263644e-01
3.093299999999999983e+01 9.638999999999999346e+00 2.926600000000000090e+00 1.261395000000000088e+01 -3.500000000000000333e-01
3.093799999999999883e+01 -2.431500000000000128e+01 -1.829700000000000060e+01 -4.585932999999999815e+00 -9.519002306086592202e-02
3.093799999999999883e+01 -2.385600000000000165e+01 -2.774299999999999855e+01 7.949962999999999624e+01 -1.694030361075509472e-01
3.094000000000000128e+01 -5.328999999999999737e+00 1.306799999999999962e+01 -1.626375000000000171e+01 -2.461234757520690819e-01
3.094300000000000139e+01 -3.766700000000000159e+01 -1.904700000000000060e+01 -2.805464999999999876e+00 -1.709231348454392785e-01
3.094699999999999918e+01 -2.133800000000000097e+01 -1.695400000000000063e+01 1.652317000000000036e+00 -9.887429892747350013e-02
3.094800000000000040e+01 -3.600399999999999778e+01 -8.811999999999999389e+00 1.345170000000000066e+01 -2.566597212223531987e-01
3.094999999999999929e+01 -2.701699999999999946e+01 -2.480099999999999838e+01 8.717328999999999439e+00 -9.410570701089555901e-02
3.095299999999999940e+01 -8.266299999999999315e+00 5.434999999999999609e+00 1.640219999999999914e+02 -2.471183828308508024e-01
3.095299999999999940e+01 -2.222200000000000131e+01 -2.632700000000000173e+01 1.149691999999999936e+01 -1.700871902587338114e-01
3.095599999999999952e+01 1.742299999999999827e+01 -2.650499999999999901e+01 -9.350172999999999845e+00 -1.799724164009182392e-02
3.095599999999999952e+01 -3.022200000000000131e+01 -5.726099999999999524e-01 6.300171999999999883e+00 -1.797532775307137676e-01
3.095599999999999952e+01 -2.758399999999999963e+01 -5.726099999999999524e-01 1.650946000000000069e+01 -1.789841290183505351e-01
3.095899999999999963e+01 2.564000000000000057e+00 7.325999999999999623e+00 -4.419012999999999636e+00 -2.403569142358870925e-01
3.096300000000000097e+01 1.978999999999999915e+01 -8.150399999999999423e+00 8.556426999999999339e+00 -3.634373990283114031e-01
3.096900000000000119e+01 4.663299999999999557e+00 -2.026800000000000068e+01 7.343379999999999797e+00 -2.706843763371877265e-01
3.096999999999999886e+01 2.678099999999999881e+01 4.967699999999999894e-01 5.719492999999999938e+00 -3.499999999999999778e-01
3.097299999999999898e+01 -1.946399999999999864e+01 -1.536400000000000077e+01 9.641026999999999347e+00 7.651538420020721765e-02
3.097299999999999898e+01 -2.518799999999999883e+01 -4.373500000000000165e-01 -1.489098000000000077e+01 -1.461679934827296024e-01
3.097299999999999898e+01 -9.208899999999999864e+00 1.270400000000000063e+01 2.019286999999999921e+01 -2.459082153570055773e-01
3.097599999999999909e+01 -1.176099999999999923e+01 4.336899999999999977e+00 1.007720999999999911e+01 -2.466617015236794441e-01
3.097700000000000031e+01 -1.721600000000000108e+01 -1.398600000000000065e+01 1.948215999999999948e+00 7.507979822354529653e-02
3.097800000000000153e+01 2.751399999999999935e+01 -1.736899999999999977e+01 1.867352999999999952e+01 -9.926679769562266054e-02
3.097899999999999920e+01 9.831699999999999662e+00 4.546100000000000030e+00 3.319856000000000140e+00 -3.499999999999999778e-01
3.097899999999999920e+01 2.017899999999999849e+01 -8.986000000000000654e+00 1.022345999999999933e+01 -3.633450941547630708e-01
3.098199999999999932e+01 -6.936600000000000321e+00 7.651600000000000179e+00 2.100117000000000012e+00 -2.468922319309184155e-01
3.098900000000000077e+01 -2.421600000000000108e+01 6.557100000000000151e-01 -1.586843999999999966e+01 -1.455803593791535344e-01
3.098900000000000077e+01 2.181899999999999906e+01 -1.136100000000000110e+00 5.781198999999999977e+00 -3.499999999999999778e-01
3.098999999999999844e+01 1.656200000000000117e+01 -2.198500000000000121e+00 1.148712000000000089e+01 -3.500000000000000333e-01
3.098999999999999844e+01 4.663899999999999935e+00 -1.950900000000000034e+01 4.217767000000000266e+00 -2.703830830370157479e-01
3.099399999999999977e+01 1.064300000000000068e+01 5.806000000000000050e+00 -4.585416999999999632e+00 -3.500000000000000888e-01
3.099699999999999989e+01 2.322700000000000209e+00 -1.618499999999999872e+01 2.391650999999999846e-03 -8.836573272152239977e-02
3.099899999999999878e+01 2.004299999999999926e+01 6.417399999999999771e+00 9.753894999999999982e+00 -3.499999999999999778e-01
3.099899999999999878e+01 2.004299999999999926e+01 7.282700000000000173e+00 2.017100999999999900e+01 -3.499999999999999778e-01
3.100100000000000122e+01 -1.479199999999999982e+01 -1.033399999999999963e+01 -1.078419000000000061e+01 -1.038596880587920879e-01
3.100199999999999889e+01 -7.204500000000000348e+00 8.609500000000000597e+00 1.753289000000000097e+00 -2.466755117573811718e-01
3.100600000000000023e+01 1.438299999999999912e+00 -1.532399999999999984e+01 7.639983999999999664e-01 -8.872826018860677233e-02
3.100600000000000023e+01 1.438299999999999912e+00 -1.438400000000000034e+01 -2.981137999999999844e-02 -8.659303057749723198e-02
3.101099999999999923e+01 2.732600000000000051e+01 -1.057700000000000029e-01 7.932584000000000302e+00 -3.499999999999999778e-01
3.101099999999999923e+01 2.090700000000000003e+01 -9.097099999999999298e+00 1.071155000000000079e+01 -3.634027033955187225e-01
3.101200000000000045e+01 -1.163499999999999979e+01 -6.123499999999999499e-01 -1.054901000000000089e+01 -1.534427151327203420e-01
3.101200000000000045e+01 -1.142600000000000016e+01 -1.348400000000000043e+00 -2.567130000000000134e+00 -1.539007452687708999e-01
3.101800000000000068e+01 -7.066600000000000215e+00 6.150599999999999845e+00 3.060567999999999955e+00 -2.471703939160675989e-01
3.101800000000000068e+01 -6.857499999999999929e+00 6.886599999999999611e+00 1.653828000000000076e+00 -2.470520984166981737e-01
3.101800000000000068e+01 -9.807999999999999829e+00 5.334999999999999964e+00 1.876035999999999859e+01 -2.468552266317720068e-01
3.102100000000000080e+01 -9.533599999999999852e+00 1.547700000000000076e+00 1.880268000000000050e+00 -1.542891037360755724e-01
3.102100000000000080e+01 1.697400000000000020e+01 -3.075000000000000178e+00 -1.449542000000000108e+00 -3.499999999999999778e-01
3.102100000000000080e+01 2.639199999999999946e+01 -2.569999999999999840e+00 1.502624999999999922e+01 -3.499999999999999778e-01
3.102299999999999969e+01 -2.290099999999999913e-01 8.526300000000000878e+00 -2.052422999999999931e+01 -2.452465444460846800e-01
3.102299999999999969e+01 -2.255999999999999872e+01 -2.713700000000000045e+01 -2.466717000000000048e+00 -1.698519996541191790e-01
3.102499999999999858e+01 -2.227299999999999969e+01 4.660899999999999821e+00 -8.289154999999999163e+00 -1.439902156496936925e-01
3.102899999999999991e+01 -1.740399999999999991e+01 5.150999999999999801e+00 -1.028955999999999982e+01 -1.501489371872795631e-01
3.103099999999999881e+01 9.513400000000000745e+00 -2.046699999999999875e+01 1.091729999999999912e+01 -2.711086101409888038e-01
3.103099999999999881e+01 2.305600000000000094e+01 -2.344999999999999929e+01 8.556950000000000500e+00 -9.316839631275275480e-03
3.103800000000000026e+01 -8.872999999999999332e+00 1.192900000000000027e+01 2.358817000000000164e+00 -2.460169842823196618e-01
3.103800000000000026e+01 -8.872999999999999332e+00 1.347899999999999920e+01 1.818565999999999860e+01 -2.458590947505521207e-01
3.104400000000000048e+01 1.855600000000000094e+01 -6.567899999999999849e+00 4.461017000000000010e+00 -3.635637457545700668e-01
3.104400000000000048e+01 -1.988800000000000168e+01 3.750999999999999890e+00 8.795956000000000330e+00 -1.434861582474282748e-01
3.104400000000000048e+01 -2.494000000000000217e+00 -9.755300000000000082e+00 7.322415999999999592e+00 -1.871003313865886308e-01
3.104700000000000060e+01 -1.743299999999999983e+01 -1.303299999999999947e+01 2.155354000000000170e+01 7.581189632030063685e-02
3.104700000000000060e+01 -1.722400000000000020e+01 -1.229700000000000060e+01 1.583422999999999981e+01 7.602587829898951877e-02
3.104899999999999949e+01 1.612000000000000099e+01 -2.341700000000000159e+01 -5.116044999999999732e+00 -1.117698471170695124e-02
3.104899999999999949e+01 1.612000000000000099e+01 -2.255199999999999960e+01 1.283310999999999957e+01 -8.692143934922565846e-03
3.105000000000000071e+01 2.771799999999999997e+01 -4.366200000000000081e-01 1.992638000000000176e+01 -3.499999999999999778e-01
3.105300000000000082e+01 -2.298400000000000176e+01 -2.377499999999999858e+01 2.527652000000000143e+01 -1.705503054749208380e-01
3.105900000000000105e+01 2.203900000000000148e+01 -9.802599999999999980e+00 1.047871999999999915e+01 -3.634075639869791541e-01
3.105999999999999872e+01 -2.400400000000000134e+01 1.246399999999999952e+00 -1.024762999999999913e+01 -1.453609578259498769e-01
3.105999999999999872e+01 -2.379500000000000171e+01 1.982399999999999940e+00 -3.558237000000000094e+00 -1.450891979056540271e-01
3.106099999999999994e+01 -2.280900000000000105e+01 -2.526599999999999824e+01 2.634360000000000035e+00 -1.702226569776829623e-01
3.106400000000000006e+01 -1.084600000000000009e+01 1.018999999999999906e+00 -6.599037000000000652e-02 -1.534222339346343611e-01
3.106500000000000128e+01 -2.386700000000000088e+01 2.906699999999999839e+00 1.820467000000000057e-01 -1.448671317105035827e-01
3.106500000000000128e+01 2.707999999999999829e+01 -2.988999999999999879e+00 2.651157999999999859e+01 -3.500000000000000888e-01
3.106500000000000128e+01 2.803800000000000026e+01 -2.988999999999999879e+00 1.312494000000000050e+01 -3.500000000000000333e-01
3.106500000000000128e+01 2.473199999999999932e+01 1.328799999999999981e+00 1.638400000000000034e+01 -3.499999999999999778e-01
3.107300000000000040e+01 1.507300000000000040e+01 9.930400000000000560e+00 9.849698999999999316e+00 -2.434819536156037911e-01
3.107300000000000040e+01 2.873100000000000165e+01 -1.924599999999999866e+01 -3.078234000000000137e+00 -2.679516979740954041e-01
3.107300000000000040e+01 2.873100000000000165e+01 -1.828800000000000026e+01 -1.705000000000000071e+01 -1.001456045829014208e-01
3.107600000000000051e+01 -1.145500000000000007e+01 -3.979400000000000048e+00 5.951374000000000386e-01 -2.615796792052286213e-01
3.107600000000000051e+01 -2.300900000000000034e+01 -2.767599999999999838e+01 8.635229999999999961e+00 -1.696613050000659595e-01
3.107600000000000051e+01 -1.598000000000000043e+01 -1.105300000000000082e+01 -3.772100000000000009e+00 -1.042103273396853824e-01
3.107999999999999829e+01 1.968799999999999883e+01 -7.326200000000000045e+00 4.598086000000000340e+00 -3.635505519821536913e-01
3.107999999999999829e+01 -3.341400000000000148e+01 -1.626600000000000046e+00 -4.645182000000000144e+00 -2.573080549868116407e-01
3.108099999999999952e+01 -1.178700000000000081e+01 -4.689199999999999591e+00 1.435415999999999914e-01 -2.614718589154694239e-01
3.108399999999999963e+01 -1.166099999999999959e+01 -5.364300000000000068e+00 1.128251999999999988e+01 -1.697429674714648340e-01
3.108399999999999963e+01 1.886400000000000077e+01 -2.584400000000000119e+01 4.704210999999999920e+00 -1.554087061062757805e-02
3.108500000000000085e+01 -1.586400000000000077e+01 4.839000000000000412e+00 1.307637000000000072e+01 -1.504135754899320887e-01
3.108500000000000085e+01 -1.481400000000000006e+01 4.839000000000000412e+00 1.968926000000000087e+01 -1.506653866475201053e-01
3.109400000000000119e+01 -2.967200000000000060e+01 -1.848100000000000165e+01 9.632839000000000595e+00 -2.760759563611955292e-01
3.109400000000000119e+01 -2.967200000000000060e+01 -1.743100000000000094e+01 9.381372000000000710e+00 -2.762028715195329331e-01
3.109499999999999886e+01 1.613100000000000023e+01 6.722199999999999953e+00 -2.663412999999999808e+00 -3.499999999999999778e-01
3.109499999999999886e+01 1.613100000000000023e+01 7.587500000000000355e+00 1.573207000000000022e+00 -3.499999999999999778e-01
3.109499999999999886e+01 -2.416100000000000136e+01 -2.711100000000000065e+01 8.061773000000000522e+00 -1.695185208558809831e-01
3.109799999999999898e+01 -8.054700000000000415e+00 1.509900000000000020e+00 -8.421630000000000393e+00 -1.557401342924841781e-01
3.110500000000000043e+01 2.423100000000000165e+01 -2.038300000000000001e+00 5.212004000000000303e+00 -3.499999999999999778e-01
3.110600000000000165e+01 -6.202099999999999724e+00 -5.119500000000000384e+00 9.171796000000000504e+00 -3.770258924802262213e-01
3.110800000000000054e+01 1.626099999999999923e+01 1.116799999999999926e+01 3.300705999999999918e+00 -2.442929587448626483e-01
3.111199999999999832e+01 2.066499999999999915e+01 -2.444399999999999906e+01 3.299059000000000186e+00 -1.180341534873225601e-02
3.111199999999999832e+01 -1.711299999999999955e+01 -1.181099999999999994e+01 1.341267000000000031e+01 7.615209466895647705e-02
3.111400000000000077e+01 -1.245199999999999996e+01 -1.033399999999999963e+01 2.771364000000000161e+00 3.530217207429638994e-03
3.111400000000000077e+01 -1.144100000000000072e+01 -1.119299999999999962e+01 4.162741999999999720e+00 1.887958003213388884e-03
3.111700000000000088e+01 1.866799999999999926e+01 1.137599999999999945e+01 2.664734000000000158e+00 -2.439235647731062551e-01
3.111899999999999977e+01 2.321499999999999986e+01 2.376500000000000057e+00 7.903372000000000064e+00 -3.499999999999999778e-01
3.112099999999999866e+01 -2.669399999999999906e+01 -7.419799999999999729e-01 9.126189999999999358e+00 -1.788044485140950213e-01
3.112199999999999989e+01 -8.159800000000000386e-01 -9.867100000000000648e+00 9.170057999999999154e+00 -1.839129315935437992e-01
3.112300000000000111e+01 -3.263000000000000256e+01 -1.333999999999999986e+01 2.184510999999999825e+01 -2.762822966847628403e-01
3.112500000000000000e+01 1.652899999999999991e+01 -2.641700000000000159e+01 -5.794260000000000410e+00 -1.826582885417777496e-02
3.112500000000000000e+01 1.986799999999999855e+01 -4.082700000000000218e-01 4.663257999999999903e+00 -3.500000000000000333e-01
3.112600000000000122e+01 -7.613999999999999879e+00 -1.102999999999999936e+01 2.429494000000000042e+01 -1.979505045304491284e-01
3.112999999999999901e+01 2.837399999999999878e+01 -2.213999999999999968e+00 -1.781114000000000086e+00 -3.499999999999999778e-01
3.113299999999999912e+01 5.201399999999999579e+00 6.156900000000000261e+00 -1.674784000000000006e+01 -3.499999999999999778e-01
3.113299999999999912e+01 1.015300000000000091e+00 -1.154199999999999982e+01 1.250199999999999978e+00 -8.145137354602095814e-02
3.114000000000000057e+01 1.100300000000000011e+01 1.537099999999999911e+00 5.484267000000000003e+00 -3.499999999999999778e-01
3.114000000000000057e+01 1.186800000000000033e+01 1.537099999999999911e+00 2.366343999999999781e+00 -3.499999999999999778e-01
3.114600000000000080e+01 -3.471099999999999852e+01 -2.075800000000000090e+00 -1.261044999999999972e+00 -2.572270371900661212e-01
3.114600000000000080e+01 -2.867699999999999960e+01 -2.042999999999999972e+01 7.874653999999999598e+00 -2.759936192602696070e-01
3.114600000000000080e+01 -2.846799999999999997e+01 -2.116600000000000037e+01 7.421141000000000432e+00 -2.759377397403041110e-01
3.114600000000000080e+01 -2.457900000000000063e+01 -4.498400000000000315e-02 -1.176924999999999955e+01 -1.459361152242643900e-01
3.114900000000000091e+01 -3.182499999999999929e+01 -1.327200000000000024e+01 1.067174999999999940e+01 -2.764056716021794924e-01
3.115200000000000102e+01 9.464900000000000091e+00 -2.140599999999999881e+01 7.780535000000000423e+00 -2.713079745626001404e-01
3.115299999999999869e+01 -2.347200000000000131e+01 -1.708699999999999974e+01 -2.806573000000000206e+00 -9.635507386424520260e-02
3.115399999999999991e+01 1.816799999999999926e+01 -5.759999999999999787e+00 6.638368999999999520e-01 -3.636537865794706170e-01
3.115399999999999991e+01 1.816799999999999926e+01 -4.894700000000000273e+00 -3.532169000000000114e+00 -3.500000000000000333e-01
3.115399999999999991e+01 1.816799999999999926e+01 -3.955299999999999816e+00 -1.144529999999999959e+01 -3.499999999999999778e-01
3.115500000000000114e+01 2.578200000000000003e+01 4.057499999999999996e-01 4.425296999999999592e+00 -3.500000000000000333e-01
3.115899999999999892e+01 -3.064799999999999969e+01 -1.392900000000000027e+01 1.108347999999999978e+01 -2.765049036944636218e-01
3.115899999999999892e+01 -2.990200000000000102e+01 -1.392900000000000027e+01 1.225408000000000008e+01 -2.766269624361327728e-01
3.115899999999999892e+01 -2.903699999999999903e+01 -1.532900000000000063e+01 1.146693999999999924e+01 -2.765888676778516797e-01
3.115899999999999892e+01 -2.903699999999999903e+01 -1.392900000000000027e+01 1.384408999999999956e+01 -2.767802207105388712e-01
3.116100000000000136e+01 -2.289900000000000091e+01 -2.476500000000000057e+01 5.753694000000000308e+00 -1.703664100668314529e-01
3.116199999999999903e+01 1.117500000000000071e+01 8.060000000000000497e+00 6.543440000000000367e+00 -2.424673894006508790e-01
3.116300000000000026e+01 1.021000000000000085e+01 6.641099999999999781e+00 -2.409543999999999908e+00 -3.500000000000000333e-01
3.116600000000000037e+01 1.451699999999999946e+01 4.211299999999999599e+00 1.837679999999999936e+01 -3.500000000000000888e-01
3.116600000000000037e+01 -1.795400000000000063e+01 4.324399999999999800e+00 1.886999000000000093e+00 -1.502448280103091949e-01
3.116799999999999926e+01 -2.320799999999999841e+01 -2.721499999999999986e+01 1.400970000000000049e+01 -1.697432046945070439e-01
3.116900000000000048e+01 1.542699999999999960e+01 -2.548900000000000077e+01 -2.184171999999999780e+00 -1.689993409863014065e-02
3.116900000000000048e+01 1.542699999999999960e+01 -2.454899999999999949e+01 -9.747783000000000087e+00 -1.450032195875945208e-02
3.116900000000000048e+01 -6.801000000000000156e+00 1.000999999999999890e+00 -2.012980999999999909e+01 -1.572362502260156447e-01
3.117000000000000171e+01 -3.846600000000000108e+01 -1.904700000000000060e+01 1.468923999999999896e+00 -1.710567355912008258e-01
3.117000000000000171e+01 -3.686800000000000210e+01 -1.904700000000000060e+01 -1.109432999999999891e+00 -1.706827122450710332e-01
3.117000000000000171e+01 2.478500000000000014e+01 -1.290300000000000047e+01 2.841040000000000232e-01 -3.632644327299607290e-01
3.117099999999999937e+01 -7.539399999999999658e+00 1.067600000000000016e+01 -7.162828999999999446e-01 -2.462938904021513553e-01
3.117500000000000071e+01 1.413499999999999979e+01 -2.085399999999999920e+01 -1.520933000000000090e+00 -3.433025104625826805e-03
3.117599999999999838e+01 -7.080000000000000071e+00 1.398000000000000043e+01 -3.694882000000000222e+00 -2.459234630823467493e-01
3.117699999999999960e+01 1.730600000000000094e+01 1.219899999999999984e+01 -1.144287999999999972e+00 -2.448510712727586525e-01
3.118499999999999872e+01 -1.703900000000000148e+01 4.450999999999999623e+00 1.179144999999999932e+01 -1.503288882259709580e-01
3.118599999999999994e+01 1.117399999999999949e+01 6.564899999999999736e+00 -6.428467000000000375e+00 -3.499999999999999778e-01
3.119099999999999895e+01 1.218399999999999928e+01 3.293200000000000127e+00 6.139879999999999782e-01 -3.499999999999999778e-01
3.119600000000000151e+01 -4.311099999999999710e+00 -8.204599999999999227e+00 1.135368000000000066e+01 -1.862437428568113340e-01
3.119699999999999918e+01 -1.879299999999999926e+01 3.992500000000000160e+00 3.969247000000000192e+00 -1.432133698459199800e-01
3.119699999999999918e+01 -4.595100000000000406e+00 -5.136300000000000310e+00 4.325777999999999679e+00 -3.767903612925541657e-01
3.119800000000000040e+01 -1.330899999999999928e+01 4.042200000000000237e+00 5.064948000000000228e+00 -1.513664311461498380e-01
3.119900000000000162e+01 1.217099999999999937e+01 2.237099999999999866e+00 1.077995999999999954e+00 -3.499999999999999778e-01
3.120100000000000051e+01 -3.425699999999999790e+01 -1.347199999999999953e+01 1.739735999999999905e+01 -2.760843779408643228e-01
3.120400000000000063e+01 -5.342100000000000293e+00 9.076300000000000479e-01 -1.853165999999999869e+01 -2.620473488346833912e-01
3.120499999999999829e+01 1.951000000000000156e+01 1.058000000000000007e+01 1.748997999999999919e+01 -2.431564875850963647e-01
3.120700000000000074e+01 2.015899999999999892e+01 -2.494300000000000139e+01 1.713456000000000090e+00 -1.293414382956597185e-02
3.120700000000000074e+01 -3.628999999999999915e+01 -9.507300000000000750e+00 2.127918000000000021e+01 -2.563401922940937161e-01
3.120899999999999963e+01 1.071300000000000030e-01 -9.813399999999999679e+00 5.857719999999999594e+00 -1.818608801121076313e-01
3.120899999999999963e+01 -1.890700000000000003e+01 -1.499799999999999933e+01 6.036261999999999794e+00 7.606185960262820678e-02
3.120899999999999963e+01 2.291700000000000159e+01 -1.148199999999999932e+01 5.110762000000000249e+00 -3.632611277656012105e-01
3.121699999999999875e+01 -2.873300000000000054e+01 -1.462899999999999956e+01 1.141804999999999914e+01 -2.767498962601442902e-01
3.121699999999999875e+01 2.616400000000000148e+01 -1.663899999999999935e+01 1.688556000000000168e+01 -9.815273388744076566e-02
3.121999999999999886e+01 1.147799999999999976e+01 7.360000000000000320e+00 1.216078999999999910e+00 -3.499999999999999778e-01
3.122100000000000009e+01 1.258399999999999963e+01 4.099800000000000111e+00 -2.409950999999999899e-01 -3.499999999999999778e-01
3.122100000000000009e+01 1.144200000000000017e+01 5.806000000000000050e+00 -4.083671999999999969e+00 -3.499999999999999778e-01
3.122800000000000153e+01 5.455300000000000260e+00 -2.169500000000000028e+01 7.424280999999999686e+00 -2.710960216197407791e-01
3.123199999999999932e+01 8.895699999999999719e+00 6.852999999999999758e+00 3.755910000000000082e+00 -3.499999999999999778e-01
3.123300000000000054e+01 -3.813700000000000045e+01 -1.980699999999999861e+01 1.830378999999999978e+00 -1.710858392311494780e-01
3.123300000000000054e+01 -3.813700000000000045e+01 -1.828699999999999903e+01 2.347566000000000042e+00 -1.708541071216906349e-01
3.123300000000000054e+01 -3.719700000000000273e+01 -1.980699999999999861e+01 1.083110000000000017e+00 -1.708721690138611526e-01
3.123300000000000054e+01 -3.719700000000000273e+01 -1.828699999999999903e+01 -6.816579000000000388e-01 -1.706279653336633950e-01
3.123499999999999943e+01 1.421400000000000041e+01 8.907099999999999795e+00 1.530447999999999986e+01 -2.426668320883248742e-01
3.123499999999999943e+01 1.507900000000000063e+01 8.907099999999999795e+00 8.443492000000000886e+00 -2.424605506535360000e-01
3.123699999999999832e+01 1.021799999999999997e+01 8.176299999999999457e+00 3.129694999999999894e+00 -2.418357756131618574e-01
3.123699999999999832e+01 1.824500000000000099e+01 1.209999999999999964e+01 -1.010473999999999961e+01 -2.445442773568529959e-01
3.123900000000000077e+01 1.041300000000000026e+01 4.760900000000000354e+00 -1.085695000000000077e+00 -3.499999999999999778e-01
3.124099999999999966e+01 4.498000000000000220e+00 6.705700000000000216e+00 -1.086712999999999951e+01 -2.375167887420576718e-01
3.124200000000000088e+01 2.774599999999999866e+01 -1.047500000000000098e+00 7.264902000000000193e+00 -3.499999999999999778e-01
3.124699999999999989e+01 1.341499999999999915e+01 9.951900000000000190e+00 1.427164999999999928e+01 -2.439528929260198764e-01
3.124800000000000111e+01 2.103699999999999903e+01 5.694099999999999717e+00 -3.651752000000000109e+00 -3.499999999999999778e-01
3.124899999999999878e+01 2.357799999999999940e+01 -2.266600000000000037e+01 7.107825000000000060e+00 -7.646235298778132801e-03
3.125000000000000000e+01 1.325600000000000023e+01 -2.071000000000000085e+01 -1.357914000000000065e+00 -2.922435029446760271e-03
3.125100000000000122e+01 -5.974400000000000155e+00 -8.780400000000000205e+00 5.089907000000000181e+01 -1.904131973789014443e-01
3.126099999999999923e+01 -3.145799999999999841e+01 -5.000200000000000200e-01 2.730640000000000178e+00 -2.574002421043218858e-01
3.126099999999999923e+01 1.256099999999999994e+01 1.018099999999999916e+01 1.901339000000000112e+01 -2.444001827514928338e-01
3.126099999999999923e+01 1.121599999999999930e+01 1.075000000000000000e+01 2.028469000000000122e+01 -2.439183505519571526e-01
3.126099999999999923e+01 -2.345599999999999952e+01 -2.314000000000000057e+01 2.812349000000000032e+01 -1.706702138004219660e-01
3.126500000000000057e+01 1.841900000000000048e+01 -1.201699999999999990e+00 3.557854999999999990e+00 -3.499999999999999223e-01
3.126599999999999824e+01 -8.152900000000000702e+00 -5.389499999999999957e+00 1.099282000000000004e+01 -1.857671690126428965e-01
3.126999999999999957e+01 -4.263200000000000323e+00 1.034500000000000064e+01 5.695259000000000071e+00 -2.466042470100418549e-01
3.126999999999999957e+01 -3.787800000000000011e+01 -1.293699999999999939e+01 1.575151999999999930e+01 -2.758104654284344592e-01
3.126999999999999957e+01 -3.787800000000000011e+01 -1.018699999999999939e+01 1.896753999999999962e+01 -2.558841759356639267e-01
3.127199999999999847e+01 -3.256700000000000017e+01 -1.436399999999999899e+00 4.767894000000000077e+00 -2.573654977315418257e-01
3.127499999999999858e+01 -4.707200000000000273e+00 -2.298999999999999932e+00 -2.286910999999999916e+01 -3.766479615152062976e-01
3.127899999999999991e+01 4.597999999999999865e+00 -1.845100000000000051e+01 3.339347000000000149e-02 -8.807548932647127349e-02
3.128000000000000114e+01 1.252699999999999925e+01 7.205099999999999838e+00 4.942540000000000128e-02 -3.500000000000000333e-01
3.128300000000000125e+01 2.462699999999999889e+01 -2.187000000000000099e+01 5.161684000000000161e+00 -2.700862101589988074e-01
3.128300000000000125e+01 2.602700000000000102e+01 -2.187000000000000099e+01 1.030763000000000096e+00 -2.697672304472670257e-01
3.128300000000000125e+01 2.754700000000000060e+01 -2.187000000000000099e+01 -3.601093999999999795e+00 -2.694704889323880082e-01
3.128399999999999892e+01 1.111299999999999955e+01 5.046000000000000263e+00 -1.085124999999999895e+00 -3.499999999999999778e-01
3.128999999999999915e+01 1.358600000000000030e+01 4.181099999999999817e+00 9.223769000000000773e+00 -3.499999999999999778e-01
3.129200000000000159e+01 -1.614999999999999858e+01 4.320700000000000429e+00 2.467610000000000170e+01 -1.505497869554970891e-01
3.129400000000000048e+01 1.538299999999999912e+01 8.207100000000000506e+00 2.320142000000000149e+00 -3.500000000000000333e-01
3.129599999999999937e+01 2.204100000000000037e+01 4.625099999999999767e+00 -3.470627999999999957e+01 -3.500000000000000333e-01
3.129599999999999937e+01 2.226800000000000068e+01 3.826000000000000068e+00 -7.086632999999999960e+00 -3.499999999999999778e-01
3.129599999999999937e+01 2.247700000000000031e+01 3.089999999999999858e+00 8.795393999999999934e+00 -3.499999999999999778e-01
3.129700000000000060e+01 1.493900000000000006e+01 4.794299999999999784e+00 3.182831999999999883e+00 -3.499999999999999778e-01
3.129700000000000060e+01 2.222400000000000020e+01 -2.344099999999999895e+01 1.664620999999999995e+01 -9.250797234629423368e-03
3.129799999999999827e+01 1.010999999999999943e+01 4.060900000000000176e+00 3.807056999999999913e+00 -3.500000000000000333e-01
3.130099999999999838e+01 9.961999999999999744e+00 8.951999999999999957e+00 4.561893999999999672e+00 -2.421025171029783929e-01
