7.789200000000000124e+00 1.235100000000000087e+01 2.511899999999999977e+01 -5.318704999999999572e+00 1.232837069724008472e-01
7.796999999999999709e+00 2.143299999999999983e+01 3.292600000000000193e+01 -1.026341000000000037e+01 2.814970307811465178e-02
7.796999999999999709e+00 2.164199999999999946e+01 3.366199999999999903e+01 -1.320947999999999922e+01 2.955600653056212335e-01
7.796999999999999709e+00 2.164199999999999946e+01 3.545000000000000284e+01 1.973593999999999937e+01 2.956956511270413257e-01
7.796999999999999709e+00 2.189600000000000080e+01 3.455599999999999739e+01 -4.194181000000000381e+00 2.956648359093959622e-01
7.799999999999999822e+00 1.865899999999999892e+00 5.470100000000000051e+01 -7.599706000000000294e+00 3.155475678578457122e-01
7.804199999999999804e+00 5.919200000000000017e+00 2.376999999999999957e+01 -2.979886000000000035e+00 1.281062117535968770e-01
7.804199999999999804e+00 5.919200000000000017e+00 2.553000000000000114e+01 -4.531077999999999939e+00 1.388210094967445019e-01
7.812100000000000044e+00 1.780499999999999972e+01 2.742999999999999972e+01 -2.944780000000000175e+00 3.407862058806197803e-02
7.821799999999999642e+00 1.396899999999999942e+01 4.996200000000000330e+01 3.572207999999999828e+01 3.183014390907047408e-01
7.835300000000000153e+00 4.122200000000000308e+00 2.735300000000000153e+01 -5.813201000000000285e+00 -1.335188696983546086e-01
7.836999999999999744e+00 2.571200000000000152e+00 5.341199999999999903e+01 -1.586297000000000068e+01 3.156969308947595865e-01
7.857000000000000206e+00 5.780999999999999694e+00 2.464999999999999858e+01 -1.355083999999999955e+00 1.274165831881373390e-01
7.863299999999999734e+00 2.195300000000000029e+00 5.546099999999999852e+01 -9.312428999999999846e+00 3.155828630268379120e-01
7.875000000000000000e+00 1.316999999999999948e+00 2.664199999999999946e+01 2.689853999999999967e+00 -1.252179131034766857e-01
7.875000000000000000e+00 2.866999999999999993e+00 2.664199999999999946e+01 2.155723000000000056e+01 -1.285860040673436067e-01
7.878999999999999559e+00 6.039999999999999813e-01 5.278300000000000125e+01 1.054156000000000049e+01 8.899119078922332338e-02
7.879100000000000215e+00 -3.838400000000000034e+00 3.419200000000000017e+01 1.528818999999999928e+00 -1.342256037671190616e-01
7.880700000000000038e+00 1.895499999999999829e+01 2.689600000000000080e+01 -2.074084999999999823e+01 3.664144265790197225e-02
7.888099999999999667e+00 2.053699999999999903e+01 4.627100000000000080e+01 -8.143321000000000254e+00 2.353328277623264186e-01
7.890900000000000247e+00 2.026500000000000057e+01 2.618700000000000117e+01 -5.797334000000000209e+00 3.948561400660426102e-02
7.900999999999999801e+00 -5.307900000000000063e+00 4.497699999999999676e+01 -1.208184999999999931e+01 3.610054893060185011e-01
7.902000000000000135e+00 -3.013300000000000090e+00 3.044900000000000162e+01 6.672236999999999973e+00 -1.263561708727569122e-01
7.905499999999999972e+00 -7.727800000000000225e-01 5.289500000000000313e+01 -1.748353999999999964e+00 9.108694404217175522e-02
7.907000000000000028e+00 9.101000000000000867e+00 5.279699999999999704e+01 2.908062999999999931e+01 3.170078007609188342e-01
7.909200000000000230e+00 2.225800000000000001e+00 3.299300000000000210e+01 -2.788075999999999866e+01 -1.451600403059314925e-01
7.915000000000000036e+00 2.163899999999999935e+01 3.988600000000000279e+01 -1.911469000000000085e+00 2.358865000453595484e-01
7.915199999999999569e+00 -2.705799999999999983e+00 3.256799999999999784e+01 -2.291630000000000056e+00 -1.331140111409970239e-01
7.915199999999999569e+00 -2.705799999999999983e+00 3.343299999999999983e+01 -3.384002999999999872e+00 -1.353271026960673473e-01
7.920799999999999841e+00 -2.044999999999999873e-01 4.693900000000000006e+01 -2.549878000000000000e+01 3.620136873400550681e-01
7.929999999999999716e+00 2.149500000000000099e+01 2.701000000000000156e+01 -2.048516000000000048e+01 3.915252835830480838e-02
7.929999999999999716e+00 2.149500000000000099e+01 2.794999999999999929e+01 -3.358997999999999706e+01 3.737730734073042849e-02
7.931799999999999962e+00 -1.690800000000000081e+00 2.941199999999999903e+01 3.031905000000000072e+00 -1.268849400498467950e-01
7.933699999999999974e+00 -1.836200000000000054e-01 4.550500000000000256e+01 -2.830260000000000176e+01 3.622259584265482002e-01
7.933699999999999974e+00 6.816200000000000037e-01 4.550500000000000256e+01 -1.355902999999999992e+01 3.624486332315436932e-01
7.933699999999999974e+00 6.816200000000000037e-01 4.690500000000000114e+01 -2.008057000000000158e+01 3.622299785288754514e-01
7.951100000000000279e+00 2.050700000000000145e+01 3.826200000000000045e+01 -5.560013000000000316e-01 2.358561413598949663e-01
7.955499999999999794e+00 3.628200000000000092e+00 3.647099999999999653e+01 -2.711569000000000074e+01 3.787290738133478607e-01
7.958099999999999952e+00 2.035699999999999932e+01 3.918099999999999739e+01 -3.981686999999999976e+00 2.357457679510221171e-01
7.982300000000000395e+00 5.219999999999999751e+00 2.706400000000000006e+01 -1.173764000000000074e+01 1.363707945797177912e-01
7.983600000000000030e+00 1.323799999999999955e+01 5.008800000000000097e+01 1.888953000000000060e+01 3.181507619423492583e-01
7.984700000000000131e+00 2.537100000000000133e+00 3.218500000000000227e+01 -5.313978000000000179e+01 -1.438920988591917971e-01
7.985000000000000320e+00 -5.728100000000000414e+00 4.255199999999999960e+01 3.385955000000000048e+00 3.611035028492968202e-01
7.985000000000000320e+00 -5.519000000000000128e+00 4.181600000000000250e+01 3.021778999999999993e+00 3.612239414470960197e-01
7.987499999999999822e+00 -5.299100000000000144e+00 4.767099999999999937e+01 2.330131999999999870e+00 3.607763510293648390e-01
7.988199999999999967e+00 -1.231199999999999933e-01 2.915800000000000125e+01 5.692038000000000153e+00 -1.293710967354169128e-01
7.988299999999999734e+00 5.741999999999999993e+00 3.626599999999999824e+01 -2.859336000000000055e+01 3.790799945753958733e-01
7.991999999999999993e+00 -4.870200000000000085e-01 4.620499999999999829e+01 -2.319687000000000054e+01 3.620445526674854753e-01
7.991999999999999993e+00 9.850200000000000067e-01 4.620499999999999829e+01 -1.659180999999999884e+01 3.156567666873166256e-01
8.003500000000000725e+00 1.447600000000000087e+01 2.529899999999999949e+01 -6.842298999999999687e+00 1.146921567402372222e-01
8.006299999999999528e+00 2.094500000000000028e+01 4.431400000000000006e+01 6.551201999999999970e+00 2.354768351601093102e-01
8.006600000000000605e+00 1.710699999999999932e+01 5.053000000000000114e+01 -6.235163000000000011e+00 3.187303921139733598e-01
8.011100000000000776e+00 1.675400000000000134e+01 2.728999999999999915e+01 2.020009999999999906e+01 3.308297290816418490e-02
8.016400000000000858e+00 2.066000000000000014e+01 3.988100000000000023e+01 -3.370229999999999837e+00 2.357346675652808865e-01
8.017300000000000537e+00 5.357000000000000206e+00 5.511099999999999710e+01 -2.280933999999999884e+01 3.161271732621121489e-01
8.022000000000000242e+00 -2.990699999999999914e+00 5.094899999999999807e+01 -2.320088000000000150e+01 3.609593213420999036e-01
8.022999999999999687e+00 -5.137100000000000222e+00 4.863600000000000279e+01 -3.125312999999999702e-02 3.607315126293159091e-01
8.044399999999999551e+00 1.108300000000000018e+01 5.039399999999999835e+01 2.666912999999999911e+01 3.176772404379598624e-01
8.050200000000000244e+00 3.550300000000000011e+00 3.213100000000000023e+01 -1.083606999999999942e+02 -1.461234676722037162e-01
8.053100000000000591e+00 2.028399999999999892e+01 4.556300000000000239e+01 -1.673639000000000010e+01 2.353211131147790736e-01
8.058699999999999974e+00 2.183399999999999963e+01 2.970700000000000074e+01 -8.399546000000000845e+00 3.448840621070245471e-02
8.066000000000000725e+00 -4.653400000000000425e+00 3.877499999999999858e+01 -1.863361999999999963e+00 3.617565785552774305e-01
8.066000000000000725e+00 -4.653400000000000425e+00 3.964099999999999824e+01 -2.050564000000000053e+00 3.616715558657992990e-01
8.067000000000000171e+00 2.342599999999999838e+01 4.082000000000000028e+01 1.648787000000000091e+01 2.360694262144294453e-01
8.077299999999999258e+00 -3.810299999999999798e+00 4.950300000000000011e+01 -3.343307999999999947e+00 3.609195155727328297e-01
8.101200000000000401e+00 -5.366600000000000037e+00 4.123299999999999699e+01 5.126100000000000101e+00 3.613062376757044669e-01
8.101900000000000546e+00 -4.918400000000000105e+00 3.739900000000000091e+01 7.763481999999999772e+00 9.880520379473738124e-02
8.101900000000000546e+00 -4.709299999999999820e+00 3.813499999999999801e+01 1.781730999999999954e+00 9.733444714539442322e-02
8.103400000000000603e+00 1.930699999999999861e+01 4.943999999999999773e+01 -9.238998999999999739e+00 2.350841136502027917e-01
8.106899999999999551e+00 2.217200000000000060e+01 3.997999999999999687e+01 -7.462270000000000181e+00 2.359626039860760471e-01
8.106899999999999551e+00 2.217200000000000060e+01 4.261800000000000210e+01 -1.190970000000000084e+01 2.357590317620267828e-01
8.108700000000000685e+00 1.543399999999999928e+01 5.045000000000000284e+01 -8.937713999999999714e+00 3.184895165051332411e-01
8.110699999999999577e+00 4.500000000000000000e+00 3.656199999999999761e+01 -3.174852999999999881e+01 3.789211581475979695e-01
8.111399999999999721e+00 2.058800000000000097e+01 4.486299999999999955e+01 -7.189696999999999782e+00 2.353958191991781523e-01
8.120300000000000296e+00 2.183099999999999952e+01 3.132700000000000173e+01 4.252377000000000073e+00 3.149924932993920790e-02
8.129300000000000637e+00 -4.783000000000000362e+00 3.460900000000000176e+01 1.591804999999999914e+00 -1.327638845379768562e-01
8.142899999999999139e+00 2.103900000000000148e+01 4.337599999999999767e+01 8.936329999999999885e+00 2.355424623902026282e-01
8.150000000000000355e+00 6.881000000000000227e+00 2.101099999999999923e+01 1.727450000000000097e-01 1.289817379199553471e-01
8.150000000000000355e+00 8.430999999999999162e+00 2.101099999999999923e+01 5.000180999999999898e+01 1.256368656907931314e-01
8.150199999999999889e+00 2.355399999999999938e+00 3.577900000000000347e+01 -1.726070999999999955e+01 -1.518342757498888640e-01
8.150800000000000267e+00 1.578899999999999970e+01 2.612600000000000122e+01 1.001638999999999946e+01 1.155585189017807879e-01
8.152100000000000790e+00 6.674100000000000144e+00 5.322299999999999898e+01 -1.359229999999999983e+01 3.164727667065716510e-01
8.152300000000000324e+00 1.332399999999999984e+01 2.471399999999999864e+01 -5.992388000000000048e+00 1.137564275726727497e-01
8.159000000000000696e+00 1.007399999999999984e+01 2.470599999999999952e+01 9.146326000000000178e+00 1.297442448635235668e-01
8.159000000000000696e+00 1.126500000000000057e+01 2.537000000000000099e+01 9.554674999999999585e+00 1.248653873479686205e-01
8.170299999999999230e+00 -2.185000000000000053e+00 5.221000000000000085e+01 -9.458828999999999709e+00 9.228718621494494401e-02
8.172399999999999665e+00 2.057000000000000028e+01 4.750900000000000034e+01 -1.054470000000000063e+01 2.352924648800012175e-01
8.175800000000000622e+00 4.636999999999999567e+00 3.217600000000000193e+01 -1.492751000000000090e+02 1.226129475833765275e-01
8.195700000000000429e+00 2.356400000000000006e+01 4.164800000000000324e+01 4.958149000000000028e-01 2.360261184533330725e-01
8.201100000000000279e+00 2.489999999999999991e-01 4.620499999999999829e+01 -2.057060999999999851e+01 3.622189413817619164e-01
8.201999999999999957e+00 -9.101000000000000867e+00 4.510399999999999920e+01 -3.185337000000000085e+00 3.601465006865331442e-01
8.202700000000000102e+00 -1.071800000000000010e-02 5.289000000000000057e+01 5.096532999999999980e+00 9.021721672309156170e-02
8.211800000000000210e+00 5.769599999999999618e+00 3.293399999999999750e+01 -6.318704999999999927e+01 1.175547361101116212e-01
8.213699999999999335e+00 4.429000000000000159e-01 2.759600000000000009e+01 4.436989000000000072e-01 -1.258428123897884221e-01
8.220299999999999940e+00 1.950499999999999901e+01 2.625000000000000000e+01 -5.678734000000000393e+00 3.882832819337367347e-02
8.220299999999999940e+00 2.102499999999999858e+01 2.625000000000000000e+01 -5.367662000000000155e+00 4.038097314817702677e-02
8.226900000000000546e+00 1.797299999999999898e+01 5.027700000000000102e+01 4.560106000000000215e+00 2.349011629586073846e-01
8.241400000000000503e+00 -2.951200000000000045e+00 3.417000000000000171e+01 -2.001701000000000175e+00 -1.365865487335320427e-01
8.244799999999999685e+00 1.850499999999999901e+01 2.716199999999999903e+01 -1.254832999999999998e+01 3.575173644722590138e-02
8.252100000000000435e+00 -4.867899999999999672e+00 4.006099999999999994e+01 -1.925740999999999925e+00 3.615474220698140506e-01
8.255599999999999383e+00 3.095100000000000073e-01 2.845799999999999841e+01 1.339864999999999995e+01 -1.280986245015426628e-01
8.259499999999999176e+00 1.761500000000000066e+00 3.494500000000000028e+01 -2.376126000000000005e+01 -1.489841647765548782e-01
8.275600000000000733e+00 1.036599999999999966e+00 5.327400000000000091e+01 5.262729000000000212e+00 8.941242445933438032e-02
8.278499999999999304e+00 8.069899999999999851e-01 2.671799999999999997e+01 2.343921999999999950e-01 -1.239506647158132441e-01
8.291600000000000747e+00 -8.231199999999999628e-01 2.921699999999999875e+01 1.292421000000000042e+00 -1.278665464844918609e-01
8.293900000000000716e+00 2.665000000000000036e+00 5.599399999999999977e+01 -1.765433000000000163e+01 3.156081482512677061e-01
8.317000000000000171e+00 1.530499999999999972e+00 3.417399999999999949e+01 -2.416600999999999999e+01 -1.468086210071189446e-01
8.319800000000000750e+00 2.186100000000000065e+01 3.039799999999999969e+01 -8.323731000000000435e+00 3.331110480540687424e-02
8.333000000000000185e+00 1.435300000000000020e+00 5.517099999999999937e+01 -4.849489000000000161e+00 9.178377720653542460e-02
8.333099999999999952e+00 2.193499999999999872e+01 2.903099999999999881e+01 -1.934180999999999884e+01 3.601196280293491453e-02
8.333899999999999864e+00 1.340000000000000080e+00 5.397399999999999665e+01 -6.724917999999999729e+00 9.013300172789687204e-02
8.337400000000000588e+00 -2.110899999999999999e+00 3.466499999999999915e+01 -6.959175000000000111e+00 -1.395628852602867065e-01
8.338699999999999335e+00 2.097899999999999920e+01 3.710000000000000142e+01 -2.570876000000000161e+00 2.958207045998142992e-01
8.343299999999999272e+00 3.903999999999999915e+00 5.605400000000000205e+01 -3.053106999999999793e+00 3.158106205363637731e-01
8.348000000000000753e+00 1.979400000000000048e+01 4.885999999999999943e+01 1.953562000000000154e+01 2.351518113723617687e-01
8.353999999999999204e+00 3.463000000000000078e+00 2.698199999999999932e+01 7.455198000000000214e+00 -1.307393145780286203e-01
8.356500000000000483e+00 1.421000000000000085e+01 2.472700000000000031e+01 -9.058688999999999325e+00 1.156410717932387089e-01
8.361000000000000654e+00 2.181700000000000017e+01 3.389600000000000080e+01 -8.675174000000000163e+00 2.957186643358610256e-01
8.384100000000000108e+00 -5.817400000000000126e+00 4.452700000000000102e+01 -1.217192000000000007e+01 3.608643745738949749e-01
8.385999999999999233e+00 8.326000000000000512e+00 5.309300000000000352e+01 -2.033183000000000007e+01 3.168025056864107736e-01
8.385999999999999233e+00 9.644500000000000739e+00 5.235799999999999699e+01 1.402510000000000048e+02 3.171411470601689375e-01
8.385999999999999233e+00 9.972799999999999443e+00 5.161299999999999955e+01 9.539911999999999637e+01 3.172893018186198066e-01
8.389599999999999724e+00 -5.306300000000000239e+00 4.545000000000000284e+01 -9.350108000000000530e+00 3.609074125746846162e-01
8.389599999999999724e+00 -5.306300000000000239e+00 4.631600000000000250e+01 -2.172873000000000054e+00 3.608347484268831229e-01
8.396100000000000563e+00 1.491799999999999926e+01 2.491600000000000037e+01 -6.816610999999999976e+00 1.166661474140582716e-01
8.399399999999999977e+00 1.468299999999999939e+00 3.323299999999999699e+01 -2.557565999999999917e+01 -1.444662521410328415e-01
8.401699999999999946e+00 -1.777300000000000102e+00 3.508299999999999841e+01 -4.278649999999999842e+00 -1.412717524182844353e-01
8.409200000000000230e+00 -6.062199999999999811e+00 4.368299999999999983e+01 -3.946718000000000171e+00 3.608710951273664813e-01
8.410299999999999443e+00 2.147200000000000131e+01 4.267600000000000193e+01 2.213718000000000075e+00 2.356531259803752998e-01
8.413000000000000256e+00 2.109299999999999997e+01 4.037199999999999989e+01 6.041857000000000255e+00 2.357676292817925123e-01
8.420899999999999608e+00 6.232899999999999885e+00 3.586899999999999977e+01 -3.586581999999999937e+01 3.792844392970334821e-01
8.420899999999999608e+00 6.442000000000000171e+00 3.513300000000000267e+01 -5.107576000000000249e+01 3.793113881207068605e-01
8.420899999999999608e+00 2.189099999999999824e+01 2.838200000000000145e+01 -2.048404000000000025e+01 3.726673988182021419e-02
8.422000000000000597e+00 6.331299999999999706e+00 3.433599999999999852e+01 -6.115527000000000157e+01 1.123405038121710608e-01
8.426700000000000301e+00 5.848099999999999632e+00 5.476299999999999812e+01 -4.155257000000000289e+01 3.162012953650323310e-01
8.429000000000000270e+00 -9.900100000000000122e+00 4.510399999999999920e+01 -3.629484999999999850e+00 2.057751632336300429e-01
8.429000000000000270e+00 -8.301899999999999835e+00 4.510399999999999920e+01 -6.559237999999999680e+00 3.602694435244950255e-01
8.442999999999999616e+00 -5.839900000000000091e+00 4.289500000000000313e+01 -2.288568999999999853e+00 3.609891741555588673e-01
8.443699999999999761e+00 1.626300000000000168e+01 2.689300000000000068e+01 4.749311999999999756e+01 3.348990288351556821e-02
8.443699999999999761e+00 1.745400000000000063e+01 2.755699999999999861e+01 -4.721231999999999651e+00 3.359275786429315180e-02
8.445999999999999730e+00 6.402000000000000135e+00 2.178600000000000136e+01 -3.831662999999999819e+00 1.296336199572684644e-01
8.445999999999999730e+00 8.910000000000000142e+00 2.178600000000000136e+01 1.598095999999999961e+01 1.240191335379648568e-01
8.446799999999999642e+00 3.117700000000000138e+00 3.164000000000000057e+01 -7.179063999999999623e+01 -1.441976183238873610e-01
8.448999999999999844e+00 1.996000000000000085e+01 3.874799999999999756e+01 -1.363823999999999925e+00 2.357239713088260802e-01
8.448999999999999844e+00 1.996000000000000085e+01 3.961399999999999721e+01 -2.504192999999999891e+00 2.356437222803619280e-01
8.449999999999999289e+00 1.784299999999999997e+00 3.247200000000000131e+01 -2.612220999999999904e+01 -1.432839342982909769e-01
8.451999999999999957e+00 5.635799999999999699e+00 2.654599999999999937e+01 -1.783541999999999916e+01 1.369325569745863946e-01
8.454000000000000625e+00 -5.308300000000000018e+00 3.545900000000000318e+01 -4.364238999999999757e-01 1.027099479166291573e-01
8.454000000000000625e+00 -5.308300000000000018e+00 3.650900000000000034e+01 1.428840000000000110e+00 1.007802240345291311e-01
8.458000000000000185e+00 -1.606000000000000094e+00 5.292000000000000171e+01 -1.172641999999999918e+01 9.271039419828719375e-02
8.463499999999999801e+00 -2.291999999999999815e+00 3.003099999999999881e+01 4.698705999999999605e+00 -1.266868004116898927e-01
8.477100000000000080e+00 1.178299999999999947e+01 5.012599999999999767e+01 1.661250000000000071e+01 3.178585657706530232e-01
8.479200000000000514e+00 5.336999999999999744e+00 3.223400000000000176e+01 -8.287004000000000303e+01 1.202271330993446019e-01
8.480999999999999872e+00 1.633899999999999864e+01 5.067300000000000182e+01 -9.754011000000000209e+00 3.186135100195236491e-01
8.483200000000000074e+00 1.457000000000000028e+01 5.021900000000000119e+01 1.089157999999999937e+01 3.183891123153120839e-01
8.485900000000000887e+00 7.655999999999999694e+00 2.094600000000000151e+01 3.563393000000000033e+00 1.771497845227518186e-01
8.487000000000000099e+00 6.214900000000000091e+00 5.394299999999999784e+01 -6.851621000000000095e+01 3.163112962086277458e-01
8.492300000000000182e+00 -9.570700000000000429e+00 4.434400000000000119e+01 -3.233230999999999966e+00 2.052775467628184247e-01
8.492300000000000182e+00 -9.570700000000000429e+00 4.586399999999999721e+01 -7.711772999999999989e+00 2.058326777264561647e-01
8.492300000000000182e+00 -8.631299999999999528e+00 4.434400000000000119e+01 -3.513453000000000159e+00 3.602345898216229858e-01
8.492300000000000182e+00 -8.631299999999999528e+00 4.586399999999999721e+01 -1.053547999999999973e+01 3.601549405325424891e-01
8.492900000000000560e+00 2.161000000000000032e+00 2.615700000000000003e+01 -4.190903000000000267e-01 -1.250458048220785545e-01
8.494500000000000384e+00 1.047199999999999953e+01 5.086500000000000199e+01 1.056950999999999929e+01 3.174809101727246730e-01
8.496700000000000585e+00 -4.578700000000000436e+00 4.914200000000000301e+01 -2.612985999999999809e+00 3.607489497454174354e-01
8.496999999999999886e+00 2.169999999999999929e+01 3.575300000000000011e+01 -1.908179999999999987e+00 2.958689152347301343e-01
8.497099999999999653e+00 6.209699999999999775e+00 3.343299999999999983e+01 -5.405968000000000018e+01 1.146857316975064406e-01
8.497700000000000031e+00 -3.932999999999999829e+00 3.453799999999999670e+01 6.513734000000000357e+00 -1.348093157902268413e-01
8.497899999999999565e+00 -5.529700000000000060e+00 4.708100000000000307e+01 -1.568618000000000068e+00 3.607111790769575999e-01
8.503899999999999793e+00 -2.579600000000000115e+00 5.145900000000000318e+01 -8.037938000000000471e+00 9.203422764293910097e-02
8.507999999999999119e+00 5.945000000000000284e+00 2.330699999999999861e+01 -2.651422999999999863e+00 1.291759447183588594e-01
8.507999999999999119e+00 9.227000000000000313e+00 2.246000000000000085e+01 -1.109115000000000073e+01 1.226569989289244822e-01
8.507999999999999119e+00 9.345000000000000639e+00 2.330699999999999861e+01 6.034323000000000325e-01 1.214713324026538421e-01
8.520699999999999719e+00 1.247400000000000020e+01 2.478500000000000014e+01 -4.149339999999999584e+00 1.232573238349063127e-01
8.526199999999999335e+00 2.128900000000000148e+01 3.623100000000000165e+01 -3.044669999999999987e+00 2.958525477863062636e-01
8.527900000000000702e+00 3.250500000000000167e+00 5.616700000000000159e+01 -1.645833999999999975e+01 3.156798271943034306e-01
8.528299999999999770e+00 -2.656099999999999905e+00 3.097400000000000020e+01 1.278079999999999927e+01 -1.284786009204597901e-01
8.544000000000000483e+00 1.988800000000000168e+01 4.513100000000000023e+01 -2.485369999999999990e+01 2.352711762126708517e-01
8.546499999999999986e+00 -2.846900000000000208e+00 3.466499999999999915e+01 -8.453962999999999894e-01 -1.380197483624009958e-01
8.548899999999999721e+00 1.375699999999999967e+01 2.422299999999999898e+01 -5.015342999999999662e+00 1.159913807329680246e-01
8.556900000000000617e+00 -5.049999999999999822e+00 3.920799999999999841e+01 -6.420360000000000511e-01 3.615434793601479124e-01
8.563399999999999679e+00 -5.371500000000000163e+00 4.087599999999999767e+01 8.598723000000000338e-01 3.612858167893641115e-01
8.591599999999999682e+00 1.056499999999999950e+01 2.510300000000000153e+01 1.319247000000000014e+01 1.271222607412491601e-01
8.591599999999999682e+00 1.196499999999999986e+01 2.510300000000000153e+01 -3.188578999999999830e+00 1.235371715714904256e-01
8.600300000000000722e+00 2.276999999999999957e+01 4.187899999999999778e+01 8.170880999999999972e+01 2.359066437541848527e-01
8.602600000000000691e+00 1.963800000000000168e+01 4.590299999999999869e+01 -3.409483000000000175e+01 2.352013038514735310e-01
8.602600000000000691e+00 2.169800000000000040e+01 4.041899999999999693e+01 3.711033000000000026e+00 2.358631418136323821e-01
8.602600000000000691e+00 2.264600000000000080e+01 4.041899999999999693e+01 -4.353828000000000142e-01 2.360076422646026906e-01
8.604799999999999116e+00 -2.543499999999999872e+00 3.536500000000000199e+01 -1.819528000000000034e+00 -1.402808389978230375e-01
8.604799999999999116e+00 -1.678199999999999914e+00 3.396500000000000341e+01 -1.840352000000000032e+01 -1.389868866979321604e-01
8.610799999999999343e+00 -1.041199999999999903e+00 3.508299999999999841e+01 -1.114958999999999989e+01 -1.430891717526936446e-01
8.612000000000000099e+00 -2.654199999999999893e+00 5.051500000000000057e+01 -3.260081999999999880e+01 3.610035002546134186e-01
8.613699999999999690e+00 6.103399999999999714e+00 2.239499999999999957e+01 -3.304583000000000048e+00 1.298848882186708631e-01
8.622199999999999420e+00 2.018700000000000117e+01 4.794599999999999795e+01 -6.510251000000000232e+00 2.352200115388104196e-01
8.622999999999999332e+00 2.871300000000000185e+00 3.621600000000000108e+01 -1.861447000000000074e+01 1.065734000437861956e-01
8.623300000000000409e+00 1.905000000000000027e+00 5.593099999999999739e+01 -4.243945000000000078e+00 9.248490369347366069e-02
8.624000000000000554e+00 1.721600000000000108e+01 5.056700000000000017e+01 -3.420015999999999945e+00 3.187688361686883409e-01
8.633900000000000574e+00 4.168000000000000149e+00 3.166100000000000136e+01 -1.186158999999999963e+02 1.249648627353878300e-01
8.637999999999999901e+00 -3.383900000000000130e+00 3.466100000000000136e+01 2.683075999999999794e+00 -1.366679664754871237e-01
8.639900000000000801e+00 4.304000000000000270e+00 2.723000000000000043e+01 -3.356726999999999794e+00 -1.334582662987850443e-01
8.641700000000000159e+00 1.991900000000000048e+01 4.702400000000000091e+01 -8.212533999999999779e+00 2.352063287736968211e-01
8.642799999999999372e+00 7.550500000000000433e+00 5.315800000000000125e+01 -9.597875999999999408e+00 3.166229455749346999e-01
8.643000000000000682e+00 3.907999999999999918e+00 3.668900000000000006e+01 -3.351017999999999830e+01 3.789586185001531105e-01
8.651099999999999568e+00 2.142699999999999960e+01 3.244800000000000040e+01 -9.218324000000000851e+00 2.895418240793503142e-02
8.651099999999999568e+00 2.163599999999999923e+01 3.171199999999999974e+01 1.050802999999999976e+01 3.061334729391879811e-02
8.651099999999999568e+00 2.163599999999999923e+01 3.318399999999999750e+01 -1.232836999999999961e+01 2.792453752141626014e-02
8.652300000000000324e+00 1.885300000000000153e+01 2.673600000000000065e+01 -5.833302999999999905e+00 3.737040208977333161e-02
8.669000000000000483e+00 -1.344600000000000017e+00 3.578300000000000125e+01 -3.113562000000000274e-01 -1.439424908886518806e-01
8.673999999999999488e+00 -2.251199999999999868e+00 3.303699999999999903e+01 -6.387756000000000434e+00 -1.353539634923497936e-01
8.683699999999999974e+00 2.042099999999999937e+01 3.800399999999999778e+01 -4.951512000000000135e+00 2.358829964404990098e-01
8.684699999999999420e+00 2.269699999999999829e+00 3.175199999999999889e+01 -3.208198999999999756e+01 -1.426587871250732387e-01
8.688299999999999912e+00 -3.904900000000000038e-01 2.872599999999999909e+01 2.230782000000000043e+00 -1.270539036597856386e-01
8.689999999999999503e+00 2.026500000000000057e+01 2.596000000000000085e+01 -1.066165999999999947e+01 4.062788091068729457e-02
8.689999999999999503e+00 2.155799999999999983e+01 2.668100000000000094e+01 -1.840296999999999983e+01 4.046015711843493901e-02
8.695899999999999963e+00 2.215399999999999991e+01 3.502700000000000102e+01 -2.804937999999999931e+00 2.959194925399105114e-01
8.714999999999999858e+00 2.201300000000000168e+01 2.761299999999999955e+01 -3.271999999999999886e+01 3.909510022700925236e-02
8.716400000000000148e+00 2.039300000000000068e+01 4.031400000000000006e+01 -4.398557000000000161e-02 2.356591781939857688e-01
8.717200000000000060e+00 9.621100000000000207e+00 2.419800000000000040e+01 6.399958999999999953e+00 1.323002528444776060e-01
8.729300000000000281e+00 5.954699999999999882e+00 2.418199999999999861e+01 -4.372265000000000179e-01 1.283053386365209658e-01
8.734099999999999753e+00 -5.147400000000000198e+00 4.870700000000000074e+01 -4.330337000000000103e+00 3.606384671012624610e-01
8.743000000000000327e+00 -5.264499999999999957e+00 3.962899999999999778e+01 -5.586465999999999932e-01 3.614156281766958689e-01
8.747600000000000264e+00 -3.451100000000000001e-02 2.798300000000000054e+01 2.836447999999999858e+00 -1.254929395760966959e-01
8.759399999999999409e+00 2.937300000000000022e+00 2.664300000000000068e+01 9.533951999999999316e+00 -1.281843743979895478e-01
8.760300000000000864e+00 1.857700000000000173e+01 4.976899999999999835e+01 1.907704000000000022e+01 2.349660509403627418e-01
8.778200000000000003e+00 -2.317600000000000104e+00 3.589999999999999858e+01 1.773431999999999897e+00 -1.420276246258221353e-01
8.786599999999999966e+00 1.386999999999999922e+01 5.016100000000000136e+01 6.829913000000000345e+00 3.182766310873865745e-01
8.792999999999999261e+00 -2.331799999999999873e+00 3.200800000000000267e+01 -1.479486999999999997e+00 -1.323946869807300364e-01
8.796300000000000452e+00 1.461000000000000076e+00 2.621499999999999986e+01 -2.373819000000000068e-01 -1.232923159261898327e-01
8.801899999999999835e+00 -4.976700000000000124e+00 3.856700000000000017e+01 -4.776088000000000000e-01 3.616033276935157748e-01
8.807499999999999218e+00 2.211599999999999966e+01 2.940700000000000003e+01 -3.455879000000000190e+01 3.572915464725674728e-02
8.808699999999999974e+00 1.516699999999999982e+01 5.088300000000000267e+01 1.151257999999999981e+01 3.183995089603931516e-01
8.811400000000000787e+00 2.032000000000000028e+01 4.443099999999999739e+01 -4.235027999999999793e+00 2.353679831029452940e-01
8.817399999999999238e+00 5.565999999999999837e+00 3.655100000000000193e+01 -3.392387999999999693e+01 3.793014095390764839e-01
8.822200000000000486e+00 -6.006300000000000416e+00 4.658299999999999841e+01 -2.107079000000000146e+00 3.606024968920001350e-01
8.823999999999999844e+00 2.233099999999999952e+01 2.859799999999999898e+01 -1.811482000000000170e+01 3.756662089132294102e-02
8.828699999999999548e+00 1.561800000000000033e+01 2.518299999999999983e+01 -1.006643000000000043e+01 1.178064084076852619e-01
8.839999999999999858e+00 8.567099999999999715e-02 2.713599999999999923e+01 2.270768999999999982e-01 -1.230185258531599490e-01
8.846799999999999997e+00 4.500000000000000000e+00 3.677100000000000080e+01 -2.693502000000000152e+01 3.791242304206331459e-01
8.848599999999999355e+00 -6.110100000000000087e+00 4.507099999999999795e+01 -3.187934999999999963e+00 3.606893805466268033e-01
8.850699999999999790e+00 2.073199999999999932e+01 4.390100000000000335e+01 1.143537999999999943e+00 2.354615716942517201e-01
8.860099999999999199e+00 -5.804700000000000415e+00 4.233200000000000074e+01 -1.141969000000000012e+00 3.609931588051074614e-01
8.862899999999999778e+00 -7.811200000000000365e+00 4.557300000000000040e+01 -7.862861999999999796e+00 3.602778597056148779e-01
8.862999999999999545e+00 6.229700000000000237e+00 2.525900000000000034e+01 6.565579999999999750e-01 1.393417572591938436e-01
8.865000000000000213e+00 9.101000000000000867e+00 5.279699999999999704e+01 -4.173197000000000045e+00 3.169643815417592658e-01
8.866300000000000736e+00 -6.472100000000000186e+00 4.416700000000000159e+01 -3.315332000000000168e+00 3.606704333244151739e-01
8.867900000000000560e+00 1.712300000000000111e+01 4.466100000000000136e+01 -2.770213000000000036e+00 2.348215803607621444e-01
8.873699999999999477e+00 5.587100000000000399e+00 5.549900000000000233e+01 -1.043951000000000029e+01 3.160825662747793752e-01
8.874100000000000321e+00 -1.765600000000000058e+00 2.957700000000000173e+01 9.669020000000000392e-01 -1.264833929512854671e-01
8.875000000000000000e+00 -7.685999999999999943e+00 4.496000000000000085e+01 -8.797774999999999679e+00 3.603388030313398049e-01
8.876300000000000523e+00 1.675400000000000134e+01 2.728999999999999915e+01 -4.314320000000000377e+00 3.341616237412329410e-02
8.877000000000000668e+00 -5.394199999999999662e+00 4.813199999999999790e+01 -3.965571000000000179e+00 3.606118673667488284e-01
8.880499999999999616e+00 -5.702899999999999636e+00 4.588300000000000267e+01 -4.119162000000000212e+00 3.607159692794880135e-01
8.887000000000000455e+00 1.531400000000000006e+01 2.448300000000000054e+01 -1.071059999999999945e+01 1.188338627823616322e-01
8.894700000000000273e+00 2.226200000000000045e+01 3.433700000000000330e+01 -5.516850999999999949e+00 2.683247886296522694e-02
8.900199999999999889e+00 2.172299999999999898e+01 4.233299999999999841e+01 2.841905999999999821e+00 2.357197547624087508e-01
8.903000000000000469e+00 1.739099999999999824e+01 4.542000000000000171e+01 -2.287075000000000191e+00 2.348446492519405404e-01
8.909100000000000463e+00 2.334499999999999886e+01 4.115800000000000125e+01 4.683505999999999858e+01 2.360549175814048994e-01
8.909700000000000841e+00 1.248300000000000054e+01 5.039399999999999835e+01 1.226731999999999978e+01 3.179670011329265300e-01
8.915300000000000225e+00 1.031400000000000095e+00 3.275999999999999801e+01 -2.811380000000000123e+01 -1.425767880507987639e-01
8.919600000000000861e+00 6.705899999999999750e+00 5.354599999999999937e+01 -3.178034999999999854e+01 3.164015980881546009e-01
8.921699999999999520e+00 5.219999999999999751e+00 2.706400000000000006e+01 -1.546616999999999997e+01 1.366831271151075222e-01
8.922900000000000276e+00 -9.101000000000000867e+00 4.381099999999999994e+01 -3.582374000000000169e+00 2.048841123747901505e-01
8.922900000000000276e+00 -9.101000000000000867e+00 4.639699999999999847e+01 -2.453821999999999903e+01 3.599755753846509143e-01
8.936999999999999389e+00 -2.149500000000000188e+00 5.248100000000000165e+01 -3.629931000000000130e-01 9.326794639163546452e-02
8.936999999999999389e+00 -8.309999999999999609e-01 5.321600000000000108e+01 -1.848928000000000083e+01 9.242735232832230419e-02
8.937300000000000466e+00 4.868000000000000327e+00 3.171999999999999886e+01 -8.652863000000000682e+01 1.225054868299023242e-01
8.939799999999999969e+00 1.291799999999999926e+01 2.422200000000000131e+01 -4.099815999999999683e+00 1.144645719315418309e-01
8.946400000000000574e+00 3.208000000000000185e+00 3.663100000000000023e+01 -2.634647999999999968e+01 3.789006134776697898e-01
8.947900000000000631e+00 4.010799999999999699e+00 5.642699999999999960e+01 -1.503117000000000036e+00 3.157640466524169187e-01
8.950300000000000367e+00 1.404499999999999993e+01 2.372299999999999898e+01 -4.448040999999999912e+00 1.180470566003083699e-01
8.950300000000000367e+00 1.498499999999999943e+01 2.372299999999999898e+01 -4.813393999999999728e+00 1.199455807296462007e-01
8.958099999999999952e+00 1.705799999999999983e+01 4.580299999999999727e+01 2.556186999999999987e+00 2.347775394309225550e-01
8.961999999999999744e+00 -1.033099999999999952e+01 4.463400000000000034e+01 -3.601541000000000103e+00 1.723301745370703075e-01
8.961999999999999744e+00 -1.033099999999999952e+01 4.557399999999999807e+01 -3.855036000000000129e+00 1.726585642898250117e-01
8.974700000000000344e+00 5.094299999999999606e+00 5.628399999999999892e+01 -1.755554999999999977e+00 3.159553241703959570e-01
8.974700000000000344e+00 -2.490899999999999892e+00 5.167799999999999727e+01 -2.585783999999999860e+00 9.262429996942458943e-02
8.977999999999999758e+00 -5.113400000000000389e+00 3.768999999999999773e+01 2.117953999999999948e-01 9.825265427663701367e-02
8.979300000000000281e+00 -4.458300000000000374e+00 3.513400000000000034e+01 3.047855999999999899e+00 1.019939837504481445e-01
8.979300000000000281e+00 -3.407700000000000173e+00 3.513400000000000034e+01 2.039892000000000039e+00 -1.378438374537121480e-01
8.981600000000000250e+00 7.182199999999999918e+00 2.138500000000000156e+01 6.184497999999999607e+00 1.286706193360303008e-01
8.981600000000000250e+00 8.129799999999999471e+00 2.138500000000000156e+01 1.187664999999999971e+01 1.264337840666459045e-01
8.996000000000000441e+00 2.343100000000000183e+00 3.553399999999999892e+01 -2.291516999999999982e+01 -1.526512359152293330e-01
9.032700000000000173e+00 9.990400000000000391e-01 3.368999999999999773e+01 -2.774423000000000172e+01 -1.450777035250625513e-01
9.038999999999999702e+00 -5.687299999999999578e+00 4.171900000000000119e+01 8.007276000000000671e-02 3.610566168927348829e-01
9.039999999999999147e+00 6.716599999999999682e+00 3.446600000000000108e+01 -6.784835999999999956e+01 9.902287695082798158e-02
9.039999999999999147e+00 6.716599999999999682e+00 3.533100000000000307e+01 -4.500099000000000160e+01 3.795557014037111432e-01
9.043599999999999639e+00 -5.953100000000000058e+00 3.967900000000000205e+01 -7.225401000000000185e-01 3.611625524327314318e-01
9.046699999999999520e+00 -5.727699999999999569e+00 4.064800000000000324e+01 5.594386000000000081e-01 3.611419365175650986e-01
9.048500000000000654e+00 1.597600000000000087e+01 2.588400000000000034e+01 -5.796854000000000173e-01 1.171052898471470760e-01
9.060999999999999943e+00 2.187500000000000000e+01 3.359300000000000352e+01 -1.023282000000000025e+01 2.751833466109035453e-02
9.061299999999999244e+00 1.922700000000000031e+01 4.931099999999999994e+01 3.279511999999999716e+01 2.350513314619797067e-01
9.063599999999999213e+00 -1.153000000000000025e+00 2.904400000000000048e+01 2.285029999999999895e+00 -1.260370185870517690e-01
9.071999999999999176e+00 -7.075199999999999712e+00 4.557300000000000040e+01 -3.240477999999999970e+00 3.604025702223072058e-01
9.076999999999999957e+00 1.785900000000000176e+01 4.466100000000000136e+01 -1.741832000000000136e+01 2.349408258295546670e-01
9.078099999999999170e+00 1.025500000000000078e+01 2.502599999999999980e+01 2.389303999999999917e+01 1.279324193145495170e-01
9.084099999999999397e+00 -6.950000000000000178e+00 4.496000000000000085e+01 -3.831859000000000126e+00 3.604693843001656739e-01
9.084899999999999309e+00 1.836199999999999832e+01 2.713200000000000145e+01 -6.463515000000000121e+00 3.614307592990133322e-02
9.089600000000000790e+00 -6.438900000000000290e+00 4.588300000000000267e+01 -2.864990999999999843e+00 3.605194788070841261e-01
9.092999999999999972e+00 -2.550000000000000044e-01 5.330100000000000193e+01 -5.247400999999999982e+00 9.185433520302260790e-02
9.092999999999999972e+00 1.145000000000000018e+00 5.470100000000000051e+01 -1.412357000000000085e+01 9.203287487178837822e-02
9.092999999999999972e+00 1.372000000000000108e+00 5.550000000000000000e+01 -4.951430000000000220e+00 9.289944335113377305e-02
9.092999999999999972e+00 2.665000000000000036e+00 5.622099999999999653e+01 -3.714034999999999798e+01 9.231694867602002752e-02
9.093099999999999739e+00 1.098900000000000077e+01 5.048199999999999932e+01 6.816677999999999571e+00 3.176328225761740898e-01
9.093500000000000583e+00 1.924200000000000088e+01 4.633599999999999852e+01 -1.420884000000000036e+01 2.351145267624449864e-01
9.099700000000000344e+00 -3.060099999999999820e+00 4.977799999999999869e+01 -1.144173999999999936e+01 3.609361839324794485e-01
9.101699999999999235e+00 -6.446499999999999453e-01 3.464999999999999858e+01 -1.728021999999999991e+01 -1.433996698107606327e-01
9.101699999999999235e+00 -6.446499999999999453e-01 3.551599999999999824e+01 -6.814010999999999818e+00 -1.453988843595188096e-01
9.111299999999999955e+00 1.184800000000000075e+01 2.514199999999999946e+01 -3.595600999999999825e+00 1.232446703264387100e-01
9.112099999999999866e+00 1.812699999999999889e+01 4.542000000000000171e+01 -3.793471000000000259e+01 2.349604131458673528e-01
9.112999999999999545e+00 -4.898299999999999876e+00 3.589900000000000091e+01 -2.643920000000000048e+00 1.011453723158177720e-01
9.122600000000000264e+00 2.204899999999999949e+01 2.707700000000000173e+01 -1.651687000000000083e+01 4.052754693487060911e-02
9.124499999999999389e+00 -3.801000000000000156e+00 4.944700000000000273e+01 -9.971408999999999523e+00 3.608082919847974135e-01
9.126699999999999591e+00 5.906399999999999650e+00 5.506600000000000250e+01 -1.968055000000000021e+01 3.161409284611892412e-01
9.127200000000000202e+00 -7.224000000000000199e+00 4.412700000000000244e+01 -3.265156999999999865e+00 3.604565578415314664e-01
9.135300000000000864e+00 1.755499999999999972e+01 4.396099999999999852e+01 3.808863999999999805e+00 2.349109090021335722e-01
9.141400000000000858e+00 1.360100000000000087e+00 3.444800000000000040e+01 -2.394707999999999970e+01 -1.480049629707189118e-01
9.143000000000000682e+00 -6.107199999999999740e+00 4.332800000000000296e+01 -5.994309000000000331e+00 3.607880016688232439e-01
9.143700000000000827e+00 1.632100000000000151e+01 2.658999999999999986e+01 -1.268642999999999965e+01 3.464663477464902108e-02
9.145599999999999952e+00 -3.020599999999999952e+00 3.587800000000000011e+01 6.963842999999999561e-01 9.871346299334296526e-02
9.146000000000000796e+00 6.460300000000000153e+00 2.208899999999999864e+01 -3.853873000000000104e+00 1.298681710698319225e-01
9.148999999999999133e+00 1.969300000000000139e+01 3.918099999999999739e+01 -5.247969000000000328e+00 2.356408018492464063e-01
9.148999999999999133e+00 1.990200000000000102e+01 3.844500000000000028e+01 -8.242292000000000840e+00 2.357537166246132243e-01
9.148999999999999133e+00 1.990200000000000102e+01 3.991700000000000159e+01 -6.494555000000000078e+00 2.356101553298834417e-01
9.148999999999999133e+00 2.090899999999999892e+01 3.743800000000000239e+01 1.394727999999999923e+01 2.360427706022716898e-01
9.148999999999999133e+00 2.109299999999999997e+01 4.058100000000000307e+01 -4.100967999999999947e+00 2.357602095824362642e-01
9.150900000000000034e+00 2.184799999999999898e+01 3.575399999999999778e+01 -2.792809000000000097e+00 2.960328750285744492e-01
9.153999999999999915e+00 -5.041000000000000369e+00 3.694200000000000017e+01 -2.576362999999999917e-02 9.938943799263810774e-02
9.160299999999999443e+00 1.805900000000000105e+01 5.021099999999999852e+01 8.010827000000000808e+00 2.348821719753640680e-01
9.160999999999999588e+00 9.580000000000000071e+00 5.202199999999999847e+01 5.817668000000000283e+00 3.171319660686638398e-01
9.161699999999999733e+00 1.945200000000000173e+01 2.614699999999999847e+01 -6.055727000000000082e+00 3.979125883295132893e-02
9.161699999999999733e+00 2.107799999999999940e+01 2.614699999999999847e+01 -5.855146999999999657e+00 4.151016921938759097e-02
9.164699999999999847e+00 6.109999999999999876e-01 2.628600000000000136e+01 -1.716296999999999962e-01 -1.210944287905949129e-01
9.167199999999999349e+00 1.632199999999999918e+01 4.580299999999999727e+01 2.080677999999999983e+01 2.346425919777052616e-01
9.167199999999999349e+00 1.895899999999999963e+01 4.580299999999999727e+01 -1.654663000000000039e+01 2.350843234499889189e-01
9.168200000000000571e+00 1.287599999999999945e+01 5.061299999999999955e+01 -7.410994999999999777e+00 3.180166424410749704e-01
9.170099999999999696e+00 2.160000000000000142e+01 3.108299999999999841e+01 -2.105035000000000167e+01 3.188265192804506237e-02
9.170400000000000773e+00 1.782400000000000162e+01 4.611999999999999744e+01 3.482463000000000086e+00 2.348889813920953529e-01
9.182499999999999218e+00 1.624500000000000099e+01 4.460600000000000165e+01 8.832076999999999956e+00 2.346512643002451326e-01
9.182600000000000762e+00 1.464099999999999957e+00 3.206000000000000227e+01 -2.026753000000000071e+01 -1.418799162934982205e-01
9.183199999999999363e+00 1.343699999999999939e+01 5.065200000000000102e+01 -1.030541000000000018e+01 3.181234387897193261e-01
9.183199999999999363e+00 1.430199999999999960e+01 5.065200000000000102e+01 5.402495000000000047e+00 3.182897768472309763e-01
9.186999999999999389e+00 6.273200000000000109e+00 5.424600000000000222e+01 -2.797810000000000130e+01 3.162501035392429882e-01
9.191100000000000492e+00 -8.342100000000000293e+00 4.643200000000000216e+01 -5.577248999999999768e+01 3.600743231483781726e-01
9.192099999999999937e+00 2.446400000000000130e+00 2.624599999999999866e+01 9.296147999999999634e-01 -1.253128530666152152e-01
9.194399999999999906e+00 -2.301299999999999901e+00 3.070200000000000173e+01 3.092449999999999921e+00 -1.282780159914430063e-01
9.197100000000000719e+00 6.477100000000000080e+00 3.386599999999999966e+01 -4.583133999999999730e+01 1.115524616997491530e-01
9.208000000000000185e+00 -5.917300000000000004e+00 4.710000000000000142e+01 5.559469000000000216e-01 3.605305701886286629e-01
9.212199999999999278e+00 6.479400000000000048e+00 2.628200000000000003e+01 -4.717361999999999611e+00 1.354305421749018024e-01
9.214700000000000557e+00 2.180099999999999838e+01 3.022400000000000020e+01 -3.941340999999999894e+01 3.389690001811850734e-02
9.223000000000000753e+00 7.405899999999999928e+00 5.348799999999999955e+01 -1.115695999999999977e+01 3.165289935174583347e-01
9.225500000000000256e+00 1.662600000000000122e+01 4.650300000000000011e+01 1.462866000000000000e+01 2.346815765956063449e-01
9.225500000000000256e+00 1.749099999999999966e+01 4.650300000000000011e+01 8.611307000000000045e+00 2.348241688702173702e-01
9.225500000000000256e+00 1.926300000000000168e+01 4.510300000000000153e+01 -2.746518999999999977e+01 2.351586377057869048e-01
9.227700000000000458e+00 8.713400000000000034e+00 2.196099999999999852e+01 -1.098775999999999975e+01 1.245949859211083338e-01
9.234600000000000364e+00 -5.676700000000000301e+00 3.883500000000000085e+01 -3.293029000000000095e-01 9.710858156105875438e-02
9.240800000000000125e+00 1.654799999999999827e+01 4.390599999999999881e+01 5.606556999999999569e+00 2.347234857141652919e-01
9.244099999999999540e+00 -7.049999999999999822e+00 4.634199999999999875e+01 -5.053041999999999589e+00 3.603329878256137375e-01
9.248300000000000409e+00 3.265699999999999825e+00 3.137699999999999889e+01 -5.436945999999999657e+01 -1.445709813244172581e-01
9.250000000000000000e+00 4.865999999999999659e+00 3.681799999999999784e+01 -2.698569000000000173e+01 3.793106580817739992e-01
9.252299999999999969e+00 -9.861000000000000654e+00 4.387400000000000233e+01 -3.285724999999999785e+00 2.056789659646963142e-01
9.252299999999999969e+00 -9.861000000000000654e+00 4.633400000000000318e+01 -1.346433000000000035e+01 1.728331800854295275e-01
9.252299999999999969e+00 -8.340999999999999304e+00 4.387400000000000233e+01 -8.767379000000000033e+00 3.602003495698394842e-01
9.257400000000000517e+00 3.398000000000000131e+00 2.716400000000000148e+01 8.652295000000000513e+00 -1.307940793642397848e-01
9.278700000000000614e+00 6.170499999999999652e+00 3.609300000000000352e+01 -3.774922999999999718e+01 3.795581512112897182e-01
9.284000000000000696e+00 -1.992799999999999905e+00 3.650800000000000267e+01 3.564172999999999814e+00 9.750249164353952391e-02
9.284000000000000696e+00 1.755799999999999983e+01 2.726899999999999835e+01 -8.437212999999999852e+00 3.482587713907804583e-02
9.290300000000000225e+00 1.569200000000000017e+01 5.147899999999999920e+01 8.628508000000000067e+00 3.184083268713098769e-01
9.292799999999999727e+00 -5.373300000000000409e+00 3.813499999999999801e+01 5.103959000000000135e-01 9.775794980336183215e-02
9.297900000000000276e+00 8.401500000000000412e+00 5.321600000000000108e+01 -2.556582000000000021e-01 3.167558024505064407e-01
9.298099999999999810e+00 1.712500000000000000e+01 5.072299999999999898e+01 -2.331075999999999926e+00 3.187598932253438155e-01
9.304999999999999716e+00 1.002099999999999991e+00 5.387199999999999989e+01 9.489391999999999827e-01 9.112220189647129986e-02
9.305199999999999250e+00 -1.741300000000000070e+00 3.248100000000000165e+01 -3.663272999999999779e+00 -1.350310845580268426e-01
9.307299999999999685e+00 -1.453100000000000058e+00 3.344700000000000273e+01 -7.882738999999999940e+00 -1.384269994548187888e-01
9.309400000000000119e+00 6.904899999999999594e+00 2.183200000000000074e+01 -2.952459000000000167e+00 1.291907708530973253e-01
9.312599999999999767e+00 9.762299999999999756e+00 5.132800000000000296e+01 -3.418235999999999830e+00 3.172443944969638441e-01
9.320499999999999119e+00 -1.882500000000000062e+00 3.153399999999999892e+01 -1.393237999999999976e+00 -1.319150097901906904e-01
9.322900000000000631e+00 6.096700000000000230e+00 2.381099999999999994e+01 -3.278189999999999937e+00 1.289525763171339434e-01
9.326999999999999957e+00 2.100900000000000034e+01 4.282600000000000051e+01 6.230109999999999815e+00 2.355732022423787375e-01
9.330999999999999517e+00 -7.203300000000000258e-01 2.834400000000000119e+01 6.494126999999999761e+00 -1.245150957849055773e-01
9.333299999999999486e+00 6.462900000000000311e+00 2.471499999999999986e+01 -2.151259000000000088e-01 1.406158748287443250e-01
9.338699999999999335e+00 2.169800000000000040e+01 4.062800000000000011e+01 -3.733601000000000170e+00 2.358602968289594537e-01
