1.433699999999999974e+01 2.360600000000000165e+01 6.581499999999999773e+01 2.119028000000000134e+01 2.512159237116270982e-01
1.433999999999999986e+01 1.498900000000000077e+01 5.151200000000000045e+01 1.150006000000000084e+00 2.075803951150812787e-01
1.434099999999999930e+01 4.289800000000000324e+01 5.338100000000000023e+01 6.068266000000000382e+00 8.704520811499338873e-02
1.434299999999999997e+01 3.162800000000000011e+01 3.992499999999999716e+01 -7.165128000000000164e+00 2.084068831484298667e-01
1.434299999999999997e+01 3.315699999999999648e+01 6.413500000000000512e+01 7.626140999999999615e+00 6.907712642379323920e-02
1.434900000000000020e+01 3.011799999999999855e+01 3.633100000000000307e+01 7.391539999999999999e+00 -7.123556668594818730e-02
1.434900000000000020e+01 3.032700000000000173e+01 3.706700000000000017e+01 -1.023460999999999999e+01 -9.292007018857181833e-02
1.434900000000000020e+01 3.055399999999999849e+01 3.786599999999999966e+01 -2.059917000000000087e+01 2.013277584969984935e-01
1.435299999999999976e+01 4.238600000000000279e+01 4.810900000000000176e+01 2.694545999999999886e+00 1.033931584546878557e-01
1.436800000000000033e+01 2.533800000000000097e+01 2.384199999999999875e+01 1.567560999999999982e+00 4.295286090057978123e-01
1.436899999999999977e+01 4.573799999999999955e+01 5.898599999999999710e+01 5.822155000000000413e+00 8.400383190344419548e-02
1.436899999999999977e+01 2.734499999999999886e+01 2.930199999999999960e+01 2.316651999999999934e+00 1.899113686121435829e-01
1.436999999999999922e+01 1.986599999999999966e+01 2.188500000000000156e+01 3.284550999999999998e-01 4.281255605746928650e-01
1.437400000000000055e+01 3.525600000000000023e+01 4.506700000000000017e+01 -5.942044000000000104e+00 2.477145786082336210e-01
1.437400000000000055e+01 1.524900000000000055e+01 6.062400000000000233e+01 1.537134000000000000e+01 2.077552104611344319e-01
1.438299999999999912e+01 5.117499999999999716e+00 4.777600000000000335e+01 1.253364000000000011e+01 2.069348506754778438e-01
1.438700000000000045e+01 2.702700000000000102e+01 2.526200000000000045e+01 -4.856466000000000172e+00 4.301232278341777793e-01
1.438700000000000045e+01 1.161500000000000021e+01 3.157600000000000051e+01 -1.894249000000000072e+00 3.562916071618953961e-01
1.439000000000000057e+01 9.843400000000000816e+00 3.221099999999999852e+01 3.381895000000000095e+00 2.879470326944431058e-01
1.439100000000000001e+01 1.538100000000000023e+01 2.442399999999999949e+01 -2.381010999999999989e+00 4.273042551286264645e-01
1.439300000000000068e+01 1.126200000000000045e+01 3.080600000000000094e+01 1.608937000000000062e+00 3.559095930491583126e-01
1.440600000000000058e+01 2.652400000000000091e+01 2.468400000000000105e+01 -3.153887999999999803e+00 4.299854512773860771e-01
1.440700000000000003e+01 1.259500000000000064e+01 3.162699999999999889e+01 -1.850902999999999921e+01 3.561144621749295913e-01
1.440700000000000003e+01 3.999900000000000233e+01 6.044500000000000028e+01 5.262824000000000169e+00 7.604935639791235436e-02
1.441099999999999959e+01 3.962699999999999889e+00 4.497200000000000131e+01 1.193032000000000004e+01 2.961044526135613864e-01
1.441499999999999915e+01 3.230400000000000205e+01 4.291899999999999693e+01 -1.386774999999999913e+01 2.134008688786961372e-01
1.441600000000000037e+01 3.800699999999999790e+01 6.186099999999999710e+01 9.857896999999999466e+00 7.342761201937048066e-02
1.441600000000000037e+01 4.111699999999999733e+01 4.734899999999999665e+01 1.227586999999999939e+01 9.978249641838640716e-02
1.441600000000000037e+01 4.205700000000000216e+01 4.734899999999999665e+01 3.683565999999999896e+00 1.072074717278532763e-01
1.441699999999999982e+01 3.920600000000000307e+01 2.568799999999999883e+01 1.151821999999999946e+01 1.618931457724224199e-01
1.442099999999999937e+01 3.936800000000000210e+01 4.830499999999999972e+01 9.410244999999999749e+00 7.938488753912170681e-02
1.442900000000000027e+01 2.756200000000000117e+01 3.005099999999999838e+01 -8.620801000000000852e-03 1.952470606773820949e-01
1.443299999999999983e+01 4.631199999999999761e+01 5.866700000000000159e+01 3.145570000000000199e+00 8.495270357022025043e-02
1.443999999999999950e+01 4.637599999999999767e+01 5.771300000000000097e+01 -3.728222999999999843e+00 8.609492598584259082e-02
1.444599999999999973e+01 1.136500000000000021e+01 2.986400000000000077e+01 -2.149650999999999978e+00 2.392105221276844274e-01
1.444899999999999984e+01 2.383299999999999841e+01 2.278099999999999881e+01 6.388486000000000331e+00 4.290122945037913027e-01
1.445100000000000051e+01 4.137400000000000233e+01 5.952400000000000091e+01 8.094140000000000157e+01 7.831028155953220771e-02
1.445800000000000018e+01 2.649800000000000111e+01 6.254299999999999926e+01 2.089827999999999797e+00 2.509664307112663417e-01
1.445899999999999963e+01 2.922599999999999909e+01 3.246300000000000097e+01 -1.000364999999999949e+00 1.563922115810564561e-01
1.445899999999999963e+01 4.226800000000000068e+01 4.900000000000000000e+01 5.518899000000000221e+00 9.860582737429821054e-02
1.446799999999999997e+01 1.504400000000000048e+01 6.468200000000000216e+01 2.554942000000000046e+00 2.529771982088239168e-01
1.447400000000000020e+01 4.578799999999999670e+01 5.411800000000000210e+01 1.137670999999999921e+01 9.110869728506602871e-02
1.447600000000000087e+01 3.963499999999999801e+01 2.825199999999999889e+01 3.589078000000000213e+00 2.932681116526710333e-02
1.447899999999999920e+01 4.289200000000000301e+01 5.260499999999999687e+01 9.552326000000000761e+00 8.897921474421868759e-02
1.448099999999999987e+01 3.483200000000000074e+01 6.238799999999999812e+01 9.491395999999999944e+00 7.004596492937194274e-02
1.448099999999999987e+01 3.646500000000000341e+01 6.196099999999999852e+01 1.473493999999999993e+01 7.169829136877181597e-02
1.448099999999999987e+01 3.780799999999999983e+01 4.778600000000000136e+01 1.865239000000000047e+01 6.363754879330417447e-02
1.448700000000000010e+01 4.250699999999999790e+01 5.876599999999999824e+01 1.187650000000000006e+01 8.040072611060930519e-02
1.448700000000000010e+01 5.314099999999999824e+00 4.281199999999999761e+01 2.120838000000000001e+00 2.953911103510989400e-01
1.449300000000000033e+01 4.664500000000000313e+01 6.045400000000000063e+01 -1.871421000000000001e+00 8.360519877128788635e-02
1.449799999999999933e+01 4.302900000000000169e+00 4.843500000000000227e+01 -3.343485999999999958e+00 2.069416755435896371e-01
1.450399999999999956e+01 6.350500000000000256e+00 4.720900000000000318e+01 1.506889999999999930e+01 2.069325021264091513e-01
1.450999999999999979e+01 2.278900000000000148e+01 2.133099999999999952e+01 1.407362999999999964e+01 4.287580300327908378e-01
1.451900000000000013e+01 4.370199999999999818e+01 5.933899999999999864e+01 2.121642999999999901e+01 8.160092871077838372e-02
1.451900000000000013e+01 4.444800000000000040e+01 5.933899999999999864e+01 1.473712000000000089e+01 8.247863705042481064e-02
1.452299999999999969e+01 2.110900000000000176e+01 2.123699999999999832e+01 3.571814999999999962e+00 4.283964423330854920e-01
1.452399999999999913e+01 2.792599999999999838e+01 6.278199999999999648e+01 5.658142999999999923e+00 2.503739439714819381e-01
1.452599999999999980e+01 1.629200000000000159e+01 2.417500000000000071e+01 -5.284125000000000405e+00 4.273720082215747285e-01
1.452599999999999980e+01 1.715800000000000125e+01 2.417500000000000071e+01 -6.167754999999999654e+00 4.274423530744909661e-01
1.453599999999999959e+01 4.708100000000000307e+01 5.493699999999999761e+01 -5.583858000000000210e+00 9.099283365365187781e-02
1.453599999999999959e+01 4.708100000000000307e+01 5.653499999999999659e+01 -4.207480000000000331e+01 8.842157991310828358e-02
1.453599999999999959e+01 4.730799999999999983e+01 5.573599999999999710e+01 -5.516071000000000168e+01 8.982714784088582927e-02
1.453599999999999959e+01 7.064000000000000057e+00 4.697699999999999676e+01 1.048390999999999984e+01 2.069370175396459677e-01
1.453599999999999959e+01 1.150799999999999912e+01 3.441199999999999903e+01 8.406869999999999621e+00 2.895139260585344321e-01
1.453800000000000026e+01 2.896499999999999986e+01 3.185999999999999943e+01 -6.075477000000000238e+00 1.524635961649585536e-01
1.453800000000000026e+01 3.554500000000000171e+01 6.193699999999999761e+01 1.010177999999999976e+01 7.070580225676076358e-02
1.453899999999999970e+01 1.522899999999999920e+01 6.127799999999999869e+01 1.560030000000000072e+01 2.077467933096487918e-01
1.454199999999999982e+01 1.133600000000000030e+01 3.199099999999999966e+01 3.915518000000000054e+00 3.565993662429768896e-01
1.455000000000000071e+01 3.976899999999999835e+01 2.654299999999999926e+01 8.708289999999999864e+00 1.938447558037093565e-01
1.455000000000000071e+01 3.976899999999999835e+01 2.759299999999999997e+01 1.088521000000000072e+01 2.112834852342174996e-01
1.455899999999999928e+01 3.726500000000000057e+01 4.697200000000000131e+01 2.357032999999999845e+01 5.495859603990573689e-02
1.456000000000000050e+01 2.264799999999999969e+01 3.600099999999999767e+01 7.402910999999999575e+00 2.924526119612702035e-01
1.456900000000000084e+01 1.410999999999999943e+01 5.945400000000000063e+01 8.687478000000000478e+00 2.076822731692748170e-01
1.457199999999999918e+01 4.369899999999999807e+01 5.411999999999999744e+01 9.199424999999999741e+00 8.798821760978334239e-02
1.457199999999999918e+01 4.456400000000000006e+01 5.411999999999999744e+01 8.874914999999999665e+00 8.954590131583278767e-02
1.458200000000000074e+01 3.915100000000000335e+01 2.929400000000000048e+01 3.175194000000000116e+01 2.862203822974674489e-02
1.458200000000000074e+01 2.890600000000000058e+00 4.647899999999999920e+01 1.989642999999999873e+01 2.964170889953665067e-01
1.458999999999999986e+01 4.542799999999999727e+01 5.954699999999999704e+01 4.017890999999999657e+00 8.341453075538032835e-02
1.459600000000000009e+01 2.069099999999999895e+01 6.615399999999999636e+01 -2.836929999999999907e+01 2.518227363648706252e-01
1.459999999999999964e+01 2.342099999999999937e+01 3.509400000000000119e+01 3.584032000000000107e+00 2.885413084203638512e-01
1.459999999999999964e+01 4.241700000000000159e+01 4.999799999999999756e+01 3.567175000000000207e+00 9.562447848656788207e-02
1.460200000000000031e+01 2.998499999999999943e+01 6.505800000000000693e+01 -2.645653999999999950e+00 6.740202218502501508e-02
1.460200000000000031e+01 3.150499999999999901e+01 6.505800000000000693e+01 -8.767414999999999736e+00 6.839355810744440767e-02
1.462299999999999933e+01 3.134499999999999886e+01 3.948700000000000188e+01 -2.345816000000000123e+00 2.057170974712723976e-01
1.462599999999999945e+01 3.629299999999999926e+01 2.816000000000000014e+01 7.305409000000000042e+00 4.281791059944209943e-01
1.462599999999999945e+01 3.629299999999999926e+01 2.921000000000000085e+01 1.675935000000000130e+01 1.087893648381342004e-01
1.462599999999999945e+01 3.796300000000000097e+01 2.504299999999999926e+01 6.871628000000000291e+00 4.243681681561881081e-01
1.462599999999999945e+01 3.892099999999999937e+01 2.504299999999999926e+01 7.705702999999999747e+00 4.237492230776818691e-01
1.463100000000000023e+01 4.339600000000000080e+01 5.342000000000000171e+01 9.474700000000000344e+00 8.885817505557780382e-02
1.463100000000000023e+01 1.935500000000000043e+01 2.340500000000000114e+01 -3.433606999999999854e+00 4.277713798955886659e-01
1.463299999999999912e+01 3.209700000000000131e+01 4.068399999999999750e+01 -1.734965000000000046e+01 2.104335576282636011e-01
1.463299999999999912e+01 1.130199999999999960e+01 4.870499999999999829e+01 1.797849999999999948e+00 2.071831495514838972e-01
1.463400000000000034e+01 8.204000000000000625e+00 3.259599999999999653e+01 2.451982999999999802e+00 2.886440377613443409e-01
1.463599999999999923e+01 1.319999999999999929e+01 2.524299999999999855e+01 1.157230999999999899e+00 2.337773527071865254e-01
1.463599999999999923e+01 4.617099999999999937e+01 5.968599999999999994e+01 3.525131000000000014e+00 8.403344674117592394e-02
1.463899999999999935e+01 3.252900000000000347e+01 6.423099999999999454e+01 -1.939133999999999913e+00 6.882211291673623332e-02
1.464000000000000057e+01 1.374099999999999966e+01 5.860399999999999920e+01 2.118774000000000157e+00 2.076527538129247785e-01
1.464199999999999946e+01 3.214600000000000080e+01 4.168900000000000006e+01 -4.863687999999999789e+01 2.123564460030138989e-01
1.464300000000000068e+01 2.521999999999999886e+01 6.309199999999999875e+01 -8.330735999999999697e-01 2.513052641622856020e-01
1.464300000000000068e+01 1.683000000000000052e+00 4.703399999999999892e+01 4.838843999999999923e+00 2.963118162821362089e-01
1.464300000000000068e+01 1.683000000000000052e+00 4.954200000000000159e+01 1.315730000000000075e+02 2.069257747123153524e-01
1.464300000000000068e+01 3.233000000000000096e+00 4.954200000000000159e+01 -1.541592999999999947e+01 2.069580390337448228e-01
1.464400000000000013e+01 1.814999999999999858e+01 2.410999999999999943e+01 4.679937999999999931e+00 4.275182755250154232e-01
1.465399999999999991e+01 1.817800000000000082e+01 6.598000000000000398e+01 -5.884381999999999557e+00 2.523022178890223510e-01
1.466600000000000037e+01 1.662099999999999866e+01 6.587000000000000455e+01 -3.130389999999999784e+00 2.525473937855137740e-01
1.466699999999999982e+01 3.308500000000000085e+01 4.408400000000000318e+01 -6.407072999999999574e+00 2.667843037540210682e-01
1.466999999999999993e+01 3.766799999999999926e+01 3.013100000000000023e+01 1.718746000000000151e+01 9.310733593840415934e-03
1.467200000000000060e+01 4.283699999999999619e+00 4.438199999999999790e+01 4.851899000000000406e+00 2.958825742113127544e-01
1.467399999999999949e+01 2.056599999999999895e+01 2.182700000000000173e+01 3.338332999999999995e+00 4.281762876281096086e-01
1.468599999999999994e+01 1.351600000000000001e+01 3.446200000000000330e+01 7.691675000000000040e+00 2.891288678703817228e-01
1.468599999999999994e+01 1.438199999999999967e+01 3.446200000000000330e+01 8.357146000000000186e+00 2.889353126115087878e-01
1.468599999999999994e+01 1.422199999999999953e+01 3.101800000000000068e+01 -1.102474999999999916e+01 2.390007434669076392e-01
1.468599999999999994e+01 1.508699999999999974e+01 3.101800000000000068e+01 -6.024935999999999625e-01 2.384073957404218846e-01
1.468800000000000061e+01 4.362800000000000011e+01 5.260499999999999687e+01 8.553307999999999467e+00 9.137517574633538531e-02
1.468999999999999950e+01 1.308000000000000007e+01 5.024799999999999756e+01 1.031166999999999945e+01 2.073652829924386709e-01
1.469299999999999962e+01 6.048000000000000043e+00 3.774399999999999977e+01 -2.199304999999999843e+00 2.924480683025397765e-01
1.469299999999999962e+01 6.275000000000000355e+00 3.694500000000000028e+01 1.486499999999999932e+00 2.919280094199357967e-01
1.469299999999999962e+01 7.223799999999999777e+00 3.599600000000000222e+01 -1.045544999999999947e+00 2.912570376208964418e-01
1.469800000000000040e+01 1.506799999999999962e+01 5.953399999999999892e+01 3.030992000000000175e+01 2.077319632810200878e-01
1.469999999999999929e+01 3.642699999999999960e+01 2.750100000000000122e+01 2.230871000000000048e+00 4.288321641078746138e-01
1.470199999999999996e+01 1.516000000000000014e+01 6.192699999999999960e+01 3.256349999999999767e+01 2.077354339330873823e-01
1.470299999999999940e+01 1.559699999999999953e+01 6.504300000000000637e+01 3.043852999999999920e+00 2.528468912050785833e-01
1.470400000000000063e+01 4.345799999999999841e+01 5.156400000000000006e+01 7.327738000000000085e+00 9.390165498085092932e-02
1.471299999999999919e+01 2.313200000000000145e+01 6.663899999999999579e+01 1.173235999999999946e+00 2.512097887873875335e-01
1.471599999999999930e+01 1.449900000000000055e+01 5.103300000000000125e+01 5.860533000000000214e+00 2.074989239162739474e-01
1.471799999999999997e+01 6.014700000000000379e+00 4.041499999999999915e+01 2.091086999999999918e+00 2.941295542989613709e-01
1.471799999999999997e+01 6.014700000000000379e+00 4.128099999999999881e+01 1.364252000000000020e+00 2.946491344957612446e-01
1.471899999999999942e+01 1.909199999999999875e+01 2.423000000000000043e+01 -5.025545000000000151e+00 4.275830973181194983e-01
1.472000000000000064e+01 4.412299999999999756e+01 5.983400000000000318e+01 5.031391000000000169e+00 8.193274466460932770e-02
1.472000000000000064e+01 4.584599999999999653e+01 6.045400000000000063e+01 1.799407999999999896e+00 8.314788325015105841e-02
1.472000000000000064e+01 4.744400000000000261e+01 6.045400000000000063e+01 -4.574541999999999775e-01 8.442203320488801677e-02
1.472600000000000087e+01 2.965899999999999892e+01 3.316299999999999670e+01 1.879723999999999950e+00 1.577671503537014797e-02
1.473700000000000010e+01 1.173600000000000065e+01 2.904400000000000048e+01 1.020258000000000109e+00 2.384924289175079370e-01
1.473700000000000010e+01 2.866799999999999926e+01 6.317000000000000171e+01 -5.569203999999999821e-01 2.500308227745199341e-01
1.474200000000000088e+01 2.729899999999999949e+01 2.647800000000000153e+01 -1.388894999999999946e+01 4.289248860523562357e-01
1.474399999999999977e+01 1.468500000000000050e+01 3.376200000000000045e+01 5.159861000000000253e+00 2.878659480598349529e-01
1.474399999999999977e+01 1.479599999999999937e+01 3.296399999999999864e+01 4.952515000000000001e+00 2.867322499628436328e-01
1.474399999999999977e+01 1.539100000000000001e+01 3.171799999999999997e+01 5.745509000000000199e+00 3.554608054829024866e-01
1.475200000000000067e+01 3.723199999999999932e+01 6.192600000000000193e+01 8.871339000000000752e+00 7.283212872389492609e-02
1.475300000000000011e+01 5.746500000000000163e+00 4.203999999999999915e+01 1.577555000000000041e+00 2.950237686374250212e-01
1.475699999999999967e+01 2.445200000000000173e+01 2.373400000000000176e+01 -7.753658999999999857e+00 4.288855768839104354e-01
1.475900000000000034e+01 3.856199999999999761e+01 6.120799999999999841e+01 -1.734565999999999875e+01 7.443657732339603594e-02
1.476399999999999935e+01 1.456499999999999950e+01 6.294899999999999807e+01 3.877024000000000026e+00 2.077003803289729778e-01
1.476399999999999935e+01 1.456499999999999950e+01 6.390699999999999648e+01 7.038716000000000417e-01 2.076959843462523048e-01
1.476699999999999946e+01 4.670499999999999829e+01 5.732900000000000063e+01 -1.685270999999999830e+01 8.729813997096447231e-02
1.476800000000000068e+01 3.605299999999999727e+01 4.525500000000000256e+01 -1.356910000000000061e+00 2.839581092828015116e-02
1.476900000000000013e+01 1.446400000000000041e+01 5.577600000000000335e+01 1.385593000000000075e+00 2.076519921647048683e-01
1.476900000000000013e+01 4.030299999999999727e+01 4.756700000000000017e+01 3.308994000000000213e+00 9.393811640538511643e-02
1.476900000000000013e+01 2.191199999999999903e+01 3.600099999999999767e+01 -3.452939999999999898e+00 2.918682204667273905e-01
1.476900000000000013e+01 2.338400000000000034e+01 3.600099999999999767e+01 8.131218000000000501e+00 2.926481903585990696e-01
1.477200000000000024e+01 1.568900000000000006e+01 5.177900000000000347e+01 4.928874000000000422e+00 2.076206026694119022e-01
1.477599999999999980e+01 4.084899999999999665e+01 6.037400000000000233e+01 1.312124999999999986e+01 7.761421605529120193e-02
1.477599999999999980e+01 2.704799999999999827e+01 6.265899999999999892e+01 3.500084000000000195e+00 2.507599524110858402e-01
1.477699999999999925e+01 1.944900000000000162e+01 6.568000000000000682e+01 -2.580622999999999934e+01 2.521576145781899703e-01
1.477999999999999936e+01 4.199499999999999567e+00 4.537199999999999989e+01 1.193032000000000004e+01 2.962851387446147067e-01
1.478299999999999947e+01 4.617499999999999716e+01 6.121399999999999864e+01 1.156894000000000089e+00 8.286827621367090502e-02
1.478299999999999947e+01 4.711500000000000199e+01 5.969400000000000261e+01 3.299302000000000068e-01 8.495605713453874275e-02
1.478299999999999947e+01 4.711500000000000199e+01 6.121399999999999864e+01 -3.205048999999999815e+00 8.358718400253548064e-02
1.478500000000000014e+01 1.242600000000000016e+01 4.986800000000000210e+01 1.112129999999999974e+01 2.073008304730987184e-01
1.478500000000000014e+01 1.562500000000000000e+01 5.278799999999999670e+01 2.501311999999999980e-01 2.076544254183693428e-01
1.478999999999999915e+01 3.420700000000000074e+01 4.499000000000000199e+01 -1.738985999999999876e+01 2.560561116111138569e-01
1.479100000000000037e+01 8.001400000000000290e+00 4.705400000000000205e+01 4.785692000000000057e+00 2.069560398936365897e-01
1.479299999999999926e+01 5.557299999999999685e+00 4.711699999999999733e+01 2.381241999999999948e+01 2.068991640220253225e-01
1.479599999999999937e+01 2.609299999999999997e+01 2.406099999999999994e+01 6.827471999999999985e-01 4.295724717940542225e-01
1.479899999999999949e+01 1.535200000000000031e+01 5.366700000000000159e+01 -6.348873000000000433e-01 2.076613848149296282e-01
1.480400000000000027e+01 9.773999999999999133e+00 4.760600000000000165e+01 -2.338192000000000093e+01 2.070444811490496639e-01
1.480799999999999983e+01 2.191499999999999915e+01 2.127400000000000091e+01 8.994374000000000535e+00 4.284684898467423508e-01
1.480899999999999928e+01 1.090300000000000047e+01 3.269100000000000250e+01 5.137455000000000105e+00 2.879200940398597974e-01
1.480899999999999928e+01 1.090300000000000047e+01 3.355599999999999739e+01 6.014075000000000060e+00 2.887258833235136768e-01
1.480899999999999928e+01 2.268499999999999872e+01 3.509400000000000119e+01 5.052712999999999788e+00 2.883442308985942337e-01
1.480899999999999928e+01 2.415700000000000003e+01 3.509400000000000119e+01 3.940249999999999808e+00 2.882252274385269097e-01
1.481000000000000050e+01 1.459800000000000075e+01 5.485199999999999676e+01 -1.350049000000000055e+00 2.076388866429042523e-01
1.481199999999999939e+01 3.363900000000000290e+01 6.343999999999999773e+01 1.199535000000000018e+01 6.956153192605965541e-02
1.481300000000000061e+01 2.329100000000000037e+01 2.219699999999999918e+01 2.131378000000000128e+01 4.287442624061775232e-01
1.481400000000000006e+01 2.798000000000000043e+01 3.079899999999999949e+01 -4.106436999999999671e+00 2.043257157287749481e-01
1.481799999999999962e+01 3.980100000000000193e+01 4.781400000000000006e+01 6.670313000000000159e+00 8.811809660424244073e-02
1.482000000000000028e+01 1.321000000000000085e+01 3.201299999999999812e+01 2.181871000000000116e+00 3.562545961496645375e-01
1.482199999999999918e+01 2.438400000000000034e+01 6.494299999999999784e+01 3.140408000000000044e+01 2.511934241278730995e-01
1.482399999999999984e+01 3.725399999999999778e+01 4.618299999999999983e+01 6.847833999999999754e+00 5.303475897835346897e-02
1.482699999999999996e+01 2.221600000000000108e+01 3.530100000000000193e+01 5.433284999999999698e+00 2.892030369893721642e-01
1.482699999999999996e+01 2.221600000000000108e+01 3.670100000000000051e+01 1.232098000000000049e+01 2.945946135433065716e-01
1.482699999999999996e+01 2.308099999999999952e+01 3.670100000000000051e+01 1.374061000000000021e+01 2.954443761407235525e-01
1.483200000000000074e+01 3.881199999999999761e+01 4.780799999999999983e+01 9.586377000000000592e+00 7.754694134612978573e-02
1.483399999999999963e+01 1.237899999999999956e+01 3.462500000000000000e+01 7.594668999999999670e+00 2.894946664840755690e-01
1.483799999999999919e+01 1.480700000000000038e+01 2.481500000000000128e+01 -1.800223999999999991e-01 4.271525667076471744e-01
1.483999999999999986e+01 4.413199999999999790e+01 5.342000000000000171e+01 7.404355999999999938e+00 9.085115321562169111e-02
1.484500000000000064e+01 1.203599999999999959e+01 3.193299999999999983e+01 1.687840000000000007e+00 3.564375496475050697e-01
1.484699999999999953e+01 4.158700000000000330e+01 4.681600000000000250e+01 3.137639000000000067e+00 1.126235124402907850e-01
1.486400000000000077e+01 3.265599999999999881e+01 4.358599999999999852e+01 -8.705567000000000277e+00 2.129731001484017339e-01
1.486400000000000077e+01 2.740099999999999980e+01 2.743199999999999861e+01 -6.528299999999999770e+00 4.277298637887493316e-01
1.486400000000000077e+01 2.740099999999999980e+01 2.844000000000000128e+01 -1.368090999999999946e+00 4.264763436323558143e-01
1.486500000000000021e+01 1.564600000000000080e+01 6.105700000000000216e+01 1.100084999999999980e+01 2.077578713176534697e-01
1.486700000000000088e+01 2.298799999999999955e+01 3.439399999999999835e+01 2.318500000000000005e-01 2.851186287625736004e-01
1.486700000000000088e+01 2.385300000000000153e+01 3.439399999999999835e+01 1.873693000000000053e+00 2.845028759678017716e-01
1.486899999999999977e+01 4.665500000000000114e+01 5.423400000000000176e+01 9.680854999999999322e-02 -4.081268850621812272e-02
1.486999999999999922e+01 1.447700000000000031e+01 5.642499999999999716e+01 1.611282000000000103e+00 2.076598026530719066e-01
1.487100000000000044e+01 4.535499999999999687e+01 5.362700000000000244e+01 3.242535000000000167e+00 9.240071056524909454e-02
1.487100000000000044e+01 1.051800000000000068e+01 3.194099999999999895e+01 5.967369999999999841e+00 3.567132450689703971e-01
1.487199999999999989e+01 3.665899999999999892e+01 2.674200000000000088e+01 4.870079999999999742e+00 4.272337946277077192e-01
1.487199999999999989e+01 3.686800000000000210e+01 2.600600000000000023e+01 3.263905999999999974e+00 4.260734771508687402e-01
1.487599999999999945e+01 2.728399999999999892e+01 2.497400000000000020e+01 -2.165180000000000149e+01 4.299302095672946633e-01
1.488299999999999912e+01 3.400800000000000267e+01 6.259000000000000341e+01 1.131567000000000078e+01 6.963476652376657250e-02
1.488400000000000034e+01 4.482500000000000284e+01 5.330499999999999972e+01 4.825027000000000399e+00 9.240758786415613490e-02
1.488400000000000034e+01 4.207399999999999807e+01 5.925699999999999790e+01 7.534360999999999642e+00 7.995856923169533670e-02
1.488400000000000034e+01 4.293999999999999773e+01 5.925699999999999790e+01 7.830932999999999922e+00 8.112760790604897632e-02
1.488599999999999923e+01 4.281700000000000017e+01 4.763900000000000290e+01 -3.174704999999999888e+00 1.126397693182193266e-01
1.488599999999999923e+01 4.281700000000000017e+01 4.857900000000000063e+01 -1.225526999999999944e+01 1.058943667346184947e-01
1.488599999999999923e+01 3.929899999999999949e+01 6.084799999999999898e+01 -2.262370999999999910e+00 7.555469631256904461e-02
1.489300000000000068e+01 1.207799999999999940e+01 2.775499999999999901e+01 2.381850000000000078e-01 2.372122506242383133e-01
1.490000000000000036e+01 2.139099999999999824e+01 6.621200000000000330e+01 -1.119664000000000037e+01 2.516827274316312812e-01
1.490799999999999947e+01 2.457900000000000063e+01 6.377199999999999847e+01 2.670774999999999899e+00 2.513749210448421589e-01
1.491499999999999915e+01 1.578200000000000003e+01 5.988700000000000045e+01 1.943291999999999931e+01 2.077652016753099018e-01
1.492300000000000004e+01 1.672500000000000142e+01 2.466600000000000037e+01 -1.802966000000000069e+00 4.272612822526366538e-01
1.492300000000000004e+01 5.916299999999999670e+00 3.987599999999999767e+01 2.117128999999999817e+00 2.937468226568554774e-01
1.492300000000000004e+01 1.447300000000000075e+01 3.241700000000000159e+01 3.528258999999999812e+00 1.950362980993509132e-01
1.492900000000000027e+01 4.510999999999999943e+01 6.045400000000000063e+01 3.084457000000000004e+00 8.267355977079092477e-02
1.493299999999999983e+01 4.062899999999999956e+00 4.618599999999999994e+01 9.986432000000000642e+00 2.965664430884785707e-01
1.493900000000000006e+01 1.203999999999999959e+00 4.780899999999999750e+01 2.223091999999999846e+00 2.068457945385049901e-01
1.493900000000000006e+01 1.203999999999999959e+00 4.876700000000000301e+01 1.635982999999999876e+01 2.068813510160673330e-01
1.493900000000000006e+01 3.712000000000000188e+00 4.876700000000000301e+01 -1.038818000000000019e+01 2.069289258690396038e-01
1.494100000000000072e+01 3.431099999999999994e+01 6.189000000000000057e+01 1.350196000000000041e+01 6.971472706757977922e-02
1.494200000000000017e+01 4.452199999999999847e+01 5.260499999999999687e+01 6.105686999999999642e+00 9.382141023667059376e-02
1.494400000000000084e+01 4.563900000000000290e+00 4.713900000000000290e+01 2.099097000000000079e+01 2.068747985171886794e-01
1.495299999999999940e+01 2.246099999999999852e+01 6.679399999999999693e+01 -2.796135000000000037e+00 2.513491169177907159e-01
1.495299999999999940e+01 1.394899999999999984e+01 3.376200000000000045e+01 7.739501999999999882e+00 2.880361550080690614e-01
1.495299999999999940e+01 1.465499999999999936e+01 3.171799999999999997e+01 8.124781000000000475e+00 3.556770860304514503e-01
1.495899999999999963e+01 7.678700000000000081e+00 3.344599999999999795e+01 2.764320000000000110e+00 2.893075828448786746e-01
1.495899999999999963e+01 7.678700000000000081e+00 3.449600000000000222e+01 3.612121000000000137e+00 2.900716005519858309e-01
1.496700000000000053e+01 1.775400000000000134e+01 2.491000000000000014e+01 2.677087000000000216e+00 4.272874451541975871e-01
1.496700000000000053e+01 1.861899999999999977e+01 2.491000000000000014e+01 4.293654000000000082e+00 4.273552699522084053e-01
1.497799999999999976e+01 4.328900000000000148e+01 5.982500000000000284e+01 -3.447735000000000105e-01 8.125272379255985000e-02
1.497899999999999920e+01 2.458000000000000185e+00 4.696900000000000119e+01 2.076170000000000115e+01 2.964353927689311607e-01
1.497899999999999920e+01 2.458000000000000185e+00 4.960699999999999932e+01 5.967676000000000158e+01 2.069344205969177453e-01
1.497899999999999920e+01 2.735699999999999932e+01 2.913299999999999912e+01 1.450846999999999998e+00 1.933519483467865396e-01
1.497899999999999920e+01 2.735699999999999932e+01 2.999800000000000111e+01 -1.562767999999999935e+00 2.014056272800105185e-01
1.498600000000000065e+01 4.425699999999999790e+01 5.133700000000000330e+01 -4.641036000000000050e-01 9.733935774658694640e-02
1.499699999999999989e+01 3.374799999999999756e+01 6.166100000000000136e+01 1.672147999999999968e+01 6.907673426098473457e-02
1.500399999999999956e+01 2.910099999999999909e+01 6.386999999999999744e+01 -4.704844999999999722e+00 2.497892365674105331e-01
1.500699999999999967e+01 2.398400000000000176e+01 6.571500000000000341e+01 -7.932349000000000316e+00 2.511713007539456144e-01
1.501600000000000001e+01 1.555000000000000071e+01 5.896999999999999886e+01 1.514095000000000013e+01 2.077455303105141815e-01
1.503100000000000058e+01 4.459499999999999886e+01 6.057900000000000063e+01 -2.692690999999999946e+00 8.217047620501996552e-02
1.503200000000000003e+01 8.984799999999999898e+00 3.243599999999999994e+01 2.857304000000000066e+00 2.882305469976495504e-01
1.503299999999999947e+01 4.311699999999999733e+01 5.026500000000000057e+01 5.217922999999999867e+00 9.885329890394087271e-02
1.503800000000000026e+01 6.032000000000000028e+00 3.893999999999999773e+01 6.766465000000000174e+00 2.931528742677158017e-01
1.503999999999999915e+01 1.525600000000000023e+01 5.107900000000000063e+01 7.132824000000000275e+00 2.075369076040332050e-01
1.504400000000000048e+01 3.768600000000000172e+00 4.781400000000000006e+01 9.661892000000000280e+01 2.068866357108534726e-01
1.505000000000000071e+01 3.591899999999999693e+01 6.138300000000000267e+01 2.195172000000000168e+01 7.145794548363290644e-02
1.505100000000000016e+01 3.018400000000000105e+01 3.401299999999999812e+01 4.034609999999999808e+00 3.823333398981260123e-02
1.505100000000000016e+01 7.967900000000000205e+00 3.528999999999999915e+01 4.809676999999999980e-01 2.906138610589833471e-01
1.505499999999999972e+01 3.085399999999999920e+01 3.909100000000000108e+01 -8.069392000000000564e+00 2.034015973346285089e-01
1.506300000000000061e+01 2.811499999999999844e+01 3.153500000000000014e+01 -8.073695999999999984e+00 1.597207877072567006e-01
1.506499999999999950e+01 3.844200000000000017e+01 2.449899999999999878e+01 1.853301000000000087e+01 4.222196687854706809e-01
1.507199999999999918e+01 2.945200000000000173e+01 6.462699999999999534e+01 -5.021471000000000018e+00 6.715587185296588435e-02
1.507199999999999918e+01 3.074500000000000099e+01 6.534799999999999898e+01 -3.061468999999999951e+01 6.830197298910271886e-02
1.507199999999999918e+01 3.203799999999999670e+01 6.462699999999999534e+01 -2.209836999999999918e+01 6.890538308599167272e-02
1.507300000000000040e+01 2.363299999999999912e+01 6.655599999999999739e+01 -1.014026999999999923e+01 2.511203498779660537e-01
1.507699999999999996e+01 4.977599999999999802e+00 4.324499999999999744e+01 3.912148000000000181e+00 2.954370380387295603e-01
1.508000000000000007e+01 2.395700000000000074e+01 3.631700000000000017e+01 6.346997000000000000e+00 2.942537965075968653e-01
1.508600000000000030e+01 3.063299999999999912e+01 3.824099999999999966e+01 -3.162940000000000040e+01 2.008168033082233794e-01
1.508699999999999974e+01 2.022200000000000131e+01 6.571999999999999886e+01 -2.644988000000000028e+01 2.520203639867943934e-01
1.509099999999999930e+01 4.281400000000000006e+01 4.956499999999999773e+01 -2.554764000000000035e+00 1.013677372262246079e-01
1.509800000000000075e+01 1.501099999999999923e+01 5.872399999999999665e+01 5.501708999999999961e+00 2.077086076435792350e-01
1.510299999999999976e+01 1.382600000000000051e+01 3.260699999999999932e+01 3.548267000000000060e+00 2.866055755193180898e-01
1.510299999999999976e+01 2.110900000000000176e+01 2.138299999999999912e+01 2.642129000000000172e+00 4.282009144751525165e-01
1.510500000000000043e+01 3.718800000000000239e+01 2.533899999999999864e+01 1.233475999999999928e+01 4.237973611847219990e-01
1.510500000000000043e+01 3.969599999999999795e+01 2.533899999999999864e+01 4.555646999999999558e+00 1.747573641841272118e-01
1.510699999999999932e+01 1.047400000000000020e+01 4.766400000000000148e+01 -2.764940999999999960e+01 2.070593648206780490e-01
1.510899999999999999e+01 3.026399999999999935e+01 3.739600000000000080e+01 -1.213695000000000057e+01 -9.386839790532226779e-02
1.510999999999999943e+01 7.664500000000000313e+00 3.599000000000000199e+01 -3.199151000000000078e+00 2.911479581026311658e-01
1.510999999999999943e+01 1.190099999999999980e+01 4.901800000000000068e+01 1.550176000000000087e+01 2.072060650652912395e-01
1.511100000000000065e+01 1.463400000000000034e+01 5.790500000000000114e+01 4.680596000000000423e+00 2.076786616339389435e-01
1.511400000000000077e+01 3.678399999999999892e+01 4.542300000000000182e+01 3.778906000000000098e+00 4.452890865473647236e-02
1.511500000000000021e+01 6.178099999999999703e+00 4.661899999999999977e+01 1.773294999999999888e+01 2.068753262236006363e-01
1.512500000000000000e+01 4.006799999999999784e+01 4.724000000000000199e+01 2.862786999999999971e+00 9.653605406839690928e-02
1.512700000000000067e+01 3.578399999999999803e+00 4.699900000000000233e+01 4.105216000000000065e+01 2.068448761261650615e-01
1.512899999999999956e+01 1.319699999999999918e+01 3.267499999999999716e+01 3.721321000000000101e+00 2.869585649065220512e-01
1.513000000000000078e+01 2.996300000000000097e+01 3.605899999999999750e+01 -6.837709000000000259e+00 -6.066000963429999532e-02
1.513400000000000034e+01 4.365299999999999869e+01 6.052600000000000335e+01 -1.658654999999999990e+00 8.132697025803264923e-02
1.513599999999999923e+01 1.608800000000000097e+01 6.543899999999999295e+01 -3.202999999999999847e+00 2.527194365623350314e-01
1.513599999999999923e+01 1.738100000000000023e+01 6.615999999999999659e+01 -2.036073000000000022e+01 2.524014420492037281e-01
1.513799999999999990e+01 1.095100000000000051e+01 3.124099999999999966e+01 6.574834999999999985e-01 2.414803023905973123e-01
1.515000000000000036e+01 1.370599999999999952e+01 5.060499999999999687e+01 9.318899999999999295e+00 2.073974372505373032e-01
1.515199999999999925e+01 1.979200000000000159e+01 2.309700000000000131e+01 -1.115342999999999973e+00 4.277321680252698100e-01
1.515199999999999925e+01 1.979200000000000159e+01 2.396199999999999974e+01 -1.481995000000000040e+01 4.275885822345834031e-01
1.515499999999999936e+01 4.382399999999999807e+01 5.050200000000000244e+01 2.449498999999999871e+00 1.001672279828173806e-01
1.515900000000000070e+01 2.916799999999999926e+01 3.276599999999999824e+01 -1.823898000000000019e+00 1.655372231158687979e-01
1.516099999999999959e+01 1.260399999999999920e+01 2.572400000000000020e+01 2.340151000000000092e+00 2.353522280327768335e-01
1.516099999999999959e+01 1.405000000000000071e+01 2.491799999999999926e+01 -1.305302000000000129e-01 4.270580085311745933e-01
1.516200000000000081e+01 2.528600000000000136e+01 2.406700000000000017e+01 -2.767600999999999978e+00 4.288609097994827701e-01
1.516300000000000026e+01 6.807999999999999829e+00 3.651400000000000290e+01 -2.775444999999999940e+00 2.915415167459187717e-01
1.516499999999999915e+01 3.499499999999999744e+01 6.132000000000000028e+01 1.453463999999999956e+01 7.046374431673543826e-02
1.516600000000000037e+01 2.681400000000000006e+01 2.421399999999999864e+01 -5.071185999999999749e-01 4.296176546157234877e-01
1.516600000000000037e+01 3.508200000000000074e+01 4.526700000000000301e+01 -2.280591999999999953e+00 2.670238338090586902e-02
1.516699999999999982e+01 4.684700000000000131e+01 5.871900000000000119e+01 3.885657999999999834e+00 8.617300089445706357e-02
1.516799999999999926e+01 3.001399999999999935e+01 3.662400000000000233e+01 -1.786063000000000045e+01 -7.435287577031837736e-02
1.517200000000000060e+01 1.096400000000000041e+01 3.032400000000000162e+01 1.054861000000000049e+00 2.406248369284665622e-01
1.517500000000000071e+01 3.289699999999999847e+01 6.351899999999999835e+01 1.155447000000000024e+01 6.921984949674633847e-02
1.517600000000000016e+01 4.082699999999999818e+01 4.687899999999999778e+01 2.813289999999999846e+00 1.082484989202856240e-01
1.517600000000000016e+01 4.234700000000000131e+01 4.687899999999999778e+01 -1.455589999999999939e-01 -3.318130672977169515e-02
1.517800000000000082e+01 4.478799999999999670e+01 5.209599999999999653e+01 -1.217705999999999955e+00 9.632677608990425355e-02
1.517999999999999972e+01 1.300500000000000078e+01 3.410499999999999687e+01 7.088607999999999798e+00 2.886547079732796339e-01
1.518099999999999916e+01 3.807500000000000284e+01 4.735300000000000153e+01 2.589385000000000048e+01 7.221401962504654659e-02
1.518699999999999939e+01 1.350099999999999945e+01 3.337500000000000000e+01 5.205369000000000135e+00 2.876332368529371797e-01
1.518699999999999939e+01 5.255799999999999805e+00 4.250900000000000034e+01 1.562597999999999931e+00 2.950980117326711394e-01
1.518900000000000006e+01 3.709199999999999875e+01 2.964900000000000091e+01 2.017231999999999914e+01 -2.365019814800310011e-02
1.519100000000000072e+01 3.675300000000000011e+01 6.138199999999999790e+01 1.793146999999999878e+02 7.260499234241228617e-02
1.519400000000000084e+01 2.649800000000000111e+01 6.275200000000000244e+01 1.415502999999999956e+00 2.509762827375403571e-01
1.519400000000000084e+01 4.612299999999999756e+01 5.365899999999999892e+01 7.829631000000000229e-01 -3.996453551978010332e-02
1.519400000000000084e+01 3.288199999999999790e+01 6.177499999999999858e+01 2.038053000000000026e+01 6.843600420162451736e-02
1.519500000000000028e+01 1.222400000000000020e+01 2.663299999999999912e+01 1.794550000000000090e+00 2.364598594114631636e-01
1.520599999999999952e+01 1.130199999999999960e+01 2.953500000000000014e+01 1.283034999999999926e+00 2.397349713111504577e-01
1.520899999999999963e+01 5.618100000000000094e+00 4.084799999999999898e+01 1.556057000000000023e+00 2.942336894381482049e-01
1.520899999999999963e+01 4.920899999999999608e+00 4.626700000000000301e+01 1.670623000000000147e+01 2.068304033645746443e-01
1.521000000000000085e+01 4.005599999999999739e+01 6.080199999999999960e+01 -1.276858000000000049e+00 7.689237467801711412e-02
1.521199999999999974e+01 9.013999999999999346e+00 4.721800000000000352e+01 -1.560205999999999982e+01 2.069768281573032831e-01
1.521299999999999919e+01 4.505599999999999739e+01 5.133700000000000330e+01 -1.307250999999999941e+00 -3.839324314523502590e-02
1.521400000000000041e+01 4.664500000000000313e+01 6.174699999999999989e+01 -8.065955000000000652e+00 8.317826262435371043e-02
1.521700000000000053e+01 3.856199999999999761e+01 2.987000000000000099e+01 3.567575999999999681e+01 -2.844042664282983579e-01
1.522300000000000075e+01 3.371600000000000108e+01 4.459400000000000119e+01 -8.930312999999999946e+00 2.610336610742310381e-01
1.522400000000000020e+01 2.264799999999999969e+01 3.719200000000000017e+01 1.298253000000000057e+01 2.964359230130001466e-01
1.522899999999999920e+01 1.579499999999999993e+01 2.470499999999999829e+01 -7.209611000000000214e-01 4.271435247232280297e-01
1.523300000000000054e+01 2.596900000000000119e+01 6.275000000000000000e+01 1.228237000000000023e+00 2.511673488478040062e-01
1.523600000000000065e+01 1.177500000000000036e+01 3.397899999999999920e+01 8.087426000000000670e+00 2.888103688078580422e-01
1.524000000000000021e+01 3.777199999999999847e+01 4.665299999999999869e+01 1.493608000000000047e+01 6.773510220943362858e-02
1.524000000000000021e+01 3.320499999999999829e+01 6.259000000000000341e+01 2.090429999999999922e+01 6.916216209254198721e-02
1.524200000000000088e+01 1.160299999999999976e+01 3.242399999999999949e+01 3.909494000000000025e+00 2.873085300805225395e-01
1.524200000000000088e+01 1.246899999999999942e+01 3.242399999999999949e+01 3.523611999999999966e+00 1.965208983476344762e-01
1.524200000000000088e+01 3.006700000000000017e+01 3.502499999999999858e+01 4.122427000000000064e+00 5.329921551907629285e-02
1.524399999999999977e+01 5.349899999999999878e+00 4.160699999999999932e+01 1.517827000000000037e+00 2.946140720839670046e-01
1.524799999999999933e+01 3.770600000000000307e+01 6.148700000000000188e+01 9.669968000000000075e+01 7.384349266708598036e-02
1.525200000000000067e+01 3.664999999999999858e+01 2.775400000000000134e+01 4.285794000000000104e+00 2.278788967282077693e-01
1.525300000000000011e+01 4.787500000000000000e+01 5.998400000000000176e+01 -8.985042999999999225e+00 8.564802572395274760e-02
1.525300000000000011e+01 4.787500000000000000e+01 6.092399999999999949e+01 -1.261325000000000074e+01 8.475071203332036618e-02
1.525900000000000034e+01 1.727400000000000091e+01 2.497700000000000031e+01 2.677087000000000216e+00 4.271795885072634524e-01
1.525999999999999979e+01 2.151599999999999824e+01 3.556799999999999784e+01 4.763856999999999786e+00 2.897506207832850622e-01
1.525999999999999979e+01 2.151599999999999824e+01 3.643299999999999983e+01 -1.296016999999999975e+01 2.927239127099966476e-01
1.526399999999999935e+01 2.342099999999999937e+01 3.390299999999999869e+01 -1.695606000000000058e-01 1.874856437046409086e-01
1.526399999999999935e+01 3.331499999999999773e+01 6.096099999999999852e+01 1.783227000000000118e+01 6.852438678910258152e-02
1.526800000000000068e+01 4.765299999999999869e+00 4.490699999999999648e+01 1.258887999999999963e+01 2.961543113444410347e-01
1.527500000000000036e+01 2.014300000000000068e+01 2.236299999999999955e+01 5.416368999999999767e-01 4.278553262090872278e-01
1.527500000000000036e+01 3.431099999999999994e+01 6.084599999999999653e+01 1.858376000000000161e+01 6.959327936693268657e-02
1.527599999999999980e+01 4.472699999999999676e+01 5.057699999999999818e+01 7.599245999999999501e-01 -3.731687752551077208e-02
1.527999999999999936e+01 5.009699999999999598e+00 4.406099999999999994e+01 1.631411999999999907e+01 2.958168388214479361e-01
1.529400000000000048e+01 3.993599999999999994e+01 2.798000000000000043e+01 7.353902999999999857e+00 4.281574450513001701e-02
1.529499999999999993e+01 4.690699999999999648e+01 5.446900000000000119e+01 -1.010110999999999981e+00 -3.968441865061715645e-02
1.529499999999999993e+01 4.690699999999999648e+01 5.700300000000000011e+01 -1.586810999999999972e+01 8.858432985321859632e-02
1.529700000000000060e+01 3.195599999999999952e+01 4.245400000000000063e+01 -2.875213000000000108e+01 2.114955696353314207e-01
1.529700000000000060e+01 3.216499999999999915e+01 4.171699999999999875e+01 -4.528555999999999671e+01 2.109925641157187337e-01
1.529700000000000060e+01 3.216499999999999915e+01 4.318999999999999773e+01 -1.463336999999999932e+01 2.119894124784706402e-01
1.530000000000000071e+01 1.130000000000000071e+01 3.312400000000000233e+01 6.941975000000000229e+00 2.880712983623167078e-01
1.530000000000000071e+01 2.455300000000000082e+01 3.466100000000000136e+01 -8.181437000000000292e-01 2.848969907476393559e-01
1.530499999999999972e+01 5.049999999999999822e+00 4.571300000000000097e+01 1.639508000000000010e+01 2.965907887896054307e-01
1.531099999999999994e+01 2.358299999999999841e+01 3.718099999999999739e+01 1.108689000000000036e+01 2.975408649783652382e-01
1.531900000000000084e+01 4.351700000000000301e+01 4.971099999999999852e+01 2.269716999999999985e+00 1.037185644963431325e-01
1.531900000000000084e+01 7.064000000000000057e+00 4.663199999999999790e+01 6.915269000000000688e+01 2.068872467105561663e-01
1.532900000000000063e+01 2.721799999999999997e+01 3.060699999999999932e+01 -7.275757999999999726e+00 2.127298841118629991e-01
1.533200000000000074e+01 2.188200000000000145e+01 6.660899999999999466e+01 -1.042032999999999987e+00 2.515247448383569617e-01
1.533300000000000018e+01 4.712800000000000011e+01 5.525399999999999778e+01 -2.909046999999999983e+01 -4.006579778251491419e-02
1.533300000000000018e+01 4.712800000000000011e+01 5.621800000000000352e+01 -3.744771000000000072e+01 9.001496067612181629e-02
1.533699999999999974e+01 4.693999999999999773e+01 5.769599999999999795e+01 3.490612000000000159e-01 8.769917261245729900e-02
1.534600000000000009e+01 9.054000000000000270e+00 3.560099999999999909e+01 1.668682999999999916e+00 2.907054430385486166e-01
1.536299999999999955e+01 1.818700000000000117e+01 2.540099999999999980e+01 2.217007999999999868e+00 4.271402818255244371e-01
1.536999999999999922e+01 1.015900000000000070e+01 3.192200000000000060e+01 5.399541000000000146e+00 1.975431739965811395e-01
1.537700000000000067e+01 1.146799999999999997e+01 4.831799999999999784e+01 4.177756999999999721e+00 2.071278902185769710e-01
1.539000000000000057e+01 2.092200000000000060e+01 6.577800000000000580e+01 -1.446100000000000030e+01 2.518841604829459291e-01
1.540000000000000036e+01 3.669400000000000261e+01 2.706800000000000139e+01 6.830512999999999835e+00 4.254347216591374270e-01
1.540000000000000036e+01 3.681199999999999761e+01 2.622100000000000009e+01 3.654930999999999930e+00 4.242192584756048213e-01
1.540000000000000036e+01 3.997599999999999909e+01 2.622100000000000009e+01 1.545474999999999932e+00 2.057456957281808274e-01
1.540000000000000036e+01 4.009400000000000119e+01 2.706800000000000139e+01 1.272134999999999927e+01 2.257988605286935235e-01
1.540099999999999980e+01 3.766700000000000159e+01 2.456400000000000006e+01 4.102986999999999718e+00 4.212917135291739390e-01
1.540099999999999980e+01 3.921699999999999875e+01 2.456400000000000006e+01 1.844275999999999982e+01 1.449214254084066067e-01
1.540600000000000058e+01 1.617800000000000082e+01 6.031900000000000261e+01 1.693512000000000128e+01 2.077674837252904694e-01
1.541300000000000026e+01 2.748100000000000165e+01 3.134700000000000131e+01 -1.105329000000000050e+01 1.657913744624173180e-01
1.541399999999999970e+01 2.211799999999999855e+01 3.476500000000000057e+01 3.301203999999999805e+00 2.865538392212202412e-01
1.541600000000000037e+01 3.249300000000000210e+01 6.382800000000000296e+01 -1.932212999999999958e+00 6.918390200317499350e-02
1.541600000000000037e+01 2.862600000000000122e+01 3.235699999999999932e+01 -3.790624999999999911e+00 1.659740835063134856e-01
1.541799999999999926e+01 1.979000000000000092e+00 4.751299999999999812e+01 5.796485999999999805e+00 2.068327827164072319e-01
1.541799999999999926e+01 1.979000000000000092e+00 4.906300000000000239e+01 2.236433999999999855e+01 2.068928764885468730e-01
1.541799999999999926e+01 2.936999999999999833e+00 4.751299999999999812e+01 5.162601999999999691e+01 2.068476803032996969e-01
1.541799999999999926e+01 2.936999999999999833e+00 4.906300000000000239e+01 3.904043999999999848e+00 2.069107596456322695e-01
1.541900000000000048e+01 1.935999999999999943e+01 2.466199999999999903e+01 -3.992462000000000177e+00 4.273379980371904141e-01
1.542200000000000060e+01 2.376899999999999835e+01 2.314199999999999946e+01 8.551384999999999792e+00 4.284163532023114729e-01
