-2.982199999999999918e+01 7.093399999999999750e+01 2.165599999999999881e+01 -6.549903000000000253e-01 -1.341238772692018855e-01
-2.981400000000000006e+01 4.241199999999999903e+01 3.612100000000000222e+01 1.275692000000000048e+00 -2.465501198628460185e-03
-2.981400000000000006e+01 4.262100000000000222e+01 3.538499999999999801e+01 6.793746000000000507e-01 -3.245824467377716408e-03
-2.980799999999999983e+01 6.554000000000000625e+01 2.549699999999999989e+01 -2.087219999999999942e+01 -5.633202338910300346e-03
-2.980399999999999849e+01 6.249099999999999966e+01 5.213100000000000023e+01 1.262992000000000026e+01 -2.525622690180957530e-01
-2.979400000000000048e+01 6.952599999999999625e+01 4.549900000000000233e+01 1.859510999999999914e+00 -2.584022927971719175e-01
-2.978099999999999881e+01 4.965500000000000114e+01 2.340500000000000114e+01 -1.837882999999999878e-01 -4.520847797053096848e-03
-2.977899999999999991e+01 6.576000000000000512e+01 2.474299999999999855e+01 -1.411492999999999931e+01 4.453330416758622540e-03
-2.977799999999999869e+01 5.400399999999999778e+01 2.333500000000000085e+01 2.965678000000000036e+00 -2.691947643161920513e-03
-2.977799999999999869e+01 4.885900000000000176e+01 5.127499999999999858e+01 6.996440000000000436e-01 -2.532540550402010981e-01
-2.976899999999999835e+01 6.739600000000000080e+01 3.990100000000000335e+01 -5.909335999999999700e+00 -2.557366593880827099e-01
-2.976599999999999824e+01 4.000900000000000034e+01 4.127100000000000080e+01 1.202105000000000068e+01 -3.403480876145775769e-01
-2.976300000000000168e+01 4.365699999999999648e+01 5.008899999999999864e+01 2.342761000000000138e+01 -2.537724581906684040e-01
-2.975900000000000034e+01 6.754500000000000171e+01 3.920799999999999841e+01 -8.867559999999999221e+00 -2.532366898016032986e-01
-2.975900000000000034e+01 4.409400000000000119e+01 5.094599999999999795e+01 1.956715000000000160e+01 -2.536907927825723941e-01
-2.974399999999999977e+01 5.239600000000000080e+01 5.149799999999999756e+01 6.109484000000000137e+00 -2.528977339121806223e-01
-2.974399999999999977e+01 4.015999999999999659e+01 4.226400000000000290e+01 3.670414000000000065e+00 -3.402765639934068331e-01
-2.974099999999999966e+01 4.842399999999999949e+01 2.531899999999999906e+01 5.224554000000000142e-01 -8.796434351654922046e-02
-2.973699999999999832e+01 4.149300000000000210e+01 3.708899999999999864e+01 4.128421999999999592e+00 -1.644943349266721503e-03
-2.973199999999999932e+01 5.114999999999999858e+01 2.253999999999999915e+01 3.047067000000000192e+00 -1.927325308336296731e-03
-2.971900000000000119e+01 4.534799999999999898e+01 5.178600000000000136e+01 3.084032999999999802e+00 -2.535430533330699787e-01
-2.971099999999999852e+01 6.919700000000000273e+01 2.165500000000000114e+01 4.522779000000000105e-01 -1.368662580159953068e-01
-2.970899999999999963e+01 6.358700000000000330e+01 3.094699999999999918e+01 2.863856000000000179e+00 -1.203294538069464847e-01
-2.970599999999999952e+01 4.339600000000000080e+01 2.916100000000000136e+01 2.221521999999999863e+01 7.493548643402615957e-03
-2.970599999999999952e+01 4.339600000000000080e+01 3.002599999999999980e+01 1.592599000000000053e+01 -9.357450280610036739e-03
-2.968700000000000117e+01 6.529000000000000625e+01 5.029500000000000171e+01 1.300542000000000087e+01 -1.406509504616887118e-01
-2.967800000000000082e+01 6.884000000000000341e+01 4.563700000000000045e+01 2.942301000000000055e+00 -2.584926883100741590e-01
-2.967099999999999937e+01 6.753300000000000125e+01 2.262699999999999889e+01 2.064921000000000006e+01 -1.400785656612748287e-01
-2.967000000000000171e+01 6.324300000000000210e+01 3.015599999999999881e+01 1.992360000000000042e+01 -1.217130414438663266e-01
-2.966600000000000037e+01 6.477400000000000091e+01 3.139199999999999946e+01 -3.372109000000000023e+00 -1.260207570349972106e-01
-2.966499999999999915e+01 6.277000000000000313e+01 2.689499999999999957e+01 4.685997000000000412e+00 -2.037496177361219560e-02
-2.966300000000000026e+01 6.890999999999999659e+01 2.082300000000000040e+01 2.337493999999999961e+00 -1.373123774115909412e-01
-2.966300000000000026e+01 5.978999999999999915e+01 5.224099999999999966e+01 1.901125000000000043e+01 -2.523593570567131961e-01
-2.965599999999999881e+01 4.103099999999999881e+01 4.348899999999999721e+01 6.782513000000000014e-01 -3.402026965235330214e-01
-2.965399999999999991e+01 6.471599999999999397e+01 2.084700000000000131e+01 2.872410000000000241e-01 -1.432976901905838873e-01
-2.965200000000000102e+01 6.298199999999999932e+01 2.925900000000000034e+01 2.658876000000000062e+01 -1.196531298451364717e-01
-2.965099999999999980e+01 6.802599999999999625e+01 2.075100000000000122e+01 1.370187999999999917e+01 -1.388020795111742089e-01
-2.965099999999999980e+01 6.802599999999999625e+01 2.230099999999999838e+01 2.400563999999999965e+01 -1.390732358734733665e-01
-2.964900000000000091e+01 4.790100000000000335e+01 5.119500000000000028e+01 -9.915447000000000344e+00 -2.533527053922203232e-01
-2.964199999999999946e+01 6.770799999999999841e+01 4.401299999999999812e+01 4.853495999999999810e+00 -2.614034354395285975e-01
-2.964199999999999946e+01 6.770799999999999841e+01 4.487899999999999778e+01 6.238559999999999661e-01 -2.597273344240850212e-01
-2.964199999999999946e+01 6.719400000000000261e+01 2.895200000000000173e+01 3.053093000000000057e+00 1.295950860763778190e-01
-2.964199999999999946e+01 6.898199999999999932e+01 2.895200000000000173e+01 -8.783906999999999687e-01 1.151976195330034897e-01
-2.964199999999999946e+01 6.284100000000000108e+01 2.213800000000000168e+01 9.049065000000000580e-02 1.822906489726369705e-02
-2.963899999999999935e+01 6.182699999999999818e+01 2.199500000000000099e+01 -2.930916999999999994e+00 1.557247169380615061e-02
-2.963400000000000034e+01 5.873700000000000188e+01 2.171900000000000119e+01 -2.767580000000000151e+00 9.059233427212109308e-03
-2.963299999999999912e+01 6.798199999999999932e+01 4.303000000000000114e+01 3.956548000000000087e+01 -2.635714254295868919e-01
-2.962800000000000011e+01 4.114999999999999858e+01 3.790699999999999648e+01 1.913595000000000113e+01 -8.999343236142573737e-04
-2.962800000000000011e+01 4.671900000000000119e+01 5.138100000000000023e+01 1.794689999999999941e+01 -2.534477062175775619e-01
-2.960999999999999943e+01 6.566200000000000614e+01 2.692099999999999937e+01 3.175265000000000032e-02 -2.352280165936786183e-02
-2.959400000000000119e+01 4.003099999999999881e+01 4.054200000000000159e+01 1.511551000000000045e+01 -3.404141787580473588e-01
-2.958899999999999864e+01 6.945000000000000284e+01 2.013200000000000145e+01 -2.464948999999999890e-01 -1.365717757984911129e-01
-2.958500000000000085e+01 5.599300000000000210e+01 2.318799999999999883e+01 -7.248580000000000301e-02 -5.915299239368139190e-04
-2.957100000000000151e+01 6.756300000000000239e+01 2.810200000000000031e+01 4.530428000000000233e-01 -4.654343866982944833e-02
-2.957100000000000151e+01 6.756300000000000239e+01 2.980199999999999960e+01 6.418703999999999965e+00 1.421874623408763694e-01
-2.957100000000000151e+01 6.861299999999999955e+01 2.810200000000000031e+01 5.286499000000000059e-01 1.400965933005435538e-01
-2.957100000000000151e+01 6.861299999999999955e+01 2.980199999999999960e+01 5.682121999999999673e+00 1.252611226524192323e-01
-2.955499999999999972e+01 7.021899999999999409e+01 4.968099999999999739e+01 1.124155999999999977e+01 -1.388833771438337250e-01
-2.955199999999999960e+01 6.627899999999999636e+01 3.512899999999999778e+01 5.390387999999999735e+00 -9.385977193663819218e-02
-2.954700000000000060e+01 7.023199999999999932e+01 4.862500000000000000e+01 8.436484000000000094e+00 -2.386368914062833024e-01
-2.954700000000000060e+01 5.738900000000000290e+01 2.240800000000000125e+01 -1.409755000000000091e+00 4.045206163213007321e-03
-2.953399999999999892e+01 4.905799999999999983e+01 2.417099999999999937e+01 -1.229900999999999911e+00 -6.123456619709810589e-03
-2.952799999999999869e+01 6.791899999999999693e+01 3.729299999999999926e+01 8.038389000000000451e+00 -4.221778034546309899e-02
-2.952799999999999869e+01 6.791899999999999693e+01 3.834300000000000352e+01 -8.843061000000000504e+00 -1.767686189476470882e-02
-2.952799999999999869e+01 5.203600000000000136e+01 2.255300000000000082e+01 6.116038000000000308e-01 -1.305303208648348010e-03
-2.951399999999999935e+01 5.273599999999999710e+01 2.290200000000000102e+01 -1.249211000000000071e+00 -1.834396403468562236e-03
-2.951399999999999935e+01 4.324199999999999733e+01 4.911599999999999966e+01 8.214814000000000505e+00 -3.397121581108164534e-01
-2.951000000000000156e+01 4.753099999999999881e+01 2.653999999999999915e+01 3.830964000000000036e-01 -8.829532587054383930e-02
-2.950700000000000145e+01 6.598499999999999943e+01 2.767800000000000082e+01 1.286394999999999955e+00 -3.422047976829771521e-02
-2.950700000000000145e+01 6.878000000000000114e+01 2.236299999999999955e+01 4.168669999999999654e+00 -1.375398589319755116e-01
-2.950100000000000122e+01 4.205799999999999983e+01 4.457099999999999795e+01 1.580526000000000053e+01 -3.401391616095622572e-01
-2.950100000000000122e+01 6.148299999999999699e+01 2.097299999999999898e+01 -1.134409999999999918e+01 2.036722879405403544e-02
-2.949699999999999989e+01 6.061099999999999710e+01 1.820200000000000173e+01 -4.135276000000000174e+00 -2.607874225021622472e-01
-2.949299999999999855e+01 6.734099999999999397e+01 5.014099999999999824e+01 1.077360000000000007e+01 -1.395025041624851359e-01
-2.947599999999999909e+01 6.390800000000000125e+01 2.105199999999999960e+01 -1.845266999999999991e+00 -1.440844333521257292e-01
-2.947500000000000142e+01 5.470400000000000063e+01 2.339300000000000068e+01 2.339978000000000058e-01 -2.120368288205806521e-03
-2.947299999999999898e+01 6.591599999999999682e+01 3.438700000000000045e+01 8.599771000000000498e+00 -1.040246300135453106e-01
-2.947100000000000009e+01 5.074799999999999756e+01 5.147800000000000153e+01 -1.406512999999999902e+00 -2.530738895093270768e-01
-2.947100000000000009e+01 4.272200000000000131e+01 2.785399999999999920e+01 2.569927999999999990e+00 6.989885457755503143e-03
-2.946999999999999886e+01 6.674299999999999500e+01 2.814600000000000080e+01 3.841446000000000027e-01 -4.357581633552599226e-02
-2.946300000000000097e+01 6.457899999999999352e+01 5.056799999999999784e+01 1.307698000000000071e+01 -1.418964137412877524e-01
-2.946300000000000097e+01 6.190100000000000335e+01 2.002100000000000080e+01 -9.525793999999999428e+00 -1.457917110477066069e-01
-2.945599999999999952e+01 6.881699999999999307e+01 5.056900000000000261e+01 1.382084000000000046e+01 -1.410469320046917052e-01
-2.945200000000000173e+01 4.272599999999999909e+01 4.834000000000000341e+01 1.232037000000000049e+01 -3.397944661818129708e-01
-2.944999999999999929e+01 4.042099999999999937e+01 3.947099999999999653e+01 7.863258000000000081e+00 -3.405158294876559077e-01
-2.944699999999999918e+01 4.239500000000000313e+01 3.098199999999999932e+01 -3.032508000000000078e-02 -8.068499373842944258e-03
-2.944000000000000128e+01 6.715900000000000603e+01 2.349099999999999966e+01 6.916573999999999778e+00 2.947233610821652430e-02
-2.943700000000000117e+01 5.677600000000000335e+01 5.274600000000000222e+01 1.326323999999999970e+01 -2.524378556670183738e-01
-2.943700000000000117e+01 5.847599999999999909e+01 5.274600000000000222e+01 1.717397000000000062e+01 -2.523550096363454953e-01
-2.943499999999999872e+01 4.877400000000000091e+01 2.469699999999999918e+01 1.167340000000000044e-01 -8.756124271287538119e-02
-2.943499999999999872e+01 4.422599999999999909e+01 2.597500000000000142e+01 3.537671000000000010e+00 -8.682595826209696388e-02
-2.942200000000000060e+01 6.955100000000000193e+01 2.233999999999999986e+01 1.655982000000000065e+00 -1.358278310779661435e-01
-2.941799999999999926e+01 5.638000000000000256e+01 2.244399999999999906e+01 -1.032520000000000104e+00 2.807024100504523518e-03
-2.941700000000000159e+01 5.440200000000000102e+01 5.137299999999999756e+01 6.697097000000000300e+00 -2.527513350124466207e-01
-2.941199999999999903e+01 4.116599999999999682e+01 3.257999999999999829e+01 -7.318244000000000415e-01 -6.283788901075550333e-03
-2.941199999999999903e+01 4.139300000000000068e+01 3.178099999999999881e+01 -2.573608000000000007e-01 -7.113364689798384703e-03
-2.941199999999999903e+01 4.139300000000000068e+01 3.337899999999999778e+01 -6.987643000000000326e-02 -5.457320315094220560e-03
-2.941199999999999903e+01 4.234199999999999875e+01 3.432800000000000296e+01 -6.608861999999999792e-01 -4.377785064518179350e-03
-2.941199999999999903e+01 4.255100000000000193e+01 3.506400000000000006e+01 -6.000130999999999659e-01 -3.529253837302214099e-03
-2.939699999999999847e+01 6.369599999999999795e+01 2.686299999999999955e+01 -3.177439999999999820e+00 -2.025859455330040679e-02
-2.939600000000000080e+01 5.505899999999999750e+01 5.150399999999999778e+01 3.781496000000000191e+00 -2.526858684024765878e-01
-2.939499999999999957e+01 6.629200000000000159e+01 2.068700000000000117e+01 6.257245000000000168e+00 -1.411750160304023338e-01
-2.939300000000000068e+01 7.005599999999999739e+01 4.802900000000000347e+01 1.387479000000000084e+01 -2.333072159779900900e-01
-2.939099999999999824e+01 7.046399999999999864e+01 1.960300000000000153e+01 -2.496834999999999916e+00 -1.350493402597111869e-01
-2.939099999999999824e+01 4.285099999999999909e+01 2.689600000000000080e+01 2.299831000000000181e+00 -8.684607732260173074e-02
-2.939000000000000057e+01 4.556900000000000261e+01 2.660300000000000153e+01 1.411087000000000025e+01 -8.754110829614923650e-02
-2.938899999999999935e+01 4.406799999999999784e+01 4.970000000000000284e+01 3.887476999999999805e+01 -2.537703377918485992e-01
-2.938500000000000156e+01 6.254999999999999716e+01 2.769300000000000139e+01 1.075125000000000064e+01 -1.116084279765095361e-01
-2.938500000000000156e+01 6.254999999999999716e+01 2.855900000000000105e+01 2.949747999999999948e+01 -1.148467303488347191e-01
-2.938400000000000034e+01 6.432500000000000284e+01 3.094699999999999918e+01 -1.043097999999999942e-01 -1.250654158336008126e-01
-2.937500000000000000e+01 6.814000000000000057e+01 4.557900000000000063e+01 1.815511000000000097e+00 -2.603039780949795157e-01
-2.936499999999999844e+01 4.208299999999999841e+01 4.636299999999999955e+01 7.976378000000000412e+00 -3.399845989652000577e-01
-2.936400000000000077e+01 5.938100000000000023e+01 1.908200000000000074e+01 -3.788879999999999804e+00 -2.615438945404681692e-01
-2.936400000000000077e+01 5.938100000000000023e+01 2.002199999999999847e+01 -3.690586000000000144e+00 1.813312289396658630e-02
-2.936400000000000077e+01 5.938100000000000023e+01 2.088700000000000045e+01 -3.286798000000000108e+00 1.466189933691348056e-02
-2.936400000000000077e+01 6.184100000000000108e+01 1.908200000000000074e+01 -6.570996000000000059e+00 -2.611145147446816694e-01
-2.936400000000000077e+01 5.278600000000000136e+01 5.134000000000000341e+01 8.727762000000000242e+00 -2.529011775445747512e-01
-2.936299999999999955e+01 5.029999999999999716e+01 2.261100000000000065e+01 -1.494070000000000120e-01 -2.178438554653887912e-03
-2.935999999999999943e+01 5.909000000000000341e+01 5.229899999999999949e+01 1.276327000000000034e+01 -2.523968429502748689e-01
-2.935999999999999943e+01 6.049000000000000199e+01 5.229899999999999949e+01 1.025234999999999985e+01 -2.524189450628818165e-01
-2.935399999999999920e+01 4.223199999999999932e+01 3.670300000000000296e+01 2.999010000000000176e+00 -1.769646103235856648e-03
-2.935200000000000031e+01 7.169400000000000261e+01 2.042599999999999838e+01 -1.139666000000000068e+00 -1.319425686466443037e-01
-2.935200000000000031e+01 7.169400000000000261e+01 2.136599999999999966e+01 -3.299217000000000066e+00 -1.310039499989534284e-01
-2.934600000000000009e+01 6.625100000000000477e+01 2.434600000000000009e+01 1.055344000000000015e+01 1.368638938972070208e-02
-2.934600000000000009e+01 4.233400000000000318e+01 4.542999999999999972e+01 8.024558000000000746e+00 -3.400757968513028473e-01
-2.934499999999999886e+01 6.332000000000000028e+01 2.136299999999999955e+01 -1.918662000000000090e+00 2.630539601236284858e-02
-2.934499999999999886e+01 4.942300000000000182e+01 5.192499999999999716e+01 -1.123733000000000093e+00 -2.531751506500771187e-01
-2.933399999999999963e+01 6.564400000000000546e+01 3.350900000000000034e+01 2.201065999999999967e+00 -1.138800275891140162e-01
-2.932600000000000051e+01 6.402100000000000080e+01 3.024699999999999989e+01 1.825917999999999930e+00 -1.261132597952498435e-01
-2.932499999999999929e+01 4.222399999999999665e+01 4.744400000000000261e+01 1.195471000000000039e+01 -3.398884606911921624e-01
-2.932400000000000162e+01 4.741899999999999693e+01 5.132300000000000040e+01 5.789252999999999760e-02 -2.533986648609903858e-01
-2.932300000000000040e+01 6.196600000000000108e+01 5.272699999999999676e+01 1.861351000000000155e+01 -2.525024627576349934e-01
-2.932000000000000028e+01 4.077000000000000313e+01 3.860199999999999676e+01 1.813093999999999895e+01 -2.652953845128054322e-01
-2.931500000000000128e+01 6.760099999999999909e+01 4.183500000000000085e+01 -1.203781999999999908e+00 -2.630027125149810296e-01
-2.931500000000000128e+01 6.860899999999999466e+01 2.014099999999999824e+01 1.284378000000000020e+00 -1.375319178985729696e-01
-2.931099999999999994e+01 6.478799999999999670e+01 2.697800000000000153e+01 -8.919327000000000227e-01 -2.232514859946866173e-02
-2.930399999999999849e+01 5.215299999999999869e+01 2.209299999999999997e+01 -1.037760999999999934e+00 1.755456793417787815e-04
-2.930199999999999960e+01 7.005700000000000216e+01 4.705700000000000216e+01 1.468060000000000009e+01 -2.590870132239208590e-01
-2.928000000000000114e+01 4.486899999999999977e+01 5.124199999999999733e+01 1.280103000000000080e+01 -2.536218989536461188e-01
-2.926899999999999835e+01 6.982599999999999341e+01 4.625099999999999767e+01 7.301395000000000302e+00 -2.608917877413906017e-01
-2.926300000000000168e+01 6.369200000000000017e+01 2.948699999999999832e+01 -2.743459000000000092e+00 -1.241898507292742426e-01
-2.925400000000000134e+01 6.545799999999999841e+01 2.066900000000000048e+01 4.236704999999999721e+00 -1.421937810375681899e-01
-2.925300000000000011e+01 6.509099999999999397e+01 2.767800000000000082e+01 2.247310999999999837e+00 -3.117590123363086357e-02
-2.925199999999999889e+01 4.833400000000000318e+01 5.168599999999999994e+01 -1.538956999999999908e+00 -2.532962083259526764e-01
-2.925199999999999889e+01 4.254200000000000159e+01 2.858399999999999963e+01 1.275497000000000014e+01 7.429731951478511613e-03
-2.924699999999999989e+01 5.316899999999999693e+01 2.220200000000000173e+01 -1.032344999999999935e+01 6.907167408406068160e-04
-2.924299999999999855e+01 4.796399999999999864e+01 2.583999999999999986e+01 1.075236999999999998e+00 -8.794715529996696701e-02
-2.923999999999999844e+01 7.065399999999999636e+01 4.878000000000000114e+01 1.715296999999999983e+01 -1.630897807555986845e-01
-2.923999999999999844e+01 6.637000000000000455e+01 2.875000000000000000e+01 2.509962999999999944e+00 -1.396777929662924855e-01
-2.923799999999999955e+01 6.692199999999999704e+01 3.604500000000000171e+01 8.671079000000000647e+00 -7.605924428127339154e-02
-2.922899999999999920e+01 6.023299999999999699e+01 1.642800000000000082e+01 -1.241314000000000028e+01 -2.599531544753538315e-01
-2.922299999999999898e+01 4.054099999999999682e+01 4.309199999999999875e+01 3.876665000000000028e+00 -3.402529771854322371e-01
-2.922299999999999898e+01 4.582200000000000273e+01 5.134700000000000131e+01 2.842594000000000065e+00 -2.535385463922266713e-01
-2.921499999999999986e+01 4.453300000000000125e+01 5.046699999999999875e+01 4.817797999999999803e+01 -2.536928192120234682e-01
-2.921499999999999986e+01 4.299900000000000233e+01 2.959400000000000119e+01 2.231378000000000128e+01 -9.641134131144122460e-03
-2.921399999999999864e+01 6.715699999999999648e+01 2.747599999999999909e+01 -1.117331000000000074e+00 -3.292038463248544294e-02
-2.921199999999999974e+01 6.712099999999999511e+01 2.396600000000000108e+01 1.252806999999999960e+01 2.454542085245139255e-02
-2.921199999999999974e+01 6.754699999999999704e+01 2.020700000000000074e+01 2.569838999999999984e+00 -1.391823126325789084e-01
-2.921099999999999852e+01 6.966299999999999670e+01 5.058100000000000307e+01 2.010255000000000081e+01 -1.422347816353248251e-01
-2.921099999999999852e+01 7.037399999999999523e+01 2.231099999999999994e+01 -1.357815999999999912e+00 -1.334250606584388987e-01
-2.920899999999999963e+01 5.846099999999999852e+01 2.161799999999999855e+01 -3.187321000000000182e-01 9.743689365220907159e-03
-2.920499999999999829e+01 7.092499999999999716e+01 4.954699999999999704e+01 4.229936000000000007e+01 6.653147789884242269e-02
-2.919900000000000162e+01 5.935199999999999676e+01 3.102499999999999858e+01 3.229901999999999873e+01 -1.025841519128170010e-01
-2.919600000000000151e+01 6.414600000000000080e+01 5.126800000000000068e+01 9.316010999999999598e-01 -1.436357816565630996e-01
-2.919600000000000151e+01 4.185000000000000142e+01 3.764000000000000057e+01 7.340366000000000390e+00 -8.526465445771305501e-04
-2.919200000000000017e+01 5.225800000000000267e+01 5.119299999999999784e+01 8.703338000000000463e+00 -2.529739308287552446e-01
-2.918900000000000006e+01 6.668600000000000705e+01 2.951000000000000156e+01 4.384380000000000166e+00 1.505797535611082816e-01
-2.918299999999999983e+01 6.598999999999999488e+01 5.002700000000000102e+01 1.199865999999999921e+01 -1.403122733788582377e-01
-2.918199999999999861e+01 6.545999999999999375e+01 2.852799999999999869e+01 7.219223000000000390e+00 -1.309069004962521432e-01
-2.918199999999999861e+01 6.651000000000000512e+01 2.682799999999999940e+01 -1.896529999999999883e-01 -2.117831314020255859e-02
-2.917999999999999972e+01 4.480400000000000205e+01 4.970000000000000284e+01 2.505527999999999977e+01 -2.537191509445492210e-01
-2.917899999999999849e+01 4.282699999999999818e+01 3.028200000000000003e+01 8.084863000000000355e+00 -8.849686251098977385e-03
-2.916700000000000159e+01 5.976800000000000068e+01 1.825499999999999901e+01 -6.371122999999999870e+00 -2.610748193554129348e-01
-2.916700000000000159e+01 6.145400000000000063e+01 1.825499999999999901e+01 -8.402347999999999928e+00 -2.607084234810893575e-01
-2.916199999999999903e+01 6.531699999999999307e+01 3.185500000000000043e+01 -1.156600000000000072e+01 -1.270993297123127752e-01
-2.915399999999999991e+01 6.520399999999999352e+01 3.097299999999999898e+01 -2.201799999999999979e+00 -1.317294201357109840e-01
-2.914799999999999969e+01 6.899599999999999511e+01 1.939699999999999847e+01 1.796186000000000060e+00 -1.371836006807126696e-01
-2.914000000000000057e+01 7.058899999999999864e+01 5.032200000000000273e+01 1.403500999999999976e+01 -1.426558213166112254e-01
-2.912900000000000134e+01 6.010499999999999687e+01 1.754200000000000159e+01 -8.584039999999999893e+00 -2.606139852871863782e-01
-2.912300000000000111e+01 4.661699999999999733e+01 2.663400000000000034e+01 2.587984000000000062e+00 -8.785551331323239455e-02
-2.912199999999999989e+01 4.450099999999999767e+01 4.900000000000000000e+01 1.229806999999999917e+01 -3.397494335058760528e-01
-2.910300000000000153e+01 6.545099999999999341e+01 3.268900000000000006e+01 -2.028293999999999997e+01 -1.210504613036222921e-01
-2.909700000000000131e+01 4.140500000000000114e+01 4.390400000000000347e+01 2.775288999999999895e+00 -3.402135756124322064e-01
-2.909499999999999886e+01 6.106700000000000017e+01 1.788700000000000045e+01 -7.285325000000000273e+00 -2.605940355899243888e-01
-2.909299999999999997e+01 5.575900000000000034e+01 5.156300000000000239e+01 1.931756000000000029e+01 -2.526573865322810364e-01
-2.908999999999999986e+01 6.808799999999999386e+01 2.750600000000000023e+01 -4.634292999999999885e-01 -3.496009601877320822e-02
-2.908999999999999986e+01 6.808799999999999386e+01 3.039799999999999969e+01 4.424858999999999654e+00 1.401594678816399930e-01
-2.908699999999999974e+01 6.796699999999999875e+01 5.049799999999999756e+01 9.847986999999999824e+00 -1.411898857963545251e-01
-2.907900000000000063e+01 5.359199999999999875e+01 5.130299999999999727e+01 1.505253000000000085e+01 -2.528549507858418033e-01
-2.907900000000000063e+01 6.581799999999999784e+01 2.504599999999999937e+01 -1.315522999999999954e+01 4.249786937070288741e-03
-2.907900000000000063e+01 6.581799999999999784e+01 2.591199999999999903e+01 -5.351501999999999981e+00 -7.496923726259119639e-03
-2.907799999999999940e+01 5.427199999999999847e+01 2.290200000000000102e+01 -3.259805000000000064e+00 -3.526683954551807464e-04
-2.907600000000000051e+01 6.372299999999999898e+01 5.199199999999999733e+01 -5.986658000000000257e+00 -1.451229426270378153e-01
-2.907499999999999929e+01 6.829999999999999716e+01 2.292399999999999949e+01 1.330349000000000004e+01 -1.382033746659043494e-01
-2.907400000000000162e+01 5.031499999999999773e+01 5.196900000000000119e+01 -1.109051000000000009e+01 -2.531017206752781967e-01
-2.907300000000000040e+01 4.369599999999999795e+01 4.838100000000000023e+01 4.931790999999999592e+00 -3.398198929422958647e-01
-2.906800000000000139e+01 5.762599999999999767e+01 5.281700000000000017e+01 9.870262999999999565e+00 -2.524344275981061370e-01
-2.906599999999999895e+01 4.337599999999999767e+01 2.604599999999999937e+01 3.509039000000000019e+00 -8.653360370817093916e-02
-2.906599999999999895e+01 4.507600000000000051e+01 2.604599999999999937e+01 5.132539999999999658e+00 -8.700317538412470630e-02
-2.906200000000000117e+01 7.122400000000000375e+01 1.966600000000000037e+01 -4.579697999999999602e+00 -1.328905977471115940e-01
-2.906200000000000117e+01 7.122400000000000375e+01 2.212600000000000122e+01 1.251044000000000045e+00 -1.307074561733948537e-01
-2.906099999999999994e+01 5.532600000000000051e+01 2.278900000000000148e+01 -6.035620999999999903e-01 9.413081004026508953e-04
-2.905999999999999872e+01 6.664100000000000534e+01 4.987400000000000233e+01 1.161872999999999934e+01 -1.398528572292559169e-01
-2.904599999999999937e+01 6.946299999999999386e+01 2.842699999999999960e+01 -5.905249000000000192e-01 1.296169135849798426e-01
-2.904599999999999937e+01 6.946299999999999386e+01 2.947700000000000031e+01 -1.704641000000000073e+00 9.838903580210835165e-02
-2.904200000000000159e+01 6.277499999999999858e+01 2.045700000000000074e+01 -3.017733999999999916e+00 -1.449799558186093407e-01
-2.903699999999999903e+01 6.076400000000000290e+01 1.718700000000000117e+01 -5.795194999999999652e+00 -2.602671486241904253e-01
-2.901999999999999957e+01 5.396800000000000352e+01 2.220200000000000173e+01 -6.593403999999999598e+00 1.618099301739928412e-03
-2.901800000000000068e+01 6.904900000000000659e+01 4.588900000000000290e+01 3.589920999999999918e+00 -2.627999316932309037e-01
-2.900199999999999889e+01 5.943399999999999750e+01 1.642800000000000082e+01 -3.943761999999999990e+00 -2.602085220502679541e-01
-2.900199999999999889e+01 6.103199999999999648e+01 1.642800000000000082e+01 -9.958071999999999591e+00 -2.597587207920100116e-01
-2.898999999999999844e+01 5.861500000000000199e+01 3.102499999999999858e+01 3.314063999999999766e+01 -1.006917149858261445e-01
-2.898999999999999844e+01 6.008800000000000097e+01 3.102499999999999858e+01 3.124314999999999998e+01 -1.045117683655241575e-01
-2.898799999999999955e+01 6.452899999999999636e+01 2.830499999999999972e+01 3.937901000000000096e+00 -1.233089034874291501e-01
-2.898300000000000054e+01 5.779800000000000182e+01 2.174699999999999989e+01 -5.517227000000000103e-01 8.328776769067607749e-03
-2.898100000000000165e+01 6.752400000000000091e+01 3.681000000000000227e+01 6.404156000000000404e+00 -5.489325124294640312e-02
-2.898100000000000165e+01 6.752400000000000091e+01 3.882600000000000051e+01 -1.360303000000000040e+01 -2.539699514691207693e-01
-2.896300000000000097e+01 6.910699999999999932e+01 2.292399999999999949e+01 7.128187999999999747e+00 -1.363448266525982278e-01
-2.895700000000000074e+01 5.269899999999999807e+01 2.144200000000000017e+01 -1.555725999999999942e+00 2.651791583950053807e-03
-2.895700000000000074e+01 5.363900000000000290e+01 2.144200000000000017e+01 -1.718852000000000046e+00 3.572197233261166505e-03
-2.895400000000000063e+01 6.111599999999999966e+01 5.265599999999999881e+01 2.185369000000000028e+01 -2.524861025435341522e-01
-2.895400000000000063e+01 6.281600000000000250e+01 5.265599999999999881e+01 1.294692000000000043e+01 -2.427999212552565123e-01
-2.895400000000000063e+01 6.358299999999999841e+01 2.041400000000000148e+01 -2.770083000000000073e+00 -1.441899593003285740e-01
-2.895200000000000173e+01 6.325000000000000000e+01 2.742599999999999838e+01 1.014137999999999984e+01 -2.405393061669583790e-02
-2.895200000000000173e+01 6.325000000000000000e+01 2.882600000000000051e+01 1.371550000000000047e+01 -1.187149577859190480e-01
-2.895200000000000173e+01 6.411499999999999488e+01 2.742599999999999838e+01 5.831231999999999971e+00 -2.540972110263544151e-02
-2.895200000000000173e+01 6.411499999999999488e+01 2.882600000000000051e+01 5.457194000000000322e+00 -1.235199461283984917e-01
-2.894999999999999929e+01 6.481499999999999773e+01 3.047800000000000153e+01 -5.223537000000000319e+00 -1.307526986455343487e-01
-2.894999999999999929e+01 6.568000000000000682e+01 2.907799999999999940e+01 4.387908999999999615e+00 -1.359333966490723078e-01
-2.894300000000000139e+01 4.182699999999999818e+01 3.128999999999999915e+01 -1.582163999999999904e+00 -7.575649457725661465e-03
-2.894300000000000139e+01 4.182699999999999818e+01 3.386999999999999744e+01 -2.331436000000000064e+00 -4.824641483784206444e-03
-2.894200000000000017e+01 6.743999999999999773e+01 4.444599999999999795e+01 -2.638542000000000165e+00 -2.648924414505840486e-01
-2.894200000000000017e+01 6.764900000000000091e+01 4.518200000000000216e+01 1.332750000000000101e+00 -2.635778541446030521e-01
-2.893900000000000006e+01 5.976299999999999812e+01 1.566799999999999926e+01 -3.625563000000000091e+00 -2.597626004701844016e-01
-2.893900000000000006e+01 6.070300000000000296e+01 1.566799999999999926e+01 -4.196752000000000038e+00 -2.594734060126679398e-01
-2.893700000000000117e+01 4.831300000000000239e+01 2.521799999999999997e+01 5.803266000000000258e-01 -8.756555719714423369e-02
-2.893700000000000117e+01 5.690500000000000114e+01 2.184799999999999898e+01 -1.118355000000000044e-02 6.485700487944917603e-03
-2.893299999999999983e+01 6.771399999999999864e+01 4.259700000000000131e+01 6.243354000000000070e+00 -2.665365737158612025e-01
-2.893100000000000094e+01 5.891899999999999693e+01 3.032499999999999929e+01 3.015645999999999916e+01 -1.036387154708039160e-01
-2.893100000000000094e+01 5.891899999999999693e+01 3.172500000000000142e+01 3.663371000000000066e+01 -9.887375159572572847e-02
-2.893100000000000094e+01 5.978399999999999892e+01 3.032499999999999929e+01 3.145710000000000051e+01 -1.060522497279546006e-01
-2.893100000000000094e+01 5.978399999999999892e+01 3.172500000000000142e+01 3.135234000000000165e+01 -1.008813041588324105e-01
-2.893100000000000094e+01 6.782099999999999795e+01 2.369900000000000162e+01 9.958059999999999690e+00 3.592134283357686225e-02
-2.892899999999999849e+01 5.109300000000000352e+01 2.218299999999999983e+01 2.153511999999999926e-01 -3.913891780117164407e-04
-2.892800000000000082e+01 4.141700000000000159e+01 3.834000000000000341e+01 7.553109000000000073e+00 -2.324538703115245405e-04
-2.892800000000000082e+01 4.785199999999999676e+01 5.181400000000000006e+01 -1.774971000000000076e+00 -2.533453716486219753e-01
-2.892000000000000171e+01 4.652199999999999847e+01 5.140500000000000114e+01 -4.556351000000000151e-02 -2.534850522634437553e-01
-2.891799999999999926e+01 6.710899999999999466e+01 4.022399999999999665e+01 -1.428074999999999939e+01 -2.596158690319374518e-01
-2.891799999999999926e+01 6.731799999999999784e+01 4.096000000000000085e+01 -4.541536999999999935e+00 -2.616592599175953104e-01
-2.891799999999999926e+01 4.901100000000000279e+01 5.267000000000000171e+01 -5.517487000000000030e+00 -2.531921233917820979e-01
-2.891799999999999926e+01 4.995100000000000051e+01 5.267000000000000171e+01 -9.214586000000000610e+00 -2.531027729172149465e-01
-2.891600000000000037e+01 4.523299999999999699e+01 5.022500000000000142e+01 1.652251000000000047e+01 -2.536593964644188182e-01
-2.890700000000000003e+01 6.630100000000000193e+01 3.032799999999999940e+01 2.107061999999999991e+00 1.628882166383877339e-01
-2.890299999999999869e+01 7.077800000000000580e+01 4.825999999999999801e+01 7.810937000000000019e+00 -1.641809895425530574e-01
-2.890200000000000102e+01 6.756199999999999761e+01 3.781799999999999784e+01 -1.435035000000000061e+01 -2.992787383865885831e-02
-2.889799999999999969e+01 6.754099999999999682e+01 4.362599999999999767e+01 2.154958999999999847e+00 -2.669597765756759333e-01
-2.889399999999999835e+01 6.294599999999999795e+01 2.812600000000000122e+01 2.427206999999999937e+01 -1.143660416222610915e-01
-2.889399999999999835e+01 3.983500000000000085e+01 4.173899999999999721e+01 1.453267000000000087e+00 -3.403602754300351085e-01
-2.889399999999999835e+01 4.008899999999999864e+01 4.084499999999999886e+01 9.498276999999999859e+00 -3.404353778089197480e-01
-2.889399999999999835e+01 4.008899999999999864e+01 4.263300000000000267e+01 3.801663000000000014e+00 -3.402988231108436401e-01
-2.889199999999999946e+01 6.451200000000000045e+01 2.977799999999999869e+01 -3.284914000000000112e+00 -1.305298767288330386e-01
-2.889199999999999946e+01 6.598399999999999466e+01 2.977799999999999869e+01 2.024154999999999927e+00 1.603790218225450426e-01
-2.888800000000000168e+01 5.155799999999999983e+01 5.125200000000000244e+01 2.675858999999999988e+00 -2.530513413369554487e-01
-2.887600000000000122e+01 6.677200000000000557e+01 2.027199999999999847e+01 5.741610000000000325e-01 -1.401076197054972050e-01
-2.886700000000000088e+01 6.729800000000000182e+01 3.945600000000000307e+01 -7.545016000000000389e+00 -2.568694718302464430e-01
-2.886299999999999955e+01 6.241899999999999693e+01 1.948499999999999943e+01 -5.976161000000000278e+00 -2.614654364329841996e-01
-2.884499999999999886e+01 6.724200000000000443e+01 3.041000000000000014e+01 3.350608999999999948e+00 1.529447623026721215e-01
-2.884100000000000108e+01 5.975699999999999790e+01 5.197899999999999920e+01 1.668719000000000108e+01 -2.525084695714173155e-01
-2.883999999999999986e+01 6.584900000000000375e+01 3.060000000000000142e+01 1.308198999999999890e+00 -1.393266913928661865e-01
-2.883800000000000097e+01 4.935900000000000176e+01 2.387500000000000000e+01 1.061796999999999914e-02 -4.914634702877416182e-03
-2.883800000000000097e+01 4.970400000000000063e+01 2.309199999999999875e+01 -5.057348999999999872e-02 -3.082533197718448099e-03
-2.882799999999999940e+01 6.896200000000000330e+01 2.750499999999999901e+01 1.812789999999999901e+00 -3.518432326136612665e-02
-2.882499999999999929e+01 6.465699999999999648e+01 2.033500000000000085e+01 -1.708677999999999919e+00 -1.429776601839243544e-01
-2.881400000000000006e+01 5.627199999999999847e+01 5.183700000000000330e+01 1.263006999999999991e+01 -2.526269690269682955e-01
-2.880799999999999983e+01 6.873300000000000409e+01 2.362399999999999878e+01 3.044725000000000126e+00 -1.377741761739224580e-01
-2.879400000000000048e+01 5.489300000000000068e+01 2.208899999999999864e+01 -7.167386999999999730e+00 3.172552539695421090e-03
-2.875600000000000023e+01 5.885900000000000176e+01 5.192600000000000193e+01 1.562838999999999956e+01 -2.525240102263423547e-01
-2.875100000000000122e+01 6.529000000000000625e+01 5.029500000000000171e+01 4.715278999999999998e-01 -1.417436823312644423e-01
-2.875000000000000000e+01 6.751500000000000057e+01 2.703699999999999903e+01 1.013219000000000092e+00 -2.318715690063338081e-02
-2.872599999999999909e+01 7.082399999999999807e+01 1.922599999999999909e+01 -3.225678999999999963e+00 -1.334910588424835232e-01
-2.872100000000000009e+01 6.893800000000000239e+01 3.032700000000000173e+01 9.214013999999999538e-02 1.234697300404501707e-01
-2.871600000000000108e+01 6.810999999999999943e+01 1.959299999999999997e+01 1.315932000000000102e+00 -1.379951827763983285e-01
-2.871199999999999974e+01 4.228300000000000125e+01 3.052899999999999991e+01 1.718317000000000094e+00 -8.398149322844649170e-03
-2.870100000000000051e+01 7.010999999999999943e+01 5.086599999999999966e+01 1.475165999999999933e+01 -1.445122586427321221e-01
-2.869900000000000162e+01 5.224699999999999989e+01 5.066299999999999670e+01 8.133667000000000868e+00 -2.530554503702987512e-01
-2.868499999999999872e+01 6.368200000000000216e+01 2.812600000000000122e+01 1.249647000000000041e+01 -3.104725065643479387e-02
-2.868299999999999983e+01 6.524800000000000466e+01 2.977799999999999869e+01 -1.161907999999999941e+00 -2.996628271946469996e-02
-2.867699999999999960e+01 4.326299999999999812e+01 4.789000000000000057e+01 1.884287999999999963e+00 -3.399008863865518038e-01
-2.867200000000000060e+01 5.896699999999999875e+01 1.955199999999999960e+01 -4.339061000000000057e+00 2.005113246335503072e-02
-2.867200000000000060e+01 5.896699999999999875e+01 2.045899999999999963e+01 -4.385728000000000293e+00 1.671099753959448542e-02
-2.867099999999999937e+01 6.571399999999999864e+01 3.142200000000000060e+01 -6.586701000000000361e-02 -1.332832771390410620e-01
-2.866700000000000159e+01 6.952100000000000080e+01 1.880099999999999838e+01 2.684747999999999912e+00 -1.363233988163304322e-01
-2.866600000000000037e+01 5.605700000000000216e+01 2.181899999999999906e+01 -1.280218000000000078e+00 5.720131801635478311e-03
-2.866100000000000136e+01 7.136400000000000432e+01 4.906799999999999784e+01 4.120891999999999911e+01 -1.678589575661145195e-01
-2.866100000000000136e+01 7.136400000000000432e+01 5.002600000000000335e+01 7.542194999999999538e+01 5.693979248280369582e-02
-2.865899999999999892e+01 4.701800000000000068e+01 5.176299999999999812e+01 -1.332441999999999993e+01 -2.534318956330890438e-01
-2.865399999999999991e+01 4.228999999999999915e+01 3.700600000000000023e+01 -1.605963000000000029e+00 -1.274040726996696505e-03
-2.865399999999999991e+01 4.249900000000000233e+01 3.627000000000000313e+01 -1.422846999999999973e+01 -2.026043497282026262e-03
-2.865399999999999991e+01 4.260999999999999943e+01 3.547200000000000131e+01 -1.416357000000000088e+00 -2.897092145628046064e-03
-2.865299999999999869e+01 4.135799999999999699e+01 3.204899999999999949e+01 -4.564921000000000118e-01 -6.696535994214961214e-03
-2.865299999999999869e+01 4.135799999999999699e+01 3.311099999999999710e+01 -1.022513999999999923e+00 -5.594203218239402961e-03
-2.865099999999999980e+01 4.052300000000000324e+01 3.986699999999999733e+01 8.582503000000000881e+00 -2.652401474444231466e-01
-2.864600000000000080e+01 5.929800000000000182e+01 1.769500000000000028e+01 -9.145113000000000270e+00 -2.609769595314167523e-01
-2.863400000000000034e+01 7.053199999999999648e+01 2.253999999999999915e+01 1.773555999999999955e+01 -1.313715050465113221e-01
-2.862300000000000111e+01 6.598699999999999477e+01 3.401800000000000068e+01 1.826338000000000150e+01 -1.084232330243304343e-01
-2.862300000000000111e+01 6.624099999999999966e+01 3.491199999999999903e+01 2.416507000000000005e+01 -9.550464829895009833e-02
-2.862000000000000099e+01 4.233700000000000330e+01 2.986299999999999955e+01 4.026123000000000118e+00 -9.094557732965805746e-03
-2.861199999999999832e+01 4.205400000000000205e+01 4.497599999999999909e+01 4.012451000000000212e-01 -3.401665883524805367e-01
-2.860800000000000054e+01 5.506400000000000006e+01 5.126299999999999812e+01 1.047536000000000023e+01 -2.527853674420397767e-01
-2.860600000000000165e+01 6.448300000000000409e+01 5.170199999999999818e+01 -2.323882000000000048e+01 -1.447224995842354978e-01
-2.860600000000000165e+01 5.033500000000000085e+01 2.222899999999999920e+01 -2.552768999999999733e-01 -6.655687728451190185e-04
-2.859799999999999898e+01 4.242300000000000182e+01 2.732999999999999829e+01 1.836681999999999926e+00 6.940009207121326622e-03
-2.859799999999999898e+01 5.306700000000000017e+01 5.070700000000000074e+01 5.363280999999999921e+01 -2.529918154072424707e-01
-2.859600000000000009e+01 4.214200000000000301e+01 2.800600000000000023e+01 7.072779999999999845e+00 7.324436328650591257e-03
-2.859600000000000009e+01 4.214200000000000301e+01 2.905600000000000094e+01 1.124635999999999925e+01 7.843476722011185481e-03
-2.859199999999999875e+01 7.175700000000000500e+01 2.009700000000000131e+01 -1.155888999999999989e+01 -1.293867525348636471e-01
-2.859199999999999875e+01 7.175700000000000500e+01 2.169500000000000028e+01 -5.621089999999999698e+00 -1.269094051479779106e-01
-2.859199999999999875e+01 7.198399999999999466e+01 2.089600000000000080e+01 -2.347729999999999961e+01 -1.271445329838037097e-01
-2.858800000000000097e+01 6.621500000000000341e+01 2.547899999999999920e+01 9.407474999999999588e-01 2.073563468790585399e-03
-2.858800000000000097e+01 6.933700000000000330e+01 2.488800000000000168e+01 3.287193999999999949e+00 3.155635432413443631e-02
-2.858699999999999974e+01 5.710099999999999909e+01 5.222099999999999653e+01 1.522156000000000020e+01 -2.525735366665816106e-01
-2.858699999999999974e+01 5.815100000000000335e+01 5.222099999999999653e+01 2.248214000000000112e+01 -2.525332158213432487e-01
-2.858200000000000074e+01 5.887599999999999767e+01 1.848300000000000054e+01 -5.212282000000000082e+00 -2.614812887584204715e-01
-2.858200000000000074e+01 6.617300000000000182e+01 5.004099999999999682e+01 8.155950999999999951e+00 -1.411055870186870287e-01
-2.857900000000000063e+01 4.183200000000000074e+01 4.421999999999999886e+01 5.982572000000000223e+00 -3.402317464037027395e-01
-2.857700000000000173e+01 6.954800000000000182e+01 2.362399999999999878e+01 6.388906999999999670e+00 -1.356025404425594549e-01
-2.857100000000000151e+01 6.669499999999999318e+01 2.481200000000000117e+01 1.027194000000000074e+01 1.410446376198247129e-02
-2.857100000000000151e+01 6.669499999999999318e+01 2.621199999999999974e+01 3.506200000000000205e+00 -8.086783043503168247e-03
-2.857000000000000028e+01 5.187199999999999989e+01 2.163899999999999935e+01 -1.541879999999999917e+00 1.816726861050124058e-03
-2.857000000000000028e+01 5.446600000000000108e+01 2.163899999999999935e+01 -8.509427000000000518e+00 4.365032122533607853e-03
-2.857000000000000028e+01 4.209000000000000341e+01 4.596099999999999852e+01 -2.372244999999999937e+00 -3.400805716611970952e-01
-2.856800000000000139e+01 5.894299999999999784e+01 1.689699999999999847e+01 -4.511795000000000222e+00 -2.606412237102053164e-01
-2.856200000000000117e+01 6.734099999999999397e+01 5.014099999999999824e+01 1.709290000000000020e+01 -1.411065545956425304e-01
-2.856200000000000117e+01 6.881699999999999307e+01 5.082300000000000040e+01 1.002303000000000033e+01 -1.433068000593138991e-01
-2.855799999999999983e+01 5.409000000000000341e+01 5.084199999999999875e+01 1.602759000000000000e+01 -2.529027049936988791e-01
-2.854799999999999827e+01 4.813499999999999801e+01 5.241700000000000159e+01 -3.637818000000000218e+00 -2.533038112073068837e-01
-2.854100000000000037e+01 4.278000000000000114e+01 2.652700000000000102e+01 3.671028999999999876e+00 6.481512154058602718e-03
-2.854100000000000037e+01 4.422599999999999909e+01 2.572100000000000009e+01 2.431470000000000020e+00 -8.645813705949961792e-02
-2.854100000000000037e+01 4.570199999999999818e+01 2.640299999999999869e+01 1.540278999999999954e+01 -8.722491392048663250e-02
-2.854100000000000037e+01 4.710199999999999676e+01 2.640299999999999869e+01 1.004783999999999899e+00 -8.771509190913870380e-02
-2.853500000000000014e+01 5.935199999999999676e+01 2.983399999999999963e+01 3.372319999999999851e+01 -3.758390597883137871e-03
-2.853500000000000014e+01 5.935199999999999676e+01 3.221600000000000108e+01 2.927861000000000047e+01 -9.761889441849559701e-02
-2.852599999999999980e+01 4.230100000000000193e+01 3.455499999999999972e+01 -1.967718999999999996e+00 -3.947477939972241119e-03
-2.852599999999999980e+01 5.316899999999999693e+01 2.090899999999999892e+01 -1.707845999999999975e+00 4.979591904349194714e-03
-2.851999999999999957e+01 7.035500000000000398e+01 4.750500000000000256e+01 1.882619000000000042e+01 -2.637594352441281487e-01
-2.851800000000000068e+01 6.545799999999999841e+01 2.046000000000000085e+01 -1.467197000000000084e+00 -1.418219772243864418e-01
-2.851200000000000045e+01 6.738899999999999579e+01 2.439900000000000091e+01 2.232841000000000165e+01 2.519643419270948398e-02
-2.851200000000000045e+01 6.825400000000000489e+01 2.439900000000000091e+01 2.416193000000000168e+01 3.217608430454478585e-02
-2.851000000000000156e+01 6.204699999999999704e+01 1.871799999999999997e+01 -1.930746999999999858e+01 -2.610944478475948904e-01
-2.851000000000000156e+01 4.241899999999999693e+01 4.701200000000000045e+01 2.451712000000000113e+00 -3.399920674065607384e-01
-2.850799999999999912e+01 6.635699999999999932e+01 3.584799999999999898e+01 2.000171999999999883e+01 -7.824623744944594894e-02
-2.850799999999999912e+01 6.023299999999999699e+01 1.513499999999999979e+01 -2.937917999999999807e+00 -2.594445986081128086e-01
-2.850100000000000122e+01 6.997499999999999432e+01 2.308200000000000074e+01 7.668648000000000131e+00 -1.333906087517715555e-01
-2.849899999999999878e+01 5.821900000000000119e+01 3.059199999999999875e+01 3.058076000000000150e+01 -1.009175808654608764e-01
-2.849899999999999878e+01 5.821900000000000119e+01 3.145700000000000074e+01 2.681102999999999881e+01 -9.814925784874926895e-02
-2.849899999999999878e+01 6.048400000000000176e+01 3.059199999999999875e+01 3.285782999999999987e+01 -1.070612801964263144e-01
-2.849899999999999878e+01 6.048400000000000176e+01 3.145700000000000074e+01 3.215113000000000198e+01 -1.036302715752134285e-01
-2.848999999999999844e+01 5.151100000000000279e+01 5.066299999999999670e+01 -4.528789999999999871e+00 -2.531297123085943790e-01
-2.848699999999999832e+01 4.948100000000000165e+01 5.320300000000000296e+01 -1.472372999999999976e+01 -2.531456749510570536e-01
-2.847899999999999920e+01 5.126299999999999812e+01 2.185099999999999909e+01 -7.773767000000000316e-01 9.178854766292201530e-04
-2.847400000000000020e+01 6.317999999999999972e+01 1.947599999999999909e+01 -2.761916999999999955e+00 -2.614271489111590907e-01
-2.846900000000000119e+01 5.900300000000000011e+01 1.595800000000000018e+01 -3.528242000000000100e+00 -2.601864209553726992e-01
-2.846900000000000119e+01 6.146300000000000097e+01 1.595800000000000018e+01 -8.709384999999999266e+00 -2.594606373417097100e-01
-2.846900000000000119e+01 6.146300000000000097e+01 1.689799999999999969e+01 -2.491095999999999933e+01 -2.600238142652743223e-01
-2.846900000000000119e+01 6.146300000000000097e+01 1.776300000000000168e+01 -1.419871000000000016e+01 -2.605852445453385458e-01
-2.846300000000000097e+01 6.999800000000000466e+01 4.670199999999999818e+01 1.648905999999999850e+01 -2.657846947551657513e-01
-2.845799999999999841e+01 5.760499999999999687e+01 2.144500000000000028e+01 1.097498999999999975e-01 1.004582121731505302e-02
-2.845599999999999952e+01 5.106700000000000017e+01 5.164800000000000324e+01 -6.912303999999999782e+00 -2.530924841980385365e-01
-2.845400000000000063e+01 4.558500000000000085e+01 4.954999999999999716e+01 -6.144439000000000206e+00 -3.397468012107439095e-01
-2.845100000000000051e+01 5.817199999999999704e+01 2.114999999999999858e+01 3.027734000000000147e+00 1.241992080237211762e-02
-2.844999999999999929e+01 4.783400000000000318e+01 2.575400000000000134e+01 1.038674000000000097e+00 -8.756122266729478298e-02
-2.844800000000000040e+01 5.071099999999999852e+01 5.238000000000000256e+01 -1.458897999999999939e+01 -2.530773230734481016e-01
-2.844500000000000028e+01 6.665900000000000603e+01 3.090399999999999991e+01 2.975537999999999794e+00 -1.461960860037841425e-01
-2.844399999999999906e+01 6.747199999999999420e+01 1.985300000000000153e+01 -4.948309000000000041e-02 -1.387260210495311064e-01
-2.844300000000000139e+01 4.602499999999999858e+01 5.084799999999999898e+01 -1.118798999999999921e+01 -2.535730562561490653e-01
-2.843599999999999994e+01 5.856199999999999761e+01 1.769500000000000028e+01 -4.202622999999999998e+00 -2.611407189158803654e-01
-2.843599999999999994e+01 6.772899999999999920e+01 4.146999999999999886e+01 -1.638193000000000010e+00 -2.647298581489503366e-01
