1.434900000000000020e+01 3.590699999999999648e+01 8.435599999999999454e+01 -2.481155999999999917e+00 -9.226712972615483399e-02
1.434900000000000020e+01 2.094300000000000139e+01 6.853300000000000125e+01 -5.224533000000000094e+00 -2.624139449244030642e-01
1.434999999999999964e+01 2.626699999999999946e+01 6.952200000000000557e+01 -6.030056000000000083e+00 -2.643701747468479302e-01
1.435399999999999920e+01 2.411400000000000077e+01 8.157200000000000273e+01 -9.282228999999999175e+00 -2.658278740070593171e-01
1.435500000000000043e+01 3.537100000000000222e+01 8.182699999999999818e+01 1.516224999999999934e+00 -9.371151822688669752e-02
1.436700000000000088e+01 7.064700000000000202e+00 9.003100000000000591e+01 -5.976700000000000124e+00 -8.152273565018737511e-02
1.436800000000000033e+01 2.532300000000000040e+01 6.972299999999999898e+01 -4.780415999999999777e+00 -2.640748879767516599e-01
1.438100000000000023e+01 7.586999999999999744e+00 8.652599999999999625e+01 -5.392447000000000212e-01 -2.529287604884654650e-01
1.439000000000000057e+01 2.335600000000000165e+01 5.916899999999999693e+01 -5.897907000000000011e+00 -2.624023088449599639e-01
1.439199999999999946e+01 3.520799999999999841e+01 7.351999999999999602e+01 2.774894999999999889e+00 -9.574719313004678711e-02
1.440700000000000003e+01 2.560800000000000054e+01 6.023299999999999699e+01 -4.373758999999999730e+00 -2.628731266481934559e-01
1.441200000000000081e+01 4.411699999999999733e+00 8.909099999999999397e+01 -2.455175000000000107e+00 -8.290275439394498291e-02
1.441200000000000081e+01 3.584199999999999875e+01 8.275199999999999534e+01 5.543696999999999653e-01 -9.339828063307263617e-02
1.441200000000000081e+01 2.127199999999999847e+01 6.929300000000000637e+01 -6.057533000000000278e+00 -2.625526577325186794e-01
1.441900000000000048e+01 3.297200000000000131e+01 7.996099999999999852e+01 -9.861385999999999763e-01 -9.714523660635430991e-02
1.441900000000000048e+01 3.396800000000000352e+01 7.996099999999999852e+01 2.144541999999999948e+00 -9.588202334620513079e-02
1.442500000000000071e+01 8.962300000000000821e+00 8.744700000000000273e+01 -3.110199999999999854e+00 -2.521327232854168598e-01
1.442500000000000071e+01 8.962300000000000821e+00 8.849699999999999989e+01 1.023667000000000105e+00 -2.515440729374641693e-01
1.442699999999999960e+01 4.473100000000000165e+01 6.168699999999999761e+01 -1.865248999999999935e+00 -9.718306617548819193e-02
1.442699999999999960e+01 4.643099999999999739e+01 6.168699999999999761e+01 -1.165515000000000079e+00 -9.731284507091020330e-02
1.442800000000000082e+01 3.386200000000000188e+01 8.514900000000000091e+01 -9.195254000000000483e-01 -9.649121904853802389e-02
1.442900000000000027e+01 2.212600000000000122e+01 5.999199999999999733e+01 -5.513761999999999830e+00 -2.622339832912719548e-01
1.443999999999999950e+01 3.049500000000000099e+01 7.442400000000000659e+01 -8.982340000000000657e+00 -1.883826199836289017e-01
1.444599999999999973e+01 3.316199999999999903e+01 8.085599999999999454e+01 -3.030388999999999999e-01 -9.706835089362694791e-02
1.444800000000000040e+01 5.762999999999999901e+00 9.081699999999999307e+01 -7.259792000000000023e+00 -8.440934224643305284e-02
1.445400000000000063e+01 3.121699999999999875e+01 8.639300000000000068e+01 -1.820492999999999917e+00 -6.662670050221811135e-02
1.446000000000000085e+01 2.377100000000000080e+01 8.628300000000000125e+01 -7.163771999999999807e+00 -2.618591080941983229e-01
1.447000000000000064e+01 2.094699999999999918e+01 6.305700000000000216e+01 -6.446727000000000096e+00 -2.621490965496077186e-01
1.448700000000000010e+01 4.533299999999999663e+00 8.999399999999999977e+01 -8.525192000000000547e+00 -8.414449024289369361e-02
1.451500000000000057e+01 2.829400000000000048e+01 7.475600000000000023e+01 -1.945270999999999972e+01 -2.669063539534011764e-01
1.451600000000000001e+01 2.540800000000000125e+01 7.962399999999999523e+01 -8.348236999999999242e+00 -2.672201058169462184e-01
1.451600000000000001e+01 2.540800000000000125e+01 8.053100000000000591e+01 -1.394753000000000043e+01 -2.677177257469184335e-01
1.451900000000000013e+01 3.450300000000000011e+01 8.004900000000000659e+01 4.585098999999999592e+00 -9.524294356005025275e-02
1.452299999999999969e+01 2.016100000000000136e+01 6.386699999999999733e+01 -6.738005000000000244e+00 -2.619974254442004602e-01
1.452299999999999969e+01 2.757999999999999829e+01 6.113199999999999790e+01 -7.417526999999999759e+00 -2.633027444738101353e-01
1.452800000000000047e+01 3.016900000000000048e+01 7.191899999999999693e+01 -1.871214000000000155e+01 -1.875699119022817274e-01
1.452899999999999991e+01 3.258500000000000085e+01 8.074699999999999989e+01 3.438280999999999921e+00 -9.789519874936980504e-02
1.453299999999999947e+01 2.005499999999999972e+01 6.439100000000000534e+01 -7.507823000000000135e+00 -2.619875742102303340e-01
1.454100000000000037e+01 2.626399999999999935e+01 8.716400000000000148e+01 -6.056408000000000236e+00 -2.728474130978385537e-01
1.454199999999999982e+01 3.200600000000000023e+01 8.576800000000000068e+01 -3.625179999999999847e+00 -6.991638342602582434e-02
1.454499999999999993e+01 2.748999999999999844e+01 7.348000000000000398e+01 1.066926000000000041e+00 -2.659568356233705244e-01
1.455700000000000038e+01 3.456400000000000006e+01 7.915999999999999659e+01 1.528569000000000067e+01 -9.526854718171642866e-02
1.456700000000000017e+01 3.409100000000000108e+01 7.532800000000000296e+01 9.353421000000000873e+00 -9.590375398565632870e-02
1.457900000000000063e+01 3.313799999999999812e+01 8.500900000000000034e+01 -2.474129000000000023e+00 4.778144697807730663e-03
1.458500000000000085e+01 2.978399999999999892e+01 7.129099999999999682e+01 -5.744729999999999670e+00 -2.010125410709881211e-01
1.458600000000000030e+01 3.797800000000000153e+01 7.402400000000000091e+01 6.552716000000000207e+00 -9.630203218952973487e-02
1.459699999999999953e+01 3.271399999999999864e+01 7.610699999999999932e+01 -4.391191000000000066e+00 -9.698151331537199771e-02
1.459800000000000075e+01 1.139799999999999969e+01 8.761899999999999977e+01 -4.651797000000000182e+00 -2.513905535851524986e-01
1.459800000000000075e+01 1.397799999999999976e+01 8.855700000000000216e+01 -1.732400000000000162e+01 -2.496715966270682263e-01
1.460100000000000087e+01 2.830099999999999838e+01 7.039799999999999613e+01 -3.723326999999999831e+00 -2.652411335330372433e-01
1.460200000000000031e+01 2.686100000000000065e+01 6.947499999999999432e+01 -1.933454000000000050e+01 -2.645197986345875774e-01
1.460399999999999920e+01 3.028000000000000114e+01 7.558599999999999852e+01 -9.984133999999999176e+00 -1.886291855569293963e-01
1.460699999999999932e+01 2.818100000000000094e+01 7.780100000000000193e+01 9.199253999999999820e+00 -2.686355917297084672e-01
1.460699999999999932e+01 2.904599999999999937e+01 7.780100000000000193e+01 1.377313000000000009e+01 -2.692361365704253329e-01
1.461200000000000010e+01 3.763900000000000290e+01 7.665900000000000603e+01 2.089581000000000088e+01 -9.598531202194604539e-02
1.461800000000000033e+01 2.948499999999999943e+01 7.749899999999999523e+01 -5.867192000000000240e-02 -2.692627084741919807e-01
1.462100000000000044e+01 2.677299999999999969e+01 6.679000000000000625e+01 1.236368000000000045e+01 -2.639533946435396183e-01
1.462599999999999945e+01 8.432800000000000296e+00 8.943000000000000682e+01 1.640577000000000041e+01 -7.827438995467042582e-02
1.462899999999999956e+01 2.722200000000000131e+01 7.759199999999999875e+01 -5.297735000000000305e+00 -2.677569991306577579e-01
1.463199999999999967e+01 3.454500000000000171e+01 7.424299999999999500e+01 6.082245999999999597e+00 -7.869675402403858433e-02
1.464100000000000001e+01 8.510300000000000864e+00 8.654800000000000182e+01 -2.874715000000000131e+00 -2.527777631838951100e-01
1.464199999999999946e+01 2.367599999999999838e+01 8.515300000000000580e+01 -8.573382000000000502e+00 -2.634452725974744669e-01
1.464199999999999946e+01 2.378000000000000114e+01 8.435200000000000387e+01 -2.035473999999999961e+01 -2.644683569763782716e-01
1.464300000000000068e+01 2.732799999999999940e+01 7.015399999999999636e+01 -7.588909000000000127e+00 -2.648358773085305873e-01
1.464400000000000013e+01 3.758400000000000318e+01 7.315000000000000568e+01 5.579089000000000409e-01 -9.628225078052757291e-02
1.464499999999999957e+01 3.542799999999999727e+01 8.513100000000000023e+01 2.017779000000000167e+01 -9.224069073538593289e-02
1.464600000000000080e+01 2.310900000000000176e+01 7.184399999999999409e+01 -6.781864999999999810e+00 -2.634561405347938257e-01
1.465000000000000036e+01 2.960099999999999909e+01 7.524599999999999511e+01 -2.914272000000000062e+01 -2.677735540351313115e-01
1.465499999999999936e+01 2.555399999999999849e+01 6.425600000000000023e+01 6.941422000000000025e+01 -2.632717428551870076e-01
1.465499999999999936e+01 2.576300000000000168e+01 6.352000000000000313e+01 1.240433999999999948e+01 -2.632288910345271238e-01
1.465499999999999936e+01 2.576300000000000168e+01 6.499200000000000443e+01 8.879554000000000258e+01 -2.634153329957185652e-01
1.465600000000000058e+01 2.420299999999999940e+01 8.716899999999999693e+01 -6.486358000000000068e+00 -2.620638089763941414e-01
1.465700000000000003e+01 2.860099999999999909e+01 8.622499999999999432e+01 1.768251000000000017e+00 -2.826120994262183994e-01
1.465799999999999947e+01 1.268800000000000061e+01 8.679500000000000171e+01 -5.883334999999999759e+00 -2.517707049273524844e-01
1.465799999999999947e+01 1.268800000000000061e+01 8.938100000000000023e+01 -1.780549999999999855e+01 -2.494966860714095680e-01
1.465900000000000070e+01 2.055399999999999849e+01 6.632899999999999352e+01 -1.278852000000000100e+00 -2.621616398393449843e-01
1.467600000000000016e+01 2.978800000000000026e+01 7.679900000000000659e+01 -4.759557000000000038e+00 -2.688792166637100634e-01
1.467900000000000027e+01 6.258200000000000429e+00 8.614900000000000091e+01 2.195572999999999908e+01 -2.533994528811263636e-01
1.468599999999999994e+01 2.929100000000000037e+01 7.050600000000000023e+01 -4.122796000000000127e+00 -2.655787486546323795e-01
1.468699999999999939e+01 2.656700000000000017e+01 7.039400000000000546e+01 -1.405841999999999992e+01 -2.646154594480096822e-01
1.469500000000000028e+01 2.391000000000000014e+01 7.021800000000000352e+01 -8.529628999999999905e+00 -2.635687811951069603e-01
1.469699999999999918e+01 9.192999999999999616e+00 8.942300000000000182e+01 6.013669000000000153e+00 -7.693728372656520598e-02
1.469699999999999918e+01 1.145800000000000018e+01 8.855800000000000693e+01 -8.810114000000000445e+00 -2.506883143081046206e-01
1.469699999999999918e+01 1.391799999999999926e+01 8.761799999999999500e+01 -1.741976000000000013e+01 -2.507090287376484428e-01
1.470199999999999996e+01 4.669999999999999929e+00 8.628600000000000136e+01 -3.419729999999999936e+00 -2.536220378308841616e-01
1.470199999999999996e+01 3.106200000000000117e+01 7.319799999999999329e+01 -1.124355000000000082e+01 -1.879642143171547652e-01
1.470400000000000063e+01 3.608899999999999864e+01 7.725100000000000477e+01 6.590869999999999607e+01 -9.547764699710088732e-02
1.470800000000000018e+01 2.482700000000000173e+01 8.790800000000000125e+01 -6.934995999999999938e+00 -2.635359106437181187e-01
1.470800000000000018e+01 2.587699999999999889e+01 8.790800000000000125e+01 -6.674470999999999599e+00 -2.705305490576059846e-01
1.470800000000000018e+01 2.990399999999999991e+01 7.594599999999999795e+01 -6.471865000000000201e+00 -2.683355765717144736e-01
1.471700000000000053e+01 3.079100000000000037e+01 8.699299999999999500e+01 -3.679056999999999800e+00 -6.577044396104984869e-02
1.471899999999999942e+01 2.411599999999999966e+01 5.923199999999999932e+01 -1.201158000000000037e+01 -2.625047293129822434e-01
1.472199999999999953e+01 2.247599999999999909e+01 6.961299999999999955e+01 -2.123943999999999832e+01 -2.629540268221022825e-01
1.472199999999999953e+01 2.334199999999999875e+01 6.961299999999999955e+01 -1.393900999999999968e+01 -2.632725501210141927e-01
1.472300000000000075e+01 2.574200000000000088e+01 7.904000000000000625e+01 -7.320356999999999559e+00 -2.672101888168511019e-01
1.472499999999999964e+01 2.985500000000000043e+01 8.675900000000000034e+01 4.881852000000000302e+00 -2.877891254942336885e-01
1.472499999999999964e+01 2.756200000000000117e+01 8.661700000000000443e+01 3.176190000000000069e+00 -2.798710685820803290e-01
1.474099999999999966e+01 1.150399999999999956e+01 8.923099999999999454e+01 -5.434687000000000268e+00 -2.501849449442293261e-01
1.474900000000000055e+01 2.174200000000000088e+01 6.988299999999999557e+01 -1.853089999999999904e+01 -2.626977194332872911e-01
1.475200000000000067e+01 2.683500000000000085e+01 6.773799999999999955e+01 9.009468999999999284e+00 -2.641257907960048446e-01
1.475200000000000067e+01 2.704400000000000048e+01 6.847400000000000375e+01 -5.918057000000000123e+00 -2.643353148700260391e-01
1.475600000000000023e+01 2.514000000000000057e+01 6.005899999999999750e+01 -8.202538000000000551e+00 -2.627424480664541928e-01
1.476399999999999935e+01 2.489000000000000057e+01 7.021399999999999864e+01 -7.514147999999999605e+00 -2.639331859198962293e-01
1.476399999999999935e+01 2.575499999999999901e+01 7.021399999999999864e+01 -9.430721000000000132e+00 -2.642604306008412562e-01
1.476800000000000068e+01 2.010000000000000142e+01 6.725400000000000489e+01 -2.057542000000000204e+00 -2.620445892336704108e-01
1.477200000000000024e+01 2.668599999999999994e+01 7.773099999999999454e+01 -5.761072000000000415e+00 -2.673616992986321828e-01
1.477699999999999925e+01 5.003000000000000114e+00 9.075400000000000489e+01 -4.410566000000000209e+00 -8.488454629188718625e-02
1.477699999999999925e+01 6.522999999999999687e+00 9.075400000000000489e+01 -2.400995999999999952e+01 -8.339022723195405051e-02
1.478299999999999947e+01 2.045200000000000173e+01 6.806399999999999295e+01 -4.889909000000000283e+00 -2.621697859848260981e-01
1.478999999999999915e+01 4.514699999999999847e+01 6.519899999999999807e+01 -4.272224999999999717e+00 -9.737152420856823309e-02
1.478999999999999915e+01 4.625900000000000034e+01 6.519899999999999807e+01 -5.674815999999999860e+00 -9.747791204285800870e-02
1.480199999999999960e+01 2.680199999999999960e+01 6.102600000000000335e+01 -3.628585000000000171e+00 -2.631262506177293181e-01
1.480300000000000082e+01 2.268700000000000117e+01 5.900800000000000267e+01 -5.267342000000000191e+00 -2.622418658899044464e-01
1.480300000000000082e+01 3.594299999999999784e+01 7.307899999999999352e+01 -2.119009000000000142e+00 -9.599685933243232161e-02
1.481099999999999994e+01 2.005000000000000071e+01 6.551399999999999579e+01 -4.926480999999999888e+00 -2.619818457604325412e-01
1.481600000000000072e+01 3.605700000000000216e+01 8.187999999999999545e+01 -2.178415000000000212e+00 -9.416744948621418032e-02
1.481600000000000072e+01 2.673699999999999832e+01 7.126699999999999591e+01 -5.811614999999999753e+00 -2.648748569817404031e-01
1.481600000000000072e+01 3.569599999999999795e+01 8.114400000000000546e+01 1.862740999999999980e-01 -9.434516253418046006e-02
1.482399999999999984e+01 2.335399999999999920e+01 8.280200000000000671e+01 -1.386172000000000004e+01 -2.645439616564767560e-01
1.482399999999999984e+01 2.358099999999999952e+01 8.200300000000000011e+01 -9.702147000000000077e+00 -2.652257014386820155e-01
1.482399999999999984e+01 2.358099999999999952e+01 8.360099999999999909e+01 -1.156001000000000012e+01 -2.646514444678690348e-01
1.483600000000000030e+01 9.487999999999999545e+00 8.797199999999999420e+01 -3.313340999999999870e+00 -2.517604729692190513e-01
1.483799999999999919e+01 2.364000000000000057e+01 7.108499999999999375e+01 -7.428570999999999813e+00 -2.635515849623479845e-01
1.486500000000000021e+01 1.059699999999999953e+01 9.069899999999999807e+01 -4.650621000000000116e+00 -7.731174324281353538e-02
1.486800000000000033e+01 1.981800000000000139e+01 6.632899999999999352e+01 -3.001983000000000068e+00 -2.619311403097398516e-01
1.487199999999999989e+01 3.119500000000000028e+01 7.555700000000000216e+01 -7.094396999999999842e+00 -1.886366474245896874e-01
1.487299999999999933e+01 3.115599999999999881e+01 8.769299999999999784e+01 -4.735320999999999891e+00 -6.945946085369510137e-02
1.487299999999999933e+01 2.230999999999999872e+01 7.184399999999999409e+01 -6.120566000000000173e+00 -2.630474359254723615e-01
1.487299999999999933e+01 2.390800000000000125e+01 7.184399999999999409e+01 -6.768622999999999834e+00 -2.637709701564338594e-01
1.487299999999999933e+01 1.349699999999999989e+01 8.939799999999999613e+01 -1.610876999999999981e+01 -2.491278859391314049e-01
1.488000000000000078e+01 2.135800000000000054e+01 6.199499999999999744e+01 -6.560543000000000013e+00 -2.621424961734523107e-01
1.488199999999999967e+01 2.051200000000000045e+01 6.900300000000000011e+01 -5.053937999999999597e+00 -2.621990123924210492e-01
1.488499999999999979e+01 2.905199999999999960e+01 7.679900000000000659e+01 -3.164709999999999912e+00 -2.684214803959125706e-01
1.488899999999999935e+01 2.858999999999999986e+01 7.706300000000000239e+01 -3.401491000000000042e+00 -2.683187411873332873e-01
1.489899999999999913e+01 4.401899999999999835e+01 6.394200000000000017e+01 -1.839077000000000073e+00 -9.722510883442717078e-02
1.490300000000000047e+01 2.045599999999999952e+01 6.345400000000000063e+01 -6.191059000000000090e+00 -2.620055407957725402e-01
1.491200000000000081e+01 2.168100000000000094e+01 6.122699999999999676e+01 -6.510269000000000084e+00 -2.621668737598406018e-01
1.492600000000000016e+01 1.192900000000000027e+01 8.676000000000000512e+01 -4.745734999999999815e+00 -2.520135129907020710e-01
1.492800000000000082e+01 2.619200000000000017e+01 6.266100000000000136e+01 7.098335999999999757e+00 -2.631853810455265230e-01
1.493099999999999916e+01 3.089199999999999946e+01 7.485699999999999932e+01 -8.294541999999999859e+00 -1.882941786977858079e-01
1.493399999999999928e+01 2.632100000000000151e+01 6.577200000000000557e+01 1.854703999999999908e+01 -2.636269491475112248e-01
1.493500000000000050e+01 2.879500000000000171e+01 7.528300000000000125e+01 -1.978543000000000163e+01 -2.673370585683433331e-01
1.493599999999999994e+01 2.263899999999999935e+01 7.260399999999999920e+01 -6.231020000000000003e+00 -2.632557646411002317e-01
1.493599999999999994e+01 2.357900000000000063e+01 7.260399999999999920e+01 -7.112357000000000262e+00 -2.637152443253309442e-01
1.494400000000000084e+01 3.397500000000000142e+01 7.467700000000000671e+01 4.111286999999999914e+00 -9.612917085270980544e-02
1.494800000000000040e+01 2.470799999999999841e+01 8.079800000000000182e+01 -1.108309000000000033e+01 -2.666963553406301313e-01
1.495199999999999996e+01 4.388100000000000023e+01 6.306199999999999761e+01 -8.968519000000000352e-01 -9.719001965061753456e-02
1.495199999999999996e+01 4.413499999999999801e+01 6.216799999999999926e+01 -2.627060000000000173e+00 -9.718620365103328163e-02
1.495199999999999996e+01 4.558100000000000307e+01 6.136200000000000188e+01 -1.800494000000000039e+00 -9.727478608711637165e-02
1.495199999999999996e+01 4.702700000000000102e+01 6.216799999999999926e+01 1.384265000000000079e+00 -9.741234396089196168e-02
1.495199999999999996e+01 4.728099999999999881e+01 6.306199999999999761e+01 4.959357999999999933e+00 -9.747153620531490148e-02
1.496599999999999930e+01 2.716000000000000014e+01 8.688299999999999557e+01 -2.362543000000000060e+00 -2.793218755507936302e-01
1.497700000000000031e+01 1.445299999999999940e+01 8.877599999999999625e+01 -6.588818999999999981e+00 -2.493424481135171344e-01
1.498300000000000054e+01 1.085899999999999999e+01 8.813100000000000023e+01 -4.371856000000000186e+00 -2.512700605358625383e-01
1.498300000000000054e+01 2.700400000000000134e+01 6.169800000000000040e+01 -4.801388000000000211e+00 -2.632216874939419249e-01
1.498499999999999943e+01 2.498799999999999955e+01 7.988200000000000500e+01 -8.108814999999999884e+00 -2.666582027605586269e-01
1.498700000000000010e+01 1.344800000000000040e+01 8.685800000000000409e+01 -6.077849999999999753e+00 -2.516658343292965117e-01
1.498900000000000077e+01 2.290899999999999892e+01 7.031300000000000239e+01 -9.354036000000000683e+00 -2.631343152210791625e-01
1.499000000000000021e+01 4.300099999999999589e+00 8.881999999999999318e+01 8.598687000000000413e-01 -8.244586516544506749e-02
1.499099999999999966e+01 3.638100000000000023e+01 8.326999999999999602e+01 -6.771013999999999644e-01 -9.371527659894643425e-02
1.499300000000000033e+01 2.909799999999999898e+01 7.598300000000000409e+01 -4.715700000000000003e+00 -2.678867686471980702e-01
1.499799999999999933e+01 4.190999999999999837e+00 8.706100000000000705e+01 -2.248321000000000069e-01 -2.534663942227015077e-01
1.499799999999999933e+01 4.190999999999999837e+00 8.801900000000000546e+01 1.397170000000000023e+01 -8.145958066788325236e-02
1.500000000000000000e+01 3.339099999999999824e+01 7.559499999999999886e+01 -1.668312000000000017e+00 -9.658861674914501205e-02
1.500399999999999956e+01 3.032499999999999929e+01 8.771699999999999875e+01 -4.434867999999999810e+00 -6.450344141125410879e-02
1.500699999999999967e+01 3.198999999999999844e+01 8.623399999999999466e+01 -8.724956999999999852e+00 -7.111063514356109894e-02
1.501299999999999990e+01 3.530199999999999960e+01 8.030700000000000216e+01 3.561208999999999847e+00 -9.460926941670230739e-02
1.501600000000000001e+01 2.221099999999999852e+01 7.058299999999999841e+01 -1.027965999999999980e+01 -2.628765103266483827e-01
1.502399999999999913e+01 1.965899999999999892e+01 6.482399999999999807e+01 -3.786402999999999963e+00 -2.618408823873465407e-01
1.502599999999999980e+01 2.765500000000000114e+01 7.710099999999999909e+01 2.074797999999999920e+00 -2.676679907614422649e-01
1.502899999999999991e+01 5.445000000000000284e+00 8.610200000000000387e+01 -6.251424000000000092e+00 -2.536115195080785867e-01
1.503100000000000058e+01 2.726800000000000068e+01 7.444899999999999807e+01 -7.538556999999999952e+00 -2.661116994486212306e-01
1.503200000000000003e+01 2.532300000000000040e+01 7.091400000000000148e+01 -6.735826000000000313e+00 -2.641824461093918441e-01
1.503400000000000070e+01 9.494500000000000384e+00 8.999899999999999523e+01 -7.662262000000000128e+00 -7.749645073611104162e-02
1.503400000000000070e+01 1.169999999999999929e+01 8.999899999999999523e+01 -1.062091999999999992e+01 -2.496114463228157609e-01
1.503599999999999959e+01 1.414899999999999913e+01 8.947599999999999909e+01 -7.088046000000000291e+00 -2.487503494368804302e-01
1.503999999999999915e+01 4.071500000000000341e+01 6.904600000000000648e+01 -1.515723999999999982e+01 -9.697691357635278286e-02
1.504299999999999926e+01 2.783500000000000085e+01 6.987999999999999545e+01 -9.473827999999999250e+00 -2.648666788368538305e-01
1.504599999999999937e+01 2.147100000000000009e+01 5.844800000000000040e+01 -4.742617000000000083e+00 -2.619904213904100110e-01
1.504700000000000060e+01 2.184199999999999875e+01 7.108499999999999375e+01 -5.740299000000000262e+00 -2.627544086372017862e-01
1.504700000000000060e+01 2.437600000000000122e+01 7.108499999999999375e+01 -9.484935999999999368e+00 -2.638193045277157922e-01
1.504800000000000004e+01 3.496099999999999852e+01 7.959300000000000352e+01 4.033431000000000211e+00 -9.504580932277020833e-02
1.504899999999999949e+01 3.632600000000000051e+01 8.392400000000000659e+01 -7.892095999999999556e+00 -9.333681912415309201e-02
1.504899999999999949e+01 1.078400000000000070e+01 8.682800000000000296e+01 -3.762697999999999876e+00 -2.522229248082658581e-01
1.505100000000000016e+01 3.022299999999999898e+01 7.145099999999999341e+01 -1.196814000000000000e+01 -1.872174663783144621e-01
1.505199999999999960e+01 1.926200000000000045e+01 6.551900000000000546e+01 -2.969462000000000046e+00 -2.617487468431245468e-01
1.505300000000000082e+01 2.903399999999999892e+01 8.671599999999999397e+01 1.449038000000000004e+01 -2.872301536997361460e-01
1.505400000000000027e+01 1.225500000000000078e+01 8.987199999999999989e+01 -9.902877999999999403e+00 -2.494223390740430979e-01
1.506099999999999994e+01 2.771199999999999974e+01 7.501399999999999579e+01 -9.502503000000000810e+00 -2.665902669687661986e-01
1.506199999999999939e+01 2.827499999999999858e+01 8.657899999999999352e+01 4.057479000000000013e+01 -2.841505445528518803e-01
1.506300000000000061e+01 7.959999999999999964e+00 8.994599999999999795e+01 -1.350699000000000094e+00 -7.984290574304554744e-02
1.506300000000000061e+01 8.825300000000000367e+00 8.994599999999999795e+01 -2.270214999999999872e+00 -7.850693580192677490e-02
1.506400000000000006e+01 3.501200000000000045e+01 7.869700000000000273e+01 1.107210000000000072e+01 -9.509847199759359493e-02
1.506499999999999950e+01 3.168700000000000117e+01 8.693399999999999750e+01 -1.313864000000000054e+01 -7.222022074499673261e-02
1.506900000000000084e+01 1.091499999999999915e+01 8.981100000000000705e+01 -1.075680000000000014e+01 -2.501307550685124559e-01
1.507000000000000028e+01 3.604500000000000171e+01 8.475799999999999557e+01 4.266038999999999959e+01 -9.265075616944966341e-02
1.507099999999999973e+01 3.625200000000000244e+01 8.231199999999999761e+01 2.550778999999999908e+00 -9.420550299322190402e-02
1.508200000000000074e+01 2.608599999999999852e+01 7.144100000000000250e+01 -6.962348000000000425e+00 -2.646006661021872985e-01
1.508699999999999974e+01 1.005899999999999928e+01 8.813100000000000023e+01 -5.479807000000000095e+00 -2.515452668566541816e-01
1.508900000000000041e+01 9.287800000000000722e+00 8.684999999999999432e+01 -6.027333999999999747e+00 -2.525329564867344057e-01
1.508999999999999986e+01 1.319500000000000028e+01 8.994899999999999807e+01 -9.175573999999999231e+00 -2.488520308570833506e-01
1.509200000000000053e+01 9.797900000000000276e+00 9.069899999999999807e+01 -6.297392000000000323e+00 -7.863644114551313069e-02
1.509200000000000053e+01 1.139600000000000080e+01 9.069899999999999807e+01 -1.986872999999999934e+01 -7.552006682976951379e-02
1.509299999999999997e+01 1.538899999999999935e+01 8.866100000000000136e+01 -5.478947999999999929e+00 -2.491218839082929293e-01
1.509399999999999942e+01 6.832499999999999574e+00 8.613800000000000523e+01 -3.226587000000000205e-01 -2.533737941443611197e-01
1.509699999999999953e+01 1.997200000000000131e+01 6.378000000000000114e+01 -5.596983999999999959e+00 -2.618825240250854947e-01
1.509999999999999964e+01 2.706899999999999906e+01 7.299399999999999977e+01 4.186090000000000089e+00 -2.654664807410223037e-01
1.509999999999999964e+01 2.727899999999999991e+01 7.373000000000000398e+01 -4.406718999999999831e+00 -2.658236084389914433e-01
1.509999999999999964e+01 3.195499999999999829e+01 8.769299999999999784e+01 -1.296645999999999965e+01 -7.564255285501868264e-02
1.510500000000000043e+01 2.610200000000000031e+01 6.096800000000000352e+01 -2.396450000000000191e+00 -2.629639455797807002e-01
1.512100000000000044e+01 2.171199999999999974e+01 5.955499999999999972e+01 -7.950314999999999799e+00 -2.620725088716651108e-01
1.512100000000000044e+01 2.171199999999999974e+01 6.042000000000000171e+01 -1.187668000000000035e+01 -2.621125186350476421e-01
1.512199999999999989e+01 1.892399999999999949e+01 6.632899999999999352e+01 -4.606446000000000041e+00 -2.616555879410278340e-01
1.512400000000000055e+01 3.465299999999999869e+01 8.542700000000000671e+01 3.670326000000000022e+01 -9.524346112485812532e-02
1.512400000000000055e+01 3.848199999999999932e+01 7.475199999999999534e+01 6.041210999999999665e+00 -9.650330261134219823e-02
1.512500000000000000e+01 1.009500000000000064e+01 8.701399999999999579e+01 -3.329785000000000217e+00 -2.522633019364395879e-01
1.513000000000000078e+01 9.893000000000000682e+00 8.968999999999999773e+01 -9.234420000000000073e+00 -7.599098337030289751e-02
1.513700000000000045e+01 3.559799999999999898e+01 7.764799999999999613e+01 2.279093999999999909e+01 -9.540233988364414663e-02
1.513700000000000045e+01 3.678900000000000148e+01 7.698399999999999466e+01 1.905829999999999913e+01 -9.584239770843171191e-02
1.513700000000000045e+01 3.823499999999999943e+01 7.617799999999999727e+01 5.165462999999999738e+01 -9.635746892085203519e-02
1.513700000000000045e+01 3.848899999999999721e+01 7.528400000000000603e+01 1.061255000000000059e+01 -9.648345002452068941e-02
1.514600000000000080e+01 3.203600000000000136e+01 7.554800000000000182e+01 -5.911902000000000434e+00 -1.886071385726487137e-01
1.514600000000000080e+01 3.290200000000000102e+01 7.554800000000000182e+01 -1.092883000000000049e+00 -9.699973681612349130e-02
1.514899999999999913e+01 2.114799999999999969e+01 5.769100000000000250e+01 -4.401534999999999975e+00 -2.618997135524937514e-01
1.515000000000000036e+01 9.015100000000000335e+00 8.597799999999999443e+01 -7.131174999999999820e+00 -2.531080856038943616e-01
1.515300000000000047e+01 3.348400000000000176e+01 7.481499999999999773e+01 1.238921999999999940e-01 -9.654061573958352960e-02
1.515499999999999936e+01 1.012700000000000067e+01 9.145900000000000318e+01 -1.083905999999999992e+01 -8.010250978375077491e-02
1.515499999999999936e+01 1.106700000000000017e+01 9.145900000000000318e+01 -1.681697000000000131e+01 -7.845907672764432239e-02
1.515499999999999936e+01 2.082700000000000173e+01 6.996999999999999886e+01 -6.669133000000000422e+00 -2.622873411866085691e-01
1.516300000000000026e+01 3.068599999999999994e+01 8.845300000000000296e+01 -7.869259999999999700e+00 -6.890956144091989199e-02
1.516300000000000026e+01 3.162600000000000122e+01 8.845300000000000296e+01 -1.940007999999999910e+01 -7.630633037689363296e-02
1.516399999999999970e+01 7.586999999999999744e+00 8.618099999999999739e+01 -1.399013000000000062e-01 -2.532369355219480367e-01
1.516499999999999915e+01 2.611100000000000065e+01 7.834799999999999898e+01 -6.891680000000000028e+00 -2.670546664290059935e-01
1.516699999999999982e+01 2.876599999999999824e+01 6.990999999999999659e+01 -3.931976000000000138e+00 -2.651510641778916932e-01
1.516799999999999926e+01 3.696000000000000085e+01 7.264300000000000068e+01 -2.245750999999999831e+00 -9.628391540097482049e-02
1.516999999999999993e+01 2.088899999999999935e+01 6.275399999999999778e+01 -7.047381999999999813e+00 -2.620438333934971276e-01
1.516999999999999993e+01 3.276200000000000045e+01 8.557899999999999352e+01 -9.738825999999999539e+00 7.808651961060157024e-04
1.517200000000000060e+01 3.167999999999999972e+01 7.485200000000000387e+01 -6.943622000000000405e+00 -1.882861250485360627e-01
1.517900000000000027e+01 2.339000000000000057e+01 5.883100000000000307e+01 -9.230914999999999537e+00 -2.623140449961127163e-01
1.518599999999999994e+01 2.824800000000000111e+01 7.615399999999999636e+01 -4.413643999999999679e+00 -2.674532196463656475e-01
1.518699999999999939e+01 2.390399999999999991e+01 8.103499999999999659e+01 -1.089347000000000065e+01 -2.654908887021467656e-01
1.518800000000000061e+01 9.589600000000000790e+00 8.898999999999999488e+01 -3.477198000000000011e+00 -2.512037333984203924e-01
1.518800000000000061e+01 1.106199999999999939e+01 8.898999999999999488e+01 -9.544738999999999862e+00 -2.506485780364112737e-01
1.518900000000000006e+01 2.464900000000000091e+01 5.966299999999999670e+01 -2.944849999999999923e+01 -2.625829926357099442e-01
1.518900000000000006e+01 2.535200000000000031e+01 8.850400000000000489e+01 -1.413286000000000087e+01 -2.669982666325554921e-01
1.519299999999999962e+01 1.929299999999999926e+01 6.717900000000000205e+01 -4.461956999999999951e+00 -2.617469542650986414e-01
1.519599999999999973e+01 2.662399999999999878e+01 6.196099999999999852e+01 2.994603000000000126e+00 -2.631585670857670145e-01
1.519999999999999929e+01 2.225499999999999901e+01 5.851700000000000301e+01 -4.555470999999999826e+00 -2.621078285533008367e-01
1.520400000000000063e+01 2.360399999999999920e+01 8.667000000000000171e+01 -7.359365000000000379e+00 -2.616110988332517318e-01
1.520500000000000007e+01 3.173300000000000054e+01 7.323600000000000421e+01 -7.084327000000000041e+00 -1.878010426942645916e-01
1.520899999999999963e+01 1.478700000000000081e+01 8.780800000000000693e+01 -6.707476999999999911e+00 -2.504304414914394483e-01
1.521199999999999974e+01 3.833500000000000085e+01 7.356399999999999295e+01 1.777911000000000019e+00 -9.653414251069311613e-02
1.522799999999999976e+01 2.703500000000000014e+01 7.513100000000000023e+01 -6.072606000000000392e+00 -2.662086808856790610e-01
1.523300000000000054e+01 2.397700000000000031e+01 8.758299999999999841e+01 -7.992693000000000048e+00 -2.609827290487025664e-01
1.523300000000000054e+01 2.672700000000000031e+01 8.758299999999999841e+01 -6.907973000000000141e+00 -2.788861607495004558e-01
1.523399999999999999e+01 2.745499999999999829e+01 6.898399999999999466e+01 -2.663550000000000040e+01 -2.644940014233599923e-01
1.523900000000000077e+01 1.969099999999999895e+01 6.783299999999999841e+01 -1.817830000000000057e+00 -2.618590178327332985e-01
1.524200000000000088e+01 3.201800000000000068e+01 7.404200000000000159e+01 -1.669607000000000063e+00 -9.744141120473523432e-02
1.524699999999999989e+01 4.243000000000000327e+00 8.952400000000000091e+01 -4.585785999999999696e+00 -8.346133399863821245e-02
1.524699999999999989e+01 4.469999999999999751e+00 9.032299999999999329e+01 -4.306643000000000221e+00 -8.449544705526129684e-02
1.524699999999999989e+01 5.762999999999999901e+00 9.104399999999999693e+01 -1.563391999999999982e+01 -8.454864935386496860e-02
1.524699999999999989e+01 7.113000000000000433e+00 9.041700000000000159e+01 -4.884064999999999657e+01 -8.185939822888717299e-02
1.524900000000000055e+01 2.470200000000000173e+01 7.161299999999999955e+01 -1.113969999999999949e+01 -2.640072975693865676e-01
1.525600000000000023e+01 3.547699999999999676e+01 7.348000000000000398e+01 1.281259999999999899e-01 -9.595824753433122856e-02
1.526699999999999946e+01 1.492099999999999937e+01 8.953300000000000125e+01 -2.896182000000000034e+00 -2.483303230415935814e-01
1.526699999999999946e+01 3.991599999999999682e+01 6.904600000000000648e+01 -6.336837000000000053e+00 -9.688583850561327537e-02
1.526699999999999946e+01 4.151400000000000290e+01 6.904600000000000648e+01 -8.086681999999999704e+00 -9.712555961494712120e-02
1.529299999999999926e+01 2.722200000000000131e+01 7.640099999999999625e+01 -3.943312000000000150e+00 -2.668944621494157010e-01
1.529700000000000060e+01 2.144200000000000017e+01 7.161199999999999477e+01 -4.058597999999999928e+00 -2.625592174988152228e-01
1.529800000000000004e+01 1.999399999999999977e+01 6.853300000000000125e+01 -4.616742999999999597e+00 -2.619492519170191214e-01
1.529899999999999949e+01 2.104500000000000171e+01 7.085399999999999920e+01 -3.842448999999999781e+00 -2.623679593629476559e-01
1.530000000000000071e+01 4.570300000000000296e+01 6.582999999999999829e+01 -7.881596000000000046e+00 -9.750408547191473374e-02
1.530100000000000016e+01 1.213199999999999967e+01 9.069899999999999807e+01 -5.738849000000000089e+00 -7.365110931158326546e-02
1.530199999999999960e+01 3.025199999999999889e+01 7.096399999999999864e+01 -6.261745999999999590e+00 -1.870041811350927619e-01
1.531000000000000050e+01 2.344600000000000151e+01 8.575799999999999557e+01 -8.817968999999999724e+00 -2.628230790461795752e-01
1.532300000000000040e+01 3.141199999999999903e+01 7.262699999999999534e+01 -5.075211999999999612e+00 -1.875287998650898014e-01
1.532799999999999940e+01 2.727899999999999991e+01 7.571399999999999864e+01 -4.735597000000000278e+00 -2.665867145314158027e-01
1.533000000000000007e+01 4.024499999999999744e+01 6.828600000000000136e+01 -5.574203999999999937e+00 -9.693494699637801582e-02
1.533000000000000007e+01 4.024499999999999744e+01 6.980599999999999739e+01 -5.758715999999999724e+00 -9.695197444620742844e-02
1.533000000000000007e+01 4.118500000000000227e+01 6.828600000000000136e+01 -6.070937999999999946e+00 -9.706669994140597335e-02
1.533000000000000007e+01 4.118500000000000227e+01 6.980599999999999739e+01 -1.228875999999999991e+01 -9.710348436931416638e-02
1.533399999999999963e+01 4.731900000000000261e+01 6.382300000000000040e+01 -4.550004000000000381e+00 -9.754178816462887036e-02
1.534600000000000009e+01 4.424699999999999989e+01 6.485500000000000398e+01 -6.175011999999999723e+00 -9.731778324107746847e-02
1.534600000000000009e+01 4.715899999999999892e+01 6.485500000000000398e+01 -9.521627000000000507e+00 -9.758709798616588271e-02
1.534699999999999953e+01 1.628300000000000125e+01 8.866100000000000136e+01 -4.605775000000000396e+00 -2.488678681280455385e-01
1.535299999999999976e+01 1.139100000000000001e+01 8.622100000000000364e+01 -4.134206999999999965e+00 -2.526342866769303863e-01
1.535500000000000043e+01 2.582100000000000151e+01 6.382399999999999807e+01 2.183536000000000143e+01 -2.631933994512598574e-01
1.536500000000000021e+01 2.417399999999999949e+01 8.010500000000000398e+01 -7.887865999999999822e+00 -2.655409806410022333e-01
1.536700000000000088e+01 2.310900000000000176e+01 7.313700000000000045e+01 -1.089506000000000085e+01 -2.634449960706940486e-01
1.536899999999999977e+01 1.887600000000000122e+01 6.482399999999999807e+01 -3.887830000000000119e+00 -2.616076534532386644e-01
1.537100000000000044e+01 2.096099999999999852e+01 6.156199999999999761e+01 -6.536575000000000024e+00 -2.619909712728201168e-01
1.538700000000000045e+01 9.861399999999999721e+00 8.597199999999999420e+01 -4.455873000000000417e+00 -2.530355052057806087e-01
1.539499999999999957e+01 1.853399999999999892e+01 6.692499999999999716e+01 -5.167294000000000054e+00 -2.615071519528280319e-01
1.539499999999999957e+01 1.268800000000000061e+01 8.646999999999999886e+01 -6.076985999999999777e+00 -2.522623454516211283e-01
1.539700000000000024e+01 1.032600000000000051e+01 8.898999999999999488e+01 -5.606510000000000105e+00 -2.509838445985993483e-01
1.539899999999999913e+01 1.411100000000000065e+01 9.001699999999999591e+01 2.058514999999999873e+00 -2.483388480036891333e-01
1.540300000000000047e+01 2.025400000000000134e+01 5.769100000000000250e+01 -3.745357999999999965e+00 -2.617380613983854021e-01
1.540300000000000047e+01 2.204200000000000159e+01 5.769100000000000250e+01 -3.373543000000000180e+00 -2.620169850327910277e-01
1.540600000000000058e+01 2.187900000000000134e+01 7.231399999999999295e+01 -7.403757999999999839e+00 -2.627633946817294897e-01
1.540600000000000058e+01 2.433899999999999864e+01 7.231399999999999295e+01 -1.257700999999999958e+01 -2.639287217656677842e-01
1.540600000000000058e+01 2.660399999999999920e+01 7.231399999999999295e+01 -2.563537000000000177e+00 -2.649790969386475181e-01
1.541300000000000026e+01 2.352400000000000091e+01 8.331300000000000239e+01 -1.396063999999999972e+01 -2.649186711309345355e-01
1.541399999999999970e+01 3.246900000000000119e+01 7.484799999999999898e+01 -1.801593000000000000e+00 -9.731812023631067343e-02
1.541600000000000037e+01 2.360399999999999920e+01 8.484600000000000364e+01 -1.016350000000000087e+01 -2.645075447660940604e-01
1.541799999999999926e+01 1.591399999999999970e+01 8.781100000000000705e+01 -5.292695000000000149e+00 -2.502497773242640111e-01
1.541799999999999926e+01 1.591399999999999970e+01 8.951099999999999568e+01 -2.628804999999999836e+00 -2.478356776041226173e-01
1.542099999999999937e+01 1.403800000000000026e+01 8.719499999999999318e+01 -2.069331999999999994e+01 -2.513586627531058104e-01
1.543500000000000050e+01 4.465200000000000102e+01 6.159100000000000108e+01 -2.629814999999999792e+00 -9.724463266450808496e-02
1.543999999999999950e+01 1.924500000000000099e+01 6.397399999999999665e+01 -4.780228000000000144e+00 -2.616784661560098701e-01
1.544200000000000017e+01 2.547100000000000009e+01 7.155500000000000682e+01 -6.127303000000000388e+00 -2.642893852734197191e-01
1.544999999999999929e+01 2.546300000000000097e+01 7.911799999999999500e+01 -7.206239000000000061e+00 -2.666635231866679723e-01
1.545199999999999996e+01 2.710200000000000031e+01 6.730500000000000682e+01 6.569278999999999868e+00 -2.640124122821760344e-01
1.545199999999999996e+01 2.710200000000000031e+01 6.817000000000000171e+01 -5.056176999999999921e+00 -2.641772936998622034e-01
1.546799999999999997e+01 9.003800000000000026e+00 9.046800000000000352e+01 -4.414658000000000193e+00 -7.920796304474556071e-02
1.547000000000000064e+01 1.271599999999999930e+01 9.084000000000000341e+01 -2.606968000000000174e+00 -7.246499279342667743e-02
1.547400000000000020e+01 2.062300000000000111e+01 5.684100000000000108e+01 -3.777080000000000215e+00 -2.617630389908708333e-01
1.547400000000000020e+01 2.062300000000000111e+01 5.854099999999999682e+01 -4.583027999999999658e+00 -2.618159460230951030e-01
1.547400000000000020e+01 2.167299999999999827e+01 5.684100000000000108e+01 -3.887099000000000082e+00 -2.619190121647271274e-01
1.547700000000000031e+01 4.643099999999999739e+01 6.168699999999999761e+01 7.014224999999999710e+00 -9.738508213470370434e-02
1.547799999999999976e+01 4.605699999999999683e+00 8.654200000000000159e+01 -3.942454000000000125e+00 -2.536521343036106657e-01
1.547799999999999976e+01 2.114799999999999969e+01 6.074099999999999966e+01 -6.730694999999999872e+00 -2.619844482466855418e-01
1.548300000000000054e+01 3.092299999999999827e+01 7.171899999999999409e+01 -5.438475000000000392e+00 -1.871658170728038584e-01
1.549900000000000055e+01 3.630400000000000205e+01 8.467100000000000648e+01 9.669052999999999898e+00 -9.325340905775338085e-02
1.552599999999999980e+01 2.539300000000000068e+01 6.044899999999999807e+01 -5.133748999999999896e+00 -2.627440357266536131e-01
1.552999999999999936e+01 2.687500000000000000e+01 6.636400000000000432e+01 1.376558999999999955e+01 -2.637766868196322334e-01
1.553599999999999959e+01 2.961599999999999966e+01 6.998099999999999454e+01 -3.593560999999999783e+00 -2.653614128288169782e-01
1.553599999999999959e+01 3.658899999999999864e+01 8.386499999999999488e+01 -7.892095999999999556e+00 -9.393414484158416067e-02
1.553700000000000081e+01 3.610999999999999943e+01 7.271399999999999864e+01 -2.737000999999999795e+00 -9.618540448763847339e-02
1.553700000000000081e+01 3.781000000000000227e+01 7.271399999999999864e+01 -1.696863000000000010e+00 -9.651366679919301528e-02
1.554400000000000048e+01 1.502100000000000080e+01 9.003900000000000148e+01 -2.715834000000000081e+00 -2.477818105852115926e-01
1.554499999999999993e+01 2.667000000000000171e+01 7.490800000000000125e+01 -5.082474000000000380e+00 -2.658150164747822286e-01
1.554599999999999937e+01 2.355999999999999872e+01 8.077599999999999625e+01 -8.749914000000000414e+00 -2.647638146914963464e-01
1.555799999999999983e+01 2.450199999999999889e+01 8.843300000000000693e+01 -1.678654999999999831e+01 -2.618021685085030748e-01
1.555799999999999983e+01 2.620200000000000173e+01 8.843300000000000693e+01 -1.045063999999999993e+01 -2.764164417705363697e-01
1.555899999999999928e+01 4.924299999999999677e+00 8.610699999999999932e+01 -3.897463999999999817e+00 -2.537778072408122809e-01
1.555899999999999928e+01 2.758299999999999841e+01 8.689799999999999613e+01 9.620466999999999302e+01 -2.839104920747336225e-01
1.555899999999999928e+01 2.898300000000000054e+01 8.689799999999999613e+01 1.935016999999999854e+01 -2.895177895951130953e-01
1.556000000000000050e+01 8.019600000000000506e+00 8.568999999999999773e+01 -1.016633000000000031e+01 -2.534973550555869592e-01
1.556600000000000072e+01 1.372400000000000020e+01 9.076099999999999568e+01 3.220226000000000255e+01 -2.479539963360029020e-01
1.557000000000000028e+01 2.662999999999999901e+01 7.656000000000000227e+01 6.266384000000000398e-01 -2.664644778594280616e-01
1.557000000000000028e+01 3.608899999999999864e+01 7.725100000000000477e+01 2.139842000000000155e+01 -9.573187726169560263e-02
1.557900000000000063e+01 8.622299999999999187e+00 8.500400000000000489e+01 -4.301092999999999833e+00 -2.537971238637416471e-01
1.557900000000000063e+01 9.561700000000000088e+00 8.500400000000000489e+01 -6.280312000000000339e+00 -2.537117712943896541e-01
1.558000000000000007e+01 3.546600000000000108e+01 8.526800000000000068e+01 1.680773000000000081e+02 -9.351720895600726391e-02
1.558200000000000074e+01 2.638500000000000156e+01 7.571399999999999864e+01 -1.463356000000000101e+00 -2.659333757078014560e-01
1.558300000000000018e+01 1.840299999999999869e+01 6.583100000000000307e+01 -5.085262000000000171e+00 -2.614591305700664781e-01
1.558300000000000018e+01 2.375499999999999901e+01 8.406900000000000261e+01 -1.038543999999999912e+01 -2.652319422579506036e-01
1.558600000000000030e+01 1.059699999999999953e+01 9.199200000000000443e+01 -1.017530999999999963e+01 -8.068735746369809503e-02
1.559099999999999930e+01 3.576100000000000279e+01 8.080800000000000693e+01 5.075435999999999837e+00 -9.486524393724075910e-02
1.559099999999999930e+01 3.608899999999999864e+01 8.155299999999999727e+01 -1.342534999999999989e+01 -9.475033270928059914e-02
1.559399999999999942e+01 3.115599999999999881e+01 8.898600000000000421e+01 -2.891666000000000025e+01 -7.767527314006832106e-02
1.559399999999999942e+01 4.530999999999999694e+00 8.754000000000000625e+01 -1.036058000000000057e+01 -2.533178643766313964e-01
1.559399999999999942e+01 4.530999999999999694e+00 8.844599999999999795e+01 -9.532149000000000427e+00 2.754328946871175202e-02
1.559500000000000064e+01 2.658899999999999864e+01 7.746500000000000341e+01 -5.510299999999999976e+00 -2.668612801890333786e-01
1.560299999999999976e+01 3.387800000000000011e+01 8.528300000000000125e+01 -9.935340000000000282e-01 -9.820466322434530382e-02
1.561200000000000010e+01 2.131500000000000128e+01 5.998799999999999955e+01 -8.442576999999999998e+00 -2.619721328660188919e-01
1.562500000000000000e+01 9.367300000000000182e+00 9.116899999999999693e+01 -1.192929999999999957e+01 -8.028104220878044817e-02
1.562500000000000000e+01 2.957000000000000028e+01 8.743099999999999739e+01 -1.799228000000000049e+00 -2.942327512906300901e-01
1.562599999999999945e+01 2.011799999999999855e+01 6.986599999999999966e+01 -5.248814000000000313e+00 -2.619396676657157474e-01
1.562800000000000011e+01 2.613299999999999912e+01 6.235699999999999932e+01 1.309896999999999956e+01 -2.630589264882745582e-01
1.563299999999999912e+01 2.992599999999999838e+01 8.816299999999999670e+01 -8.181276999999999688e+00 -2.834629295480460276e-01
1.563299999999999912e+01 3.238600000000000279e+01 8.635800000000000409e+01 -8.950905999999999807e+00 -6.866029199816615913e-02
1.563299999999999912e+01 3.238600000000000279e+01 8.722299999999999898e+01 -1.069247000000000014e+01 -7.224519386341879401e-02
1.563299999999999912e+01 3.238600000000000279e+01 8.816299999999999670e+01 -1.159205000000000041e+01 -7.779426001170321181e-02
1.563400000000000034e+01 2.637900000000000134e+01 6.546899999999999409e+01 2.280914999999999893e+01 -2.634998085497868847e-01
1.563499999999999979e+01 2.235000000000000142e+01 7.317199999999999704e+01 -1.753535000000000110e+01 -2.629896805379002833e-01
1.563899999999999935e+01 2.351200000000000045e+01 8.208499999999999375e+01 -1.263921999999999990e+01 -2.647397460324084073e-01
1.564400000000000013e+01 3.284199999999999875e+01 7.424399999999999977e+01 5.930365000000000109e+00 -9.708822109098544373e-02
1.564499999999999957e+01 1.944300000000000139e+01 6.820699999999999363e+01 -5.301491999999999649e+00 -2.617174632767272913e-01
1.565399999999999991e+01 3.480499999999999972e+01 7.404099999999999682e+01 -1.642956000000000139e-01 -9.585662396905128557e-02
1.565600000000000058e+01 2.024200000000000088e+01 7.079699999999999704e+01 -7.962458999999999509e-01 -2.619786897974015760e-01
1.565900000000000070e+01 2.411599999999999966e+01 5.923199999999999932e+01 -2.277000999999999920e+01 -2.624152970279230446e-01
1.566000000000000014e+01 2.083399999999999963e+01 5.928499999999999659e+01 -5.414043000000000383e+00 -2.618577492794563200e-01
1.566099999999999959e+01 7.368999999999999773e+00 8.578700000000000614e+01 -6.068867000000000012e+00 -2.535611213046939372e-01
1.566099999999999959e+01 2.049200000000000088e+01 6.232099999999999795e+01 -7.735566999999999638e+00 -2.618888293416051782e-01
1.566200000000000081e+01 1.902899999999999991e+01 6.776000000000000512e+01 -9.438867999999999370e+00 -2.615946265591782005e-01
1.566200000000000081e+01 3.763900000000000290e+01 7.665900000000000603e+01 1.878256000000000014e+01 -9.628525475260898969e-02
1.566300000000000026e+01 2.293299999999999983e+01 5.842099999999999937e+01 -5.438385000000000247e+00 -2.621706057715996740e-01
