1.232399999999999984e+01 1.853500000000000014e+01 4.186800000000000210e+01 -7.923675000000000246e+00 -2.355925519172998028e-01
1.232399999999999984e+01 2.117200000000000060e+01 3.923100000000000165e+01 3.374492000000000047e+00 8.657066492538326163e-02
1.232600000000000051e+01 8.442000000000000171e+00 2.241799999999999926e+01 2.156344999999999956e+00 -5.728408150676224386e-02
1.232900000000000063e+01 2.056700000000000017e+01 3.582699999999999818e+01 2.296609000000000123e+00 -2.335435247329389202e-02
1.233600000000000030e+01 1.473199999999999932e+01 2.842099999999999937e+01 2.577932000000000112e+00 -2.642172734824468905e-02
1.233799999999999919e+01 -1.470400000000000040e-01 3.565100000000000335e+01 1.138812000000000069e+01 -8.832377087958571960e-02
1.234099999999999930e+01 1.789600000000000080e+01 2.908399999999999963e+01 4.432132000000000183e+00 -2.270956448848505949e-01
1.234299999999999997e+01 1.623300000000000054e+01 2.647500000000000142e+01 2.748924000000000145e+00 -2.257635915097779347e-02
1.234500000000000064e+01 1.762399999999999878e+01 2.825000000000000000e+01 1.344651999999999958e+01 -2.287936331293905501e-01
1.235999999999999943e+01 6.239399999999999835e+00 2.350199999999999889e+01 -4.665688000000000279e+00 -5.326507942900970960e-02
1.235999999999999943e+01 1.966799999999999926e+01 4.110999999999999943e+01 6.574468000000000423e+00 -2.861215706859538549e-02
1.236100000000000065e+01 3.055000000000000160e+00 3.169600000000000151e+01 -3.121246000000000187e+00 -6.729008401383698712e-03
1.237199999999999989e+01 1.212400000000000055e+01 2.486400000000000077e+01 -6.453174000000000410e-02 -5.714144603454143073e-02
1.237400000000000055e+01 -1.158700000000000063e+00 3.726500000000000057e+01 1.109909999999999997e+01 -8.907152237018886587e-02
1.237400000000000055e+01 1.828900000000000148e+01 4.675099999999999767e+01 7.905953000000000008e-01 -1.853850830614760525e-01
1.238299999999999912e+01 1.497899999999999920e+01 2.731500000000000128e+01 2.644250000000000211e-01 -2.996316865659132134e-02
1.238299999999999912e+01 1.748699999999999832e+01 2.731500000000000128e+01 5.255090000000000039e+00 9.472164467009104930e-03
1.238899999999999935e+01 1.233900000000000041e+01 2.405499999999999972e+01 -1.192890999999999924e+00 -5.907416725588373468e-02
1.240000000000000036e+01 2.114000000000000057e+01 4.026500000000000057e+01 1.072694000000000036e+00 7.510651599860401761e-02
1.240199999999999925e+01 1.347499999999999964e+01 2.937399999999999878e+01 2.843834000000000195e+00 -2.262155543750406506e-01
1.240300000000000047e+01 8.814099999999999824e+00 4.636999999999999744e+01 2.888036000000000048e+00 -1.805522696420434337e-01
1.240900000000000070e+01 1.867000000000000171e+01 3.228000000000000114e+01 -3.898649000000000342e+01 -4.697858232006187074e-02
1.240900000000000070e+01 1.867000000000000171e+01 3.321999999999999886e+01 -7.574249000000000365e+01 -4.205817707985159970e-02
1.241999999999999993e+01 1.867699999999999960e+01 4.372699999999999676e+01 -6.180613000000000357e-01 -2.330456870250149082e-01
1.242099999999999937e+01 2.299199999999999910e+00 4.415899999999999892e+01 -2.465707000000000038e-01 -1.020600337606022839e-01
1.242800000000000082e+01 -1.403499999999999970e+00 3.777700000000000102e+01 1.041652000000000022e+01 -8.929062055382663843e-02
1.243299999999999983e+01 7.650500000000000078e+00 2.347599999999999909e+01 -3.214440999999999882e+00 -5.439738451628948340e-02
1.244299999999999962e+01 4.940999999999999837e+00 2.276699999999999946e+01 -4.304421999999999748e+00 -5.178217633068549208e-02
1.244800000000000040e+01 2.366899999999999782e+00 3.184499999999999886e+01 -2.797814999999999941e+00 -8.646982091091728884e-02
1.244800000000000040e+01 2.094200000000000017e+01 3.831900000000000261e+01 6.974000000000000199e+00 9.262323674950775909e-02
1.245700000000000074e+01 7.007799999999999585e+00 4.609799999999999898e+01 1.000605999999999973e+01 -1.799142319540365798e-01
1.247100000000000009e+01 5.624399999999999622e+00 4.522999999999999687e+01 5.857000000000000206e+00 -1.801011191100447273e-01
1.247100000000000009e+01 6.631599999999999717e+00 4.522999999999999687e+01 3.711113000000000106e+00 -1.806120466461860197e-01
1.247899999999999920e+01 1.681400000000000006e+01 4.720199999999999818e+01 1.336660999999999966e+01 -1.812571193646528855e-01
1.248000000000000043e+01 1.136100000000000065e+01 2.257000000000000028e+01 -7.299330000000000318e+00 -5.894716060010352088e-02
1.248199999999999932e+01 3.711300000000000043e+00 2.358999999999999986e+01 -7.564763000000000126e+00 -2.284002499845702930e-02
1.248199999999999932e+01 3.711300000000000043e+00 2.453000000000000114e+01 -1.386140999999999934e+01 -2.069081701217832109e-02
1.248199999999999932e+01 3.711300000000000043e+00 2.539499999999999957e+01 -5.164973999999999954e+00 -1.852517156464348821e-02
1.249600000000000044e+01 -5.573299999999999921e-01 3.235699999999999932e+01 -1.588294999999999924e+01 -8.620568200364783773e-02
1.251099999999999923e+01 1.074300000000000033e+01 4.797099999999999653e+01 4.909882000000000135e-02 -1.783571814061817862e-01
1.251500000000000057e+01 4.930900000000000283e+00 4.534499999999999886e+01 7.901830000000000354e+00 -1.796425620727364059e-01
1.252299999999999969e+01 1.901699999999999946e+01 3.569800000000000040e+01 3.205859999999999932e+00 -3.817793461645663244e-02
1.252800000000000047e+01 1.182300000000000040e+01 2.848600000000000065e+01 -2.629452999999999818e+00 -3.851869903839592185e-02
1.254899999999999949e+01 4.024799999999999933e+00 2.784400000000000119e+01 -6.800601999999999592e+00 -1.189805144135440418e-02
1.255300000000000082e+01 1.400400000000000089e+00 3.125700000000000145e+01 -5.549508999999999581e+00 -5.932504020513070311e-03
1.256099999999999994e+01 -8.403300000000000214e-01 3.929699999999999704e+01 4.912033000000000094e+00 -9.033859440838128141e-02
1.257300000000000040e+01 5.234300000000000175e+00 4.604500000000000171e+01 1.039738999999999969e+01 -1.791033022392045926e-01
1.257799999999999940e+01 4.233999999999999986e+00 3.094099999999999895e+01 -7.264617999999999576e+00 -8.690239692717188075e-03
1.257799999999999940e+01 4.443100000000000271e+00 3.020499999999999829e+01 -1.071049000000000007e+01 -1.236289987574847385e-02
1.258000000000000007e+01 1.006499999999999950e+01 4.738700000000000045e+01 2.688441000000000081e+00 -1.791094889862516748e-01
1.259399999999999942e+01 1.635399999999999920e+01 4.742900000000000205e+01 5.884155999999999942e+00 -1.792002164726088087e-01
1.261700000000000088e+01 4.114799999999999791e+00 2.881299999999999883e+01 -6.062204000000000370e+00 -1.793594294267811598e-02
1.261700000000000088e+01 4.323900000000000077e+00 2.954899999999999949e+01 -1.174572000000000038e+01 -1.487308185121821724e-02
1.262199999999999989e+01 7.950099999999999945e+00 4.617300000000000182e+01 5.886417999999999928e+00 -1.799912466708624981e-01
1.262199999999999989e+01 8.920999999999999375e+00 2.164300000000000068e+01 -1.096676999999999902e+00 -5.525779799306376056e-02
1.262199999999999989e+01 1.047100000000000009e+01 2.164300000000000068e+01 -1.359831000000000012e+00 -5.665804709299630121e-02
1.264100000000000001e+01 -9.693899999999999739e-01 3.833899999999999864e+01 5.504850000000000243e+00 -8.961663942982017739e-02
1.264400000000000013e+01 5.602699999999999569e+00 4.689500000000000313e+01 1.167511000000000010e+01 -1.783720288602432535e-01
1.264400000000000013e+01 6.653299999999999770e+00 4.689500000000000313e+01 3.396500999999999948e+01 -1.786583826636736760e-01
1.265099999999999980e+01 1.090500000000000025e+00 3.044300000000000139e+01 -5.373287999999999620e+00 -7.709465626910554266e-03
1.266300000000000026e+01 1.186700000000000088e+01 4.913400000000000034e+01 -1.023835000000000051e+00 -1.755490749038899623e-01
1.266900000000000048e+01 1.391099999999999959e+01 4.997200000000000131e+01 4.040536999999999601e+00 -1.721557361165314548e-01
1.266900000000000048e+01 1.535699999999999932e+01 4.916599999999999682e+01 9.886856999999999118e+00 -1.722875864749473518e-01
1.267900000000000027e+01 1.545800000000000018e+01 2.653999999999999915e+01 -3.434080999999999939e-01 -1.719974937303962031e-02
1.267900000000000027e+01 1.700799999999999912e+01 2.653999999999999915e+01 5.418777999999999651e+00 1.228502775608936344e-02
1.269999999999999929e+01 8.083099999999999952e+00 2.277599999999999980e+01 5.522124999999999950e+00 -5.300098395347646596e-02
1.270800000000000018e+01 1.582399999999999984e+01 4.823599999999999710e+01 -5.709716000000000236e+00 -1.748759029059888670e-01
1.271299999999999919e+01 -4.480000000000000093e-01 2.948699999999999832e+01 -7.599647000000000041e+00 -9.534896092135021137e-03
1.272300000000000075e+01 1.227300000000000058e+00 4.215599999999999881e+01 4.562126000000000237e-01 -9.315151460084636348e-02
1.272899999999999920e+01 2.051800000000000068e+01 4.103900000000000148e+01 -2.236355999999999788e+00 -2.854483423327291297e-02
1.273199999999999932e+01 -4.813299999999999801e-01 3.327499999999999858e+01 -2.824066999999999883e+00 -8.644851431332514768e-02
1.273600000000000065e+01 1.431499999999999995e+00 4.304200000000000159e+01 -7.096023000000000192e-01 -9.381885833094330551e-02
1.273600000000000065e+01 6.950499999999999901e+00 2.353500000000000014e+01 -7.553695000000000270e+00 -5.101436835329052621e-02
1.274000000000000021e+01 3.846200000000000174e-01 4.053000000000000114e+01 5.116996999999999574e+00 -9.157905989106969458e-02
1.274600000000000044e+01 1.148000000000000043e+01 2.723900000000000077e+01 1.248146999999999984e+01 -4.072987308425189690e-02
1.275200000000000067e+01 -1.677699999999999969e+00 3.030999999999999872e+01 -3.196791999999999856e+00 -6.807191448788489641e-03
1.275200000000000067e+01 -1.677699999999999969e+00 3.125000000000000000e+01 -2.870687999999999906e+00 -8.551625127434034357e-02
1.275699999999999967e+01 1.923499999999999943e+01 4.160099999999999909e+01 -3.191276000000000113e-01 -2.055686811283751608e-02
1.277200000000000024e+01 4.181000000000000050e+00 2.282999999999999829e+01 -7.517979000000000411e+00 -2.374075379759386234e-02
1.277200000000000024e+01 5.700999999999999623e+00 2.282999999999999829e+01 -1.394743000000000066e+01 -5.035174351129958342e-02
1.277999999999999936e+01 1.159999999999999964e+01 2.641700000000000159e+01 1.146626999999999974e+01 -4.314302889778803135e-02
1.277999999999999936e+01 1.180899999999999928e+01 2.568100000000000094e+01 4.109055999999999820e-01 -4.563094208277513469e-02
1.281499999999999950e+01 1.893199999999999861e+01 4.230100000000000193e+01 -3.692032999999999898e+00 -2.354219170739337286e-01
1.282000000000000028e+01 1.760600000000000165e+01 3.421000000000000085e+01 -1.421338000000000079e+01 -2.891645406114169356e-02
1.282600000000000051e+01 1.577700000000000102e+00 4.362599999999999767e+01 -1.590791000000000066e+00 -9.805861799589908612e-02
1.282600000000000051e+01 3.416700000000000070e+00 2.586299999999999955e+01 -4.079864999999999853e+00 -1.365407914283733350e-02
1.282600000000000051e+01 3.416700000000000070e+00 2.691300000000000026e+01 -4.708453999999999695e+00 -1.078189864897495173e-02
1.282600000000000051e+01 1.971699999999999875e+01 3.575600000000000023e+01 4.140001999999999960e+00 1.520737742902790457e-01
1.284900000000000020e+01 4.358399999999999608e+00 4.612599999999999767e+01 2.197394000000000069e+00 -1.784409940879850831e-01
1.285299999999999976e+01 1.751399999999999935e+01 4.704699999999999704e+01 3.696998999999999924e+00 -1.780672512573344135e-01
1.285299999999999976e+01 1.883299999999999841e+01 4.631199999999999761e+01 7.360843000000000025e+00 -1.834130245934836589e-01
1.285299999999999976e+01 1.906400000000000006e+01 4.549699999999999989e+01 -1.370268000000000086e+01 -1.981780928989135548e-01
1.285800000000000054e+01 3.915200000000000014e+00 4.550600000000000023e+01 2.765995999999999899e+00 -1.787648193642512873e-01
1.285800000000000054e+01 4.863999999999999879e+00 4.704200000000000159e+01 2.955808000000000213e+00 -1.778145765828902103e-01
1.286500000000000021e+01 -7.426700000000000523e-01 3.609300000000000352e+01 1.871062000000000003e+00 -8.801529307145598835e-02
1.286999999999999922e+01 3.517700000000000049e+00 2.504299999999999926e+01 -4.256626999999999938e+00 -1.570883026574988045e-02
1.287899999999999956e+01 1.791000000000000014e+01 3.350999999999999801e+01 -6.777043000000000461e+01 -3.246662309033696014e-02
1.287899999999999956e+01 1.791000000000000014e+01 3.490999999999999659e+01 -7.696829000000000143e+00 -3.060971709215536476e-02
1.288000000000000078e+01 1.381099999999999994e+01 2.888299999999999912e+01 2.229333000000000009e+00 -2.241338117786146888e-01
1.291399999999999970e+01 2.119999999999999929e+01 3.659300000000000352e+01 6.917429999999999968e-01 1.765763151620693139e-01
1.291499999999999915e+01 8.527400000000000535e-01 4.128799999999999670e+01 1.808519999999999905e+00 -9.224106101762342969e-02
1.292200000000000060e+01 1.276999999999999957e+01 2.358500000000000085e+01 -3.175745000000000040e+00 -4.776696285974502826e-02
1.292200000000000060e+01 1.276999999999999957e+01 2.452499999999999858e+01 -6.249297999999999575e+00 -4.442116592979243606e-02
1.292800000000000082e+01 2.138700000000000045e+00 3.134600000000000009e+01 -4.821576999999999558e+00 -8.548237290775374808e-02
1.294200000000000017e+01 1.823900000000000077e+01 3.275000000000000000e+01 -7.018237000000000592e+01 -3.875143931460436203e-02
1.296100000000000030e+01 1.231400000000000006e+01 2.888299999999999912e+01 1.541700999999999988e+00 -2.254158670549718246e-01
1.296299999999999919e+01 -1.067700000000000038e-01 3.414000000000000057e+01 4.385073999999999916e-01 -8.676411156097715849e-02
1.297700000000000031e+01 1.797100000000000009e+01 3.199099999999999966e+01 -7.503966000000000136e+00 -3.894135084934769592e-02
1.298199999999999932e+01 3.956999999999999851e+00 4.697399999999999665e+01 8.688065999999999844e-01 -1.775586661783837561e-01
1.298600000000000065e+01 -1.282200000000000006e+00 3.207999999999999829e+01 -2.370152000000000037e+00 -8.560135845426716794e-02
1.300200000000000067e+01 3.111600000000000144e+00 4.510999999999999943e+01 2.238415999999999961e+00 -1.786415817452294552e-01
1.300799999999999912e+01 1.764999999999999902e+00 4.429999999999999716e+01 -1.169812999999999992e+00 1.871883975973895331e-02
1.301099999999999923e+01 3.743100000000000094e+00 3.133800000000000097e+01 -6.089793000000000234e+00 -8.588036471643209491e-02
1.303299999999999947e+01 1.125600000000000023e+01 4.834300000000000352e+01 -1.431416999999999939e+00 -1.763034871481825583e-01
1.303800000000000026e+01 -2.053300000000000125e-01 3.534799999999999898e+01 -1.176911999999999958e+00 -8.746559432556477720e-02
1.304199999999999982e+01 -1.207999999999999963e+00 2.955000000000000071e+01 -4.195189000000000057e+00 -7.091307754246897396e-03
1.304199999999999982e+01 3.119999999999999996e-01 2.955000000000000071e+01 -2.017627999999999844e+01 -7.412320976570224880e-03
1.306900000000000084e+01 9.515000000000000568e+00 4.673899999999999721e+01 5.019622000000000028e+00 -1.789375273664733923e-01
1.307399999999999984e+01 -8.912799999999999612e-01 3.683200000000000074e+01 4.173141000000000211e+00 -8.830203394602179068e-02
1.307600000000000051e+01 7.539500000000000313e+00 4.669899999999999807e+01 3.413749000000000144e+00 -1.784508679798530451e-01
1.308300000000000018e+01 1.790599999999999881e+01 2.870599999999999952e+01 -2.594914999999999861e+00 -8.445605559601157553e-02
1.308600000000000030e+01 9.671000000000000776e-03 3.962199999999999989e+01 1.458399000000000001e+01 -9.053816229751419919e-02
1.310100000000000087e+01 8.377499999999999503e+00 2.208200000000000074e+01 -2.777742000000000266e-01 -4.994685843314666113e-02
1.310100000000000087e+01 9.695999999999999730e+00 2.134700000000000131e+01 -1.446282999999999985e+00 -5.080442473824668681e-02
1.310100000000000087e+01 1.106700000000000017e+01 2.198300000000000054e+01 -1.571576000000000084e+00 -4.998295021528988830e-02
1.310899999999999999e+01 -7.183300000000000241e-01 3.786099999999999710e+01 3.048003000000000018e+00 -8.902029426839019877e-02
1.311800000000000033e+01 3.798900000000000166e+00 2.778999999999999915e+01 -7.854097999999999580e+00 -1.700026152728099926e-02
1.312500000000000000e+01 2.200000000000000178e+00 4.503399999999999892e+01 -1.685484999999999900e+00 -1.666909040205989956e-01
1.312500000000000000e+01 6.128000000000000114e+00 4.749099999999999966e+01 2.460895999999999972e+01 -1.772836857072897510e-01
1.313299999999999912e+01 7.383099999999999774e+00 2.304400000000000048e+01 -2.891840999999999884e+00 -4.842078730926364927e-02
1.314799999999999969e+01 2.121000000000000085e+01 3.788600000000000279e+01 6.040511000000000408e+00 9.953759650490835720e-02
1.315000000000000036e+01 1.787300000000000111e+01 3.057700000000000173e+01 1.519126999999999938e+01 -1.195889665002515256e-01
1.315799999999999947e+01 1.458600000000000030e+01 2.772400000000000020e+01 -9.680800000000000516e-01 -3.609135833023814719e-03
1.315799999999999947e+01 1.491399999999999970e+01 2.697899999999999920e+01 -1.660916000000000059e+00 -2.595403669395484822e-03
1.315799999999999947e+01 1.623300000000000054e+01 2.624399999999999977e+01 -2.811652000000000040e-01 1.762254089566107212e-02
1.315799999999999947e+01 1.755199999999999960e+01 2.697899999999999920e+01 -9.618309999999999249e+00 5.454214753356394219e-02
1.315799999999999947e+01 1.778300000000000125e+01 2.779400000000000048e+01 -7.271970999999999741e+00 -6.574245891947087805e-02
1.316900000000000048e+01 1.744000000000000128e+01 3.275000000000000000e+01 -1.010021000000000058e+01 -2.969544403901181601e-02
1.317399999999999949e+01 3.426099999999999923e+00 4.621500000000000341e+01 4.416591000000000378e+00 -1.778028384705708786e-01
1.317800000000000082e+01 4.015699999999999825e+00 2.853900000000000148e+01 -5.836096999999999646e+00 -1.331062271677131183e-02
1.318299999999999983e+01 1.978300000000000125e+01 4.147999999999999687e+01 -2.341848999999999847e+00 -1.848038194129971237e-02
1.318699999999999939e+01 6.496999999999999886e+00 2.301000000000000156e+01 -4.879938000000000109e+00 -4.772215165865980463e-02
1.319400000000000084e+01 1.306099999999999994e+01 4.964699999999999847e+01 -4.227721999999999980e+00 -1.720782882960196214e-01
1.319400000000000084e+01 1.476099999999999923e+01 4.964699999999999847e+01 5.828199999999999825e+00 -1.696356773077075664e-01
1.319500000000000028e+01 2.056700000000000017e+01 3.582699999999999818e+01 -2.271616999999999942e-01 -1.787175121608642475e-02
1.320100000000000051e+01 2.123000000000000043e+01 3.878399999999999892e+01 3.743829999999999991e+00 9.254085206603571145e-02
1.320899999999999963e+01 3.157900000000000151e+00 4.697399999999999665e+01 9.028559000000000445e-01 -1.771972932864628869e-01
1.321199999999999974e+01 1.230000000000000071e+01 2.282499999999999929e+01 -9.580920000000000769e+00 -4.497880863173375765e-02
1.321199999999999974e+01 1.230000000000000071e+01 2.528500000000000014e+01 -3.640516000000000219e+01 -3.630139908888754124e-02
1.322000000000000064e+01 -4.302599999999999758e-01 3.885699999999999932e+01 7.630575999999999581e+00 -8.972626340295107583e-02
1.323000000000000043e+01 1.800199999999999889e+01 2.961899999999999977e+01 1.476744000000000057e+01 -1.094113097680361746e-01
1.323499999999999943e+01 1.717800000000000082e+01 3.198199999999999932e+01 2.345080000000000098e+01 -3.001220718833881931e-02
1.323499999999999943e+01 1.717800000000000082e+01 3.351800000000000068e+01 4.500893999999999728e+00 -2.587617140094842366e-02
1.324200000000000088e+01 3.420999999999999819e+00 2.405999999999999872e+01 -4.905837000000000003e+00 -1.495615881925080326e-02
1.324200000000000088e+01 3.648000000000000131e+00 2.326099999999999923e+01 -1.336636999999999986e+01 -1.745501983952775157e-02
1.324200000000000088e+01 4.940999999999999837e+00 2.253999999999999915e+01 -4.478125999999999607e+00 -4.712295477679653843e-02
1.324600000000000044e+01 1.550399999999999956e+01 4.906400000000000006e+01 4.164741999999999750e-02 -1.694462895378017753e-01
1.325399999999999956e+01 2.111400000000000077e+01 4.055799999999999983e+01 5.631000000000000227e+00 -2.628388263806247932e-02
1.325399999999999956e+01 2.136799999999999855e+01 3.966400000000000148e+01 1.624313000000000073e+01 8.476103414431644667e-02
1.327200000000000024e+01 3.487299999999999844e+00 4.773400000000000176e+01 2.166027000000000147e+00 -1.766453294999216495e-01
1.327200000000000024e+01 4.426700000000000301e+00 4.773400000000000176e+01 4.059145000000000181e+01 -1.767227796615521984e-01
1.327500000000000036e+01 1.834199999999999875e+01 3.540100000000000335e+01 -2.491655999999999871e-01 1.710077701407797524e-01
1.327800000000000047e+01 4.175699999999999967e+00 2.977199999999999847e+01 -7.481309000000000431e+00 -6.628337493846607476e-03
1.327800000000000047e+01 4.175699999999999967e+00 3.063800000000000168e+01 -9.740171000000000134e+00 -8.519988045661204545e-02
1.328599999999999959e+01 1.681400000000000006e+01 4.731400000000000006e+01 -1.153170999999999946e+00 -1.736098504096141859e-01
1.328599999999999959e+01 1.930199999999999960e+01 4.414000000000000057e+01 -2.051866000000000057e+01 -2.157775881611496138e-01
1.331099999999999994e+01 1.721000000000000085e+01 3.464300000000000068e+01 -1.742245000000000044e+00 -2.555641902370489604e-02
1.331400000000000006e+01 3.043099999999999916e+00 3.139600000000000080e+01 -7.328940000000000232e+00 -8.518710268563606247e-02
1.331700000000000017e+01 4.056499999999999773e+00 2.911700000000000088e+01 -6.178321000000000396e+00 -9.192782676539924813e-03
1.331900000000000084e+01 7.456700000000000550e-01 4.268099999999999739e+01 -1.186442999999999914e+00 -9.284846162900625699e-02
1.332199999999999918e+01 1.229899999999999993e+00 4.358500000000000085e+01 -2.796562000000000214e+00 -9.370487204799965442e-02
1.333200000000000074e+01 1.828900000000000148e+01 4.675099999999999767e+01 9.724036999999999864e+01 -1.724457559769956849e-01
1.335399999999999920e+01 5.727299999999999613e-01 4.165200000000000102e+01 5.677377999999999592e-01 -9.205677810637927228e-02
1.335699999999999932e+01 1.742299999999999827e+01 3.119900000000000162e+01 1.104505999999999943e+01 -1.142253085486180098e-01
1.336800000000000033e+01 1.932600000000000051e+01 4.312299999999999756e+01 -5.301179999999999559e+00 -2.260449414515873501e-01
1.337800000000000011e+01 1.670400000000000063e+01 3.275000000000000000e+01 1.436285999999999952e+01 -2.392061245111743589e-02
1.339700000000000024e+01 1.896000000000000085e+01 3.539900000000000091e+01 1.253757999999999928e+00 1.647206570591148167e-01
1.343500000000000050e+01 7.851099999999999746e+00 2.275000000000000000e+01 3.284553999999999974e+00 -4.613553078926463380e-02
1.343999999999999950e+01 1.370100000000000096e+00 2.991000000000000014e+01 -5.535995999999999917e+00 -3.450646078618366079e-03
1.344400000000000084e+01 1.778000000000000114e+01 2.823300000000000054e+01 -1.184178999999999959e+01 -6.619566647545740978e-02
1.344400000000000084e+01 1.789799999999999969e+01 2.907999999999999829e+01 9.524770000000000181e+00 -8.344779981910169231e-02
1.344999999999999929e+01 1.935000000000000142e+01 4.217999999999999972e+01 -4.087035000000000196e+00 -6.156467296800704342e-03
1.347499999999999964e+01 1.786200000000000010e-01 3.904099999999999682e+01 1.372756000000000043e+01 -8.990416836580973625e-02
1.348600000000000065e+01 1.169400000000000084e+01 2.762099999999999866e+01 8.950328000000000728e+00 -2.436850877962349823e-02
1.348600000000000065e+01 1.190300000000000047e+01 2.835699999999999932e+01 2.744543000000000177e+00 -2.243371141258797830e-01
1.348600000000000065e+01 1.309399999999999942e+01 2.902100000000000080e+01 1.119914999999999949e+01 -2.231408538642354333e-01
1.348600000000000065e+01 1.428500000000000014e+01 2.835699999999999932e+01 -1.562389000000000028e+00 -2.205589131836167560e-01
1.348900000000000077e+01 -9.347699999999999898e-01 3.562599999999999767e+01 -7.600379000000000440e-01 -8.713220205500200877e-02
1.349200000000000088e+01 -5.526499999999999746e-01 3.474399999999999977e+01 -2.049748999999999821e+00 -8.658322743660980259e-02
1.349399999999999977e+01 6.977999999999999758e+00 4.742000000000000171e+01 7.886224000000000345e+00 -1.769044123888293407e-01
1.349399999999999977e+01 6.631399999999999517e-01 4.085699999999999932e+01 2.516856999999999900e+00 -9.146583905444280460e-02
1.350200000000000067e+01 -4.817799999999999860e-01 2.914900000000000091e+01 -4.815252000000000088e+00 -5.368016668640487356e-03
1.350200000000000067e+01 8.814999999999999503e+00 4.647200000000000131e+01 3.693198000000000203e+00 -1.782587770614989520e-01
1.351200000000000045e+01 -1.967999999999999972e+00 3.078000000000000114e+01 -4.099704000000000015e+00 -8.467958010529764989e-02
1.351200000000000045e+01 -1.741000000000000103e+00 2.998100000000000165e+01 -3.532538999999999874e+00 -8.438937846569823098e-02
1.351200000000000045e+01 -1.741000000000000103e+00 3.157900000000000063e+01 -2.838537999999999784e+00 -8.493479614409327194e-02
1.351299999999999990e+01 1.219200000000000017e+01 4.860900000000000176e+01 -9.294427000000000660e+00 -1.739887327399934347e-01
1.352200000000000024e+01 5.198900000000000077e+00 4.779299999999999926e+01 1.012972000000000072e+01 -1.764302389591069775e-01
1.352899999999999991e+01 -6.678300000000000347e-01 3.363000000000000256e+01 -1.950674999999999937e+00 -8.584727807029807201e-02
1.354800000000000004e+01 1.767699999999999960e+01 3.538799999999999812e+01 -1.587202999999999919e+00 1.785375726441490174e-01
1.358000000000000007e+01 8.920999999999999375e+00 2.164300000000000068e+01 -1.140503999999999962e+00 -4.570003081732518929e-02
1.358000000000000007e+01 1.047100000000000009e+01 2.164300000000000068e+01 -5.762766000000000277e-01 -4.456425365031270458e-02
1.358500000000000085e+01 2.363799999999999901e+00 4.580499999999999972e+01 7.141849000000000114e-01 -1.669394312431729532e-01
1.358999999999999986e+01 1.069999999999999929e+01 4.718399999999999750e+01 8.695241999999999694e-01 -1.770924394243841293e-01
1.359099999999999930e+01 3.282999999999999918e+00 2.735300000000000153e+01 -6.000723999999999947e+00 -2.852049257899403820e-03
1.361100000000000065e+01 -9.155100000000000460e-01 3.283100000000000307e+01 -7.145673000000000386e+00 -8.532589843054909362e-02
1.362800000000000011e+01 1.876800000000000068e+01 4.597599999999999909e+01 1.238922000000000025e+02 -1.744830859299182912e-01
1.363599999999999923e+01 1.907499999999999929e+01 4.517600000000000193e+01 -1.322583999999999982e+01 -1.859259317703652603e-01
1.363700000000000045e+01 1.545800000000000018e+01 2.653999999999999915e+01 2.015896999999999828e+00 2.312633269791996085e-02
1.363700000000000045e+01 1.700799999999999912e+01 2.653999999999999915e+01 5.730067000000000021e+00 6.295142963281433190e-02
1.364300000000000068e+01 2.667199999999999793e+00 4.650500000000000256e+01 7.344473999999999725e-01 -1.770182278905253481e-01
1.366099999999999959e+01 1.217999999999999972e+00 2.939999999999999858e+01 -4.961114000000000246e+00 -3.466200620600651174e-03
1.368200000000000038e+01 1.160800000000000054e+01 2.241100000000000136e+01 -3.549234000000000222e+00 -3.965524304258744026e-02
1.368200000000000038e+01 1.188400000000000034e+01 2.580300000000000082e+01 -3.559450999999999965e+01 -2.652671340640611747e-02
1.368200000000000038e+01 1.283300000000000018e+01 2.325600000000000023e+01 -5.986422000000000132e+00 -3.224028156007797963e-02
1.368200000000000038e+01 1.283300000000000018e+01 2.485399999999999920e+01 -3.065645999999999916e+01 -2.453564971414382706e-02
1.368200000000000038e+01 1.306000000000000050e+01 2.405499999999999972e+01 -1.186566000000000010e+01 -2.708396406307137655e-02
1.368900000000000006e+01 9.579700000000000770e+00 4.638499999999999801e+01 9.447820999999999358e+00 -1.781265060408110668e-01
1.368900000000000006e+01 1.044500000000000028e+01 4.638499999999999801e+01 7.947776000000000174e+00 -1.782579250847207697e-01
1.369400000000000084e+01 1.586800000000000033e+01 3.286800000000000210e+01 2.491625000000000156e+01 -2.488870988665590200e-01
1.370199999999999996e+01 3.240299999999999958e+00 2.549200000000000088e+01 -5.276036000000000392e+00 -7.106845259002650579e-03
1.370299999999999940e+01 3.956999999999999851e+00 4.826700000000000301e+01 2.977745000000000175e+01 -1.758384120721669108e-01
1.371100000000000030e+01 2.610500000000000043e+00 3.090500000000000114e+01 -7.894984000000000002e+00 -8.420347391400859194e-02
1.371100000000000030e+01 3.475699999999999790e+00 3.090500000000000114e+01 -7.741696000000000133e+00 -8.438226594150918802e-02
1.371100000000000030e+01 1.599200000000000088e+01 4.849799999999999756e+01 2.457111000000000089e+01 -1.674043419685242451e-01
1.371199999999999974e+01 4.181000000000000050e+00 2.282999999999999829e+01 -1.070994999999999919e+01 -1.613920527508320643e-02
1.371199999999999974e+01 5.700999999999999623e+00 2.282999999999999829e+01 -2.877691000000000088e+01 -4.407685082940630827e-02
1.372000000000000064e+01 1.971699999999999875e+01 3.550200000000000244e+01 1.756364000000000036e+00 1.545224210370118867e-01
1.372000000000000064e+01 2.116300000000000026e+01 3.630799999999999983e+01 1.312222000000000111e-01 1.681407283290144994e-01
1.372000000000000064e+01 2.141700000000000159e+01 3.720199999999999818e+01 1.076599000000000039e+01 1.828007741562627519e-01
1.373399999999999999e+01 1.756800000000000139e+01 4.688900000000000290e+01 -1.907093000000000060e+01 -1.695003533247324001e-01
1.373900000000000077e+01 1.170500000000000007e+01 2.675300000000000011e+01 -3.474204000000000181e-01 -2.278744722873743064e-02
1.374200000000000088e+01 2.727300000000000058e+00 4.744400000000000261e+01 -1.326500000000000012e+00 -1.763274881275329053e-01
1.374300000000000033e+01 1.404199999999999982e+01 4.964800000000000324e+01 -3.951493999999999840e+00 -1.688020237689392689e-01
1.375200000000000067e+01 1.617099999999999937e+01 3.216799999999999926e+01 5.321654000000000195e+01 -2.453123400289717038e-01
1.375200000000000067e+01 1.617099999999999937e+01 3.356799999999999784e+01 1.113716999999999935e+01 -2.272259482451617282e-02
1.375600000000000023e+01 -2.456500000000000072e-01 3.814500000000000313e+01 5.395088000000000328e+00 -8.885505726859553588e-02
1.376800000000000068e+01 1.634900000000000020e+01 4.769500000000000028e+01 2.787351000000000134e+00 -1.690705413079190422e-01
1.376900000000000013e+01 3.779100000000000126e+00 3.020499999999999829e+01 -6.017681999999999753e+00 -8.397231017309583767e-02
1.377299999999999969e+01 2.127899999999999991e+01 3.808200000000000074e+01 1.111800000000000033e+01 9.974644386228147253e-02
1.377399999999999913e+01 3.195700000000000207e-01 2.919399999999999906e+01 -7.247556999999999583e+00 -3.343620143052082605e-03
1.377599999999999980e+01 1.118000000000000105e+00 4.482399999999999807e+01 -3.990899999999999892e+00 2.041200544526520361e-02
1.377899999999999991e+01 2.051800000000000068e+01 4.103900000000000148e+01 -9.509071999999999747e+00 -1.594844428938606978e-02
1.378200000000000003e+01 1.466099999999999959e+01 4.942000000000000171e+01 -7.518919999999999604e+00 -1.679127148028399241e-01
1.378400000000000070e+01 4.549699999999999855e-01 4.279200000000000159e+01 -1.132783000000000095e+00 -9.249618924677607823e-02
1.381300000000000061e+01 8.332600000000000007e-01 4.401800000000000068e+01 -1.665423000000000098e+00 -9.346300562816220459e-02
1.381900000000000084e+01 2.877899999999999903e+00 2.689499999999999957e+01 -5.377480000000000260e+00 -1.755564858653771822e-03
1.381900000000000084e+01 3.087000000000000188e+00 2.615899999999999892e+01 -4.320511999999999908e+00 -4.055973291646246259e-03
1.385299999999999976e+01 1.666400000000000148e+01 3.138299999999999912e+01 2.361724999999999852e+01 -9.785273467509650325e-02
1.386800000000000033e+01 7.151099999999999568e+00 2.301699999999999946e+01 -3.513297999999999810e+00 -4.234751348748223149e-02
1.386800000000000033e+01 8.342000000000000526e+00 2.235300000000000153e+01 -7.385684000000000138e-01 -4.243900366325970008e-02
1.387800000000000011e+01 3.748299999999999965e+00 2.810600000000000165e+01 -5.895781999999999634e+00 -7.858773647741335716e-03
1.387800000000000011e+01 3.748299999999999965e+00 2.897100000000000009e+01 -5.378548999999999580e+00 -3.799045372991189610e-03
1.388700000000000045e+01 3.508700000000000152e+00 2.954500000000000171e+01 -5.488387999999999600e+00 -8.340439043979726297e-02
1.390000000000000036e+01 1.903999999999999915e+00 4.551299999999999812e+01 3.312213999999999992e-01 -1.651439684928926455e-01
1.390900000000000070e+01 2.188800000000000079e+00 3.024099999999999966e+01 -6.086324000000000289e+00 -8.354744499340467645e-02
1.391600000000000037e+01 9.695999999999999730e+00 2.157799999999999940e+01 3.447369000000000128e+00 -4.169943973342424975e-02
1.391600000000000037e+01 -6.691599999999999770e-01 3.750200000000000244e+01 6.849545999999999690e-01 -8.813320135489688401e-02
1.391900000000000048e+01 1.239400000000000013e+01 2.875400000000000134e+01 5.135870999999999853e+00 -2.227653703475268032e-01
1.392300000000000004e+01 1.102599999999999980e+01 2.229599999999999937e+01 6.176529000000000380e+00 -3.788163307833213034e-02
1.393299999999999983e+01 1.497899999999999920e+01 2.731500000000000128e+01 1.488560000000000057e-02 -2.162113144756611371e-01
1.393299999999999983e+01 1.748699999999999832e+01 2.731500000000000128e+01 -2.956252000000000102e+00 -3.914825067773535644e-02
1.393299999999999983e+01 1.461800000000000033e+01 2.805099999999999838e+01 -8.675231999999999388e+00 -2.172268632231708074e-01
1.393500000000000050e+01 8.115000000000000213e+00 4.673899999999999721e+01 -8.851166999999999785e-01 -1.770042192776191681e-01
1.394200000000000017e+01 1.816700000000000159e+01 3.588499999999999801e+01 9.734317000000000109e-01 1.677909158002126033e-01
1.395400000000000063e+01 7.604300000000000281e+00 4.706300000000000239e+01 -4.119189999999999685e+00 -1.765796378984733350e-01
1.396299999999999919e+01 6.185399999999999565e+00 4.784799999999999898e+01 6.805137000000000214e+00 -1.758046116709224282e-01
1.396700000000000053e+01 1.077299999999999924e+00 3.957300000000000040e+01 7.852471000000000423e+00 -9.036769220729144736e-02
1.396700000000000053e+01 1.077299999999999924e+00 4.043800000000000239e+01 6.530869000000000035e+00 -9.105945759551745122e-02
1.396700000000000053e+01 1.885399999999999965e+00 2.954100000000000037e+01 -5.558705999999999925e+00 -8.319726171981653429e-02
1.397300000000000075e+01 1.623300000000000054e+01 2.647500000000000142e+01 2.296750000000000114e+01 5.516337616115712938e-02
1.397799999999999976e+01 3.043099999999999916e+00 3.020499999999999829e+01 -5.920843999999999774e+00 -8.348076675738960728e-02
1.398099999999999987e+01 1.665200000000000102e+01 3.438300000000000267e+01 -3.269225000000000048e+00 1.963506163848072750e-01
1.398099999999999987e+01 1.697700000000000031e+01 3.512100000000000222e+01 -6.591920000000000002e+00 1.881382410061626653e-01
1.398099999999999987e+01 -1.307099999999999929e+00 3.207000000000000028e+01 -6.070729000000000042e+00 -8.462326033390568658e-02
1.398199999999999932e+01 -1.207999999999999963e+00 2.955000000000000071e+01 -5.917622999999999855e+00 -8.369130997059062715e-02
1.399399999999999977e+01 1.718900000000000006e+01 3.064199999999999946e+01 1.193393000000000015e+01 -9.259097244560614282e-02
1.400200000000000067e+01 3.711300000000000043e+00 2.358999999999999986e+01 -1.072916999999999987e+01 -1.073318984880094508e-02
1.402500000000000036e+01 1.396100000000000030e+01 2.866400000000000148e+01 3.700108000000000175e+00 -2.191270918434727322e-01
1.403200000000000003e+01 3.197000000000000064e+00 4.820400000000000063e+01 3.309684999999999988e+00 -1.755603417005318356e-01
1.403200000000000003e+01 4.716999999999999638e+00 4.820400000000000063e+01 2.988041000000000125e+01 -1.754998348654744078e-01
1.404100000000000037e+01 4.940999999999999837e+00 2.276699999999999946e+01 -2.710977000000000103e+01 -1.553983336041682775e-02
1.404299999999999926e+01 3.576799999999999979e+00 2.451399999999999935e+01 -5.040540000000000020e+00 -7.613928314099974171e-03
1.404599999999999937e+01 1.936499999999999844e+01 4.446900000000000119e+01 -9.839149000000000811e+00 -1.865507538761712603e-01
1.404599999999999937e+01 1.959199999999999875e+01 4.367000000000000171e+01 -2.119861999999999824e+01 -1.997081591915784715e-01
1.405599999999999916e+01 1.150900000000000034e+01 4.753000000000000114e+01 -5.832018999999999842e+00 -1.749361595523457047e-01
1.407499999999999929e+01 1.946999999999999886e+01 4.285399999999999920e+01 -9.275463000000000235e+00 -2.073893951001361535e-01
1.408500000000000085e+01 1.001200000000000045e+01 4.589399999999999835e+01 1.273877000000000059e+01 -1.780253184062603189e-01
1.409299999999999997e+01 1.679400000000000048e+01 4.697500000000000142e+01 -1.093412000000000006e+01 -1.685024948776462361e-01
1.409699999999999953e+01 -1.300699999999999967e+00 3.520400000000000063e+01 -1.153596999999999984e+00 -8.629038552080617319e-02
1.409699999999999953e+01 -1.300699999999999967e+00 3.614399999999999835e+01 -1.091499999999999915e+00 -8.692145485053820453e-02
1.410399999999999920e+01 2.104299999999999926e+01 4.018900000000000006e+01 1.010410000000000075e+01 -2.208302640515641055e-02
1.410699999999999932e+01 1.799299999999999855e+01 4.627199999999999847e+01 -2.159922999999999860e+01 -1.676777157565341458e-01
1.411400000000000077e+01 7.687800000000000189e-01 2.880600000000000094e+01 -4.693651000000000018e+00 -2.073359680041514299e-03
1.412100000000000044e+01 1.114499999999999957e+01 4.665200000000000102e+01 -1.047809999999999908e+00 -1.765724891221694404e-01
1.414400000000000013e+01 6.400999999999999801e+00 2.309799999999999898e+01 -4.615483000000000224e+00 -4.057542402026949324e-02
1.415099999999999980e+01 1.239899999999999913e+01 2.534499999999999886e+01 -2.889387999999999934e+01 -1.555708622751613215e-02
1.415099999999999980e+01 1.759199999999999875e+01 2.839099999999999824e+01 -4.139688000000000301e+01 -1.997573367974072034e-01
1.415199999999999925e+01 1.230000000000000071e+01 2.282499999999999929e+01 -1.862086000000000041e+01 -2.800197091032185365e-02
1.415900000000000070e+01 1.944399999999999906e+01 4.190500000000000114e+01 -7.054146000000000249e+00 1.969715608698606631e-03
1.416900000000000048e+01 1.583299999999999930e+00 2.890899999999999892e+01 -4.911586999999999925e+00 -1.131777000272665614e-03
1.416900000000000048e+01 6.748899999999999899e-01 4.126200000000000045e+01 1.997530000000000028e+00 -9.132694725727778795e-02
1.417500000000000071e+01 4.460000000000000075e-01 3.860799999999999699e+01 1.267448000000000086e+01 -8.911811942818306798e-02
1.417600000000000016e+01 2.621399999999999952e+00 2.954100000000000037e+01 -5.528120999999999619e+00 -8.286398895013705190e-02
1.418299999999999983e+01 2.113899999999999935e+01 3.918099999999999739e+01 -2.767136999999999958e+00 8.765748291451209984e-02
1.418500000000000050e+01 1.547100000000000009e+01 3.330100000000000193e+01 5.417813999999999908e+00 -1.207842764460684559e-01
1.421299999999999919e+01 1.245899999999999963e+01 4.817600000000000193e+01 -2.064224999999999977e+00 -1.724456847754189115e-01
1.422799999999999976e+01 -1.078400000000000053e-01 2.887300000000000111e+01 -4.139134999999999565e+00 -8.299983973834694495e-02
1.423600000000000065e+01 1.539600000000000080e+01 4.897899999999999920e+01 1.739519999999999911e+01 -1.650035145098021627e-01
1.424399999999999977e+01 1.705799999999999983e+01 4.631000000000000227e+01 -9.852726000000000539e+00 -1.700665766220863240e-01
1.424499999999999922e+01 1.886700000000000088e+01 3.582699999999999818e+01 1.091436000000000073e+00 1.610038713353756645e-01
1.424499999999999922e+01 2.056700000000000017e+01 3.582699999999999818e+01 -1.988453999999999944e+00 3.913964684775507463e-02
1.424799999999999933e+01 1.741000000000000014e+01 3.582099999999999795e+01 -2.439954999999999874e+00 1.798747291316900587e-01
1.425500000000000078e+01 1.543900000000000006e+01 3.240500000000000114e+01 2.031955999999999918e+01 -1.083254852169506233e-01
1.425900000000000034e+01 2.428399999999999892e+00 2.744099999999999895e+01 -7.699215999999999838e+00 -6.271985436955814300e-03
1.426500000000000057e+01 1.836100000000000065e+01 4.556400000000000006e+01 -8.714503999999999806e+00 -1.700865335511495824e-01
1.427200000000000024e+01 -1.677699999999999969e+00 3.030999999999999872e+01 -3.510101999999999833e+00 -8.373619150323510785e-02
1.427200000000000024e+01 -1.677699999999999969e+00 3.125000000000000000e+01 -3.678685000000000205e+00 -8.406318830007011855e-02
1.427200000000000024e+01 1.973300000000000054e+01 4.114000000000000057e+01 -1.571423000000000014e+00 -7.974955052660834612e-03
1.428100000000000058e+01 1.361899999999999977e+01 4.911200000000000188e+01 -6.661065999999999931e+00 -1.686805655282998806e-01
1.429899999999999949e+01 -9.585099999999999731e-01 3.239699999999999847e+01 -9.038645000000000707e+00 -8.440352823366752133e-02
1.430000000000000071e+01 7.851099999999999746e+00 2.275000000000000000e+01 -2.661182000000000158e+00 -3.849289109357017374e-02
1.431099999999999994e+01 2.182999999999999829e+00 2.923900000000000077e+01 -4.763638000000000261e+00 -8.257909953616034138e-02
1.431099999999999994e+01 3.048299999999999788e+00 2.783899999999999864e+01 -7.813058999999999976e+00 -4.374669697990805212e-03
1.431099999999999994e+01 3.048299999999999788e+00 2.923900000000000077e+01 -4.770983000000000196e+00 -8.254586909058378441e-02
1.432499999999999929e+01 1.217999999999999972e+00 2.820899999999999963e+01 -8.085896999999999224e+00 -2.501340821867927347e-03
1.433500000000000085e+01 2.282300000000000217e+00 4.622500000000000142e+01 5.713288000000000366e+00 -1.656425982153665599e-01
1.433699999999999974e+01 1.501399999999999935e+01 2.790500000000000114e+01 -4.669529999999999959e+00 -2.131980326199789944e-01
1.434299999999999997e+01 6.906500000000000306e+00 2.310999999999999943e+01 -2.918470999999999815e+00 -3.867357185699880906e-02
1.434699999999999953e+01 1.621299999999999963e+00 4.556000000000000227e+01 2.652385000000000215e+00 -1.638202527660525543e-01
1.435500000000000043e+01 1.688099999999999878e-01 4.340800000000000125e+01 -4.396462999999999788e+00 -9.243039328865579329e-02
1.435500000000000043e+01 1.017500000000000071e+01 2.212199999999999989e+01 4.308082999999999885e+01 -3.494202980155038107e-02
1.436899999999999977e+01 3.351700000000000124e+00 2.853900000000000148e+01 3.744057000000000079e-01 -7.260219609753113500e-04
1.437500000000000000e+01 1.209900000000000020e+01 2.811599999999999966e+01 -6.568495999999999668e+00 -2.217524183723641740e-01
1.438000000000000078e+01 1.150199999999999972e-01 4.227199999999999847e+01 -2.548064999999999802e+00 -9.163082805520768315e-02
1.438199999999999967e+01 1.194299999999999962e+01 2.610600000000000165e+01 -2.080778000000000105e+01 -1.179849830534869699e-02
1.438799999999999990e+01 -9.300699999999999523e-01 3.438400000000000034e+01 -4.830861999999999767e+00 -8.547396723832752230e-02
1.438799999999999990e+01 -9.300699999999999523e-01 3.696399999999999864e+01 -6.147202000000000055e+00 -8.729644096489050376e-02
1.438899999999999935e+01 9.312300000000000466e+00 4.595199999999999818e+01 6.875510000000000232e+00 -1.771735178762222640e-01
1.439199999999999946e+01 1.210800000000000054e+01 4.745900000000000318e+01 -1.172695000000000043e+01 -1.736680710625003177e-01
1.439300000000000068e+01 1.326099999999999923e+01 2.882700000000000173e+01 4.259901000000000160e+00 -2.197057345403813922e-01
1.439700000000000024e+01 -6.542799999999999727e-01 3.325399999999999778e+01 -2.185337999999999781e+00 -8.473471647776967264e-02
1.440399999999999991e+01 5.246299999999999741e+00 2.300600000000000023e+01 -1.058160999999999952e+01 -1.238498444503271373e-02
1.440900000000000070e+01 3.516699999999999826e-01 4.454299999999999926e+01 -6.252556999999999698e-01 -9.320162035772996956e-02
1.441200000000000081e+01 9.222200000000000841e+00 2.201699999999999946e+01 1.387623999999999969e+00 -3.657188038876876129e-02
1.441200000000000081e+01 1.575399999999999956e+01 2.701899999999999835e+01 6.582491000000000270e+01 -2.095849283152038944e-01
1.441200000000000081e+01 1.671199999999999974e+01 2.701899999999999835e+01 2.475468000000000046e+01 -2.037026381023977761e-01
1.443599999999999994e+01 2.015899999999999803e+00 2.820899999999999963e+01 -9.872312000000000864e+00 -1.535467039140646014e-03
1.444200000000000017e+01 1.276999999999999957e+01 2.358500000000000085e+01 -1.856848000000000098e+01 -1.617408343552887567e-02
1.444200000000000017e+01 1.276999999999999957e+01 2.452499999999999858e+01 -4.484201999999999799e+01 -1.081586784126071198e-02
1.445199999999999996e+01 1.590399999999999991e+01 3.400099999999999767e+01 -3.321128999999999998e+00 2.041879892857909051e-01
1.445899999999999963e+01 5.999299999999999855e+00 4.788900000000000290e+01 2.844205000000000094e+00 -1.751122463668406681e-01
1.446100000000000030e+01 1.764600000000000080e+01 2.958399999999999963e+01 -3.309563999999999839e-01 -7.176660421178140958e-02
1.447199999999999953e+01 4.471300000000000274e+00 2.330000000000000071e+01 -1.682235000000000014e+01 -9.155364002838933118e-03
1.447400000000000020e+01 -5.364499999999999824e-01 2.916900000000000048e+01 -6.088817999999999842e+00 -8.290046490508073962e-02
1.447700000000000031e+01 3.542299999999999893e-01 2.816100000000000136e+01 -4.175825999999999816e+00 -1.684994636943419220e-03
1.448099999999999987e+01 1.153999999999999915e+01 2.276200000000000045e+01 -1.792245000000000132e+01 -2.677434838725910662e-02
1.448199999999999932e+01 3.308600000000000207e+00 2.577899999999999991e+01 -4.169114999999999682e+00 8.367774470226032615e-05
1.450200000000000067e+01 2.436999999999999833e+00 4.697399999999999665e+01 4.525364000000000053e-01 -1.758959960784916288e-01
1.450200000000000067e+01 2.664000000000000146e+00 4.777300000000000324e+01 -5.083909000000000233e+00 -1.754012310060628077e-01
1.450200000000000067e+01 3.956999999999999851e+00 4.849399999999999977e+01 1.340397999999999978e+00 -1.748354629200146448e-01
1.451200000000000045e+01 1.689699999999999980e+00 2.739600000000000080e+01 -6.951183000000000334e+00 -4.085841130977708492e-03
1.451600000000000001e+01 1.883200000000000074e+01 4.489999999999999858e+01 -5.147567000000000093e+01 -1.701530969750751354e-01
1.452500000000000036e+01 8.741300000000000736e+00 4.638199999999999790e+01 5.001689999999999969e+00 -1.763166542352321287e-01
1.452599999999999980e+01 1.660200000000000031e+01 4.557200000000000273e+01 -1.739665999999999935e+00 -1.733543693947867670e-01
1.452999999999999936e+01 1.201500000000000057e+01 2.742200000000000060e+01 -9.836178000000000310e+00 -2.213612177142863791e-01
1.453700000000000081e+01 1.143599999999999994e+01 4.645900000000000318e+01 2.559883999999999826e+00 -1.756281817891857666e-01
1.453800000000000026e+01 7.178899999999999615e+00 4.729999999999999716e+01 -1.695385999999999882e+01 -1.754016172842400301e-01
1.454499999999999993e+01 -1.389100000000000057e-01 3.788499999999999801e+01 2.092239000000000182e+00 -8.802929621144309213e-02
1.455000000000000071e+01 1.711400000000000077e+01 2.773999999999999844e+01 9.064489999999999270e+00 -1.971241880433577398e-01
1.455799999999999983e+01 1.016999999999999993e+01 4.552199999999999847e+01 8.812443000000000026e+00 -1.774440758209955005e-01
1.456099999999999994e+01 1.592099999999999937e+01 4.812899999999999778e+01 6.550997999999999877e+01 -1.637325003552034253e-01
1.456400000000000006e+01 1.609499999999999886e+01 4.635000000000000142e+01 -3.083108000000000182e+00 -1.701054287069677096e-01
1.456799999999999962e+01 1.722400000000000020e+01 3.029700000000000060e+01 -2.658960000000000079e+01 -7.530366667347440646e-02
1.457000000000000028e+01 2.109199999999999875e+01 3.667699999999999960e+01 -1.191186999999999996e+00 1.640182638623038924e-01
1.457000000000000028e+01 2.109199999999999875e+01 3.772699999999999676e+01 -7.663763000000000103e-01 1.780633431014053414e-01
1.457499999999999929e+01 1.063799999999999990e+01 2.270499999999999829e+01 3.580702999999999747e+01 -2.940600444772076966e-02
1.457799999999999940e+01 2.615699999999999914e+00 2.853900000000000148e+01 -4.581704000000000221e+00 -8.195320234581957020e-02
1.458799999999999919e+01 1.755699999999999861e+01 4.547500000000000142e+01 -2.307478000000000051e+01 -1.700346279780166614e-01
