1.596799999999999997e+01 5.075699999999999790e+01 -2.093300000000000161e+00 7.676712000000000202e+00 -1.078783610072394927e-01
1.596799999999999997e+01 5.515100000000000335e+01 1.964999999999999858e+01 -9.093094999999999928e-01 1.704105324845527902e-01
1.596799999999999997e+01 5.515100000000000335e+01 2.143799999999999883e+01 3.068148000000000053e+01 1.738308270953906054e-01
1.596799999999999997e+01 5.540500000000000114e+01 2.054400000000000048e+01 -4.656658000000000186e-01 1.726648009160642872e-01
1.596899999999999942e+01 2.515700000000000003e+01 1.391099999999999959e+01 -3.539646999999999988e+00 -1.056048576037665609e-01
1.596899999999999942e+01 2.128600000000000136e+01 1.710300000000000153e+01 -6.305198999999999998e+00 -1.079983808784117788e-01
1.597300000000000075e+01 4.658899999999999864e+01 -2.253000000000000114e+00 -8.612436000000000647e+00 -1.096379452624078599e-01
1.598399999999999999e+01 4.975900000000000034e+01 1.429599999999999937e+01 -1.041553000000000040e+01 4.296954329845246723e-01
1.598399999999999999e+01 2.820899999999999963e+01 7.993000000000000327e+00 -1.031207999999999991e+01 -9.676889673368119227e-02
1.599300000000000033e+01 4.992699999999999960e+01 5.434400000000000119e+00 -7.847794000000000381e+00 1.720106863219850180e-01
1.599399999999999977e+01 3.652600000000000335e+01 -4.690500000000000114e+00 1.721657000000000082e+01 -1.061254569232860101e-01
1.599699999999999989e+01 2.940700000000000003e+01 -8.123300000000000409e+00 -1.343881999999999977e+01 -3.634194297084241687e-01
1.599799999999999933e+01 4.512100000000000222e+01 -5.753000000000000114e+00 -1.138218999999999959e+01 -1.082022009476699409e-01
1.600300000000000011e+01 3.875399999999999778e+01 2.759700000000000131e+01 6.941260999999999903e+00 1.703243751275116957e-01
1.601699999999999946e+01 5.246099999999999852e+01 3.431600000000000250e+01 -2.647674999999999912e+01 -6.887157616570399599e-02
1.601699999999999946e+01 5.675200000000000244e+01 3.123000000000000043e+01 -6.658466999999999913e+00 -6.302703061742011281e-02
1.601800000000000068e+01 5.775500000000000256e+01 2.906299999999999883e+01 -1.025300999999999974e+01 -6.751313237031457415e-02
1.601899999999999835e+01 4.275099999999999767e+01 2.862099999999999866e+01 1.598602999999999996e+00 1.647450512512806386e-01
1.602100000000000080e+01 3.825699999999999790e+01 -6.021300000000000097e+00 6.256058000000000341e+00 -1.061296291896685756e-01
1.602400000000000091e+01 3.469400000000000261e+01 -2.754300000000000193e+00 9.332740999999999953e-01 -9.210814665367431098e-02
1.602599999999999980e+01 2.617099999999999937e+01 3.136400000000000077e+01 -1.120031999999999961e+01 9.218237496493701666e-02
1.602599999999999980e+01 2.769099999999999895e+01 3.136400000000000077e+01 -2.768450999999999951e+01 9.413058547897333594e-02
1.602799999999999869e+01 2.115200000000000102e+01 1.626899999999999835e+01 -5.745046000000000319e+00 -1.075766712137967984e-01
1.602799999999999869e+01 2.137900000000000134e+01 1.547000000000000064e+01 -5.380472000000000143e+00 -1.069334527049214945e-01
1.602799999999999869e+01 2.267200000000000060e+01 1.474900000000000055e+01 -5.468177999999999983e+00 -1.062357476513000332e-01
1.602799999999999869e+01 2.874500000000000099e+01 1.671000000000000041e+00 2.162570000000000103e+00 -8.663944474630164150e-02
1.603000000000000114e+01 4.231700000000000017e+01 -3.827599999999999891e+00 -2.339094000000000051e+01 -1.083404783501828172e-01
1.603300000000000125e+01 4.800399999999999778e+01 3.411200000000000188e+01 -7.354511999999999716e+00 1.922972463332645598e-01
1.603600000000000136e+01 4.146399999999999864e+01 2.805099999999999838e+01 8.906461000000000183e+00 1.669124911882381712e-01
1.604100000000000037e+01 2.330199999999999960e+01 2.052700000000000102e+01 2.309230000000000160e+01 -1.103179636995524071e-01
1.604599999999999937e+01 4.357099999999999795e+01 -1.104299999999999926e+01 3.356558999999999848e+00 -1.058247977462083017e-01
1.605099999999999838e+01 5.227199999999999847e+01 8.031000000000000583e+00 -2.964579000000000164e+01 4.298415295745772191e-01
1.605099999999999838e+01 5.359100000000000108e+01 7.295899999999999608e+00 -2.795779999999999887e+01 1.728030145102083526e-01
1.605199999999999960e+01 4.565299999999999869e+01 -6.014999999999999680e+00 -8.203550999999999149e+00 -1.081616547456655530e-01
1.605799999999999983e+01 5.393800000000000239e+01 1.478400000000000070e+01 2.251848999999999990e+00 4.297148823546831364e-01
1.606400000000000006e+01 4.936099999999999710e+01 1.038100000000000023e+01 -1.102449000000000012e+00 4.297856409224795615e-01
1.606800000000000139e+01 5.407000000000000028e+01 3.437599999999999767e+01 -4.608547999999999689e+01 -6.068046434558223290e-02
1.607300000000000040e+01 4.490100000000000335e+01 -6.607000000000000206e+00 -1.949603000000000108e+01 -1.077900629071101984e-01
1.607300000000000040e+01 4.576599999999999824e+01 -6.607000000000000206e+00 -7.495108000000000104e+00 -1.078606444663381403e-01
1.607700000000000173e+01 4.028099999999999881e+01 -1.137899999999999956e+01 -3.441301999999999972e-01 -1.049047509558223013e-01
1.608399999999999963e+01 4.482099999999999795e+01 3.120800000000000018e+00 -1.453458000000000006e+01 -9.855095600538377187e-02
1.608599999999999852e+01 4.632600000000000051e+01 -4.096099999999999852e+00 -8.848793999999999826e+00 -1.088292657432648747e-01
1.608899999999999864e+01 3.490800000000000125e+01 2.913899999999999935e+01 2.171448999999999963e+00 1.808679575697685338e-01
1.609100000000000108e+01 4.837299999999999756e+01 4.527100000000000013e-01 -1.762790000000000035e+01 -1.103731719297508657e-01
1.609100000000000108e+01 4.989300000000000068e+01 4.527100000000000013e-01 -2.378657000000000110e+01 -1.096183706626648879e-01
1.610300000000000153e+01 2.826000000000000156e+01 3.346000000000000085e+00 1.337199999999999944e+00 -8.822168940838248652e-02
1.610399999999999920e+01 2.663299999999999912e+01 -2.472900000000000098e+00 -1.119978000000000051e+01 -8.687399816609228664e-02
1.610900000000000176e+01 4.387299999999999756e+01 3.352199999999999847e+01 -1.053072000000000052e+01 -1.075155850071123076e-01
1.610999999999999943e+01 2.480499999999999972e+01 2.738100000000000023e+01 -3.495932999999999957e+00 -1.124405625745240195e-01
1.610999999999999943e+01 2.480499999999999972e+01 2.843100000000000094e+01 -2.833620999999999945e+00 8.522406189786128905e-02
1.611499999999999844e+01 5.221600000000000108e+01 1.463299999999999912e+01 5.042710999999999721e+00 4.297029606200273300e-01
1.611599999999999966e+01 2.563100000000000023e+01 -3.040500000000000203e+00 -1.640441999999999956e+00 -8.652153798991733813e-02
1.611799999999999855e+01 4.463499999999999801e+01 -8.779999999999999361e+00 -4.031825000000000436e+00 -1.068745489121293718e-01
1.611899999999999977e+01 2.782700000000000173e+01 -1.354700000000000015e+00 -2.173249999999999904e+00 -8.718484577944270175e-02
1.612500000000000000e+01 3.377600000000000335e+01 2.989699999999999847e+01 1.093231999999999982e+00 1.851341798447231624e-01
1.612699999999999889e+01 4.641599999999999682e+01 -2.737299999999999844e+00 -8.650024000000000157e+00 -1.095156004704974234e-01
1.612900000000000134e+01 3.678499999999999659e+01 2.898799999999999955e+01 2.714517000000000024e+01 1.769270546851366421e-01
1.612900000000000134e+01 2.593599999999999994e+01 1.273499999999999943e+01 -4.084488999999999592e+00 -1.038449934486748161e-01
1.613100000000000023e+01 4.459799999999999898e+01 -8.244999999999999218e+00 -6.276136000000000159e+00 -1.070682423993502275e-01
1.613100000000000023e+01 4.459799999999999898e+01 -7.307000000000000384e+00 -1.683110999999999891e+01 -1.074358536243084361e-01
1.613299999999999912e+01 4.824600000000000222e+01 5.394000000000000128e+00 2.207527999999999935e+00 4.300281987751891632e-01
1.613500000000000156e+01 3.123499999999999943e+01 3.167699999999999960e+01 6.257432999999999801e+00 1.945132863903062392e-01
1.613800000000000168e+01 4.738000000000000256e+01 -7.810399999999999565e+00 -6.016827000000000147e+00 -1.068111412268971938e-01
1.614099999999999824e+01 2.789900000000000091e+01 6.055500000000000327e+00 -5.025736000000000203e+00 -9.293939516803449707e-02
1.614099999999999824e+01 2.812300000000000111e+01 4.280899999999999928e+00 2.203453999999999979e+01 -8.977014262348859130e-02
1.614199999999999946e+01 5.079500000000000171e+01 -3.986699999999999910e+00 -6.855618999999999907e+00 -1.071074106613857796e-01
1.614199999999999946e+01 5.104899999999999949e+01 -3.092999999999999972e+00 8.417851999999999890e+00 -1.073896950206546241e-01
1.614399999999999835e+01 4.356199999999999761e+01 -4.142600000000000171e-01 -7.776575000000000237e+00 -1.105973543189002345e-01
1.614499999999999957e+01 4.976200000000000045e+01 7.886599999999999611e+00 -2.912751000000000090e+00 4.298767285434029195e-01
1.614799999999999969e+01 4.510300000000000153e+01 3.434499999999999886e+01 -8.399251999999999896e+01 -1.019682836202119997e-01
1.615200000000000102e+01 3.241400000000000148e+01 -3.070600000000000218e+00 -3.177843000000000334e-02 -9.065160041197614649e-02
1.615800000000000125e+01 4.216799999999999926e+01 -1.264699999999999935e+00 3.167263000000000162e-01 -1.096882633299766929e-01
1.616000000000000014e+01 5.117099999999999937e+01 1.491600000000000037e+01 2.562267999999999990e+00 4.296862404056945861e-01
1.616400000000000148e+01 4.366199999999999903e+01 -4.466800000000000104e+00 -4.066913000000000267e+01 -1.084445813651534196e-01
1.616400000000000148e+01 4.613100000000000023e+01 -3.543000000000000149e+00 -8.574526999999999788e+00 -1.092279057651587698e-01
1.616400000000000148e+01 5.338700000000000045e+01 2.305999999999999872e+01 3.086383000000000010e+01 1.727070092063361373e-01
1.616400000000000148e+01 5.338700000000000045e+01 2.392500000000000071e+01 2.902179999999999893e+01 1.748116882690965435e-01
1.616499999999999915e+01 2.809700000000000131e+01 -9.074299999999999145e+00 -2.948710000000000164e+01 -3.634219903211886593e-01
1.617800000000000082e+01 2.981099999999999994e+01 -6.969299999999999606e+00 -9.018255999999999162e+00 -3.634604286593202671e-01
1.617800000000000082e+01 2.489600000000000080e+01 -1.077200000000000024e+01 -9.235599000000000558e+00 -3.634368910017374832e-01
1.617800000000000082e+01 2.735600000000000165e+01 -1.077200000000000024e+01 -9.811485000000000412e+01 -3.633805684948467341e-01
1.618100000000000094e+01 4.632500000000000284e+01 -7.565000000000000391e+00 -6.062490000000000379e+00 -1.072967659592071882e-01
1.618299999999999983e+01 5.484599999999999653e+01 2.577499999999999858e+01 3.322246999999999950e+00 1.840931415544451166e-01
1.619099999999999895e+01 5.548199999999999932e+01 3.210999999999999943e+01 -1.100840999999999958e+00 -6.470273517181214518e-02
1.619399999999999906e+01 2.757700000000000173e+01 -1.001800000000000068e+01 -6.223622999999999905e+01 -3.634015633380366928e-01
1.619800000000000040e+01 4.450600000000000023e+01 -9.737999999999999545e+00 4.516557999999999851e+00 -1.065221584126167381e-01
1.619900000000000162e+01 3.103699999999999903e+01 -6.132299999999999862e+00 7.280778999999999890e+00 -3.634624668241227541e-01
1.620799999999999841e+01 4.064200000000000301e+01 2.569999999999999929e+01 8.013465999999999312e+00 1.653184567426689289e-01
1.621099999999999852e+01 3.352499999999999858e+01 -2.262100000000000222e+00 -1.192978000000000094e+00 -9.120132517044242382e-02
1.621499999999999986e+01 2.234900000000000020e+01 1.879400000000000048e+01 -1.213364999999999938e+01 -1.090431043141830286e-01
1.621699999999999875e+01 2.612600000000000122e+01 -1.159500000000000064e+01 -1.905925999999999831e+01 -3.633829169870003151e-01
1.621799999999999997e+01 2.536299999999999955e+01 2.595499999999999829e+01 -4.827183999999999919e+00 -1.127151048710676867e-01
1.622500000000000142e+01 4.588000000000000256e+01 -7.975999999999999979e+00 -5.928575999999999624e+00 -1.073063103152261250e-01
1.622500000000000142e+01 4.674600000000000222e+01 -7.975999999999999979e+00 -6.094129999999999825e+00 -1.070044875572095516e-01
1.622700000000000031e+01 5.079699999999999704e+01 7.676700000000000301e+00 -1.302880000000000038e+01 4.298710297872864738e-01
1.622899999999999920e+01 4.363499999999999801e+01 1.398099999999999898e+00 -3.960027999999999881e+00 -9.770988912657035952e-02
1.622899999999999920e+01 4.375300000000000011e+01 5.510000000000000453e-01 -8.537152999999999992e+00 -9.776840165646859260e-02
1.622899999999999920e+01 4.384400000000000119e+01 2.134100000000000108e+00 -9.120319000000000287e+00 -9.785033635400253171e-02
1.623499999999999943e+01 4.731400000000000006e+01 -6.426699999999999635e-01 -9.258692999999999174e+00 -1.103155487551310820e-01
1.624800000000000111e+01 4.162800000000000011e+01 -1.156400000000000006e+01 3.533514999999999961e+00 -1.052419153296053345e-01
1.625100000000000122e+01 4.932600000000000051e+01 1.273099999999999987e+01 -1.895610999999999891e+01 4.297288800226478078e-01
1.625100000000000122e+01 4.932600000000000051e+01 1.359600000000000009e+01 -1.102094999999999914e+01 4.297067070190944138e-01
1.625100000000000122e+01 4.656300000000000239e+01 3.401400000000000290e+01 -3.271676999999999680e+01 -9.888789436984504744e-02
1.626200000000000045e+01 2.500700000000000145e+01 -3.279599999999999849e+00 3.142650999999999861e+00 -8.628705380050552542e-02
1.626399999999999935e+01 4.900399999999999778e+01 -6.191699999999999982e+00 -2.286693999999999782e+00 -1.069276797388376971e-01
1.626500000000000057e+01 4.431099999999999994e+01 -1.039199999999999946e+01 6.836174000000000417e-02 -1.062717814152405182e-01
1.628900000000000148e+01 3.719200000000000017e+01 -4.807999999999999829e+00 1.203181999999999974e+01 -1.063838362445358454e-01
1.628999999999999915e+01 2.344000000000000128e+01 1.468299999999999983e+01 -4.366156000000000148e+00 -1.067281881447680603e-01
1.629500000000000171e+01 2.386700000000000088e+01 2.437600000000000122e+01 -9.604758000000000351e+00 -1.116218099983061068e-01
1.629500000000000171e+01 3.927199999999999847e+01 2.565099999999999980e+01 3.571985999999999883e+00 1.669369015482634055e-01
1.629899999999999949e+01 2.505000000000000071e+01 2.518700000000000117e+01 -8.008468999999999838e+00 -1.123932202335722608e-01
1.630099999999999838e+01 3.886999999999999744e+01 -6.659799999999999720e+00 1.013353000000000037e+01 -1.061492760775049338e-01
1.630900000000000105e+01 2.810300000000000153e+01 5.222900000000000098e+00 -1.572432999999999970e+00 -9.174111812799612409e-02
1.631299999999999883e+01 4.003000000000000114e+01 -7.955599999999999561e+00 1.318562000000000012e+01 -1.060015322921641356e-01
1.631800000000000139e+01 4.719800000000000040e+01 3.414900000000000091e+01 -9.227522000000000446e+00 -9.677865317124853539e-02
1.632100000000000151e+01 3.424300000000000210e+01 -2.329600000000000115e+00 -9.220861999999999670e-01 -9.168239470495102850e-02
1.632999999999999829e+01 2.676699999999999946e+01 1.187100000000000044e+01 -3.773404000000000202e+00 -1.027809729584034104e-01
1.633299999999999841e+01 2.282999999999999829e+01 1.976300000000000168e+01 -5.581883000000000372e+00 -1.095905959609034530e-01
1.633500000000000085e+01 2.149399999999999977e+01 1.794600000000000151e+01 -1.184834999999999994e+01 -1.082720081286994845e-01
1.633500000000000085e+01 5.033500000000000085e+01 -5.269700000000000273e+00 3.904227000000000114e+00 -1.068453611615036436e-01
1.633999999999999986e+01 4.533400000000000318e+01 -8.244999999999999218e+00 -7.773719999999999963e+00 -1.073030891712445090e-01
1.633999999999999986e+01 4.533400000000000318e+01 -7.307000000000000384e+00 -1.590588999999999942e+01 -1.076719922218292852e-01
1.634100000000000108e+01 2.517899999999999849e+01 2.651599999999999824e+01 -4.113991000000000398e+00 -1.124557903291663330e-01
1.634799999999999898e+01 4.336599999999999966e+01 3.226700000000000301e+01 -1.243759999999999977e+01 -1.110241434214942896e-01
1.635300000000000153e+01 5.042600000000000193e+01 3.412599999999999767e+01 4.601633999999999780e+00 -8.232284537729141205e-02
1.635800000000000054e+01 5.097800000000000153e+01 3.460900000000000087e+00 -1.059707000000000043e+01 1.748612034069825794e-01
1.635800000000000054e+01 5.227100000000000080e+01 2.740000000000000213e+00 -4.053600000000000314e+00 1.187759440004879652e-01
1.635800000000000054e+01 5.356400000000000006e+01 3.460900000000000087e+00 1.403298000000000023e+01 1.192533073849074976e-01
1.635800000000000054e+01 5.388900000000000290e+01 4.198100000000000165e+00 -1.927787999999999968e+01 1.763087603195824526e-01
1.636299999999999955e+01 5.319200000000000017e+01 3.448400000000000176e+01 -3.314159000000000077e+01 -6.519446494438510542e-02
1.637099999999999866e+01 4.881400000000000006e+01 3.418200000000000216e+01 -3.270233999999999863e+00 1.103678882640581060e-01
1.637199999999999989e+01 4.584100000000000108e+01 4.209399999999999586e+00 6.275023000000000017e+00 1.606777118451028497e-01
1.638100000000000023e+01 4.711099999999999710e+01 -8.676000000000000156e+00 -9.354369999999999408e+00 -1.066834988524974770e-01
1.638899999999999935e+01 2.435900000000000176e+01 -5.213899999999999757e+00 -4.573154999999999859e+00 -8.667321164413056833e-02
1.639099999999999824e+01 4.903099999999999881e+01 9.096999999999999531e+00 1.932090000000000174e+01 4.298043067120221883e-01
1.639099999999999824e+01 3.600999999999999801e+01 -4.170399999999999885e+00 1.317108999999999952e+01 -1.063115767579195792e-01
1.639199999999999946e+01 5.064000000000000057e+01 4.249900000000000233e+00 -1.124604000000000070e+01 1.735795256526994068e-01
1.639199999999999946e+01 2.505999999999999872e+01 -8.225300000000000722e+00 -2.389545000000000030e+01 -3.635345017914753396e-01
1.639199999999999946e+01 3.571699999999999875e+01 -3.405100000000000016e+00 7.620635000000000048e+00 -9.281485093478843151e-02
1.639300000000000068e+01 4.228699999999999903e+01 2.827100000000000080e+01 2.279292999999999836e+01 1.661164245142884854e-01
1.639499999999999957e+01 4.468800000000000239e+01 -5.262100000000000222e+00 -2.257947000000000060e+01 -1.083996706207999566e-01
1.639499999999999957e+01 4.555299999999999727e+01 -5.262100000000000222e+00 -1.573362999999999978e+01 -1.086214513142480520e-01
1.639499999999999957e+01 4.021500000000000341e+01 -8.910999999999999588e+00 8.102211999999999748e+00 -1.057435282467605597e-01
1.640200000000000102e+01 2.518700000000000117e+01 2.930799999999999983e+01 -1.358513999999999999e+00 8.731880608786074527e-02
1.640599999999999881e+01 4.748499999999999943e+01 5.148500000000000298e+00 -2.085118000000000027e+00 4.300387400189601972e-01
1.640700000000000003e+01 5.751899999999999835e+01 3.045299999999999940e+01 -9.324621999999999744e+00 -6.414267842106248507e-02
1.640700000000000003e+01 3.425699999999999790e+01 2.904899999999999949e+01 -2.957440000000000069e-01 1.818613773290060076e-01
1.641000000000000014e+01 2.456599999999999895e+01 1.424300000000000033e+01 -2.602559999999999985e+00 -1.064830907140667665e-01
1.641799999999999926e+01 3.798599999999999710e+01 2.803999999999999915e+01 -6.192353000000000440e-01 1.729480043237584252e-01
1.642500000000000071e+01 4.173499999999999943e+01 -1.964699999999999891e+00 -7.486672999999999689e+00 -1.092221799286417355e-01
1.642599999999999838e+01 5.062700000000000244e+01 5.166999999999999815e+00 -1.360039000000000087e+01 1.723401838911852446e-01
1.643100000000000094e+01 2.779500000000000171e+01 1.113199999999999967e+01 -8.166107000000000227e+00 -1.018853120425309289e-01
1.643100000000000094e+01 2.800400000000000134e+01 1.039600000000000080e+01 -5.584934999999999761e+00 -1.007667891653417636e-01
1.644600000000000151e+01 4.298199999999999932e+01 -1.186700000000000088e+00 -2.262726999999999933e+00 -1.100292064008887849e-01
1.644800000000000040e+01 2.105900000000000105e+01 1.715500000000000114e+01 -8.853989999999999583e+00 -1.077365440692728271e-01
1.645200000000000173e+01 4.291700000000000159e+01 3.128900000000000148e+01 -6.160601999999999911e+00 1.694059699878334713e-01
1.645200000000000173e+01 4.324199999999999733e+01 2.901800000000000068e+01 -8.986781000000000574e+00 1.652357134254751336e-01
1.645200000000000173e+01 4.324199999999999733e+01 3.048999999999999844e+01 -1.450342000000000020e+01 1.673536869337966249e-01
1.645200000000000173e+01 4.345100000000000051e+01 2.975400000000000134e+01 -1.063823999999999970e+01 1.658150595939812677e-01
1.645299999999999940e+01 4.553199999999999648e+01 -3.824899999999999967e+00 -9.392310999999999410e+00 -1.093141131344224498e-01
1.645299999999999940e+01 4.585699999999999932e+01 -4.562100000000000044e+00 -1.161011000000000060e+01 -1.089436171965573186e-01
1.645799999999999841e+01 5.504899999999999949e+01 3.281000000000000227e+01 -1.878508000000000067e+01 -6.423288226071961760e-02
1.646000000000000085e+01 4.437299999999999756e+01 -4.543599999999999639e+00 -2.715858000000000061e+01 -1.086655243730630521e-01
1.646099999999999852e+01 2.513100000000000023e+01 -7.270900000000000141e+00 -8.076570000000000249e+00 -3.635745209423699720e-01
1.646300000000000097e+01 4.161699999999999733e+01 -2.694999999999999840e+00 -1.028199000000000041e+01 -1.088073480440494845e-01
1.646300000000000097e+01 4.182600000000000051e+01 -3.431000000000000050e+00 -2.643114999999999881e+00 -1.084953720246332465e-01
1.646999999999999886e+01 2.718900000000000006e+01 -1.641999999999999904e+00 -4.479574000000000389e+00 -8.691567322743318225e-02
1.646999999999999886e+01 5.409700000000000131e+01 5.789299999999999891e+00 -2.533154999999999824e+00 1.744851200046337314e-01
1.647700000000000031e+01 5.424000000000000199e+01 1.813800000000000168e+01 -6.423611000000000182e+00 1.661411336276540918e-01
1.647700000000000031e+01 5.444899999999999807e+01 1.740200000000000102e+01 4.663083999999999563e+00 1.656344702545151371e-01
1.647700000000000031e+01 4.019200000000000017e+01 -9.995699999999999363e+00 7.005378000000000327e+00 -1.054100514874299621e-01
1.648000000000000043e+01 4.309199999999999875e+01 -4.123199999999999754e+00 -3.447303000000000139e+01 -1.085228460402183348e-01
1.648600000000000065e+01 5.554599999999999937e+01 2.583399999999999963e+01 5.470941999999999972e+00 1.859879982000614274e-01
1.648900000000000077e+01 3.173499999999999943e+01 -4.253400000000000070e+00 -5.583482000000000056e+00 -9.046402965553046460e-02
1.648900000000000077e+01 3.194399999999999906e+01 -3.517399999999999860e+00 -5.075886999999999816e+00 -9.042330245429094915e-02
1.648900000000000077e+01 4.597899999999999920e+01 -2.685599999999999987e+00 -9.298462000000000671e+00 -1.098839509888964450e-01
1.649399999999999977e+01 5.618200000000000216e+01 3.205199999999999960e+01 -1.670635000000000048e+01 -6.295193614243965730e-02
1.649599999999999866e+01 2.541100000000000136e+01 3.013400000000000034e+01 -3.695940999999999921e+00 8.910868591968312824e-02
1.649599999999999866e+01 2.563800000000000168e+01 3.093299999999999983e+01 -1.120575000000000010e+01 9.087693245511387075e-02
1.649599999999999866e+01 2.693100000000000094e+01 3.165399999999999991e+01 -1.435013999999999967e+01 9.389115835403005761e-02
1.649599999999999866e+01 2.846600000000000108e+01 3.121799999999999997e+01 -2.175403999999999982e+01 1.947968132409836073e-01
1.649800000000000111e+01 2.191199999999999903e+01 1.503899999999999970e+01 -4.720534999999999926e+00 -1.068678079120151392e-01
1.649800000000000111e+01 3.593500000000000227e+01 2.905900000000000105e+01 3.396326999999999874e+00 1.789269682680511842e-01
1.650300000000000011e+01 3.961200000000000188e+01 -1.137800000000000011e+01 3.224936999999999943e-01 -1.048630580796841294e-01
1.650300000000000011e+01 4.629500000000000171e+01 -8.705399999999999139e+00 -6.483753000000000100e+00 -1.069971246223060668e-01
1.650400000000000134e+01 5.051599999999999824e+01 5.846899999999999764e+00 -1.515063999999999922e+01 4.299558796551283812e-01
1.650600000000000023e+01 4.898899999999999721e+01 6.437899999999999956e+00 -1.214498999999999995e+00 4.299485358110531341e-01
1.651000000000000156e+01 4.403499999999999659e+01 -1.137599999999999945e+01 -3.636473000000000066e+00 -1.059569296219925044e-01
1.651399999999999935e+01 3.282500000000000284e+01 -2.320399999999999796e+00 6.762977000000000238e+00 -9.071187012484191459e-02
1.651500000000000057e+01 4.541100000000000136e+01 -8.734899999999999665e+00 -5.706987999999999950e+00 -1.071790180156222128e-01
1.651500000000000057e+01 3.784199999999999875e+01 -5.171899999999999942e+00 2.335183999999999926e+01 -1.065033586016419925e-01
1.651599999999999824e+01 3.981600000000000250e+01 -1.049200000000000088e+01 2.094905999999999935e+00 -1.051730005228513204e-01
1.651699999999999946e+01 4.531199999999999761e+01 3.517399999999999860e+00 -1.103356999999999921e+01 1.612943649153078807e-01
1.652199999999999847e+01 2.855699999999999861e+01 -8.448000000000000398e+00 -1.227037999999999940e+01 -3.634445849667998774e-01
1.652199999999999847e+01 5.051599999999999824e+01 6.295399999999999607e-02 -2.177832000000000079e+01 -1.092962354717968987e-01
1.652299999999999969e+01 5.439500000000000313e+01 2.506899999999999906e+01 5.003654000000000046e+00 1.808215708721762627e-01
1.652400000000000091e+01 3.156200000000000117e+01 -5.282300000000000217e+00 2.417486999999999853e+01 -9.058751310158433268e-02
1.652599999999999980e+01 2.980000000000000071e+01 3.139199999999999946e+01 2.261653000000000091e+01 1.944703843975866819e-01
1.653000000000000114e+01 5.149699999999999989e+01 7.735000000000000320e+00 -1.789281000000000077e+01 4.298463807539313342e-01
1.653000000000000114e+01 5.304699999999999704e+01 7.735000000000000320e+00 -2.671564000000000050e+01 4.298352294640839233e-01
1.653000000000000114e+01 4.957800000000000296e+01 1.238499999999999979e+01 -1.871956000000000131e+01 4.297336523880386783e-01
1.653099999999999881e+01 2.402700000000000102e+01 2.080399999999999849e+01 -1.896385000000000076e+01 -1.104092752528431642e-01
1.653099999999999881e+01 2.402700000000000102e+01 2.166900000000000048e+01 -1.975156000000000134e+01 -1.107399359210717166e-01
1.653200000000000003e+01 5.188300000000000267e+01 3.403300000000000125e+01 -8.077800999999999121e+00 -7.444949279203330605e-02
1.653500000000000014e+01 4.954599999999999937e+01 1.132499999999999929e+01 -1.215423999999999971e+01 4.297578113734072391e-01
1.653999999999999915e+01 5.624900000000000233e+01 2.650799999999999912e+01 3.355460000000000109e-01 -8.116808489331785170e-02
1.654700000000000060e+01 3.734599999999999653e+01 2.826699999999999946e+01 -7.401630000000000154e-01 1.746250930539184898e-01
1.654799999999999827e+01 5.719800000000000040e+01 3.125400000000000134e+01 -1.459642999999999979e+01 -6.257644387677725739e-02
1.655699999999999861e+01 4.273799999999999955e+01 -1.142800000000000082e+01 5.025089000000000361e+00 -1.056403631286631645e-01
1.656099999999999994e+01 4.784000000000000341e+01 2.211099999999999871e-02 -1.873034000000000177e+01 -1.105725304905688933e-01
1.656099999999999994e+01 4.913300000000000267e+01 7.429999999999999938e-01 -1.922201000000000093e+01 -1.103486029728952544e-01
1.656099999999999994e+01 5.065299999999999869e+01 -7.770000000000000240e-01 -3.284714000000000311e+01 -1.088232608268453194e-01
1.656200000000000117e+01 5.021200000000000330e+01 6.546899999999999942e+00 -8.503028999999999726e+00 4.299232647441312283e-01
1.656700000000000017e+01 5.452000000000000313e+01 1.899200000000000088e+01 -2.269070000000000142e+00 1.681260138018364492e-01
1.656800000000000139e+01 2.850400000000000134e+01 -8.471499999999999586e-01 -3.463677999999999813e+00 -8.744801124014148219e-02
1.656800000000000139e+01 2.859499999999999886e+01 7.359999999999999876e-01 3.031803000000000026e+00 -8.693182512349070801e-02
1.656800000000000139e+01 2.871300000000000097e+01 -1.111300000000000066e-01 -2.479616000000000042e-01 -8.732200669109899116e-02
1.656899999999999906e+01 4.610799999999999699e+01 -1.727700000000000014e+00 -9.653311000000000419e+00 -1.103918147247603398e-01
1.657300000000000040e+01 4.510799999999999699e+01 -9.434900000000000730e+00 -4.906066000000000038e+00 -1.068670630686816281e-01
1.657400000000000162e+01 3.998100000000000165e+01 -1.222799999999999976e+01 3.389430999999999972e-01 -1.047469998014241011e-01
1.657400000000000162e+01 4.103099999999999881e+01 -1.222799999999999976e+01 2.984569000000000027e+00 -1.050031023817998566e-01
1.657700000000000173e+01 2.409299999999999997e+01 1.452500000000000036e+01 -3.678774000000000211e+00 -1.069924596992728044e-01
1.657799999999999940e+01 4.505499999999999972e+01 -9.943400000000000460e+00 -3.641516000000000197e+00 -1.066796873898818027e-01
1.657799999999999940e+01 4.927100000000000080e+01 8.283200000000000784e+00 2.158879999999999910e+00 4.298409624234053039e-01
1.657900000000000063e+01 4.463300000000000267e+01 3.381199999999999761e+01 -5.548400999999999783e+01 -1.036636683270303616e-01
1.658200000000000074e+01 2.490500000000000114e+01 -6.217399999999999594e+00 -5.287968000000000224e+00 -3.636296307380204595e-01
1.658299999999999841e+01 5.145799999999999841e+01 1.492200000000000060e+01 2.246328999999999798e+00 4.296813669803652980e-01
1.658299999999999841e+01 5.308800000000000097e+01 1.445899999999999963e+01 -5.178030000000000133e-01 4.297065628703489182e-01
1.658299999999999841e+01 5.453399999999999892e+01 1.526500000000000057e+01 3.657827000000000162e+00 4.297007588212718443e-01
1.658299999999999841e+01 5.478799999999999670e+01 1.615899999999999892e+01 1.096358999999999995e+01 4.296826642197938417e-01
1.658500000000000085e+01 2.339699999999999847e+01 2.267599999999999838e+01 -1.873487000000000080e+01 -1.107072050621310116e-01
1.658500000000000085e+01 2.339699999999999847e+01 2.361599999999999966e+01 -2.065499000000000152e+01 -1.109356306672804882e-01
1.659299999999999997e+01 5.047099999999999653e+01 1.464899999999999913e+01 -1.576764000000000010e+01 4.296804443806392371e-01
1.659299999999999997e+01 2.892599999999999838e+01 -7.597999999999999865e+00 -3.940329999999999888e+00 -3.634705774095368103e-01
1.659700000000000131e+01 5.408700000000000330e+01 2.279200000000000159e+01 3.689374999999999716e+01 1.742458100418334821e-01
1.660800000000000054e+01 4.790999999999999659e+01 -8.676000000000000156e+00 -9.763956000000000301e+00 -1.065188775415083777e-01
1.660900000000000176e+01 3.318399999999999750e+01 3.161400000000000077e+01 -5.530876000000000126e+00 1.909734116943715143e-01
1.660999999999999943e+01 2.470700000000000074e+01 -9.978699999999999903e+00 -1.020254000000000083e+01 -3.634805910822686004e-01
1.660999999999999943e+01 2.470700000000000074e+01 -9.039300000000000779e+00 -2.008617999999999881e+01 -3.635158534555418264e-01
1.661100000000000065e+01 4.814399999999999835e+01 -7.589400000000000368e+00 -1.065508999999999951e+01 -1.068406600264504014e-01
1.661700000000000088e+01 4.013100000000000023e+01 2.515599999999999881e+01 5.108605999999999980e+00 1.658516289206544980e-01
1.662000000000000099e+01 2.889799999999999969e+01 2.114300000000000068e+00 -1.595452000000000092e+00 -8.750926688836387080e-02
1.662099999999999866e+01 2.444999999999999929e+01 -4.009999999999999787e+00 1.352247999999999983e+01 -8.630041255632756036e-02
1.663599999999999923e+01 4.475099999999999767e+01 -1.064300000000000068e+01 -4.415789000000000186e+00 -1.063893087867060078e-01
1.663899999999999935e+01 4.557200000000000273e+01 3.391100000000000136e+01 -8.714937999999999363e+01 -1.009760875840074873e-01
1.663899999999999935e+01 4.675099999999999767e+01 5.038400000000000212e+00 -1.610346999999999973e+00 4.300444627578948742e-01
1.663899999999999935e+01 3.027199999999999847e+01 -6.266000000000000014e+00 1.456404000000000032e+00 -3.634915201139012897e-01
1.664499999999999957e+01 5.471500000000000341e+01 3.380400000000000205e+01 -2.776162000000000063e+01 -6.197366678991707983e-02
1.664600000000000080e+01 3.170799999999999841e+01 3.204200000000000159e+01 -1.171497999999999928e+00 1.943027612355763545e-01
1.664699999999999847e+01 2.869900000000000162e+01 3.825000000000000178e+00 5.935439000000000220e+01 -9.008212589006728277e-02
1.664799999999999969e+01 2.565599999999999881e+01 -1.106199999999999939e+01 -1.896983000000000175e+01 -3.634226821849022571e-01
1.664799999999999969e+01 2.659600000000000009e+01 -1.106199999999999939e+01 -3.680863999999999692e+01 -3.634017004503897752e-01
1.665099999999999980e+01 2.922899999999999920e+01 -6.897999999999999687e+00 -9.945696999999999122e+00 -3.634930538564103419e-01
1.665299999999999869e+01 4.126400000000000290e+01 2.591400000000000148e+01 9.745575000000000543e+00 1.656327398939692330e-01
1.665299999999999869e+01 2.731200000000000117e+01 -9.190899999999999181e+00 -1.104491000000000014e+02 -3.634508119639608958e-01
1.665500000000000114e+01 5.378399999999999892e+01 2.349200000000000088e+01 3.134432999999999936e+01 1.750691948352255389e-01
1.665599999999999881e+01 3.947500000000000142e+01 -7.302900000000000169e+00 1.894978000000000051e+01 -1.061858105582859368e-01
1.665700000000000003e+01 2.170299999999999940e+01 1.857900000000000063e+01 -5.789894000000000318e+00 -1.084531382059294308e-01
1.665899999999999892e+01 2.456800000000000139e+01 2.453200000000000003e+01 -5.605684000000000111e+01 -1.116536959782217231e-01
1.666199999999999903e+01 4.433500000000000085e+01 2.530699999999999950e+00 -9.623084000000000415e+00 -9.797300478322176764e-02
1.666199999999999903e+01 4.512100000000000222e+01 -4.562100000000000044e+00 -1.342736999999999981e+01 -1.088927280844809165e-01
1.666300000000000026e+01 5.515500000000000114e+01 2.185800000000000054e+01 3.697755000000000081e+01 1.749661736801153000e-01
1.666900000000000048e+01 5.694500000000000028e+01 2.668199999999999861e+01 -5.716841999999999757e-01 -7.837019826412233714e-02
1.667099999999999937e+01 4.664099999999999824e+01 -9.435999999999999943e+00 -5.721775000000000055e+00 -1.066855224320415185e-01
1.667099999999999937e+01 4.758100000000000307e+01 -9.435999999999999943e+00 -5.757227000000000317e+00 -1.063855978821872245e-01
1.668199999999999861e+01 2.896999999999999886e+01 3.058300000000000018e+00 -9.562599999999999989e-01 -8.898209642463067448e-02
1.668400000000000105e+01 5.187199999999999989e+01 2.677900000000000169e+00 -4.053600000000000314e+00 1.759269156266248246e-01
1.668499999999999872e+01 4.158700000000000330e+01 2.668199999999999861e+01 3.048935000000000173e+01 1.661694170018199745e-01
1.668799999999999883e+01 5.683700000000000330e+01 3.175499999999999901e+01 -1.901296999999999926e+01 -6.222757413413949890e-02
1.668900000000000006e+01 4.368900000000000006e+01 -7.123800000000000132e-01 -7.195504999999999818e+00 -1.105431337126176333e-01
1.668900000000000006e+01 4.180799999999999983e+01 2.749599999999999866e+01 4.841411000000000087e+01 1.667375158173854122e-01
1.669399999999999906e+01 3.679399999999999693e+01 -4.257799999999999585e+00 1.618157000000000068e+01 -1.066203646098020652e-01
1.669500000000000028e+01 2.752799999999999869e+01 -8.412900000000000489e+00 -4.211554999999999893e+01 -3.634762924366629067e-01
1.670200000000000173e+01 4.501299999999999812e+01 -1.141099999999999959e+01 -4.137255999999999823e+00 -1.062248792309977291e-01
1.670299999999999940e+01 3.837100000000000222e+01 2.709299999999999997e+01 9.783410999999999191e+00 1.709200927872966402e-01
1.671300000000000097e+01 2.778600000000000136e+01 9.549099999999999255e+00 -1.892641999999999936e+00 -9.982263997307463943e-02
1.671799999999999997e+01 5.802199999999999847e+01 2.949599999999999866e+01 -6.928556000000000381e+00 -6.641539560469146564e-02
1.671799999999999997e+01 3.381099999999999994e+01 -1.838700000000000001e+00 -3.897085000000000132e+00 -9.123990277165902607e-02
1.672500000000000142e+01 5.550800000000000267e+01 2.086700000000000088e+01 4.281666999999999668e+00 1.738220321065727936e-01
1.672899999999999920e+01 2.718499999999999872e+01 -7.597999999999999865e+00 -2.948508999999999958e+01 -3.635181962436878078e-01
1.673499999999999943e+01 4.426899999999999835e+01 3.311099999999999710e+01 -3.687541999999999831e+01 -1.059192255390193765e-01
1.674200000000000088e+01 3.828300000000000125e+01 -5.665000000000000036e+00 1.207596999999999987e+01 -1.065022407943272409e-01
1.674399999999999977e+01 2.509199999999999875e+01 1.357499999999999929e+01 -2.501644000000000201e+00 -1.057594099369298518e-01
1.674800000000000111e+01 2.710800000000000054e+01 -1.016399999999999970e+01 -9.467242000000000246e+01 -3.634232765658325648e-01
1.675000000000000000e+01 3.351200000000000045e+01 3.113200000000000145e+01 -5.037041000000000324e+00 1.889068306440459533e-01
1.675400000000000134e+01 3.494299999999999784e+01 -2.596999999999999975e+00 6.507547999999999888e+00 -9.212703879880297653e-02
1.675900000000000034e+01 5.460699999999999932e+01 2.276000000000000156e+01 4.267034999999999911e+01 1.755982493438670577e-01
1.676000000000000156e+01 4.564999999999999858e+01 -3.017700000000000049e+00 -9.630010999999999655e+00 -1.098073182156254629e-01
1.676000000000000156e+01 5.407900000000000063e+01 4.774000000000000021e+00 -1.182456999999999958e+01 1.751983615749735657e-01
1.676399999999999935e+01 4.909300000000000352e+01 9.948600000000000776e+00 1.106686999999999976e+01 4.297814551689893570e-01
1.676399999999999935e+01 4.930199999999999960e+01 1.068500000000000050e+01 -6.686763000000000012e+00 4.297668588391318489e-01
1.676999999999999957e+01 5.779699999999999704e+01 2.832799999999999940e+01 -5.190377999999999936e+00 -7.090563626848603307e-02
1.678200000000000003e+01 4.584400000000000119e+01 -9.434900000000000730e+00 -5.311245999999999690e+00 -1.069898862315541016e-01
1.678399999999999892e+01 4.487899999999999778e+01 2.817400000000000126e+00 -1.043820000000000014e+01 -9.825581509709313544e-02
1.678699999999999903e+01 2.134400000000000119e+01 1.573799999999999955e+01 -7.745218999999999632e+00 -1.071602046301853434e-01
1.679100000000000037e+01 3.965500000000000114e+01 2.505699999999999861e+01 5.421283999999999992e+00 1.664912081070234751e-01
1.679899999999999949e+01 2.619999999999999929e+01 -7.477899999999999991e+00 -1.781661000000000072e+01 -3.635489181930868230e-01
1.680099999999999838e+01 4.386699999999999733e+01 -4.209800000000000431e+00 -3.329032000000000124e+01 -1.087620961917691725e-01
1.680399999999999849e+01 2.636599999999999966e+01 -2.040200000000000014e+00 -2.633509000000000100e+01 -8.660370240694265087e-02
1.680399999999999849e+01 3.468999999999999773e+01 2.855799999999999983e+01 -1.124076999999999993e+00 1.799647130075502366e-01
1.680900000000000105e+01 2.836400000000000077e+01 4.687500000000000000e+00 -3.288170000000000037e+00 -9.180960243380661967e-02
1.681200000000000117e+01 2.357300000000000040e+01 2.007000000000000028e+01 -3.087966000000000211e+00 -1.097266729855389256e-01
1.681200000000000117e+01 2.683899999999999864e+01 -8.048999999999999488e+00 -3.567918999999999841e+01 -3.635105253255700442e-01
1.681299999999999883e+01 5.746900000000000119e+01 2.750700000000000145e+01 -3.273725000000000218e+00 -7.445777844637606335e-02
1.681800000000000139e+01 5.362599999999999767e+01 7.024899999999999700e+00 -3.975095000000000312e+01 1.717767909300470242e-01
1.681800000000000139e+01 5.507999999999999829e+01 2.001899999999999835e+01 -1.529226999999999892e+00 1.712883485052502930e-01
1.682499999999999929e+01 3.522599999999999909e+01 -3.008500000000000174e+00 5.119621999999999673e+00 -9.236576430304871410e-02
1.682499999999999929e+01 3.350800000000000267e+01 3.032999999999999829e+01 1.333893999999999913e+00 1.865985528493571133e-01
1.682600000000000051e+01 5.388700000000000045e+01 6.224199999999999733e+00 -1.503044000000000047e+01 1.732331069944715307e-01
1.682700000000000173e+01 3.852300000000000324e+01 2.581500000000000128e+01 2.465867999999999949e+00 1.688441513588426202e-01
1.682799999999999940e+01 5.303099999999999881e+01 3.030299999999999994e+00 -3.039301000000000030e+00 1.761952841544874859e-01
1.683999999999999986e+01 3.355700000000000216e+01 2.931599999999999895e+01 -8.105396000000000267e-01 1.837427524745526008e-01
1.684400000000000119e+01 2.264300000000000068e+01 1.487100000000000044e+01 -4.498859000000000385e+00 -1.071826334078262583e-01
1.684700000000000131e+01 2.803200000000000003e+01 -7.597999999999999865e+00 -4.759235000000000326e+00 -3.635004294975729411e-01
1.685699999999999932e+01 5.124099999999999966e+01 3.397399999999999665e+01 1.637177000000000149e+01 -7.886337388394294712e-02
1.685999999999999943e+01 4.973899999999999721e+01 -5.751299999999999635e+00 -2.323885000000000201e+00 -1.071032757797381052e-01
1.686400000000000077e+01 4.479500000000000171e+01 -4.034200000000000230e+00 -2.375093999999999994e+01 -1.091021483218661131e-01
1.686400000000000077e+01 2.730399999999999849e+01 1.152800000000000047e+01 -3.517719000000000040e+00 -1.029176799937552705e-01
1.686599999999999966e+01 5.227199999999999847e+01 7.799500000000000099e+00 -1.875475000000000136e+01 4.298270007913174706e-01
1.687199999999999989e+01 2.788599999999999923e+01 8.450699999999999434e+00 -3.757569000000000159e+00 -9.854939123102729459e-02
1.687600000000000122e+01 5.787500000000000000e+01 4.342999999999999972e+00 -1.510973000000000077e+01 -1.516750823283624094e-01
1.687800000000000011e+01 5.077100000000000080e+01 -3.876500000000000057e+00 -1.120368999999999993e+01 -1.074948564074456048e-01
1.688500000000000156e+01 4.275099999999999767e+01 2.862099999999999866e+01 -1.986784000000000106e+00 1.666309157036341138e-01
1.688500000000000156e+01 5.419100000000000250e+01 3.457500000000000284e+01 -9.602206000000000685e+00 -6.161007708142240968e-02
1.689099999999999824e+01 5.574900000000000233e+01 3.254299999999999926e+01 -2.385865000000000080e+01 -6.356467376238129907e-02
1.689399999999999835e+01 4.663300000000000267e+01 -8.776699999999999502e-01 -5.744998999999999967e+00 -1.107567268549318057e-01
1.689600000000000080e+01 4.231700000000000017e+01 -3.827599999999999891e+00 -1.073365000000000080e+01 -1.085410475095725386e-01
1.689600000000000080e+01 4.231700000000000017e+01 -1.562400000000000011e+00 -3.010494000000000003e+00 -1.097086210512155102e-01
1.691700000000000159e+01 5.270600000000000307e+01 3.407500000000000284e+01 -1.052439999999999998e+01 -7.071978262500569490e-02
1.692099999999999937e+01 4.083100000000000307e+01 2.521399999999999864e+01 5.865486999999999895e+00 1.656731567103108260e-01
1.692500000000000071e+01 2.555199999999999960e+01 -2.496100000000000207e+00 -1.370847999999999978e+01 -8.633291356514745385e-02
1.692699999999999960e+01 4.800399999999999778e+01 3.436599999999999966e+01 -4.052514999999999645e+00 -9.352993137675434665e-02
1.692899999999999849e+01 4.390200000000000102e+01 1.830799999999999983e+00 -6.547435000000000116e+00 -9.758711603544792390e-02
1.692899999999999849e+01 4.581199999999999761e+01 -1.141099999999999959e+01 -9.371541000000000565e+00 -1.063755161515378411e-01
1.693499999999999872e+01 2.597299999999999898e+01 1.244999999999999929e+01 -1.921167999999999987e+00 -1.042253352942672240e-01
1.693599999999999994e+01 5.833200000000000074e+01 3.004299999999999926e+01 -1.168369000000000035e+01 -6.407996191145171050e-02
1.693599999999999994e+01 5.411299999999999955e+01 5.245300000000000296e+00 -1.259698999999999991e+01 1.744224626121186339e-01
1.693799999999999883e+01 4.828900000000000148e+01 6.170600000000000307e+00 1.696430000000000105e+00 4.299525335539692295e-01
1.693900000000000006e+01 2.066199999999999903e+01 1.758800000000000097e+01 -7.137495999999999619e+00 -1.075384502024411687e-01
1.694300000000000139e+01 4.778799999999999670e+01 5.767100000000000115e+00 -3.903531000000000084e-01 4.299795871930264246e-01
1.694399999999999906e+01 2.572100000000000009e+01 -8.102000000000000313e+00 -2.659208999999999889e+01 -3.635382151255995287e-01
1.694399999999999906e+01 2.572100000000000009e+01 -6.701999999999999957e+00 1.553616000000000064e+01 -3.635972621074696765e-01
1.694999999999999929e+01 3.581700000000000017e+01 -3.612099999999999866e+00 1.291271000000000058e+01 -9.280562236348972871e-02
1.695200000000000173e+01 2.086599999999999966e+01 1.670200000000000173e+01 -8.532090000000000174e+00 -1.072963676523777804e-01
1.695599999999999952e+01 5.488600000000000279e+01 2.546600000000000108e+01 2.855878999999999834e+00 1.832116415745383420e-01
1.695700000000000074e+01 5.089699999999999847e+01 -2.589399999999999924e+00 -9.889103999999999672e+00 -1.080370851987795255e-01
1.695799999999999841e+01 4.978000000000000114e+01 7.037899999999999601e+00 -7.403393999999999586e+00 4.298865409084829947e-01
1.696000000000000085e+01 2.448000000000000043e+01 2.790599999999999881e+01 -2.017907999999999813e+00 8.496514396462381824e-02
1.696000000000000085e+01 2.473400000000000176e+01 2.701200000000000045e+01 -4.411105000000000054e+00 -1.114235344462735089e-01
1.696000000000000085e+01 2.473400000000000176e+01 2.880000000000000071e+01 -1.602834000000000092e+00 8.652996254487588246e-02
1.696199999999999974e+01 2.473999999999999844e+01 -2.846999999999999975e+00 -8.104554999999999509e+00 -8.604169727055892281e-02
1.696300000000000097e+01 5.079699999999999704e+01 7.467600000000000016e+00 -1.934111000000000047e+01 4.298509131136180050e-01
1.696600000000000108e+01 2.617099999999999937e+01 3.136400000000000077e+01 -1.973820999999999870e+01 9.248861485714872377e-02
1.696600000000000108e+01 2.769099999999999895e+01 3.136400000000000077e+01 -4.674324000000000012e+01 1.948511261144491580e-01
1.697100000000000009e+01 5.077499999999999858e+01 -1.748699999999999921e+00 -6.313373000000000346e+00 -1.084774203039505502e-01
1.697299999999999898e+01 3.224000000000000199e+01 -2.920500000000000096e+00 3.053345999999999894e+00 -9.042842061653681707e-02
1.697599999999999909e+01 5.150600000000000023e+01 2.859599999999999920e+00 -9.058813999999999922e+00 1.750170330471689240e-01
1.697800000000000153e+01 4.370100000000000051e+01 3.258899999999999864e+01 -1.397246999999999950e+01 -1.077443404957421497e-01
1.698000000000000043e+01 4.572500000000000142e+01 -1.068900000000000006e+01 -9.350918000000000063e+00 -1.066630675674541812e-01
1.698000000000000043e+01 4.300300000000000011e+01 -1.172700000000000031e+01 6.967477999999999838e+00 -1.057275773865395258e-01
1.698000000000000043e+01 4.558200000000000074e+01 -2.253000000000000114e+00 -9.905893000000000725e+00 -1.102263451074023959e-01
1.698100000000000165e+01 5.789800000000000324e+01 3.098699999999999832e+01 -1.394607000000000063e+01 -6.225153691357937502e-02
1.698900000000000077e+01 3.745900000000000318e+01 -4.375399999999999956e+00 1.135816999999999943e+01 -1.068658126885725368e-01
1.699200000000000088e+01 4.454299999999999926e+01 -1.217099999999999937e+01 -3.784745000000000026e+00 -1.059601586748568913e-01
1.699200000000000088e+01 4.548299999999999699e+01 -1.217099999999999937e+01 -6.601605000000000167e+00 -1.061731058976764092e-01
1.699299999999999855e+01 4.506099999999999994e+01 3.311999999999999744e+01 -3.549739000000000289e+01 -1.034508723114635487e-01
1.699399999999999977e+01 4.734899999999999665e+01 -3.744899999999999896e-01 -9.797126000000000445e+00 -1.107433637397221560e-01
1.699399999999999977e+01 5.091199999999999903e+01 3.795700000000000074e+00 -1.126889000000000074e+01 1.734479694966236663e-01
1.699399999999999977e+01 5.091199999999999903e+01 5.414299999999999891e+00 -1.732441000000000031e+01 1.714087393582147123e-01
1.699399999999999977e+01 5.091199999999999903e+01 6.279600000000000293e+00 -2.857438000000000144e+01 4.299089872556020042e-01
1.699599999999999866e+01 2.761700000000000088e+01 -6.897999999999999687e+00 -1.202715000000000067e+01 -3.635439118073273135e-01
1.699599999999999866e+01 2.844699999999999918e+01 -6.897999999999999687e+00 -9.328661999999999566e+00 -3.635229959311337411e-01
1.700100000000000122e+01 2.801300000000000168e+01 -1.243700000000000028e+00 -5.147513000000000005e+00 -8.729662153588278739e-02
1.700300000000000011e+01 4.958299999999999841e+01 3.397899999999999920e+01 1.322540000000000049e+00 1.119023991206419544e-01
1.700600000000000023e+01 4.191700000000000159e+01 -1.203200000000000003e+01 5.198495000000000310e+00 -1.053893255948006313e-01
1.700600000000000023e+01 5.519299999999999784e+01 3.330400000000000205e+01 -1.943512000000000128e+01 -6.299690106881158935e-02
1.700799999999999912e+01 4.620900000000000318e+01 -1.002599999999999980e+01 -5.783953999999999596e+00 -1.067535543080977006e-01
1.701000000000000156e+01 2.103099999999999881e+01 1.843799999999999883e+01 -7.649306000000000161e+00 -1.079511338938518861e-01
