8.628900000000000459e-01 1.375999999999999890e+00 3.387199999999999989e+00 3.199752000000000152e+00 -1.151195235511251330e-01
8.642600000000000282e-01 5.192700000000000315e+00 -4.856499999999999595e+00 1.513977000000000039e+01 -1.178554473800381697e-01
8.645399999999999752e-01 1.653200000000000003e+01 6.289399999999999658e+00 -2.288986999999999838e+01 -3.277126455089349882e-03
8.729999999999999982e-01 1.050999999999999979e+01 -1.186400000000000077e+01 2.172830999999999957e+00 9.639128583894472635e-02
8.790000000000000036e-01 2.351999999999999869e+00 8.490000000000000213e+00 4.042036000000000406e+00 7.903530640448379416e-04
8.790000000000000036e-01 3.902000000000000135e+00 6.940000000000000391e+00 -3.885940999999999867e+00 -4.750264864708885035e-04
8.813299999999999468e-01 1.866700000000000159e+01 -1.635200000000000031e+01 8.624656999999999130e+00 -3.787060626705344817e-04
8.822600000000000442e-01 1.424499999999999922e+01 -8.089900000000000091e+00 3.573409999999999798e+01 -1.181037436188506987e-03
8.910299999999999887e-01 1.969399999999999906e+01 -1.400300000000000011e+01 2.518789999999999907e+01 -5.733240323817767863e-04
8.968099999999999961e-01 1.385299999999999976e+01 4.459200000000000053e+00 -4.700237000000000442e+00 -3.164234465955108842e-03
9.029199999999999449e-01 1.007900000000000063e+01 -1.117399999999999949e+01 4.323765999999999998e-01 9.649771006606143453e-02
9.078199999999999603e-01 1.189400000000000013e+01 4.783699999999999619e+00 -6.937102000000000324e+00 -3.104437518170021469e-03
9.102200000000000291e-01 1.760200000000000031e+01 -1.078200000000000003e+01 2.670129999999999981e+01 -9.119666837048963576e-04
9.180000000000000382e-01 1.299900000000000055e+01 -1.447799999999999976e+01 -1.079263000000000083e+00 9.531483614186594955e-02
9.180000000000000382e-01 1.638500000000000156e+01 5.236399999999999721e+00 -5.060438000000000436e+00 -3.240490278635405064e-03
9.210000000000000409e-01 6.802299999999999791e+00 -1.581499999999999906e+00 3.968077000000000076e+00 -1.389690866323996981e-03
9.251500000000000279e-01 6.375600000000000378e+00 -2.334999999999999964e+00 2.740521000000000207e+00 9.492469821319693413e-02
9.278899999999999926e-01 1.395299999999999940e+01 2.201999999999999957e+00 8.288571999999999607e-01 -2.798681590401691857e-03
9.330000000000000515e-01 -1.739999999999999880e-01 5.033999999999999808e+00 -9.089331999999999967e-01 -1.070319626809979885e-01
9.330000000000000515e-01 5.749100000000000044e-02 4.219100000000000072e+00 4.236520999999999759e+00 -1.071087003888340633e-01
9.356600000000000472e-01 1.415900000000000070e+01 -1.624399999999999977e+01 1.355804000000000009e+00 9.521107893087865648e-02
9.532699999999999507e-01 2.381800000000000028e-01 6.578299999999999592e+00 -2.826223000000000152e+00 -1.150890979078190018e-01
9.578799999999999537e-01 -3.363999999999999803e-03 5.789600000000000080e+00 -1.779508000000000090e+00 -1.104931690426530777e-01
9.655399999999999539e-01 1.965700000000000003e+01 -1.646000000000000085e+01 7.836816999999999922e+00 -3.889811836373403007e-04
9.712699999999999667e-01 1.249000000000000021e+01 1.082499999999999929e+01 -4.222817000000000043e+00 -3.673427977213902622e-03
9.718999999999999861e-01 5.994299999999999962e+00 1.403299999999999992e+00 6.994175999999999727e-01 -1.561014498255618730e-03
9.838900000000000423e-01 6.573000000000000398e+00 -3.125799999999999912e+00 3.229807000000000095e+00 9.546187643564550684e-02
9.969999999999999973e-01 1.209699999999999953e+01 -1.274000000000000021e+01 -5.533580999999999916e-02 9.523644624307406326e-02
9.986699999999999466e-01 1.432199999999999918e+01 1.352000000000000091e+00 9.284162999999999721e-01 -2.731265283850974491e-03
1.001500000000000057e+00 1.128100000000000058e+01 -9.215899999999999537e+00 8.612330000000000041e+00 -9.971491790209626761e-04
1.009900000000000020e+00 1.228100000000000058e+01 5.521200000000000330e+00 -2.783412999999999915e+00 -3.470040530526040390e-03
1.010699999999999932e+00 9.107400000000000162e+00 -4.969999999999999751e+00 9.401265999999999678e+00 -1.361383588754615671e-03
1.015700000000000047e+00 4.893099999999999561e+00 -1.443799999999999972e+00 2.542313000000000045e+00 9.735848792349510727e-02
1.024299999999999988e+00 1.682400000000000162e+01 1.608000000000000096e+00 1.766728000000000076e+00 -2.740156497112437688e-03
1.030200000000000005e+00 5.690900000000000070e+00 2.103299999999999947e+00 -9.988810000000000189e-01 -1.608152512182569856e-03
1.037400000000000100e+00 1.366999999999999993e+01 -7.903500000000000192e+00 8.616110000000000824e+00 -1.272728800479201467e-03
1.037900000000000045e+00 1.296399999999999997e+00 2.035999999999999943e+01 3.178498000000000157e-01 -9.259159407035685851e-02
1.037900000000000045e+00 1.296399999999999997e+00 2.130799999999999983e+01 9.358005000000000351e-01 -9.172633102241301017e-02
1.045700000000000074e+00 7.048399999999999999e+00 8.840400000000000480e-01 3.514956000000000191e+00 -1.839510219285239419e-03
1.047500000000000098e+00 4.842900000000000205e+00 1.245500000000000052e+00 -8.887692999999999843e-01 -1.347364164252477271e-03
1.054300000000000015e+00 1.868799999999999883e+01 -1.468699999999999939e+01 2.125490999999999886e+01 -5.772717575905503750e-04
1.054699999999999971e+00 5.311700000000000088e+00 -2.346000000000000085e+00 2.241003000000000078e+00 9.739880220026772562e-02
1.060200000000000031e+00 7.433399999999999785e+00 3.596199999999999952e-01 3.154989000000000043e+00 -1.870576396027413433e-03
1.061500000000000110e+00 1.847100000000000009e+01 -1.357699999999999996e+01 2.314621999999999957e+01 -6.845373500272745621e-04
1.068000000000000060e+00 1.076600000000000001e+01 -1.002999999999999936e+01 4.175793999999999784e+00 9.498712974153780686e-02
1.074999999999999956e+00 1.839900000000000091e+01 -1.301800000000000068e+01 2.382067999999999941e+01 -7.440176835531073750e-04
1.078200000000000047e+00 1.282000000000000028e+01 -8.451999999999999957e+00 8.834765000000000867e+00 -1.197072183244150519e-03
1.088000000000000078e+00 1.834499999999999886e+01 -1.550200000000000067e+01 2.301399999999999935e+01 -5.170786187591691445e-04
1.089699999999999891e+00 1.458000000000000007e+01 -1.703000000000000114e+01 1.375229999999999952e+00 9.528336988646876615e-02
1.089699999999999891e+00 1.563000000000000078e+01 -1.703000000000000114e+01 1.785185999999999940e+00 -3.737048551979646753e-04
1.103099999999999969e+00 2.607000000000000206e+00 1.951500000000000057e+01 3.494131999999999794e-01 -1.942283280573635362e-01
1.103099999999999969e+00 2.607000000000000206e+00 2.215299999999999869e+01 5.345826000000000278e+01 -9.233266763369918362e-02
1.106300000000000061e+00 1.686299999999999955e+01 4.462799999999999656e+00 -2.144797000000000065e+00 -3.352504321854286352e-03
1.113599999999999923e+00 3.819999999999999840e+00 7.817400000000000126e+00 2.140785999999999945e+01 -7.309660111640438589e-04
1.120900000000000007e+00 1.545500000000000007e+01 1.094999999999999973e+00 6.902279000000000053e-01 -2.810705713974799135e-03
1.121899999999999897e+00 1.932000000000000028e+01 -1.460699999999999932e+01 2.418036999999999992e+01 -6.012107767487753513e-04
1.122999999999999998e+00 8.573999999999999844e+00 -1.368500000000000050e+01 -1.305279999999999996e+00 -8.146237879917408997e-02
1.134200000000000097e+00 1.176099999999999923e+01 6.578000000000000291e+00 1.509293999999999913e+00 -3.876821631174327126e-03
1.134800000000000031e+00 1.327500000000000036e+01 2.459000000000000075e+00 -7.436720999999999471e-01 -3.100651647836015143e-03
1.139999999999999902e+00 4.553700000000000081e+00 -5.983300000000000285e-01 4.978909000000000251e-01 9.730471619982947185e-02
1.139999999999999902e+00 4.553700000000000081e+00 4.523300000000000098e-01 -5.416797000000000278e-02 9.589459416052395491e-02
1.139999999999999902e+00 7.304299999999999571e+00 -5.983300000000000285e-01 5.903074000000000154e+00 -1.804454671517304694e-03
1.143000000000000016e+00 3.861000000000000210e+00 2.035500000000000043e+01 4.223258999999999652e+00 -1.887862724073351151e-01
1.143000000000000016e+00 3.861000000000000210e+00 2.131299999999999883e+01 2.290019000000000027e+00 -1.887068525731088464e-01
1.146099999999999897e+00 8.969799999999999329e+00 -4.436899999999999622e+00 5.077498000000000289e+00 -1.513356430870177200e-03
1.147199999999999998e+00 1.700300000000000011e+01 -1.635000000000000142e+01 2.271234000000000197e+00 -4.608974323776943464e-04
1.149000000000000021e+00 1.337500000000000000e+01 -1.527200000000000024e+01 -2.656184000000000101e+00 9.545017683145289034e-02
1.149999999999999911e+00 1.800199999999999889e+01 8.673299999999999343e+00 -3.819183000000000305e+01 -3.804881357984896042e-03
1.149999999999999911e+00 1.800199999999999889e+01 9.612700000000000244e+00 -5.538259999999999650e+01 -3.835533252616838383e-03
1.167000000000000037e+00 4.392000000000000348e+00 -6.205000000000000071e+00 8.864663000000000181e+00 -1.134440333216227559e-01
1.167000000000000037e+00 4.623499999999999943e+00 -7.019899999999999807e+00 4.558821000000000012e+00 -2.951077257696358425e-01
1.167000000000000037e+00 4.623499999999999943e+00 -5.390100000000000335e+00 7.996569000000000038e+00 -1.151958326780357089e-01
1.167000000000000037e+00 5.942000000000000171e+00 -7.754999999999999893e+00 4.308372000000000313e+00 -1.163803853406518984e-01
1.181000000000000050e+00 1.282099999999999973e+01 1.130199999999999960e+01 -1.776869999999999949e+00 -4.583940500328880646e-03
1.181000000000000050e+00 1.282099999999999973e+01 1.216799999999999926e+01 -2.195275999999999783e+00 -4.344765425016005461e-03
1.181000000000000050e+00 1.282099999999999973e+01 1.321799999999999997e+01 -1.286597999999999908e+00 -3.704145724400488646e-03
1.181000000000000050e+00 1.557099999999999973e+01 1.130199999999999960e+01 -7.344192999999999749e+00 -4.465589984940750330e-03
1.181000000000000050e+00 1.557099999999999973e+01 1.216799999999999926e+01 -1.002264000000000044e+00 -4.309772902508288497e-03
1.181000000000000050e+00 1.557099999999999973e+01 1.321799999999999997e+01 3.643135999999999797e+01 -3.911608297367833928e-03
1.189100000000000046e+00 1.677199999999999847e+01 1.043599999999999994e+01 -1.031270999999999987e+02 -4.263734762849085043e-03
1.193200000000000038e+00 7.669599999999999973e+00 -3.568999999999999950e+00 2.182939000000000007e+01 -1.510400445650686343e-03
1.194199999999999928e+00 1.590900000000000070e+01 -8.457100000000000506e+00 4.132412000000000418e+00 -1.317633098972871260e-03
1.201999999999999957e+00 1.798400000000000176e+01 -1.165900000000000070e+01 1.690508000000000166e+01 -9.357288378500916437e-04
1.205999999999999961e+00 1.919200000000000017e+01 -1.550200000000000067e+01 1.413355999999999923e+01 -5.489108711478851666e-04
1.213100000000000067e+00 3.138300000000000090e+00 2.812100000000000044e+00 -2.299633000000000038e+00 -8.790084080458748783e-02
1.217100000000000071e+00 9.084699999999999775e+00 -5.629999999999999893e+00 1.621368000000000009e+01 -1.411244292948038090e-03
1.224699999999999900e+00 1.419599999999999973e+01 1.413899999999999935e+01 -4.164843000000000295e+00 -3.513422497713422112e-03
1.226199999999999957e+00 4.469599999999999795e+00 4.722199999999999953e+00 -1.332187000000000054e+01 -1.601390869183699035e-03
1.228900000000000103e+00 1.237299999999999933e+01 2.516000000000000014e+00 -2.511700999999999961e+00 -3.191472158868137281e-03
1.230900000000000105e+00 5.711800000000000210e+00 2.884999999999999787e+00 -1.600111000000000061e+01 -1.945416431387552575e-03
1.231000000000000094e+00 2.012099999999999866e+01 -1.614900000000000091e+01 8.329876000000000502e+00 -4.896217676698690589e-04
1.231000000000000094e+00 2.012099999999999866e+01 -1.459900000000000020e+01 3.922348000000000212e+01 -6.269038883353137814e-04
1.231000000000000094e+00 2.107900000000000063e+01 -1.614900000000000091e+01 2.026039000000000101e+01 -4.751715883577660796e-04
1.231000000000000094e+00 2.107900000000000063e+01 -1.459900000000000020e+01 1.309662999999999897e+02 -6.091632249827132542e-04
1.250399999999999956e+00 5.744100000000000428e+00 -3.161300000000000221e+00 5.905612999999999779e+00 9.741929928098808089e-02
1.256099999999999994e+00 5.286199999999999788e-01 2.125799999999999912e+01 5.570648000000000266e-01 -9.425916039800555368e-02
1.258399999999999963e+00 3.257400000000000073e+00 8.535999999999999588e+00 5.782401999999999731e+01 -5.584818579444776089e-04
1.263400000000000079e+00 1.795200000000000173e+01 -1.468699999999999939e+01 1.176205000000000034e+01 -6.511362914090541897e-04
1.264399999999999968e+00 1.252999999999999936e+01 -1.343999999999999950e+01 -3.508649000000000129e+00 9.528832568831785421e-02
1.268000000000000016e+00 1.114300000000000068e+01 3.339300000000000157e+00 -1.673653999999999975e+00 -3.317592126771803842e-03
1.281800000000000050e+00 1.811299999999999955e+01 -1.261700000000000088e+01 8.083968000000000487e+00 -8.637960449094132191e-04
1.295500000000000096e+00 2.141499999999999915e+01 -1.537400000000000055e+01 1.811950999999999823e+01 -5.542852378806956744e-04
1.297099999999999920e+00 1.760900000000000176e+01 -1.550200000000000067e+01 1.093749000000000038e+01 -5.860483920245291960e-04
1.297299999999999898e+00 8.237700000000000022e-01 2.043400000000000105e+01 1.111328000000000038e-01 -9.499850106154072993e-02
1.300400000000000000e+00 1.139700000000000024e+01 -1.268099999999999916e+01 1.867419999999999844e-02 9.602609242729956418e-02
1.300499999999999989e+00 6.814899999999999736e+00 1.360400000000000054e+00 3.113423000000000052e+00 -2.150343207347879624e-03
1.302000000000000046e+00 1.628200000000000003e+01 6.909699999999999953e+00 -2.110827000000000098e+01 -4.231409471506535416e-03
1.305600000000000094e+00 8.944399999999999906e+00 -1.299699999999999989e+01 -1.841043000000000163e+01 9.888294011704482078e-02
1.307900000000000063e+00 5.651099999999999568e+00 -4.062000000000000277e+00 1.059911999999999921e+01 9.849224561071694140e-02
1.316699999999999982e+00 1.784899999999999931e+00 1.950400000000000134e+01 5.920512999999999471e-01 -1.027573477130421659e-01
1.320599999999999996e+00 9.594300000000000495e+00 -1.151900000000000013e+01 -3.320266000000000162e+00 9.742311923029299547e-02
1.328500000000000014e+00 1.704700000000000060e+01 -1.037299999999999933e+01 2.013600999999999885e+01 -1.141126487417363968e-03
1.328999999999999959e+00 1.059999999999999964e+01 -1.296299999999999919e+01 -8.191296999999999606e-01 9.703929108085332378e-02
1.330000000000000071e+00 5.651699999999999946e+00 3.823700000000000099e+00 -2.084231000000000122e+01 -2.156797135200760971e-03
1.350000000000000089e+00 7.774899999999999700e+00 -1.368500000000000050e+01 -1.605460000000000109e+00 -7.986998008300021101e-02
1.350000000000000089e+00 9.373100000000000875e+00 -1.368500000000000050e+01 -7.210043999999999897e+00 9.870760565161584843e-02
1.350500000000000034e+00 5.083699999999999886e-01 7.014400000000000190e+00 -1.151589000000000063e+01 -1.191001188437726260e-01
1.353499999999999925e+00 1.122100000000000009e+01 5.125000000000000000e+00 -2.434028000000000080e+00 -3.917338505824171854e-03
1.355900000000000105e+00 1.478200000000000003e+01 7.256599999999999717e-01 1.862581000000000042e+00 -3.001260374810950458e-03
1.363899999999999890e+00 8.641000000000000014e+00 -1.229700000000000060e+01 -2.480821000000000165e+00 9.895626593638089108e-02
1.363899999999999890e+00 1.011299999999999955e+01 -1.229700000000000060e+01 -2.281623999999999874e+00 9.724729467214812684e-02
1.374100000000000099e+00 1.840300000000000047e+00 2.218799999999999883e+01 7.261318000000000161e+00 -9.643565969281828187e-02
1.402199999999999891e+00 8.673299999999999343e+00 -6.521899999999999586e+00 2.339945000000000164e+01 9.525183193297399875e-02
1.406800000000000050e+00 4.958699999999999775e-01 3.723399999999999821e+00 5.115185000000000315e+00 -1.093365401914481450e-01
1.409999999999999920e+00 1.175300000000000011e+01 7.425399999999999778e+00 4.563505000000000145e+00 -4.754177538412737193e-03
1.409999999999999920e+00 1.186500000000000021e+01 8.231500000000000483e+00 5.355712999999999724e+00 -4.993685196162820673e-03
1.413300000000000001e+00 8.104300000000000281e+00 -1.444500000000000028e+01 -1.376376999999999962e+00 -7.980066176333835970e-02
1.413300000000000001e+00 9.043699999999999406e+00 -1.444500000000000028e+01 -1.612109999999999932e+00 -8.149634457676614707e-02
1.415100000000000025e+00 1.992800000000000082e+01 -1.550200000000000067e+01 1.639020999999999972e+01 -6.059018002091437916e-04
1.419699999999999962e+00 1.147699999999999942e+00 1.962600000000000122e+01 1.603023000000000087e-01 -9.953245794970395910e-02
1.421300000000000008e+00 1.338700000000000045e+01 -1.597799999999999976e+01 1.161896000000000040e+00 9.585458369189495120e-02
1.426900000000000057e+00 1.252999999999999936e+01 8.969400000000000261e+00 -3.137045000000000083e+00 -5.313063740775799022e-03
1.432500000000000107e+00 1.343900000000000006e+01 1.571099999999999941e+00 1.168487000000000053e+00 -3.278280543546392527e-03
1.439000000000000057e+00 3.382000000000000117e+00 1.957999999999999829e+01 4.133441000000000365e+00 -2.033191670519332861e-01
1.439000000000000057e+00 3.382000000000000117e+00 2.208800000000000097e+01 2.980739000000000161e+01 -1.007020102070300682e-01
1.459999999999999964e+00 8.471999999999999531e+00 -1.150900000000000034e+01 -2.195104000000000166e+00 9.884065666719470122e-02
1.461999999999999966e+00 1.291200000000000081e+01 1.073399999999999999e+01 5.861176000000000386e+00 -5.847300929697536558e-03
1.463899999999999979e+00 1.139300000000000068e+01 6.014000000000000234e+00 6.128365000000000062e-01 -4.415654008282982566e-03
1.471999999999999975e+00 2.399999999999999911e+00 2.727100000000000080e+00 6.762261999999999995e-01 -1.202084812500291006e-01
1.484299999999999953e+00 1.276099999999999923e+01 9.740899999999999892e+00 -4.683271000000000406e+00 -5.721578977629896909e-03
1.492499999999999938e+00 1.607199999999999918e+01 1.049399999999999977e+01 -1.343595000000000006e+01 -5.386077335478455311e-03
1.495700000000000029e+00 1.400099999999999945e+01 -1.719300000000000139e+01 1.579763000000000028e+00 9.591368242931853916e-02
1.499000000000000110e+00 1.647200000000000131e+01 8.995100000000000318e-01 2.225271999999999917e+00 -3.128269104047349224e-03
1.500199999999999978e+00 7.341400000000000148e+00 -1.063399999999999901e+00 8.769375000000000142e+00 -2.094089271002465193e-03
1.500599999999999934e+00 1.027500000000000036e+01 -1.042699999999999960e+01 8.133842000000000017e-01 9.601610113482020314e-02
1.506000000000000005e+00 1.659400000000000119e+01 -9.269999999999999574e+00 3.924825999999999926e+00 -1.362588198699760719e-03
1.506299999999999972e+00 3.612699999999999800e+00 2.044500000000000206e+00 -1.501438999999999968e+00 -8.784963199832708514e-02
1.519700000000000051e+00 1.531199999999999939e+01 -7.793000000000000149e+00 1.824111999999999867e+01 -1.574595170369199031e-03
1.522999999999999909e+00 4.048300000000000232e+00 5.440400000000000347e+00 -8.569214000000000553e+00 -1.937591082944266265e-03
1.525500000000000078e+00 8.429700000000000415e+00 -3.639400000000000190e+00 8.173752999999999602e+00 -1.852516971383882851e-03
1.526999999999999913e+00 4.227599999999999802e+00 1.073800000000000032e-01 -4.946520999999999835e-01 9.761789687592987985e-02
1.526999999999999913e+00 2.060000000000000142e+01 -1.537400000000000055e+01 2.925932999999999851e+01 -6.415596356077774443e-04
1.527300000000000102e+00 7.827700000000000102e+00 5.537400000000000100e-01 6.512808999999999848e+00 -2.499595819444358144e-03
1.534299999999999997e+00 7.264400000000000190e+00 -2.853299999999999947e+00 1.132080000000000020e+01 -1.824861739876699725e-03
1.534299999999999997e+00 7.264400000000000190e+00 -1.987999999999999989e+00 8.349641999999999342e+00 -1.961266619788305885e-03
1.538899999999999935e+00 9.788700000000000401e+00 -4.597000000000000419e+00 6.175576000000000398e+00 -1.850455130966215068e-03
1.541700000000000070e+00 1.652899999999999991e+01 -1.681400000000000006e+01 5.463345999999999592e+00 -5.376980064402108600e-04
1.552499999999999991e+00 1.807400000000000162e+01 -1.309800000000000075e+01 1.174066000000000010e+01 -9.130681186235625312e-04
1.553600000000000092e+00 5.239899999999999558e+00 4.659900000000000375e+00 -6.979421000000000319e+00 -2.446964639818336590e-03
1.554499999999999993e+00 1.320100000000000051e+01 1.152800000000000047e+01 -5.336109999999999465e-01 -6.377000922879312757e-03
1.554999999999999938e+00 9.810000000000000497e+00 6.014000000000000234e+00 -7.079954999999999998e-01 -4.298684125427210817e-03
1.556699999999999973e+00 1.503100000000000103e+00 8.112700000000000244e+00 -1.867630999999999875e-01 -9.023152113597249224e-02
1.558300000000000018e+00 1.161299999999999955e+01 2.579299999999999926e+00 -2.770305000000000129e-01 -3.599648545741139342e-03
1.569299999999999917e+00 6.201299999999999812e+00 2.254700000000000149e+00 -2.882753999999999817e+00 -2.466788701061010600e-03
1.569399999999999906e+00 1.671499999999999986e+01 7.609700000000000131e+00 -2.550283999999999907e+01 -4.841475286977263599e-03
1.571299999999999919e+00 1.510500000000000043e+01 -1.762600000000000122e+01 1.417426999999999992e+00 9.526260104046016530e-02
1.572999999999999954e+00 9.377000000000000668e+00 -1.229700000000000060e+01 -3.296175999999999995e+00 9.816797733459761699e-02
1.578999999999999959e+00 4.169400000000000439e+00 7.372600000000000264e+00 6.156952999999999676e+00 -2.066173765157820492e-03
1.580000000000000071e+00 4.461700000000000443e+00 -2.021300000000000097e+00 3.615569999999999951e+00 -1.199021636995187823e-01
1.580699999999999994e+00 1.197300000000000075e+01 -8.617699999999999250e+00 1.310708999999999946e+01 -1.402220496811620518e-03
1.593499999999999917e+00 -2.478799999999999892e-01 2.120899999999999963e+01 2.893321999999999838e-01 -9.733107796207250695e-02
1.601399999999999935e+00 1.040799999999999947e+00 2.208899999999999864e+01 7.392927000000000248e+00 -9.885289719634295091e-02
1.609699999999999909e+00 9.420299999999999230e+00 -3.746999999999999886e+00 4.443254999999999733e+00 -2.011034954725811081e-03
1.614999999999999991e+00 1.373000000000000043e+01 -1.670499999999999829e+01 9.418024999999999869e-01 9.594816317367180214e-02
1.618000000000000105e+00 1.294100000000000072e+01 -1.478200000000000003e+01 -3.626193999999999917e+00 9.571949701106652331e-02
1.618000000000000105e+00 1.733399999999999963e+01 2.138300000000000090e+00 6.743999999999999773e+00 -3.465280291725172934e-03
1.618000000000000105e+00 1.733399999999999963e+01 3.925699999999999967e+00 -7.013202999999999854e+00 -3.890982672524598372e-03
1.618000000000000105e+00 1.758800000000000097e+01 3.032000000000000028e+00 2.438915999999999862e+00 -3.642742577114013725e-03
1.619699999999999918e+00 1.724200000000000088e+01 8.382999999999999119e+00 -3.738882999999999868e+01 -4.983943386531243004e-03
1.619699999999999918e+00 1.724200000000000088e+01 9.903000000000000469e+00 -1.279830999999999932e+02 -5.263979477394157419e-03
1.632700000000000040e+00 1.498199999999999932e+01 1.350000000000000089e-01 1.104802999999999980e+00 -3.149919914254303930e-03
1.632700000000000040e+00 1.603200000000000003e+01 1.350000000000000089e-01 2.011988999999999805e+00 -3.114147373817229610e-03
1.644700000000000051e+00 7.361299999999999955e+00 1.360999999999999988e+00 8.889070999999999501e-01 -2.695288573188785175e-03
1.645699999999999941e+00 9.980400000000000382e-01 7.483900000000000219e+00 -2.087807000000000102e+01 -9.045080097773133820e-02
1.645999999999999908e+00 5.166999999999999815e+00 -7.458999999999999631e+00 8.824681999999999249e+00 -1.144677795487205607e-01
1.645999999999999908e+00 6.716999999999999638e+00 -7.458999999999999631e+00 7.113097000000000492e+01 9.923932539560792465e-02
1.646500000000000075e+00 8.943699999999999761e+00 -1.069599999999999973e+01 -8.621193000000000328e-01 9.790589859081191837e-02
1.657999999999999918e+00 8.802400000000000502e-02 2.043400000000000105e+01 -1.369972000000000030e-02 -9.790709413823753260e-02
1.657999999999999918e+00 8.802400000000000502e-02 2.198400000000000176e+01 1.627545000000000019e+00 -9.847560135586083674e-02
1.672199999999999909e+00 1.277900000000000036e+00 2.980100000000000193e+00 -3.511026999999999898e-01 -1.133513003197593738e-01
1.673000000000000043e+00 1.065700000000000003e+01 6.014000000000000234e+00 -1.947618999999999878e-01 -4.744199153504711705e-03
1.683000000000000052e+00 1.757100000000000151e+01 9.143000000000000682e+00 -8.822869000000000028e+01 -5.171062922588092435e-03
1.685100000000000042e+00 2.351999999999999869e+00 8.377700000000000813e+00 1.823986000000000018e+01 -1.088354459240215011e-03
1.686299999999999910e+00 1.193099999999999916e+01 -1.322199999999999953e+01 -1.200928999999999913e+00 9.589274750309065287e-02
1.687000000000000055e+00 7.672900000000000276e+00 -1.150900000000000034e+01 -1.056067000000000089e+00 -8.170905170439321519e-02
1.695100000000000051e+00 1.603800000000000026e+01 5.687599999999999767e+00 -8.244315999999999534e+00 -4.680953637634777294e-03
1.699699999999999989e+00 2.203899999999999956e-02 5.577899999999999636e+00 1.562880000000000047e+00 -1.099197931575705278e-01
1.701500000000000012e+00 7.778500000000000192e+00 -5.751100000000000101e-01 6.024905999999999651e+00 -2.457151019409160343e-03
1.706299999999999928e+00 1.367099999999999937e+01 1.354299999999999926e+01 7.486137000000000263e+00 -7.177215780207452274e-03
1.706299999999999928e+00 1.472100000000000009e+01 1.354299999999999926e+01 -1.643203000000000102e+01 -6.836987744118269705e-03
1.708099999999999952e+00 1.121799999999999997e+01 7.080000000000000071e+00 8.548531999999999798e-01 -5.319914895675426428e-03
1.710299999999999931e+00 1.298499999999999943e+01 -1.589700000000000024e+01 1.733789000000000025e-01 9.624272947240999909e-02
1.714099999999999957e+00 5.989399999999999835e+00 3.324399999999999800e+00 -4.613939000000000235e+00 -2.783270498537792226e-03
1.715400000000000036e+00 1.326800000000000068e+01 -7.434099999999999930e+00 4.843426000000000009e+00 -1.699855509064829686e-03
1.720699999999999896e+00 1.079700000000000060e+01 -9.611399999999999721e+00 2.071846999999999994e+00 9.488532134198471302e-02
1.724199999999999955e+00 1.629400000000000048e+01 4.969599999999999795e+00 -1.155140999999999973e+00 -4.476634652054755845e-03
1.725600000000000023e+00 1.016699999999999982e+01 -1.345400000000000063e+01 -1.351689999999999969e+01 9.787552399028789929e-02
1.728699999999999903e+00 1.027800000000000047e+01 5.141700000000000159e+00 -1.349631000000000025e+00 -4.482393105224067621e-03
1.729999999999999982e+00 5.339900000000000091e+00 -4.565599999999999881e+00 1.197132000000000041e+01 -1.188030593159352249e-01
1.738199999999999967e+00 7.767400000000000304e+00 -1.235500000000000043e+01 -4.587425999999999782e+00 -8.098345804398501824e-02
1.741300000000000070e+00 1.633899999999999864e+01 9.978099999999999525e+00 -3.602814999999999657e+01 -5.948219220541525395e-03
1.750299999999999967e+00 8.002299999999999969e+00 -1.074900000000000055e+01 -1.493146999999999913e+01 9.919871307794814186e-02
1.759300000000000086e+00 9.449899999999999967e-02 4.328100000000000058e+00 9.784635000000000415e-01 -1.073682008640311214e-01
1.764999999999999902e+00 1.707199999999999918e+01 -1.574699999999999989e+01 1.172444999999999915e+01 -7.119870517523824074e-04
1.777099999999999902e+00 1.330199999999999960e+01 1.269299999999999962e+01 3.076675999999999966e+00 -7.719160959666258870e-03
1.777099999999999902e+00 1.508999999999999986e+01 1.269299999999999962e+01 -3.036156000000000077e+00 -7.095155935227391748e-03
1.780000000000000027e+00 1.537100000000000044e+01 -5.392999999999999794e+00 7.839239000000000068e+00 -2.112859683991282801e-03
1.788000000000000034e+00 1.721199999999999974e+01 -1.506900000000000084e+01 1.512673000000000023e+01 -7.889844493667606600e-04
1.793600000000000083e+00 1.860999999999999988e+00 1.904299999999999926e+01 8.467308000000000057e-01 -9.870726401199660105e-02
1.795500000000000096e+00 1.027500000000000036e+01 6.971599999999999575e+00 -1.795571999999999946e+00 -5.304538410560084329e-03
1.800100000000000033e+00 8.141299999999999315e+00 -7.085300000000000153e+00 3.420399000000000189e+00 9.675717315892314041e-02
1.804000000000000048e+00 9.574999999999999289e+00 -1.048499999999999943e+01 -4.557136999999999993e+00 9.704246854654814680e-02
1.808899999999999952e+00 8.916299999999999670e+00 6.014000000000000234e+00 -2.188126000000000015e+00 -4.597917766356938822e-03
1.808899999999999952e+00 1.054599999999999937e+01 4.384199999999999875e+00 -3.608686000000000060e+00 -4.415951288956647229e-03
1.813600000000000101e+00 4.087399999999999700e+00 8.250000000000000000e+00 1.401258999999999943e+01 -2.521240688401389825e-03
1.815800000000000081e+00 1.385399999999999920e+01 7.999000000000000554e-01 1.655623000000000067e+00 -3.524182915190098887e-03
1.820100000000000051e+00 1.693199999999999861e+01 1.313900000000000068e+00 6.462603000000000097e-01 -3.526329438705097345e-03
1.840700000000000003e+00 1.718599999999999994e+01 -1.116300000000000026e+01 1.114686000000000021e+01 -1.259760023049540318e-03
1.843900000000000095e+00 8.573999999999999844e+00 -1.497799999999999976e+01 -1.606751000000000040e+00 -8.004671643885580279e-02
1.846799999999999997e+00 1.364000000000000057e+01 1.188299999999999912e+01 -1.424258999999999942e-01 -7.824035650881024442e-03
1.852999999999999980e+00 1.366999999999999993e+01 -6.713000000000000078e+00 2.762715000000000032e+01 -1.907393523276890417e-03
1.856000000000000094e+00 1.429899999999999949e+01 -1.766300000000000026e+01 1.798178000000000054e+00 9.596643543488252159e-02
1.859499999999999931e+00 1.203899999999999970e+01 8.572699999999999321e+00 4.060979999999999812e+00 -6.494690183014901856e-03
1.868600000000000039e+00 2.832599999999999785e+00 2.236200000000000188e+00 5.328886999999999929e+00 -1.215571653329802493e-01
1.871399999999999952e+00 2.682500000000000107e+00 1.916100000000000136e+01 1.262831999999999955e+00 -2.135937572145410121e-03
1.879699999999999926e+00 9.284700000000000841e+00 5.163999999999999702e+00 -1.777808999999999973e+00 -4.554814901903105062e-03
1.879699999999999926e+00 9.284700000000000841e+00 6.863999999999999879e+00 -1.126414000000000026e-01 -5.188577183834364170e-03
1.883000000000000007e+00 7.344299999999999606e+00 -1.415499999999999936e+01 -1.386576999999999948e+00 -2.946407058697967929e-01
1.883000000000000007e+00 7.344299999999999606e+00 -1.321499999999999986e+01 -1.582313000000000081e+00 -7.923515882263734711e-02
1.883000000000000007e+00 9.803699999999999193e+00 -1.415499999999999936e+01 -2.269040999999999997e+01 9.861645622488221519e-02
1.893000000000000016e+00 1.742699999999999960e+01 -1.432699999999999996e+01 1.781111999999999895e+01 -9.030935889712812456e-04
1.917999999999999927e+00 2.607000000000000206e+00 2.238400000000000034e+01 3.979189999999999827e+01 -1.088954335212248131e-01
1.917999999999999927e+00 3.925499999999999989e+00 2.001899999999999835e+01 2.885725000000000051e+01 9.970725123046779523e-04
1.917999999999999927e+00 3.925499999999999989e+00 2.164900000000000091e+01 9.418483999999999412e+00 -1.278254086888929407e-02
1.917999999999999927e+00 4.157000000000000028e+00 2.083399999999999963e+01 6.479945999999999628e+01 -2.119710071198828861e-03
1.925699999999999967e+00 4.889899999999999913e+00 -2.954699999999999882e+00 6.461173999999999751e+00 -1.198820667022611197e-01
1.931699999999999973e+00 1.486700000000000088e+01 -6.207900000000000418e+00 6.028955999999999982e+00 -2.059277050961286389e-03
1.939699999999999980e+00 1.595500000000000007e+01 -1.755499999999999972e+01 2.339061000000000057e+00 -5.820196335803149747e-04
1.941999999999999948e+00 4.687999999999999723e+00 -6.684000000000000163e+00 4.519747999999999877e+00 -2.956345285052245364e-01
1.941999999999999948e+00 4.687999999999999723e+00 -5.725999999999999979e+00 1.889217999999999975e+01 -1.149601019042159333e-01
1.943000000000000060e+00 1.246599999999999930e+01 -1.397199999999999953e+01 -2.605471999999999788e+00 9.584158628639978528e-02
1.943300000000000027e+00 3.331799999999999873e+00 1.388099999999999890e+00 -2.465837000000000057e+00 -1.221622824178269368e-01
1.955699999999999994e+00 4.748300000000000409e+00 5.173000000000000043e+00 -1.041755999999999993e+01 -2.994781342851459208e-03
1.957600000000000007e+00 4.279399999999999871e+00 5.992499999999999716e+00 -9.690225999999999118e+00 -2.876868375613314630e-03
1.957600000000000007e+00 4.279399999999999871e+00 6.857700000000000351e+00 -4.438772000000000162e+00 -2.956558219378149083e-03
1.960399999999999920e+00 1.072899999999999920e+01 3.767199999999999882e+00 -1.730653999999999915e+00 -4.476751785123100381e-03
1.963000000000000078e+00 1.637999999999999901e+01 7.579699999999999882e+00 -1.358390999999999948e+01 -5.739571739052170760e-03
1.965300000000000047e+00 3.583800000000000097e+00 9.064899999999999736e+00 8.998839000000000254e+00 -2.491705966216917114e-03
1.966900000000000093e+00 7.964400000000000368e+00 -3.120699999999999807e+00 1.286016000000000048e+01 -2.227113321184484573e-03
1.979000000000000092e+00 1.133300000000000018e+01 -1.321400000000000041e+01 -1.253578000000000081e+00 9.659970397034499390e-02
1.980699999999999905e+00 5.998899999999999899e+00 4.370300000000000296e+00 -7.258321999999999719e+00 -3.411658063947204007e-03
1.981899999999999995e+00 5.942000000000000171e+00 -7.523500000000000298e+00 6.791097999999999502e+01 -1.166392059907345874e-01
1.982499999999999929e+00 1.614000000000000057e+01 7.027800000000000047e+00 -1.072502000000000066e+01 -5.641583515864089654e-03
1.987300000000000066e+00 1.481199999999999939e+01 1.105899999999999928e+01 -8.009645000000000792e+00 -7.715014295047483046e-03
1.992899999999999894e+00 1.597400000000000020e+01 -6.221000000000000085e+00 4.724852000000000274e+00 -2.089614486016930749e-03
1.997700000000000031e+00 1.874700000000000033e+00 2.315999999999999837e+00 5.459882999999999598e+00 -1.157802121146616486e-01
1.999600000000000044e+00 1.596700000000000053e+01 -7.234300000000000175e+00 4.690001999999999782e+00 -1.918829111970772648e-03
2.000999999999999890e+00 1.287299999999999933e+01 1.989600000000000035e+00 -1.464940000000000131e-01 -4.086977894608438862e-03
2.007899999999999796e+00 4.676000000000000156e+00 7.975999999999999979e+00 4.141269000000000311e+00 -3.403456187693275868e-03
2.007899999999999796e+00 1.683399999999999963e+01 9.143000000000000682e+00 -4.843587000000000131e+01 -6.225279725936093585e-03
2.017900000000000027e+00 3.830999999999999961e+00 5.400000000000000355e-01 -2.712938999999999989e+00 9.864866657238821612e-02
2.025199999999999889e+00 7.660999999999999588e+00 -2.420700000000000074e+00 1.374009999999999998e+01 -2.367442340937575464e-03
2.028000000000000025e+00 1.108000000000000007e+01 3.009900000000000020e+00 -8.507046999999999803e-01 -4.350538796289648950e-03
2.031000000000000139e+00 1.419599999999999973e+01 1.269299999999999962e+01 -1.858610000000000095e+00 -8.851448077519929319e-03
2.031699999999999839e+00 1.729899999999999949e+01 -1.179700000000000060e+01 -1.596476000000000006e-01 -1.254742637174520708e-03
2.033900000000000041e+00 1.447700000000000031e+01 -5.392999999999999794e+00 4.634032000000000373e+00 -2.270604738754220843e-03
2.033900000000000041e+00 1.626500000000000057e+01 -5.392999999999999794e+00 6.784804000000000279e+00 -2.260536692776217525e-03
2.052299999999999791e+00 1.654200000000000159e+01 8.115600000000000591e+00 -2.314812999999999832e+01 -6.076960679541239425e-03
2.058100000000000041e+00 1.339300000000000068e+01 1.020899999999999963e+01 1.088728000000000051e+01 -7.994727005030208972e-03
2.078599999999999781e+00 7.416999999999999815e+00 -7.191600000000000215e+00 7.387044000000000388e+00 9.814364453442074587e-02
2.080999999999999961e+00 4.519999999999999574e+00 8.949999999999999289e+00 5.027052000000000298e+00 -3.539162311980591745e-03
2.090199999999999836e+00 6.957099999999999618e+00 2.138399999999999856e+00 2.045017000000000085e+00 -3.334186840211894685e-03
2.091299999999999937e+00 8.894999999999999574e+00 -3.150900000000000034e+00 6.771558999999999884e+00 -2.440037748072385222e-03
2.096000000000000085e+00 1.672100000000000009e+01 -9.905300000000000438e+00 4.902909999999999768e-01 -1.544199648008626365e-03
2.097100000000000186e+00 5.669999999999999485e-01 2.252799999999999869e+01 6.300408999999999793e+01 -1.052013296128156555e-01
2.104699999999999793e+00 1.484600000000000009e+01 -4.543000000000000149e+00 4.185654999999999681e+00 -2.488238935103454126e-03
2.104699999999999793e+00 1.589600000000000080e+01 -4.543000000000000149e+00 2.518479000000000134e+00 -2.477831973239269341e-03
2.108900000000000219e+00 1.254400000000000048e+01 -1.521400000000000041e+01 3.028358999999999912e-01 9.643356080394167862e-02
2.113399999999999945e+00 1.407199999999999918e+01 3.333599999999999897e-01 1.407353999999999994e+00 -3.708364733161546682e-03
2.114300000000000068e+00 1.550699999999999967e+01 -4.611100000000000199e-01 1.499376999999999960e+00 -3.448614808583936372e-03
2.116400000000000059e+00 1.308999999999999986e+01 9.509000000000000341e+00 -3.748183000000000042e+00 -7.828343475575455512e-03
2.117799999999999905e+00 3.052000000000000046e+00 8.645099999999999341e+00 2.779929999999999879e+01 -2.540845732339824543e-03
2.134799999999999809e+00 1.408600000000000030e+01 1.114300000000000068e+01 -3.475284999999999958e+00 -8.644441018655732445e-03
2.134999999999999787e+00 1.026999999999999957e+01 -5.122300000000000075e+00 7.870670999999999751e+00 -2.207486710737218902e-03
2.134999999999999787e+00 1.026999999999999957e+01 -4.071699999999999875e+00 5.344026999999999639e+00 -2.420585514724736195e-03
2.137000000000000011e+00 -6.869800000000000351e-01 2.073000000000000043e+01 -3.496811999999999837e-02 -3.111951170462895488e-01
2.137000000000000011e+00 -6.869800000000000351e-01 2.168799999999999883e+01 3.902870999999999979e-01 -1.195285487302158584e-01
2.141000000000000014e+00 7.296700000000000408e-01 1.906500000000000128e+01 -4.745147999999999922e-04 9.443770867602371832e-02
2.143299999999999983e+00 1.673799999999999955e+01 4.407300000000000217e+00 -3.173321000000000058e+00 -4.853510399694839841e-03
2.145700000000000163e+00 1.625300000000000011e+01 -8.155699999999999505e+00 9.533875000000000099e+00 -1.840585825303974517e-03
2.153599999999999959e+00 1.519899999999999984e+01 1.031499999999999950e+01 -1.987383000000000166e+01 -7.802737014400561166e-03
2.157999999999999918e+00 1.688200000000000145e+01 4.596700000000000230e-01 2.502247000000000110e+00 -3.649655427850165799e-03
2.159100000000000019e+00 7.966800000000000104e+00 2.114599999999999813e+00 9.452552000000000176e-02 -3.673777984169975148e-03
2.160800000000000054e+00 3.356599999999999806e+00 -2.275699999999999945e-01 -1.014178000000000024e+00 -1.184994697268753061e-01
2.168600000000000083e+00 1.253500000000000014e+01 -7.714199999999999946e+00 1.458575000000000088e+01 -1.878444394364106639e-03
2.169999999999999929e+00 8.211299999999999599e+00 -1.432899999999999972e-02 6.888965999999999923e+00 -3.144482348970454623e-03
2.169999999999999929e+00 8.211299999999999599e+00 1.036299999999999999e+00 5.213950999999999780e+00 -3.428613267499924615e-03
2.173299999999999788e+00 7.814000000000000057e+00 -1.491499999999999915e+01 -1.190225000000000088e+00 -2.603560588186407676e-01
2.173299999999999788e+00 9.333999999999999631e+00 -1.491499999999999915e+01 -1.585587999999999997e+00 -8.132232131346424364e-02
2.174799999999999844e+00 1.831499999999999906e+00 2.244900000000000162e+01 1.709574999999999889e+01 -1.105706246225506006e-01
2.177099999999999813e+00 2.389499999999999957e+00 1.426700000000000079e+00 -1.127742000000000022e+00 -1.168806076379701742e-01
2.180899999999999839e+00 8.471999999999999531e+00 -1.021599999999999930e+01 -7.960744000000000042e+00 9.848330621538328722e-02
2.188000000000000167e+00 5.678999999999999604e-01 6.638099999999999667e+00 -7.273124000000000144e+00 -1.182996818142341838e-01
2.188000000000000167e+00 9.128899999999999793e-01 7.420700000000000074e+00 -1.330030000000000001e+01 -1.246100642121552859e-01
2.193000000000000060e+00 1.125799999999999912e+01 -9.278499999999999304e+00 4.832018999999999842e+00 -1.579604899591094836e-03
2.195699999999999985e+00 1.373399999999999999e+01 -1.762600000000000122e+01 8.926066000000000278e-01 9.648214035958689594e-02
2.205099999999999838e+00 6.386000000000000121e+00 3.757000000000000117e+00 -2.788981000000000154e+00 -3.758489243038038753e-03
2.205999999999999961e+00 1.665200000000000102e+01 -8.966599999999999682e+00 -5.467115000000000169e-01 -1.736612745377192485e-03
2.217000000000000082e+00 5.411999999999999922e+00 7.975999999999999979e+00 7.471816000000000013e-01 -4.440173105477476095e-03
2.220000000000000195e+00 7.242300000000000182e+00 -1.197899999999999920e+01 -1.412495000000000056e+00 -8.006988691332464492e-02
2.220000000000000195e+00 7.242300000000000182e+00 -1.103899999999999970e+01 -8.184000000000000163e-01 -8.107377379604104040e-02
2.226999999999999869e+00 3.095000000000000195e+00 5.400000000000000355e-01 -1.444334999999999924e+00 -1.188297860535268563e-01
2.229000000000000092e+00 4.299999999999999656e-02 5.322000000000000064e+00 -4.852210000000000134e-01 -1.092580700387654619e-01
2.229000000000000092e+00 2.968899999999999872e-01 6.215700000000000003e+00 -3.051178000000000168e+00 -1.142853592910265670e-01
2.236800000000000122e+00 6.709600000000000009e+00 2.989399999999999835e+00 -2.591089000000000198e+00 -3.694429242334337869e-03
2.236800000000000122e+00 8.181599999999999540e+00 4.524600000000000399e+00 -1.574743999999999922e+00 -4.663225804357375853e-03
2.236899999999999888e+00 8.879400000000000404e+00 4.537700000000000067e+00 -1.506718000000000002e+00 -4.869174976265938301e-03
2.236899999999999888e+00 9.744699999999999918e+00 4.537700000000000067e+00 -1.495433000000000012e+00 -5.077458861845245315e-03
2.236899999999999888e+00 1.074099999999999966e+01 7.490300000000000402e+00 8.207959999999999701e-01 -6.806126810188861329e-03
2.244000000000000217e+00 1.000699999999999967e+01 -1.021599999999999930e+01 -2.450895000000000046e+00 9.649830702362724444e-02
2.251500000000000057e+00 1.133900000000000041e+01 8.198800000000000310e+00 4.060769999999999769e+00 -7.393185933480360753e-03
2.251999999999999780e+00 1.765500000000000114e+01 -1.357699999999999996e+01 4.954453999999999780e+01 2.483131246106649037e-01
2.251999999999999780e+00 1.765500000000000114e+01 -1.261899999999999977e+01 9.950624000000000535e+01 2.483749605226782953e-01
2.255300000000000082e+00 5.855999999999999872e+00 4.889899999999999913e+00 -9.263344999999999274e+00 -3.953035205995610903e-03
2.255599999999999827e+00 5.920499999999999652e-01 3.340700000000000003e+00 9.258473999999999871e-01 -1.090123220922755570e-01
2.258999999999999897e+00 2.244099999999999984e+00 8.342700000000000671e+00 1.031938000000000022e+00 -2.323556893202614361e-03
2.263100000000000112e+00 1.556099999999999994e+01 5.273600000000000065e+00 3.715098999999999929e+00 -5.570443847776918554e-03
2.263100000000000112e+00 1.556099999999999994e+01 6.138899999999999579e+00 -6.582200000000000273e+00 -5.944755700751272465e-03
2.265699999999999825e+00 8.538999999999999702e+00 -6.880300000000000082e+00 9.785667000000000115e+00 9.618539520383917463e-02
2.269600000000000062e+00 8.395300000000000651e+00 5.516099999999999781e+00 -5.101903000000000077e+00 -5.197651072107698465e-03
2.288499999999999979e+00 1.333799999999999919e+01 1.236699999999999910e+00 2.233277000000000179e+00 -4.188785591412878297e-03
2.302999999999999936e+00 7.919999999999999929e+00 3.757000000000000117e+00 -1.132126000000000055e+01 -4.409335278088111036e-03
2.308899999999999952e+00 1.231099999999999994e+01 -1.571700000000000053e+01 3.371742999999999935e+00 9.693106803653070425e-02
2.313000000000000167e+00 1.381999999999999895e+00 1.862800000000000011e+01 1.567395000000000038e-01 8.865126333601781872e-02
2.313000000000000167e+00 2.339999999999999858e+00 1.862800000000000011e+01 9.888730999999999494e-01 -4.782832236699030917e-03
2.331999999999999851e+00 1.289499999999999957e+01 -7.009000000000000341e+00 5.743122000000000327e+01 -2.108581885566639547e-03
2.345600000000000129e+00 1.070199999999999996e+01 -1.379599999999999937e+01 -1.041577000000000019e+01 9.766591294176470150e-02
2.361299999999999955e+00 1.265799999999999947e+01 9.047399999999999665e+00 2.341577000000000019e+00 -8.368188639173492274e-03
2.361299999999999955e+00 9.810000000000000497e+00 7.460099999999999731e+00 1.671535000000000082e+01 -6.891391989680699555e-03
2.372599999999999820e+00 4.033599999999999852e+00 -1.587099999999999955e+00 2.042660999999999838e+00 -1.189242443952727574e-01
2.373899999999999899e+00 1.516200000000000081e+01 -1.798300000000000054e+01 1.614055000000000017e+00 9.556092516486339172e-02
2.375599999999999934e+00 1.176600000000000001e+01 -1.370500000000000007e+01 -2.218592000000000064e-01 9.653001166506777753e-02
2.379700000000000149e+00 1.267999999999999972e+01 -1.656700000000000017e+01 1.734525000000000095e+00 9.698005311793636563e-02
2.383100000000000218e+00 6.703500000000000014e+00 4.702600000000000335e+00 3.859392000000000156e+00 -4.467019500602554226e-03
2.385099999999999998e+00 3.484599999999999920e+00 9.345100000000000406e+00 7.860723000000000127e+00 -3.563202226942242031e-03
2.387000000000000011e+00 1.667599999999999838e+01 -1.146100000000000030e+01 2.569267999999999930e+01 -1.446203599445578750e-03
2.387000000000000011e+00 1.667599999999999838e+01 -1.059600000000000009e+01 1.609800999999999860e+01 -1.570545807798795533e-03
2.390200000000000102e+00 4.979400000000000048e+00 5.725100000000000300e+00 -1.252092999999999900e+00 -4.009812155293220742e-03
2.390200000000000102e+00 4.979400000000000048e+00 7.125099999999999767e+00 7.712864000000000386e-01 -4.372662736767324483e-03
2.391799999999999926e+00 3.487099999999999866e+00 1.952299999999999969e+01 1.219741999999999926e+01 -4.885499024691137768e-03
2.393100000000000005e+00 1.002899999999999991e+01 4.034600000000000186e+00 -2.342200000000000060e+00 -5.177818355477115456e-03
2.395999999999999908e+00 8.591300000000000381e+00 7.069499999999999673e+00 1.410017999999999994e+00 -6.316866401897830094e-03
2.396999999999999797e+00 3.382000000000000117e+00 2.208800000000000097e+01 -1.288002000000000002e+01 -1.208687550026060348e-01
2.404999999999999805e+00 8.434699999999999420e+00 6.539299999999999891e+00 -3.887522999999999840e+00 -5.990483272971054186e-03
2.405699999999999950e+00 3.994699999999999918e+00 9.800000000000000711e+00 1.199064000000000085e+01 -4.094284530507711663e-03
2.405699999999999950e+00 5.045300000000000118e+00 9.800000000000000711e+00 1.386044000000000054e+01 -5.095928382949282097e-03
2.412999999999999812e+00 5.955899999999999750e+00 8.742699999999999250e+00 9.227859000000000478e+00 -5.610210555292101386e-03
2.414099999999999913e+00 7.122099999999999653e+00 3.757000000000000117e+00 -2.989702999999999999e+00 -4.336070358355070473e-03
2.418899999999999828e+00 1.063299999999999912e+01 -4.866799999999999571e+00 6.216051000000000215e+00 -2.479693277604952742e-03
2.418899999999999828e+00 1.384699999999999953e+01 -5.732099999999999973e+00 8.557717999999999492e+00 -2.435729061417643733e-03
2.420999999999999819e+00 5.463000000000000078e+00 -6.980000000000000426e+00 2.212632999999999939e+01 -1.158752779625696477e-01
2.421199999999999797e+00 3.758599999999999941e+00 -1.077399999999999913e+00 -8.162580999999999865e-01 -1.186850661297915721e-01
2.423700000000000188e+00 1.716199999999999903e+01 1.686900000000000066e+00 -1.685408999999999935e+00 -4.245570799891228500e-03
2.423700000000000188e+00 1.375799999999999912e+00 2.257400000000000162e+01 3.004598999999999975e+01 -1.129951366595283585e-01
2.425399999999999778e+00 8.736100000000000421e+00 3.727599999999999802e+00 -8.336792000000000868e+00 -4.814555347755331352e-03
2.427700000000000191e+00 1.428700000000000081e+01 1.032399999999999984e+01 -7.773087000000000302e+00 -9.147833410124785875e-03
2.429399999999999782e+00 1.160899999999999999e+01 2.505999999999999783e+00 -5.788582999999999923e-02 -4.772508926768016455e-03
2.430000000000000160e+00 4.390900000000000247e+00 -2.389699999999999935e+00 5.638860000000000205e+00 -1.189323931262853129e-01
