-6.611299999999999955e+00 3.821200000000000330e+01 6.250900000000000034e+01 -3.275573000000000068e+00 -2.155963688346305626e-02
-6.609499999999999709e+00 2.409900000000000020e+01 3.183200000000000074e+01 -6.413842999999999961e+00 1.057564594532216518e-01
-6.595100000000000406e+00 4.189500000000000313e+01 6.184700000000000131e+01 -7.387984999999999580e+00 -1.515060054025425297e-02
-6.590700000000000003e+00 2.180699999999999861e+01 5.578900000000000148e+01 -1.895335999999999910e+00 -7.322704365483617694e-02
-6.580400000000000027e+00 4.202400000000000091e+01 5.624399999999999977e+01 -5.939783000000000257e+00 -3.703610200207572978e-02
-6.579100000000000392e+00 4.867699999999999960e+01 5.932300000000000040e+01 2.532802999999999916e+00 -2.831366475545546435e-02
-6.577399999999999913e+00 4.733800000000000097e+01 5.521000000000000085e+01 -3.795004000000000044e+00 -2.955624969961102161e-02
-6.561899999999999622e+00 3.060000000000000142e+01 3.460999999999999943e+01 -4.596788000000000096e+00 1.262005973775135945e-02
-6.558500000000000441e+00 4.770499999999999829e+01 5.603399999999999892e+01 -2.735590999999999884e+00 -2.932774680309670895e-02
-6.557000000000000384e+00 3.866799999999999926e+01 7.568899999999999295e+01 -1.594656999999999947e+01 -2.491034565356936847e-01
-6.551099999999999923e+00 1.894999999999999929e+01 5.100900000000000034e+01 2.399382000000000126e+00 5.652642901446350114e-03
-6.546899999999999942e+00 3.272599999999999909e+01 6.710299999999999443e+01 2.025748000000000104e+00 1.507631313862884369e-02
-6.539299999999999891e+00 5.021500000000000341e+01 5.408100000000000307e+01 -4.414291999999999661e+00 -2.700927722035702597e-02
-6.538700000000000401e+00 2.193400000000000105e+01 3.638400000000000034e+01 1.453651999999999944e+00 5.189170708216549969e-04
-6.536500000000000199e+00 4.473199999999999932e+01 5.613000000000000256e+01 -4.005976999999999677e+00 -3.280566368028339092e-02
-6.526099999999999568e+00 4.136599999999999966e+01 7.843699999999999761e+01 -5.657009999999999650e+00 -2.461891114031539429e-01
-6.525900000000000034e+00 2.835900000000000176e+01 5.930799999999999983e+01 5.232485999999999526e-01 -4.922624913301758970e-02
-6.518099999999999561e+00 4.666100000000000136e+01 8.024099999999999966e+01 -5.282562999999999676e+00 -2.477962933021003455e-01
-6.517400000000000304e+00 4.110799999999999699e+01 7.764400000000000546e+01 2.615030999999999883e-01 -2.473695134240251614e-01
-6.517100000000000115e+00 4.228300000000000125e+01 5.562199999999999989e+01 -2.447090999999999994e+01 -3.634640693817095536e-02
-6.514800000000000146e+00 4.766899999999999693e+01 4.697399999999999665e+01 -1.259323999999999977e+01 -2.687916730144526700e-02
-6.512299999999999756e+00 5.082300000000000040e+01 4.743299999999999983e+01 -6.436670000000000336e+00 -2.539567971409708441e-02
-6.510100000000000442e+00 4.642699999999999960e+01 4.881099999999999994e+01 -1.220144999999999946e+01 -2.836284314565357817e-02
-6.509699999999999598e+00 4.879099999999999682e+01 5.326899999999999835e+01 -2.273394999999999833e+00 -2.799494211923789916e-02
-6.508300000000000196e+00 4.830799999999999983e+01 6.017300000000000182e+01 -2.878763000000000183e+00 -2.863085165802260051e-02
-6.505499999999999616e+00 4.797099999999999653e+01 5.700900000000000034e+01 8.629923999999999928e-01 -2.919499082699336667e-02
-6.505499999999999616e+00 3.892499999999999716e+01 6.269100000000000250e+01 -1.563663000000000025e+00 -1.933393005599400721e-02
-6.505499999999999616e+00 3.979099999999999682e+01 6.269100000000000250e+01 -4.359590999999999994e+00 -1.764541606417555780e-02
-6.502699999999999925e+00 2.720599999999999952e+01 5.851599999999999824e+01 1.250217999999999918e+01 -3.483857815270346991e-02
-6.500899999999999679e+00 4.400399999999999778e+01 8.120999999999999375e+01 -7.833430999999999589e-01 -2.447991254548762541e-01
-6.491299999999999848e+00 4.137599999999999767e+01 5.401899999999999835e+01 7.992198000000000357e-01 -3.676800659326172338e-02
-6.491299999999999848e+00 4.291199999999999903e+01 5.555400000000000205e+01 -1.133958999999999939e+01 -3.532336316598214815e-02
-6.488299999999999734e+00 3.917099999999999937e+01 4.378399999999999892e+01 -8.007179999999999964e+00 -1.501123007359923545e-01
-6.487000000000000099e+00 3.630499999999999972e+01 6.706999999999999318e+01 8.054045000000000343e+00 8.248638411118145580e-03
-6.487000000000000099e+00 4.200500000000000256e+01 5.996500000000000341e+01 -7.634497999999999784e+00 -1.566273134898699820e-02
-6.485199999999999854e+00 4.641700000000000159e+01 4.781600000000000250e+01 -5.255379999999999718e+00 -2.796898977143249393e-02
-6.485199999999999854e+00 4.901700000000000301e+01 4.886800000000000210e+01 -1.698502999999999830e+01 -2.676218438089798465e-02
-6.482300000000000395e+00 2.292899999999999849e+01 3.242300000000000182e+01 -6.561598000000000042e+00 1.020444286684724922e-01
-6.482099999999999973e+00 4.531000000000000227e+01 8.196699999999999875e+01 -1.120220999999999911e+01 -2.450386197732850047e-01
-6.481399999999999828e+00 2.751000000000000156e+01 3.516799999999999926e+01 -3.814926999999999957e+00 1.037210554014941430e-02
-6.478399999999999714e+00 4.004899999999999949e+01 7.647499999999999432e+01 1.905499999999999972e-01 -2.486633000670364912e-01
-6.475900000000000212e+00 3.226800000000000068e+01 3.516400000000000148e+01 -5.034341999999999651e+00 1.394526960650112682e-02
-6.475399999999999601e+00 2.852599999999999980e+01 3.556099999999999994e+01 -1.203953000000000051e+00 1.173419237933152198e-02
-6.475399999999999601e+00 2.971699999999999875e+01 3.489699999999999847e+01 -1.123808000000000007e+01 1.229005413991034190e-02
-6.472999999999999865e+00 3.768699999999999761e+01 6.188900000000000290e+01 -2.183383000000000074e+00 -2.303881629668285552e-02
-6.472000000000000419e+00 2.939099999999999824e+01 6.020000000000000284e+01 -3.798510999999999971e+00 -5.765089727318536278e-02
-6.470100000000000406e+00 4.457399999999999807e+01 4.855499999999999972e+01 -6.191635999999999918e+00 -2.958436113592901456e-02
-6.470100000000000406e+00 4.457399999999999807e+01 4.967099999999999937e+01 8.875802999999999443e+00 -3.019515979185204493e-02
-6.467500000000000249e+00 2.293199999999999861e+01 5.761500000000000199e+01 -1.162557000000000063e+00 -9.537663348376956840e-02
-6.466000000000000192e+00 4.741599999999999682e+01 5.418999999999999773e+01 -2.876749999999999918e+00 -2.941121900359062666e-02
-6.465499999999999581e+00 2.314900000000000091e+01 5.662400000000000233e+01 7.872808000000000028e+00 -9.785923857252606939e-02
-6.459900000000000198e+00 4.603000000000000114e+01 6.185600000000000165e+01 5.030999000000000443e-01 -3.087932668307227096e-02
-6.458000000000000185e+00 3.649499999999999744e+01 3.551200000000000045e+01 3.923249999999999904e+00 1.530185747319566525e-02
-6.458000000000000185e+00 3.797099999999999653e+01 3.619400000000000261e+01 4.747920999999999836e+00 1.570648614292500730e-02
-6.450099999999999945e+00 4.771699999999999875e+01 4.963499999999999801e+01 -1.557999000000000045e+01 -2.785735240248026628e-02
-6.446600000000000108e+00 4.783599999999999852e+01 6.048100000000000165e+01 -9.339247000000000298e+00 -2.913598875143934980e-02
-6.444300000000000139e+00 2.616100000000000136e+01 3.200699999999999790e+01 -5.767666000000000182e+00 1.073683000442088031e-01
-6.442999999999999616e+00 4.653999999999999915e+01 8.114400000000000546e+01 -3.096254000000000062e+01 -2.467202181797680249e-01
-6.442300000000000360e+00 4.325699999999999790e+01 5.062199999999999989e+01 1.909863000000000000e+01 -3.196779154544324153e-02
-6.435200000000000031e+00 1.815700000000000003e+01 4.355299999999999727e+01 -2.962841000000000058e+00 -2.968752912892995144e-01
-6.432999999999999829e+00 4.260799999999999699e+01 5.485399999999999920e+01 -1.526186000000000043e+01 -3.551235699126774337e-02
-6.424999999999999822e+00 3.950000000000000000e+01 4.454399999999999693e+01 -2.480699999999999861e+01 -2.988446910857363997e-02
-6.423899999999999721e+00 3.708700000000000330e+01 4.187500000000000000e+01 7.746038999999999675e+00 -1.141660046287151092e-01
-6.423000000000000043e+00 4.386099999999999710e+01 4.727400000000000091e+01 -3.351531000000000038e+00 -2.939150579653801443e-02
-6.422100000000000364e+00 1.779599999999999937e+01 4.450800000000000267e+01 -3.167292999999999914e+00 -2.958912763472548169e-01
-6.420899999999999608e+00 4.796999999999999886e+01 5.753499999999999659e+01 -2.062025999999999915e+00 -2.930644654964957921e-02
-6.420700000000000074e+00 2.022800000000000153e+01 4.784300000000000352e+01 -1.205875999999999948e+01 -3.160462955813777564e-01
-6.420700000000000074e+00 2.022800000000000153e+01 5.010799999999999699e+01 -2.998921999999999866e+00 -3.208749560259077649e-01
-6.419500000000000206e+00 3.752700000000000102e+01 4.229500000000000171e+01 1.053109000000000073e+01 -1.489917681151219087e-01
-6.419500000000000206e+00 4.425800000000000267e+01 4.779399999999999693e+01 -4.236647999999999747e+00 -2.943310017666217471e-02
-6.418999999999999595e+00 2.260000000000000142e+01 3.318299999999999983e+01 -8.414260999999999768e+00 9.840681124379140055e-02
-6.411100000000000243e+00 4.212700000000000244e+01 6.087700000000000244e+01 -1.531775999999999982e+01 -1.496396283201542263e-02
-6.409399999999999764e+00 4.649099999999999966e+01 6.130499999999999972e+01 2.938448999999999867e+00 -3.053657186503226997e-02
-6.403800000000000381e+00 4.578600000000000136e+01 5.672500000000000142e+01 -7.324212000000000167e+00 -3.173929820026513693e-02
-6.403800000000000381e+00 4.665100000000000335e+01 5.672500000000000142e+01 -5.578268999999999700e+00 -3.070555839686207183e-02
-6.402999999999999581e+00 2.326800000000000068e+01 5.839000000000000057e+01 -3.195203999999999933e+00 -1.052443676444132920e-01
-6.395800000000000374e+00 1.887300000000000111e+01 5.520600000000000307e+01 9.579554999999999154e+00 -7.441246566024169173e-02
-6.395699999999999719e+00 4.231400000000000006e+01 5.073899999999999721e+01 3.627929999999999922e+01 -3.305552581497415987e-02
-6.388700000000000045e+00 3.814300000000000068e+01 5.575200000000000244e+01 -6.466435999999999851e+00 -2.054079606995389690e-02
-6.388700000000000045e+00 3.814300000000000068e+01 5.801700000000000301e+01 2.846526000000000067e+01 -2.228480786825626572e-02
-6.386999999999999567e+00 2.282700000000000173e+01 3.485399999999999920e+01 -5.243725000000000414e+00 1.259370103320738140e-03
-6.383099999999999774e+00 2.464199999999999946e+01 3.190899999999999892e+01 -5.800404000000000337e+00 1.064595464990177182e-01
-6.380499999999999616e+00 3.979399999999999693e+01 6.050399999999999778e+01 9.787834999999999397e+00 -1.892423578401514900e-02
-6.380300000000000082e+00 2.437399999999999878e+01 5.907999999999999829e+01 -2.548503999999999881e+00 -1.429528470828672626e-02
-6.380300000000000082e+00 2.542399999999999949e+01 5.907999999999999829e+01 2.975696000000000119e+00 -3.064272142810240893e-02
-6.378000000000000114e+00 4.262599999999999767e+01 7.954999999999999716e+01 -4.486583999999999683e+00 -2.455998733978476678e-01
-6.369699999999999918e+00 4.133899999999999864e+01 5.561399999999999721e+01 -1.227346000000000004e+01 -1.592745207185847917e-02
-6.369699999999999918e+00 4.227900000000000347e+01 5.409400000000000119e+01 -1.007564999999999955e+01 -3.562456003954138362e-02
-6.368000000000000327e+00 3.959400000000000119e+01 4.544599999999999795e+01 -1.790906999999999982e+01 -9.774698386551433291e-03
-6.365700000000000358e+00 5.044700000000000273e+01 5.699699999999999989e+01 -9.306590999999999170e+00 -2.714943292317182830e-02
-6.365400000000000169e+00 4.671099999999999852e+01 6.637199999999999989e+01 -3.199953999999999965e+00 -2.787149550055105160e-02
-6.365000000000000213e+00 5.054599999999999937e+01 5.447699999999999676e+01 -5.641505000000000436e+00 -2.696968991132257451e-02
-6.361200000000000188e+00 2.291900000000000048e+01 3.414300000000000068e+01 -1.626775999999999911e+01 6.948865310242244037e-04
-6.360699999999999577e+00 2.383200000000000074e+01 3.234799999999999898e+01 -1.338153999999999932e+01 1.039517506089228105e-01
-6.355699999999999683e+00 4.628900000000000148e+01 6.298400000000000176e+01 -2.487483999999999806e+00 -3.025892964816544878e-02
-6.355500000000000149e+00 4.674499999999999744e+01 4.969299999999999784e+01 -1.023799999999999955e+01 -2.865029514592176696e-02
-6.355299999999999727e+00 3.659199999999999875e+01 3.979200000000000159e+01 1.664216000000000051e+01 1.957757157742781237e-02
-6.349300000000000388e+00 3.909100000000000108e+01 7.639499999999999602e+01 -5.203103999999999729e+00 -2.475203202226728683e-01
-6.347400000000000375e+00 4.696200000000000330e+01 5.602900000000000347e+01 -3.247583999999999804e+00 -3.034174048131054249e-02
-6.346899999999999764e+00 4.109000000000000341e+01 5.319599999999999795e+01 9.226765000000000105e-01 -1.479678345612823673e-02
-6.344100000000000072e+00 4.341299999999999670e+01 5.562599999999999767e+01 -6.536952999999999570e+00 -3.480561372007024562e-02
-6.344000000000000306e+00 3.864500000000000313e+01 6.180899999999999750e+01 -4.484345000000000248e+00 -2.030437857330295512e-02
-6.341400000000000148e+00 4.705899999999999750e+01 7.980200000000000671e+01 -5.282562999999999676e+00 -2.483946160151090932e-01
-6.341300000000000381e+00 1.721699999999999875e+01 5.214800000000000324e+01 8.353455999999999548e+00 3.506647365570882916e-03
-6.336999999999999744e+00 4.872399999999999665e+01 7.635999999999999943e+01 1.385216000000000003e+00 -2.527932044175132398e-01
-6.336999999999999744e+00 4.893299999999999983e+01 7.383599999999999852e+01 9.377559000000000589e-02 2.074713783511038592e-02
-6.336999999999999744e+00 4.893299999999999983e+01 7.562399999999999523e+01 5.970640999999999643e+00 -2.534839840859554605e-01
-6.336999999999999744e+00 4.918699999999999761e+01 7.473000000000000398e+01 -2.113166999999999796e+00 2.283483434125150452e-02
-6.336700000000000443e+00 4.824199999999999733e+01 7.899099999999999966e+01 -2.997493000000000052e+01 -2.497676673740362452e-01
-6.336100000000000065e+00 2.620100000000000051e+01 5.892199999999999704e+01 2.983855000000000146e+00 -4.115922747289831041e-02
-6.334699999999999775e+00 3.662500000000000000e+01 4.120499999999999829e+01 6.360070999999999586e+00 -1.104561672718249732e-01
-6.334100000000000286e+00 3.972200000000000131e+01 6.118999999999999773e+01 -7.749260999999999733e+00 -1.855359363603535997e-02
-6.325000000000000178e+00 2.947599999999999909e+01 6.578600000000000136e+01 3.904161999999999910e-01 -1.032500832944473895e-02
-6.325000000000000178e+00 2.973000000000000043e+01 6.489199999999999591e+01 1.863275999999999932e+00 -2.584447460420783924e-02
-6.325000000000000178e+00 2.973000000000000043e+01 6.668000000000000682e+01 -3.133065000000000211e+00 2.931203247182844612e-02
-6.325000000000000178e+00 3.117599999999999838e+01 6.748600000000000421e+01 -5.517964000000000091e+00 3.207306004882116979e-02
-6.323299999999999699e+00 4.196099999999999852e+01 5.947200000000000131e+01 -7.634497999999999784e+00 -1.549719505356917867e-02
-6.318999999999999950e+00 3.872599999999999909e+01 7.280599999999999739e+01 -2.906347999999999931e+00 -2.568027683008831108e-01
-6.318100000000000271e+00 4.633800000000000097e+01 6.545099999999999341e+01 -1.438417999999999974e+00 -2.892050320396275659e-02
-6.315999999999999837e+00 3.945799999999999841e+01 5.972899999999999920e+01 4.765803000000000011e+00 -1.961860474200206525e-02
-6.310399999999999565e+00 4.022399999999999665e+01 6.181000000000000227e+01 -7.641975000000000406e+00 -1.711943546914738642e-02
-6.310399999999999565e+00 4.108899999999999864e+01 6.181000000000000227e+01 -1.155596000000000068e+01 -1.570602783174614159e-02
-6.309899999999999842e+00 4.674699999999999989e+01 6.922799999999999443e+01 1.170816000000000079e+00 1.417861508248882685e-02
-6.302999999999999936e+00 1.379400000000000048e+01 5.507800000000000296e+01 7.015406999999999726e+00 -3.128279790391096798e-02
-6.302999999999999936e+00 1.402500000000000036e+01 5.426299999999999812e+01 2.863973999999999798e+00 -2.346179984751785644e-02
-6.302999999999999936e+00 1.402500000000000036e+01 5.589300000000000068e+01 7.068362999999999730e+00 -3.066485123017214515e-02
-6.302999999999999936e+00 1.534399999999999942e+01 5.662800000000000011e+01 3.682298000000000116e+01 -1.212213024440123282e-03
-6.300500000000000433e+00 2.498699999999999832e+01 5.944800000000000040e+01 2.975696000000000119e+00 -2.045437585239550521e-02
-6.298499999999999766e+00 4.925399999999999778e+01 5.755100000000000193e+01 4.665263000000000204e+01 -2.821397534922987990e-02
-6.297100000000000364e+00 3.628799999999999670e+01 4.049199999999999733e+01 9.641455000000000553e+00 -1.257297364728961753e-01
-6.293999999999999595e+00 4.653300000000000125e+01 6.359400000000000119e+01 4.719795999999999658e+00 -2.977100821127538072e-02
-6.293999999999999595e+00 4.653300000000000125e+01 6.464400000000000546e+01 1.462171999999999983e+01 -2.922184720958222875e-02
-6.291699999999999626e+00 1.580599999999999916e+01 5.293999999999999773e+01 1.005133000000000010e+01 -3.019699375104890979e-03
-6.290499999999999758e+00 1.954400000000000048e+01 4.062100000000000222e+01 -4.976866000000000234e+00 -6.095954457429945267e-03
-6.290499999999999758e+00 1.954400000000000048e+01 4.209300000000000352e+01 2.127003999999999895e+00 -9.545465001625690407e-04
-6.290499999999999758e+00 1.975300000000000011e+01 4.135699999999999932e+01 -3.330715000000000092e+00 -3.066793453371665680e-03
-6.280300000000000438e+00 4.744899999999999807e+01 6.122500000000000142e+01 -7.404929999999999568e-01 -2.959926772006370860e-02
-6.278999999999999915e+00 3.496600000000000108e+01 6.687000000000000455e+01 6.185902999999999707e+00 7.718894417826208110e-03
-6.278100000000000236e+00 3.779099999999999682e+01 3.959400000000000119e+01 5.864788000000000068e+01 1.750657713304914348e-02
-6.277199999999999669e+00 4.550699999999999790e+01 4.871300000000000097e+01 -5.505015000000000214e+00 -2.918728317489899943e-02
-6.275299999999999656e+00 5.267099999999999937e+01 4.367199999999999704e+01 -3.318854000000000326e+01 -2.391592935095175274e-02
-6.273500000000000298e+00 4.741100000000000136e+01 7.282999999999999829e+01 -7.685005000000000308e+00 2.017961625876207171e-02
-6.272400000000000198e+00 1.946000000000000085e+01 5.048299999999999699e+01 -2.016102000000000061e+00 -3.230016366318916310e-01
-6.260799999999999699e+00 4.110600000000000165e+01 5.167300000000000182e+01 3.388513999999999982e+01 -1.359900435473705184e-02
-6.254199999999999982e+00 2.224099999999999966e+01 5.637899999999999778e+01 -5.613345999999999947e+00 -7.902015980351285995e-02
-6.253999999999999559e+00 4.067600000000000193e+01 4.649600000000000222e+01 -3.151543999999999901e+00 -1.010081742562179107e-02
-6.253999999999999559e+00 4.219100000000000250e+01 4.661200000000000188e+01 -2.978330000000000144e+00 -3.021093997647623236e-02
-6.253300000000000303e+00 4.532300000000000040e+01 4.961099999999999710e+01 -7.877843999999999625e+00 -2.979392586905628068e-02
-6.253000000000000114e+00 1.831599999999999895e+01 5.195900000000000318e+01 8.363735000000000142e+00 6.512758284625312470e-03
-6.241600000000000037e+00 3.966799999999999926e+01 5.549099999999999966e+01 7.043426000000000187e+00 -1.773934994002149962e-02
-6.240499999999999936e+00 4.153000000000000114e+01 6.068800000000000239e+01 -8.523300000000000765e+00 -1.553151466163666707e-02
-6.240199999999999747e+00 4.895100000000000051e+01 5.825099999999999767e+01 7.409074999999999633e+00 -2.853137493573785696e-02
-6.238100000000000200e+00 3.935799999999999699e+01 6.199099999999999966e+01 -6.164311999999999792e+00 -1.830709461988654779e-02
-6.230999999999999872e+00 4.583800000000000097e+01 4.962500000000000000e+01 -7.364201000000000441e+00 -2.942200060882490392e-02
-6.223300000000000054e+00 1.923499999999999943e+01 4.636699999999999733e+01 1.556486999999999954e+00 -2.216731377189826158e-01
-6.221199999999999619e+00 4.493399999999999750e+01 4.814500000000000313e+01 -5.397338999999999665e+00 -2.935786937499669860e-02
-6.221199999999999619e+00 4.579999999999999716e+01 4.814500000000000313e+01 -5.554782000000000330e+00 -2.876316324633552621e-02
-6.214699999999999669e+00 3.341599999999999682e+01 6.720799999999999841e+01 1.165629999999999944e+00 1.454242134026204405e-02
-6.214000000000000412e+00 2.707700000000000173e+01 3.446800000000000352e+01 -1.299532999999999916e+01 9.739465849970960903e-03
-6.209800000000000431e+00 4.070100000000000051e+01 5.560699999999999932e+01 -3.910852000000000217e+00 -1.639347207540586479e-02
-6.208000000000000185e+00 3.910999999999999943e+01 3.713199999999999790e+01 2.365411999999999892e+01 -6.719649008208411489e-02
-6.208000000000000185e+00 3.910999999999999943e+01 3.876200000000000045e+01 1.553613000000000000e+01 1.876142713032535880e-02
-6.208000000000000185e+00 3.934100000000000108e+01 3.794700000000000273e+01 4.254549000000000092e+01 2.232757672375895383e-02
-6.206999999999999851e+00 5.167999999999999972e+01 4.689800000000000324e+01 -7.969037000000000148e+00 -2.508170652092098912e-02
-6.205300000000000260e+00 3.765899999999999892e+01 6.788700000000000045e+01 -1.083018999999999998e+01 1.293964559210020529e-02
-6.203700000000000436e+00 3.898899999999999721e+01 7.074200000000000443e+01 -6.704532000000000380e+00 2.431281796804233772e-02
-6.203700000000000436e+00 3.898899999999999721e+01 7.221399999999999864e+01 -2.347634000000000221e+00 -2.581849475413379169e-01
-6.203700000000000436e+00 3.919800000000000040e+01 7.147799999999999443e+01 -3.357204999999999995e+00 2.646985267848400714e-02
-6.202499999999999680e+00 4.080299999999999727e+01 5.237299999999999756e+01 1.171152000000000015e+01 -1.424165934943527091e-02
-6.200800000000000090e+00 3.052899999999999991e+01 6.138700000000000045e+01 2.657182000000000155e+00 -5.198180528302352721e-02
-6.200800000000000090e+00 3.073799999999999955e+01 6.212299999999999756e+01 6.139238999999999891e+00 -5.008046164752168877e-02
-6.199699999999999989e+00 4.979999999999999716e+01 4.814999999999999858e+01 -6.964084999999999859e+00 -2.634179655112531965e-02
-6.183300000000000018e+00 4.528099999999999881e+01 5.612800000000000011e+01 -3.729019999999999779e+00 -3.256108831569335532e-02
-6.178899999999999615e+00 2.097100000000000009e+01 5.556499999999999773e+01 -4.042402000000000051e+00 -7.374884422508420911e-02
-6.172399999999999665e+00 3.177700000000000102e+01 3.449099999999999966e+01 -3.793940999999999786e+00 1.375552781524786751e-02
-6.163999999999999702e+00 4.865100000000000335e+01 4.365999999999999659e+01 -9.476687999999999334e+00 -2.550625365260127814e-02
-6.163999999999999702e+00 4.887800000000000011e+01 4.286099999999999710e+01 -4.633486000000000438e+00 -2.515053599759530314e-02
-6.163999999999999702e+00 5.017099999999999937e+01 4.214000000000000057e+01 -5.839978000000000335e+00 -2.446378792443430414e-02
-6.163999999999999702e+00 5.146399999999999864e+01 4.286099999999999710e+01 -8.354663000000000395e+00 -2.421147983989916860e-02
-6.156299999999999883e+00 4.170000000000000284e+01 5.643099999999999739e+01 -6.121972999999999665e+00 -1.535264160669734014e-02
-6.153999999999999915e+00 2.663100000000000023e+01 3.276700000000000301e+01 -4.276567000000000007e+01 1.059769166461324019e-01
-6.153299999999999770e+00 2.066100000000000136e+01 4.854299999999999926e+01 -4.417190999999999867e+00 -3.161160698135845326e-01
-6.153299999999999770e+00 2.066100000000000136e+01 4.940800000000000125e+01 -3.920424999999999827e+00 -3.178518684400316596e-01
-6.152700000000000280e+00 4.454999999999999716e+01 8.190399999999999636e+01 -8.293995000000000672e+00 -2.443090165551984327e-01
-6.152700000000000280e+00 4.607000000000000028e+01 8.190399999999999636e+01 -3.404789999999999850e+01 -2.454941783839287850e-01
-6.146399999999999864e+00 2.698699999999999832e+01 3.349900000000000233e+01 -2.076586999999999961e+01 8.944789965005656845e-03
-6.141399999999999970e+00 4.949699999999999989e+01 4.885000000000000142e+01 -6.718523000000000245e+00 -2.675525028359558924e-02
-6.141300000000000203e+00 4.794100000000000250e+01 5.334000000000000341e+01 -4.609875999999999863e+00 -2.908538032620083813e-02
-6.141300000000000203e+00 4.964099999999999824e+01 5.334000000000000341e+01 -2.941859000000000002e+00 -2.770049097905373861e-02
-6.137999999999999901e+00 4.201800000000000068e+01 5.159700000000000131e+01 1.431319000000000052e+01 -1.268045127317197693e-02
-6.136400000000000077e+00 4.621900000000000119e+01 5.602499999999999858e+01 -4.003017999999999965e+00 -3.143518147749446712e-02
-6.129999999999999893e+00 3.078999999999999915e+01 6.277000000000000313e+01 6.798250999999999600e+00 -4.517661249062056295e-02
-6.128000000000000114e+00 4.046600000000000108e+01 7.714900000000000091e+01 -1.371250999999999998e+00 -2.472790442857416282e-01
-6.126299999999999635e+00 4.401800000000000068e+01 5.057099999999999795e+01 2.063037999999999883e+01 -3.158319459285175573e-02
-6.121299999999999741e+00 3.771099999999999852e+01 5.645199999999999818e+01 -1.649450000000000083e+00 -2.107627930664120186e-02
-6.121299999999999741e+00 3.771099999999999852e+01 5.731700000000000017e+01 6.254376999999999853e+00 -2.178305266415441269e-02
-6.120700000000000252e+00 4.695700000000000074e+01 4.711200000000000188e+01 -5.159404999999999575e+00 -2.766689880625846157e-02
-6.120700000000000252e+00 4.847699999999999676e+01 4.957200000000000273e+01 -4.199065999999999832e+01 -2.762261014887404387e-02
-6.114899999999999558e+00 2.540099999999999980e+01 3.194399999999999906e+01 -6.331470000000000375e+00 1.074899415437369915e-01
-6.110599999999999810e+00 4.305899999999999750e+01 8.025000000000000000e+01 6.571291999999999689e+00 -2.448671699231596277e-01
-6.106099999999999639e+00 2.677400000000000091e+01 5.900699999999999790e+01 2.555651999999999813e+00 -2.481045380044469978e-02
-6.106099999999999639e+00 2.763899999999999935e+01 5.900699999999999790e+01 3.027166999999999941e+00 -3.322779176484937091e-02
-6.105999999999999872e+00 2.123400000000000176e+01 3.665100000000000335e+01 3.761667000000000094e+00 -4.065036161869340042e-04
-6.105999999999999872e+00 2.242500000000000071e+01 3.598700000000000188e+01 7.814005000000000534e-01 2.262794318255025462e-03
-6.102199999999999847e+00 4.814699999999999847e+01 4.604399999999999693e+01 -6.906709000000000209e+00 -2.661787183850184563e-02
-6.100600000000000023e+00 4.002700000000000102e+01 4.614600000000000080e+01 -1.304106999999999950e+01 -9.873037007641293286e-03
-6.098700000000000010e+00 3.871000000000000085e+01 5.843599999999999994e+01 4.175932999999999851e+01 -2.034498482009887421e-02
-6.097900000000000098e+00 2.245700000000000074e+01 5.713100000000000023e+01 -7.878001000000000031e-01 -8.220557880360000735e-02
-6.093700000000000117e+00 1.767399999999999949e+01 5.634100000000000108e+01 2.044385000000000119e+01 1.553796787055358175e-01
-6.092999999999999972e+00 3.400800000000000267e+01 3.553199999999999648e+01 -5.049921000000000548e-01 1.517492907021998107e-02
-6.092600000000000016e+00 4.772999999999999687e+01 6.769700000000000273e+01 1.334216999999999986e+00 1.145698980561462611e-02
-6.090600000000000236e+00 4.924300000000000210e+01 5.885799999999999699e+01 2.581325000000000092e+00 -2.837560307931218453e-02
-6.089900000000000091e+00 5.264099999999999824e+01 4.608899999999999864e+01 -9.538803000000000054e+01 -2.456161855611026928e-02
-6.074600000000000222e+00 4.192600000000000193e+01 7.949200000000000443e+01 -2.406852999999999909e+00 -2.447245285357265987e-01
-6.069899999999999629e+00 4.093299999999999983e+01 6.049900000000000233e+01 -4.941355999999999860e+00 -1.609642179350108740e-02
-6.067499999999999893e+00 2.335699999999999932e+01 3.311500000000000199e+01 -2.914601000000000042e+01 1.006944766971620275e-01
-6.065800000000000303e+00 3.056200000000000117e+01 6.357099999999999795e+01 3.876994000000000273e-01 -3.774043159841213718e-02
-6.063799999999999635e+00 1.986700000000000088e+01 3.795300000000000296e+01 -7.291429000000000382e-01 -1.517327696507394207e-02
-6.062999999999999723e+00 4.456600000000000250e+01 4.743699999999999761e+01 -4.655134999999999579e+00 -2.937452268712399325e-02
-6.057999999999999829e+00 3.795300000000000296e+01 6.857500000000000284e+01 -1.665711999999999904e+01 1.649554800100706126e-02
-6.057400000000000340e+00 4.340200000000000102e+01 5.508500000000000085e+01 -6.536952999999999570e+00 -1.293879308058252034e-02
-6.046999999999999709e+00 1.533200000000000074e+01 5.343599999999999994e+01 2.380220999999999876e+01 -8.025430193180256577e-03
-6.045200000000000351e+00 3.848299999999999699e+01 4.369899999999999807e+01 -1.015096999999999916e+00 -1.502535052579107577e-01
-6.044500000000000206e+00 4.536599999999999966e+01 5.043800000000000239e+01 -1.716488999999999976e+01 -3.038529591819208453e-02
-6.043099999999999916e+00 4.065599999999999881e+01 6.110999999999999943e+01 -1.848164999999999836e+01 -1.613867035459798718e-02
-6.042799999999999727e+00 2.922599999999999909e+01 3.529399999999999693e+01 -9.491873999999999256e+00 1.284388675587896586e-02
-6.042399999999999771e+00 2.415299999999999869e+01 5.943900000000000006e+01 -7.858019999999999783e+00 -1.565083229392061652e-03
-6.042399999999999771e+00 2.582100000000000151e+01 5.943900000000000006e+01 9.683906000000000347e+00 -2.885484866694537631e-02
-6.041699999999999626e+00 4.437800000000000011e+01 5.553699999999999903e+01 1.969651000000000041e+00 -1.209454246677297770e-02
-6.039900000000000269e+00 4.162700000000000244e+01 7.875100000000000477e+01 6.585157999999999845e-01 -2.455364155594310094e-01
-6.039399999999999658e+00 2.889999999999999858e+01 5.980400000000000205e+01 4.447804999999999787e+00 -4.360485202911031782e-02
-6.033199999999999896e+00 4.184499999999999886e+01 5.350399999999999778e+01 -7.558398000000000394e+00 -1.373919702477334123e-02
-6.027999999999999581e+00 3.835499999999999687e+01 7.362600000000000477e+01 -3.584563000000000166e+00 -2.542438834133152747e-01
-6.021899999999999586e+00 4.685300000000000153e+01 5.460900000000000176e+01 -9.699098999999999915e-01 -3.055712929779839243e-02
-6.020400000000000418e+00 3.820799999999999841e+01 7.456999999999999318e+01 -1.334783999999999970e+01 -2.510955859361299614e-01
-6.016300000000000203e+00 4.701700000000000301e+01 5.001800000000000068e+01 -3.180989999999999895e+01 -2.890042301614268588e-02
-6.009299999999999642e+00 4.349099999999999966e+01 8.080800000000000693e+01 1.041738999999999926e+01 -2.445103824328448139e-01
-6.007699999999999818e+00 3.553000000000000114e+01 6.692600000000000193e+01 1.985059000000000040e+01 8.168367484513345406e-03
-5.995899999999999785e+00 3.817300000000000182e+01 7.515500000000000114e+01 -1.144857000000000014e+01 -2.492005974258369450e-01
-5.992899999999999672e+00 2.398799999999999955e+01 3.284599999999999653e+01 -1.043842000000000070e+01 1.029084900755612708e-01
-5.988900000000000112e+00 1.741600000000000037e+01 4.392199999999999704e+01 -4.389828999999999759e+00 -2.974403513339310412e-01
-5.987000000000000099e+00 4.852700000000000102e+01 4.516400000000000148e+01 -9.804712000000000316e+00 -2.620398970522493792e-02
-5.987000000000000099e+00 4.873599999999999710e+01 4.442799999999999727e+01 -1.250975999999999999e+01 -2.585411617863633132e-02
-5.985000000000000320e+00 5.314099999999999824e+01 4.443200000000000216e+01 -3.098473999999999862e+01 -2.407804686892669674e-02
-5.985000000000000320e+00 5.314099999999999824e+01 4.537199999999999989e+01 -5.944480000000000075e+01 -2.427409559235241265e-02
-5.984200000000000408e+00 4.153999999999999915e+01 5.258800000000000097e+01 4.149382000000000126e+00 -1.340685889987019638e-02
-5.982999999999999652e+00 4.915800000000000125e+01 5.984799999999999898e+01 -1.013025000000000064e+00 -2.845466639622277680e-02
-5.980400000000000382e+00 1.958999999999999986e+01 4.742900000000000205e+01 -5.528997999999999635e+00 -3.146914584693815131e-01
-5.976499999999999702e+00 3.879800000000000182e+01 4.458100000000000307e+01 -9.783352000000000714e+00 -8.871557971086454705e-03
-5.974199999999999733e+00 4.310900000000000176e+01 5.432800000000000296e+01 -1.005747999999999998e+01 -1.284656038885907160e-02
-5.966599999999999682e+00 1.962800000000000011e+01 5.490400000000000347e+01 8.621394000000000446e+00 -7.883174538325191105e-02
-5.964199999999999946e+00 1.770899999999999963e+01 4.483899999999999864e+01 -1.015263999999999989e+01 -2.950748069647609606e-01
-5.963000000000000078e+00 3.891400000000000148e+01 5.568200000000000216e+01 3.544345999999999997e+00 -1.818641911077248027e-02
-5.961899999999999977e+00 4.203000000000000114e+01 5.763400000000000034e+01 -4.881319000000000408e+00 -1.475824659019439947e-02
-5.961899999999999977e+00 4.203000000000000114e+01 5.849900000000000233e+01 -5.666052999999999784e+00 -1.475948200969872878e-02
-5.958400000000000141e+00 2.776500000000000057e+01 3.531700000000000017e+01 -6.295228000000000490e-01 1.169216344476606620e-02
-5.956999999999999851e+00 3.799600000000000222e+01 6.947499999999999432e+01 -8.066743000000000663e+00 2.097953586347179808e-02
-5.956000000000000405e+00 1.880300000000000082e+01 4.566700000000000159e+01 -2.992264000000000035e+00 -2.919025100789504057e-01
-5.954399999999999693e+00 3.567999999999999972e+01 3.566400000000000148e+01 -2.595063000000000231e-01 1.571749979107178383e-02
-5.953700000000000436e+00 3.142999999999999972e+01 3.386800000000000210e+01 -4.024390000000000356e+00 1.352445462384616048e-02
-5.945999999999999730e+00 4.622800000000000153e+01 7.055299999999999727e+01 -2.929178999999999977e+00 1.691177638124689159e-02
-5.945999999999999730e+00 4.643699999999999761e+01 6.981699999999999307e+01 -2.307468000000000075e+00 1.544446166376416130e-02
-5.945999999999999730e+00 4.643699999999999761e+01 7.128900000000000148e+01 -1.152561999999999998e+01 1.818354618068802886e-02
-5.945999999999999730e+00 4.676200000000000045e+01 7.202599999999999625e+01 -1.143914999999999971e+01 1.930234488543023166e-02
-5.942000000000000171e+00 2.641900000000000048e+01 3.466899999999999693e+01 -1.519274000000000058e+01 9.515303278250623192e-03
-5.940699999999999648e+00 4.630799999999999983e+01 5.038499999999999801e+01 -1.998575999999999908e+01 -2.967743862179101841e-02
-5.934300000000000352e+00 4.779699999999999704e+01 6.832800000000000296e+01 -1.123521999999999910e+00 1.261302283595753734e-02
-5.934099999999999930e+00 3.910399999999999920e+01 4.497699999999999676e+01 -1.285509000000000057e+01 -9.058469427761327644e-03
-5.932699999999999640e+00 3.734499999999999886e+01 3.583700000000000330e+01 1.447842999999999991e+00 -6.693787968809657152e-02
-5.931400000000000006e+00 1.890700000000000003e+01 4.263100000000000023e+01 -1.663297999999999999e-01 -2.966433717434114881e-01
-5.927999999999999936e+00 1.971799999999999997e+01 3.983299999999999841e+01 -1.828929000000000027e+00 -7.666580465306277112e-03
-5.927999999999999936e+00 1.992699999999999960e+01 3.909700000000000131e+01 -2.686675000000000146e+00 -1.007416417734528086e-02
-5.925600000000000200e+00 5.064099999999999824e+01 4.814099999999999824e+01 4.891416999999999682e+00 -2.608944555821404720e-02
-5.924000000000000377e+00 2.249299999999999855e+01 5.809400000000000119e+01 4.318765999999999994e-01 -8.181627833037932729e-02
-5.923099999999999810e+00 4.698899999999999721e+01 6.185099999999999909e+01 7.730630999999999808e+00 -3.041799699482105462e-02
-5.918000000000000149e+00 1.891100000000000136e+01 5.204399999999999693e+01 5.938290000000000290e+00 6.881405997924999740e-03
-5.913499999999999979e+00 3.708700000000000330e+01 6.741400000000000148e+01 1.975738000000000127e+01 1.077251690906866864e-02
-5.895999999999999908e+00 5.003099999999999881e+01 5.751500000000000057e+01 3.241157999999999983e+00 -2.794070576782894944e-02
-5.895999999999999908e+00 5.097999999999999687e+01 5.496800000000000352e+01 -9.533545000000000158e+00 -2.710959110133195904e-02
-5.895999999999999908e+00 5.097999999999999687e+01 5.656600000000000250e+01 -3.395720000000000027e+01 -2.717499809334423394e-02
-5.895999999999999908e+00 5.120700000000000074e+01 5.576700000000000301e+01 -4.817504000000000275e+01 -2.698582258652002658e-02
-5.890699999999999825e+00 4.039600000000000080e+01 5.973899999999999721e+01 1.306830000000000069e+01 -1.672661118446860246e-02
-5.890699999999999825e+00 4.126100000000000279e+01 5.973899999999999721e+01 -6.366753000000000107e+00 -1.543145012603757901e-02
-5.885699999999999932e+00 2.451699999999999946e+01 6.014000000000000057e+01 -6.077321000000000417e+00 4.616165730728724256e-03
-5.885699999999999932e+00 2.545700000000000074e+01 6.014000000000000057e+01 -6.182519000000000098e+00 -1.377974314264108525e-02
-5.877900000000000347e+00 2.349099999999999966e+01 3.384700000000000131e+01 -7.987593000000000387e+00 2.902963908728447683e-03
-5.877299999999999969e+00 4.723799999999999955e+01 6.883100000000000307e+01 -3.237369000000000163e+00 1.351320712585143101e-02
-5.874100000000000321e+00 2.683899999999999864e+01 3.393999999999999773e+01 -3.202949000000000268e+01 9.594977152596925740e-03
-5.874100000000000321e+00 2.683899999999999864e+01 3.534000000000000341e+01 1.420056999999999903e+00 1.081181732928479869e-02
-5.873599999999999710e+00 2.364499999999999957e+01 3.454200000000000159e+01 2.199243000000000059e+00 4.134939893271377676e-03
-5.867700000000000138e+00 3.961599999999999966e+01 7.699099999999999966e+01 -2.464205000000000201e+00 -2.462712988191363972e-01
-5.866999999999999993e+00 4.754999999999999716e+01 7.940500000000000114e+01 -2.194013999999999953e+01 -2.488131179314853336e-01
-5.866999999999999993e+00 4.877499999999999858e+01 7.856000000000000227e+01 -4.753459000000000145e+01 -2.501653194755923959e-01
-5.866999999999999993e+00 4.900200000000000244e+01 7.776099999999999568e+01 -1.344730000000000025e+01 -2.510652470933199543e-01
-5.859700000000000131e+00 1.669200000000000017e+01 5.274399999999999977e+01 1.226153000000000048e+01 3.584898974614039149e-05
-5.859700000000000131e+00 1.774200000000000088e+01 5.274399999999999977e+01 1.404873000000000083e+01 5.482437109567271649e-03
-5.859700000000000131e+00 1.860800000000000054e+01 5.274399999999999977e+01 1.051449999999999996e+01 8.492326012899798979e-03
-5.857599999999999696e+00 3.746600000000000108e+01 4.002400000000000091e+01 2.797200000000000131e+01 1.703375180705133524e-02
-5.856399999999999828e+00 1.897599999999999909e+01 5.140500000000000114e+01 2.831099000000000032e+00 4.480643442680311977e-03
-5.856399999999999828e+00 1.918499999999999872e+01 5.066899999999999693e+01 6.339063000000000336e-01 -3.228525905190373635e-01
-5.849700000000000344e+00 3.318399999999999750e+01 3.521900000000000119e+01 -8.837536999999999754e-01 1.508714958206481757e-02
-5.847999999999999865e+00 2.328900000000000148e+01 3.526299999999999812e+01 -3.079337000000000213e+00 4.192761120230675820e-03
-5.846300000000000274e+00 3.426599999999999824e+01 6.713700000000000045e+01 1.535446999999999917e+01 1.208456906731858807e-02
-5.838799999999999990e+00 4.319599999999999795e+01 4.679899999999999949e+01 -2.831494999999999873e+00 -8.973366948916716018e-03
-5.837699999999999889e+00 5.199000000000000199e+01 4.352600000000000335e+01 -1.165276000000000067e+01 -2.438008293622086903e-02
-5.837600000000000122e+00 4.888000000000000256e+01 7.694499999999999318e+01 -7.565601000000000020e+00 -2.519029320160054430e-01
-5.830700000000000216e+00 2.151699999999999946e+01 5.625900000000000034e+01 -3.268037000000000081e+00 -6.496244258619318646e-02
-5.830099999999999838e+00 2.540099999999999980e+01 3.477199999999999847e+01 -1.372573000000000043e+01 8.216808267438046459e-03
-5.827099999999999724e+00 3.019099999999999895e+01 6.437099999999999511e+01 3.141283000000000269e-01 -2.197144021318158183e-02
-5.824600000000000222e+00 3.260099999999999909e+01 6.731000000000000227e+01 2.187699999999999922e-01 1.970409479913893397e-02
-5.823999999999999844e+00 1.456900000000000084e+01 5.382399999999999807e+01 3.458454000000000139e+00 -1.849945945421152885e-02
-5.823999999999999844e+00 1.456900000000000084e+01 5.633200000000000074e+01 1.120193000000000083e+01 -2.477244029234771522e-02
-5.823999999999999844e+00 3.824099999999999966e+01 7.606999999999999318e+01 3.304120999999999864e-01 -2.464218762401744200e-01
-5.821399999999999686e+00 3.199099999999999966e+01 6.733400000000000318e+01 4.317235999999999851e-01 2.344031618265698252e-02
-5.812299999999999578e+00 5.109000000000000341e+01 4.786599999999999966e+01 8.372905999999999960e-01 -2.586642892090617457e-02
-5.811700000000000088e+00 4.833700000000000330e+01 7.335500000000000398e+01 1.782102000000000075e+00 2.049359317091142135e-02
-5.799699999999999633e+00 3.032600000000000051e+01 6.716100000000000136e+01 6.725803000000000198e-01 3.441124378224770519e-02
-5.781500000000000306e+00 4.284000000000000341e+01 5.137700000000000244e+01 1.459220999999999968e+01 -1.148517628868350390e-02
-5.775699999999999612e+00 2.488899999999999935e+01 3.466199999999999903e+01 9.013049000000000532e+00 7.265939613064384753e-03
-5.775400000000000311e+00 2.965899999999999892e+01 3.459400000000000119e+01 -5.658527999999999558e+00 1.312438502078191148e-02
-5.775000000000000355e+00 2.510099999999999909e+01 3.534799999999999898e+01 1.514340000000000019e+00 8.407949070625343746e-03
-5.772000000000000242e+00 2.933299999999999841e+01 6.050399999999999778e+01 -1.610343000000000080e+00 -4.081828007518611273e-02
-5.770999999999999908e+00 3.849799999999999756e+01 7.034499999999999886e+01 -8.456302000000000874e+00 2.387725482939572624e-02
-5.768200000000000216e+00 3.003800000000000026e+01 6.099000000000000199e+01 -4.921022999999999925e+00 -4.224291221845932753e-02
-5.767599999999999838e+00 4.521900000000000119e+01 5.554599999999999937e+01 4.483826000000000200e-01 -1.097316648338972009e-02
-5.767599999999999838e+00 4.608500000000000085e+01 5.554599999999999937e+01 -2.316364000000000090e+00 -1.027785880968303325e-02
-5.765799999999999592e+00 2.023000000000000043e+01 3.677300000000000324e+01 -4.542154000000000025e+00 -1.780578021053081522e-02
-5.764000000000000234e+00 5.036099999999999710e+01 5.399300000000000210e+01 -3.556525000000000158e+00 -2.758802482548938090e-02
-5.760299999999999976e+00 4.929399999999999693e+01 4.935799999999999699e+01 -1.667483000000000004e+01 -2.732899913148161344e-02
-5.759299999999999642e+00 5.025399999999999778e+01 4.888499999999999801e+01 6.264501000000000097e+00 -2.661850473746588119e-02
-5.759100000000000108e+00 1.611100000000000065e+01 5.643200000000000216e+01 2.767439999999999856e+01 3.974118140030544893e-03
-5.750399999999999956e+00 4.137599999999999767e+01 4.676400000000000290e+01 -1.570562000000000014e+00 -9.489527001670577944e-03
-5.750000000000000000e+00 4.115800000000000125e+01 7.799200000000000443e+01 5.339129999999999932e+00 -2.460774111055178959e-01
-5.739399999999999835e+00 2.852599999999999980e+01 3.535199999999999676e+01 9.181991999999999932e-01 1.282660738007228296e-02
-5.734200000000000408e+00 3.867099999999999937e+01 3.925800000000000267e+01 2.048131000000000057e+01 1.843922287138582625e-02
-5.733100000000000307e+00 2.667599999999999838e+01 5.939699999999999847e+01 5.744532000000000416e+00 -1.566536001277062454e-02
-5.733100000000000307e+00 2.807600000000000051e+01 5.939699999999999847e+01 9.759878999999999749e+00 -2.998510794347220704e-02
-5.730599999999999916e+00 4.394200000000000017e+01 8.153799999999999670e+01 -4.234550999999999732e+00 -2.439229995892763792e-01
-5.730400000000000382e+00 4.387400000000000233e+01 5.472200000000000131e+01 -3.585640999999999856e+00 -1.191126160092314742e-02
-5.729000000000000092e+00 3.856600000000000250e+01 3.669299999999999784e+01 2.489610000000000056e+01 -6.739033797469962117e-02
-5.725299999999999834e+00 1.682400000000000162e+01 5.641199999999999903e+01 1.996853000000000122e+01 1.204847037957665346e-02
-5.724400000000000155e+00 1.825900000000000034e+01 5.561800000000000210e+01 4.171291999999999689e+01 -7.620215998276670677e-02
-5.723700000000000010e+00 4.100000000000000000e+01 5.616400000000000148e+01 -1.683649000000000129e+01 -1.521322480253145017e-02
-5.723300000000000054e+00 4.253699999999999903e+01 5.207699999999999818e+01 -8.605080999999999980e-01 -1.196182014802708513e-02
-5.722299999999999720e+00 1.791100000000000136e+01 4.308700000000000330e+01 -4.059460999999999764e+00 -2.978078869910329440e-01
-5.720699999999999896e+00 1.996099999999999852e+01 4.827499999999999858e+01 -1.014826000000000050e+01 -3.151500145199792047e-01
-5.720699999999999896e+00 1.996099999999999852e+01 4.967499999999999716e+01 -3.312631000000000103e+00 -3.182545389280693748e-01
-5.712900000000000311e+00 4.771699999999999875e+01 4.996000000000000085e+01 -3.622142000000000195e+01 -2.863579465999726084e-02
-5.707099999999999618e+00 4.873400000000000176e+01 5.291199999999999903e+01 -6.809756999999999616e-01 -2.873118999580463392e-02
-5.705000000000000071e+00 4.870799999999999841e+01 6.077499999999999858e+01 -6.403387000000000384e+00 -2.904115510088949720e-02
-5.702799999999999869e+00 4.265200000000000102e+01 5.355700000000000216e+01 -7.944441000000000308e+00 -1.252230221897835706e-02
-5.701500000000000234e+00 4.728199999999999648e+01 5.375000000000000000e+01 -3.683755999999999808e+00 -3.024577219293823199e-02
-5.695800000000000196e+00 4.954999999999999716e+01 5.862800000000000011e+01 -3.357286999999999910e-01 -2.851832265122221030e-02
-5.695800000000000196e+00 4.975900000000000034e+01 5.789200000000000301e+01 7.325109000000000314e+00 -2.836529215834798084e-02
-5.694300000000000139e+00 4.941100000000000136e+01 4.242999999999999972e+01 -4.503180999999999656e+00 -2.510901128305146474e-02
-5.694300000000000139e+00 5.093099999999999739e+01 4.242999999999999972e+01 -5.427286999999999750e+00 -2.455829754764816270e-02
-5.689400000000000013e+00 4.354500000000000171e+01 5.108700000000000330e+01 1.666853000000000051e+01 -1.077457909295578310e-02
-5.684400000000000119e+00 4.019400000000000261e+01 5.617300000000000182e+01 -1.933364999999999945e-01 -1.609991563519221763e-02
-5.684300000000000352e+00 2.493100000000000094e+01 3.247699999999999676e+01 -9.574987000000000137e+00 1.059702173677167930e-01
-5.684300000000000352e+00 2.587099999999999866e+01 3.247699999999999676e+01 -2.002147000000000077e+01 1.068779552416669193e-01
-5.684300000000000352e+00 2.587099999999999866e+01 3.399699999999999989e+01 -8.244522999999999513e+01 8.551360793320885584e-03
-5.684300000000000352e+00 2.587099999999999866e+01 3.539699999999999847e+01 4.854818999999999996e+00 9.918766879879119952e-03
-5.682999999999999829e+00 4.531000000000000227e+01 8.219400000000000261e+01 -2.394320000000000093e+01 -2.444018897027607495e-01
-5.682999999999999829e+00 4.660300000000000153e+01 8.147299999999999898e+01 -3.491761999999999944e+01 -2.460507384145324550e-01
-5.680799999999999628e+00 4.144800000000000040e+01 5.890299999999999869e+01 -4.749520999999999660e+00 -1.484671068116950356e-02
-5.679599999999999760e+00 3.051800000000000068e+01 3.387700000000000244e+01 -5.081364999999999910e+00 1.338662770900350338e-02
-5.678099999999999703e+00 4.738300000000000267e+01 6.691100000000000136e+01 2.960753999999999886e-01 1.009093938377279842e-02
-5.677999999999999936e+00 4.235900000000000176e+01 7.998300000000000409e+01 1.520359999999999934e+00 -2.442075332012550448e-01
-5.673399999999999999e+00 2.193400000000000105e+01 3.638400000000000034e+01 -1.775082000000000049e+00 2.421533668072421187e-03
-5.668000000000000149e+00 3.953600000000000136e+01 4.574900000000000233e+01 -1.219059999999999988e+01 -9.214826815060760817e-03
-5.666100000000000136e+00 3.940999999999999659e+01 5.870300000000000296e+01 4.431219999999999715e+00 -1.778186298146731265e-02
-5.665399999999999991e+00 4.130299999999999727e+01 5.686399999999999721e+01 -5.492862999999999829e+00 -1.491467016419847913e-02
-5.665399999999999991e+00 4.231499999999999773e+01 5.284400000000000119e+01 -1.201764999999999972e+00 -1.241514617663774800e-02
-5.663999999999999702e+00 1.667899999999999849e+01 4.392199999999999704e+01 -3.364106000000000041e+00 -2.989553615731294633e-01
-5.663299999999999557e+00 3.980100000000000193e+01 5.917399999999999949e+01 3.416532999999999820e+00 -1.712521528006290955e-02
-5.662799999999999834e+00 4.272699999999999676e+01 8.071699999999999875e+01 2.308997000000000188e+00 -2.436274936295971527e-01
