-9.234899999999999665e+00 1.864000000000000057e+01 8.684699999999999420e+00 -1.237439999999999962e+01 -1.355316515055937365e-01
-9.219300000000000495e+00 2.558200000000000074e+01 4.291699999999999626e+00 1.666957000000000022e+00 -2.442012477458481712e-01
-9.217599999999999127e+00 3.357000000000000028e+01 1.608999999999999986e+01 3.090705999999999953e+00 9.364163134306224129e-03
-9.214900000000000091e+00 4.213100000000000023e+01 -1.816400000000000148e+01 -8.019595000000000695e+00 -1.859640843054874426e-01
-9.214000000000000412e+00 2.954700000000000060e+01 -6.680200000000000138e+00 -1.963178000000000090e+00 -1.770762860277024994e-02
-9.207100000000000506e+00 2.171799999999999997e+01 6.482499999999999929e+00 6.572814000000000156e+00 -4.360737801517874240e-02
-9.205899999999999750e+00 2.092299999999999827e+01 2.678600000000000136e+01 -3.575108999999999781e+01 -3.499999999999999778e-01
-9.198499999999999233e+00 1.613200000000000145e+01 1.419500000000000028e+01 -4.159398999999999624e+00 5.574508977847725255e-03
-9.198499999999999233e+00 1.634100000000000108e+01 1.345899999999999963e+01 -4.482810999999999879e+00 3.818222853747334916e-02
-9.196099999999999497e+00 4.082500000000000284e+01 -1.892099999999999937e+01 -5.434412000000000020e+00 -1.748984755831209104e-01
-9.195499999999999119e+00 2.145599999999999952e+01 8.319999999999999618e-01 -1.172206000000000081e+00 -1.132825070787391863e-01
-9.170700000000000074e+00 2.238200000000000145e+01 2.687900000000000134e+01 -1.239528999999999925e+01 -3.499999999999999778e-01
-9.167999999999999261e+00 1.841400000000000148e+01 1.165000000000000036e+00 1.045506999999999920e+01 -4.951454196616358189e-02
-9.167999999999999261e+00 1.841400000000000148e+01 3.673000000000000043e+00 1.974900999999999840e+01 -6.608492610365795938e-02
-9.158799999999999386e+00 2.988299999999999912e+01 -7.498800000000000132e+00 -2.467276000000000025e+00 2.834545309832049286e-03
-9.157299999999999329e+00 4.748299999999999699e+01 1.334800000000000075e+01 5.219254000000000282e+00 -1.738732664169196085e-01
-9.155900000000000816e+00 4.334400000000000119e+01 -1.749500000000000099e+01 -1.947163999999999895e+00 -1.995126136909792236e-01
-9.152400000000000091e+00 1.764699999999999847e+01 1.869300000000000139e+01 1.070381000000000071e+01 -1.583458284560242679e-01
-9.133699999999999264e+00 3.097100000000000009e+01 -8.418200000000000571e+00 -2.633744999999999781e+00 -3.499999999999999778e-01
-9.131000000000000227e+00 2.016199999999999903e+01 5.700000000000000205e-02 1.604244999999999921e+00 -4.098345637172989275e-01
-9.131000000000000227e+00 2.112000000000000099e+01 5.700000000000000205e-02 1.988896999999999915e+00 -1.107261459720688263e-01
-9.117100000000000648e+00 3.849000000000000199e+01 -1.907199999999999918e+01 -2.018170000000000019e+00 -1.644389562828819651e-01
-9.116600000000000037e+00 3.660399999999999920e+01 1.516600000000000037e+01 1.284887999999999941e+01 8.340334557512532263e-03
-9.109999999999999432e+00 4.131499999999999773e+01 1.108000000000000007e+01 1.374180999999999919e+01 -1.682529444385610085e-01
-9.109999999999999432e+00 4.250600000000000023e+01 1.174399999999999977e+01 -5.896861999999999937e-02 -1.848911962673255860e-01
-9.099299999999999500e+00 3.221600000000000108e+01 -1.162500000000000000e+01 -3.885791999999999913e+00 -4.458759744702037869e-02
-9.097699999999999676e+00 2.962199999999999989e+01 -5.641099999999999781e+00 1.092141000000000028e+00 -6.948086558446049665e-02
-9.097699999999999676e+00 2.983099999999999952e+01 -4.905000000000000249e+00 8.244873000000000118e+00 -6.544603538935370168e-02
-9.096700000000000230e+00 2.362999999999999901e+01 5.790700000000000180e+00 -2.910508000000000095e+00 -9.422259891976661472e-02
-9.094099999999999184e+00 1.565900000000000070e+01 1.568900000000000006e+01 -4.075946999999999765e-01 -4.972479671085721503e-02
-9.089700000000000557e+00 5.011500000000000199e+01 2.723599999999999799e+00 1.492700999999999922e+01 -3.237197627686625445e-01
-9.083399999999999253e+00 3.674399999999999977e+01 -1.735999999999999943e+01 -2.225909000000000137e+00 -1.575057430016016113e-01
-9.082900000000000418e+00 3.147100000000000009e+01 2.811799999999999855e+01 1.729473999999999956e+00 1.007584365149482714e-01
-9.081400000000000361e+00 1.586299999999999955e+01 1.480300000000000082e+01 -5.166043000000000163e-01 -1.349811288859197392e-02
-9.074400000000000688e+00 2.093499999999999872e+01 3.750000000000000000e+00 9.434180000000000343e-03 6.453630901965040981e-03
-9.071899999999999409e+00 1.591900000000000048e+01 1.661199999999999832e+01 -7.538072000000000106e-01 -9.033598245758285572e-02
-9.057999999999999829e+00 3.450500000000000256e+01 2.146900000000000119e+01 9.118589999999999307e+00 2.616629647153808080e-01
-9.057999999999999829e+00 3.450500000000000256e+01 2.251899999999999835e+01 -6.469327999999999745e-01 2.599217095403669742e-01
-9.046499999999999986e+00 4.593299999999999983e+01 1.382199999999999918e+01 6.262673000000000378e+00 -1.681146496907967580e-01
-9.045299999999999230e+00 5.069700000000000273e+01 -2.439999999999999947e+00 -5.334137000000000128e+00 -2.021395062763820805e-01
-9.041000000000000369e+00 2.599599999999999866e+01 -5.829999999999999627e-01 1.559730000000000061e+01 -1.162408374994623877e-01
-9.041000000000000369e+00 2.625000000000000000e+01 -1.476699999999999902e+00 1.180317999999999978e+00 6.017622586818358738e-02
-9.041000000000000369e+00 2.625000000000000000e+01 3.107400000000000162e-01 1.382163000000000075e+01 -1.379401312594065732e-01
-9.041000000000000369e+00 2.725700000000000145e+01 1.318000000000000060e+00 2.001557000000000031e+01 2.319605128474798994e-01
-9.041000000000000369e+00 2.725700000000000145e+01 2.790000000000000036e+00 9.524100999999999928e+00 -2.850811486296024877e-01
-9.041000000000000369e+00 2.746600000000000108e+01 2.053999999999999826e+00 1.329936999999999969e+01 1.875461011172253611e-01
-9.040100000000000691e+00 3.999600000000000222e+01 1.184800000000000075e+01 4.562825000000000131e+00 -2.028243922085211925e-01
-9.037300000000000111e+00 2.950900000000000034e+01 -3.999400000000000066e+00 2.282112000000000140e+00 -5.082147316167075907e-02
-9.036699999999999733e+00 3.198499999999999943e+01 2.089499999999999957e+01 -5.016511000000000386e+00 1.584219825336429244e-01
-9.028100000000000236e+00 2.808299999999999841e+01 2.805999999999999872e+01 -3.336396999999999835e+00 -1.970771760917705562e-01
-9.025999999999999801e+00 3.710099999999999909e+01 -1.816300000000000026e+01 -4.073869000000000185e+00 -1.599835063909433308e-01
-9.025399999999999423e+00 3.315100000000000335e+01 2.469200000000000017e+01 -1.658979000000000070e+01 5.906556127103816667e-02
-9.021100000000000563e+00 3.840999999999999659e+01 1.506000000000000050e+01 5.765501999999999683e+00 2.897211398103926444e-02
-9.021000000000000796e+00 3.312700000000000244e+01 2.562800000000000011e+01 -1.323659999999999926e+01 6.949107434594564703e-02
-9.019800000000000040e+00 1.732199999999999918e+01 9.109600000000000364e+00 -1.378622999999999976e+01 -1.306095745565671318e-01
-9.019500000000000739e+00 2.053699999999999903e+01 4.449600000000000222e+00 1.131845999999999997e+01 -1.597503325376281938e-02
-9.016299999999999315e+00 2.685200000000000031e+01 -2.271900000000000031e+00 6.267255999999999938e-01 -2.585361268828690329e-01
-9.014499999999999957e+00 2.069800000000000040e+01 7.901200000000000223e+00 -1.747468999999999939e+00 -1.676600791368482724e-01
-9.014300000000000423e+00 3.313000000000000256e+01 2.054799999999999827e+01 1.486131000000000091e+00 1.694187046086188531e-01
-9.010699999999999932e+00 1.872299999999999898e+01 2.176399999999999935e+01 -2.059269000000000105e+01 4.704851818311619333e-02
-9.008599999999999497e+00 2.059299999999999997e+01 2.385999999999999943e+01 -1.338475999999999999e+00 -2.356614225118494055e-01
-9.006000000000000227e+00 4.770900000000000318e+01 -1.109399999999999942e+01 1.247655999999999921e+01 -1.143820808409810354e-02
-9.006000000000000227e+00 4.770900000000000318e+01 -1.013599999999999923e+01 -5.425335999999999714e+00 -1.981582878950887555e-02
-8.999299999999999855e+00 4.818800000000000239e+01 8.584400000000000475e+00 -9.826304000000000372e+00 -2.334465723357956324e-01
-8.996000000000000441e+00 4.998599999999999710e+01 -3.442400000000000126e+00 -7.100126000000000381e+00 -2.368388670577534216e-01
-8.990899999999999892e+00 4.980899999999999750e+01 7.691299999999999804e-01 8.841732000000000369e+00 -3.231020641058593434e-01
-8.990899999999999892e+00 4.980899999999999750e+01 2.169099999999999806e+00 2.160987000000000080e+01 -3.289356480486652079e-01
-8.990700000000000358e+00 1.944099999999999895e+01 8.772399999999999309e+00 -5.614760000000000417e+00 -1.598209315499229954e-01
-8.984099999999999753e+00 2.937999999999999901e+01 2.878999999999999915e+01 -2.556231000000000009e+01 8.351406737389169277e-02
-8.983100000000000307e+00 4.853399999999999892e+01 7.909099999999999575e+00 -1.655255000000000010e+01 -2.085738890169754334e-01
-8.982900000000000773e+00 3.290599999999999881e+01 2.641300000000000026e+01 -1.915637999999999863e+01 7.803258665946997963e-02
-8.981999999999999318e+00 5.102600000000000335e+01 -1.679999999999999938e+00 -1.776219999999999999e+01 -1.882243985855676094e-01
-8.980700000000000571e+00 4.495100000000000051e+01 -1.719600000000000151e+01 2.146675000000000111e+00 -2.088635151859890848e-01
-8.978999999999999204e+00 4.984599999999999653e+01 5.203299999999999592e+00 1.002722999999999942e+01 -1.960374544037366829e-01
-8.972699999999999676e+00 3.962599999999999767e+01 -1.923100000000000165e+01 -1.922770000000000090e+00 -1.690886647616641203e-01
-8.972400000000000375e+00 3.569400000000000261e+01 1.518800000000000061e+01 6.877172999999999981e+00 1.280795666299701097e-01
-8.970800000000000551e+00 3.343099999999999739e+01 2.385099999999999909e+01 -6.226208999999999882e+00 3.408145268284704654e-01
-8.968099999999999739e+00 2.820599999999999952e+01 -3.046499999999999986e+00 4.013555000000000206e+00 -2.603637886320600003e-01
-8.950300000000000367e+00 3.699099999999999966e+01 1.591000000000000014e+01 1.444070999999999927e+01 1.085380116462785968e-02
-8.950300000000000367e+00 3.804099999999999682e+01 1.591000000000000014e+01 4.817248000000000197e+00 2.056684713351518423e-02
-8.950300000000000367e+00 2.028999999999999915e+01 2.316000000000000014e+01 3.871087000000000167e+00 1.199270812283368820e-01
-8.949799999999999756e+00 4.994599999999999795e+01 -4.352100000000000080e+00 -1.830870999999999915e+00 -2.567448182068979845e-01
-8.949600000000000222e+00 3.047700000000000031e+01 2.095200000000000173e+01 -3.448096999999999923e+01 1.566765112147502914e-01
-8.946899999999999409e+00 5.075800000000000267e+01 -9.211200000000000498e-01 -1.165090999999999966e+01 -2.949012649805662911e-01
-8.946400000000000574e+00 3.499699999999999989e+01 -1.256199999999999939e+01 -6.742566000000000059e+00 -8.704906181073501781e-02
-8.941700000000000870e+00 4.745300000000000296e+01 -9.360300000000000509e+00 1.496480999999999995e+01 -2.612303616537289125e-02
-8.937900000000000844e+00 2.280399999999999849e+01 2.704799999999999827e+01 -3.080645000000000078e+00 -3.499999999999999778e-01
-8.935000000000000497e+00 4.636099999999999710e+01 -1.396299999999999919e+01 1.420861999999999981e+01 -2.377345411538509534e-01
-8.935000000000000497e+00 5.002700000000000102e+01 4.258399999999999963e+00 -5.359863999999999962e+00 -1.955295916553607405e-01
-8.932600000000000762e+00 4.950500000000000256e+01 1.469100000000000072e+00 2.950516999999999967e+01 -3.298588370487972043e-01
-8.924200000000000799e+00 1.992099999999999937e+01 2.250499999999999901e+01 2.842267999999999795e+00 1.034825715056217621e-01
-8.912200000000000344e+00 2.165700000000000003e+01 2.636899999999999800e+00 8.866485000000000838e+00 -5.110143753098060626e-02
-8.910000000000000142e+00 3.624699999999999989e+01 -1.418699999999999939e+01 -6.580549999999999677e+00 -7.971521324586554325e-02
-8.910000000000000142e+00 3.645600000000000307e+01 -1.492300000000000004e+01 1.709287999999999919e-01 -6.748286903107005019e-02
-8.902699999999999392e+00 4.438799999999999812e+01 1.358600000000000030e+01 -2.691646000000000072e+01 -3.352233448883189526e-01
-8.897899999999999920e+00 4.975300000000000011e+01 -9.124299999999999633e-01 -5.393828000000000067e+00 -2.996416968639586953e-01
-8.890800000000000480e+00 4.780899999999999750e+01 9.244400000000000617e+00 -2.133145000000000024e+01 -4.736183721657266643e-02
-8.884999999999999787e+00 1.721399999999999864e+01 1.799299999999999855e+01 4.141228999999999871e+01 -1.740590786544111424e-01
-8.875500000000000611e+00 2.131800000000000139e+01 3.413499999999999979e+00 7.079588999999999466e-01 -2.997914940077912524e-02
-8.868999999999999773e+00 4.295300000000000296e+01 1.287100000000000044e+01 -4.741083999999999854e-01 -3.056757043959412723e-01
-8.868600000000000705e+00 3.363000000000000256e+01 -1.232699999999999996e+01 -8.641942999999999486e+00 -7.103239525621682371e-02
-8.866699999999999804e+00 4.158500000000000085e+01 -1.885800000000000054e+01 -1.230883000000000038e+01 -1.817513311874874027e-01
-8.865099999999999980e+00 1.615299999999999869e+01 9.682800000000000296e+00 -1.869256999999999991e+01 -9.002788036551837014e-02
-8.862800000000000011e+00 2.037199999999999989e+01 2.464600000000000080e+01 -5.860206999999999944e+00 -2.338797245028561844e-01
-8.857300000000000395e+00 3.043700000000000117e+01 1.837800000000000011e+01 4.276614000000000360e+00 1.570398540454792935e-01
-8.855700000000000571e+00 2.221600000000000108e+01 5.961700000000000443e+00 6.455926999999999971e+00 -9.753068598736362727e-03
-8.845200000000000173e+00 1.960000000000000142e+01 2.167200000000000060e+01 -6.242481999999999864e+00 7.182723283119132884e-02
-8.839000000000000412e+00 3.015399999999999991e+01 2.867099999999999937e+01 -2.368141999999999925e+01 7.901528960219163233e-02
-8.835300000000000153e+00 1.817399999999999949e+01 2.132799999999999940e+01 -2.061956999999999951e+01 2.140044072052024737e-02
-8.833299999999999486e+00 4.783100000000000307e+01 1.014499999999999957e+01 -9.960891000000000162e+00 -2.084330695252469834e-01
-8.832700000000000884e+00 3.132999999999999829e+01 2.124699999999999989e+01 -1.435153999999999996e+01 1.449416280250259981e-01
-8.828699999999999548e+00 2.307799999999999940e+01 5.041800000000000281e+00 1.984887000000000068e+00 -6.067681881572246916e-02
-8.818500000000000227e+00 4.871600000000000108e+01 -6.038499999999999979e+00 1.375985999999999976e+01 2.404321995502656586e-02
-8.816100000000000492e+00 2.546199999999999974e+01 2.829200000000000159e+01 -2.588710000000000022e+01 -1.907012228315870250e-01
-8.812799999999999301e+00 3.901500000000000057e+01 1.311999999999999922e+01 8.002088000000000534e+00 -2.349846979107859113e-01
-8.810800000000000409e+00 4.787599999999999767e+01 -8.416100000000000136e+00 1.480490999999999957e+01 5.059418627109411176e-02
-8.807000000000000384e+00 2.136700000000000088e+01 4.450000000000000178e+00 3.027114000000000082e+00 1.403536176497966956e-02
-8.803100000000000591e+00 3.429899999999999949e+01 1.581199999999999939e+01 -7.706259000000000192e+00 1.422235830338290132e-02
-8.797399999999999665e+00 2.251899999999999835e+01 5.261700000000000266e+00 4.301366999999999940e+00 -3.411414923239725061e-02
-8.797000000000000597e+00 4.958899999999999864e+01 5.918599999999999639e+00 3.711702999999999975e+01 -2.043954444423974337e-01
-8.792999999999999261e+00 2.387399999999999878e+01 2.815500000000000114e+01 7.261957999999999913e+01 -1.709512892123277727e-01
-8.775299999999999656e+00 2.045299999999999940e+01 2.625300000000000011e+01 -2.282356000000000051e+01 -3.499999999999999778e-01
-8.772000000000000242e+00 1.784499999999999886e+01 2.056800000000000139e+01 -4.708109999999999573e+00 -1.143146687027696562e-01
-8.766600000000000392e+00 1.960800000000000054e+01 4.555699999999999861e+00 1.872134000000000142e+01 -5.192777672591817467e-02
-8.755000000000000782e+00 5.022699999999999676e+01 -1.679999999999999938e+00 -1.848545000000000016e+01 -2.019893976910013822e-01
-8.751300000000000523e+00 2.098799999999999955e+01 5.322300000000000253e+00 9.479649999999999466e+00 -2.481488603029759210e-02
-8.736200000000000188e+00 3.290699999999999648e+01 -1.227699999999999925e+01 -5.137459999999999916e+00 -6.939376039257375006e-02
-8.733000000000000540e+00 3.888600000000000279e+01 1.407799999999999940e+01 5.803536000000000250e+00 -2.394056743280571220e-01
-8.721399999999999153e+00 2.856200000000000117e+01 2.880300000000000082e+01 -3.459385999999999850e+00 8.995536789658700738e-02
-8.719699999999999562e+00 2.335300000000000153e+01 2.255600000000000094e+01 -5.457766000000000339e+00 -1.352688543778058916e-01
-8.717000000000000526e+00 4.901700000000000301e+01 -1.072400000000000020e+00 -1.241749999999999909e+00 -6.764611017020341621e-02
-8.711999999999999744e+00 2.012399999999999878e+01 2.549299999999999855e+01 -8.653119000000000227e+00 -2.334191334000175200e-01
-8.709099999999999397e+00 1.931299999999999883e+01 2.826699999999999768e-01 3.474756000000000178e+00 -4.108884541612384811e-01
-8.691900000000000404e+00 2.064099999999999824e+01 -4.865099999999999980e-01 1.031265999999999927e+01 -1.075847612960361965e-01
-8.690300000000000580e+00 3.039399999999999835e+01 -8.051199999999999690e+00 -2.937828999999999802e+00 -2.111578033325715309e-01
-8.689000000000000057e+00 1.763899999999999935e+01 2.419000000000000039e+00 -4.021167999999999965e-01 -6.973040884511125248e-02
-8.689000000000000057e+00 1.787000000000000099e+01 1.604100000000000081e+00 1.536712999999999951e+01 -6.075253818424912466e-02
-8.689000000000000057e+00 1.787000000000000099e+01 3.233900000000000219e+00 2.516019000000000005e+00 -7.394406895406099856e-02
-8.689000000000000057e+00 1.882900000000000063e+01 4.192400000000000126e+00 1.033949999999999960e+02 -6.747344687724861345e-02
-8.688800000000000523e+00 4.996500000000000341e+01 -2.447599999999999998e+00 -6.017538000000000054e+00 -2.217614481565724494e-01
-8.688000000000000611e+00 3.882000000000000028e+01 -1.926800000000000068e+01 -2.247739000000000154e+00 -1.669297693989553744e-01
-8.686999999999999389e+00 4.931099999999999994e+01 6.655400000000000205e+00 6.812867000000000228e-01 -2.122906241817638373e-01
-8.684300000000000352e+00 5.045199999999999818e+01 3.445500000000000007e+00 9.892216000000000342e-01 -3.281122347325800548e-01
-8.678399999999999892e+00 3.306099999999999994e+01 1.651699999999999946e+01 7.678879000000000232e+00 1.223812058102622391e-01
-8.677400000000000446e+00 4.061500000000000199e+01 1.134699999999999953e+01 3.581548999999999694e+01 -1.725959269208051095e-01
-8.677400000000000446e+00 4.201500000000000057e+01 1.134699999999999953e+01 1.036288000000000054e+01 -1.628465705880894898e-01
-8.675700000000000855e+00 2.115500000000000114e+01 7.059000000000000163e+00 1.117348999999999926e+00 -1.100305130723416569e-01
-8.671099999999999142e+00 2.125600000000000023e+01 6.079799999999999649e+00 6.571251000000000175e+00 -4.972137170389049482e-02
-8.669600000000000861e+00 2.387099999999999866e+01 4.887299999999999756e+00 1.574591999999999992e+00 -1.098008436841005492e-01
-8.669600000000000861e+00 2.473699999999999832e+01 4.887299999999999756e+00 1.598433999999999910e+00 -4.031225890605234785e-02
-8.664699999999999847e+00 2.890599999999999881e+01 -3.104800000000000004e+00 2.707707999999999871e+01 -2.645289357799519570e-01
-8.658899999999999153e+00 3.223799999999999955e+01 2.775300000000000011e+01 1.228475999999999901e+00 7.231419261204620474e-02
-8.656000000000000583e+00 4.547599999999999909e+01 -1.634600000000000009e+01 8.592520999999999631e+00 -2.150845779231785326e-01
-8.654500000000000526e+00 2.387699999999999889e+01 2.259600000000000009e+01 -1.207715999999999923e+01 -2.469932308834509593e-01
-8.654299999999999216e+00 2.249099999999999966e+01 4.120700000000000252e+00 1.246595000000000064e-01 -3.613978762414688656e-02
-8.651999999999999247e+00 2.189499999999999957e+01 3.530200000000000005e-01 4.163350000000000106e-01 -1.051769792718125068e-01
-8.651999999999999247e+00 2.189499999999999957e+01 1.310999999999999943e+00 -4.884729000000000099e+00 -1.080151178384994443e-01
-8.650700000000000500e+00 3.128500000000000014e+01 1.822599999999999909e+01 1.383440000000000047e+01 2.560624464185149440e-01
-8.650199999999999889e+00 1.561800000000000033e+01 1.048499999999999943e+01 -1.513866999999999940e+01 -6.209665244250944793e-02
-8.643000000000000682e+00 3.429699999999999704e+01 -1.250399999999999956e+01 -5.927198999999999884e+00 -8.189466707367898390e-02
-8.639400000000000190e+00 4.271399999999999864e+01 -1.773100000000000165e+01 -6.490277999999999992e+00 -1.951343272082404490e-01
-8.638999999999999346e+00 4.684000000000000341e+01 -1.318800000000000061e+01 5.441338999999999970e+01 -2.300266908880685413e-01
-8.631999999999999673e+00 4.663300000000000267e+01 1.367300000000000004e+01 1.994161000000000072e+01 -1.781901043102067095e-01
-8.631999999999999673e+00 4.807900000000000063e+01 1.286700000000000088e+01 8.304864999999999498e+00 -1.848675594311818826e-01
-8.631999999999999673e+00 4.833299999999999841e+01 1.197300000000000075e+01 2.554956999999999923e+01 -1.926183160383839188e-01
-8.630499999999999616e+00 4.932000000000000028e+01 -1.612400000000000055e+00 -2.160238000000000103e+00 -7.992470095049282464e-02
-8.630000000000000782e+00 4.921699999999999875e+01 7.557000000000000384e+00 -8.505812999999999846e+00 -2.188616080128166497e-01
-8.628199999999999648e+00 3.242999999999999972e+01 1.787900000000000134e+01 2.015698000000000079e+01 1.363803434551436322e-01
-8.626200000000000756e+00 4.415400000000000347e+01 -1.738299999999999912e+01 2.144946000000000019e+00 -2.068007465990671645e-01
-8.624700000000000699e+00 3.263300000000000267e+01 2.683599999999999852e+01 -1.135795000000000066e+01 6.320628109059467370e-02
-8.620200000000000529e+00 2.213899999999999935e+01 3.388399999999999856e+00 -6.796330000000000426e-02 -3.797141973823138505e-02
-8.620100000000000762e+00 3.577799999999999869e+01 -1.342800000000000082e+01 -4.607164000000000037e+00 -9.547666022797078600e-02
-8.618000000000000327e+00 2.920700000000000074e+01 -7.118000000000000327e+00 -2.077211000000000141e+00 -2.441979390902010161e-01
-8.618000000000000327e+00 2.920700000000000074e+01 -6.160000000000000142e+00 -1.214714999999999989e+00 -2.883815047750104554e-01
-8.616699999999999804e+00 3.151999999999999957e+01 -1.115600000000000058e+01 -3.042731999999999992e+00 -3.343171027304650544e-02
-8.611100000000000421e+00 3.980599999999999739e+01 1.217600000000000016e+01 4.562825000000000131e+00 -2.019587659693914683e-01
-8.608999999999999986e+00 3.629800000000000182e+01 -1.590499999999999936e+01 -2.071614999999999984e+00 2.112673495746433469e-02
-8.608999999999999986e+00 3.655199999999999960e+01 -1.679899999999999949e+01 -1.737354000000000065e+00 -1.574462200990060512e-01
-8.608399999999999608e+00 2.676599999999999824e+01 3.186599999999999877e+00 6.535765999999999742e+00 -2.905973484265780837e-01
-8.607599999999999696e+00 2.602700000000000102e+01 2.800799999999999912e+01 -4.427749999999999631e+00 -1.929809660025059992e-01
-8.607599999999999696e+00 2.742699999999999960e+01 2.800799999999999912e+01 -2.790653000000000161e-01 1.530037956215381245e-01
-8.606799999999999784e+00 3.775999999999999801e+01 -1.880099999999999838e+01 -3.569529999999999870e+00 -1.630939098948478994e-01
-8.605999999999999872e+00 1.619399999999999906e+01 1.391699999999999982e+01 -3.200638000000000094e+00 4.387297828617765794e-02
-8.605999999999999872e+00 1.640299999999999869e+01 1.318099999999999916e+01 -4.253230000000000288e+00 2.201906841601736914e-02
-8.601900000000000546e+00 2.149299999999999855e+01 2.618900000000000006e+01 -1.208869999999999933e+01 -3.499999999999999778e-01
-8.600300000000000722e+00 1.999500000000000099e+01 5.299999999999999822e+00 1.118237000000000059e+01 -6.297149958460640518e-02
-8.598000000000000753e+00 2.559100000000000108e+01 3.592600000000000016e+00 9.178517999999999954e-01 -2.595405884914268047e-01
-8.594099999999999184e+00 1.987300000000000111e+01 8.281499999999999417e+00 1.087977999999999890e+00 -1.724702069748303979e-01
-8.588300000000000267e+00 2.178300000000000125e+01 5.261700000000000266e+00 1.062020000000000053e+01 4.993906912929876006e-03
-8.587199999999999278e+00 1.781299999999999883e+01 8.712999999999999190e+00 -5.598881000000000441e+00 -1.561139183000838648e-01
-8.585900000000000531e+00 5.046300000000000097e+01 2.172000000000000153e+00 2.390850000000000009e+01 -3.331731935253523513e-01
-8.585000000000000853e+00 1.821499999999999986e+01 1.890399999999999991e+01 1.863493999999999984e+00 -1.784868154670384843e-01
-8.584199999999999164e+00 1.643799999999999883e+01 1.750499999999999901e+01 3.771182000000000034e+00 -1.405101998653849049e-01
-8.580700000000000216e+00 4.813100000000000023e+01 1.105100000000000016e+01 -9.602060000000000040e-01 -2.035419608908755895e-01
-8.580399999999999139e+00 1.635200000000000031e+01 1.154400000000000048e+01 -7.963354999999999961e+00 -4.103005325265872416e-02
-8.580399999999999139e+00 1.656099999999999994e+01 1.228100000000000058e+01 -7.394836999999999883e+00 -1.500557268498769678e-02
-8.575799999999999201e+00 3.612599999999999767e+01 1.567900000000000027e+01 7.650590000000000224e+00 1.300881524699179226e-01
-8.574999999999999289e+00 4.920100000000000051e+01 9.491499999999999937e-02 1.163372000000000028e+01 -2.644848823485143052e-01
-8.573999999999999844e+00 3.136599999999999966e+01 -1.025000000000000000e+01 -2.600506000000000206e+00 -2.098418126241481385e-01
-8.567999999999999616e+00 4.564399999999999835e+01 -1.522400000000000020e+01 6.852172999999999625e+00 -2.567793729437619077e-01
-8.567299999999999471e+00 3.280100000000000193e+01 1.733599999999999852e+01 2.098998999999999882e+01 1.313708111041290982e-01
-8.566700000000000870e+00 4.888799999999999812e+01 8.317000000000000171e+00 -1.996108999999999867e+01 -2.218957137212370923e-01
-8.561700000000000088e+00 1.685300000000000153e+01 9.624499999999999389e+00 -1.302515999999999963e+01 -1.208961548772583827e-01
-8.554199999999999804e+00 5.013900000000000290e+01 1.404400000000000093e+00 4.508102000000000231e+01 -3.339616715938302782e-01
-8.547900000000000276e+00 2.111400000000000077e+01 2.336199999999999832e+01 1.735630000000000006e+00 -2.401502864018647543e-01
-8.541499999999999204e+00 4.874099999999999966e+01 -4.887500000000000178e-01 7.530342000000000091e+00 -2.564341220201505900e-01
-8.534900000000000375e+00 1.890800000000000125e+01 8.252000000000000668e+00 -3.698821000000000137e+00 -1.691999525724597331e-01
-8.533899999999999153e+00 4.689699999999999847e+01 -1.223499999999999943e+01 -5.780382999999999605e+00 -1.312713555901578177e-01
-8.532700000000000173e+00 3.365500000000000114e+01 2.114399999999999835e+01 1.630109000000000030e+00 1.563518001195542129e-01
-8.529299999999999216e+00 3.062999999999999901e+01 2.118799999999999883e+01 -2.950017000000000067e+01 1.449826631797395682e-01
-8.529299999999999216e+00 3.203000000000000114e+01 2.118799999999999883e+01 -5.621147999999999811e+00 1.462499025106338002e-01
-8.528999999999999915e+00 2.076800000000000068e+01 2.260300000000000153e+01 7.460592000000000112e+00 1.204543747280081289e-01
-8.519000000000000128e+00 4.825800000000000267e+01 -7.539299999999999891e+00 1.869716999999999985e+01 1.601540904037049295e-02
-8.517899999999999139e+00 3.502900000000000347e+01 1.574200000000000088e+01 -4.712252000000000329e+00 2.109065013360172935e-02
-8.516999999999999460e+00 2.977700000000000102e+01 1.982000000000000028e+01 -2.477526999999999902e+01 1.113923977836476509e-01
-8.516999999999999460e+00 2.998600000000000065e+01 1.908399999999999963e+01 -2.860332999999999970e+01 1.312080221689650994e-01
-8.516999999999999460e+00 2.998600000000000065e+01 2.055600000000000094e+01 -2.109224999999999994e+01 8.552282047104702023e-02
-8.515700000000000713e+00 2.684600000000000009e+01 -1.958299999999999930e+00 5.863416000000000183e-01 -2.599467251771102605e-01
-8.514599999999999724e+00 2.663800000000000168e+01 8.721999999999999753e-01 1.624599999999999866e+01 -1.523603134657619540e-01
-8.505900000000000460e+00 3.257200000000000273e+01 2.100100000000000122e+01 -3.290730000000000044e-01 1.535813478264549392e-01
-8.505599999999999383e+00 3.116799999999999926e+01 -9.379200000000000870e+00 -3.197689000000000004e+00 -2.101197192581788220e-01
-8.505300000000000082e+00 2.329500000000000171e+01 2.744500000000000028e+01 -7.233962000000000003e+00 -1.485996467349911254e-01
-8.503299999999999415e+00 2.348400000000000176e+01 4.142999999999999794e+00 3.134192000000000089e+00 -8.396466307649755323e-02
-8.497999999999999332e+00 1.517800000000000082e+01 1.516399999999999970e+01 -1.641251000000000015e+00 -1.421334369719663704e-02
-8.497999999999999332e+00 1.517800000000000082e+01 1.621399999999999864e+01 -1.352357999999999949e+00 -5.212908416477487344e-02
-8.484999999999999432e+00 2.092299999999999827e+01 2.549299999999999855e+01 -1.392512999999999934e+01 -3.500000000000000333e-01
-8.478199999999999292e+00 2.145200000000000173e+01 2.417200000000000060e+01 3.932612999999999914e+00 -2.333816995052257481e-01
-8.478199999999999292e+00 2.256400000000000006e+01 2.255199999999999960e+01 2.447995000000000143e+00 -1.206837448590768747e-01
-8.472400000000000375e+00 2.773199999999999932e+01 -2.608099999999999863e+00 2.013328000000000007e+00 -2.624642568118010222e-01
-8.471000000000000085e+00 4.941400000000000148e+01 -4.793099999999999916e+00 -2.574498999999999871e+00 -2.837692413543236869e-01
-8.470700000000000784e+00 2.046499999999999986e+01 2.190299999999999869e+01 1.055000000000000071e+01 1.000443573953920390e-01
-8.468700000000000117e+00 3.751599999999999824e+01 1.650600000000000023e+01 9.708481000000000805e+00 1.459188012171932711e-02
-8.465500000000000469e+00 4.517499999999999716e+01 1.350699999999999967e+01 -1.193251999999999979e+00 -1.780021587209374423e-01
-8.462500000000000355e+00 4.727000000000000313e+01 -1.061500000000000021e+01 -9.167514999999999858e+00 -1.414777857921449902e-02
-8.461899999999999977e+00 3.402400000000000091e+01 2.199399999999999977e+01 -4.149804999999999744e-01 3.469267274695809755e-01
-8.457100000000000506e+00 2.464900000000000091e+01 2.821999999999999886e+01 -4.402281999999999584e+00 -1.811639752107195300e-01
-8.452400000000000801e+00 2.292000000000000171e+01 2.185600000000000165e+01 -4.377637000000000000e+00 -1.372066241400696218e-01
-8.452400000000000801e+00 2.292000000000000171e+01 2.325600000000000023e+01 8.008668999999999372e+00 -2.259779430811519330e-01
-8.452400000000000801e+00 2.378600000000000136e+01 2.185600000000000165e+01 -1.307080999999999982e+01 -1.593280629596819931e-01
-8.451399999999999579e+00 4.821200000000000330e+01 -1.273700000000000054e+00 6.568279999999999674e+00 -1.617200748988147641e-01
-8.445700000000000429e+00 2.150400000000000134e+01 2.254700000000000060e+01 8.088129000000000346e+00 -1.045418684556943534e-01
-8.445399999999999352e+00 2.461299999999999955e+01 2.259600000000000009e+01 -2.987640999999999991e+01 -2.603682207147316463e-01
-8.426999999999999602e+00 4.699900000000000233e+01 -1.138199999999999967e+01 1.205197000000000074e+00 -1.319832952378945101e-01
-8.426999999999999602e+00 4.699900000000000233e+01 -9.848300000000000054e+00 -2.281564000000000092e-01 -1.794300537179127977e-02
-8.426000000000000156e+00 3.940599999999999881e+01 1.294800000000000040e+01 3.635676999999999826e+00 -2.176424970113703394e-01
-8.425000000000000711e+00 3.889099999999999824e+01 1.558500000000000085e+01 2.473765000000000214e+00 2.849479630304492181e-02
-8.420500000000000540e+00 1.860200000000000031e+01 2.063599999999999923e+01 -1.090539000000000058e+01 1.082971184651715033e-02
-8.419999999999999929e+00 4.939399999999999835e+01 -2.277699999999999836e+00 -5.061335999999999835e+00 -2.332912323751919759e-01
-8.414500000000000313e+00 1.836899999999999977e+01 1.977899999999999991e+01 1.441750000000000087e+00 -1.219030059963321644e-01
-8.411400000000000432e+00 4.834300000000000352e+01 -6.548700000000000188e+00 1.837614999999999910e+01 1.703061447991215116e-02
-8.409200000000000230e+00 4.664500000000000313e+01 -9.190300000000000580e+00 2.442361000000000004e+01 -2.061387010308012024e-02
-8.407099999999999795e+00 4.085900000000000176e+01 -1.925900000000000034e+01 -4.070631999999999806e+00 -1.780778269038820194e-01
-8.404700000000000060e+00 3.370600000000000307e+01 2.282400000000000162e+01 7.920113999999999876e+00 3.411291506338275381e-01
-8.400700000000000500e+00 4.853099999999999881e+01 9.012499999999999289e+00 -4.696616999999999820e+00 5.865525589734356393e-02
-8.399300000000000210e+00 4.348599999999999710e+01 1.330199999999999960e+01 -3.028640999999999917e+00 -3.161533215833723376e-01
-8.387100000000000222e+00 2.430900000000000105e+01 2.189600000000000080e+01 -2.331210000000000093e+01 -1.721088301387910524e-01
-8.387100000000000222e+00 2.430900000000000105e+01 2.329599999999999937e+01 -4.848116000000000092e+00 -2.415962477464774771e-01
-8.384999999999999787e+00 2.189199999999999946e+01 2.207199999999999918e+01 7.367975000000000385e+00 -1.144278945528625774e-01
-8.382600000000000051e+00 4.973199999999999932e+01 -3.032300000000000217e+00 -2.487132000000000076e+01 -2.434722632939951281e-01
-8.380000000000000782e+00 4.570799999999999841e+01 -1.430700000000000038e+01 1.502895000000000003e+01 -2.494573481929126257e-01
-8.374000000000000554e+00 4.131499999999999773e+01 1.128899999999999970e+01 1.681203999999999965e+01 -1.474212613751784695e-01
-8.371900000000000119e+00 3.202199999999999847e+01 -1.196799999999999997e+01 -3.410193000000000030e+00 -6.273343847245504978e-02
-8.355999999999999872e+00 1.986599999999999966e+01 -4.219800000000000217e-01 1.866271000000000058e+01 -4.095095235295334035e-01
-8.355999999999999872e+00 2.141600000000000037e+01 -4.219800000000000217e-01 4.348188999999999638e+00 -4.081543360546263099e-01
-8.350899999999999324e+00 4.694800000000000040e+01 -8.490299999999999514e+00 1.504742000000000068e+01 5.860921366110623948e-02
-8.340999999999999304e+00 2.719900000000000162e+01 1.621399999999999952e+00 1.238799999999999990e+01 -1.959519605441592538e-01
-8.340999999999999304e+00 2.719900000000000162e+01 2.486600000000000144e+00 7.369026999999999994e+00 -2.495576783406582844e-01
-8.336700000000000443e+00 4.844700000000000273e+01 -2.174999999999999822e+00 -1.600863999999999976e+01 -1.935590965114445949e-01
-8.330000000000000071e+00 2.845899999999999963e+01 3.288600000000000279e+01 2.336324999999999985e+00 3.183255796451539554e-01
-8.323000000000000398e+00 4.639699999999999847e+01 -9.842000000000000526e+00 1.395715000000000039e+01 -6.831056286587975854e-03
-8.322300000000000253e+00 3.087600000000000122e+01 -8.708600000000000563e+00 -3.281702999999999815e+00 -2.142733875557492063e-01
-8.321999999999999176e+00 2.968599999999999994e+01 -7.892999999999999794e+00 -2.840800999999999910e+00 -2.377190742188159400e-01
-8.319300000000000139e+00 2.905399999999999849e+01 2.931599999999999895e+01 -6.697869999999999990e+00 5.114021404182731573e-02
-8.317899999999999849e+00 3.912299999999999756e+01 1.462800000000000011e+01 4.574154000000000053e+00 -2.304482476607558339e-01
-8.317899999999999849e+00 3.933200000000000074e+01 1.389199999999999946e+01 1.443195999999999923e+00 -2.246486456594169456e-01
-8.317600000000000549e+00 1.778200000000000003e+01 1.820400000000000063e+01 5.715283000000000335e+00 -1.518950143530685970e-01
-8.316800000000000637e+00 2.958099999999999952e+01 -5.328400000000000247e+00 -2.890595999999999943e+00 5.627202613926381158e-02
-8.316800000000000637e+00 2.978999999999999915e+01 -4.592299999999999827e+00 2.402397000000000116e+00 -8.788073497150943048e-02
-8.304399999999999338e+00 2.007799999999999940e+01 2.115899999999999892e+01 1.519562999999999953e+01 6.459600563845116494e-02
-8.304199999999999804e+00 2.672700000000000031e+01 2.794999999999999929e+01 -2.222201000000000093e+00 -2.076505033033169689e-01
-8.296099999999999142e+00 5.093200000000000216e+01 1.413100000000000023e+00 5.204508999999999830e+00 -3.314412348452331347e-01
-8.294299999999999784e+00 2.780300000000000082e+01 2.851300000000000168e+01 1.969539999999999902e-01 1.145832148807900408e-01
-8.294000000000000483e+00 2.200799999999999912e+01 2.336199999999999832e+01 1.249709999999999965e+01 -2.405897026717895293e-01
-8.291600000000000747e+00 3.343099999999999739e+01 2.423900000000000077e+01 -1.740212999999999965e+01 3.245109899733517045e-01
-8.291600000000000747e+00 3.343099999999999739e+01 2.514600000000000080e+01 -2.922561999999999927e+01 3.091180385221637544e-02
-8.280400000000000205e+00 2.255900000000000105e+01 3.251999999999999780e+00 1.554659999999999931e+00 -4.665090397861734045e-02
-8.278999999999999915e+00 4.957900000000000063e+01 5.636000000000000121e+00 9.452375999999999223e+00 -2.170149928749747770e-01
-8.275900000000000034e+00 2.165899999999999892e+01 2.549299999999999855e+01 -1.370996000000000059e+01 -3.499999999999999778e-01
-8.274499999999999744e+00 2.948900000000000077e+01 -3.678900000000000059e+00 4.849872000000000405e+00 -2.785110360498602722e-01
-8.273899999999999366e+00 5.093699999999999761e+01 2.989900000000000002e+00 -2.432713999999999821e+00 -3.332046567211574550e-01
-8.260999999999999233e+00 5.120000000000000284e+01 2.172000000000000153e+00 4.323747000000000007e+00 -3.312680414518131000e-01
-8.259999999999999787e+00 4.220600000000000307e+01 -1.826200000000000045e+01 -1.053519000000000005e+01 -1.898727681350431407e-01
-8.257600000000000051e+00 2.262000000000000099e+01 2.682100000000000151e+01 -5.016727000000000380e+00 -3.499999999999999778e-01
-8.253000000000000114e+00 3.844899999999999807e+01 -1.931500000000000128e+01 -2.692054000000000169e+00 -1.675494386444526251e-01
-8.243100000000000094e+00 2.045499999999999829e+01 5.926300000000000345e+00 1.051272999999999946e+01 -7.924136180772768656e-02
-8.243100000000000094e+00 2.045499999999999829e+01 7.326299999999999812e+00 2.279474000000000083e-02 -1.644914368677318495e-01
-8.237500000000000711e+00 3.314900000000000091e+01 2.621000000000000085e+01 -1.264800999999999931e+01 1.217525098357650215e-01
-8.236599999999999255e+00 2.223999999999999844e+01 2.417699999999999960e+01 1.393534999999999968e+01 -2.154411701897975817e-01
-8.234999999999999432e+00 4.975999999999999801e+01 4.690999999999999837e+00 -7.653991999999999685e+00 -2.155582308882790787e-01
-8.234999999999999432e+00 4.996900000000000119e+01 3.955000000000000071e+00 -2.337464999999999904e+00 -2.140157499784082484e-01
-8.233900000000000219e+00 2.219300000000000139e+01 2.635200000000000031e+01 -1.041522999999999932e+01 -3.499999999999999778e-01
-8.227800000000000225e+00 3.359100000000000108e+01 -1.284500000000000064e+01 -4.046130999999999922e+00 -8.010959288878569118e-02
-8.226399999999999935e+00 1.945200000000000173e+01 7.754199999999999982e+00 -1.864460999999999924e+00 -1.731906753498476947e-01
-8.217700000000000671e+00 3.147100000000000009e+01 2.811799999999999855e+01 -5.963733000000000395e+00 4.015702192396915227e-02
-8.215199999999999392e+00 1.830900000000000105e+01 3.729600000000000026e+00 1.365141000000000027e+01 -7.483586726197352657e-02
-8.210000000000000853e+00 1.841400000000000148e+01 1.165000000000000036e+00 7.968958999999999904e+00 -5.216567138930370412e-02
-8.201999999999999957e+00 2.619099999999999895e+01 -4.442200000000000315e-02 1.527107999999999954e+01 -1.128748713775632184e-01
-8.196300000000000807e+00 3.214200000000000301e+01 1.828399999999999892e+01 1.782145999999999830e+01 1.382364195357837222e-01
-8.191000000000000725e+00 2.632100000000000151e+01 -1.108300000000000063e+00 4.535948999999999565e+00 7.477576109419137307e-02
-8.184799999999999187e+00 2.075799999999999912e+01 6.626299999999999635e+00 3.424024000000000179e+00 -1.099678162149733823e-01
-8.182399999999999451e+00 3.511800000000000210e+01 -1.284200000000000053e+01 -4.415934000000000026e+00 -1.039507049405321987e-01
-8.179999999999999716e+00 3.327499999999999858e+01 2.146600000000000108e+01 -5.756961999999999913e-01 1.458436854383585723e-01
-8.178499999999999659e+00 4.029699999999999704e+01 1.177899999999999991e+01 9.869097999999999260e+00 -1.738450441930528279e-01
-8.178399999999999892e+00 4.963300000000000267e+01 5.858299999999999619e-01 1.840760999999999825e+01 -2.762710209295559660e-01
-8.178300000000000125e+00 2.193700000000000117e+01 2.487699999999999889e+01 6.883755999999999764e-01 -3.500000000000000333e-01
-8.176000000000000156e+00 3.717199999999999704e+01 -1.779400000000000048e+01 -4.751381000000000299e+00 -1.591963385239971440e-01
-8.173299999999999343e+00 1.570299999999999940e+01 1.431400000000000006e+01 -1.328937000000000035e+00 2.410539737078868511e-02
-8.173299999999999343e+00 1.570299999999999940e+01 1.706400000000000006e+01 -4.441877000000000186e-01 -1.103685183409959247e-01
-8.169000000000000483e+00 2.843199999999999861e+01 -2.666399999999999881e+00 2.351905999999999963e+01 -2.669451205301716645e-01
-8.167699999999999960e+00 3.265200000000000102e+01 -1.274600000000000044e+01 -4.293147000000000268e+00 -7.591742275585421085e-02
-8.165300000000000225e+00 2.402499999999999858e+01 3.859999999999999876e+00 2.629875000000000185e+00 3.402699660769940154e-02
-8.160000000000000142e+00 4.606499999999999773e+01 -1.348399999999999999e+01 4.114550999999999625e+00 -2.389024804746723574e-01
-8.150600000000000733e+00 3.289800000000000324e+01 2.280900000000000105e+01 -2.331306999999999796e+00 3.352992585915814949e-01
-8.142899999999999139e+00 2.578800000000000026e+01 3.264800000000000146e+00 4.063228999999999869e-01 -2.421294545787384123e-01
-8.139300000000000423e+00 3.353300000000000125e+01 1.615099999999999980e+01 1.521660000000000013e+00 1.145547481243754939e-01
-8.134199999999999875e+00 4.652499999999999858e+01 -1.061500000000000021e+01 -5.390002000000000404e-01 -4.762897431646455002e-03
-8.129099999999999326e+00 1.734400000000000119e+01 9.227899999999999991e+00 -5.872090000000000032e+00 -1.593973770757986519e-01
-8.126799999999999358e+00 4.738499999999999801e+01 -1.510099999999999998e+00 -1.181443999999999966e-01 -6.532720966823368780e-02
-8.122999999999999332e+00 4.348499999999999943e+01 -1.743199999999999861e+01 -3.266394000000000020e+00 -2.052332705202018770e-01
-8.117699999999999250e+00 2.232499999999999929e+01 2.137199999999999989e+01 -5.407055999999999862e+00 -1.360112324310067122e-01
-8.117699999999999250e+00 2.297700000000000031e+01 2.137199999999999989e+01 -9.910064000000000206e+00 -1.505982446278080478e-01
-8.117699999999999250e+00 2.384299999999999997e+01 2.137199999999999989e+01 -1.198550999999999966e+01 -1.726169136974107232e-01
-8.114000000000000767e+00 4.566100000000000136e+01 -9.842000000000000526e+00 1.109667999999999921e+01 8.310862855823135040e-03
-8.112299999999999400e+00 1.580300000000000082e+01 1.105499999999999972e+01 -4.979759999999999742e+00 -6.094446323998840842e-02
-8.111599999999999255e+00 1.611499999999999844e+01 9.948000000000000398e+00 -7.211632999999999960e+00 -1.016461765617482083e-01
-8.110099999999999199e+00 4.291799999999999926e+01 1.260299999999999976e+01 -7.489417000000000435e+00 -3.006855171541656380e-01
-8.106700000000000017e+00 4.748299999999999699e+01 1.334800000000000075e+01 1.479554000000000080e+01 -1.873076268637946518e-01
-8.104599999999999582e+00 3.322099999999999653e+01 2.205099999999999838e+01 -4.437160999999999883e-02 3.410772059106262910e-01
-8.100300000000000722e+00 3.666599999999999682e+01 1.643499999999999872e+01 7.123333999999999833e+00 3.092188713260418664e-02
-8.100300000000000722e+00 3.836599999999999966e+01 1.643499999999999872e+01 2.453222999999999931e+00 2.109260329787605859e-02
-8.097300000000000608e+00 1.849399999999999977e+01 7.833999999999999631e+00 -2.913578999999999919e+00 -1.710746978183081690e-01
-8.096999999999999531e+00 4.964800000000000324e+01 7.087299999999999933e+00 -5.941161000000000136e+00 -2.250477778623924119e-01
-8.096999999999999531e+00 4.964800000000000324e+01 8.026699999999999946e+00 -3.515306999999999960e+01 -6.428713112168139843e-02
-8.096700000000000230e+00 3.013899999999999935e+01 2.079200000000000159e+01 -1.647100999999999971e+01 6.832597846077673176e-02
-8.096700000000000230e+00 3.132999999999999829e+01 2.145599999999999952e+01 -1.219688999999999979e+01 1.303577613518889788e-01
-8.095900000000000318e+00 4.953699999999999903e+01 6.290000000000000036e+00 1.796926000000000023e+00 -2.235424667741635896e-01
-8.095499999999999474e+00 4.640100000000000335e+01 -1.270899999999999963e+01 -1.008474000000000004e+01 -1.386514527254699425e-01
-8.093299999999999272e+00 2.304400000000000048e+01 3.483999999999999986e+00 5.476799999999999891e+00 -5.887365845414747195e-02
-8.092299999999999827e+00 3.320100000000000051e+01 2.350900000000000034e+01 -3.351411000000000140e+00 3.280364112064458881e-01
-8.084400000000000475e+00 3.047700000000000031e+01 1.868700000000000117e+01 -1.899984999999999857e+01 1.332882961567611324e-01
-8.083999999999999631e+00 2.526000000000000156e+01 2.814099999999999824e+01 -1.014818999999999960e+01 -1.902053536953466906e-01
-8.080600000000000449e+00 1.725300000000000011e+01 1.765599999999999881e+01 3.566708999999999907e+00 -1.230830774953185075e-01
-8.076100000000000279e+00 2.756500000000000128e+01 3.288600000000000279e+01 2.479989999999999917e+00 3.197349780818191101e-01
-8.076100000000000279e+00 2.935300000000000153e+01 3.288600000000000279e+01 2.604814000000000185e+00 3.166569326664523398e-01
-8.074999999999999289e+00 1.914499999999999957e+01 4.975299999999999834e+00 4.065011000000000152e+00 -8.471713627751577269e-02
-8.072900000000000631e+00 3.534000000000000341e+01 1.581099999999999994e+01 -9.505281000000000091e+00 1.220352906532540666e-01
-8.069900000000000517e+00 4.424600000000000222e+01 1.336500000000000021e+01 -1.343652999999999942e+01 -3.310416113457907983e-01
-8.068599999999999994e+00 2.483099999999999952e+01 3.679800000000000182e+00 1.337061999999999973e+00 -1.507707418316697225e-02
-8.068500000000000227e+00 4.768800000000000239e+01 -2.210100000000000176e+00 -1.373362999999999978e+01 -1.968836332030868275e-01
-8.059599999999999653e+00 2.725799999999999912e+01 -2.115400000000000169e+00 2.164937999999999807e+00 -2.642068926634010273e-01
-8.055699999999999861e+00 4.596399999999999864e+01 -9.141999999999999460e+00 1.721734000000000009e+01 -1.171739132141176934e-02
-8.046099999999999142e+00 2.271300000000000097e+01 2.387699999999999889e+01 2.534181999999999935e+00 -2.219764562778936967e-01
-8.042699999999999960e+00 4.778600000000000136e+01 -7.249499999999999833e-01 5.943076999999999721e+00 -2.544320167715195535e-01
-8.040699999999999292e+00 2.961199999999999832e+01 2.916199999999999903e+01 -1.042510000000000048e+01 3.232855529896345309e-02
-8.039899999999999380e+00 1.876300000000000168e+01 4.217600000000000016e+00 2.017260999999999882e+01 -7.471632434708855297e-02
-8.037499999999999645e+00 4.499399999999999977e+01 -1.669699999999999918e+01 2.428233999999999781e+00 -2.151863896526566011e-01
-8.030300000000000438e+00 2.098999999999999844e+01 2.116799999999999926e+01 2.083736999999999995e+01 8.283356747374721885e-02
-8.012999999999999901e+00 2.212600000000000122e+01 2.552000000000000046e+00 1.531598999999999933e+01 -5.041608337634048004e-02
-8.011200000000000543e+00 3.660199999999999676e+01 -1.382600000000000051e+01 -2.691304999999999836e+00 -1.129408523674184373e-01
-8.008100000000000662e+00 4.530100000000000193e+01 -1.573199999999999932e+01 8.269263999999999726e+00 1.738755134587364332e-02
-8.008100000000000662e+00 4.530100000000000193e+01 -1.479599999999999937e+01 1.647216999999999842e+01 1.334239741987716665e-02
-8.005300000000000082e+00 2.793400000000000105e+01 3.203600000000000136e+01 5.533002999999999894e+00 3.227201555878308481e-01
-8.005300000000000082e+00 2.793400000000000105e+01 3.373599999999999710e+01 1.759973999999999927e+00 3.169509251601296818e-01
-8.005300000000000082e+00 2.898400000000000176e+01 3.203600000000000136e+01 4.573719999999999786e+00 3.198725632945423336e-01
-8.005300000000000082e+00 2.898400000000000176e+01 3.373599999999999710e+01 1.944858999999999893e+00 3.164430403398404978e-01
-8.004300000000000637e+00 3.080499999999999972e+01 2.839300000000000068e+01 -1.909211000000000169e+01 2.636151868399074644e-02
