2.442099999999999937e+01 3.365400000000000347e+01 -1.380000000000000071e+01 -3.988755999999999968e+00 -3.696412556293869889e-01
2.442200000000000060e+01 1.236200000000000010e+01 2.488300000000000178e+00 4.707880999999999716e+01 3.104993495200950582e-01
2.442200000000000060e+01 1.236200000000000010e+01 3.353499999999999925e+00 7.820617000000000374e+00 3.106363999319680658e-01
2.442299999999999827e+01 2.076999999999999957e+01 -4.536599999999999966e+00 8.156871000000000649e+00 9.906824492277382932e-02
2.442299999999999827e+01 1.291799999999999926e+01 -5.524000000000000021e+00 -9.305813000000000557e+00 -1.686792189544851772e-01
2.442299999999999827e+01 3.574300000000000210e+01 -5.309700000000000308e+00 -2.478697999999999979e+01 -1.243196745354199495e-01
2.442699999999999960e+01 3.239699999999999847e+01 -1.211100000000000065e+01 -3.129087999999999870e+00 -3.684134926964469647e-01
2.442800000000000082e+01 4.189699999999999847e+01 6.393600000000000172e+00 6.001146000000000313e+00 1.388913812273788184e-01
2.442800000000000082e+01 2.453300000000000125e+01 1.732400000000000162e+01 -2.129085999999999856e+01 1.100646859075466305e-01
2.443199999999999861e+01 1.172400000000000020e+01 9.736499999999999488e+00 -4.330415000000000347e+00 1.395467225486516638e-01
2.443199999999999861e+01 1.930199999999999960e+01 -5.446500000000000341e+00 -8.077448999999999657e+00 -1.822945919395456971e-01
2.443299999999999983e+01 2.500000000000000000e+01 3.096099999999999852e+00 -2.241941999999999879e+01 1.440734858201280812e-02
2.443900000000000006e+01 1.425900000000000034e+01 -1.729999999999999982e+00 1.354451999999999989e+00 6.559476677296091629e-02
2.444300000000000139e+01 3.209799999999999986e+00 -3.298000000000000043e+00 -6.490269999999999762e+00 -5.022195424278926013e-02
2.444500000000000028e+01 2.526300000000000168e+01 -5.652000000000000135e+00 5.271633999999999709e+00 -1.095718525907148216e-01
2.444500000000000028e+01 2.735099999999999909e+01 6.880700000000000038e+00 -1.419924999999999926e+01 3.095021140515636926e-01
2.445200000000000173e+01 3.859400000000000119e+01 -1.412100000000000044e+01 -4.955030999999999963e+00 -1.104478785716299649e-01
2.445400000000000063e+01 4.573400000000000176e+01 3.936300000000000132e+00 -4.611587000000000103e+00 1.424735232936001073e-01
2.445599999999999952e+01 1.454800000000000004e+01 4.079600000000000115e+00 -1.073513999999999946e+01 3.080972249458276413e-01
2.446099999999999852e+01 2.668299999999999983e+01 1.384399999999999942e+01 -1.276579000000000086e+01 1.091564381208142143e-01
2.446199999999999974e+01 5.668999999999999595e+00 -1.842100000000000071e+00 -1.468154999999999966e+01 -6.014951138025638466e-02
2.446399999999999864e+01 2.789900000000000091e+01 7.730900000000000105e+00 -1.192622000000000071e+01 3.081762948477395070e-01
2.446399999999999864e+01 2.876399999999999935e+01 6.330899999999999750e+00 1.997022000000000119e+01 5.767212968204752516e-02
2.446399999999999864e+01 2.876399999999999935e+01 7.730900000000000105e+00 2.706163999999999792e+00 5.359512265484409760e-02
2.446799999999999997e+01 1.839099999999999824e+01 1.790300000000000002e+00 -6.774404999999999788e+00 2.954007931791453045e-01
2.446999999999999886e+01 1.651399999999999935e+01 7.759999999999999787e+00 -6.934249000000000329e+00 3.177898926901998045e-01
2.447299999999999898e+01 1.253600000000000048e+00 5.655599999999999516e-01 -6.340834000000000081e+00 -2.995590728732293595e-01
2.447299999999999898e+01 3.663300000000000267e+01 -4.915199999999999569e+00 1.185742000000000074e+00 -1.278910384807837863e-01
2.447500000000000142e+01 1.457399999999999984e+01 9.889699999999999491e+00 -2.915042000000000133e+00 2.073308776628451366e-01
2.447700000000000031e+01 2.338800000000000168e+01 3.892999999999999794e+00 -1.665919999999999845e+01 -1.876586691787440059e-02
2.448199999999999932e+01 3.641799999999999926e+01 -1.028800000000000026e+01 7.983189000000000313e+00 -1.101117764604262750e-01
2.448799999999999955e+01 3.125799999999999912e+01 -1.303400000000000070e+01 -5.680742999999999654e+00 -3.680981670826962704e-01
2.449200000000000088e+01 3.402300000000000324e+01 -1.465000000000000036e+01 1.921964000000000006e+00 -3.699561771245961639e-01
2.449200000000000088e+01 3.507300000000000040e+01 -1.465000000000000036e+01 -3.217255000000000198e+00 -3.703565188645913664e-01
2.449599999999999866e+01 2.379299999999999926e+01 -5.051199999999999690e+00 -1.540051999999999977e+00 2.369494470802334385e-01
2.449699999999999989e+01 2.984499999999999886e+01 1.430799999999999983e+01 -2.111822000000000088e+01 3.066801873212618990e-01
2.449899999999999878e+01 2.941000000000000014e+01 -5.973799999999999777e+00 -2.927920999999999907e+01 -1.234319574077065162e-01
2.449899999999999878e+01 2.245499999999999829e+01 1.792899999999999849e+01 -1.556560999999999950e+01 1.092061458078358305e-01
2.450100000000000122e+01 3.513199999999999878e+00 -3.998000000000000220e+00 -1.119069000000000003e+01 -3.249687637842154642e-01
2.450199999999999889e+01 1.092399999999999949e+01 7.120400000000000063e+00 5.486730999999999803e+00 3.172666750307687744e-01
2.450400000000000134e+01 2.765399999999999991e+01 6.180699999999999861e+00 -8.905393999999999366e+00 6.127559388288661424e-02
2.450499999999999901e+01 1.552599999999999980e+01 3.230500000000000149e+00 -1.003585999999999956e+01 3.025702965645730713e-01
2.450600000000000023e+01 2.161899999999999977e+01 6.038400000000000434e-01 -2.541200999999999866e+01 2.984934383777081840e-02
2.450600000000000023e+01 2.135699999999999932e+01 -2.108200000000000074e+01 -2.600743999999999900e+01 -2.057996915206671829e-01
2.450600000000000023e+01 3.598400000000000176e+01 1.257000000000000028e+01 2.898639999999999972e+01 1.579148042434555532e-01
2.451000000000000156e+01 2.577199999999999847e+01 1.533699999999999974e+01 -9.430061999999999500e+00 1.094761237952416588e-01
2.451099999999999923e+01 2.434700000000000131e+01 5.763600000000000279e+00 -3.519713999999999743e+01 -1.973073224878426832e-02
2.451200000000000045e+01 2.842999999999999972e+01 -1.335099999999999953e+00 -1.545302000000000042e+01 1.669346157839401712e-01
2.451300000000000168e+01 1.618499999999999872e+01 -9.705899999999999750e+00 -1.878106000000000009e+01 -1.620791260843935655e-01
2.451500000000000057e+01 9.088900000000000645e+00 -4.059300000000000352e+00 1.229855000000000054e+01 -1.705230393165425296e-01
2.451699999999999946e+01 3.033200000000000074e+01 -4.907099999999999795e+00 -3.841713000000000022e+01 -6.925692166490901580e-02
2.451699999999999946e+01 3.033200000000000074e+01 -4.041900000000000048e+00 -3.272218000000000160e+01 -7.245424342524610373e-02
2.451800000000000068e+01 2.361799999999999855e+01 -1.723499999999999943e+01 -1.683812999999999960e+01 -1.937529814873353018e-01
2.451800000000000068e+01 2.456599999999999895e+01 -1.723499999999999943e+01 -1.150102000000000046e+01 -1.915485555903784776e-01
2.451899999999999835e+01 2.551399999999999935e+01 1.454400000000000048e+01 -1.069824999999999982e+01 1.086318763893695249e-01
2.451999999999999957e+01 4.428799999999999670e+01 9.092299999999999827e-01 -9.489072000000000173e+00 1.486583149480261712e-01
2.452100000000000080e+01 3.573299999999999699e+01 1.324200000000000088e+01 1.426789999999999914e+01 1.591840344890908532e-01
2.452100000000000080e+01 3.573299999999999699e+01 1.464199999999999946e+01 -2.494507000000000119e+01 1.612414237919069238e-01
2.452299999999999969e+01 8.133300000000000196e+00 -2.294700000000000184e+00 -2.597229000000000099e+01 -1.827087886104680758e-01
2.453300000000000125e+01 1.684299999999999997e+01 8.519999999999999574e+00 -2.020140999999999920e+01 3.191361123891661711e-01
2.453500000000000014e+01 1.530899999999999928e+01 7.240300000000000402e+00 -6.771512999999999671e+00 1.978317138655701912e-01
2.454899999999999949e+01 1.356499999999999950e+01 1.291299999999999892e+00 -4.672328000000000259e+00 3.045322464064554313e-01
2.455000000000000071e+01 1.193299999999999983e+01 8.997099999999999653e+00 1.915222000000000036e-01 1.390837939043985672e-01
2.455000000000000071e+01 4.650000000000000355e+00 7.887299999999999756e+00 -6.926257999999999804e+00 -6.858185498550681269e-02
2.455099999999999838e+01 3.446000000000000085e+01 1.519500000000000028e+01 -1.767614000000000019e+01 1.630599328978736551e-01
2.455199999999999960e+01 2.695599999999999952e+01 1.464799999999999969e+01 -4.216673000000000116e+00 1.098379998280021724e-01
2.455399999999999849e+01 2.248499999999999943e+01 -1.799299999999999855e+01 -2.156016999999999939e+01 -1.983163761015912796e-01
2.455799999999999983e+01 1.746000000000000085e+01 -1.611700000000000088e+01 8.047549000000000508e-01 -1.774599373154390203e-01
2.456200000000000117e+01 3.907999999999999918e+00 -8.349700000000000344e+00 3.191791999999999963e+00 -3.213452439150025208e-01
2.456200000000000117e+01 5.427999999999999936e+00 -8.349700000000000344e+00 1.720299999999999940e+01 -3.162663338756906972e-01
2.457000000000000028e+01 3.735300000000000153e+01 9.846999999999999531e+00 -2.453089999999999904e+01 5.174671901555467912e-02
2.457400000000000162e+01 1.944900000000000162e+01 1.203599999999999959e+01 9.247676999999999481e+00 1.304090536440742909e-01
2.457600000000000051e+01 1.695899999999999963e+01 -1.488299999999999912e+01 4.183818999999999733e+00 -1.746599338061049222e-01
2.457900000000000063e+01 3.542999999999999972e+01 1.394200000000000017e+01 4.912673999999999985e+00 1.604670314407115606e-01
2.457999999999999829e+01 3.860799999999999699e+01 -8.278700000000000614e+00 -1.870279000000000025e+01 -1.198155880029152243e-01
2.458200000000000074e+01 1.242699999999999960e+01 -6.511999999999999567e+00 -9.666278999999999400e+00 -1.486370109278396523e-01
2.458200000000000074e+01 2.216199999999999903e+01 1.868599999999999994e+01 -1.801763000000000048e+01 1.094522602501722119e-01
2.458299999999999841e+01 1.448900000000000077e+01 1.088000000000000078e+01 9.597065000000000623e+00 2.086767853537533912e-01
2.458399999999999963e+01 1.078700000000000081e+01 -1.551800000000000068e+00 -1.069173999999999936e+01 -2.007411792323606503e-01
2.458599999999999852e+01 3.838600000000000279e+01 6.965099999999999625e+00 4.119439999999999991e+00 5.455305579257220538e-02
2.458699999999999974e+01 3.713799999999999812e+01 1.065600000000000058e+01 -2.021706000000000003e+01 5.143640732164709434e-02
2.458899999999999864e+01 3.280499999999999972e+01 -6.671599999999999753e+00 -2.385364999999999824e+01 -1.056807657827629338e-01
2.458899999999999864e+01 3.280499999999999972e+01 -5.806400000000000006e+00 -3.540908000000000300e+01 -9.710705838321025130e-02
2.459100000000000108e+01 1.772599999999999953e+00 -1.573799999999999921e-01 -1.226942999999999984e+01 -2.999551925567618405e-01
2.459199999999999875e+01 1.967699999999999960e+01 -4.831000000000000405e+00 -5.692828000000000443e+00 -2.006810481619163422e-01
2.459199999999999875e+01 3.281799999999999784e+01 1.363100000000000023e+01 -1.300325999999999915e+01 1.626308374511983845e-01
2.459299999999999997e+01 3.336200000000000188e+01 -4.812599999999999767e+00 -3.964068999999999932e+01 -1.057456930590629368e-01
2.459299999999999997e+01 3.422800000000000153e+01 -4.812599999999999767e+00 -3.503997999999999990e+01 -1.213732224453066139e-01
2.459600000000000009e+01 4.601100000000000279e+01 -8.595099999999999962e-02 -1.408893999999999913e+01 1.494310921654793400e-01
2.459700000000000131e+01 4.163000000000000256e+01 -2.951099999999999834e+00 7.806132000000000071e-01 -1.377550989823818905e-01
2.459900000000000020e+01 9.293300000000000338e+00 -1.401000000000000023e+00 -1.215799999999999947e+01 -1.930050570921061359e-01
2.460000000000000142e+01 3.573300000000000143e+00 -5.801999999999999602e+00 -1.072831000000000046e+01 -3.234418655039951740e-01
2.460000000000000142e+01 3.573300000000000143e+00 -4.936700000000000088e+00 -8.331913000000000125e+00 -3.239468066036722549e-01
2.460200000000000031e+01 4.055799999999999983e+01 6.393099999999999561e+00 6.811599000000000181e+00 -1.563401267181438181e-01
2.460300000000000153e+01 3.507900000000000063e+01 -1.036200000000000010e+01 1.011478999999999928e+01 -1.056439514983186223e-01
2.461100000000000065e+01 2.400600000000000023e+01 3.408999999999999808e+00 -2.282680999999999827e+01 -1.409884531480705503e-03
2.461100000000000065e+01 4.562599999999999767e+01 6.828299999999999592e+00 3.855027999999999899e+00 1.258415990669431994e-01
2.461199999999999832e+01 4.405799999999999983e+01 1.531800000000000050e+00 -6.211088000000000164e+00 1.475869803993438700e-01
2.461700000000000088e+01 2.086199999999999832e+01 1.945299999999999940e+01 -1.485392000000000046e+01 1.093081535709537616e-01
2.461799999999999855e+01 2.749599999999999866e+01 -1.541699999999999982e+01 -1.462941000000000003e+01 -4.028449941660747768e-01
2.461899999999999977e+01 6.700499999999999901e+00 -7.383799999999999919e+00 -1.075441000000000003e+01 -3.103121044855728372e-01
2.461899999999999977e+01 8.100500000000000256e+00 -7.383799999999999919e+00 -5.571754000000000318e+00 -1.438515201755057871e-01
2.462099999999999866e+01 3.652499999999999858e+00 5.309099999999999930e+00 -1.614264999999999972e+01 -1.730476139770006916e-01
2.462099999999999866e+01 3.861600000000000144e+00 6.045099999999999696e+00 -1.725350999999999857e+01 -1.754644959349386246e-01
2.462099999999999866e+01 4.288000000000000256e+01 -8.045099999999999696e+00 6.129101000000000354e+00 -1.260762961510402680e-01
2.462500000000000000e+01 9.340000000000000524e-01 4.497700000000000031e+00 -1.663670000000000115e+01 -1.633672364104417629e-01
2.462500000000000000e+01 1.971900000000000119e+01 1.278500000000000014e+01 -2.002648000000000206e+00 1.309038610521162105e-01
2.462600000000000122e+01 3.612299999999999756e+01 1.514700000000000024e+01 -1.617528000000000077e+01 1.615719074709280334e-01
2.462699999999999889e+01 3.744700000000000273e+01 8.945399999999999352e+00 -5.360676999999999914e+00 5.250196630038062029e-02
2.462800000000000011e+01 2.002199999999999847e+01 6.800199999999999578e-01 -1.306686999999999976e+01 -2.935474864383761512e-02
2.463100000000000023e+01 4.344100000000000250e+01 -5.223600000000000243e+00 3.335042999999999758e-01 -1.323518538928380450e-01
2.464099999999999824e+01 1.117600000000000016e+01 -4.593700000000000117e+00 -5.992627999999999844e+00 -1.726133165868633523e-01
2.464099999999999824e+01 2.730999999999999872e+01 -6.036900000000000155e+00 -2.281118000000000023e+01 -1.145198798026795528e-01
2.464699999999999847e+01 4.281799999999999784e+01 6.992499999999999716e+00 5.092242999999999853e+00 1.382678839552042849e-01
2.464699999999999847e+01 4.413000000000000256e+01 2.319599999999999884e+00 -5.195009999999999906e+00 1.459968477633434847e-01
2.464699999999999847e+01 2.404500000000000171e+01 -1.280799999999999994e-01 -1.367343999999999937e+01 1.700041118066588919e-01
2.464999999999999858e+01 1.598600000000000065e+01 -1.041499999999999915e+01 -1.269679000000000002e+01 -1.612835763565475256e-01
2.465099999999999980e+01 4.361200000000000188e+01 -3.441899999999999959e+00 -4.224253000000000036e+00 -1.362433984643243445e-01
2.465299999999999869e+01 3.398899999999999721e+01 -9.513099999999999667e+00 1.748482999999999876e+01 -1.030543942403623070e-01
2.465399999999999991e+01 3.274399999999999977e+01 -7.365999999999999659e+00 -3.132132000000000005e+01 -1.026110923246970064e-01
2.465399999999999991e+01 3.295300000000000296e+01 -8.102100000000000080e+00 6.437778999999999918e+00 -1.015551565262464012e-01
2.465500000000000114e+01 4.255199999999999960e+01 -1.241699999999999982e+01 9.313044999999999796e-01 -1.185402568188150541e-01
2.465500000000000114e+01 4.425099999999999767e+01 7.749100000000000321e+00 4.178663000000000238e+00 1.374312346836494003e-01
2.465500000000000114e+01 2.114300000000000068e+00 -1.844600000000000017e+00 -5.725653999999999577e+00 -3.012133992808060379e-01
2.465599999999999881e+01 1.963200000000000145e+01 1.769000000000000128e+01 -6.566155000000000186e+00 1.355039113868688749e-01
2.465599999999999881e+01 1.963200000000000145e+01 1.862999999999999901e+01 -7.716670999999999836e+00 -6.033438279799470394e-03
2.465700000000000003e+01 4.310699999999999932e+01 -4.145500000000000185e+00 -2.453662000000000010e+00 -1.346517132796848648e-01
2.465800000000000125e+01 1.303299999999999947e+01 1.928700000000000081e+00 -1.413785000000000025e+01 3.071509515341814822e-01
2.466000000000000014e+01 1.801300000000000168e+01 9.111299999999999955e+00 -1.462922000000000011e+01 3.211502848693497669e-01
2.467599999999999838e+01 2.211799999999999855e+01 4.879999999999999893e-01 -2.015305000000000035e+01 6.025723691466598059e-02
2.467599999999999838e+01 2.298400000000000176e+01 4.879999999999999893e-01 -1.491790999999999912e+01 1.019540546767897238e-01
2.467800000000000082e+01 1.110100000000000087e+01 -7.174699999999999633e+00 -1.001509000000000071e+01 -1.404230850096796213e-01
2.467899999999999849e+01 1.577800000000000047e+01 7.759999999999999787e+00 -9.142300999999999789e+00 1.981888681659808582e-01
2.467899999999999849e+01 2.400100000000000122e+01 5.033000000000000362e+00 -2.189020999999999972e+01 -1.677871460443944654e-02
2.468900000000000006e+01 2.123000000000000043e+01 1.245799999999999963e-01 -1.472245999999999988e+01 2.239776627396115535e-02
2.468900000000000006e+01 3.485399999999999920e+01 1.590700000000000003e+01 -1.143274000000000079e+01 1.635007408345931501e-01
2.468900000000000006e+01 3.579399999999999693e+01 1.590700000000000003e+01 -2.357417999999999836e+01 1.627212170090967525e-01
2.469200000000000017e+01 3.479099999999999682e+01 -5.101600000000000357e+00 -2.211536999999999864e+01 -1.213532311129352087e-01
2.469600000000000151e+01 2.419700000000000184e+00 -2.538300000000000001e+00 -5.222336999999999563e+00 -3.017731310553470325e-01
2.470100000000000051e+01 1.742200000000000060e+01 -1.807799999999999940e+01 -8.254400999999999655e+00 -1.786393865268688930e-01
2.470100000000000051e+01 1.753999999999999915e+01 -1.723100000000000165e+01 -6.785898999999999681e+00 -1.782643536124760009e-01
2.470100000000000051e+01 1.767599999999999838e+01 -1.897200000000000131e+01 -8.189828000000000330e+00 -1.798238547817553323e-01
2.470400000000000063e+01 2.557199999999999918e+01 -1.770799999999999874e-01 -2.106532999999999944e+01 -1.834413027412686303e-01
2.471199999999999974e+01 1.680900000000000105e+01 2.688499999999999890e+00 -1.084237000000000073e+01 2.997302006798426843e-01
2.471600000000000108e+01 7.294999999999999929e+00 7.982300000000000395e+00 -1.676574999999999926e+00 -7.679648941604970414e-02
2.471699999999999875e+01 2.531299999999999883e+01 1.649599999999999866e+01 -1.141648999999999958e+01 1.096636601230015495e-01
2.471799999999999997e+01 2.802799999999999869e+01 -1.494299999999999962e+01 -8.520322000000000173e+00 -4.032108626290789033e-01
2.471900000000000119e+01 2.650799999999999912e+01 1.533699999999999974e+01 -1.445070000000000077e+00 1.097171773659065541e-01
2.472100000000000009e+01 2.983399999999999963e+01 -2.267999999999999794e+00 -1.881868000000000052e+01 1.489792688302424284e-01
2.472100000000000009e+01 3.004299999999999926e+01 -3.004000000000000004e+00 -1.879932000000000158e+01 1.508345987924725740e-01
2.472200000000000131e+01 2.847899999999999920e+01 -6.034500000000000419e+00 -4.269346000000000174e+01 -1.196198303029850918e-01
2.472800000000000153e+01 2.625000000000000000e+01 1.454400000000000048e+01 -6.946246999999999616e+00 1.089214180658343023e-01
2.473000000000000043e+01 3.126699999999999946e+01 1.352599999999999980e+01 -3.681725000000000136e+01 1.645195633287851733e-01
2.473300000000000054e+01 8.843999999999999417e+00 7.728100000000000414e+00 -4.177140999999999771e+00 2.065416773621168711e-01
2.473600000000000065e+01 2.953399999999999892e+01 -1.484699999999999953e+01 -5.864987000000000172e+00 -3.679987789907225304e-01
2.473699999999999832e+01 3.772500000000000142e+01 8.208600000000000563e+00 -1.497392999999999974e+00 5.369014610815882327e-02
2.473799999999999955e+01 2.369699999999999918e+01 4.333000000000000185e+00 -2.116581000000000046e+01 -1.380370838818336873e-02
2.473900000000000077e+01 1.192699999999999960e+01 1.270899999999999963e+01 1.373849000000000053e+01 1.402976017965263389e-01
2.473900000000000077e+01 3.764200000000000301e+01 -1.435399999999999920e+01 -5.261692000000000036e+00 -1.080650922116798973e-01
2.473999999999999844e+01 2.873300000000000054e+01 5.868000000000000327e+00 -4.784563999999999595e+00 6.310832824399179031e-02
2.474099999999999966e+01 2.581299999999999883e+01 -1.703600000000000136e+01 -1.009509000000000079e+01 -4.015647784495638417e-01
2.474399999999999977e+01 4.526400000000000290e+01 3.176299999999999901e+00 -8.304515999999999565e+00 1.440780616188688801e-01
2.474500000000000099e+01 2.406599999999999895e+01 1.788800000000000168e+01 -1.332481000000000082e-01 1.097575299909762797e-01
2.474800000000000111e+01 1.365499999999999936e+01 -5.524000000000000021e+00 -1.074008000000000074e+01 -1.661462271469194563e-01
2.474899999999999878e+01 4.339600000000000080e+01 -5.989300000000000068e+00 4.950817999999999941e+00 -1.304706995160650751e-01
2.475100000000000122e+01 1.238700000000000045e+01 -4.664900000000000269e+00 -4.690121000000000429e+00 -1.772844718135901110e-01
2.475600000000000023e+01 4.205899999999999750e+01 -1.320199999999999996e+01 -3.395464000000000260e-01 -1.168381648651751065e-01
2.475900000000000034e+01 1.384800000000000075e+01 4.137900000000000134e+00 -1.571885999999999939e+01 3.087937531829482163e-01
2.476500000000000057e+01 1.980999999999999872e+01 1.405799999999999983e+01 -9.552008999999999972e+00 1.321925280476157483e-01
2.478000000000000114e+01 3.090899999999999892e+01 -1.392600000000000016e+01 -6.041381000000000334e+00 -3.681051350725240146e-01
2.478099999999999881e+01 3.586699999999999733e+01 -1.474200000000000088e+01 -4.366159999999999819e+00 -1.039771278584648295e-01
2.478300000000000125e+01 1.055199999999999960e+01 1.073799999999999955e+01 -3.741226999999999858e+00 1.397196014037655754e-01
2.478300000000000125e+01 1.055199999999999960e+01 1.178800000000000026e+01 -2.512252000000000152e+00 1.400496591561133652e-01
2.478399999999999892e+01 4.120100000000000051e+01 6.367799999999999905e+00 7.260499000000000258e+00 -1.547687755681190214e-01
2.478600000000000136e+01 4.072800000000000153e+01 -1.362599999999999945e+01 -5.845404000000000266e+00 -1.143478294908954196e-01
2.478699999999999903e+01 3.914000000000000057e+01 -1.371199999999999974e+01 -7.683329999999999771e+00 -1.114876346806245727e-01
2.479400000000000048e+01 1.798199999999999932e+01 -8.242300000000000182e+00 -1.078861000000000026e+01 2.031796941946501234e-01
2.479599999999999937e+01 1.379899999999999949e+01 -2.356300000000000061e+00 -5.719314999999999927e+00 9.802037936939997365e-02
2.479599999999999937e+01 2.182700000000000173e+01 -2.032199999999999918e+01 -3.835148000000000224e+01 -2.032182718321002279e-01
2.479599999999999937e+01 2.182700000000000173e+01 -1.938200000000000145e+01 -8.907049999999999557e+01 -2.018683765767688987e-01
2.479599999999999937e+01 2.182700000000000173e+01 -1.851699999999999946e+01 -3.494048999999999694e+01 -2.004478098993835167e-01
2.479700000000000060e+01 2.173000000000000043e+01 -4.621000000000000441e+00 2.946846000000000032e+01 1.503481053176637938e-01
2.480600000000000094e+01 3.077799999999999869e+01 1.384500000000000064e+01 -6.900099000000000160e+01 3.057453190941673560e-01
2.480799999999999983e+01 1.535399999999999920e+01 8.664500000000000313e+00 -3.001968999999999888e+00 2.015642457874149418e-01
2.480999999999999872e+01 3.799799999999999756e+01 -4.765100000000000335e+00 -2.894019999999999815e+00 -1.294349056545032461e-01
2.480999999999999872e+01 3.918900000000000006e+01 -5.429000000000000270e+00 2.595610000000000195e+00 -1.285984087490297523e-01
2.480999999999999872e+01 3.939800000000000324e+01 -6.165099999999999802e+00 5.403553999999999746e+00 -1.265645739757388644e-01
2.481099999999999994e+01 1.332600000000000051e+01 -6.283999999999999808e+00 -9.235371000000000663e+00 -1.501298617335701802e-01
2.481099999999999994e+01 1.332600000000000051e+01 -4.764000000000000234e+00 -1.237881999999999927e+01 1.985296524757299286e-01
2.481099999999999994e+01 4.659400000000000119e+01 -5.515700000000000047e-01 -8.887700000000000600e+00 1.499558150027580639e-01
2.481400000000000006e+01 2.726000000000000156e+01 -6.186800000000000077e-01 -1.013696999999999981e+01 -1.574249554320216182e-01
2.481500000000000128e+01 2.912999999999999901e+01 -1.393399999999999972e+00 -2.050709000000000160e+01 1.548645039712412408e-01
2.481599999999999895e+01 9.667500000000000426e+00 7.669699999999999740e+00 -2.698647999999999936e+00 2.057598247940774505e-01
2.482100000000000151e+01 2.291799999999999926e+01 -1.729299999999999926e+01 -1.826020000000000110e+01 -1.948866086161429312e-01
2.482300000000000040e+01 3.196499999999999986e+01 -1.260200000000000031e+01 -2.810706999999999844e+00 -3.680118127754575252e-01
2.482300000000000040e+01 3.282999999999999829e+01 -1.260200000000000031e+01 9.642083000000000181e-01 -3.685178812539649518e-01
2.482400000000000162e+01 2.328699999999999903e+01 -4.925099999999999589e+00 -1.079556999999999967e+01 2.215092230270111207e-01
2.482499999999999929e+01 4.241899999999999693e+01 6.666400000000000325e+00 8.149452999999999836e-01 1.389408191433496309e-01
2.482999999999999829e+01 2.456700000000000017e+01 3.587000000000000188e+00 -2.383766999999999925e+01 7.686345773613127361e-03
2.482999999999999829e+01 2.456700000000000017e+01 4.987000000000000099e+00 -2.269931000000000054e+01 -7.846137805197722290e-03
2.482999999999999829e+01 2.543299999999999983e+01 3.587000000000000188e+00 -2.476351999999999975e+01 1.808385118627034785e-02
2.482999999999999829e+01 2.543299999999999983e+01 4.987000000000000099e+00 -2.430884999999999962e+01 1.270474586171932343e-03
2.483399999999999963e+01 2.600799999999999912e+01 -5.657700000000000173e+00 7.371150000000000091e+00 -1.099443542045983324e-01
2.483500000000000085e+01 2.757100000000000151e+01 1.481000000000000050e+01 -2.654710000000000125e+00 1.099924742137935868e-01
2.483500000000000085e+01 2.843599999999999994e+01 1.481000000000000050e+01 -3.059627999999999792e-01 1.106215357099656488e-01
2.483500000000000085e+01 3.984199999999999964e+00 7.068299999999999805e+00 -7.938697999999999588e+00 -1.779339604801467023e-01
2.483699999999999974e+01 5.512199999999999989e+00 8.104499999999999815e+00 -2.070526999999999784e+00 -7.143453968864159342e-02
2.483899999999999864e+01 1.516499999999999915e+01 -1.391699999999999937e+00 -5.362760999999999889e+00 4.452231075464659071e-02
2.484400000000000119e+01 1.895499999999999829e+01 1.123700000000000010e+01 7.363938000000000095e+00 3.227101949647319112e-01
2.484499999999999886e+01 1.568299999999999983e+01 -1.382699999999999996e+01 5.420364000000000182e+00 -1.672950494726353488e-01
2.484600000000000009e+01 4.516700000000000159e+01 3.516500000000000181e-01 -1.070677000000000056e+01 1.493344003218187999e-01
2.485000000000000142e+01 1.780599999999999961e+00 -1.060599999999999987e+00 -6.903107000000000326e+00 -3.006106916317394795e-01
2.485099999999999909e+01 2.458999999999999986e+01 -5.237700000000000244e+00 1.827744000000000035e+00 2.491864930127584421e-01
2.485200000000000031e+01 2.062600000000000122e+01 -2.125000000000000000e+01 -1.024376999999999960e+01 -1.854757910346964966e-01
2.485300000000000153e+01 3.795300000000000296e+01 7.665099999999999802e+00 2.614018000000000175e+00 5.483817644946583497e-02
2.485399999999999920e+01 1.349600000000000044e+01 -3.056299999999999795e+00 -7.090173000000000059e+00 1.270435402884641518e-01
2.485999999999999943e+01 3.652499999999999858e+01 -1.465600000000000058e+01 -4.584448000000000079e+00 -1.053972095722646579e-01
2.485999999999999943e+01 2.833200000000000074e+01 8.221799999999999997e+00 -1.295574000000000048e+01 3.076402652803738036e-01
2.486100000000000065e+01 2.255099999999999838e+01 1.853300000000000125e+01 -1.801763000000000048e+01 1.092480933609553395e-01
2.486100000000000065e+01 4.510900000000000176e+01 -3.267399999999999860e+00 -5.539755000000000429e+00 -1.360335921606801168e-01
2.486499999999999844e+01 1.665099999999999980e+01 -9.164300000000000779e+00 -1.237114000000000047e+01 2.314516127781093835e-01
2.487800000000000011e+01 1.565600000000000058e+01 -1.095199999999999996e+01 -1.944022000000000006e+01 -1.593268965630434686e-01
2.488200000000000145e+01 3.313300000000000267e+01 -1.330199999999999960e+01 -1.145732999999999890e+00 -3.688873867221485470e-01
2.488400000000000034e+01 3.790800000000000125e+01 -8.336999999999999744e+00 -1.813056999999999874e+01 -1.175396626686668611e-01
2.488500000000000156e+01 2.706299999999999883e+01 -1.611700000000000088e+01 -1.222283000000000008e+01 -4.023155671826837976e-01
2.488700000000000045e+01 3.345900000000000318e+01 1.413199999999999967e+01 -6.543503000000000291e+00 1.624741264217169912e-01
2.488800000000000168e+01 1.008699999999999974e+01 -1.493500000000000050e+00 -1.039344000000000001e+01 -1.948059553275557632e-01
2.488800000000000168e+01 2.573600000000000065e+01 4.286999999999999922e+00 -2.529968999999999824e+01 1.251572231144156000e-02
2.488899999999999935e+01 3.908599999999999852e+01 6.906900000000000261e+00 2.454028999999999794e+00 5.634037932513689950e-02
2.489300000000000068e+01 2.726699999999999946e+01 1.550999999999999979e+01 -3.632096000000000213e+00 1.101235063974684847e-01
2.489699999999999847e+01 2.946399999999999864e+01 6.598200000000000287e+00 5.641953000000000173e+01 6.017964189859410784e-02
2.489699999999999847e+01 2.946399999999999864e+01 7.463499999999999801e+00 1.036356999999999928e+01 5.743654759995707459e-02
2.489699999999999847e+01 1.092500000000000027e+00 2.761100000000000221e-01 -5.979808000000000234e+00 -2.998041414858358955e-01
2.489699999999999847e+01 4.295199999999999818e+01 -1.140700000000000003e+01 1.325497999999999976e+01 -1.201118301165756269e-01
2.489900000000000091e+01 1.135599999999999987e+01 7.611299999999999955e+00 -6.397530999999999635e-01 3.167809682258558301e-01
2.490099999999999980e+01 1.789999999999999858e+01 2.186900000000000066e+00 -6.678135000000000154e+00 2.974350747713860321e-01
2.490099999999999980e+01 1.890700000000000003e+01 1.179599999999999982e+00 -1.125426000000000037e+01 2.918908555879749511e-01
2.490599999999999881e+01 3.733299999999999841e+01 -4.647899999999999920e+00 -4.436541000000000068e+00 -1.285803891407608646e-01
2.490599999999999881e+01 1.336899999999999977e+01 1.236299999999999955e+01 7.740592000000000361e+00 2.101848303473434210e-01
2.490800000000000125e+01 1.396400000000000041e+01 1.173000000000000043e+01 8.724761000000000877e+00 2.090621927055996143e-01
2.490800000000000125e+01 3.912299999999999756e+01 -7.356700000000000017e+00 -5.416539000000000215e+00 -1.224997703819523942e-01
2.491100000000000136e+01 4.358999999999999986e+00 7.596899999999999764e+00 -1.061646999999999963e+01 -1.800978504347365561e-01
2.491499999999999915e+01 3.571800000000000352e+01 -1.055599999999999916e+01 1.214329000000000036e+01 -1.068296187120574697e-01
2.491499999999999915e+01 3.690899999999999892e+01 -9.891600000000000392e+00 7.139740999999999893e+00 -1.114410652222488779e-01
2.491499999999999915e+01 3.711800000000000210e+01 -9.155599999999999739e+00 -8.823378999999999195e+00 -1.135490707355903128e-01
2.491499999999999915e+01 4.265400000000000347e+01 -1.043299999999999983e+01 5.409570999999999685e+00 -1.211637604611868618e-01
2.491700000000000159e+01 4.649799999999999756e+01 -2.357699999999999907e+00 3.060776000000000163e+00 1.532048823434392359e-01
2.491700000000000159e+01 4.250500000000000256e+01 -9.058999999999999275e+00 1.453894999999999937e+00 -1.233201545045851111e-01
2.492099999999999937e+01 3.667699999999999960e+01 1.517600000000000016e+01 -6.802615000000000300e+00 1.611258684000464458e-01
2.492200000000000060e+01 1.860500000000000043e+01 -6.666999999999999815e+00 -8.163190000000000168e+00 1.658800680886974299e-01
2.492500000000000071e+01 4.242199999999999704e+01 -9.634700000000000486e+00 2.361486000000000196e+00 -1.221882545999748854e-01
2.493599999999999994e+01 2.695400000000000063e+01 7.313299999999999912e+00 -2.076287999999999911e+01 -5.736673814469027454e-04
2.493799999999999883e+01 1.482600000000000051e+01 3.497900000000000009e+00 -1.048006999999999955e+01 3.043148171122014856e-01
2.493900000000000006e+01 1.805799999999999983e+01 -1.950400000000000134e+01 -7.822110999999999592e+00 -1.805861166588741962e-01
2.494399999999999906e+01 1.187599999999999945e+01 -4.652000000000000135e+00 -4.690121000000000429e+00 -1.727879578468021204e-01
2.494600000000000151e+01 2.010200000000000031e+01 1.939000000000000057e+01 -7.889896000000000242e+00 1.086587855673022407e-01
2.494600000000000151e+01 2.162199999999999989e+01 1.939000000000000057e+01 -9.744046000000000873e+00 1.092675102046792163e-01
2.494699999999999918e+01 2.000300000000000011e+01 1.539799999999999969e+01 -2.767152000000000100e+01 1.049916972863070563e-01
2.494699999999999918e+01 2.000300000000000011e+01 1.687000000000000099e+01 -9.281565000000000509e+00 1.066086136227629017e-01
2.494699999999999918e+01 2.021199999999999974e+01 1.613400000000000034e+01 -1.131309000000000076e+01 1.059523639778145315e-01
2.495400000000000063e+01 2.256899999999999906e+01 -2.414399999999999880e-01 -1.231131000000000064e+01 1.087515818265251122e-01
2.495599999999999952e+01 8.833299999999999486e+00 -2.027299999999999880e+00 -1.629307999999999979e+01 -1.852848316000297313e-01
2.496000000000000085e+01 2.046300000000000097e+01 8.912799999999999889e-02 -1.233555999999999919e+01 -2.969643739231623940e-03
2.496399999999999864e+01 1.731299999999999883e+01 9.053000000000000824e+00 -1.352818000000000076e+01 3.196201739953589138e-01
2.496399999999999864e+01 1.510899999999999999e+01 -3.546699999999999853e-01 -5.492187999999999626e+00 2.903763037395548641e-02
2.496399999999999864e+01 3.023499999999999854e+00 -7.161800000000000388e+00 -5.308021000000000100e+00 -3.226105737063372780e-01
2.496499999999999986e+01 1.850400000000000134e+01 9.832800000000000651e+00 -5.990700000000000358e+00 3.216894985866994294e-01
2.496600000000000108e+01 2.091900000000000048e+01 -2.708800000000000097e-01 -1.157301999999999964e+01 2.118601369747532062e-02
2.496799999999999997e+01 1.425699999999999967e+01 8.284299999999999997e-01 1.487873999999999919e+00 3.272701882532847578e-02
2.497299999999999898e+01 3.454800000000000182e+01 -1.524600000000000044e+01 -4.112277999999999878e+00 -3.699759606663090561e-01
2.497400000000000020e+01 3.591700000000000159e+01 -5.075400000000000134e+00 -1.453931000000000040e+01 -1.235856596949695685e-01
2.497500000000000142e+01 2.604599999999999937e+01 1.641000000000000014e+01 -2.172328999999999954e+00 1.097496621765289976e-01
2.497599999999999909e+01 2.892399999999999949e+01 1.465199999999999925e+01 -6.142585000000000406e-01 1.106783654352867519e-01
2.497899999999999920e+01 1.098399999999999999e+01 9.851499999999999702e+00 -3.555970999999999993e+00 1.392253719259421707e-01
2.498000000000000043e+01 1.647299999999999898e+01 -1.456799999999999962e+01 -4.951667999999999736e+00 -1.714828071397132281e-01
2.498000000000000043e+01 1.683399999999999963e+01 -1.530400000000000027e+01 1.140635000000000066e+00 -1.737881234910312322e-01
2.498000000000000043e+01 1.169299999999999962e+01 -2.296600000000000197e+00 -9.897888999999999271e+00 1.120201001318281708e-01
2.498400000000000176e+01 3.299799999999999844e+00 -7.983799999999999564e+00 -6.490371999999999808e-01 -3.215270332732524938e-01
2.498799999999999955e+01 2.801899999999999835e+00 -3.415099999999999802e+00 -7.003008999999999595e+00 -3.247751551961005068e-01
2.498900000000000077e+01 3.379500000000000171e+01 -4.321699999999999875e+00 -4.334640000000000271e+01 -1.080589667403486914e-01
2.499299999999999855e+01 2.790500000000000114e+01 -7.389999999999999902e-01 -5.855878999999999834e+00 -1.529672991257766124e-01
2.499599999999999866e+01 6.017999999999999794e+00 -8.013199999999999434e+00 -7.559796999999999656e+00 -3.120624189168337836e-01
2.499699999999999989e+01 3.638000000000000256e+01 1.300200000000000067e+01 5.645717000000000318e+00 1.582410684333517559e-01
2.500199999999999889e+01 1.134500000000000064e+01 9.129599999999999937e+00 -2.677935999999999872e+00 1.388506658714942776e-01
2.501000000000000156e+01 4.344200000000000017e+01 -6.526399999999999757e+00 1.227295999999999943e+01 -1.289347952288675825e-01
2.501399999999999935e+01 8.529899999999999594e+00 -2.727300000000000058e+00 -4.486153999999999797e+01 -1.789875272455140887e-01
2.501500000000000057e+01 3.353600000000000136e+01 -8.787900000000000489e+00 1.273325999999999958e+01 -1.017690210683494384e-01
2.501599999999999824e+01 9.127100000000000435e+00 -3.794999999999999929e+00 -8.951221999999999568e+00 -1.715343992520653726e-01
2.501599999999999824e+01 1.031799999999999962e+01 -4.458999999999999631e+00 1.033169000000000004e+01 -1.682058794372204846e-01
2.501699999999999946e+01 3.317300000000000182e+01 -1.432499999999999929e+01 1.007903999999999911e+00 -3.691459376482720822e-01
2.501800000000000068e+01 4.004399999999999693e+01 6.827099999999999724e+00 7.077490000000000059e+00 -1.560454972672245533e-01
2.501899999999999835e+01 1.873300000000000054e+01 -6.183600000000000207e+00 -8.231555000000000177e+00 1.503650687792731644e-01
2.502400000000000091e+01 1.197899999999999920e+01 -6.891300000000000203e+00 -6.800850999999999758e+00 -1.422209335489981741e-01
2.502499999999999858e+01 3.266199999999999903e+01 -5.080000000000000071e+00 -5.704798000000000258e+01 -9.499511962914017338e-02
2.502700000000000102e+01 3.444100000000000250e+01 -1.037800000000000011e+01 1.369764999999999944e+01 -1.026719248881099028e-01
2.502799999999999869e+01 1.155000000000000071e+01 8.418200000000000571e+00 1.435076000000000018e+00 3.171623584307732835e-01
2.503099999999999881e+01 2.015599999999999881e+01 -4.287499999999999645e+00 1.815820000000000078e+01 -2.061672007292676967e-01
2.503200000000000003e+01 4.668000000000000149e+00 -8.640000000000000568e+00 -3.708253000000000021e+00 -3.171806589581597224e-01
2.504100000000000037e+01 1.027299999999999969e+01 7.825099999999999945e+00 -3.032595000000000152e+00 3.171685183414185705e-01
2.504200000000000159e+01 3.660799999999999699e+01 1.460500000000000043e+01 -1.609065000000000012e+01 1.603984956710874654e-01
2.504200000000000159e+01 3.660799999999999699e+01 1.568900000000000006e+01 -2.220764000000000138e+01 1.617536306863278095e-01
2.505099999999999838e+01 1.026900000000000013e+01 -7.490999999999999659e+00 -5.625202999999999953e+00 -1.391490254477918964e-01
2.505399999999999849e+01 1.969999999999999929e+01 -2.129400000000000048e+01 -9.614535000000000053e+00 -1.839493403458417609e-01
2.505699999999999861e+01 3.624399999999999977e+01 1.609299999999999997e+01 -2.200994999999999990e+01 1.624643425643207684e-01
2.505999999999999872e+01 2.703600000000000136e+01 1.630199999999999960e+01 -3.112408999999999981e+00 1.102101959592683283e-01
2.506099999999999994e+01 3.695700000000000074e+01 9.414400000000000546e+00 -3.098987000000000158e+00 5.389987186714718936e-02
2.506099999999999994e+01 3.695700000000000074e+01 1.027999999999999936e+01 -8.765142000000000877e+00 5.342079149913626923e-02
2.506099999999999994e+01 1.566300000000000026e+01 2.809600000000000097e+00 -5.489999000000000073e+00 3.001005293733222112e-01
2.506099999999999994e+01 1.841499999999999915e+01 -7.542300000000000004e+00 -9.243672000000000111e+00 1.854200528680284288e-01
2.506299999999999883e+01 1.293500000000000050e+01 2.934000000000000163e+00 -2.961908999999999992e+01 3.072651186930708267e-01
2.506299999999999883e+01 2.225900000000000034e+01 -1.781700000000000017e+01 -1.606914000000000087e+01 -1.972169668172145951e-01
2.506599999999999895e+01 2.963899999999999868e-01 2.451900000000000190e+00 -6.602070999999999579e+00 -2.988630835598895530e-01
2.507100000000000151e+01 1.890200000000000102e+01 -5.126999999999999780e+00 -1.041774999999999984e+01 -1.891351255816364207e-01
2.507199999999999918e+01 3.654500000000000171e+01 1.206000000000000050e+01 5.001163999999999987e+01 1.566012539711875706e-01
2.507400000000000162e+01 2.872400000000000020e+01 -1.491699999999999982e+01 -3.555328999999999962e+00 -4.034848433202974372e-01
2.507900000000000063e+01 2.346900000000000119e+01 -2.630399999999999960e-01 -1.260326000000000057e+01 1.556829948355527016e-01
2.508200000000000074e+01 1.375999999999999890e+00 -5.899999999999999689e-01 -7.157667000000000002e+00 -3.003262708070105202e-01
2.508699999999999974e+01 2.654400000000000048e+01 -1.686799999999999855e+01 -1.430167999999999928e+01 -4.018530817930245358e-01
2.508800000000000097e+01 1.832000000000000028e+01 -2.040099999999999980e+01 -1.060106000000000037e+01 -1.813924564234608572e-01
2.508999999999999986e+01 4.331300000000000239e+01 -7.484300000000000175e+00 1.548573000000000022e+01 -1.268123185921374851e-01
2.509199999999999875e+01 2.252799999999999869e+01 -4.889999999999999680e+00 5.349750000000000227e+00 1.884382434981796417e-01
2.509499999999999886e+01 1.739999999999999880e-01 3.267999999999999794e+00 -1.143918999999999997e+01 -2.985784872168841253e-01
2.509499999999999886e+01 4.010099999999999776e-01 4.067099999999999937e+00 -7.436917000000000222e+00 -2.982556939914433047e-01
2.509499999999999886e+01 1.693999999999999950e+00 4.788000000000000256e+00 -9.525451000000000334e+00 -1.663086054896279753e-01
2.509499999999999886e+01 3.161599999999999966e+00 4.912499999999999645e+00 4.444832000000000249e+01 -1.707336734054434035e-01
2.509700000000000131e+01 2.500000000000000000e+01 4.286999999999999922e+00 -3.689688000000000301e+01 7.652451562870274046e-03
2.509900000000000020e+01 1.506799999999999962e+01 -2.029999999999999805e+00 6.281354000000000104e-01 7.018272518696853923e-02
2.510000000000000142e+01 7.374399999999999622e+00 -7.461100000000000065e+00 -9.218949000000000282e+00 -3.044633039840229927e-01
2.510000000000000142e+01 3.630400000000000205e+01 1.390499999999999936e+01 -5.162865999999999983e-02 1.596124287160540223e-01
2.510399999999999920e+01 1.402899999999999991e+01 -3.206399999999999917e+00 -1.522062000000000137e-01 1.316770094824936121e-01
2.510500000000000043e+01 3.038400000000000034e+01 -1.477599999999999980e+01 -6.822629000000000055e+00 -3.680424740922512150e-01
2.510800000000000054e+01 1.107699999999999996e+01 1.263799999999999990e+01 2.926435999999999815e+00 1.400706894905232036e-01
2.510800000000000054e+01 1.277699999999999925e+01 1.263799999999999990e+01 5.019751999999999725e+01 2.101570839190000373e-01
2.511299999999999955e+01 4.473400000000000176e+01 1.051700000000000079e+00 -1.140001999999999960e+01 1.484301933911329752e-01
2.511499999999999844e+01 8.718999999999999417e+00 -7.829100000000000392e+00 -2.807077000000000044e+00 -1.414176325406765744e-01
2.512000000000000099e+01 3.532399999999999807e+01 1.644000000000000128e+01 -3.187910000000000110e+01 1.635204812221537907e-01
2.512199999999999989e+01 4.383800000000000097e+01 -4.791000000000000369e+00 -3.013215000000000199e+00 -1.324901030459863793e-01
2.512199999999999989e+01 2.128300000000000125e+01 -9.719999999999999751e-01 -1.132211000000000034e+01 5.897441901557182176e-02
2.512199999999999989e+01 2.222299999999999898e+01 -9.719999999999999751e-01 -8.494391000000000247e+00 1.152937283734657842e-01
2.512300000000000111e+01 2.692999999999999972e+01 6.285599999999999632e+00 -1.780661999999999878e+01 6.629992137576022973e-03
2.512399999999999878e+01 1.461999999999999922e+01 -2.313400000000000123e+00 6.281354000000000104e-01 8.880383375272134228e-02
2.512999999999999901e+01 3.741299999999999670e+01 1.517600000000000016e+01 -1.747259000000000029e+01 1.606216396659521650e-01
2.513200000000000145e+01 2.777899999999999991e+01 -5.602999999999999758e+00 -3.829225000000000279e+01 -1.167233621491819556e-01
2.513599999999999923e+01 4.372599999999999909e+01 7.152999999999999581e+00 1.300740000000000052e+01 1.386494335456297522e-01
2.513700000000000045e+01 2.830000000000000071e+01 5.377100000000000435e+00 -8.156027999999999167e+00 7.209901725481247803e-02
2.514799999999999969e+01 1.282000000000000028e+01 -4.174000000000000377e+00 -1.518533000000000044e+01 1.696819529165551343e-01
2.514799999999999969e+01 1.282000000000000028e+01 -2.774000000000000021e+00 -5.187630999999999659e+00 1.225046571645619364e-01
2.514900000000000091e+01 4.586699999999999733e+01 2.933600000000000096e-01 -2.231372999999999962e+01 1.491275690672134169e-01
2.515099999999999980e+01 2.801999999999999957e+01 1.540099999999999980e+01 -7.595991999999999855e+00 1.102282969065312423e-01
2.515099999999999980e+01 3.373799999999999955e+01 1.488499999999999979e+01 -7.869875000000000398e+00 1.630851786588473629e-01
2.515200000000000102e+01 3.243599999999999994e+01 -1.348099999999999987e+01 -2.617687999999999793e+00 -3.683923356446682229e-01
2.515599999999999881e+01 1.341499999999999915e+01 3.646999999999999797e+00 -2.040398000000000067e+01 3.074056755249017225e-01
2.515599999999999881e+01 1.428100000000000058e+01 3.646999999999999797e+00 -1.397386999999999979e+01 3.055912442756508196e-01
2.515899999999999892e+01 3.409400000000000119e+01 1.561700000000000088e+01 -1.053528000000000020e+01 1.636436729624742847e-01
2.516300000000000026e+01 3.196699999999999875e+01 1.325900000000000034e+01 -4.679466000000000037e+01 1.628158097973277929e-01
2.516300000000000026e+01 4.480899999999999750e+01 7.296100000000000030e+00 6.045651000000000330e+00 1.385666018158569490e-01
2.516400000000000148e+01 2.903200000000000003e+01 8.163500000000000867e+00 -6.251941999999999666e+00 5.865927395311563292e-02
2.516400000000000148e+01 2.325100000000000122e+01 1.847500000000000142e+01 1.428406999999999982e+01 1.092367222202363514e-01
2.516799999999999926e+01 1.833299999999999841e+01 1.486900000000000110e+00 -1.248077999999999932e+01 2.930691180844376964e-01
2.517299999999999827e+01 2.943299999999999983e+01 6.135399999999999743e+00 7.850819000000000436e+00 6.510396045439424684e-02
2.517599999999999838e+01 4.458299999999999841e+01 1.904600000000000071e+00 -6.621874000000000038e+00 1.469440097476219231e-01
2.517800000000000082e+01 2.480399999999999849e+01 -3.200000000000000067e-01 -1.380691999999999986e+01 2.009183024553689578e-01
2.517899999999999849e+01 1.563799999999999990e+01 9.069499999999999673e+00 -8.970598999999999990e+00 2.006449984498369088e-01
2.518199999999999861e+01 1.414600000000000080e+01 -5.054999999999999716e+00 -1.515389000000000053e+01 2.208920799323129402e-01
2.518400000000000105e+01 2.750900000000000034e+01 8.088400000000000034e+00 -1.909194000000000102e+01 3.098085107889620993e-01
2.518499999999999872e+01 2.637300000000000111e+01 -3.212700000000000000e-01 -1.396521000000000079e+01 -1.674203301942525091e-01
2.518599999999999994e+01 1.377100000000000080e+01 -4.123000000000000220e+00 -1.497066000000000052e+01 1.735434115647863929e-01
2.519000000000000128e+01 1.512500000000000000e+01 -1.292300000000000004e+01 -4.957853000000000065e+00 -1.616736236350481692e-01
2.519000000000000128e+01 1.512500000000000000e+01 -1.181099999999999994e+01 -9.838703999999999894e+00 -1.579971113574825115e-01
2.519200000000000017e+01 1.630300000000000082e+01 -9.726900000000000546e+00 -1.596672000000000047e+01 -1.596764945987574069e-01
2.519900000000000162e+01 2.914300000000000068e+01 -5.541199999999999903e+00 -4.187201999999999913e+01 -1.234442968909870986e-01
2.520100000000000051e+01 4.303799999999999670e+01 -1.191900000000000048e+01 1.141278999999999932e+00 -1.192059816076568024e-01
2.520400000000000063e+01 1.719999999999999929e+01 2.245099999999999874e+00 -9.547679999999999723e+00 2.970193722428027816e-01
2.520499999999999829e+01 8.043100000000000804e+00 8.003000000000000114e+00 -8.477724999999999511e+00 -8.013771869104209522e-02
2.520499999999999829e+01 4.390400000000000347e+01 -5.670600000000000307e+00 3.396135999999999822e+00 -1.305788923657071054e-01
2.520599999999999952e+01 3.682200000000000273e+01 1.118999999999999950e+01 4.788294999999999746e+00 5.359542327963986302e-02
2.520599999999999952e+01 1.312299999999999933e+01 -3.474000000000000199e+00 -1.057071999999999967e+01 1.458783053047231770e-01
2.520799999999999841e+01 2.462600000000000122e+01 1.755399999999999849e+01 7.072905999999999693e+00 1.093354838989683414e-01
