-3.931300000000000239e+01 -9.161799999999999500e+00 -1.693100000000000049e+00 -5.069715000000000060e+01 -1.478385123951502511e-01
-3.931099999999999994e+01 -2.265599999999999881e+01 9.365800000000000125e+00 -6.040071000000000190e+00 -1.631215299802890040e-01
-3.931099999999999994e+01 -1.474799999999999933e+01 1.139000000000000057e+01 -4.390277000000000207e+00 -1.214356994010310775e-01
-3.929699999999999704e+01 -2.733500000000000085e+01 1.199100000000000055e+00 -4.848220000000000418e+00 -1.212970808501703246e-01
-3.929599999999999937e+01 -1.175300000000000011e+01 4.017400000000000304e+00 3.699778999999999929e+00 -2.296520349989379928e-01
-3.929599999999999937e+01 -3.204399999999999693e+01 6.010500000000000398e+00 -4.744036000000000364e+00 -2.259491819518481270e-01
-3.928799999999999670e+01 -1.545400000000000063e+01 1.265099999999999980e+01 -7.075992000000000282e+00 7.420964887701524126e-02
-3.928799999999999670e+01 -1.385599999999999987e+01 1.265099999999999980e+01 -1.396424999999999983e+01 5.554683839875338563e-02
-3.927900000000000347e+01 -1.079299999999999926e+01 -3.202999999999999847e+00 -2.385480000000000089e+01 -1.220132221652986126e-01
-3.927900000000000347e+01 -9.500000000000000000e+00 -2.482099999999999973e+00 -1.245514000000000010e+01 -1.369226664932580440e-01
-3.927499999999999858e+01 -1.850100000000000122e+01 -3.299500000000000099e+00 1.380984000000000100e-01 -2.264044688111336023e-01
-3.926800000000000068e+01 -2.875900000000000034e+01 3.868900000000000117e-01 -2.782518000000000047e+00 -1.120970817614365400e-01
-3.923599999999999710e+01 -1.952199999999999847e+01 8.580600000000000449e+00 -1.336682000000000059e+01 -1.161244657149400616e-01
-3.922500000000000142e+01 -1.512500000000000000e+01 1.341099999999999959e+01 -6.744794999999999874e+00 6.213954807428166693e-02
-3.922500000000000142e+01 -1.418500000000000050e+01 1.341099999999999959e+01 -1.967774999999999963e+01 5.283927607336892651e-02
-3.920300000000000296e+01 -1.119299999999999962e+01 3.691699999999999982e+00 -1.074826000000000015e+01 -2.308049482062116964e-01
-3.919599999999999795e+01 -1.689099999999999824e+01 -3.189900000000000180e+00 -5.870743999999999962e-01 -1.719949872338713548e-01
-3.919100000000000250e+01 -1.792299999999999827e+01 8.677699999999999747e+00 -2.181828000000000145e+01 -1.322167249793620436e-01
-3.918900000000000006e+01 -2.131099999999999994e+01 9.865899999999999892e+00 -3.562199000000000115e+00 -1.581776895887840317e-01
-3.918500000000000227e+01 -1.662800000000000011e+01 9.436600000000000321e+00 -7.511792999999999942e+00 -9.125123140189489446e-02
-3.918500000000000227e+01 -1.594200000000000017e+01 9.436600000000000321e+00 -7.267745999999999817e+00 -8.832809539214160621e-02
-3.918299999999999983e+01 -1.220400000000000063e+01 4.531200000000000117e+00 5.320210000000000328e+00 -2.084142562512142638e-01
-3.917999999999999972e+01 -3.024200000000000088e+01 1.223999999999999977e+00 -2.790513999999999939e+00 9.595800936341372656e-02
-3.916899999999999693e+01 -3.092800000000000082e+01 2.021300000000000097e+00 -2.104492000000000029e+00 -2.272394513710070396e-01
-3.915899999999999892e+01 -1.501299999999999990e+01 9.407099999999999795e+00 -4.534392000000000422e+00 -1.000441740370518195e-01
-3.915200000000000102e+01 -2.499099999999999966e+01 1.899799999999999933e+00 -2.502616000000000174e+00 -1.212429183688756157e-01
-3.914600000000000080e+01 -3.075700000000000145e+01 1.077500000000000036e+01 -4.752803000000000111e+01 -2.500573470223514949e-01
-3.914200000000000301e+01 -3.228499999999999659e+01 1.062800000000000011e+01 -1.127720000000000056e+01 -2.462300752975186691e-01
-3.914099999999999824e+01 -1.482699999999999996e+01 -5.682599999999999874e+00 -5.738813999999999638e+00 -1.104829677318260178e-01
-3.913600000000000279e+01 -1.409299999999999997e+01 1.142399999999999949e+01 -4.825008000000000408e+00 6.875535864617191018e-02
-3.912599999999999767e+01 -1.348700000000000010e+01 5.275299999999999656e+00 5.430292999999999815e+00 -1.767604334121977983e-01
-3.911399999999999721e+01 -9.135600000000000165e+00 8.105000000000000426e+00 4.964533999999999558e+00 -1.381962833890157949e-01
-3.910000000000000142e+01 -3.247599999999999909e+01 6.896700000000000053e+00 -1.112074999999999925e+01 -2.312063185760222517e-01
-3.909700000000000131e+01 -2.464399999999999835e+01 9.041199999999999903e+00 -1.964110000000000156e+01 -1.007262888048929411e-01
-3.909300000000000352e+01 -2.199599999999999866e+01 -1.746099999999999985e+00 -1.508049999999999891e+00 1.103537252111109063e-01
-3.908500000000000085e+01 -2.667500000000000071e+01 8.654600000000000293e+00 -1.358655000000000079e+01 -4.804998394908157472e-02
-3.908500000000000085e+01 -2.527499999999999858e+01 8.654600000000000293e+00 -1.940759999999999863e+01 -8.088967741209276974e-02
-3.907800000000000296e+01 -2.293499999999999872e+01 4.916800000000000059e-01 3.022381000000000206e+00 1.590853085751650908e-01
-3.907800000000000296e+01 -3.262700000000000244e+01 7.890100000000000335e+00 -6.188416000000000139e+00 -2.368599522230535326e-01
-3.906300000000000239e+01 -3.102400000000000091e+01 3.827399999999999913e+00 -2.417580000000000007e-01 -2.230593568819959072e-01
-3.906000000000000227e+01 -2.959499999999999886e+01 1.040499999999999936e+01 -6.316302999999999912e+01 -2.562522239646988775e-01
-3.905700000000000216e+01 -1.403800000000000026e+01 1.067300000000000004e+01 -4.346041999999999739e+00 -1.264387162893569894e-01
-3.905400000000000205e+01 -3.129799999999999827e+01 2.915000000000000036e+00 -4.297486000000000139e+00 -2.205183571431153788e-01
-3.904099999999999682e+01 -3.087900000000000134e+01 4.737099999999999866e+00 -1.179922999999999966e+01 -2.298903879347031776e-01
-3.904099999999999682e+01 -1.650700000000000145e+01 9.905900000000000816e+00 -5.260957000000000328e+00 -9.058679750637517458e-02
-3.901299999999999812e+01 -1.529499999999999993e+01 1.064799999999999969e+01 -4.136265999999999998e+00 -1.088017814289596180e-01
-3.900099999999999767e+01 -9.054000000000000270e+00 1.086400000000000077e+01 2.366537999999999808e+00 -1.681411894739369695e-01
-3.899000000000000199e+01 -3.086299999999999955e+01 5.245700000000000252e+00 -1.504733000000000054e+01 -2.343496634414251878e-01
-3.897899999999999920e+01 -9.673000000000000043e+00 7.336000000000000298e+00 1.161518999999999968e+00 -1.373117604967939720e-01
-3.896099999999999852e+01 -1.030799999999999983e+01 9.066000000000000725e+00 1.100632000000000055e+01 -3.490377069384792419e-01
-3.896099999999999852e+01 -1.030799999999999983e+01 1.002399999999999913e+01 9.004101999999999606e+00 -1.657519474463594045e-01
-3.896099999999999852e+01 -7.799999999999999822e+00 9.066000000000000725e+00 2.607832000000000150e+01 -1.548448155303963625e-01
-3.896099999999999852e+01 -7.799999999999999822e+00 1.002399999999999913e+01 1.466377999999999986e+02 -1.576587859495666988e-01
-3.895199999999999818e+01 -9.065899999999999181e+00 -1.230599999999999916e+00 -9.259565000000000268e+00 -1.492741197969492672e-01
-3.894100000000000250e+01 -1.564199999999999946e+01 1.150500000000000078e+01 -3.217906000000000155e+00 9.418572376229392140e-02
-3.893200000000000216e+01 -3.116600000000000037e+01 5.945700000000000429e+00 -7.980493000000000059e+00 -2.362522429266150914e-01
-3.891799999999999926e+01 -1.550999999999999979e+01 1.013700000000000045e+01 -5.525970000000000049e+00 -1.007147602851043572e-01
-3.891499999999999915e+01 -2.222299999999999898e+01 9.856700000000000017e+00 -1.263211000000000084e+00 -1.727827321332445765e-01
-3.891400000000000148e+01 -1.428500000000000014e+01 9.854599999999999582e+00 -1.155733999999999995e+01 -1.179935585735953502e-01
-3.889900000000000091e+01 -2.960900000000000176e+01 4.576700000000000212e-01 -4.331686000000000369e+00 7.315862146330692761e-02
-3.889900000000000091e+01 -2.790899999999999892e+01 4.576700000000000212e-01 -4.243483999999999590e+00 -1.010324714599178941e-01
-3.887800000000000011e+01 -1.330000000000000071e+01 1.141499999999999915e+01 -1.743391000000000091e+01 5.452422670176321207e-02
-3.887700000000000244e+01 -2.011400000000000077e+01 9.051000000000000156e+00 1.419764999999999944e+01 -1.348443307882079556e-01
-3.886299999999999955e+01 -2.459600000000000009e+01 1.691100000000000048e+00 -2.483905000000000030e+00 -9.962361018051389683e-02
-3.886200000000000188e+01 -1.458999999999999986e+01 9.012299999999999756e+00 -4.426745000000000374e+00 -1.071801628331107564e-01
-3.885399999999999920e+01 -1.594500000000000028e+01 1.218200000000000038e+01 -5.793890000000000207e+00 1.727893620137825326e-01
-3.885399999999999920e+01 -1.336500000000000021e+01 1.218200000000000038e+01 -1.539991999999999983e+01 5.108630360018897448e-02
-3.885099999999999909e+01 -9.558699999999999974e+00 5.500000000000000444e-01 -8.526500000000000412e+00 -1.826122860384887248e-01
-3.884599999999999653e+01 -1.149300000000000033e+01 -3.470400000000000151e+00 -6.410491000000000383e+00 -3.923766418878323892e-01
-3.884300000000000352e+01 -1.303200000000000003e+01 1.065600000000000058e+01 -9.998754999999999171e+00 -1.423857894461018347e-01
-3.884100000000000108e+01 -1.955300000000000082e+01 -3.588000000000000078e+00 1.576813000000000020e+00 -2.280509292428404833e-01
-3.882000000000000028e+01 -1.404100000000000037e+01 -5.666000000000000369e+00 -5.538026999999999589e+00 -3.836739180407521266e-01
-3.882000000000000028e+01 -1.272199999999999953e+01 -4.930900000000000283e+00 -1.019941000000000031e+01 -3.870931959811887979e-01
-3.882000000000000028e+01 -1.239400000000000013e+01 -4.186099999999999710e+00 -4.177287999999999890e+00 -3.891000320732539430e-01
-3.881900000000000261e+01 -2.041700000000000159e+01 9.750999999999999446e+00 7.437971000000000110e+00 -1.368522206642697747e-01
-3.880100000000000193e+01 -1.799099999999999966e+01 9.092000000000000526e+00 -1.679604000000000141e+01 -1.345894841579371448e-01
-3.880100000000000193e+01 -1.030899999999999928e+01 1.554999999999999938e+00 -2.009647000000000006e+01 -2.257253578315949194e-01
-3.879399999999999693e+01 -1.465499999999999936e+01 1.394400000000000084e+01 -2.843400000000000105e+01 5.144592000127541642e-02
-3.879200000000000159e+01 -1.056700000000000017e+01 3.296300000000000008e+00 -1.649416000000000082e+01 -2.210156304183696074e-01
-3.878000000000000114e+01 -1.336100000000000065e+01 9.896000000000000796e+00 -1.009145000000000003e+01 -1.352181850287057785e-01
-3.877499999999999858e+01 -8.273999999999999133e+00 8.177300000000000679e+00 8.952343000000000828e+00 -1.366696391879856365e-01
-3.876899999999999835e+01 -1.609299999999999997e+01 1.069899999999999984e+01 -3.525904000000000149e+00 -1.014135580090534255e-01
-3.876800000000000068e+01 -2.247599999999999909e+01 -8.837399999999999700e-01 -1.713506999999999891e+00 1.415487854281183844e-01
-3.876700000000000301e+01 -3.035200000000000031e+01 1.048799999999999955e+01 -4.542813000000000301e+01 -2.548723303197141243e-01
-3.876400000000000290e+01 -1.759100000000000108e+01 -2.922499999999999876e+00 5.510659999999999670e+00 -1.948554976029152341e-01
-3.876400000000000290e+01 -1.639999999999999858e+01 -3.586500000000000021e+00 1.045287000000000077e+00 -1.350445130368925772e-01
-3.876400000000000290e+01 -1.619099999999999895e+01 -4.322499999999999787e+00 -4.226231999999999767e-01 -1.258671256500532576e-01
-3.876200000000000045e+01 -1.028200000000000003e+01 8.141700000000000159e+00 2.756282999999999817e+00 -1.351193391934662480e-01
-3.875500000000000256e+01 -1.588499999999999979e+01 1.312100000000000044e+01 -7.014165000000000205e+00 1.536744992111210018e-01
-3.875500000000000256e+01 -1.342500000000000071e+01 1.312100000000000044e+01 -1.986182000000000158e+01 4.483621528562849179e-02
-3.875500000000000256e+01 -1.758899999999999864e+01 9.844300000000000495e+00 -4.625313000000000230e+00 -1.203779119408100728e-01
-3.874799999999999756e+01 -2.183599999999999852e+01 1.060100000000000087e+01 -4.035808000000000284e+00 -2.533036013998934410e-01
-3.874799999999999756e+01 -2.078600000000000136e+01 1.060100000000000087e+01 -1.646995999999999905e+00 8.999900252525736000e-02
-3.874699999999999989e+01 -2.678500000000000014e+01 1.620600000000000041e+00 -1.394744999999999990e+01 -9.628391812967213026e-02
-3.873299999999999699e+01 -1.043299999999999983e+01 2.462000000000000188e+00 -2.366075000000000017e+01 -2.243792921742225610e-01
-3.872500000000000142e+01 -1.056700000000000017e+01 7.336000000000000298e+00 2.244404999999999983e+00 -1.315075410300224346e-01
-3.872500000000000142e+01 -8.779299999999999216e+00 7.336000000000000298e+00 1.418257000000000012e+01 -1.355415518674792930e-01
-3.872299999999999898e+01 -1.467800000000000082e+01 7.278299999999999770e+00 1.540601000000000020e+01 -9.705504771294128086e-02
-3.872299999999999898e+01 -1.467800000000000082e+01 8.143599999999999284e+00 6.423267000000000060e+00 -1.022053353129107195e-01
-3.871399999999999864e+01 -2.139300000000000068e+01 -2.537300000000000111e+00 -1.736159000000000008e+00 -2.735833176349374285e-01
-3.870700000000000074e+01 -1.889300000000000068e+01 9.035000000000000142e+00 -2.217719999999999914e+01 -8.994571652829369546e-02
-3.870300000000000296e+01 -2.388800000000000168e+01 9.318300000000000693e+00 -1.308525000000000027e+01 -1.344664812607805071e-01
-3.869400000000000261e+01 -2.900499999999999901e+01 9.591400000000000148e+00 -2.861826999999999899e+01 -2.671597505021088281e-01
-3.869100000000000250e+01 -9.833199999999999719e+00 -3.007499999999999840e+00 -9.213108000000000075e+00 -1.248778038453900036e-01
-3.867199999999999704e+01 -3.304500000000000171e+01 9.397999999999999687e+00 -5.318300999999999945e+00 -2.459912491834581050e-01
-3.867199999999999704e+01 -3.281799999999999784e+01 8.598900000000000432e+00 -8.557854000000000738e+00 -2.431016659344117925e-01
-3.867199999999999704e+01 -3.281799999999999784e+01 1.019699999999999918e+01 -1.518515000000000015e+01 -2.480614607373551883e-01
-3.867199999999999704e+01 -3.152499999999999858e+01 1.091799999999999926e+01 -2.541257999999999839e+01 -2.510725380923802263e-01
-3.867099999999999937e+01 -3.046699999999999875e+01 1.500299999999999967e+00 -3.180388999999999911e+00 -2.269259716274841521e-01
-3.867099999999999937e+01 -2.739900000000000091e+01 8.927300000000000679e+00 -1.138959999999999972e+01 -2.863374736851014846e-01
-3.866599999999999682e+01 -1.286100000000000065e+01 4.918099999999999916e+00 1.158439000000000085e+01 -1.784690348102395685e-01
-3.866499999999999915e+01 -9.829000000000000625e+00 1.079899999999999949e+01 1.922791000000000139e+01 -1.704388063816675847e-01
-3.866499999999999915e+01 -8.278999999999999915e+00 1.079899999999999949e+01 4.011863000000000312e+01 -1.626295249663976539e-01
-3.865400000000000347e+01 -1.019800000000000040e+01 6.485999999999999766e+00 5.100845000000000518e-01 -1.360977628108911153e-01
-3.865400000000000347e+01 -9.147700000000000387e+00 6.485999999999999766e+00 5.392922999999999689e+00 -1.377198710953037308e-01
-3.865200000000000102e+01 -2.597500000000000142e+01 8.387299999999999756e+00 -1.059417999999999971e+01 -7.603164752176415353e-02
-3.864500000000000313e+01 -2.342599999999999838e+01 8.882799999999999585e-01 1.905369000000000090e+00 1.935488032372524592e-01
-3.864399999999999835e+01 -1.431499999999999950e+01 6.535800000000000054e+00 3.809255999999999975e+00 -1.088427336393488903e-01
-3.860000000000000142e+01 -1.710300000000000153e+01 1.064100000000000001e+01 -3.544807000000000041e+00 -1.093925285818253823e-01
-3.859599999999999653e+01 -1.148600000000000065e+01 4.450000000000000178e+00 -1.234839000000000020e+01 -1.874446045764131819e-01
-3.857500000000000284e+01 -3.162600000000000122e+01 6.572000000000000064e+00 -8.993752000000000635e+00 -2.398311819326149341e-01
-3.856099999999999994e+01 -2.592200000000000060e+01 1.717899999999999983e+00 -6.119850999999999708e+00 -8.710386080048615476e-02
-3.854599999999999937e+01 -1.082699999999999996e+01 9.544999999999999929e+00 2.381541000000000075e-01 -1.669986229854386606e-01
-3.853799999999999670e+01 -3.006400000000000006e+01 5.048399999999999999e+00 -9.451786999999999495e+00 -2.503815714655138192e-01
-3.852900000000000347e+01 -1.066300000000000026e+01 -3.367999999999999883e+00 -5.368678000000000061e+00 -3.926882983711785791e-01
-3.851500000000000057e+01 -3.042500000000000071e+01 4.326500000000000234e+00 -6.236099000000000281e+00 -2.373904052515119767e-01
-3.850399999999999778e+01 -3.036499999999999844e+01 5.792200000000000237e+00 -1.478358000000000061e+01 -2.525182055200492215e-01
-3.850300000000000011e+01 -1.092600000000000016e+01 4.124299999999999855e+00 -8.703637000000000512e+00 -1.896408819382314759e-01
-3.849499999999999744e+01 -1.393099999999999916e+01 5.837600000000000122e+00 8.943521000000000498e+00 -1.484697365400971247e-01
-3.849000000000000199e+01 -2.311899999999999977e+01 9.576299999999999812e+00 -9.963661000000000101e+00 -1.538595409632146083e-01
-3.847899999999999920e+01 -8.193500000000000227e+00 7.721099999999999852e+00 1.624484999999999957e+01 7.272383464546247622e-02
-3.846500000000000341e+01 -1.541499999999999915e+01 1.388100000000000023e+01 -3.048076000000000008e+01 1.388041927362914374e-01
-3.846500000000000341e+01 -1.389499999999999957e+01 1.388100000000000023e+01 -6.346914000000000300e+01 4.284985892244282807e-02
-3.845600000000000307e+01 -1.424499999999999922e+01 8.843600000000000350e+00 -7.295657000000000281e+00 -1.192854446123922801e-01
-3.844599999999999795e+01 -3.066799999999999926e+01 6.492200000000000415e+00 -7.954957000000000278e+00 -2.529160149613885467e-01
-3.844100000000000250e+01 -3.206600000000000250e+01 7.336500000000000021e+00 -8.453068999999999278e+00 -2.420888426786392544e-01
-3.841400000000000148e+01 -1.378299999999999947e+01 9.287800000000000722e+00 -1.876341000000000037e+01 -1.313217089169317897e-01
-3.840899999999999892e+01 -1.254100000000000037e+01 1.018699999999999939e+01 -7.979779999999999873e+00 -1.762319135878692711e-01
-3.838700000000000045e+01 -1.190300000000000047e+01 -3.789499999999999869e+00 7.139743000000000173e+00 -3.894429969260284619e-01
-3.837800000000000011e+01 -2.299299999999999855e+01 1.882800000000000029e-01 3.050434000000000090e+00 1.900595716908997368e-01
-3.837400000000000233e+01 -2.875900000000000034e+01 1.330000000000000071e-01 -4.303192000000000128e+00 -8.635966961401389530e-02
-3.837400000000000233e+01 -2.731299999999999883e+01 9.392599999999999838e-01 -9.276778999999999442e+00 -7.929334097709231366e-02
-3.836999999999999744e+01 -1.845700000000000074e+01 -3.291199999999999903e+00 7.292750999999999983e+00 -2.033549918370111675e-01
-3.836399999999999721e+01 -1.945899999999999963e+01 9.537399999999999878e+00 -9.606598999999999222e+00 1.298843918888284155e-01
-3.836299999999999955e+01 -1.216099999999999959e+01 4.859799999999999898e+00 4.079621999999999638e+00 -1.702640110342958923e-01
-3.835399999999999920e+01 -3.103000000000000114e+01 2.411399999999999988e+00 -5.053274000000000044e+00 -2.264462828813409989e-01
-3.834499999999999886e+01 -1.619999999999999929e+01 -5.173000000000000043e+00 1.603519999999999945e-01 -1.217689963931531255e-01
-3.834100000000000108e+01 -1.326600000000000001e+01 -5.370000000000000107e+00 -3.253910999999999998e+00 -3.839572963176483555e-01
-3.834000000000000341e+01 -3.096699999999999875e+01 3.386699999999999822e+00 -8.734026000000000067e+00 -2.286293515246128616e-01
-3.833100000000000307e+01 -1.689099999999999824e+01 -3.189900000000000180e+00 1.013142000000000031e+01 -1.477810299061360910e-01
-3.832600000000000051e+01 -8.708700000000000330e+00 -8.253300000000000081e-01 9.433051000000000630e-02 -1.482819693403603367e-01
-3.832600000000000051e+01 -8.708700000000000330e+00 2.253300000000000025e-01 -3.699237000000000108e+00 -1.780842412839567235e-01
-3.832099999999999795e+01 -1.693799999999999883e+01 1.123600000000000065e+01 -1.225643999999999956e+00 1.969587814305613638e-01
-3.831600000000000250e+01 -2.040299999999999869e+01 -3.263300000000000090e+00 -1.038456999999999963e+00 -2.671924317695525963e-01
-3.831199999999999761e+01 -1.989300000000000068e+01 1.037500000000000000e+01 -1.923561000000000076e+00 1.138627209350114022e-01
-3.831099999999999994e+01 -1.846000000000000085e+01 9.525900000000000034e+00 -1.224610999999999983e+01 1.684844103312679031e-01
-3.831000000000000227e+01 -1.260100000000000087e+01 1.112599999999999945e+01 -1.433430000000000071e+01 3.967785228412647885e-02
-3.830400000000000205e+01 -1.105799999999999983e+01 5.233799999999999564e+00 6.534957000000000127e-01 -1.511707287107801057e-01
-3.830199999999999960e+01 -2.415299999999999869e+01 1.082000000000000073e+00 -1.306053000000000075e-01 -6.608301437827339420e-02
-3.830100000000000193e+01 -1.016999999999999993e+01 3.729000000000000092e+00 -1.177561000000000035e+01 -1.854538357877522081e-01
-3.829999999999999716e+01 -9.733000000000000540e+00 1.329399999999999915e+00 -1.261227000000000054e+01 -1.913207395250530740e-01
-3.829999999999999716e+01 -1.087599999999999945e+01 8.679999999999999716e+00 4.133729999999999905e+00 -1.516835358341250828e-01
-3.829699999999999704e+01 -9.607699999999999463e+00 5.859700000000000131e+00 6.689728999999999814e+00 -1.347731771256507616e-01
-3.827600000000000335e+01 -1.480799999999999983e+01 -5.469999999999999751e+00 -1.465404999999999902e-01 -3.804400526653793913e-01
-3.826700000000000301e+01 -2.131099999999999994e+01 1.119699999999999918e+01 -1.904325999999999963e+00 7.099813157494989924e-02
-3.825000000000000000e+01 -1.496400000000000041e+01 8.168599999999999639e+00 9.294520999999999589e+00 -1.057073833543041852e-01
-3.824399999999999977e+01 -3.017299999999999827e+01 8.843800000000000550e-01 -3.854877999999999805e+00 9.309773172942728547e-02
-3.823700000000000188e+01 -1.667500000000000071e+01 1.197600000000000087e+01 -4.071133999999999808e+00 1.807655588821293624e-01
-3.822699999999999676e+01 -1.042500000000000071e+01 1.045899999999999963e+01 1.114607999999999954e+01 -1.731582036186344320e-01
-3.822299999999999898e+01 -2.268599999999999994e+01 1.027599999999999980e+01 -6.691281999999999508e-01 -1.514718095117948138e-01
-3.822099999999999653e+01 -1.075900000000000034e+01 6.017500000000000071e+00 7.634172000000000180e-01 -1.314218093999308112e-01
-3.821900000000000119e+01 -2.667500000000000071e+01 8.654600000000000293e+00 1.187424999999999953e+00 -7.543425179463693342e-02
-3.821099999999999852e+01 -9.833099999999999952e+00 -3.265600000000000058e+00 -1.138673999999999964e+01 -3.926400566295850103e-01
-3.820900000000000318e+01 -2.924399999999999977e+01 5.091300000000000381e+00 -1.131980000000000075e+01 -2.720484286741145508e-01
-3.820600000000000307e+01 -2.815200000000000102e+01 9.214800000000000324e+00 -1.290021999999999913e+01 -2.821405679320233562e-01
-3.820199999999999818e+01 -3.228499999999999659e+01 1.062800000000000011e+01 -2.923951999999999884e+01 -2.520356838180077275e-01
-3.820199999999999818e+01 -3.076500000000000057e+01 1.062800000000000011e+01 -7.684175000000000466e+01 -2.570768805640073484e-01
-3.820000000000000284e+01 -1.180499999999999972e+01 1.018699999999999939e+01 -2.581620000000000026e+00 -1.766705706069869319e-01
-3.818900000000000006e+01 -2.198900000000000077e+01 -2.055699999999999861e+00 -1.560416000000000025e+00 -1.083356796485712287e-01
-3.818599999999999994e+01 -9.054000000000000270e+00 1.109500000000000064e+01 2.856748999999999938e+01 -1.699582407962275388e-01
-3.818599999999999994e+01 -7.735500000000000043e+00 1.035999999999999943e+01 7.985296999999999912e+01 -1.550936557695195284e-01
-3.818599999999999994e+01 -7.503999999999999559e+00 9.544999999999999929e+00 4.196652000000000271e+01 -1.506530682047267367e-01
-3.818299999999999983e+01 -1.023600000000000065e+01 5.038999999999999702e+00 6.262427999999999884e-01 -1.478488408410662813e-01
-3.817300000000000182e+01 -2.460300000000000153e+01 8.906700000000000728e+00 -1.741290000000000049e+01 -1.329452650252894164e-01
-3.816599999999999682e+01 -2.951500000000000057e+01 9.923400000000000887e+00 -2.035390999999999906e+01 -2.664422875816258030e-01
-3.815699999999999648e+01 -3.240400000000000347e+01 8.112299999999999400e+00 -1.166446999999999967e+01 -2.462275358163398542e-01
-3.815100000000000335e+01 -2.954700000000000060e+01 4.391300000000000203e+00 -6.952690999999999732e+00 -2.560658656201449945e-01
-3.815100000000000335e+01 -2.954700000000000060e+01 5.791299999999999670e+00 -1.170228000000000002e+01 -2.738285577595874765e-01
-3.814500000000000313e+01 -1.511599999999999966e+01 6.644999999999999574e+00 1.324257000000000062e+01 -9.942463373781999791e-02
-3.813400000000000034e+01 -3.117200000000000060e+01 7.307100000000000151e+00 -1.321461000000000041e+01 -2.533155028084060900e-01
-3.812899999999999778e+01 -1.104800000000000004e+01 6.810699999999999754e+00 2.150777999999999857e+00 -1.219358121586067989e-01
-3.812899999999999778e+01 -1.104800000000000004e+01 7.861299999999999955e+00 5.065208000000000155e+00 -1.394987599010669155e-01
-3.812899999999999778e+01 -8.297700000000000742e+00 6.810699999999999754e+00 1.282799999999999940e+01 -1.303825839125462294e-01
-3.810399999999999920e+01 -1.476999999999999957e+01 5.836999999999999744e+00 8.005618999999999374e+00 -1.106537492808489925e-01
-3.809499999999999886e+01 -8.890599999999999170e+00 -1.657100000000000017e+00 -1.099169999999999980e+00 -1.349604572991676688e-01
-3.809300000000000352e+01 -1.218099999999999916e+01 9.484899999999999665e+00 -2.582336999999999883e+00 -1.766203356585973883e-01
-3.808100000000000307e+01 -1.307199999999999918e+01 9.327899999999999636e+00 -6.141751000000000182e+00 -1.504290606784058348e-01
-3.806400000000000006e+01 -1.645899999999999963e+01 -4.755200000000000315e+00 3.304158000000000150e+00 -1.221147905518189525e-01
-3.806400000000000006e+01 -1.645899999999999963e+01 -3.889899999999999913e+00 8.711131999999999209e+00 -1.200607490557388940e-01
-3.804299999999999926e+01 -1.293999999999999950e+01 1.192699999999999960e+01 -1.536979000000000006e+01 4.029869924827340216e-02
-3.803799999999999670e+01 -9.247899999999999565e+00 -2.459700000000000220e+00 -1.030631999999999948e+01 -1.263083781638594805e-01
-3.803300000000000125e+01 -1.016600000000000037e+01 2.029399999999999871e+00 -2.671161999999999992e+01 -1.894668664621979304e-01
-3.803000000000000114e+01 -1.107499999999999929e+01 -3.740000000000000213e+00 -8.266298000000000812e+00 -3.900182236215908871e-01
-3.802799999999999869e+01 -1.759100000000000108e+01 -3.131600000000000161e+00 1.156133999999999951e+01 -1.686766658993268941e-01
-3.801299999999999812e+01 -2.996799999999999997e+01 6.224899999999999878e+00 -1.487490999999999985e+01 -2.690009171497896867e-01
-3.800500000000000256e+01 -1.404100000000000037e+01 -5.434499999999999886e+00 -2.204323000000000032e+00 -3.810997123278987431e-01
-3.800099999999999767e+01 -9.233999999999999986e+00 1.075299999999999923e+00 -6.631420999999999566e+00 -1.728825401294984132e-01
-3.799499999999999744e+01 -1.594800000000000040e+01 1.344999999999999929e+01 -1.751625999999999905e+01 1.454759514236451667e-01
-3.799499999999999744e+01 -1.465499999999999936e+01 1.417099999999999937e+01 -1.826404000000000138e+01 4.521726209227962257e-02
-3.799499999999999744e+01 -1.336200000000000010e+01 1.344999999999999929e+01 -5.209197999999999951e+01 3.655792306124014401e-02
-3.799499999999999744e+01 -1.313499999999999979e+01 1.265099999999999980e+01 -5.919785000000000252e+01 3.882953265379768953e-02
-3.798799999999999955e+01 -1.271299999999999919e+01 -4.665300000000000225e+00 -1.579043000000000063e+01 -3.845633264273775609e-01
-3.798299999999999699e+01 -1.453100000000000058e+01 8.868600000000000705e+00 -1.091070999999999991e+01 -1.235525537962987308e-01
-3.797999999999999687e+01 -2.528900000000000148e+01 8.647000000000000242e+00 -9.839117999999999142e+00 -1.176904874459671763e-01
-3.797500000000000142e+01 -3.110600000000000165e+01 1.993700000000000028e+00 -6.032205000000000261e+00 -2.302880924512909766e-01
-3.796200000000000330e+01 -2.251300000000000168e+01 -5.990299999999999514e-01 1.701961999999999975e+00 -6.524998899997055957e-02
-3.796200000000000330e+01 -2.230399999999999849e+01 -1.335099999999999953e+00 -2.944198000000000093e-01 -8.605009155135556753e-02
-3.795499999999999829e+01 -8.821300000000000807e+00 5.872700000000000031e+00 8.851817999999999742e+00 -1.411928233181138359e-01
-3.794100000000000250e+01 -2.682199999999999918e+01 1.335900000000000087e+00 -6.852202000000000126e+00 -2.622048651156707599e-01
-3.794100000000000250e+01 -9.586700000000000443e+00 4.193200000000000038e+00 1.691389999999999949e+00 -1.558976552145095174e-01
-3.793200000000000216e+01 -1.007900000000000063e+01 3.068599999999999994e+00 -5.369544000000000317e+00 -1.764906737717114038e-01
-3.792900000000000205e+01 -9.342299999999999827e+00 5.038999999999999702e+00 7.522469000000000072e+00 -1.454016838581423665e-01
-3.792399999999999949e+01 -1.112500000000000000e+01 1.040099999999999980e+01 -2.755631999999999859e+00 -1.781383978342202523e-01
-3.791799999999999926e+01 -1.962199999999999989e+01 -3.423399999999999999e+00 5.676801000000000208e-01 -2.133426713956740328e-01
-3.791299999999999670e+01 -1.928800000000000026e+01 1.029299999999999926e+01 -1.694982999999999906e+00 1.341227047584445387e-01
-3.791299999999999670e+01 -1.842200000000000060e+01 1.029299999999999926e+01 6.563130000000000130e+00 1.718951894663283686e-01
-3.791199999999999903e+01 -3.275500000000000256e+01 8.928300000000000125e+00 -6.599882000000000026e+00 -2.492443182967798987e-01
-3.791199999999999903e+01 -3.275500000000000256e+01 9.867699999999999250e+00 -9.658851000000000298e+00 -2.522606953453331302e-01
-3.791199999999999903e+01 -1.550000000000000000e+01 -5.440400000000000347e+00 -7.869001000000000468e-02 -1.036596292863402047e-01
-3.790899999999999892e+01 -2.971699999999999875e+01 3.734500000000000042e-01 -3.450187000000000115e+00 -2.745441266695753946e-01
-3.789999999999999858e+01 -1.634199999999999875e+01 1.279700000000000060e+01 -1.108325999999999922e+01 1.601743866471957434e-01
-3.789800000000000324e+01 -1.354899999999999949e+01 5.263399999999999856e+00 2.453021999999999991e+01 -1.494882013139613441e-01
-3.789800000000000324e+01 -2.216100000000000136e+01 1.112599999999999945e+01 -6.676336999999999966e-01 4.801545828272750505e-02
-3.789800000000000324e+01 -2.046099999999999852e+01 1.112599999999999945e+01 -3.551651999999999809e+00 8.807215020167016850e-02
-3.789600000000000080e+01 -1.783399999999999963e+01 1.095500000000000007e+01 1.362800000000000011e+00 1.868478839247307288e-01
-3.789600000000000080e+01 -7.507699999999999818e+00 8.081699999999999662e+00 6.341628000000000043e+00 -1.441707598139141955e-01
-3.789200000000000301e+01 -2.371300000000000097e+01 4.229999999999999871e-01 4.017729000000000106e+00 2.195489632388242796e-01
-3.787599999999999767e+01 -1.201200000000000045e+01 1.078999999999999915e+01 -1.358270000000000088e+01 -1.831666183138039861e-01
-3.787299999999999756e+01 -3.152499999999999858e+01 1.069100000000000072e+01 -5.881981999999999999e+01 -2.561628897464239829e-01
-3.786299999999999955e+01 -2.597100000000000009e+01 8.628800000000000026e+00 2.665535999999999905e+00 -1.014415720113722441e-01
-3.785099999999999909e+01 -2.735500000000000043e+01 9.028299999999999770e+00 -7.692573000000000327e-01 -7.467069725022110194e-02
-3.784899999999999665e+01 -2.790899999999999892e+01 4.576700000000000212e-01 -3.132944999999999869e+00 -2.635529863110016580e-01
-3.783299999999999841e+01 -2.094999999999999929e+01 -2.868300000000000072e+00 -4.105212999999999779e-01 -2.537861013245549247e-01
-3.782900000000000063e+01 -3.022800000000000153e+01 9.960800000000000765e+00 -4.633507999999999782e+01 -2.641700908412835669e-01
-3.781300000000000239e+01 -2.506099999999999994e+01 1.242499999999999938e+00 -1.836961999999999984e+00 -4.592354999356017264e-02
-3.780499999999999972e+01 -1.166200000000000081e+01 5.511300000000000310e+00 1.285493999999999915e+00 -1.339749538928444728e-01
-3.777900000000000347e+01 -3.156099999999999994e+01 8.048000000000000043e+00 -1.171547999999999945e+01 -2.550087413643826739e-01
-3.776700000000000301e+01 -3.003999999999999915e+01 3.908100000000000129e+00 -9.768390999999999380e+00 -2.468920923827772340e-01
-3.774600000000000222e+01 -2.328500000000000014e+01 9.963400000000000034e+00 -3.859700999999999826e+00 -1.595261972708579834e-01
-3.773599999999999710e+01 -2.391100000000000136e+01 9.321500000000000341e+00 -8.053774999999999906e+00 -1.590534434354420323e-01
-3.772399999999999665e+01 -3.040899999999999892e+01 7.037099999999999689e+00 -7.152852000000000210e+00 -2.668296656246116894e-01
-3.771800000000000352e+01 -2.884700000000000131e+01 4.658699999999999619e+00 -8.249926000000000315e+00 -2.779331024794751137e-01
-3.771800000000000352e+01 -2.884700000000000131e+01 5.524000000000000021e+00 -9.390430000000000277e+00 -2.907696441771711604e-01
-3.770700000000000074e+01 -1.433699999999999974e+01 5.346099999999999852e+00 1.857007000000000119e+01 -1.455678744053353624e-01
-3.770700000000000074e+01 -9.829000000000000625e+00 1.079899999999999949e+01 6.664770000000000039e+01 -1.771746200825444206e-01
-3.770700000000000074e+01 -8.278999999999999915e+00 1.079899999999999949e+01 4.880340000000000344e+01 -1.596089712839807440e-01
-3.770100000000000051e+01 -1.031499999999999950e+01 -3.676699999999999857e+00 -1.159653999999999918e+01 -3.903223302160335195e-01
-3.769599999999999795e+01 -1.174799999999999933e+01 8.993999999999999773e+00 -1.703438999999999925e+00 -1.774980401165649480e-01
-3.769500000000000028e+01 -3.065299999999999869e+01 1.259900000000000020e+00 -4.528260000000000396e+00 -2.349125391063104917e-01
-3.767799999999999727e+01 -9.040300000000000225e+00 -2.018100000000000005e+00 -1.774248999999999965e+00 -1.273298129494171982e-01
-3.766499999999999915e+01 -7.882200000000000095e+00 7.217500000000000249e+00 1.005824999999999925e+01 -1.495869723666202744e-01
-3.766400000000000148e+01 -2.139300000000000068e+01 -2.537300000000000111e+00 -5.944452999999999543e-01 -2.465091381351892375e-01
-3.765400000000000347e+01 -1.551299999999999990e+01 6.212399999999999700e+00 9.893380999999999759e+00 -2.475976517051730053e-01
-3.764900000000000091e+01 -2.896199999999999974e+01 9.456400000000000361e+00 -1.229024000000000072e+01 -2.773430336156827436e-01
-3.764399999999999835e+01 -3.072100000000000009e+01 7.849400000000000155e+00 -1.279773999999999923e+01 -2.648529875586760340e-01
-3.764000000000000057e+01 -3.090899999999999892e+01 3.083299999999999930e+00 -1.181307999999999936e+01 -2.355280533420343603e-01
-3.763600000000000279e+01 -1.555599999999999916e+01 7.185599999999999987e+00 1.482607999999999926e+01 -1.098639642444504683e-01
-3.763100000000000023e+01 -1.802400000000000091e+01 -3.622500000000000053e+00 1.320974999999999966e+01 -1.665721402193083012e-01
-3.763100000000000023e+01 -1.715899999999999892e+01 -3.622500000000000053e+00 1.898301000000000016e+01 -1.366894751571878508e-01
-3.762899999999999778e+01 -1.740099999999999980e+01 1.165499999999999936e+01 -1.914449000000000067e+00 1.813364024847838041e-01
-3.760900000000000176e+01 -1.619999999999999929e+01 -5.382100000000000328e+00 -1.072547000000000084e-02 -1.133557954925856481e-01
-3.760499999999999687e+01 -1.718199999999999861e+01 -5.097999999999999865e+00 7.181832000000000216e-01 -1.348012976765779469e-01
-3.759799999999999898e+01 -8.785500000000000753e+00 5.428099999999999703e+00 5.276232000000000255e+00 -1.311947341546444712e-01
-3.757600000000000051e+01 -1.863899999999999935e+01 1.088499999999999979e+01 -1.927998000000000101e+00 1.547547757384089839e-01
-3.757399999999999807e+01 -2.594200000000000017e+01 1.347499999999999920e+00 -2.487083000000000155e+00 -2.522066597692048107e-01
-3.757300000000000040e+01 -1.685500000000000043e+01 -4.322499999999999787e+00 9.270372999999999308e+00 -1.241043415619802887e-01
-3.756600000000000250e+01 -1.356199999999999939e+01 -4.891000000000000014e+00 -2.351338999999999846e+00 -3.804709207578111929e-01
-3.754999999999999716e+01 -1.383099999999999952e+01 9.135999999999999233e+00 -1.121573000000000064e+01 -1.509483703725104375e-01
-3.754999999999999716e+01 -1.253800000000000026e+01 1.145500000000000007e+01 -1.895676999999999879e+01 2.903777761751993869e-02
-3.753000000000000114e+01 -2.300400000000000134e+01 -2.024299999999999988e-01 1.427398000000000000e-01 -3.044671107921545494e-02
-3.752700000000000102e+01 -2.875900000000000034e+01 2.509899999999999909e-01 -2.842448000000000086e+00 -2.680894021577978070e-01
-3.752499999999999858e+01 -1.541499999999999915e+01 1.388100000000000023e+01 -4.405055999999999727e+01 1.332067043114069649e-01
-3.752499999999999858e+01 -1.389499999999999957e+01 1.388100000000000023e+01 -8.895204999999999984e+01 3.545530563336515145e-02
-3.750099999999999767e+01 -3.018799999999999883e+01 9.461000000000000298e+00 -5.642459999999999809e+01 -2.687014320955636304e-01
-3.750000000000000000e+01 -1.468699999999999939e+01 -5.224000000000000199e+00 2.657740000000000080e+01 -3.777376485739863399e-01
-3.749300000000000210e+01 -1.184299999999999997e+01 -4.033199999999999896e+00 -2.620086999999999833e+00 -3.858587772207661137e-01
-3.747599999999999909e+01 -8.637900000000000134e+00 -1.193699999999999983e+00 2.619505000000000194e+00 -1.357002255752137732e-01
-3.747599999999999909e+01 -8.637900000000000134e+00 5.937400000000000455e-01 -2.490914000000000073e+00 -1.550406735009388082e-01
-3.747599999999999909e+01 -8.384000000000000341e+00 -2.999999999999999889e-01 -3.211660999999999877e+00 -1.587548496683422461e-01
-3.747599999999999909e+01 -1.888599999999999923e+01 -3.684600000000000097e+00 5.750323999999999991e+00 -1.855626467318882700e-01
-3.747099999999999653e+01 -1.133000000000000007e+01 1.069400000000000084e+01 -2.764130000000000198e+00 -1.854704341854382654e-01
-3.746600000000000108e+01 -1.964600000000000080e+01 1.093099999999999916e+01 -2.848719000000000001e+00 1.101796577111688186e-01
-3.746600000000000108e+01 -1.284900000000000020e+01 4.996000000000000441e+00 5.794472999999999985e-01 -1.454015838201471733e-01
-3.746300000000000097e+01 -9.264300000000000423e+00 3.528200000000000003e+00 -4.143609999999999793e+00 -1.424723755870740405e-01
-3.745199999999999818e+01 -2.447800000000000153e+01 5.566699999999999982e-01 1.752320000000000100e+00 -3.667315789926249570e-02
-3.745100000000000051e+01 -2.928000000000000114e+01 3.958699999999999886e+00 -5.875301000000000329e+00 -2.617440144259530199e-01
-3.745100000000000051e+01 -2.928000000000000114e+01 6.224000000000000199e+00 -6.995624000000000287e+00 -2.874302741687976281e-01
-3.744299999999999784e+01 -2.728300000000000125e+01 8.148999999999999577e-01 -3.186968999999999941e+00 -2.606302586171131974e-01
-3.744200000000000017e+01 -3.199500000000000099e+01 8.637999999999999901e+00 -8.733577999999999619e+00 -2.553638768105276902e-01
-3.744200000000000017e+01 -3.199500000000000099e+01 1.015799999999999947e+01 -2.951948000000000150e+01 -2.575992863034862745e-01
-3.744200000000000017e+01 -3.105499999999999972e+01 1.015799999999999947e+01 -4.179417000000000115e+01 -2.615490391299796213e-01
-3.744200000000000017e+01 -9.682100000000000151e+00 2.636000000000000121e+00 -2.520401999999999809e+00 -1.544984871641084390e-01
-3.742799999999999727e+01 -1.309099999999999930e+01 -4.129299999999999748e+00 1.787020999999999971e+00 -3.811523915298514198e-01
-3.742699999999999960e+01 -1.553400000000000070e+01 8.072900000000000631e+00 4.920100999999999836e+00 -1.170484147887598941e-01
-3.741899999999999693e+01 -7.700000000000000178e+00 1.008900000000000041e+01 2.726020000000000110e+01 -1.505725477514989197e-01
-3.740400000000000347e+01 -1.503700000000000081e+01 5.404399999999999871e+00 1.174248000000000047e+01 -2.566000343194825839e-01
-3.739399999999999835e+01 -1.148900000000000077e+01 8.272199999999999775e+00 7.622438999999999965e+00 -1.749975279050747234e-01
-3.738499999999999801e+01 -8.131399999999999295e+00 6.423600000000000421e+00 1.079898999999999987e+01 -1.414538904223298088e-01
-3.738300000000000267e+01 -2.202599999999999980e+01 -1.770999999999999908e+00 1.136764000000000108e+00 -8.710324837014332688e-02
-3.737899999999999778e+01 -3.232399999999999807e+01 9.397999999999999687e+00 -1.457714999999999961e+01 -2.555031738453331647e-01
-3.737299999999999756e+01 -2.275700000000000145e+01 1.064499999999999957e+01 -3.405538000000000176e-01 1.544677030826177855e-01
-3.737299999999999756e+01 -2.131099999999999994e+01 1.145100000000000051e+01 2.589014000000000149e+00 5.623443157225066491e-02
-3.737100000000000222e+01 -9.054000000000000270e+00 1.086400000000000077e+01 4.346762999999999977e+01 -1.680245286726600451e-01
-3.736500000000000199e+01 -2.974699999999999989e+01 4.427200000000000024e-01 -4.817295999999999800e+00 -2.751906139467250600e-01
-3.736399999999999721e+01 -1.759100000000000108e+01 -4.322499999999999787e+00 9.876595000000000013e+00 -1.427463865485309180e-01
-3.733500000000000085e+01 -1.823000000000000043e+01 -4.397999999999999687e+00 2.284689000000000192e+00 -1.593191349433889514e-01
-3.733299999999999841e+01 -8.860699999999999577e+00 4.513700000000000045e+00 1.089663999999999966e+00 -1.275145419826711479e-01
-3.732600000000000051e+01 -2.820499999999999829e+01 9.352999999999999758e+00 -2.549875000000000114e+00 -2.854675748706793081e-01
-3.732600000000000051e+01 -2.657499999999999929e+01 8.890000000000000568e+00 1.182598000000000038e+00 -9.920319081657122395e-02
-3.730799999999999983e+01 -3.107100000000000151e+01 8.596600000000000463e+00 -1.217463000000000051e+01 -2.639065762446259344e-01
-3.730400000000000205e+01 -1.687600000000000122e+01 1.250500000000000078e+01 -8.424991000000000341e+00 1.607613679022348308e-01
-3.729500000000000171e+01 -2.054299999999999926e+01 -2.608099999999999863e+00 1.357866999999999935e+00 -2.441895502043375521e-01
-3.727900000000000347e+01 -1.137299999999999933e+01 7.336000000000000298e+00 9.797650000000000858e+00 -1.433659553124940200e-01
-3.727700000000000102e+01 -1.792699999999999960e+01 -5.097999999999999865e+00 2.722513999999999879e+00 -1.479878924605410317e-01
-3.727400000000000091e+01 -3.070899999999999963e+01 9.427400000000000446e+00 -3.964352999999999838e+01 -2.666288204619433055e-01
-3.727400000000000091e+01 -9.040300000000000225e+00 1.418099999999999916e+00 -3.120162000000000213e-01 -1.485341120114024860e-01
-3.726200000000000045e+01 -2.257199999999999918e+01 -9.024299999999999544e-01 2.452303000000000122e-01 -5.363395131254603682e-02
-3.724300000000000210e+01 -9.269999999999999574e+00 2.208000000000000185e+00 1.601431000000000104e-01 -1.459608792766512730e-01
-3.724099999999999966e+01 -2.971399999999999864e+01 6.687700000000000422e+00 -6.484613000000000405e+00 -2.808024240879587463e-01
-3.723499999999999943e+01 -1.342500000000000071e+01 1.312100000000000044e+01 -5.012489999999999668e+01 3.132367515374805123e-02
-3.723199999999999932e+01 -3.014900000000000091e+01 7.166299999999999892e-01 -4.290704999999999991e+00 -2.791159535960645033e-01
-3.723100000000000165e+01 -1.107499999999999929e+01 -3.967000000000000082e+00 -5.361502999999999908e+00 -3.871130042148870354e-01
-3.723100000000000165e+01 -9.782000000000000028e+00 -3.246100000000000207e+00 -3.494028999999999741e+01 -3.905597311147043782e-01
-3.722099999999999653e+01 -1.000000000000000000e+01 1.041499999999999915e+01 4.153343999999999880e+01 1.980440626919459379e-02
-3.721200000000000330e+01 -1.759100000000000108e+01 -5.873000000000000220e+00 9.125459999999999683e-01 -1.398626270532823401e-01
-3.721200000000000330e+01 -1.663299999999999912e+01 -5.873000000000000220e+00 2.738429000000000002e+00 -1.214010054173903785e-01
-3.721099999999999852e+01 -3.002100000000000080e+01 7.581999999999999851e+00 -8.379407999999999745e+00 -2.768532838143952235e-01
-3.720600000000000307e+01 -1.208300000000000018e+01 1.065600000000000058e+01 -1.705370999999999881e+01 1.654709681567465701e-02
-3.720499999999999829e+01 -1.429800000000000004e+01 -4.891499999999999737e+00 1.350721000000000060e+01 -3.770193055576966379e-01
-3.719599999999999795e+01 -1.465499999999999936e+01 1.394400000000000084e+01 -6.740152000000000498e+01 4.044011773635504403e-02
-3.718599999999999994e+01 -1.596499999999999986e+01 1.323499999999999943e+01 -2.330107999999999890e+01 1.438139598849827450e-01
-3.717300000000000182e+01 -1.397100000000000009e+01 -4.115999999999999659e+00 6.087405999999999651e+00 -3.764916299518799581e-01
-3.717199999999999704e+01 -2.827499999999999858e+01 4.978699999999999903e+00 -3.916440000000000143e+00 -2.950702138764899618e-01
-3.716299999999999670e+01 -9.430500000000000327e+00 -2.488799999999999901e+00 -1.890327999999999875e+01 -3.921538747278411896e-01
-3.715999999999999659e+01 -1.510200000000000031e+01 8.772899999999999920e+00 -3.687450999999999812e+00 -1.348446158593258892e-01
-3.715800000000000125e+01 -3.132000000000000028e+01 1.633299999999999974e+00 -5.257672000000000345e+00 -2.368717748090433395e-01
-3.715800000000000125e+01 -3.132000000000000028e+01 2.572700000000000209e+00 -1.064908999999999928e+01 -2.374266002546291110e-01
-3.715699999999999648e+01 -1.526699999999999946e+01 -5.245300000000000296e+00 1.082630999999999943e+01 -3.755682202035682260e-01
-3.715200000000000102e+01 -1.800000000000000000e+01 1.134200000000000053e+01 8.211821000000000481e+00 1.676958861892162422e-01
-3.715200000000000102e+01 -3.152499999999999858e+01 9.397999999999999687e+00 -5.327810999999999808e+01 -2.616991102124246460e-01
-3.714699999999999847e+01 -1.177999999999999936e+01 9.955999999999999517e+00 -1.392239000000000004e+01 -1.909543463111054162e-01
-3.713100000000000023e+01 -1.940099999999999980e+01 -2.742700000000000138e+00 7.991964000000000290e+00 -2.432500815020942342e-01
-3.712199999999999989e+01 -1.265199999999999925e+01 -3.463299999999999823e+00 1.842026999999999859e+01 -3.815601397858315869e-01
-3.711500000000000199e+01 -1.366699999999999982e+01 -3.415999999999999925e+00 -2.554253999999999802e+00 -3.762862704245387158e-01
-3.711399999999999721e+01 -2.857799999999999940e+01 4.278699999999999726e+00 -4.726876999999999995e+00 -2.793745210175447302e-01
-3.711399999999999721e+01 -2.857799999999999940e+01 5.678700000000000081e+00 -6.774982999999999755e+00 -2.983445788273159094e-01
-3.708500000000000085e+01 -2.523100000000000165e+01 8.429999999999999716e+00 -4.389861999999999931e+00 -1.375167413345908529e-01
-3.708200000000000074e+01 -2.403300000000000125e+01 -6.264699999999999436e-02 2.317482000000000042e+00 -9.976101819283740568e-02
-3.708100000000000307e+01 -1.297199999999999953e+01 1.194599999999999973e+01 -3.092389999999999972e+01 2.785005832694367744e-02
-3.706499999999999773e+01 -8.870900000000000674e+00 3.787700000000000067e+00 -1.177418999999999993e+00 -1.261797220386047247e-01
-3.705199999999999960e+01 -2.393799999999999883e+01 9.371499999999999275e+00 -3.002064999999999984e+00 -1.563065226970059562e-01
-3.704599999999999937e+01 -7.436899999999999622e+00 7.713300000000000267e+00 5.569309999999999761e+00 -7.716947832637952032e-02
-3.704599999999999937e+01 -7.436899999999999622e+00 9.500700000000000145e+00 1.890570999999999913e+01 -1.444948258784490291e-01
-3.704599999999999937e+01 -7.182999999999999829e+00 8.606999999999999318e+00 3.394201999999999941e+01 -6.426783919441206305e-02
-3.703699999999999903e+01 -2.645200000000000173e+01 1.028699999999999948e+00 -3.754309999999999814e+00 -2.540847495456274863e-01
-3.703499999999999659e+01 -2.986599999999999966e+01 8.790499999999999758e+00 -1.549386999999999937e+01 -2.774140500668930143e-01
-3.701800000000000068e+01 -2.998000000000000043e+01 3.691300000000000026e+00 -1.337579999999999991e+01 -2.533733027061702003e-01
-3.701500000000000057e+01 -8.099700000000000344e+00 5.788700000000000401e+00 1.896535000000000082e+00 -3.719600931330987459e-01
-3.701299999999999812e+01 -7.681799999999999962e+00 6.761800000000000033e+00 8.633703999999999823e+00 -5.810352043247603987e-02
-3.700399999999999778e+01 -1.074900000000000055e+01 9.842599999999999127e+00 4.983696000000000126e+00 -1.849920208149533896e-01
-3.699199999999999733e+01 -2.510399999999999920e+01 9.139000000000000457e-01 -1.694344999999999990e+00 -2.387706446112169978e-01
-3.698299999999999699e+01 -2.790899999999999892e+01 4.576700000000000212e-01 -5.485901000000000138e+00 -2.633812088816080421e-01
