-9.113000000000000267e-02 8.261899999999999977e+01 1.324699999999999989e+01 -3.213639000000000134e+00 1.154080013542206490e-01
-7.594199999999999562e-02 8.205500000000000682e+01 1.415199999999999925e+01 -1.033217999999999925e+01 9.658060182643343761e-02
-7.332900000000000529e-02 9.171099999999999852e+01 6.682299999999999685e+00 1.893977999999999895e+01 -2.756556329093909907e-01
-6.164900000000000241e-02 8.676999999999999602e+01 1.026699999999999946e+00 -2.756534999999999958e+00 8.887579582189172878e-02
-6.099999999999999867e-02 8.798399999999999466e+01 9.932100000000000151e+00 -2.393464000000000169e+01 -3.158461615232009967e-01
-6.038700000000000317e-02 8.410200000000000387e+01 -1.004800000000000004e+01 -1.571289999999999942e+01 7.870704038965216365e-02
-4.611099999999999921e-02 5.965200000000000102e+01 1.831500000000000128e+01 -8.371947999999999723e+00 -7.986296314184043732e-02
-4.611099999999999921e-02 5.965200000000000102e+01 2.090099999999999980e+01 -8.895421000000000689e+00 3.094755809992427720e-01
-4.370600000000000179e-02 8.073199999999999932e+01 -1.513700000000000045e+01 -3.592980999999999980e+00 -1.006654311835902121e-01
-4.332899999999999946e-02 6.575700000000000500e+01 -4.975299999999999834e+00 -1.269241000000000064e+01 -1.179868987082607623e-01
-4.332899999999999946e-02 6.745699999999999363e+01 -4.975299999999999834e+00 -1.763496999999999915e+01 -2.063134458673596128e-01
-3.127599999999999825e-02 7.228000000000000114e+01 -1.695499999999999829e+01 -8.179413000000000267e+00 -2.526705198238023975e-01
-2.100000000000000130e-02 8.163299999999999557e+01 1.527100000000000080e+01 -2.224461000000000155e+01 8.871556615522464828e-02
-1.394300000000000053e-02 7.651399999999999579e+01 -1.558200000000000074e+01 -2.862975000000000048e+00 -1.548075589553308817e-01
-7.000000000000000146e-03 5.842199999999999704e+01 1.913800000000000168e+01 -7.983177000000000412e+00 -6.912894157545182439e-02
-7.000000000000000146e-03 5.842199999999999704e+01 2.007799999999999940e+01 -9.134634999999999394e+00 -6.855192928184286605e-02
-7.000000000000000146e-03 6.088199999999999790e+01 1.913800000000000168e+01 -6.050392000000000436e+00 2.010529327997426577e-02
-7.000000000000000146e-03 6.088199999999999790e+01 2.007799999999999940e+01 -1.090865999999999936e+01 1.927657331048050066e-02
1.641600000000000004e-02 7.793899999999999295e+01 -1.530599999999999916e+01 -2.867796999999999930e+00 -2.096391023008932764e-01
1.701599999999999988e-02 6.460800000000000409e+01 1.610800000000000010e+00 -3.373837999999999937e+01 -1.592927463095978047e-01
1.751499999999999932e-02 8.536799999999999500e+01 1.185399999999999920e+01 -1.580982000000000109e+00 -7.202990251668947574e-02
2.243300000000000155e-02 6.737399999999999523e+01 3.809899999999999842e+00 -1.348898999999999937e+01 -1.682065730839954754e-01
2.928100000000000147e-02 8.522299999999999898e+01 -2.222700000000000120e+00 -2.256556999999999924e+00 9.610617672717579676e-03
3.389400000000000052e-02 8.675199999999999534e+01 -4.789999999999999813e-01 -1.463305999999999996e+00 3.410117163700936149e-02
3.562400000000000289e-02 8.321099999999999852e+01 -4.396799999999999820e+00 5.349513000000000318e+01 3.762806023670228761e-02
3.585100000000000092e-02 7.035299999999999443e+01 -2.491800000000000015e+00 -4.008740999999999843e+01 -5.704789670355061432e-02
3.713600000000000234e-02 7.364400000000000546e+01 -1.732499999999999929e+01 -6.091903000000000290e+00 -2.473641956619400395e-01
3.749799999999999661e-02 9.016100000000000136e+01 7.156399999999999650e+00 9.338117000000000445e+00 -2.796459698501762015e-01
4.111700000000000077e-02 8.944199999999999307e+01 8.182000000000000384e+00 5.133056999999999759e-01 -2.911223848674245884e-01
5.600000000000000117e-02 6.179200000000000159e+01 -2.597599999999999909e+00 -1.033971000000000018e+01 -1.612928873033998289e-01
6.176999999999999852e-02 6.772599999999999909e+01 4.702700000000000102e+00 -1.466036000000000072e+01 -1.634819414600123533e-01
6.842199999999999671e-02 7.161899999999999977e+01 -2.685400000000000009e+00 -6.241004000000000218e+01 -6.546513525770972231e-02
7.063700000000000534e-02 6.335000000000000142e+01 -4.379700000000000260e-01 -2.671330000000000027e+01 -1.526665128706539698e-01
8.999999999999999667e-02 6.824299999999999500e+01 -1.200999999999999979e+01 -1.466773000000000060e+01 -2.209775263046790117e-01
8.999999999999999667e-02 6.824299999999999500e+01 -1.038000000000000078e+01 -3.517029000000000138e+01 -2.110807307991768855e-01
8.999999999999999667e-02 6.956199999999999761e+01 -9.644999999999999574e+00 -4.787156999999999840e+01 -3.424058234409981805e-01
1.029999999999999943e-01 8.385899999999999466e+01 1.258900000000000041e+01 2.357969000000000204e+00 1.498139493126997013e-01
1.046699999999999992e-01 8.638299999999999557e+01 -1.328999999999999959e+00 5.818692999999999671e+00 6.127406182380481549e-03
1.115099999999999980e-01 7.114499999999999602e+01 1.192999999999999972e+01 -1.126694999999999958e+01 -2.264316612332039347e-01
1.148799999999999960e-01 6.225099999999999767e+01 -1.634100000000000108e+00 -2.191281000000000034e+01 -1.572481657558511547e-01
1.266700000000000048e-01 8.399099999999999966e+01 -7.089000000000000412e+00 1.371859000000000073e+01 -1.440775758244980387e-01
1.277300000000000102e-01 6.790200000000000102e+01 -1.118299999999999983e+01 -1.640746000000000038e+01 -2.153490229713062032e-01
1.294899999999999940e-01 8.910599999999999454e+01 9.040100000000000691e+00 -7.527590000000000003e+00 -3.006863288822011482e-01
1.339799999999999880e-01 7.140699999999999648e+01 -1.605600000000000094e+01 -9.269676000000000471e+00 -2.529355698309163070e-01
1.374599999999999989e-01 7.501500000000000057e+01 -1.680099999999999838e+01 1.002832000000000079e+01 -1.561539353888278525e-01
1.441300000000000081e-01 6.854900000000000659e+01 -3.788400000000000212e+00 -3.129999000000000109e+01 -2.232731826319738211e-01
1.570400000000000129e-01 7.760099999999999909e+01 1.634100000000000108e+01 -6.528426999999999758e+00 -4.227266081747208665e-02
1.740400000000000003e-01 7.342400000000000659e+01 1.297400000000000020e+01 1.532257000000000069e+01 -2.192700693641000953e-01
1.759499999999999953e-01 6.428900000000000148e+01 -4.284399999999999764e+00 -1.152285000000000004e+01 -1.287643060968067521e-01
1.781300000000000106e-01 8.483199999999999363e+01 -8.468999999999999417e+00 -1.295809999999999995e+01 4.096276543634110034e-02
1.829500000000000015e-01 8.790699999999999648e+01 1.790100000000000025e+00 1.354845999999999995e+00 -1.627209595427540623e-01
1.829500000000000015e-01 8.909799999999999898e+01 2.454000000000000181e+00 2.155902000000000207e+00 -1.380122464912266200e-01
1.840499999999999914e-01 8.195000000000000284e+01 -1.184699999999999953e+01 6.253419000000000061e+00 7.916877871758158658e-02
1.856599999999999917e-01 6.766100000000000136e+01 5.595699999999999896e+00 -1.378635000000000055e+01 -1.655824531335408911e-01
1.965699999999999947e-01 8.001000000000000512e+01 1.795599999999999952e+01 -4.644311000000000078e+00 -8.053320765880048193e-02
1.990099999999999925e-01 8.458899999999999864e+01 -9.259700000000000486e+00 -1.374192999999999998e+01 5.529581787779984381e-02
2.004900000000000015e-01 6.574899999999999523e+01 2.168800000000000061e+00 -1.375252000000000052e+01 -2.964609137030641550e-01
2.083299999999999874e-01 6.152600000000000335e+01 -3.173099999999999810e+00 -9.170854000000000283e+00 -1.677970426182233132e-01
2.083299999999999874e-01 7.134300000000000352e+01 -8.120699999999999363e+00 -2.290626999999999924e+01 -5.303519273205521689e-02
2.083299999999999874e-01 7.134300000000000352e+01 -7.255399999999999849e+00 -2.291564999999999941e+01 -2.204157647917007468e-01
2.165600000000000025e-01 5.883400000000000318e+01 2.091400000000000148e+01 -1.059346000000000032e+01 -7.653791597881028086e-02
2.278399999999999870e-01 7.107500000000000284e+01 -6.297500000000000320e+00 -2.763175000000000026e+01 -2.307650216183371461e-01
2.467499999999999971e-01 8.490999999999999659e+01 1.225500000000000078e+01 -2.453675000000000050e+00 1.703099500770934582e-01
2.481099999999999972e-01 7.213599999999999568e+01 1.143900000000000006e+01 9.912086999999999648e+00 -2.277392364818887904e-01
2.504500000000000060e-01 8.298900000000000432e+01 -1.085200000000000031e+01 1.007464000000000048e+01 6.644786055078778786e-02
2.507400000000000184e-01 7.501900000000000546e+01 1.575500000000000078e+01 -6.749693999999999861e+00 2.808946387406249107e-02
2.534799999999999831e-01 6.706600000000000250e+01 1.058999999999999986e+01 -1.486846000000000068e+01 -1.477240448048674215e-01
2.545100000000000140e-01 7.425400000000000489e+01 1.492800000000000082e+01 -1.216098000000000035e+01 2.454285345260310072e-02
2.579199999999999826e-01 6.733299999999999841e+01 9.557199999999999918e+00 -2.623360999999999876e+01 -1.495514851426674729e-01
2.590000000000000080e-01 8.127899999999999636e+01 1.693900000000000006e+01 -1.123826999999999998e+01 -1.000001687975978493e-01
2.832899999999999863e-01 5.889200000000000301e+01 1.837800000000000011e+01 -9.548952999999999136e+00 -7.846805863430714179e-02
2.832899999999999863e-01 6.041199999999999903e+01 1.837800000000000011e+01 -1.280402000000000040e+00 1.954987407609219338e-02
2.832899999999999863e-01 6.041199999999999903e+01 2.083800000000000097e+01 -3.639996000000000009e+01 1.779094032376037429e-02
2.841400000000000037e-01 7.326900000000000546e+01 1.219699999999999918e+01 3.193207999999999913e+01 -3.437119333319610948e-01
2.862999999999999989e-01 6.301599999999999824e+01 -4.148399999999999643e+00 -1.102814000000000050e+01 -1.547067288433821575e-01
2.971199999999999952e-01 8.622799999999999443e+01 1.112899999999999956e+01 -7.104092999999999769e+00 -4.414190862702580681e-02
2.974300000000000277e-01 6.733100000000000307e+01 1.171799999999999997e+01 -2.146283999999999992e+01 -1.669815579830109253e-01
3.021900000000000142e-01 8.734000000000000341e+01 4.871800000000000019e-01 -2.376517999999999908e+00 7.581672420448887229e-02
3.029999999999999916e-01 8.277800000000000580e+01 -5.961999999999999744e+00 1.465926999999999936e+01 -1.263360077785780633e-01
3.029999999999999916e-01 8.277800000000000580e+01 -5.096799999999999997e+00 2.737762000000000029e+01 2.635866048672356327e-02
3.030800000000000161e-01 6.897499999999999432e+01 1.329400000000000048e+01 -2.618243999999999971e+01 -3.549045746271047019e-02
3.068799999999999861e-01 6.413899999999999579e+01 8.519299999999999651e-01 -1.913315000000000055e+01 -1.574042198215051258e-01
3.080600000000000005e-01 7.653199999999999648e+01 1.588700000000000045e+01 1.011940000000000062e+01 -8.993007097920816331e-03
3.140000000000000013e-01 7.143899999999999295e+01 -5.449300000000000033e+00 -4.489513999999999783e+01 9.318968354667583887e-02
3.155700000000000172e-01 6.388100000000000023e+01 5.935900000000000204e-02 -1.929975999999999914e+01 -1.530594214667834740e-01
3.256700000000000150e-01 6.199300000000000210e+01 -4.012999999999999901e+00 -7.342677000000000120e+00 -1.686606409963082032e-01
3.333300000000000152e-01 9.081300000000000239e+01 2.865699999999999914e+00 1.098556999999999917e+01 -1.340204515010696429e-01
3.361100000000000199e-01 8.528799999999999670e+01 -2.658500000000000085e+00 6.100138000000000504e-01 -6.477237835688047680e-03
3.400000000000000244e-01 6.748000000000000398e+01 6.452700000000000102e+00 -1.300375999999999976e+01 -2.673328033511487845e-01
3.400000000000000244e-01 6.748000000000000398e+01 7.503300000000000303e+00 -1.026659000000000077e+01 -1.657864345846068732e-01
3.408999999999999808e-01 9.086100000000000421e+01 7.098099999999999632e+00 2.508895000000000053e+01 -2.789567199335271086e-01
3.463100000000000067e-01 6.999200000000000443e+01 -1.308699999999999974e+01 -1.334426999999999985e+01 -2.405744223967637152e-01
3.659999999999999920e-01 8.154800000000000182e+01 1.637300000000000111e+01 -1.636976999999999904e+01 -1.167322082444887110e-01
3.659999999999999920e-01 8.175700000000000500e+01 1.563700000000000045e+01 -1.059920999999999935e+01 8.957938792751196644e-02
3.739999999999999991e-01 9.226300000000000523e+01 3.357000000000000206e+00 8.646430999999999756e+00 -1.322893958697781147e-01
3.739999999999999991e-01 9.358199999999999363e+01 4.092100000000000293e+00 1.144586999999999932e+01 -3.208893986193520759e-02
3.739999999999999991e-01 9.358199999999999363e+01 5.721899999999999764e+00 5.189979000000000298e+01 -2.726349419327359636e-01
3.739999999999999991e-01 9.381300000000000239e+01 4.907000000000000028e+00 1.054608999999999952e+01 -2.701024978483427819e-01
3.843300000000000050e-01 6.758100000000000307e+01 8.323100000000000165e+00 -1.313457999999999970e+01 -1.584078906250606100e-01
3.885500000000000065e-01 7.586499999999999488e+01 -1.658699999999999974e+01 -3.068757000000000179e+00 -1.565377346937701364e-01
3.965199999999999836e-01 6.811599999999999966e+01 -4.565299999999999692e+00 -2.330260000000000176e+01 -3.393814158418707594e-01
4.009400000000000186e-01 7.042600000000000193e+01 -9.298999999999999488e+00 -4.906701000000000334e+01 -3.428644297847150968e-01
4.042799999999999727e-01 8.746599999999999397e+01 1.037400000000000055e+01 -2.159382000000000090e+01 -3.248649412741302367e-01
4.126400000000000068e-01 7.034300000000000352e+01 1.253999999999999915e+01 -6.198548000000000258e+01 -1.003985868227576794e-01
4.142100000000000226e-01 7.729699999999999704e+01 -1.562100000000000044e+01 -2.811313999999999869e+00 -1.942050456757693500e-01
4.166900000000000048e-01 6.513100000000000023e+01 -4.618100000000000094e+00 -1.195762999999999998e+01 -1.182266061548443020e-01
4.259999999999999898e-01 7.997199999999999420e+01 -1.542699999999999960e+01 -7.444421000000000177e+00 -9.781442099813095203e-02
4.259999999999999898e-01 8.126500000000000057e+01 -1.470599999999999952e+01 -7.295124000000000386e+00 -1.005082348512635615e-01
4.259999999999999898e-01 8.138100000000000023e+01 -1.310899999999999999e+01 -2.433333999999999975e+01 7.686564286299346627e-02
4.259999999999999898e-01 8.149200000000000443e+01 -1.390700000000000003e+01 -2.985065000000000168e+01 7.570143260676479025e-02
4.259999999999999898e-01 8.159000000000000341e+01 -1.237299999999999933e+01 -7.122866000000000142e+00 7.450925698840403510e-02
4.330499999999999905e-01 6.951800000000000068e+01 -2.528700000000000170e+00 -4.433744000000000085e+01 -2.353973512855626338e-01
4.339999999999999969e-01 7.176200000000000045e+01 -1.651300000000000168e+01 -9.269676000000000471e+00 -2.456531796658534827e-01
4.401399999999999757e-01 7.283400000000000318e+01 -1.744900000000000162e+01 -6.668083000000000204e+00 -2.410339193836291416e-01
4.689900000000000180e-01 8.982500000000000284e+01 7.788999999999999702e+00 3.793477000000000210e+00 -2.866753547570363714e-01
4.727299999999999836e-01 5.787899999999999778e+01 1.935500000000000043e+01 -8.369263999999999371e+00 -6.158833065191356149e-02
4.746600000000000263e-01 5.800399999999999778e+01 1.994399999999999906e+01 -8.314429999999999765e+00 -6.394127830559347136e-02
4.819999999999999840e-01 6.660699999999999932e+01 -5.299999999999999822e+00 -1.524732000000000021e+01 -1.191940417630585614e-01
4.859999999999999876e-01 7.387999999999999545e+01 1.406300000000000061e+01 -1.248005999999999993e+01 2.272514896987270702e-02
4.935700000000000087e-01 6.760999999999999943e+01 1.264499999999999957e+01 -1.195547999999999966e+01 -2.936319969391599713e-02
5.010400000000000409e-01 7.091899999999999693e+01 -2.418000000000000149e+00 -5.812624000000000279e+01 -7.985522090609456503e-02
5.010400000000000409e-01 7.210999999999999943e+01 -4.554000000000000270e+00 -5.191223999999999705e+01 7.506317332095230332e-02
5.010400000000000409e-01 7.210999999999999943e+01 -3.081999999999999851e+00 -6.059604000000000212e+01 -7.560725224721989712e-02
5.010400000000000409e-01 7.231900000000000261e+01 -3.818000000000000060e+00 -5.596795000000000186e+01 4.329348814112141813e-02
5.086699999999999555e-01 8.676999999999999602e+01 1.094200000000000017e+01 -1.008826000000000001e+01 -3.324658120365392433e-01
5.147399999999999753e-01 8.594299999999999784e+01 -1.987999999999999989e+00 3.305501000000000134e-01 3.183736494226083180e-01
5.200200000000000378e-01 7.957500000000000284e+01 1.803800000000000026e+01 -2.838311000000000028e+00 -7.802596291454487465e-02
5.226199999999999735e-01 6.871099999999999852e+01 -1.257199999999999918e+01 -1.256786999999999921e+01 -2.285841770455825372e-01
5.233700000000000019e-01 7.595399999999999352e+01 1.586800000000000033e+01 1.006126000000000076e+00 5.444178831173110411e-03
5.296699999999999742e-01 6.672100000000000364e+01 3.327300000000000146e+00 -1.172230000000000061e+01 -1.644643469596757668e-01
5.397699999999999720e-01 8.345699999999999363e+01 -1.009500000000000064e+01 2.078196999999999850e+00 2.236544315105915004e-01
5.466299999999999493e-01 7.102200000000000557e+01 -8.520300000000000651e+00 -3.403529999999999944e+01 -3.420615067997822001e-01
5.475100000000000522e-01 6.175999999999999801e+01 -2.030699999999999950e+00 -9.807213000000000847e+00 -2.856049578101240161e-01
5.502299999999999969e-01 8.736199999999999477e+01 -4.637600000000000056e-02 -5.927113000000000520e-01 5.856311522095588445e-02
5.515099999999999447e-01 7.143600000000000705e+01 1.149699999999999989e+01 1.354518999999999984e+01 -2.335205406763625202e-01
5.515099999999999447e-01 7.283599999999999852e+01 1.149699999999999989e+01 5.136612999999999829e+01 -2.295103745391201266e-01
5.626299999999999635e-01 6.372899999999999920e+01 -4.317000000000000171e+00 -1.204941999999999958e+01 -1.444892529744422338e-01
5.659999999999999476e-01 8.203100000000000591e+01 1.466600000000000037e+01 -1.433822999999999936e+01 9.129173523065788054e-02
5.679899999999999949e-01 8.479800000000000182e+01 -3.380500000000000060e+00 2.914372999999999880e+00 -1.710557337207182713e-02
5.836700000000000221e-01 8.075400000000000489e+01 1.778900000000000148e+01 -4.945955999999999797e+00 -9.156416281810911273e-02
5.886200000000000321e-01 8.855599999999999739e+01 9.615399999999999281e+00 -2.288657999999999859e+01 -3.100428595054673386e-01
5.896599999999999620e-01 7.809199999999999875e+01 1.673799999999999955e+01 -8.163786999999999239e+00 -6.047590122469603813e-02
5.979999999999999760e-01 8.953900000000000148e+01 8.479300000000000281e+00 -1.350825999999999993e+01 -2.941497086365883473e-01
6.029999999999999805e-01 7.074599999999999511e+01 -1.476600000000000001e+01 -1.195982000000000056e+01 -2.437340350818986978e-01
6.029999999999999805e-01 7.097299999999999898e+01 -1.556499999999999950e+01 -1.024329000000000001e+01 -2.442057094703209419e-01
6.215300000000000269e-01 8.855200000000000671e+01 2.267999999999999794e+00 3.549761999999999862e+00 -1.460802785771763146e-01
6.300000000000000044e-01 8.723300000000000409e+01 -1.004299999999999971e+00 5.719875000000000043e+00 7.409761340477691305e-02
6.422999999999999821e-01 7.898900000000000432e+01 1.790700000000000003e+01 -4.047524000000000122e+00 -7.233921131775147839e-02
6.436699999999999644e-01 5.807500000000000284e+01 1.859199999999999875e+01 -6.418701000000000434e+00 -6.719666090840439865e-02
6.513499999999999845e-01 8.406900000000000261e+01 -3.930699999999999861e+00 8.228265999999999636e+00 -1.577662735618778900e-02
6.520000000000000240e-01 8.484099999999999397e+01 -7.413700000000000401e+00 1.563650999999999902e+00 1.403547730673566050e-02
6.525199999999999889e-01 8.406399999999999295e+01 -9.710900000000000531e+00 -6.849369000000000263e+00 2.095864136241644693e-01
6.576699999999999768e-01 8.564499999999999602e+01 1.181400000000000006e+01 -1.083449000000000062e+01 -6.911215221276617582e-02
6.611299999999999955e-01 8.246299999999999386e+01 -1.130599999999999916e+01 8.863490999999999786e+00 5.860658114977211619e-02
6.844000000000000083e-01 7.044899999999999807e+01 -1.377299999999999969e+01 -1.209918000000000049e+01 -2.396307391218107374e-01
6.909499999999999531e-01 6.281900000000000261e+01 -9.352899999999999547e-01 -1.452360999999999969e+01 -1.572466464087378391e-01
6.912599999999999856e-01 7.079399999999999693e+01 1.181000000000000050e+01 -3.607509999999999906e+01 -2.355872484063960548e-01
7.017400000000000304e-01 8.996299999999999386e+01 2.794900000000000162e+00 9.987116999999999578e+00 -1.340781664100661186e-01
7.135700000000000376e-01 7.415200000000000102e+01 -1.754899999999999949e+01 1.755355999999999916e+00 -1.402667628086593510e-01
7.219999999999999751e-01 8.258499999999999375e+01 1.330599999999999916e+01 1.787863999999999898e+00 1.108221629398363495e-01
7.219999999999999751e-01 8.377599999999999625e+01 1.264199999999999946e+01 4.926396999999999693e+00 1.467218379442555287e-01
7.336599999999999788e-01 8.209300000000000352e+01 -1.174000000000000021e+01 2.913301000000000140e+00 5.948171100428226860e-02
7.356200000000000516e-01 8.347799999999999443e+01 -6.229400000000000048e+00 6.553328999999999738e+00 1.553966043829142218e-01
7.366800000000000015e-01 6.887900000000000489e+01 -9.955299999999999372e+00 -4.088291999999999859e+01 -3.422324899773924178e-01
7.442299999999999471e-01 6.490999999999999659e+01 1.817299999999999915e+00 -1.383159999999999989e+01 -1.619505731809185445e-01
7.490099999999999536e-01 5.931099999999999994e+01 2.148000000000000043e+01 -1.072879000000000005e+01 3.176097161373317990e-01
7.530000000000000027e-01 5.965200000000000102e+01 1.808800000000000097e+01 -7.738953999999999667e+00 -8.440091550467439252e-02
7.530000000000000027e-01 6.094500000000000028e+01 1.880900000000000105e+01 7.309928999999999633e+01 1.469980834924951643e-02
7.530000000000000027e-01 6.094500000000000028e+01 2.040700000000000003e+01 -2.480276999999999887e+01 1.372200881087485766e-02
7.530000000000000027e-01 6.117199999999999704e+01 1.960800000000000054e+01 -2.298360999999999876e-01 1.365743131515506983e-02
7.647500000000000409e-01 6.240299999999999869e+01 -1.347299999999999942e+00 -1.536678999999999995e+01 -1.601431006829981407e-01
7.703499999999999792e-01 6.864300000000000068e+01 1.339400000000000013e+01 -3.110812999999999917e+01 -4.390642674934159412e-02
7.731599999999999584e-01 7.364400000000000546e+01 -1.753399999999999892e+01 -2.131040000000000045e+00 -1.387341861475356319e-01
7.899500000000000410e-01 6.464799999999999613e+01 1.301299999999999901e+00 -1.770886000000000138e+01 -1.602622996676361933e-01
7.921899999999999498e-01 7.675300000000000011e+01 -1.614900000000000091e+01 -2.073998000000000008e+00 -1.770837610215770241e-01
7.939100000000000046e-01 8.317499999999999716e+01 -5.529399999999999871e+00 1.325689999999999991e+01 -1.240212529635683833e-02
7.976199999999999957e-01 6.814000000000000057e+01 1.302699999999999925e+01 -4.517137999999999920e+01 -3.830709716677456467e-02
8.046499999999999764e-01 7.550400000000000489e+01 -1.698300000000000054e+01 -1.147761000000000031e+00 -1.457845658205681461e-01
8.072599999999999776e-01 6.251800000000000068e+01 -4.609099999999999753e+00 -9.663363000000000369e+00 -1.722526225766500552e-01
8.116700000000000026e-01 6.904999999999999716e+01 -1.284900000000000020e+01 -1.283172000000000068e+01 -2.331760520695199401e-01
8.120000000000000551e-01 6.730400000000000205e+01 4.270400000000000418e+00 -9.680949000000000026e+00 -1.759667405178642341e-01
8.120000000000000551e-01 6.730400000000000205e+01 5.135699999999999932e+00 -7.574764000000000053e+00 -1.743110073680520233e-01
8.208100000000000396e-01 9.142199999999999704e+01 3.250199999999999978e+00 1.465834000000000081e+01 -1.316394041515676627e-01
8.260999999999999455e-01 8.903199999999999648e+01 2.764699999999999935e+00 5.229445000000000121e+00 -1.330269387847612950e-01
8.271800000000000264e-01 8.355700000000000216e+01 -4.730100000000000193e+00 1.010373000000000054e+01 -2.070558599197014696e-02
8.340199999999999836e-01 6.983400000000000318e+01 1.296599999999999930e+01 -8.555585000000000662e+01 -4.661557889225277640e-02
8.410199999999999898e-01 7.079800000000000182e+01 -7.267000000000000348e+00 -2.308841999999999928e+01 -2.342318414344168043e-01
8.479900000000000215e-01 8.440900000000000603e+01 -6.527499999999999858e+00 1.117994000000000021e+01 -4.974114708240262410e-03
8.509999999999999787e-01 6.114300000000000068e+01 -3.688299999999999912e+00 -6.652984000000000009e+00 -1.804119045174845393e-01
8.509999999999999787e-01 6.114300000000000068e+01 -2.637700000000000156e+00 -8.409905000000000186e+00 -2.926369572063315938e-01
8.529799999999999605e-01 9.303799999999999670e+01 3.653000000000000025e+00 5.075521000000000171e+00 -3.470688248269018089e-02
8.529799999999999605e-01 9.303799999999999670e+01 6.160999999999999588e+00 2.482078999999999951e+02 -2.742580121986972208e-01
8.654500000000000526e-01 6.815600000000000591e+01 -1.167399999999999949e+01 -2.173329000000000022e+01 -2.218493245771150646e-01
8.656700000000000506e-01 6.881799999999999784e+01 -3.661300000000000221e+00 -4.153372000000000241e+01 -2.322120808481463183e-01
8.656700000000000506e-01 6.902700000000000102e+01 -2.925300000000000011e+00 -4.975688999999999851e+01 -2.340707293159277058e-01
8.656700000000000506e-01 7.021800000000000352e+01 -2.261299999999999866e+00 -6.449344000000000676e+01 -7.973152549596684846e-02
8.667899999999999494e-01 6.758599999999999852e+01 -5.124399999999999622e+00 -1.821443999999999974e+01 -2.311482303448176567e-01
8.740400000000000391e-01 7.369100000000000250e+01 1.340700000000000003e+01 -3.610656999999999783e+00 1.089939609421830199e-02
8.885199999999999765e-01 7.818699999999999761e+01 -1.557499999999999929e+01 -2.842230999999999952e+00 -2.038388523584941936e-01
8.957100000000000062e-01 8.073199999999999932e+01 -1.513700000000000045e+01 -4.990185000000000315e+00 -9.796634288960859305e-02
8.992799999999999683e-01 7.228000000000000114e+01 -1.695499999999999829e+01 -8.276687000000000793e+00 -2.345272968688934534e-01
9.003799999999999581e-01 7.920399999999999352e+01 -1.528400000000000070e+01 -5.240762000000000143e+00 -2.163940240199038745e-01
9.226699999999999902e-01 8.901399999999999579e+01 9.329299999999999926e+00 -2.487528000000000006e+01 -3.044507251071325027e-01
9.336699999999999999e-01 7.161899999999999977e+01 -2.685400000000000009e+00 -7.114325999999999794e+01 1.625538519413545213e-01
9.355299999999999727e-01 8.554300000000000637e+01 -2.905899999999999928e+00 -1.379415999999999976e+00 -3.409104680125084330e-02
9.492300000000000182e-01 6.043299999999999983e+01 2.122700000000000031e+01 -2.404266000000000147e+01 3.106098303967793628e-01
9.534799999999999942e-01 6.679800000000000182e+01 1.102299999999999969e+01 -1.634718000000000160e+01 -1.714441463464838333e-01
9.545099999999999696e-01 7.431300000000000239e+01 1.462400000000000055e+01 -1.045481999999999978e+01 1.518612698166008079e-02
9.545099999999999696e-01 7.452200000000000557e+01 1.535999999999999943e+01 -6.776633000000000351e+00 9.986732439862897742e-03
9.546700000000000186e-01 8.670799999999999841e+01 -1.854300000000000059e+00 8.337237000000000009e+00 2.267630234027268737e-02
9.547499999999999876e-01 8.476900000000000546e+01 -3.872399999999999842e+00 9.704045000000000032e-01 -3.815520759066713674e-02
9.559900000000000064e-01 7.525400000000000489e+01 1.560100000000000087e+01 -4.574499999999999567e+00 2.260455717782036689e-02
9.579100000000000392e-01 6.739199999999999591e+01 9.860599999999999810e+00 -1.652986999999999895e+01 -1.560085641426738057e-01
9.579100000000000392e-01 6.760099999999999909e+01 9.124599999999999156e+00 -1.540670000000000073e+01 -1.595268143774874192e-01
9.700100000000000389e-01 6.658299999999999841e+01 1.183200000000000074e+01 -1.292172000000000054e+01 -1.739645211494258714e-01
9.715399999999999592e-01 8.798600000000000421e+01 1.351599999999999913e+00 2.847157999999999856e+00 -1.817381317390885653e-01
9.723899999999999766e-01 8.296599999999999397e+01 -1.049099999999999966e+01 8.577445000000000874e+00 2.198096079074904341e-01
9.773300000000000320e-01 9.171099999999999852e+01 6.682299999999999685e+00 2.390611000000000175e+01 -2.765555079376976200e-01
9.841400000000000148e-01 7.213599999999999568e+01 1.123000000000000043e+01 6.906888999999999612e+01 -2.404918798979698846e-01
9.841400000000000148e-01 7.332699999999999818e+01 1.189400000000000013e+01 2.566372000000000142e+01 -9.851921781180028592e-02
9.841400000000000148e-01 7.353600000000000136e+01 1.263000000000000078e+01 5.523520000000000429e+00 -1.059751989004383554e-01
9.886200000000000543e-01 5.744200000000000017e+01 1.982799999999999940e+01 -7.977027999999999786e+00 -5.442713856893278968e-02
9.896899999999999586e-01 6.609499999999999886e+01 2.970099999999999962e+00 -8.594706999999999653e+00 -1.780724078076725836e-01
1.000499999999999945e+00 8.742700000000000671e+01 1.047600000000000087e+01 -7.482638999999999818e+00 -3.258698320672716586e-01
1.000899999999999901e+00 5.719700000000000273e+01 1.898199999999999932e+01 -7.727192999999999756e+00 -4.868940502309955509e-02
1.004099999999999993e+00 8.445099999999999341e+01 -9.353699999999999903e+00 -4.302241000000000426e+00 4.851390013479484759e-02
1.014000000000000012e+00 7.103600000000000136e+01 -5.928499999999999659e+00 -3.509976999999999947e+01 8.198240998955974579e-02
1.022299999999999986e+00 7.760099999999999909e+01 1.634100000000000108e+01 -1.215306999999999960e+01 -5.259759423021331814e-02
1.023500000000000076e+00 5.873700000000000188e+01 1.800900000000000034e+01 -1.981818999999999997e+00 -7.968144278950982373e-02
1.024999999999999911e+00 8.783299999999999841e+01 1.876700000000000035e-01 2.923512999999999806e+00 7.059388158544216418e-02
1.030999999999999917e+00 6.515699999999999648e+01 -4.950000000000000178e+00 -1.240279999999999916e+01 -1.267219706638891830e-01
1.033300000000000107e+00 6.691200000000000614e+01 1.259200000000000053e+01 -1.675382000000000104e+01 -2.849126752771568571e-01
1.044399999999999995e+00 6.909199999999999875e+01 1.338499999999999979e+01 -2.927045999999999992e+01 -5.186343690124294026e-02
1.058499999999999996e+00 6.462600000000000477e+01 -4.663100000000000023e+00 -1.192023999999999972e+01 -1.325983645147518208e-01
1.060100000000000042e+00 8.821500000000000341e+01 1.952599999999999891e+00 4.510307000000000066e+00 -1.603681184589296760e-01
1.064699999999999980e+00 6.551800000000000068e+01 2.543299999999999894e+00 3.011254000000000097e+00 -1.724211886350684453e-01
1.065700000000000092e+00 9.041200000000000614e+01 7.325000000000000178e+00 1.636906000000000105e+01 -2.819812419894890398e-01
1.066000000000000059e+00 8.181499999999999773e+01 1.593999999999999950e+01 -1.388607000000000014e+01 -1.311588381393410663e-01
1.071700000000000097e+00 5.756600000000000250e+01 1.813200000000000145e+01 -2.426552000000000042e+00 -5.807303890013350289e-02
1.072699999999999987e+00 7.150600000000000023e+01 -1.599600000000000044e+01 -1.577425999999999995e+01 -2.346711748154746147e-01
1.084300000000000042e+00 6.731300000000000239e+01 7.890399999999999636e+00 -1.667413000000000167e+01 -1.738461071172676675e-01
1.088999999999999968e+00 7.133700000000000330e+01 1.138700000000000045e+01 -7.538689999999999891e+00 -2.425056216067894288e-01
1.100700000000000012e+00 7.489600000000000080e+01 -1.738200000000000145e+01 2.522799000000000014e+00 -1.357143435988406310e-01
1.100999999999999979e+00 5.764699999999999847e+01 2.040399999999999991e+01 -8.378287000000000262e+00 -5.954772455605407411e-02
1.104999999999999982e+00 6.363400000000000034e+01 -2.220100000000000129e-01 -1.667569999999999908e+01 -1.557468222669357305e-01
1.105599999999999916e+00 7.648199999999999932e+01 1.609900000000000020e+01 -7.623008999999999702e+00 -1.784785617894718221e-02
1.108999999999999986e+00 7.845799999999999841e+01 1.730799999999999983e+01 -6.890579999999999927e+00 -7.151120760305555712e-02
1.108999999999999986e+00 7.990399999999999636e+01 1.811400000000000077e+01 1.739126999999999867e+01 -8.548013810029972404e-02
1.108999999999999986e+00 8.134999999999999432e+01 1.730799999999999983e+01 -7.754510999999999932e+00 -1.563073893054258146e-01
1.108999999999999986e+00 8.169499999999999318e+01 1.652499999999999858e+01 -1.065559000000000012e+01 -1.143246897254139444e-01
1.110000000000000098e+00 6.870999999999999375e+01 -4.243400000000000283e+00 -4.293283999999999878e+01 -2.399039475185558712e-01
1.112000000000000099e+00 8.490999999999999659e+01 1.225500000000000078e+01 -7.194439000000000028e+00 -1.040637688438430242e-01
1.125000000000000000e+00 7.020499999999999829e+01 1.214600000000000080e+01 -5.939177000000000106e+01 -2.649142741464521195e-02
1.125000000000000000e+00 8.826900000000000546e+01 2.690999999999999837e+00 2.362026000000000181e+00 -1.361827748160636953e-01
1.133999999999999897e+00 7.274099999999999966e+01 -1.769900000000000162e+01 -8.118330999999999520e+00 -1.358032917814266383e-01
1.141899999999999915e+00 6.670699999999999363e+01 -5.424000000000000377e+00 -1.495074999999999932e+01 -1.230196254541548601e-01
1.149000000000000021e+00 9.351699999999999591e+01 4.427999999999999936e+00 4.454034000000000049e+01 -2.686049574294568920e-01
1.149000000000000021e+00 9.351699999999999591e+01 5.386000000000000121e+00 3.820477000000000345e+01 -2.718107394495137275e-01
1.154600000000000071e+00 8.307599999999999341e+01 1.290900000000000070e+01 7.263175999999999632e+00 -1.471053551495250800e-01
1.160300000000000109e+00 6.834300000000000352e+01 -5.041199999999999903e+00 -2.770102999999999938e+01 -2.539724123478274143e-01
1.163599999999999968e+00 7.002899999999999636e+01 -9.301999999999999602e+00 -3.887626999999999811e+01 -3.425762744761630119e-01
1.173000000000000043e+00 7.621200000000000330e+01 -1.682499999999999929e+01 -2.071940000000000115e+00 -1.466061454102386419e-01
1.175699999999999967e+00 6.166799999999999926e+01 -4.538299999999999557e+00 -3.159167000000000058e+00 -1.856456906447712663e-01
1.175699999999999967e+00 6.166799999999999926e+01 -1.787700000000000067e+00 -6.937240000000000073e+00 -2.872888533918671050e-01
1.183300000000000018e+00 8.857200000000000273e+01 3.391000000000000014e+00 1.647882000000000069e+00 -1.162784443773190873e-01
1.183300000000000018e+00 8.943800000000000239e+01 3.391000000000000014e+00 6.290720000000000312e+00 -1.216055486657026535e-01
1.183300000000000018e+00 9.048799999999999955e+01 3.391000000000000014e+00 1.582149000000000072e+01 -1.269642132729366102e-01
1.183999999999999941e+00 6.405100000000000193e+01 7.278200000000000225e-01 -1.466839000000000048e+01 -1.598693082409884947e-01
1.185999999999999943e+00 7.393800000000000239e+01 1.375999999999999979e+01 -5.977918999999999983e+00 6.124952004285640766e-03
1.185999999999999943e+00 8.120199999999999818e+01 -1.437700000000000067e+01 -1.908068000000000097e+01 4.029639191359673384e-02
1.188900000000000068e+00 9.226300000000000523e+01 3.588499999999999801e+00 7.052838000000000385e+00 -1.313624600865320458e-01
1.189999999999999947e+00 6.715500000000000114e+01 6.977999999999999758e+00 -1.259958999999999918e+01 -1.826396698523539142e-01
1.193599999999999994e+00 8.155800000000000693e+01 -1.364499999999999957e+01 -3.431716000000000122e+01 5.439801708340798875e-02
1.197400000000000020e+00 6.289399999999999835e+01 -9.507499999999999840e-01 -1.507366000000000028e+01 -1.591780206842094425e-01
1.206499999999999906e+00 6.045300000000000296e+01 1.824399999999999977e+01 -4.774278999999999940e+00 -9.450532996267990704e-02
1.225100000000000078e+00 7.997199999999999420e+01 -1.519999999999999929e+01 -7.907753999999999728e+00 6.061612370658882309e-02
1.233200000000000074e+00 8.402599999999999625e+01 1.259800000000000075e+01 1.992702000000000084e-01 -1.224868461051233509e-01
1.250199999999999978e+00 8.643600000000000705e+01 1.133099999999999952e+01 -8.946127999999999858e+00 -4.650914433568766743e-02
1.254699999999999926e+00 9.231699999999999307e+01 6.298600000000000421e+00 2.233900999999999826e+01 -2.748386235388764476e-01
1.267600000000000060e+00 8.623099999999999454e+01 -2.453300000000000036e+00 -1.931683999999999957e+00 -3.798908249041362678e-02
1.274699999999999944e+00 5.878600000000000136e+01 2.189099999999999824e+01 -8.526220000000000354e+00 3.237346938004289632e-01
1.274699999999999944e+00 5.983599999999999852e+01 2.189099999999999824e+01 -1.235984999999999978e+01 3.161386789725905144e-01
1.280200000000000005e+00 8.257899999999999352e+01 -1.124200000000000088e+01 -2.316943999999999948e-01 3.903703978603813990e-02
1.283900000000000041e+00 6.258299999999999841e+01 -4.971700000000000230e+00 -9.178501000000000687e+00 -1.803795425622289339e-01
1.293600000000000083e+00 7.210099999999999909e+01 -3.340100000000000069e+00 -6.999661999999999296e+01 -2.650026965422102275e-03
1.293600000000000083e+00 7.231000000000000227e+01 -4.076100000000000279e+00 -6.030505000000000138e+01 2.778404245560181507e-02
1.296999999999999931e+00 5.807900000000000063e+01 2.128999999999999915e+01 -8.390169999999999462e+00 -6.939373722895496310e-02
1.298300000000000010e+00 6.951800000000000068e+01 -2.528700000000000170e+00 -6.258760000000000190e+01 -2.414050922376448638e-01
1.298300000000000010e+00 7.091800000000000637e+01 -2.528700000000000170e+00 -7.364906999999999471e+01 -9.359769890218648525e-02
1.301299999999999901e+00 8.173499999999999943e+01 -1.276999999999999957e+01 -9.723026000000000835e+00 4.714743551236180025e-02
1.325900000000000079e+00 8.592799999999999727e+01 -3.153300000000000214e+00 -8.231071999999999278e+00 -4.601327492876480796e-02
1.331700000000000106e+00 8.590800000000000125e+01 -3.986099999999999977e+00 -6.018568000000000140e+00 1.315503546582770800e-01
1.336999999999999966e+00 6.820000000000000284e+01 -1.147400000000000020e+01 -1.575897999999999932e+01 -2.226281052747906275e-01
1.336999999999999966e+00 6.831799999999999784e+01 -1.062700000000000067e+01 -2.039650999999999925e+01 -2.185523995185619239e-01
1.336999999999999966e+00 6.845399999999999352e+01 -1.236800000000000033e+01 -1.217797999999999981e+01 -2.286774712275512211e-01
1.336999999999999966e+00 6.978499999999999659e+01 -1.328999999999999915e+01 -1.166552000000000078e+01 -2.317484429864742901e-01
1.338799999999999990e+00 7.206900000000000261e+01 -4.857599999999999696e+00 -5.623984000000000094e+01 6.070014688465801000e-02
1.344700000000000006e+00 6.872299999999999898e+01 -1.019699999999999918e+01 -2.781332000000000093e+01 -3.423424730728014675e-01
1.351399999999999935e+00 8.433599999999999852e+01 -5.763300000000000090e+00 3.639927000000000135e+00 1.329155771906325445e-01
1.351399999999999935e+00 8.433599999999999852e+01 -4.363299999999999734e+00 4.958878999999999593e+00 -5.806795504043454903e-02
1.358600000000000030e+00 8.245900000000000318e+01 1.423199999999999932e+01 -4.789232000000000156e+00 -1.742321669753531255e-01
1.361900000000000110e+00 6.392600000000000193e+01 -4.604800000000000004e+00 -1.126816999999999958e+01 -1.544802311673282302e-01
1.362999999999999989e+00 7.103600000000000136e+01 -1.523600000000000065e+01 -1.599853000000000058e+01 -2.312982106277752803e-01
1.363199999999999967e+00 8.221800000000000352e+01 1.502100000000000080e+01 -6.128714999999999691e+00 9.230052439909020023e-02
1.369799999999999907e+00 6.734600000000000364e+01 1.318200000000000038e+01 -1.161185000000000045e+01 -4.778859522136609528e-02
1.374400000000000066e+00 8.486299999999999955e+01 -6.116900000000000226e+00 7.358907999999999561e-01 1.437673180529733252e-01
1.383999999999999897e+00 7.084600000000000364e+01 -5.567099999999999937e+00 -3.169700999999999880e+01 6.799790030453860268e-02
1.388600000000000056e+00 7.595399999999999352e+01 1.586800000000000033e+01 -5.426308999999999827e+00 -2.713388868140229580e-03
1.390500000000000069e+00 6.690099999999999625e+01 1.025699999999999967e+01 -1.504490000000000016e+01 -1.629905045206553327e-01
1.392400000000000082e+00 7.063700000000000045e+01 1.144599999999999973e+01 -2.494197000000000131e+01 -2.263004861329613246e-02
1.393599999999999950e+00 6.668600000000000705e+01 3.683699999999999974e+00 -7.121050999999999576e+00 -1.736652344795837355e-01
1.396300000000000097e+00 8.500799999999999557e+01 -7.026600000000000179e+00 -2.003921000000000063e+00 -6.287372069375081474e-03
1.405100000000000016e+00 8.809900000000000375e+01 9.924599999999999866e+00 -3.063672000000000040e+01 -3.162261783341167587e-01
1.409599999999999964e+00 8.403300000000000125e+01 -5.063299999999999912e+00 5.084367000000000303e+00 1.224537592904396260e-01
1.415300000000000002e+00 8.897499999999999432e+01 3.804100000000000037e+00 3.894261999999999890e+00 -1.106855297272044264e-01
1.416800000000000059e+00 7.283599999999999852e+01 1.149699999999999989e+01 4.953555999999999671e+01 -1.204198086516932859e-01
1.417300000000000004e+00 9.094599999999999795e+01 6.815999999999999837e+00 3.066985999999999990e+01 -2.779707995019645161e-01
1.421999999999999931e+00 8.264300000000000068e+01 1.360899999999999999e+01 -1.006426999999999961e+00 -1.663046710165221043e-01
1.422600000000000087e+00 8.766100000000000136e+01 -5.700499999999999456e-01 1.089861999999999931e+01 8.551044637903888745e-02
1.431000000000000050e+00 7.046099999999999852e+01 -8.602000000000000313e+00 -2.972382999999999953e+01 -2.347620670451745217e-01
1.431000000000000050e+00 7.046099999999999852e+01 -7.736699999999999910e+00 -2.793817999999999913e+01 -2.416524794461428483e-01
1.431000000000000050e+00 7.046099999999999852e+01 -6.797299999999999898e+00 -2.860382999999999853e+01 -2.499564719997455220e-01
1.433699999999999974e+00 8.215099999999999625e+01 -1.204299999999999926e+01 -3.334410999999999792e+00 3.863048499493904747e-02
1.443200000000000038e+00 6.949399999999999977e+01 -9.536400000000000432e+00 -2.583717000000000041e+01 -3.424114298328919115e-01
1.447999999999999954e+00 8.960999999999999943e+01 8.847699999999999676e+00 -3.296317000000000164e+00 -2.970654408170305127e-01
1.447999999999999954e+00 8.996699999999999875e+01 8.045099999999999696e+00 4.749887000000000192e+00 -2.892466355390821420e-01
1.455799999999999983e+00 7.910899999999999466e+01 -1.527999999999999936e+01 -4.664753000000000149e+00 -2.118621505262805460e-01
1.462099999999999955e+00 7.097599999999999909e+01 -1.429700000000000060e+01 -3.328237000000000023e+01 -2.292665903606244948e-01
1.463700000000000001e+00 6.585699999999999932e+01 -5.217299999999999827e+00 -1.429077999999999982e+01 -1.266475310023536249e-01
1.470099999999999962e+00 9.092600000000000193e+01 3.830700000000000216e+00 1.639242000000000132e+01 -1.235518499540602944e-01
1.470299999999999940e+00 6.837600000000000477e+01 1.382699999999999996e+01 -9.750310999999999950e+00 -6.082421736984842259e-02
1.479999999999999982e+00 8.730400000000000205e+01 -1.372700000000000031e+00 1.175609999999999999e+01 4.658106190120028106e-02
1.489999999999999991e+00 6.459000000000000341e+01 1.604700000000000015e+00 -1.450998000000000054e+01 -2.996285759312732333e-01
1.489999999999999991e+00 7.435399999999999920e+01 -1.789600000000000080e+01 -3.097269999999999968e+00 -1.283530766088020469e-01
1.492499999999999938e+00 7.295600000000000307e+01 -1.838400000000000034e+01 -7.680533999999999750e+00 -1.335254857430226427e-01
1.494799999999999907e+00 8.515999999999999659e+01 -7.717800000000000438e+00 -6.594114000000000253e+00 7.377752035574119613e-03
1.497600000000000042e+00 6.787199999999999989e+01 1.346000000000000085e+01 -1.037391000000000041e+01 -5.455354069031918135e-02
1.502000000000000002e+00 8.491200000000000614e+01 -8.832700000000000884e+00 -4.212221999999999689e+00 3.202704856261624766e-02
1.502999999999999892e+00 6.615200000000000102e+01 1.136200000000000010e+01 -1.285881999999999969e+01 -1.832390154045439590e-01
1.502999999999999892e+00 6.615200000000000102e+01 1.230199999999999960e+01 -1.203194000000000052e+01 -2.856920662246280607e-01
1.505300000000000082e+00 7.199699999999999989e+01 -1.639199999999999946e+01 -1.151908000000000065e+01 -2.244597662085869028e-01
1.515800000000000036e+00 8.537399999999999523e+01 -4.982400000000000162e+00 -7.041127000000000358e+00 1.345281147791221599e-01
1.520399999999999974e+00 7.067300000000000182e+01 -1.359699999999999953e+01 -1.375004999999999988e+01 -2.282707911398900169e-01
1.520599999999999952e+00 6.102900000000000347e+01 1.913400000000000034e+01 4.603146000000000271e+01 6.462428387382886281e-03
1.521600000000000064e+00 7.440399999999999636e+01 1.583099999999999952e+01 1.610014000000000056e+00 -9.835450480653507369e-03
1.531199999999999894e+00 6.090400000000000347e+01 1.842599999999999838e+01 1.404808000000000057e+01 7.615057765559156595e-03
1.541600000000000081e+00 7.796699999999999875e+01 1.691100000000000136e+01 -1.014354999999999940e+01 -6.687562155050208457e-02
1.551900000000000057e+00 8.635899999999999466e+01 -3.422099999999999920e+00 -1.626453000000000060e+01 1.344224708532829327e-01
1.553299999999999903e+00 5.809100000000000108e+01 1.753600000000000136e+01 1.842025999999999941e+00 -7.343779645435426218e-02
1.565700000000000092e+00 6.908499999999999375e+01 -3.228699999999999903e+00 -7.658232999999999890e+01 -2.450852820756808936e-01
1.572999999999999954e+00 8.358100000000000307e+01 -9.754699999999999704e+00 -5.176394000000000162e+00 1.884024604704936379e-01
1.586100000000000065e+00 6.070199999999999818e+01 -3.092000000000000082e+00 -9.279426000000000840e+00 -1.853358408309352390e-01
1.586999999999999966e+00 8.509199999999999875e+01 -5.716099999999999959e+00 -3.361333000000000237e-01 1.403686563349913763e-01
1.586999999999999966e+00 8.662699999999999534e+01 -4.181000000000000050e+00 -1.213785000000000025e+01 1.442919625610860623e-01
1.587299999999999933e+00 6.188300000000000267e+01 -4.913400000000000212e+00 -7.921496000000000315e+00 -1.913807232198581898e-01
1.588999999999999968e+00 6.510500000000000398e+01 -5.068200000000000038e+00 -1.233151999999999937e+01 -1.361258355605254877e-01
1.590000000000000080e+00 6.492199999999999704e+01 2.061700000000000088e+00 -3.466122999999999843e-01 -3.036891376768042217e-01
1.595299999999999940e+00 6.097599999999999909e+01 -4.075400000000000134e+00 -9.336004000000000858e+00 -1.922128335351498407e-01
1.596999999999999975e+00 5.671600000000000108e+01 1.845700000000000074e+01 -7.273301000000000016e+00 -3.816695491099759974e-02
1.596999999999999975e+00 5.671600000000000108e+01 1.950700000000000145e+01 -8.815791000000000821e+00 -3.804228592322848185e-02
1.599800000000000111e+00 7.713299999999999557e+01 1.636799999999999855e+01 -1.580320000000000036e+01 -4.487620306890547500e-02
1.600899999999999990e+00 6.910699999999999932e+01 -4.676000000000000156e+00 -3.366149000000000058e+01 -2.648928583628005762e-01
1.601699999999999902e+00 7.021800000000000352e+01 -2.470400000000000151e+00 -8.318281000000000347e+01 1.247431898201773262e-02
1.615499999999999936e+00 6.100900000000000034e+01 -2.197700000000000209e+00 -9.834673000000000442e+00 -2.919368330366973185e-01
1.615799999999999903e+00 7.347199999999999420e+01 1.313799999999999990e+01 -6.179683999999999955e+00 -2.239544758838534627e-02
1.616000000000000103e+00 8.787199999999999989e+01 2.258399999999999963e+00 2.515934999999999810e+00 -1.554407137318161158e-01
1.616000000000000103e+00 8.787199999999999989e+01 3.123600000000000154e+00 -2.236440000000000095e-01 -1.250730335225133660e-01
1.618700000000000028e+00 8.476900000000000546e+01 -5.063299999999999912e+00 1.019193000000000016e+00 1.278764775230994133e-01
1.619899999999999896e+00 6.317600000000000193e+01 -6.910199999999999676e-01 -2.117552999999999841e+01 -1.597107536347899259e-01
1.624400000000000066e+00 8.823900000000000432e+01 3.804100000000000037e+00 -1.420916000000000068e+00 -1.062570546908770536e-01
1.626100000000000101e+00 6.701000000000000512e+01 7.924400000000000333e+00 -1.601041999999999987e+01 -1.829012753643865508e-01
1.627999999999999892e+00 9.274200000000000443e+01 4.131999999999999673e+00 3.256463000000000108e+01 -2.666351749613350419e-01
1.627999999999999892e+00 9.274200000000000443e+01 5.682000000000000384e+00 2.792152000000000100e+01 -2.725715857726896396e-01
1.634300000000000086e+00 7.905400000000000205e+01 1.778900000000000148e+01 2.757919999999999927e+00 -1.357419655176085593e-01
1.634300000000000086e+00 8.075400000000000489e+01 1.778900000000000148e+01 1.871367999999999920e+00 -1.440601725377949893e-01
1.650300000000000100e+00 8.629800000000000182e+01 -4.940999999999999837e+00 -7.179313999999999751e+00 1.479447133837079320e-01
1.651999999999999913e+00 7.551200000000000045e+01 -1.724399999999999977e+01 -1.741340000000000110e+00 -1.324008804152805308e-01
