4.292300000000000182e+01 5.532099999999999795e+01 6.812000000000000455e+01 4.952168999999999599e+00 2.040358921043865671e-03
4.292300000000000182e+01 5.532099999999999795e+01 6.898600000000000421e+01 5.853964000000000389e+00 2.733644223115742379e-03
4.292499999999999716e+01 6.634000000000000341e+00 5.023400000000000176e+01 -2.877606000000000108e+00 8.213042547107497759e-02
4.292699999999999960e+01 3.191899999999999959e+00 7.837699999999999534e+01 -1.483341000000000065e+01 -3.061297069793764841e-02
4.292799999999999727e+01 4.835899999999999643e+00 5.012599999999999767e+01 -7.372270999999999574e+00 8.887018204900838658e-02
4.292799999999999727e+01 5.903199999999999648e+01 7.133899999999999864e+01 -4.124502999999999808e+00 -6.482603825122143981e-04
4.292900000000000205e+01 -7.192999999999999616e+00 5.299900000000000233e+01 -1.819994000000000156e+01 -1.632220843196515725e-01
4.292900000000000205e+01 -2.891199999999999992e+00 7.707500000000000284e+01 -1.734480000000000022e+00 -9.060023438691755526e-02
4.293099999999999739e+01 -4.873800000000000132e+00 5.328399999999999892e+01 -3.239741000000000071e+01 -1.618491489990649401e-01
4.294400000000000261e+01 4.991499999999999915e+01 5.446000000000000085e+01 -5.143952999999999776e+00 -1.125354418569295134e-01
4.294400000000000261e+01 4.494599999999999795e+01 6.829000000000000625e+01 -1.462705000000000055e+01 -2.854711564470253649e-01
4.294700000000000273e+01 3.658399999999999874e+00 4.524900000000000233e+01 2.588137000000000132e+00 -1.580083885361673324e-01
4.294800000000000040e+01 -6.422299999999999898e+00 5.015899999999999892e+01 4.030297000000000018e+00 -1.730026410376041268e-01
4.294800000000000040e+01 -6.422299999999999898e+00 5.102499999999999858e+01 -1.172159000000000084e+01 -1.730531366494077461e-01
4.294800000000000040e+01 -1.278400000000000070e+01 4.987400000000000233e+01 1.198493999999999948e-01 -1.763242183471321611e-01
4.294899999999999807e+01 3.808200000000000074e+01 5.840899999999999892e+01 1.516292999999999891e+00 1.301850292271344856e-02
4.295000000000000284e+01 4.271999999999999886e+01 5.451100000000000279e+01 -2.900971000000000188e+00 -1.086144953877053732e-01
4.295400000000000063e+01 6.981699999999999307e+01 5.163799999999999812e+01 -1.270677000000000056e+01 -1.672499094168177491e-01
4.295600000000000307e+01 7.425400000000000489e+01 6.622199999999999420e+01 -8.470029999999999504e+00 -3.499999999999999778e-01
4.295700000000000074e+01 -2.706999999999999851e+00 3.640699999999999648e+01 6.080832000000000015e+00 -2.897158962988360953e-01
4.295799999999999841e+01 5.749600000000000222e+01 4.316799999999999926e+01 -5.319048999999999694e+01 -1.730328415858058411e-01
4.295900000000000318e+01 4.999699999999999811e+00 8.040399999999999636e+01 -1.326996999999999982e+00 7.749859695111503688e-02
4.295900000000000318e+01 6.050300000000000011e+00 8.040399999999999636e+01 -1.330217000000000027e+01 7.951647243756576611e-02
4.296000000000000085e+01 -7.397800000000000153e+00 4.906799999999999784e+01 -2.397002000000000166e+01 -1.737403826051977795e-01
4.296300000000000097e+01 7.705000000000000071e+00 7.647100000000000364e+01 -4.742589999999999861e+00 4.676022245365685226e-02
4.296300000000000097e+01 4.000600000000000023e+01 5.464399999999999835e+01 -2.514190999999999843e+00 -2.203653869599431769e-01
4.296800000000000352e+01 1.198700000000000043e-01 5.332999999999999829e+01 -4.634522999999999726e+00 -1.574831339543186215e-01
4.296800000000000352e+01 -4.418999999999999595e+00 7.637500000000000000e+01 -2.439407000000000103e+00 -8.902720088623347627e-02
4.297299999999999898e+01 -4.997899999999999565e+00 6.536100000000000421e+01 -1.503064999999999962e+01 -2.761942067751834706e-01
4.297500000000000142e+01 4.497899999999999565e+00 4.086999999999999744e+01 3.024894999999999889e+00 -2.938806333592114961e-01
4.297500000000000142e+01 5.120700000000000074e+01 5.084100000000000108e+01 -5.722925000000000040e+00 -2.086748133646812720e-01
4.297800000000000153e+01 5.951400000000000290e+01 6.982399999999999807e+01 -6.058270000000000266e+00 -2.021733766969353863e-03
4.297800000000000153e+01 -1.145299999999999940e+01 4.945000000000000284e+01 6.677630999999999872e+00 -1.758495361536814294e-01
4.297899999999999920e+01 2.167699999999999960e+01 7.005299999999999727e+01 -9.323289000000000826e+00 -8.342660408837977715e-02
4.297899999999999920e+01 2.319699999999999918e+01 6.759300000000000352e+01 -2.267819999999999947e+00 -1.934588244177535554e-01
4.297899999999999920e+01 2.319699999999999918e+01 7.005299999999999727e+01 -4.016814000000000107e+01 -8.471198676290130070e-02
4.297899999999999920e+01 3.042299999999999827e+01 6.674399999999999977e+01 1.802376999999999896e+00 -2.447554588308554213e-01
4.297999999999999687e+01 8.911300000000000665e+00 7.471699999999999875e+01 -4.709632000000000041e+00 4.795114023297206152e-02
4.297999999999999687e+01 9.858000000000000540e+00 7.496800000000000352e+01 -4.802121999999999780e+00 5.087440119993197341e-02
4.298400000000000176e+01 9.483900000000000219e+00 5.199399999999999977e+01 4.220901999999999710e+00 -5.405791866258728012e-03
4.298599999999999710e+01 -1.527300000000000102e+00 7.735599999999999454e+01 -2.868379000000000012e+00 -9.179393530912823007e-02
4.298700000000000188e+01 6.201700000000000301e+01 4.832699999999999818e+01 -1.979662000000000077e+01 -1.715883161656882039e-01
4.298899999999999721e+01 5.758400000000000318e+01 7.274299999999999500e+01 -2.642700000000000049e+00 -2.797652105321236093e-01
4.299600000000000222e+01 1.799500000000000099e+01 5.721900000000000119e+01 2.481533999999999907e+01 -3.206370450511627501e-01
4.300000000000000000e+01 -7.327300000000000146e+00 5.232900000000000063e+01 -1.210444999999999993e+01 -1.630436079695764540e-01
4.300000000000000000e+01 1.746999999999999886e+01 5.760799999999999699e+01 2.638821000000000083e+01 -3.245766940136660672e-01
4.300099999999999767e+01 4.649900000000000233e+01 5.489999999999999858e+01 4.245016999999999818e+00 -1.119577467526607223e-01
4.300200000000000244e+01 1.237500000000000000e+01 5.348199999999999932e+01 -1.346219000000000054e+00 -2.900551545081187649e-02
4.300300000000000011e+01 4.222999999999999865e+00 4.132600000000000051e+01 2.460393999999999970e+00 -2.932172903921034246e-01
4.300500000000000256e+01 1.733699999999999974e+01 7.489400000000000546e+01 -7.711611999999999689e+00 -8.642668536019429415e-02
4.300900000000000034e+01 1.854200000000000159e+01 6.973399999999999466e+01 -6.536370999999999931e+00 -1.055250384200517866e-01
4.301100000000000279e+01 -7.207099999999999618e+00 6.077000000000000313e+01 -2.624849999999999905e+00 -2.766033769294101718e-01
4.301100000000000279e+01 -3.198099999999999832e-01 3.887199999999999989e+01 8.275128999999999735e+00 -2.902617392165588450e-01
4.301200000000000045e+01 5.413899999999999935e+00 3.816299999999999670e+01 -4.530413999999999830e-01 -2.949102360393343614e-01
4.301599999999999824e+01 1.099099999999999966e+01 7.572599999999999909e+01 7.844746999999999693e-01 -1.084494342386368715e-01
4.301899999999999835e+01 6.071699999999999875e+01 4.907699999999999818e+01 -3.061475000000000080e+01 -1.729439574032849980e-01
4.302000000000000313e+01 -4.462900000000000311e+00 5.222399999999999665e+01 -8.384610000000000340e+00 -1.608559758874065493e-01
4.302300000000000324e+01 5.697399999999999665e+01 5.116299999999999670e+01 -1.500408000000000008e+01 -1.788178335565842603e-01
4.302600000000000335e+01 -5.046000000000000263e+00 5.553799999999999670e+01 -6.274854999999999627e+00 -1.635796440123539752e-01
4.302700000000000102e+01 7.773399999999999643e+00 7.739000000000000057e+01 -1.173783000000000065e+01 7.964355126502892235e-02
4.303000000000000114e+01 1.252299999999999969e+00 5.095499999999999829e+01 -1.002326000000000050e+01 -1.635411681711080034e-01
4.303000000000000114e+01 1.252299999999999969e+00 5.235499999999999687e+01 -4.111836000000000269e+00 -1.542335907233516878e-01
4.303000000000000114e+01 -1.371199999999999974e+01 3.719299999999999784e+01 -1.652514000000000038e+00 -1.791296816429858163e-01
4.303099999999999881e+01 -5.190400000000000347e+00 5.279599999999999937e+01 -2.691425999999999874e+01 -1.618178963943907589e-01
4.303099999999999881e+01 -6.853399999999999714e+00 3.705299999999999727e+01 -5.604777000000000342e+00 -2.884915386515602975e-01
4.303199999999999648e+01 4.957200000000000273e+01 6.866899999999999693e+01 -5.165249000000000201e+00 -2.826361822072370744e-01
4.303300000000000125e+01 3.344700000000000273e+01 6.693500000000000227e+01 3.531366999999999923e+00 -3.836821623594005581e-01
4.303399999999999892e+01 3.634400000000000119e+01 6.640500000000000114e+01 -6.775143999999999611e-01 -3.178421020922610474e-01
4.303600000000000136e+01 7.255599999999999739e+01 6.601399999999999579e+01 -2.220955000000000013e+00 -3.499999999999999778e-01
4.303600000000000136e+01 5.272599999999999909e+01 5.093900000000000006e+01 -7.352421999999999791e+00 -2.055263232337631030e-01
4.303799999999999670e+01 5.654399999999999871e+00 4.183800000000000097e+01 -5.447153000000000134e-01 -2.954785787220099436e-01
4.303799999999999670e+01 7.283599999999999852e+01 5.446399999999999864e+01 -1.560491999999999990e+01 -2.583885489171832694e-01
4.303999999999999915e+01 6.861299999999999955e+01 4.891199999999999903e+01 7.484193000000000318e+00 -1.678523391188891101e-01
4.304099999999999682e+01 5.165800000000000125e+01 6.863500000000000512e+01 8.162986999999999327e+00 -2.816284184215639419e-01
4.304299999999999926e+01 1.075999999999999979e+01 5.278499999999999659e+01 6.552332999999999963e+00 1.419711732201121013e-01
4.304299999999999926e+01 -9.257100000000000328e-01 5.528000000000000114e+01 -4.195421999999999763e+00 -1.613199907209200701e-01
4.304299999999999926e+01 3.188299999999999912e+01 6.865500000000000114e+01 6.654067000000000398e+00 -2.859750905595538906e-01
4.304399999999999693e+01 7.698299999999999699e+00 7.540600000000000591e+01 3.419639999999999702e+01 -2.969221090708499752e-02
4.304599999999999937e+01 2.038599999999999923e+01 6.812300000000000466e+01 -6.313810000000000144e+00 -1.042037090143645983e-01
4.304699999999999704e+01 5.731700000000000017e+00 5.030899999999999750e+01 -3.453387999999999902e+00 8.696590235702281180e-02
4.304800000000000182e+01 -7.492499999999999716e+00 6.160699999999999932e+01 -2.604283000000000126e+00 -2.765691472394309347e-01
4.304800000000000182e+01 1.213999999999999968e+00 7.828799999999999670e+01 -5.228678000000000026e+01 -3.033678236693844107e-02
4.304899999999999949e+01 1.823100000000000165e+01 6.884000000000000341e+01 -1.458755000000000024e+01 -1.041220161754263518e-01
4.304899999999999949e+01 1.218099999999999916e+01 7.818800000000000239e+01 -7.287664000000000364e+00 -8.758885181535649989e-02
4.304899999999999949e+01 1.373099999999999987e+01 7.818800000000000239e+01 -1.922528000000000148e+01 -9.129816883866005706e-02
4.305100000000000193e+01 -6.134100000000000108e+00 5.264800000000000324e+01 -3.986209000000000202e+01 -1.624232344520742943e-01
4.305100000000000193e+01 6.582699999999999818e+01 4.584700000000000131e+01 -3.640664999999999818e+00 -1.692609689773410808e-01
4.305799999999999983e+01 -7.501500000000000057e+00 5.798199999999999932e+01 3.831013999999999808e-01 -1.658768708229625410e-01
4.306000000000000227e+01 5.427499999999999858e+01 5.137700000000000244e+01 -8.629460999999999160e+00 -1.852634515715761709e-01
4.306000000000000227e+01 4.611200000000000188e+00 4.248899999999999721e+01 -4.312706999999999624e+00 -2.925291890264103967e-01
4.306000000000000227e+01 6.543099999999999916e+00 7.961899999999999977e+01 -6.056176999999999921e+00 7.972692743760048661e-02
4.306099999999999994e+01 3.710900000000000176e+01 6.014699999999999847e+01 5.174757999999999747e+00 -2.227237865385799098e-01
4.306499999999999773e+01 -9.061999999999999389e+00 6.254299999999999926e+01 -1.939967999999999915e+00 -2.765835412260645443e-01
4.306499999999999773e+01 -9.061999999999999389e+00 6.500300000000000011e+01 -6.487438000000000038e+00 -2.765035049316870719e-01
4.306900000000000261e+01 -7.510500000000000398e+00 6.007000000000000028e+01 -5.740079999999999849e+00 -2.765969753488364824e-01
4.306900000000000261e+01 3.457999999999999829e+01 6.617600000000000193e+01 -1.129039000000000037e+01 -2.758576640622382725e-01
4.307000000000000028e+01 -1.407900000000000063e+01 4.132800000000000296e+01 8.352292000000000272e+00 -1.781509235173483474e-01
4.307900000000000063e+01 7.361499999999999488e+01 5.714099999999999824e+01 5.019441999999999737e+00 -2.581175856865030593e-01
4.307999999999999829e+01 -4.847199999999999953e+00 5.470900000000000318e+01 -2.830603999999999942e+01 -1.629109638885125055e-01
4.308200000000000074e+01 5.921699999999999875e+01 7.268399999999999750e+01 -2.501574999999999882e+00 -2.794462881874232307e-01
4.308299999999999841e+01 1.715200000000000102e+01 6.167799999999999727e+01 4.527840000000000309e+00 -2.053313218574836507e-01
4.308400000000000318e+01 -1.359799999999999898e-01 7.766100000000000136e+01 -3.028563000000000116e+01 -9.315111892420327444e-02
4.308599999999999852e+01 6.083100000000000307e+01 6.899599999999999511e+01 4.088702999999999754e+00 -3.971703151404305798e-03
4.308599999999999852e+01 6.223100000000000165e+01 6.899599999999999511e+01 -3.202139999999999986e+00 -5.235133224464543628e-03
4.308599999999999852e+01 -4.500300000000000189e+00 3.637100000000000222e+01 -1.640088999999999908e+00 -2.892247116787829975e-01
4.308599999999999852e+01 3.792300000000000182e+01 6.645999999999999375e+01 8.135317000000000576e+00 -3.240863053769292845e-01
4.308700000000000330e+01 -9.497700000000000031e+00 4.936099999999999710e+01 -3.789112999999999687e+01 -1.750256121450608771e-01
4.308700000000000330e+01 -8.558299999999999130e+00 4.936099999999999710e+01 -8.249387000000000114e+01 -1.745239250489114824e-01
4.308700000000000330e+01 3.050799999999999912e+01 6.773399999999999466e+01 2.007941000000000198e+00 -2.499980214577035009e-01
4.308700000000000330e+01 3.325800000000000267e+01 6.773399999999999466e+01 3.044550000000000090e+00 -3.398425800643519734e-01
4.308800000000000097e+01 1.555700000000000083e+00 5.165500000000000114e+01 -1.779059000000000168e+01 -1.521962902953473695e-01
4.308899999999999864e+01 7.548399999999999466e+01 6.440200000000000102e+01 -7.453528000000000375e+00 -3.499999999999999778e-01
4.308899999999999864e+01 7.548399999999999466e+01 6.534199999999999875e+01 -1.242863000000000007e+01 -3.499999999999999778e-01
4.308899999999999864e+01 1.381400000000000006e+01 5.674900000000000233e+01 1.159686999999999912e+01 -1.516601708774986679e-01
4.308899999999999864e+01 1.467900000000000027e+01 5.674900000000000233e+01 1.013166000000000011e+01 -3.152270238169049277e-01
4.309000000000000341e+01 7.537300000000000466e+01 6.360499999999999687e+01 7.024631999999999543e-01 -3.499999999999999778e-01
4.309000000000000341e+01 7.558199999999999363e+01 6.286899999999999977e+01 1.847717999999999972e+00 -3.500000000000000333e-01
4.309300000000000352e+01 7.394700000000000273e+01 5.806300000000000239e+01 3.619977000000000089e+01 -2.580578134845561422e-01
4.309400000000000119e+01 -6.247099999999999653e+00 5.719100000000000250e+01 -2.381142999999999788e+00 -1.651199751858311582e-01
4.309400000000000119e+01 4.721200000000000330e+01 6.810599999999999454e+01 2.040812000000000026e+01 -2.840515344938182585e-01
4.309499999999999886e+01 7.502899999999999636e+01 5.948899999999999721e+01 3.409964000000000084e+01 -2.579113728490531332e-01
4.309499999999999886e+01 1.970299999999999940e+00 7.412600000000000477e+01 -2.809086999999999890e+01 -9.126744769481860697e-02
4.309599999999999653e+01 7.122899999999999920e+01 6.676800000000000068e+01 2.190526999999999891e+00 -3.499999999999999778e-01
4.310099999999999909e+01 3.582200000000000273e+01 6.644199999999999307e+01 -5.925970000000000404e+00 -3.155566649461566398e-01
4.310199999999999676e+01 -1.219299999999999962e+01 3.529299999999999926e+01 -8.740272000000000041e-01 -1.795725632430825169e-01
4.310300000000000153e+01 3.980299999999999727e+01 6.915399999999999636e+01 3.730363000000000095e+00 -2.864478806360682972e-01
4.310300000000000153e+01 3.183800000000000097e+01 6.330100000000000193e+01 -1.140089999999999992e-01 -3.867478673888183338e-01
4.310499999999999687e+01 2.068900000000000006e+01 6.882299999999999329e+01 -7.636894999999999989e+00 -1.057129742949471651e-01
4.310799999999999699e+01 5.929699999999999704e+01 5.062400000000000233e+01 -1.743874999999999886e+01 -1.748296051984463140e-01
4.310799999999999699e+01 8.057399999999999451e+00 7.454600000000000648e+01 -9.881254999999999455e+00 -2.919524644243527006e-02
4.310799999999999699e+01 6.454399999999999693e+01 4.659100000000000108e+01 -9.410807999999999396e+00 -1.699948106785574287e-01
4.310900000000000176e+01 1.851899999999999835e+01 7.399599999999999511e+01 -7.494341000000000363e+00 -8.601066717069491552e-02
4.310999999999999943e+01 -1.422000000000000064e+01 4.240899999999999892e+01 2.648022999999999794e+00 -1.779486951677466122e-01
4.311399999999999721e+01 -1.382799999999999940e+01 4.593500000000000227e+01 9.028921000000000419e+00 -1.771711275538072061e-01
4.311399999999999721e+01 -1.397799999999999976e+01 4.050800000000000267e+01 -1.045703000000000049e+00 -1.783481550165176288e-01
4.311800000000000210e+01 4.000000000000000000e+00 3.724799999999999756e+01 -5.033102000000000409e-01 -2.936786919683425645e-01
4.311800000000000210e+01 4.914600000000000080e+00 4.178900000000000148e+01 1.676920000000000077e-01 -2.944548535908284026e-01
4.311899999999999977e+01 1.828500000000000014e+01 6.243599999999999994e+01 8.788567999999999714e+00 -1.975882257121802654e-01
4.311999999999999744e+01 7.116900000000000448e-01 5.075600000000000023e+01 -1.003074999999999939e+01 -1.645671830208953190e-01
4.312199999999999989e+01 -1.418399999999999928e+01 4.666700000000000159e+01 1.946986000000000105e+00 -1.771698151360850959e-01
4.312199999999999989e+01 4.632500000000000284e+01 6.811799999999999500e+01 3.366745000000000232e+01 -2.845947352500973193e-01
4.312199999999999989e+01 4.372099999999999653e+01 6.959000000000000341e+01 6.824646000000000434e+00 -2.854362921629555183e-01
4.312199999999999989e+01 6.315599999999999881e+01 6.988299999999999557e+01 -8.956288000000000693e+00 -5.449425986275439719e-03
4.312299999999999756e+01 -4.437999999999999723e+00 5.784000000000000341e+01 -8.781798000000000215e+00 -1.650653781876154080e-01
4.312700000000000244e+01 1.491900000000000048e+01 7.744599999999999795e+01 -2.058532999999999891e-01 -8.738901340800439566e-02
4.312700000000000244e+01 1.614399999999999835e+01 7.660099999999999909e+01 6.774703999999999837e+01 -8.713817868271774014e-02
4.312700000000000244e+01 1.646900000000000119e+01 7.586400000000000432e+01 -3.054110000000000102e+00 -8.684924049116768408e-02
4.312899999999999778e+01 4.281000000000000227e+01 6.969499999999999318e+01 2.515536000000000172e+01 -2.857050191984418785e-01
4.313000000000000256e+01 7.344599999999999795e+01 6.623699999999999477e+01 -3.132696999999999843e+00 -3.499999999999999778e-01
4.313000000000000256e+01 5.786200000000000188e+01 5.133200000000000074e+01 -1.374937000000000076e+01 -1.771955413255785206e-01
4.313199999999999790e+01 4.043900000000000006e+01 5.547899999999999920e+01 -3.519012000000000029e+00 -2.232289021399508633e-01
4.313199999999999790e+01 -3.591000000000000192e+00 7.151699999999999591e+01 7.144842999999999680e-03 -8.354465291522480963e-02
4.313700000000000045e+01 -1.477800000000000002e+00 4.989900000000000091e+01 -1.964886999999999873e+01 -1.678731418237821293e-01
4.313700000000000045e+01 -6.125099999999999989e-01 4.989900000000000091e+01 -1.331765000000000043e+01 -1.664305971159204256e-01
4.313799999999999812e+01 5.701400000000000290e+01 4.237100000000000222e+01 -5.530913999999999930e+01 -1.718326729236565042e-01
4.314500000000000313e+01 5.794800000000000040e+01 7.344400000000000261e+01 -1.416851000000000083e+00 -2.796931167436994548e-01
4.314500000000000313e+01 5.888799999999999812e+01 7.344400000000000261e+01 -4.256893999999999956e+00 -2.795132388760900310e-01
4.314600000000000080e+01 3.304300000000000015e+00 4.889600000000000080e+01 -4.550416000000000238e+00 -1.540410085568710286e-01
4.314699999999999847e+01 6.881699999999999307e+01 4.806799999999999784e+01 4.025496999999999659e+00 -1.679747933981136643e-01
4.314699999999999847e+01 2.576099999999999834e+00 3.806000000000000227e+01 9.898943999999999521e-01 -2.926989806527838245e-01
4.314699999999999847e+01 1.350999999999999979e+01 5.604899999999999949e+01 4.552265000000000228e+00 -1.540179091703888226e-01
4.314699999999999847e+01 1.498199999999999932e+01 5.604899999999999949e+01 9.932664000000000826e+00 -3.121483731480617640e-01
4.314999999999999858e+01 7.058499999999999375e+01 5.193099999999999739e+01 -1.194613999999999976e+01 -1.672609591527297324e-01
4.314999999999999858e+01 9.878799999999999804e-01 3.901500000000000057e+01 6.641676999999999609e+00 -2.912600228233712674e-01
4.314999999999999858e+01 7.574099999999999966e+01 6.236999999999999744e+01 -1.139677999999999969e+01 -2.578452184953289317e-01
4.315200000000000102e+01 2.837299999999999933e+00 4.811699999999999733e+01 -3.549113999999999880e+00 -1.554894269727922218e-01
4.315400000000000347e+01 1.936400000000000077e+01 7.043999999999999773e+01 -2.588554999999999939e+00 -1.070569264583268315e-01
4.315699999999999648e+01 4.067000000000000171e+01 5.712700000000000244e+01 -2.495830999999999911e+00 9.780437286649851236e-02
4.315899999999999892e+01 -5.570599999999999774e+00 5.708200000000000074e+01 -1.866430999999999951e+00 -1.648714525021914845e-01
4.315899999999999892e+01 -3.305400000000000116e+00 5.708200000000000074e+01 -2.491471000000000213e+00 -1.641986009797081481e-01
4.315999999999999659e+01 2.836699999999999999e+00 4.668599999999999994e+01 -2.650294000000000150e+00 -1.570223790661308683e-01
4.316100000000000136e+01 -3.176000000000000156e+00 5.152199999999999847e+01 -4.619406999999999819e-01 -1.705996708776367776e-01
4.316400000000000148e+01 6.552299999999999613e+01 6.992000000000000171e+01 4.802603000000000399e+00 -2.879229349731175502e-01
4.316499999999999915e+01 5.971099999999999852e+01 5.027600000000000335e+01 -2.477777999999999992e+01 -1.743982553948248970e-01
4.316799999999999926e+01 1.884600000000000009e+01 6.238300000000000267e+01 8.625197000000000003e+00 -1.932791710006611929e-01
4.316899999999999693e+01 -6.661800000000000388e+00 4.906799999999999784e+01 -3.358830999999999900e+00 -1.734077415887383677e-01
4.317099999999999937e+01 6.194399999999999906e-01 5.254999999999999716e+01 -8.123411000000000826e+00 -1.557132662813311696e-01
4.317499999999999716e+01 -1.577700000000000102e+00 5.603600000000000136e+01 -6.009300999999999782e+00 -1.626196704194399767e-01
4.317600000000000193e+01 4.887299999999999756e+01 5.515599999999999881e+01 -7.534930000000000128e+00 -1.117722498183482821e-01
4.317799999999999727e+01 1.940200000000000102e+01 7.141299999999999670e+01 -1.277518000000000065e+01 -1.083215183681555532e-01
4.317799999999999727e+01 -1.054100000000000037e+01 3.509000000000000341e+01 -4.995760000000000201e-01 -2.882206325284794590e-01
4.317799999999999727e+01 1.135500000000000043e+01 6.052400000000000091e+01 4.228966999999999921e+00 -1.687792411953129568e-01
4.317799999999999727e+01 1.135500000000000043e+01 6.192399999999999949e+01 6.892921000000000298e+00 -1.721906283582964048e-01
4.317799999999999727e+01 1.222100000000000009e+01 6.052400000000000091e+01 1.210440999999999967e+01 -1.710677280865218752e-01
4.317799999999999727e+01 1.222100000000000009e+01 6.192399999999999949e+01 1.193609999999999971e+01 -1.745951498974836757e-01
4.317900000000000205e+01 3.110200000000000031e+01 6.432099999999999795e+01 1.332443000000000044e+00 -3.869843053781668041e-01
4.318099999999999739e+01 -7.706699999999999662e+00 6.524099999999999966e+01 -2.181522000000000006e+01 -2.763886765774608012e-01
4.318399999999999750e+01 5.233999999999999986e+00 4.086999999999999744e+01 -4.749092999999999787e-01 -2.959617511705572857e-01
4.318599999999999994e+01 4.122099999999999653e+01 6.971899999999999409e+01 -1.078937999999999953e+00 -2.860061152050146216e-01
4.318599999999999994e+01 1.914099999999999824e+01 7.226000000000000512e+01 -6.590488999999999820e+00 -8.484010876187629557e-02
4.318699999999999761e+01 5.300200000000000244e+01 6.690600000000000591e+01 5.894061999999999912e+00 4.136895463202302711e-03
4.318699999999999761e+01 5.440200000000000102e+01 6.690600000000000591e+01 4.599590000000000067e+00 1.879662558854900984e-03
4.318999999999999773e+01 4.372999999999999687e+01 5.435399999999999920e+01 -2.944564999999999877e+00 -1.113222969841834165e-01
4.318999999999999773e+01 3.920700000000000074e+01 5.464399999999999835e+01 -2.120687000000000211e+00 -2.140242841426700515e-01
4.318999999999999773e+01 4.074199999999999733e+01 5.617900000000000205e+01 -9.217715000000000103e+00 -2.247070536904688942e-01
4.319100000000000250e+01 -1.392200000000000060e+01 4.939099999999999824e+01 -2.623723000000000027e+00 -1.768426527392475411e-01
4.319299999999999784e+01 3.953699999999999903e+01 5.788499999999999801e+01 -3.315261000000000013e+00 -1.965746500872341263e-01
4.319400000000000261e+01 1.712699999999999889e+01 5.833500000000000085e+01 2.461390000000000100e+01 -3.250484229415496751e-01
4.319500000000000028e+01 -4.039299999999999891e+00 6.864400000000000546e+01 1.060138999999999943e+00 -2.737746289139591505e-01
4.319899999999999807e+01 1.707999999999999829e+01 6.081499999999999773e+01 6.424339999999999939e+00 -2.055399026178431343e-01
4.320100000000000051e+01 2.206700000000000017e+01 6.702899999999999636e+01 -3.569719999999999782e+00 -2.193458737456590035e-01
4.320499999999999829e+01 -7.568100000000000271e+00 5.904899999999999949e+01 -1.509590999999999905e+00 -1.664510777560856691e-01
4.320700000000000074e+01 -2.099299999999999944e+00 5.029800000000000182e+01 -3.405340999999999951e+01 -1.690020159173929171e-01
4.320900000000000318e+01 1.787999999999999901e+01 5.421200000000000330e+01 1.378110999999999997e+01 -2.870242546351814972e-01
4.321099999999999852e+01 5.034799999999999898e+01 5.375999999999999801e+01 -7.114103000000000065e+00 -2.073376525429943551e-01
4.321099999999999852e+01 4.451299999999999812e+01 6.898999999999999488e+01 2.107685999999999993e+01 -2.853096572185033208e-01
4.321200000000000330e+01 3.487000000000000099e+00 4.132600000000000051e+01 7.558672999999999753e+00 -2.928250156373530255e-01
4.321300000000000097e+01 2.073100000000000165e+01 6.400700000000000500e+01 5.674050000000000260e+00 -2.099948373038891813e-01
4.321600000000000108e+01 4.568900000000000006e+01 5.480799999999999983e+01 6.129095999999999655e+00 -1.118670108581156092e-01
4.321699999999999875e+01 6.767700000000000671e+01 6.827899999999999636e+01 -1.231109000000000009e+01 -2.867099953114152222e-01
4.322299999999999898e+01 7.378499999999999659e+01 6.692199999999999704e+01 -3.953158000000000172e+00 -3.500000000000000333e-01
4.322500000000000142e+01 7.043499999999999872e+00 7.842900000000000205e+01 -3.151298999999999850e+00 7.947749462795590525e-02
4.322699999999999676e+01 -6.965200000000000280e+00 4.836800000000000210e+01 8.420744000000000007e-01 -1.737532870868085388e-01
4.322899999999999920e+01 1.905199999999999960e+01 6.800600000000000023e+01 -1.807498000000000005e+01 -1.032959293060404515e-01
4.322899999999999920e+01 1.991700000000000159e+01 6.800600000000000023e+01 -1.190883999999999965e+01 -1.037753697322988389e-01
4.323400000000000176e+01 7.654800000000000182e+01 5.985999999999999943e+01 1.576021000000000072e+01 -2.578730678195712556e-01
4.323400000000000176e+01 1.950499999999999901e+01 6.317000000000000171e+01 9.326959999999999695e+00 -1.872033602573492383e-01
4.323599999999999710e+01 5.613400000000000034e+01 7.225199999999999534e+01 3.406062000000000012e+01 -2.801095216616144024e-01
4.323599999999999710e+01 1.105199999999999960e+01 6.122399999999999665e+01 7.607817999999999969e+00 -1.700472039428485016e-01
4.323599999999999710e+01 1.252399999999999913e+01 6.122399999999999665e+01 9.325818999999999193e+00 -1.740886135000113966e-01
4.323799999999999955e+01 3.204299999999999926e+01 6.248400000000000176e+01 -2.136861000000000121e+00 -1.115136340295903999e-01
4.324000000000000199e+01 -4.565199999999999925e+00 6.606100000000000705e+01 -1.592892999999999892e+00 -2.755443528287663257e-01
4.324199999999999733e+01 4.065299999999999692e+00 4.017000000000000171e+01 2.147787999999999808e+00 -2.943983021802476507e-01
4.324199999999999733e+01 4.930600000000000094e+00 4.017000000000000171e+01 2.743784999999999918e+00 -2.957115045100814354e-01
4.324199999999999733e+01 3.840200000000000102e+01 6.711899999999999977e+01 7.406071999999999989e+00 -3.248928531732808711e-01
4.324499999999999744e+01 -8.112000000000000099e+00 4.857200000000000273e+01 -1.682367999999999952e+01 -1.744593437035854844e-01
4.324699999999999989e+01 -1.799600000000000088e+00 3.801400000000000290e+01 9.735113000000000127e+00 -2.899985597836234330e-01
4.324699999999999989e+01 4.564600000000000080e+01 6.823099999999999454e+01 -6.386595999999999940e+00 -2.849333802687912809e-01
4.324799999999999756e+01 4.734100000000000108e+01 5.513700000000000045e+01 -1.816497000000000028e+00 -1.117220077394472516e-01
4.325300000000000011e+01 3.953600000000000136e+01 5.388400000000000034e+01 -3.523264000000000173e+00 -2.113304855666802151e-01
4.325300000000000011e+01 3.953600000000000136e+01 5.540400000000000347e+01 -6.168656999999999613e+00 -2.181115666164730738e-01
4.325300000000000011e+01 4.047599999999999909e+01 5.388400000000000034e+01 -5.650261000000000422e+00 -2.179550018602868788e-01
4.325500000000000256e+01 -9.844099999999999184e+00 4.863000000000000256e+01 -2.812495000000000189e+00 -1.753677829632352692e-01
4.325500000000000256e+01 1.907199999999999918e+01 6.947400000000000375e+01 -1.343844999999999956e+01 -1.055122045195092395e-01
4.325900000000000034e+01 5.041499999999999915e+01 5.178399999999999892e+01 -5.412475999999999843e+00 -2.091711697834601202e-01
4.325999999999999801e+01 6.848600000000000421e+01 4.585600000000000165e+01 -3.117303999999999853e+00 -1.683960542596870391e-01
4.326100000000000279e+01 -3.539599999999999969e-01 5.409700000000000131e+01 -1.020682000000000045e+01 -1.594584838537357330e-01
4.326200000000000045e+01 7.305500000000000682e+01 5.532900000000000063e+01 -6.694494999999999862e+00 -2.584220380401132666e-01
4.326299999999999812e+01 -4.274200000000000443e+00 6.948499999999999943e+01 -8.504171999999999843e-01 -2.735074987447780881e-01
4.326599999999999824e+01 -3.713999999999999968e+00 7.242799999999999727e+01 2.581090999999999802e+00 -8.473267982486007432e-02
4.326700000000000301e+01 -3.350999999999999979e+00 3.629999999999999716e+01 3.359779000000000071e+00 -2.897170087472299982e-01
4.326800000000000068e+01 5.718099999999999739e+00 3.889600000000000080e+01 1.683731000000000089e+00 -2.963164282767430935e-01
4.326899999999999835e+01 -6.147099999999999786e-01 5.489800000000000324e+01 -6.307500000000000107e+00 -1.608119204867331509e-01
4.327000000000000313e+01 3.790399999999999991e+00 4.202600000000000335e+01 3.325896000000000186e+00 -2.927428173853515725e-01
4.327100000000000080e+01 6.279500000000000171e+01 4.760600000000000165e+01 -1.063756000000000057e+01 -1.714445834343616970e-01
4.327400000000000091e+01 -1.088100000000000023e+01 4.868800000000000239e+01 3.815497999999999834e+00 -1.758348715246541294e-01
4.327400000000000091e+01 3.755700000000000216e+01 5.925900000000000034e+01 3.345399000000000012e+00 -2.204130019589854439e-01
4.327600000000000335e+01 -5.697899999999999743e+00 6.530299999999999727e+01 -8.432337000000000415e+00 -2.762207711185315495e-01
4.327700000000000102e+01 7.175499999999999545e+01 5.252199999999999847e+01 -1.507713999999999999e+01 -1.671214188521701338e-01
4.328199999999999648e+01 -2.181700000000000195e+00 3.725699999999999790e+01 1.256869999999999976e+01 -2.900223774921121822e-01
4.328300000000000125e+01 1.055799999999999983e+01 7.502599999999999625e+01 -1.144499000000000066e+01 -1.080922488966320205e-01
4.328499999999999659e+01 4.402899999999999814e+00 7.973999999999999488e+01 -7.451776999999999873e+00 -3.050152879131700495e-02
4.328600000000000136e+01 7.509699999999999420e+01 6.616899999999999693e+01 -2.084662000000000148e+01 -3.500000000000000333e-01
4.328600000000000136e+01 6.968099999999999739e+01 6.726000000000000512e+01 -1.874154000000000053e+01 -2.859266772018432823e-01
4.328699999999999903e+01 1.874800000000000111e+01 6.870600000000000307e+01 -2.150121000000000038e+01 -1.042421265293115018e-01
4.328699999999999903e+01 2.021999999999999886e+01 6.870600000000000307e+01 -1.165497000000000050e+01 -1.051641933468435708e-01
4.329099999999999682e+01 4.182500000000000284e+01 5.450999999999999801e+01 -6.860147000000000439e+00 -2.271149624280385804e-01
4.329299999999999926e+01 -4.944300000000000139e+00 7.447499999999999432e+01 3.848511999999999933e+00 -8.672383861802926419e-02
4.329299999999999926e+01 -4.944300000000000139e+00 7.552500000000000568e+01 9.239126999999999867e+00 -8.783238316288553837e-02
4.329699999999999704e+01 8.196700000000000097e-01 5.165500000000000114e+01 -1.044181999999999988e+01 -1.659188420074594050e-01
4.329999999999999716e+01 6.746299999999999386e+01 4.572099999999999653e+01 -1.081204999999999972e+00 -1.688382466744328958e-01
4.329999999999999716e+01 1.904400000000000048e+01 7.291599999999999682e+01 8.579052999999999818e-01 -8.535883719828207816e-02
4.330400000000000205e+01 1.234299999999999953e+00 7.412600000000000477e+01 -3.642101999999999862e+01 -9.038354903334040735e-02
4.330400000000000205e+01 2.706399999999999917e+00 7.412600000000000477e+01 -1.528270000000000017e+01 -9.197211163062353478e-02
4.330400000000000205e+01 -7.746500000000000163e+00 3.652900000000000347e+01 4.193764999999999787e+01 -2.885284363711645428e-01
4.331000000000000227e+01 6.402500000000000568e+01 4.678300000000000125e+01 -1.920408000000000115e+01 -1.706204745148767743e-01
4.331199999999999761e+01 1.179100000000000037e+01 5.295499999999999829e+01 2.257414999999999949e+00 2.373708304459791751e-01
4.331600000000000250e+01 6.664700000000000557e+01 6.875700000000000500e+01 -9.921492999999999896e+00 -2.871820498248896514e-01
4.332200000000000273e+01 5.508299999999999841e+01 7.087699999999999534e+01 2.515568000000000248e-01 -2.804021671501931712e-01
4.332300000000000040e+01 -3.789800000000000058e+00 7.689799999999999613e+01 -1.934347000000000039e+00 -8.975326339312136859e-02
4.333400000000000318e+01 3.393999999999999773e+01 6.094899999999999807e+01 1.772318000000000060e+00 -1.068780753997407434e-01
4.333400000000000318e+01 3.557000000000000028e+01 6.141199999999999903e+01 1.119960000000000067e+00 -2.829091680691724342e-01
4.333400000000000318e+01 3.676100000000000279e+01 6.074799999999999756e+01 3.045862000000000069e+00 -2.894569503814712896e-01
4.333599999999999852e+01 4.887199999999999989e+01 6.861100000000000421e+01 1.062801999999999936e+02 -2.829734306363934637e-01
4.334000000000000341e+01 5.342600000000000193e+01 5.099799999999999756e+01 -1.033272000000000013e+01 -2.037390639413026727e-01
4.334400000000000119e+01 1.412299999999999933e+01 5.600600000000000023e+01 9.568851999999999691e+00 -1.581336112713127018e-01
4.335499999999999687e+01 8.232799999999999230e+00 5.114699999999999847e+01 1.202078999999999986e+01 3.387294662599880241e-02
4.335499999999999687e+01 -9.531700000000000728e+00 6.330299999999999727e+01 -9.487900999999999696e-01 -2.764588440491216881e-01
4.335499999999999687e+01 -9.531700000000000728e+00 6.424299999999999500e+01 -6.218625000000000291e+00 -2.764344505122462436e-01
4.335499999999999687e+01 -9.101100000000000634e+00 3.569100000000000250e+01 3.943151999999999990e+00 -2.884258050749749502e-01
4.335999999999999943e+01 2.491899999999999782e+00 7.810999999999999943e+01 -3.789146000000000214e+01 -2.999650143718686837e-02
4.335999999999999943e+01 3.682799999999999851e+00 7.877299999999999613e+01 -1.598850000000000016e+01 -3.019275841698245214e-02
4.335999999999999943e+01 3.881700000000000017e+01 5.796800000000000352e+01 -4.372520999999999880e+00 8.391637367075438156e-03
4.336099999999999710e+01 6.897899999999999920e+01 4.664099999999999824e+01 -2.429476999999999887e-01 -1.682733266477293432e-01
4.336200000000000188e+01 1.537700000000000067e+00 7.342600000000000193e+01 -4.509702999999999662e+01 -8.965736631026319237e-02
4.336200000000000188e+01 1.537700000000000067e+00 7.482599999999999341e+01 -2.777582999999999913e+01 -9.157223425131828798e-02
4.336200000000000188e+01 2.403000000000000025e+00 7.342600000000000193e+01 -2.181472000000000122e+01 -9.057926026158333310e-02
4.336200000000000188e+01 2.403000000000000025e+00 7.482599999999999341e+01 -2.642191000000000045e+01 -9.250265696574057339e-02
4.336699999999999733e+01 -1.227599999999999980e+01 4.969800000000000040e+01 -5.082728000000000357e+00 -1.763482600589907356e-01
4.336800000000000210e+01 1.286700000000000088e+01 5.520499999999999829e+01 -1.612688999999999950e+01 8.569674333527035198e-03
4.336899999999999977e+01 1.697599999999999909e+01 5.406099999999999994e+01 4.444020000000000081e+00 -2.912045311317107976e-01
4.337199999999999989e+01 5.164000000000000057e+01 5.035000000000000142e+01 -6.066533999999999871e+00 -2.065655652376398310e-01
4.337199999999999989e+01 5.229200000000000159e+01 5.035000000000000142e+01 -6.370673000000000030e+00 -2.054070631421439364e-01
4.337199999999999989e+01 -6.984899999999999665e+00 6.546500000000000341e+01 -8.067587000000000508e-01 -2.762601632179650379e-01
4.337500000000000000e+01 -1.392200000000000060e+01 4.319200000000000017e+01 1.163513000000000019e+01 -1.778238322232880420e-01
4.337500000000000000e+01 -4.968499999999999694e+00 3.712800000000000011e+01 5.132823000000000135e+00 -2.891207251677881951e-01
4.337700000000000244e+01 -9.028000000000000469e+00 4.860099999999999909e+01 -1.883534999999999826e+01 -1.750507916418707621e-01
4.337899999999999778e+01 5.011800000000000210e+01 6.931999999999999318e+01 -4.994981000000000115e+00 -2.822828814314907175e-01
4.337899999999999778e+01 5.105799999999999983e+01 6.931999999999999318e+01 -9.052032000000000522e+00 -2.818605735099862786e-01
4.338600000000000279e+01 1.020500000000000007e+01 5.213199999999999790e+01 4.200072000000000116e+01 -1.528675021921964763e-02
4.338900000000000290e+01 5.955299999999999727e+01 7.084099999999999397e+01 -5.885019999999999918e+00 -1.727915736541747738e-03
4.338900000000000290e+01 6.153099999999999881e+01 6.893699999999999761e+01 4.306338000000000221e+00 -4.807037125375658755e-03
4.339000000000000057e+01 3.722299999999999898e+01 6.640200000000000102e+01 4.449098000000000219e+00 -3.209999841240585572e-01
4.339099999999999824e+01 6.885699999999999932e+01 5.010399999999999920e+01 -4.846973000000000198e+00 -1.680833285141596911e-01
4.339200000000000301e+01 -7.353600000000000136e+00 3.691299999999999670e+01 9.890072999999999226e+00 -2.885816190448059482e-01
4.339500000000000313e+01 6.059700000000000308e+00 4.121200000000000330e+01 -1.967700999999999922e+00 -2.987083819582561084e-01
4.339500000000000313e+01 7.110299999999999621e+00 3.951200000000000045e+01 8.551726999999999634e+00 -1.652754315274200525e-01
4.339500000000000313e+01 7.110299999999999621e+00 4.121200000000000330e+01 -8.943526999999999560e+00 -3.008993996042563235e-01
4.339699999999999847e+01 -6.909699999999999953e+00 5.252700000000000102e+01 -8.971443000000000723e+00 -1.630341958815147152e-01
4.339800000000000324e+01 6.891899999999999693e+01 6.780500000000000682e+01 -2.763564999999999827e+01 -2.862917179822713765e-01
4.339800000000000324e+01 7.085200000000000387e+01 5.244700000000000273e+01 -2.149164000000000030e+01 -1.674231022863291451e-01
4.339900000000000091e+01 1.804899999999999949e+01 7.475600000000000023e+01 -1.411337999999999937e+01 -8.642593755990285453e-02
4.340100000000000335e+01 1.852400000000000091e+01 5.614699999999999847e+01 2.074371999999999971e+01 -3.013982681518876383e-01
4.340599999999999881e+01 1.849200000000000088e+01 5.508700000000000330e+01 1.495648000000000089e+01 -2.907466505608983787e-01
4.340699999999999648e+01 2.250499999999999901e+01 6.717900000000000205e+01 -1.076224000000000025e+01 -1.855916024502810846e-01
4.340999999999999659e+01 1.549300000000000033e+01 5.503399999999999892e+01 8.501328000000000884e+00 -3.052059213100242752e-01
4.341100000000000136e+01 2.244900000000000162e+01 7.054500000000000171e+01 -2.700281000000000020e+01 -8.470192302823015273e-02
4.341100000000000136e+01 -8.331400000000000361e+00 6.517100000000000648e+01 -1.491386999999999929e+01 -2.763309907531417142e-01
4.341199999999999903e+01 3.103300000000000125e+01 6.858400000000000318e+01 6.960274000000000072e+00 -2.515151731658059608e-01
4.341199999999999903e+01 3.273299999999999699e+01 6.858400000000000318e+01 7.621210999999999736e+00 -2.464386195181195449e-01
4.341299999999999670e+01 4.190500000000000114e+01 6.996599999999999397e+01 -6.309179000000000315e-01 -2.856310276533153281e-01
4.341499999999999915e+01 7.214900000000000091e+01 5.323400000000000176e+01 -4.509103000000000350e+01 -1.671500683855193237e-01
4.341599999999999682e+01 6.489700000000000557e+01 7.049099999999999966e+01 2.193923999999999985e+00 -2.883449484647047090e-01
4.341700000000000159e+01 7.298099999999999454e+01 6.698999999999999488e+01 -2.441755000000000120e+00 -3.499999999999999778e-01
4.342000000000000171e+01 6.667700000000000671e+01 4.577600000000000335e+01 2.338823000000000096e+00 -1.693220992544554604e-01
4.342399999999999949e+01 4.458800000000000097e+01 6.955599999999999739e+01 3.898017000000000110e+01 -2.849500329070367433e-01
4.342499999999999716e+01 1.675300000000000011e+01 5.920000000000000284e+01 1.420266999999999946e+01 -2.012703255872795860e-01
4.342499999999999716e+01 1.675300000000000011e+01 6.006499999999999773e+01 1.215324000000000026e+01 -2.019714614728013446e-01
4.342600000000000193e+01 -4.089000000000000412e+00 6.718099999999999739e+01 9.955543000000000031e-01 -2.746261296001610286e-01
4.342600000000000193e+01 -4.089000000000000412e+00 6.804600000000000648e+01 1.348470000000000057e+00 -2.741370482928640606e-01
4.342600000000000193e+01 -6.687999999999999723e+00 5.778199999999999648e+01 -6.503740999999999550e-01 -1.656819738095285655e-01
4.342600000000000193e+01 -5.137999999999999901e+00 5.778199999999999648e+01 -3.962239999999999984e+00 -1.653037492007115028e-01
4.342600000000000193e+01 -3.737999999999999989e+00 5.778199999999999648e+01 -3.407802999999999916e+00 -1.649876879715054812e-01
4.342699999999999960e+01 -5.623000000000000220e+00 5.230499999999999972e+01 -1.624746000000000024e+01 -1.731166944771042326e-01
4.342799999999999727e+01 5.229299999999999926e+01 6.794299999999999784e+01 1.057263999999999982e+01 -2.216041000940963956e-01
4.342799999999999727e+01 6.243200000000000216e+01 4.830700000000000216e+01 -2.337643999999999878e+01 -1.719684476361383330e-01
4.342900000000000205e+01 6.384100000000000108e+01 7.049899999999999523e+01 -3.892081999999999820e+00 -5.752790484055064074e-03
4.342900000000000205e+01 -8.360900000000000887e+00 6.238700000000000045e+01 -4.740193999999999797e+00 -2.764010054736624200e-01
4.343200000000000216e+01 1.842899999999999849e+01 5.668800000000000239e+01 2.925071000000000154e+01 -3.064880373529049740e-01
4.343299999999999983e+01 -6.263099999999999667e+00 6.536199999999999477e+01 -1.713748999999999967e+00 -2.761888920536666459e-01
4.343699999999999761e+01 -2.333000000000000185e+00 7.752800000000000580e+01 5.744125999999999621e+00 -9.119749477941087312e-02
4.344200000000000017e+01 7.482299999999999329e+01 6.698199999999999932e+01 -6.368017000000000039e+00 -3.499999999999999778e-01
4.344299999999999784e+01 5.509700000000000131e+01 5.090299999999999869e+01 -8.701831999999999567e+00 -1.844486071460086918e-01
4.344299999999999784e+01 5.621300000000000097e+01 5.090299999999999869e+01 -9.501115999999999673e+00 -1.817926103240598001e-01
4.344299999999999784e+01 6.164299999999999891e+00 4.981799999999999784e+01 -2.949078999999999784e+00 9.947693190595800761e-02
4.344299999999999784e+01 7.103699999999999903e+00 4.981799999999999784e+01 -2.153300000000000214e+00 8.932471858576077062e-02
4.344500000000000028e+01 4.119100000000000428e+00 4.472800000000000153e+01 -2.129627000000000159e+00 -1.632761869964461376e-01
4.344500000000000028e+01 1.178800000000000026e+01 6.122399999999999665e+01 7.609390999999999572e+00 -1.724720727343087012e-01
4.344899999999999807e+01 2.373000000000000043e+01 6.802400000000000091e+01 -1.367145999999999972e+01 -1.933706371364368182e-01
4.344899999999999807e+01 2.373000000000000043e+01 6.962199999999999989e+01 -8.263384000000000640e+01 -8.512771500825888626e-02
4.345100000000000051e+01 6.864000000000000057e+01 4.935499999999999687e+01 6.619355999999999796e+00 -1.682742045352274840e-01
4.345499999999999829e+01 5.483500000000000085e+01 6.760599999999999454e+01 6.961413000000000295e+00 1.676548760230627726e-03
4.346399999999999864e+01 1.980799999999999983e+01 6.947400000000000375e+01 -7.485555999999999877e+00 -1.060743400569026801e-01
4.346600000000000108e+01 3.414699999999999847e+01 6.666700000000000159e+01 -9.164061999999999486e+00 -3.740985387822977071e-01
4.346600000000000108e+01 5.691300000000000026e+00 4.036200000000000188e+01 -1.565247000000000055e+00 -2.979384367323666960e-01
4.346600000000000108e+01 7.478699999999999903e+00 4.036200000000000188e+01 -4.566831999999999780e+00 -1.626613099883392755e-01
4.346699999999999875e+01 6.518600000000000705e+01 4.661599999999999966e+01 -6.211997000000000213e+00 -1.701049888856175640e-01
4.347299999999999898e+01 4.609700000000000131e+00 4.959599999999999653e+01 -3.433632999999999935e+00 -1.530468993974375691e-01
4.347399999999999665e+01 7.320300000000000296e+01 5.602199999999999847e+01 -1.191764000000000046e+00 -2.585414250143669435e-01
4.347500000000000142e+01 2.091400000000000148e+01 7.003700000000000614e+01 -1.304284999999999961e+01 -1.078782025531887651e-01
4.347999999999999687e+01 4.817300000000000182e+01 5.521399999999999864e+01 -5.421744000000000341e+00 -1.117100798139657875e-01
4.348899999999999721e+01 6.020199999999999818e+01 6.975400000000000489e+01 -3.256121999999999961e+00 -3.070275840789006474e-03
4.349000000000000199e+01 -3.935999999999999943e+00 5.158500000000000085e+01 7.873854000000000042e+01 -1.717305162261902884e-01
4.349099999999999966e+01 5.370199999999999818e+01 6.684799999999999898e+01 3.617833000000000077e+00 2.497370030651615853e-03
4.349600000000000222e+01 1.948400000000000176e+01 6.870600000000000307e+01 -1.476103999999999949e+01 -1.047373141281854048e-01
4.349799999999999756e+01 5.528099999999999881e+01 7.210299999999999443e+01 5.050757000000000163e-01 -2.803352781886167544e-01
4.349799999999999756e+01 5.345100000000000406e+00 3.950000000000000000e+01 3.613560999999999801e+00 -2.969741470372536107e-01
4.350000000000000000e+01 -1.447199999999999953e+01 3.842300000000000182e+01 -2.570218000000000114e+00 -1.790744624681834818e-01
4.350000000000000000e+01 -1.424499999999999922e+01 3.762400000000000233e+01 -1.613882000000000039e+00 -1.792455195380909250e-01
4.350000000000000000e+01 -1.424499999999999922e+01 3.922200000000000131e+01 -1.678549000000000069e+00 -1.788549801218410340e-01
4.350099999999999767e+01 6.149600000000000222e+01 4.877900000000000347e+01 -1.174427000000000021e+01 -1.729958982647243071e-01
4.350200000000000244e+01 -6.810500000000000220e+00 6.033700000000000330e+01 -8.844151999999999347e+00 -2.763252537162296796e-01
4.350200000000000244e+01 -6.810500000000000220e+00 6.120300000000000296e+01 -6.306430999999999898e+00 -2.763121911145933751e-01
4.350200000000000244e+01 4.476399999999999935e+00 4.389000000000000057e+01 -3.043104000000000031e+00 -1.685541999123512658e-01
4.350500000000000256e+01 8.490000000000000213e+00 7.405500000000000682e+01 -1.119894999999999996e+01 -2.809639881735175385e-02
4.350699999999999790e+01 1.945099999999999885e-01 5.141299999999999670e+01 -1.176701000000000086e+01 -1.670347855181338603e-01
4.351299999999999812e+01 4.930599999999999739e+01 5.456600000000000250e+01 -5.891386999999999929e+00 -1.125695866504428932e-01
4.351599999999999824e+01 1.785200000000000031e+01 6.194500000000000028e+01 8.391785000000000494e+00 -1.979828399026223873e-01
