6.469100000000000250e+01 5.048100000000000165e+01 1.740299999999999869e+01 -2.135412000000000177e+01 -3.647157478597143343e-02
6.469299999999999784e+01 3.333500000000000085e+01 3.280599999999999739e+01 -1.652952000000000155e+01 -7.987094836553364913e-03
6.469400000000000261e+01 5.167000000000000171e+01 3.935999999999999943e+00 -6.340578000000000003e+01 -3.408745222059405416e-02
6.469400000000000261e+01 1.531900000000000084e+01 -1.984299999999999997e+01 -1.749709000000000003e+01 8.656972036189589104e-02
6.469400000000000261e+01 1.962699999999999889e+01 -1.338199999999999967e+01 -1.468493999999999922e+01 -1.077778378467072751e-01
6.469499999999999318e+01 4.305400000000000205e+01 -4.186999999999999744e+01 2.301848999999999990e+01 2.389056515209169174e-01
6.470199999999999818e+01 1.183200000000000074e+01 -3.661200000000000188e+01 -1.310837000000000074e+01 9.994294223336572247e-02
6.470199999999999818e+01 1.183200000000000074e+01 -3.434700000000000131e+01 -6.423564999999999969e-01 9.892060554787251991e-02
6.471099999999999852e+01 3.231700000000000017e+01 2.588500000000000156e+01 -6.739100999999999786e+00 -9.215026936789260173e-03
6.471099999999999852e+01 3.248799999999999955e+01 -3.221200000000000330e+01 -1.565761999999999965e+01 8.958845303742721256e-02
6.471399999999999864e+01 3.346399999999999864e+01 2.487000000000000099e+01 -9.598981000000000208e+00 -9.229352719731626423e-03
6.471899999999999409e+01 3.398400000000000176e+01 -5.451800000000000068e+01 1.523586000000000062e+01 8.394575862629000129e-02
6.472299999999999898e+01 4.134199999999999875e+01 2.341400000000000148e+01 -6.544875000000000220e+00 -7.883736708041409053e-03
6.472499999999999432e+01 5.139399999999999835e+01 7.067099999999999937e+00 -3.189998999999999896e+01 -3.499653604579271160e-02
6.472499999999999432e+01 5.150600000000000023e+01 6.261000000000000121e+00 -6.010243000000000002e+00 -3.471822070755789524e-02
6.472499999999999432e+01 3.770300000000000296e+01 3.067399999999999949e+01 -3.722948999999999842e+01 -7.603708611200135463e-03
6.472700000000000387e+01 4.610799999999999699e+01 -4.556799999999999784e+01 -1.434450000000000003e+01 -1.682244111633289241e-01
6.472799999999999443e+01 2.155999999999999872e+01 -1.436800000000000033e+01 -1.797989000000000104e+01 -1.076006980656026568e-01
6.472799999999999443e+01 2.296000000000000085e+01 -1.505400000000000027e+01 -8.754224000000000672e+00 -1.074235881354200089e-01
6.472799999999999443e+01 1.534200000000000053e+01 -4.864699999999999847e+01 -3.047769999999999868e+00 9.840491574888036996e-02
6.473600000000000421e+01 1.028100000000000058e+01 -2.930300000000000082e+01 -2.230367999999999995e+01 9.385877735694193869e-02
6.473699999999999477e+01 1.154599999999999937e+01 -2.669200000000000017e+01 -9.443720000000000780e+00 9.241582592657210382e-02
6.473799999999999955e+01 1.999500000000000099e+01 -6.025900000000000034e+01 -1.430198000000000080e+00 1.080785951959221530e-01
6.473900000000000432e+01 1.152999999999999936e+01 -2.765399999999999991e+01 -8.073067999999999245e+00 9.328708435077383287e-02
6.474200000000000443e+01 3.696900000000000119e+01 2.704299999999999926e+01 -8.963086000000000553e+00 -8.245465817318149357e-03
6.474200000000000443e+01 4.547999999999999687e+01 -1.717699999999999960e+01 -7.793929000000000329e+00 1.039056302242969132e-01
6.474200000000000443e+01 2.704299999999999926e+01 -5.501299999999999812e+01 7.476245999999999725e+00 1.039632041280870861e-01
6.474399999999999977e+01 2.271300000000000097e+01 3.278600000000000264e-02 -1.644775999999999883e+01 8.454108051391437395e-02
6.474500000000000455e+01 2.968400000000000105e+01 2.202899999999999991e+01 -7.647558000000000078e+00 9.583950492519711928e-02
6.474500000000000455e+01 2.968400000000000105e+01 2.307900000000000063e+01 -7.627965999999999802e+00 9.594293680779439337e-02
6.474599999999999511e+01 2.252700000000000102e+01 1.599000000000000021e+01 2.862087999999999965e+00 8.512399752746832582e-02
6.475100000000000477e+01 2.674299999999999855e+01 -5.791999999999999815e+00 -2.635663999999999874e+01 8.369167814646658043e-02
6.475100000000000477e+01 2.695200000000000173e+01 -5.056000000000000050e+00 -2.309143999999999863e+01 8.353341353229445931e-02
6.475499999999999545e+01 2.395299999999999940e+01 -7.144999999999999574e+00 -3.113284000000000162e+01 8.486839447218003096e-02
6.475600000000000023e+01 2.305399999999999849e+01 1.232499999999999929e+01 -1.767188000000000159e+01 8.476179843204911801e-02
6.475600000000000023e+01 4.657500000000000284e+01 -2.410300000000000153e+01 -1.722366000000000064e+00 3.333264129435114381e-02
6.475700000000000500e+01 2.239000000000000057e+01 -1.800700000000000145e+01 -1.714953999999999823e+01 -1.082304587843797294e-01
6.475700000000000500e+01 2.291600000000000037e+01 1.670499999999999829e+01 2.212972999999999857e+01 8.515352409330909089e-02
6.476000000000000512e+01 2.458200000000000074e+01 1.217800000000000082e+01 -1.748376000000000019e+01 8.459444944519498022e-02
6.476200000000000045e+01 4.341799999999999926e+01 -5.154399999999999693e+01 1.225660999999999889e+00 1.935823170645797203e-02
6.476200000000000045e+01 4.493800000000000239e+01 -5.154399999999999693e+01 -1.961180999999999841e+01 -1.643847791760681409e-01
6.476399999999999579e+01 4.464800000000000324e+01 -4.501100000000000279e+01 -6.539399999999999658e+00 -1.674968890090519358e-01
6.476500000000000057e+01 4.728300000000000125e+01 -1.579800000000000004e+01 -2.061764000000000152e+01 1.084392899341904970e-01
6.476900000000000546e+01 2.623900000000000077e+01 -3.439499999999999780e+00 -1.782105999999999923e+01 8.366462612915255559e-02
6.477700000000000102e+01 1.034099999999999930e+01 -3.321099999999999852e+01 -9.238353000000000037e+00 9.660817063935241145e-02
6.477800000000000580e+01 3.203300000000000125e+01 2.853600000000000136e+01 -8.984512999999999749e+00 -8.792649959044059049e-03
6.478400000000000603e+01 3.601299999999999812e+01 -5.217699999999999960e+01 -1.817258999999999958e+00 2.427222477960435110e-01
6.478499999999999659e+01 3.214200000000000301e+01 2.410000000000000142e+01 -4.516315999999999775e+00 -9.585304340651072674e-03
6.478499999999999659e+01 4.885300000000000153e+01 -1.562299999999999933e+01 -2.445320999999999856e+00 -1.503695722049536720e-01
6.478499999999999659e+01 5.017199999999999704e+01 -1.488799999999999990e+01 -6.869576000000000349e+00 -1.448957663385435080e-01
6.478499999999999659e+01 5.040299999999999869e+01 -1.407300000000000040e+01 -2.158998000000000062e+01 -1.442243160253357803e-01
6.478799999999999670e+01 4.560000000000000142e+01 -1.957100000000000151e+01 5.566917000000000115e+00 -5.275703786795329225e-02
6.478900000000000148e+01 3.105900000000000105e+01 2.400000000000000000e+01 -8.287183999999999884e+00 -9.762151994677569639e-03
6.478900000000000148e+01 2.669900000000000162e+01 1.153800000000000026e+01 -2.924687000000000126e+01 8.431304932329336532e-02
6.479000000000000625e+01 1.505199999999999960e+01 -5.720199999999999818e+01 4.311676000000000286e+00 1.153776758099439581e-01
6.479099999999999682e+01 1.138000000000000078e+01 -2.830499999999999972e+01 -8.144073999999999813e+00 9.378656836842048927e-02
6.479399999999999693e+01 1.470800000000000018e+01 -5.281000000000000227e+01 -6.940082000000000306e+00 9.368405611295907431e-02
6.479600000000000648e+01 2.196799999999999997e+01 -8.457499999999999574e+00 -2.559518999999999878e+01 7.300504114756421747e-02
6.479900000000000659e+01 3.101099999999999923e+01 -5.716499999999999915e+01 -1.652379999999999960e+00 9.229512294598900268e-02
6.480299999999999727e+01 3.555400000000000205e+01 3.142500000000000071e+01 -6.820522000000000418e+00 -7.851664026008963598e-03
6.480299999999999727e+01 3.641899999999999693e+01 3.142500000000000071e+01 -1.308935999999999922e+01 -7.717508632637981592e-03
6.480299999999999727e+01 1.903800000000000026e+01 -1.759900000000000020e+01 -1.960842999999999847e+01 8.372467045769679816e-02
6.480500000000000682e+01 2.182300000000000040e+01 1.506000000000000050e+01 -8.684262999999999622e+00 8.510814704026381516e-02
6.480500000000000682e+01 4.109700000000000131e+01 -2.967500000000000071e+01 3.630551000000000084e+00 -1.047976963449668564e-01
6.480500000000000682e+01 4.109700000000000131e+01 -2.874399999999999977e+01 9.470131000000000299e+00 -9.115312088924673595e-02
6.480500000000000682e+01 3.252400000000000091e+01 2.332100000000000151e+01 -7.470036999999999594e+00 -9.686659865963762744e-03
6.480500000000000682e+01 3.338900000000000290e+01 2.332100000000000151e+01 -1.300394999999999968e+01 -9.547747402992388249e-03
6.481100000000000705e+01 1.096899999999999942e+01 -4.349399999999999977e+01 -7.946219000000000143e+00 9.818069574410144551e-02
6.481199999999999761e+01 4.261899999999999977e+01 -4.113600000000000279e+01 4.341552999999999685e+01 2.582867798332749709e-01
6.481300000000000239e+01 3.458899999999999864e+01 2.898999999999999844e+01 -1.263048999999999999e+01 -8.345903162238365106e-03
6.481300000000000239e+01 2.230099999999999838e+01 1.000999999999999890e+00 -1.500328000000000017e+01 8.460955790849640501e-02
6.481399999999999295e+01 2.548100000000000165e+01 8.127000000000000668e+00 -2.019057000000000102e+01 8.407290268544685696e-02
6.481799999999999784e+01 1.381300000000000061e+01 -4.794200000000000017e+01 -4.754874000000000045e+00 9.790399399365788680e-02
6.482399999999999807e+01 3.504299999999999926e+01 3.128200000000000003e+01 -1.065188999999999986e+01 -7.947868656760321768e-03
6.482500000000000284e+01 5.167799999999999727e+01 1.626399999999999935e+01 8.074474000000000373e+00 -3.528010874726688478e-02
6.482800000000000296e+01 1.876099999999999923e+01 -5.910900000000000176e+01 4.907499999999999751e+00 1.105561615336109887e-01
6.482800000000000296e+01 5.121000000000000085e+01 -6.271200000000000330e+00 -3.660931000000000068e+01 -2.869672585602303649e-01
6.483400000000000318e+01 2.653000000000000114e+01 -5.500900000000000034e+01 -2.283523999999999970e-02 1.052100179734372920e-01
6.483400000000000318e+01 1.110899999999999999e+01 -3.979999999999999716e+01 -9.774181000000000452e+00 9.934131227221039417e-02
6.484000000000000341e+01 9.099299999999999500e+00 -3.114099999999999824e+01 -9.972984000000000293e+00 9.425576918934738813e-02
6.484000000000000341e+01 9.099299999999999500e+00 -3.020100000000000051e+01 -1.450141999999999953e+01 9.365824650667961548e-02
6.484499999999999886e+01 3.842900000000000205e+01 2.737399999999999878e+01 -3.055118999999999829e+01 -7.920798845806747285e-03
6.484900000000000375e+01 4.196099999999999852e+01 -2.777400000000000091e+01 -8.285990999999999218e+00 -4.116452256996542408e-02
6.485800000000000409e+01 3.749799999999999756e+01 3.372999999999999687e+01 -7.917365000000000860e-03 -7.274080292818696850e-03
6.485999999999999943e+01 2.949200000000000088e+01 -5.726299999999999812e+01 4.860426000000000357e+00 9.588007664207845449e-02
6.486100000000000421e+01 2.400600000000000023e+01 6.453999999999999737e+00 -1.971762999999999977e+01 8.421105371622319979e-02
6.486100000000000421e+01 2.423699999999999832e+01 7.268900000000000361e+00 -1.188805999999999941e+01 8.418843671757016145e-02
6.486199999999999477e+01 2.159100000000000108e+01 1.587500000000000000e+01 -4.443515999999999799e+00 8.519355153152548266e-02
6.486199999999999477e+01 2.457600000000000051e+01 -5.951200000000000045e+01 -6.880663000000000196e+00 1.033212892325253290e-01
6.486299999999999955e+01 1.434500000000000064e+01 -5.145300000000000296e+01 -6.900349000000000288e+00 9.485483690569787574e-02
6.486299999999999955e+01 4.211399999999999721e+01 -4.963499999999999801e+01 8.120789999999999953e-01 7.818924958188797070e-03
6.486499999999999488e+01 4.143599999999999994e+01 -3.985999999999999943e+01 2.495255999999999830e+01 2.372602091480198738e-01
6.486499999999999488e+01 4.143599999999999994e+01 -3.899399999999999977e+01 1.454631000000000007e+01 2.354699359383301827e-01
6.486499999999999488e+01 5.152400000000000091e+01 8.006299999999999528e+00 -1.661994999999999933e+01 -3.482775617815362518e-02
6.486499999999999488e+01 5.152400000000000091e+01 8.871600000000000819e+00 -1.224829000000000079e+01 -3.491053920336986000e-02
6.486700000000000443e+01 5.070199999999999818e+01 -1.084200000000000053e+01 9.692674999999999486e+00 -2.932065104577039616e-01
6.486700000000000443e+01 5.070199999999999818e+01 -9.976399999999999935e+00 4.906300000000000106e-01 -2.918382459605697865e-01
6.487000000000000455e+01 1.724599999999999866e+01 -5.873899999999999721e+01 1.352233000000000018e+00 1.121572535007428206e-01
6.487399999999999523e+01 4.279699999999999704e+01 -2.578399999999999892e+01 1.504872999999999905e+00 -1.867548687009316088e-01
6.487600000000000477e+01 4.001500000000000057e+01 2.581899999999999906e+01 -8.109560999999999353e+00 -7.824977439588470113e-03
6.487699999999999534e+01 4.343599999999999994e+01 -4.422099999999999653e+01 -4.713976999999999862e+00 -6.903048516090651288e-03
6.487999999999999545e+01 5.192300000000000182e+01 1.055899999999999928e+01 -4.670327000000000339e+00 -3.450933478025326739e-02
6.488100000000000023e+01 2.322500000000000142e+01 4.411699999999999733e+00 -2.972601999999999833e+01 8.434733065266522556e-02
6.488400000000000034e+01 3.965899999999999892e+01 2.655099999999999838e+01 -2.363129999999999953e+01 -7.793916701487877893e-03
6.488500000000000512e+01 1.102299999999999969e+01 -4.741400000000000148e+01 -6.464761000000000202e+00 9.602713442774601926e-02
6.489100000000000534e+01 1.449900000000000055e+01 -5.037500000000000000e+01 9.234450000000000713e+00 9.600653520563373622e-02
6.489400000000000546e+01 4.230499999999999972e+01 -2.697200000000000131e+01 -8.029489999999999128e+00 -2.777773779859565167e-02
6.489400000000000546e+01 1.997400000000000020e+01 -8.728199999999999292e+00 -5.539921999999999791e+00 7.325861737068030399e-02
6.489400000000000546e+01 3.253000000000000114e+01 2.899599999999999866e+01 -1.314170999999999978e+01 -8.648366817035494161e-03
6.489900000000000091e+01 1.745299999999999940e+01 -1.845899999999999963e+01 -1.334633000000000003e+01 8.500505644435132901e-02
6.490000000000000568e+01 3.227700000000000102e+01 3.233400000000000318e+01 -2.522629999999999839e+01 -8.188730598451760337e-03
6.490000000000000568e+01 3.286200000000000188e+01 -1.808500000000000085e+01 -2.296453999999999951e+01 4.550112675309279930e-02
6.490399999999999636e+01 5.125399999999999778e+01 -8.951499999999999346e+00 -6.256332999999999700e+00 -2.893966234964112094e-01
6.490699999999999648e+01 4.331000000000000227e+01 2.271399999999999864e+01 -3.238206000000000273e+01 -4.130770428019822638e-02
6.491400000000000148e+01 3.215200000000000102e+01 -5.550800000000000267e+01 -7.767559999999999576e+00 8.969281603245374268e-02
6.491700000000000159e+01 1.485800000000000054e+01 -5.611999999999999744e+01 -4.051529999999999632e+00 9.074857701873421945e-02
6.492000000000000171e+01 2.003300000000000125e+01 -1.766300000000000026e+01 -2.097380000000000067e+01 8.341613766586777889e-02
6.492300000000000182e+01 1.092600000000000016e+01 -3.393900000000000006e+01 -7.489367999999999803e+00 9.764220644971152718e-02
6.492300000000000182e+01 1.118200000000000038e+01 -3.924000000000000199e+01 -9.449711999999999890e+00 9.945902356700253577e-02
6.492400000000000659e+01 1.865200000000000102e+01 -1.081499999999999950e+01 -1.206494999999999962e+01 -1.075467200696055975e-01
6.492400000000000659e+01 1.865200000000000102e+01 -9.764699999999999491e+00 -1.198038999999999987e+01 -1.074098628215990059e-01
6.492600000000000193e+01 4.301200000000000045e+01 -2.487000000000000099e+01 -3.078755999999999826e+00 -1.922900591348503663e-01
6.492700000000000671e+01 2.870799999999999841e+01 2.014699999999999847e+01 -1.141369000000000078e+01 9.562065719623676074e-02
6.493000000000000682e+01 3.152899999999999991e+01 2.772100000000000009e+01 -9.316988999999999521e+00 -8.996491092514108043e-03
6.493800000000000239e+01 2.076699999999999946e+01 -1.786799999999999855e+01 -1.877939999999999898e+01 8.326336875532354409e-02
6.493800000000000239e+01 5.187700000000000244e+01 1.110399999999999920e+01 -7.301760999999999946e+00 -3.461688382694481925e-02
6.493800000000000239e+01 5.187700000000000244e+01 1.211200000000000010e+01 -7.033000000000000362e+00 -3.471932809203619186e-02
6.493899999999999295e+01 1.531300000000000061e+01 -5.797800000000000153e+01 -1.874922999999999895e+00 1.142204655130594493e-01
6.493999999999999773e+01 1.508699999999999974e+01 -5.372699999999999676e+01 -6.438746000000000080e+00 9.294217264255996702e-02
6.494100000000000250e+01 4.085000000000000142e+01 -3.617499999999999716e+01 -1.987023999999999901e+00 2.231775561305425482e-01
6.494400000000000261e+01 4.010499999999999687e+01 2.485000000000000142e+01 1.404231000000000007e+00 -7.950394218683660974e-03
6.494499999999999318e+01 5.120900000000000318e+01 -1.343300000000000050e-01 -4.027935000000000265e+00 -3.450253607646357884e-02
6.494499999999999318e+01 5.120900000000000318e+01 9.163299999999999779e-01 1.128970000000000029e+00 -3.464562106839534639e-02
6.494499999999999318e+01 4.858599999999999852e+01 2.011899999999999977e+01 -5.453862999999999772e+01 -3.793061993810464133e-02
6.494799999999999329e+01 2.661499999999999844e+01 8.849399999999999267e+00 -4.308252999999999844e+01 8.401745204543618895e-02
6.495199999999999818e+01 2.777899999999999991e+01 -5.501299999999999812e+01 1.972012000000000143e+01 1.021815363265435594e-01
6.495300000000000296e+01 3.222699999999999676e+01 2.969600000000000151e+01 -2.176663999999999888e+01 -8.579770369597923899e-03
6.495300000000000296e+01 2.248400000000000176e+01 -8.168300000000000338e+00 -2.578722000000000136e+01 7.195355067168494878e-02
6.495499999999999829e+01 1.096299999999999919e+01 -4.250399999999999778e+01 -8.948923999999999879e+00 9.856520735842765057e-02
6.496299999999999386e+01 2.984100000000000108e+01 2.090599999999999881e+01 -1.035513000000000083e+01 9.576502519774872380e-02
6.496299999999999386e+01 4.580400000000000205e+01 -4.941199999999999903e+01 -1.136650999999999989e+01 -1.653559264449012134e-01
6.496399999999999864e+01 2.602599999999999980e+01 -5.495900000000000318e+01 -3.756113000000000035e+00 1.064551262344662491e-01
6.496599999999999397e+01 5.051200000000000045e+01 -1.282699999999999996e+01 1.784440999999999988e+01 -1.437789219174862576e-01
6.496599999999999397e+01 3.494500000000000028e+01 3.357200000000000273e+01 -7.988221000000000238e+00 -7.668094515582720046e-03
6.496699999999999875e+01 2.451000000000000156e+01 -8.999899999999999567e-01 -1.706514999999999915e+01 8.409057830616185891e-02
6.496999999999999886e+01 1.226500000000000057e+01 -3.591199999999999903e+01 -1.623242000000000118e+01 1.002598790739035184e-01
6.496999999999999886e+01 1.226500000000000057e+01 -3.504699999999999704e+01 -5.338047000000000430e+00 9.985035679273986109e-02
6.497599999999999909e+01 3.650600000000000023e+01 3.379500000000000171e+01 -1.926562000000000108e+00 -7.416380889496284115e-03
6.498000000000000398e+01 3.192899999999999849e+01 2.678200000000000003e+01 -8.395186999999999955e+00 -9.104587678536937498e-03
6.498000000000000398e+01 1.114700000000000024e+01 -2.402299999999999969e+01 -1.029637999999999920e+01 8.992783404906565248e-02
6.498099999999999454e+01 1.124600000000000044e+01 -2.150300000000000011e+01 -1.483724999999999916e+01 8.787758149662222573e-02
6.498199999999999932e+01 2.441700000000000159e+01 2.054100000000000037e+01 -7.540580000000000283e+00 8.538294169396602740e-02
6.498399999999999466e+01 2.009700000000000131e+01 -1.414199999999999946e+01 -1.618815999999999988e+01 -1.078519963801050502e-01
6.498699999999999477e+01 3.276899999999999835e+01 2.853600000000000136e+01 -1.314170999999999978e+01 -8.687461921112794166e-03
6.498799999999999955e+01 5.183800000000000097e+01 9.568699999999999761e+00 -8.410930000000000462e+00 -3.448688208399790234e-02
6.498900000000000432e+01 5.110799999999999699e+01 1.736099999999999977e+00 -6.028426999999999758e+00 -3.498371575396970468e-02
6.499099999999999966e+01 3.816199999999999903e+01 -5.023599999999999710e+01 -5.119307000000000052e+00 1.435038160497836834e-01
6.499200000000000443e+01 3.958899999999999864e+01 -5.003499999999999659e+01 -1.871353999999999962e+00 1.516857147847887333e-01
6.499399999999999977e+01 4.748799999999999955e+01 -2.417099999999999937e+01 -3.811935000000000323e-02 1.242314480736932819e-01
6.499500000000000455e+01 2.339199999999999946e+01 -1.575399999999999956e+01 -1.080241000000000007e+01 -1.074779714729972718e-01
6.500400000000000489e+01 2.669999999999999929e+01 -4.184400000000000119e+00 -1.806321000000000154e+01 8.356536520269089441e-02
6.500600000000000023e+01 1.615599999999999881e+01 -1.939000000000000057e+01 -8.720546000000000575e+00 8.613747716591205195e-02
6.501000000000000512e+01 2.661100000000000065e+01 -5.431300000000000239e+01 4.905936999999999770e+00 1.061674014076859907e-01
6.501000000000000512e+01 2.747599999999999909e+01 -5.431300000000000239e+01 2.355471999999999966e+01 1.039705366541588127e-01
6.501300000000000523e+01 5.184400000000000119e+01 1.275000000000000000e+01 -1.079213000000000022e+01 -3.480310951767098121e-02
6.502400000000000091e+01 3.459400000000000119e+01 -5.404099999999999682e+01 -1.718803000000000081e+00 8.213640826946419504e-02
6.502400000000000091e+01 2.280799999999999983e+01 -6.073599999999999710e+01 -5.961400000000000254e+00 1.045402838283304991e-01
6.502400000000000091e+01 2.425400000000000134e+01 -5.992999999999999972e+01 -4.346443999999999974e+00 1.034097347112982596e-01
6.502400000000000091e+01 1.148300000000000054e+01 -2.460399999999999920e+01 -8.833156999999999925e+00 9.054859177631335854e-02
6.502400000000000091e+01 1.169200000000000017e+01 -2.533999999999999986e+01 -7.516517999999999589e+00 9.128752874841861153e-02
6.502700000000000102e+01 1.262800000000000011e+01 -2.057000000000000028e+01 -9.381033999999999651e+00 8.728795542089888559e-02
6.503600000000000136e+01 2.205900000000000105e+01 1.674699999999999989e+01 -4.893348999999999727e+00 8.523000323228860364e-02
6.503900000000000148e+01 2.739999999999999858e+01 1.979700000000000060e+01 -6.388522000000000034e+00 9.554158519547387152e-02
6.504000000000000625e+01 4.379599999999999937e+01 -4.492600000000000193e+01 5.738081000000000209e+00 -2.714386952306058719e-03
6.504099999999999682e+01 4.433800000000000097e+01 -2.394600000000000151e+01 -2.716896999999999895e+00 -2.032003523551084712e-01
6.504600000000000648e+01 3.246500000000000341e+01 2.783599999999999852e+01 -9.395110999999999990e+00 -8.845568091993950485e-03
6.504600000000000648e+01 2.258399999999999963e+01 1.308500000000000085e+01 -1.683853999999999829e+01 8.488386314262921784e-02
6.505100000000000193e+01 3.593500000000000227e+01 3.367999999999999972e+01 -7.441398999999999653e-01 -7.513426092857147451e-03
6.505100000000000193e+01 1.528100000000000058e+01 -5.552000000000000313e+01 1.001082999999999973e-01 9.134869553808551423e-02
6.505100000000000193e+01 1.549000000000000021e+01 -5.478399999999999892e+01 6.940520000000000245e+00 9.205396125010520403e-02
6.505400000000000205e+01 2.222800000000000153e+01 1.381700000000000017e+01 -1.284431000000000012e+01 8.497870898703975551e-02
6.505500000000000682e+01 2.352100000000000080e+01 -4.272000000000000103e-02 -1.916147000000000133e+01 8.433706309459125527e-02
6.505599999999999739e+01 2.713200000000000145e+01 9.972300000000000608e+00 -3.279209999999999781e+01 8.409616916036342926e-02
6.505599999999999739e+01 2.713200000000000145e+01 1.083799999999999919e+01 -3.559722000000000008e+01 8.419956190735251866e-02
6.505800000000000693e+01 1.953000000000000114e+01 -5.950600000000000023e+01 -5.615550000000000264e-01 1.094029552096471847e-01
6.506199999999999761e+01 4.765400000000000347e+01 -2.100900000000000034e+01 2.836734999999999829e+01 2.787486734451281520e-02
6.506199999999999761e+01 5.101500000000000057e+01 -5.446200000000000152e+00 -1.345500999999999969e+01 -2.865661829189247167e-01
6.507099999999999795e+01 5.074099999999999966e+01 -3.597599999999999909e+00 -1.729057999999999984e+00 -3.571844411465772973e-02
6.507200000000000273e+01 4.877400000000000091e+01 -2.324800000000000111e+01 1.224574999999999925e+01 1.196790376750569151e-01
6.507200000000000273e+01 4.877400000000000091e+01 -2.228999999999999915e+01 8.683576999999999657e+00 1.141418554627666032e-01
6.507599999999999341e+01 2.626800000000000068e+01 2.055600000000000094e+01 -5.191216999999999970e+00 9.558362932563573000e-02
6.507999999999999829e+01 3.502199999999999847e+01 2.828999999999999915e+01 2.659323000000000103e-01 -8.383014083175195294e-03
6.508400000000000318e+01 2.381400000000000006e+01 1.214600000000000080e+01 -1.798301999999999978e+01 8.468118114310295430e-02
6.508899999999999864e+01 3.148100000000000165e+01 -5.640500000000000114e+01 -1.408652999999999977e+01 9.147362767207971312e-02
6.509099999999999397e+01 2.511400000000000077e+01 -7.051999999999999602e+00 -2.513436000000000092e+01 8.447486398125374218e-02
6.509399999999999409e+01 1.058399999999999963e+01 -4.408200000000000074e+01 -7.415071000000000190e+00 9.751660591116662058e-02
6.509799999999999898e+01 4.548499999999999943e+01 2.358500000000000085e+01 -2.528410000000000046e+00 -3.972774205117347163e-02
6.509799999999999898e+01 4.718500000000000227e+01 2.358500000000000085e+01 2.303504999999999825e+01 -3.861892311125394994e-02
6.509799999999999898e+01 5.094700000000000273e+01 -4.485000000000000320e+00 -1.019693999999999967e+01 -2.860215853121206298e-01
6.509900000000000375e+01 4.062899999999999778e+01 -3.165299999999999869e+01 9.400572999999999624e+00 -1.825347502532898708e-02
6.510399999999999920e+01 2.489999999999999858e+01 -5.685499999999999687e+01 1.018051999999999957e+01 1.059029364536262785e-01
6.510399999999999920e+01 2.489999999999999858e+01 -5.598899999999999721e+01 -6.929382000000000374e+00 1.071437398628172499e-01
6.510500000000000398e+01 4.013400000000000034e+01 2.415200000000000102e+01 4.478652000000000299e+00 -8.051961283311308282e-03
6.510699999999999932e+01 1.100500000000000078e+01 -4.137299999999999756e+01 -1.027788999999999930e+01 9.894856614310362786e-02
6.510699999999999932e+01 1.121400000000000041e+01 -4.063700000000000045e+01 -1.034764999999999979e+01 9.935846676345121142e-02
6.510999999999999943e+01 9.500600000000000378e+00 -3.219100000000000250e+01 -9.402070999999999401e+00 9.524267585472263875e-02
6.511400000000000432e+01 2.568100000000000094e+01 -2.536300000000000221e+00 -1.607783999999999835e+01 8.381283170884028244e-02
6.511599999999999966e+01 2.069699999999999918e+01 1.587500000000000000e+01 -1.004424999999999990e+01 8.527304865624953101e-02
6.511599999999999966e+01 3.322699999999999676e+01 -5.480799999999999983e+01 1.667769999999999975e+00 8.669601636137166945e-02
6.511899999999999977e+01 2.544000000000000128e+01 -1.747600000000000042e+00 -1.446162999999999954e+01 8.385076692842102775e-02
6.511899999999999977e+01 4.177400000000000091e+01 2.292299999999999827e+01 -2.284146000000000143e+01 -7.849762999183317394e-03
6.512199999999999989e+01 2.302599999999999980e+01 -1.745200000000000173e+01 -1.786233999999999966e+01 -1.079590608826035136e-01
6.512199999999999989e+01 1.385999999999999943e+01 -1.975300000000000011e+01 6.062393000000000365e-01 8.665808961332534255e-02
6.512399999999999523e+01 5.118099999999999739e+01 1.713500000000000156e+01 -2.140029999999999877e+00 -3.574107633004890844e-02
6.512800000000000011e+01 3.025100000000000122e+01 -5.722800000000000153e+01 1.242357999999999940e+01 9.424736122229485091e-02
6.512900000000000489e+01 3.180600000000000094e+01 3.053600000000000136e+01 -1.581412000000000084e+01 -8.506335915537526285e-03
6.512900000000000489e+01 3.426599999999999824e+01 3.053600000000000136e+01 -3.444979000000000013e+01 -8.165065276744726958e-03
6.512999999999999545e+01 9.569000000000000838e+00 -2.944099999999999895e+01 -1.270273000000000074e+01 9.350258925046543712e-02
6.513200000000000500e+01 3.105900000000000105e+01 2.092399999999999949e+01 -1.229255000000000031e+01 9.586494624583896673e-02
6.513400000000000034e+01 4.024699999999999989e+01 -3.341799999999999926e+01 7.196773000000000309e+00 2.113255125313428240e-01
6.513899999999999579e+01 3.597399999999999665e+01 3.190700000000000003e+01 -9.081238000000000810e+00 -7.723978515094816026e-03
6.514400000000000546e+01 1.103800000000000026e+01 -3.843699999999999761e+01 -6.584317999999999671e+00 9.924140380564486219e-02
6.514700000000000557e+01 3.416400000000000148e+01 2.373699999999999832e+01 -2.978849999999999909e+01 -9.326806984721528263e-03
6.514700000000000557e+01 3.416400000000000148e+01 2.460300000000000153e+01 -2.339577999999999847e+01 -9.158524954704082635e-03
6.514799999999999613e+01 2.353300000000000125e+01 -1.668799999999999883e+01 -1.751802999999999955e+01 -1.076523175444249469e-01
6.515000000000000568e+01 5.164900000000000091e+01 1.436999999999999922e+01 -1.021331999999999951e+01 -3.512570908337871861e-02
6.515000000000000568e+01 5.164900000000000091e+01 1.530100000000000016e+01 6.088635000000000019e+00 -3.518864524287858286e-02
6.515099999999999625e+01 4.064900000000000091e+01 2.299899999999999878e+01 -1.092600999999999978e+01 -8.117210971233784073e-03
6.515300000000000580e+01 3.459000000000000341e+01 3.277499999999999858e+01 -9.354976999999999876e+00 -7.816727178429200978e-03
6.515399999999999636e+01 2.495799999999999841e+01 -5.863499999999999801e+01 -1.740758000000000028e+00 1.036736819543868648e-01
6.515399999999999636e+01 2.495799999999999841e+01 -5.758500000000000085e+01 6.932805000000000462e+01 1.048708869964037060e-01
6.515600000000000591e+01 3.723299999999999699e+01 3.120700000000000074e+01 -4.172090000000000032e+01 -7.613511922138641377e-03
6.515600000000000591e+01 3.817300000000000182e+01 3.120700000000000074e+01 -4.864999000000000251e+01 -7.457240591746100433e-03
6.515600000000000591e+01 3.817300000000000182e+01 3.272699999999999676e+01 -5.584595999999999805e+01 -7.279661573260293173e-03
6.515800000000000125e+01 4.005199999999999960e+01 -3.422500000000000142e+01 3.283891000000000115e+00 2.026674592475682934e-01
6.516200000000000614e+01 3.652799999999999869e+01 -5.166199999999999903e+01 -2.781422000000000061e+00 -2.185371701807135164e-02
6.516700000000000159e+01 1.102899999999999991e+01 -2.888400000000000034e+01 -1.275841999999999921e+01 9.408913417297902482e-02
6.516800000000000637e+01 3.303600000000000136e+01 3.229899999999999949e+01 -4.292316000000000287e+01 -8.092558517006746138e-03
6.516800000000000637e+01 2.250100000000000122e+01 1.729899999999999949e+01 -5.757575000000000109e+00 8.524461501095426108e-02
6.517300000000000182e+01 3.631700000000000017e+01 3.272200000000000131e+01 3.725023000000000195e+00 -7.570645677691563435e-03
6.517400000000000659e+01 3.626899999999999835e+01 2.731099999999999994e+01 -6.236337999999999937e+00 -8.325527077515172333e-03
6.517400000000000659e+01 3.766899999999999693e+01 2.731099999999999994e+01 -2.090290999999999855e+01 -8.072184990663765908e-03
6.517400000000000659e+01 3.918900000000000006e+01 2.731099999999999994e+01 -2.406150999999999840e+01 -7.779829535885572286e-03
6.517499999999999716e+01 4.478000000000000114e+01 -1.830999999999999872e+01 -2.224937999999999860e+00 -5.335067642220847617e-02
6.517499999999999716e+01 4.478000000000000114e+01 -1.744399999999999906e+01 -1.006817000000000029e+01 1.028223308191554136e-01
6.517499999999999716e+01 5.096399999999999864e+01 2.291399999999999881e+00 -1.692518000000000100e+01 -3.530301568391709666e-02
6.517499999999999716e+01 5.096399999999999864e+01 3.156699999999999839e+00 -4.179787999999999926e+01 -3.536331497588714873e-02
6.517600000000000193e+01 5.083500000000000085e+01 -9.985100000000000087e-01 -1.275492999999999988e+01 -3.543524444782464311e-02
6.518200000000000216e+01 1.460699999999999932e+01 -4.908700000000000330e+01 1.596692000000000000e+00 9.739672113816569277e-02
6.518399999999999750e+01 5.178000000000000114e+01 5.290899999999999714e+00 -1.166611999999999938e+01 -3.392016732724465605e-02
6.518699999999999761e+01 2.106599999999999895e+01 1.502500000000000036e+01 -1.031598999999999933e+01 8.518080884291324983e-02
6.518699999999999761e+01 2.106599999999999895e+01 1.672500000000000142e+01 -9.244828000000000046e+00 8.530867671013431242e-02
6.518800000000000239e+01 3.401599999999999824e+01 2.976399999999999935e+01 -2.210137999999999892e+01 -8.313754398018305403e-03
6.518800000000000239e+01 2.896099999999999852e+01 -5.640400000000000347e+01 5.622321000000000346e+00 9.786339944348979025e-02
6.518800000000000239e+01 2.896099999999999852e+01 -5.546600000000000108e+01 -3.888490000000000002e-01 9.868724316656450612e-02
6.518899999999999295e+01 5.069200000000000017e+01 -2.069199999999999928e+00 -1.153480000000000061e+01 -3.585792455918333788e-02
6.519700000000000273e+01 4.534799999999999898e+01 -4.527799999999999869e+01 -3.739603999999999928e+01 -1.686673945246808803e-01
6.519700000000000273e+01 4.664099999999999824e+01 -4.759700000000000131e+01 -8.404578000000000770e+00 -1.673512438842799377e-01
6.519700000000000273e+01 4.664099999999999824e+01 -4.599900000000000233e+01 -3.058062999999999931e+01 -1.691087641634031469e-01
6.519700000000000273e+01 4.686800000000000210e+01 -4.679800000000000182e+01 -1.168351000000000006e+01 -1.683580570061276871e-01
6.520000000000000284e+01 3.522299999999999898e+01 -5.332999999999999829e+01 -1.728218999999999994e+01 7.985915469080810680e-02
6.520000000000000284e+01 4.140100000000000335e+01 -4.959700000000000131e+01 3.086047000000000096e-01 1.139127615749596471e-03
6.520199999999999818e+01 3.621800000000000352e+01 -5.243500000000000227e+01 -1.817258999999999958e+00 -2.014204773233149032e-02
6.520499999999999829e+01 2.189499999999999957e+01 -1.748499999999999943e+01 -1.645250000000000057e+01 -1.082429762492247011e-01
6.520799999999999841e+01 1.643599999999999994e+01 -5.880899999999999750e+01 -1.259924999999999962e+00 1.125643824070016868e-01
6.520900000000000318e+01 3.322899999999999920e+01 2.550400000000000134e+01 -6.691424999999999734e+00 -9.140254008781904457e-03
6.520999999999999375e+01 2.065399999999999991e+01 -6.066899999999999693e+01 -9.170156000000000140e-02 1.070168053728995233e-01
6.520999999999999375e+01 1.539300000000000068e+01 -1.950799999999999912e+01 -1.117369000000000057e+01 8.638367652804698760e-02
6.521200000000000330e+01 1.037299999999999933e+01 -4.511599999999999966e+01 -4.389325999999999617e+00 9.681638583771288997e-02
6.521599999999999397e+01 1.903399999999999892e+01 -1.169200000000000017e+01 -1.227745999999999960e+01 -1.076319750592829028e-01
6.521899999999999409e+01 3.850200000000000244e+01 3.196699999999999875e+01 -9.931137999999999977e+01 -7.312105572147524837e-03
6.522599999999999909e+01 3.984700000000000131e+01 2.362000000000000099e+01 -3.602533999999999903e+00 -8.203271547628695690e-03
6.522700000000000387e+01 4.324300000000000210e+01 -4.111699999999999733e+01 2.527242999999999995e+01 2.393612863338051844e-01
6.522700000000000387e+01 1.104599999999999937e+01 -3.695799999999999841e+01 -1.014106999999999914e+01 9.900599570086501822e-02
6.522799999999999443e+01 3.174599999999999866e+01 3.147500000000000142e+01 -2.814623999999999882e+01 -8.375434004789442458e-03
6.522899999999999920e+01 2.126800000000000068e+01 -8.724899999999999878e+00 -2.434162999999999855e+01 7.432286985592695405e-02
6.523000000000000398e+01 2.940800000000000125e+01 2.020599999999999952e+01 -9.358107999999999649e+00 9.570857330658895379e-02
6.523199999999999932e+01 4.256000000000000227e+01 -5.037599999999999767e+01 1.709446000000000021e+00 1.188601884443535664e-02
6.523199999999999932e+01 4.288499999999999801e+01 -5.111299999999999955e+01 -8.879922000000000093e-01 1.470900933076768093e-02
6.523199999999999932e+01 4.417799999999999727e+01 -5.183400000000000318e+01 -3.785711000000000048e+00 -1.646390491529173550e-01
6.523199999999999932e+01 4.547099999999999653e+01 -5.111299999999999955e+01 -5.419501000000000346e+00 -1.651615216925362284e-01
6.523499999999999943e+01 4.653600000000000136e+01 -1.622100000000000009e+01 -1.346856000000000009e+01 1.071508252179585591e-01
6.523799999999999955e+01 5.173700000000000188e+01 -8.395300000000000651e+00 -9.659110000000000085e+00 -2.877236869413929421e-01
6.524200000000000443e+01 3.433400000000000318e+01 3.124500000000000099e+01 -6.549759000000000242e+01 -8.055295133275764199e-03
6.524399999999999977e+01 2.673900000000000077e+01 -6.008300000000000196e+00 -2.635663999999999874e+01 8.374482057271881441e-02
6.524599999999999511e+01 3.432000000000000028e+01 2.906400000000000006e+01 -1.671563000000000088e+01 -8.372758127842237774e-03
6.524599999999999511e+01 2.865800000000000125e+01 -5.476599999999999824e+01 1.718185000000000073e+01 1.002562187217537204e-01
6.524899999999999523e+01 1.917699999999999960e+01 -8.914699999999999847e+00 -5.968087999999999838e+00 7.526947908077985527e-02
6.525000000000000000e+01 4.150699999999999790e+01 -2.800000000000000000e+01 -8.019341000000000719e+00 -5.070125177234928449e-02
6.525499999999999545e+01 3.348899999999999721e+01 2.902400000000000091e+01 -1.519153999999999982e+01 -8.503249811276675230e-03
6.525700000000000500e+01 4.350500000000000256e+01 -4.239900000000000091e+01 9.716087999999999170e+00 2.423838268856899347e-01
6.526000000000000512e+01 4.575999999999999801e+01 -2.395100000000000051e+01 -2.687253000000000114e+00 3.234247725636731768e-02
6.526000000000000512e+01 1.806099999999999994e+01 -5.884100000000000108e+01 6.138787999999999911e+00 1.114482993249712034e-01
6.526200000000000045e+01 3.300000000000000000e+01 2.965599999999999881e+01 -3.664641000000000304e+01 -8.476281556441315340e-03
6.526200000000000045e+01 3.393800000000000239e+01 3.235600000000000165e+01 -2.004303000000000168e+01 -7.961761725570721052e-03
6.526399999999999579e+01 4.962800000000000011e+01 -1.532699999999999996e+01 -3.703141000000000016e+00 -1.453866361096702586e-01
6.526900000000000546e+01 4.354099999999999682e+01 -2.408800000000000097e+01 -4.570204999999999629e+00 -1.990369432307800002e-01
6.526900000000000546e+01 2.539300000000000068e+01 1.182399999999999984e+01 -2.023001000000000005e+01 8.449835433133233431e-02
6.526999999999999602e+01 3.053399999999999892e+01 2.340399999999999991e+01 -8.091810999999999865e+00 9.609232095636463522e-02
6.526999999999999602e+01 3.158399999999999963e+01 2.340399999999999991e+01 -9.129585999999999757e+00 9.615750991795683766e-02
6.527100000000000080e+01 1.077599999999999980e+01 -2.226300000000000168e+01 -1.119450999999999929e+01 8.844106437879142857e-02
6.527200000000000557e+01 2.351000000000000156e+01 1.893400000000000105e+01 -7.303086000000000411e+00 8.531144587847630523e-02
6.527299999999999613e+01 4.515299999999999869e+01 -2.388899999999999935e+01 -2.885717000000000088e+00 3.216613088481459770e-02
6.527599999999999625e+01 1.925100000000000122e+01 -1.244100000000000072e+01 -1.344023999999999930e+01 -1.077172321981843678e-01
6.528900000000000148e+01 5.076500000000000057e+01 -2.916700000000000070e+00 -2.723179000000000016e+01 -3.549228489719015445e-02
6.529099999999999682e+01 3.546999999999999886e+01 3.272200000000000131e+01 -8.443319999999999936e+00 -7.696349245005805473e-03
6.529200000000000159e+01 3.288100000000000023e+01 2.268199999999999861e+01 -9.434393000000000029e+00 -9.755058082305832767e-03
6.529399999999999693e+01 2.470499999999999829e+01 7.830799999999999983e+00 -2.186132999999999882e+01 8.417022077102838395e-02
6.529399999999999693e+01 2.230999999999999872e+01 -6.077700000000000102e+01 -3.936316000000000148e+00 1.051217835328789041e-01
6.529699999999999704e+01 5.164399999999999835e+01 -6.761899999999999800e+00 -4.039009000000000071e+01 -2.865341548575782715e-01
6.529699999999999704e+01 5.187100000000000222e+01 -7.560999999999999943e+00 -5.183648000000000167e+01 -2.867575490574175157e-01
6.529699999999999704e+01 4.213600000000000279e+01 -4.012700000000000244e+01 3.355743999999999971e+01 2.499256953450908481e-01
6.529900000000000659e+01 4.328499999999999659e+01 -4.319100000000000250e+01 5.567003000000000368e-01 -1.232626564016789730e-02
6.529999999999999716e+01 3.701899999999999835e+01 3.292999999999999972e+01 -8.118064000000000391e+00 -7.438357259042118093e-03
6.530700000000000216e+01 2.389199999999999946e+01 1.969099999999999895e+01 -5.420310999999999879e+00 8.535106781956365574e-02
6.531300000000000239e+01 2.158399999999999963e+01 -1.437199999999999989e+01 -3.457457000000000136e+01 -1.076392882477324175e-01
6.531300000000000239e+01 2.277499999999999858e+01 -1.503599999999999959e+01 -1.308732000000000006e+01 -1.075109493722951753e-01
6.531699999999999307e+01 1.960000000000000142e+01 -1.717200000000000060e+01 -3.009514000000000067e+01 8.330611405767504585e-02
6.531699999999999307e+01 2.823300000000000054e+01 -5.442099999999999937e+01 1.450994000000000028e+01 1.018692141897531017e-01
6.532399999999999807e+01 3.688700000000000045e+01 3.193799999999999883e+01 -1.499935999999999936e+01 -7.577705911070436659e-03
6.532899999999999352e+01 4.808599999999999852e+01 -1.542699999999999960e+01 -1.953270000000000062e+00 -1.507104612144762879e-01
6.532899999999999352e+01 4.649199999999999733e+01 -2.030600000000000094e+01 1.254396999999999984e+01 -5.191958512145414956e-02
6.533100000000000307e+01 8.702700000000000102e+00 -3.157300000000000040e+01 -5.648770999999999987e+00 9.423342046382729431e-02
6.533199999999999363e+01 1.675300000000000011e+01 -1.872599999999999909e+01 -8.125638999999999612e+00 8.551498688440292706e-02
6.533299999999999841e+01 1.432000000000000028e+01 -4.842300000000000182e+01 -3.647565000000000168e+00 9.784945062332289778e-02
6.533799999999999386e+01 4.063700000000000045e+01 -3.082999999999999829e+01 3.592197000000000173e+01 2.295113992635647651e-02
6.534099999999999397e+01 3.016499999999999915e+01 2.255399999999999849e+01 -5.898907999999999596e+00 9.600110023392793845e-02
6.534099999999999397e+01 3.179500000000000171e+01 2.092399999999999949e+01 -1.581863000000000063e+01 9.594559808418301472e-02
6.534199999999999875e+01 1.305599999999999916e+01 -4.772099999999999653e+01 -3.016878000000000171e+00 9.747138203183572380e-02
6.534499999999999886e+01 2.695700000000000074e+01 1.951200000000000045e+01 -2.940382000000000051e+00 9.553951618323808237e-02
6.534499999999999886e+01 2.782199999999999918e+01 1.951200000000000045e+01 -6.204483999999999888e+00 9.557534287912514137e-02
6.534600000000000364e+01 4.037599999999999767e+01 -3.258899999999999864e+01 7.597499000000000002e+00 -2.568360539320459907e-02
6.534799999999999898e+01 3.422999999999999687e+01 3.190700000000000003e+01 -2.405518000000000001e+01 -7.979934291205066296e-03
6.534999999999999432e+01 4.531499999999999773e+01 -1.911700000000000088e+01 6.327670999999999601e+00 -5.284427899714154442e-02
6.535099999999999909e+01 5.151100000000000279e+01 1.338299999999999912e+01 -1.471011999999999986e+01 -3.516945379324568077e-02
6.535099999999999909e+01 2.526699999999999946e+01 2.061199999999999832e+01 1.523995999999999906e+00 9.559508302789881951e-02
6.535099999999999909e+01 2.246499999999999986e+01 3.181999999999999940e+00 -2.243468999999999980e+01 8.453311851116990239e-02
6.535099999999999909e+01 2.269200000000000017e+01 3.981100000000000083e+00 -1.582529000000000075e+01 8.447674957413789376e-02
6.535099999999999909e+01 4.181600000000000250e+01 -3.848599999999999710e+01 4.396829000000000320e+00 2.425318191372606014e-01
6.535200000000000387e+01 1.763500000000000156e+01 -1.793900000000000006e+01 -1.367801000000000045e+01 8.462441529528165474e-02
6.535500000000000398e+01 4.183299999999999841e+01 -3.942699999999999960e+01 1.674765000000000015e+01 2.443030516351347159e-01
6.535599999999999454e+01 5.192099999999999937e+01 8.439000000000000057e+00 -1.391477000000000075e+01 -3.411981625622890341e-02
6.535599999999999454e+01 3.191300000000000026e+01 -5.570499999999999829e+01 -1.051913000000000054e+01 9.063737004785285545e-02
6.535800000000000409e+01 5.109899999999999665e+01 -1.040900000000000070e+01 1.378857999999999961e+01 -2.911999537156785278e-01
6.536100000000000421e+01 4.043900000000000006e+01 -4.996399999999999864e+01 1.538081000000000031e+01 -5.956374406134063403e-03
6.536700000000000443e+01 4.462299999999999756e+01 2.299599999999999866e+01 -1.772609000000000101e+00 -4.033251352215900393e-02
6.536700000000000443e+01 1.223700000000000010e+01 -2.126500000000000057e+01 -2.287124000000000024e+01 8.789172843082579401e-02
6.536799999999999500e+01 4.829500000000000171e+01 -2.402299999999999969e+01 9.467570000000000263e+00 1.221037832142242430e-01
6.536799999999999500e+01 4.829500000000000171e+01 -2.151500000000000057e+01 3.196137999999999835e+01 2.699483500274644718e-02
6.537399999999999523e+01 1.019599999999999973e+01 -3.366100000000000136e+01 -9.162323000000000661e+00 9.672599247528448907e-02
6.537999999999999545e+01 2.333399999999999963e+01 -7.381199999999999761e+00 -3.188853999999999900e+01 8.511039386905798476e-02
6.537999999999999545e+01 4.181000000000000227e+01 -3.750399999999999778e+01 -5.532481999999999678e-01 2.410333980631388651e-01
6.537999999999999545e+01 2.258699999999999974e+01 2.365899999999999892e+00 -1.953577999999999903e+01 8.451666927628249948e-02
6.537999999999999545e+01 2.612399999999999878e+01 8.452799999999999869e+00 -5.183489000000000146e+01 8.405793105253493713e-02
6.538100000000000023e+01 4.254200000000000159e+01 2.285699999999999932e+01 -2.906037999999999855e+01 -4.167326695171563039e-02
6.538100000000000023e+01 2.483200000000000074e+01 -8.553800000000000292e-01 -1.784403999999999968e+01 8.400921877115823111e-02
6.538200000000000500e+01 3.877400000000000091e+01 -5.013700000000000045e+01 -1.618573999999999957e+00 1.468864186429524321e-01
6.538599999999999568e+01 2.297500000000000142e+01 -7.771700000000000053e+00 -2.741807000000000016e+01 8.528369824166216751e-02
6.538899999999999579e+01 3.023499999999999943e+01 2.098600000000000065e+01 -9.820671000000000816e+00 9.585922255294858363e-02
6.539100000000000534e+01 4.670700000000000074e+01 -2.416000000000000014e+01 -2.987606999999999902e-01 1.207434678620444152e-01
6.539700000000000557e+01 2.532600000000000051e+01 -5.522599999999999909e+01 -3.487108000000000096e+00 1.075479548782747041e-01
6.539900000000000091e+01 3.062600000000000122e+01 2.022400000000000020e+01 -1.105673999999999957e+01 9.580696714704564632e-02
6.539900000000000091e+01 3.149200000000000088e+01 2.022400000000000020e+01 -1.681522999999999968e+01 9.586314499306970716e-02
6.539900000000000091e+01 3.149200000000000088e+01 2.162399999999999878e+01 -1.076127999999999929e+01 9.600263603060828210e-02
6.540000000000000568e+01 3.051999999999999957e+01 2.171499999999999986e+01 -3.759228999999999932e+00 9.594992609522480509e-02
6.540200000000000102e+01 1.156499999999999950e+01 -3.477900000000000347e+01 -1.012063999999999986e+01 9.881166537422053642e-02
6.540500000000000114e+01 3.279699999999999704e+01 2.639000000000000057e+01 -7.608882999999999619e+00 -9.042491427274828089e-03
6.540600000000000591e+01 2.704299999999999926e+01 -5.382200000000000273e+01 8.870029000000000607e+00 1.059809150185829774e-01
6.540699999999999648e+01 1.068399999999999928e+01 -2.328399999999999892e+01 -1.011951999999999963e+01 8.925019292889194156e-02
6.540800000000000125e+01 1.579499999999999993e+01 -5.867300000000000182e+01 -1.782108999999999943e+00 1.130782996245036642e-01
6.540999999999999659e+01 2.259900000000000020e+01 1.482399999999999940e+00 -1.641099000000000174e+01 8.453383547518067420e-02
6.540999999999999659e+01 1.017300000000000004e+01 -4.603900000000000148e+01 -5.130898000000000181e+00 9.615904090196765452e-02
6.540999999999999659e+01 1.042699999999999960e+01 -4.693299999999999983e+01 -5.870315999999999867e+00 9.586641133220095978e-02
6.540999999999999659e+01 1.187299999999999933e+01 -4.773899999999999721e+01 -4.417974000000000068e+00 9.649592994631633891e-02
6.540999999999999659e+01 1.793799999999999883e+01 -1.723900000000000077e+01 -1.599613000000000085e+01 8.396646628834540660e-02
6.541100000000000136e+01 4.617199999999999704e+01 2.367999999999999972e+01 -4.391824999999999868e+00 -3.922271007357277378e-02
6.541500000000000625e+01 4.817000000000000171e+01 2.063700000000000045e+01 -5.117426999999999992e+01 -3.813264363329786633e-02
6.541500000000000625e+01 4.911899999999999977e+01 1.968799999999999883e+01 -5.481076000000000192e+01 -3.745077787651819590e-02
