-4.801999999999999602e+00 6.215699999999999648e+01 2.106500000000000057e+02 1.615145999999999971e+00 1.968390809401498187e-01
-4.801300000000000345e+00 9.417400000000000659e+01 1.783700000000000045e+02 6.382507999999999626e+00 2.518848633531211613e-03
-4.794299999999999784e+00 9.797499999999999432e+01 1.947199999999999989e+02 1.918812000000000140e+01 -2.588999037791001046e-01
-4.793999999999999595e+00 7.189000000000000057e+01 1.739399999999999977e+02 -1.736523999999999957e+00 -2.468171498975021798e-03
-4.793999999999999595e+00 7.211700000000000443e+01 1.731399999999999864e+02 -5.986665000000000347e+00 2.934386765943502399e-03
-4.793999999999999595e+00 7.340999999999999659e+01 1.724199999999999875e+02 -1.850430000000000019e+00 9.943952754041661402e-03
-4.793300000000000338e+00 8.695399999999999352e+01 2.031399999999999864e+02 3.632395999999999958e+00 -2.631254258631846588e-01
-4.793300000000000338e+00 8.781900000000000261e+01 2.031399999999999864e+02 -2.355179000000000022e-01 -2.626791397685417917e-01
-4.786299999999999777e+00 6.411799999999999500e+01 2.145500000000000114e+02 7.623677999999999955e+00 8.709884478714303990e-02
-4.777499999999999858e+00 9.266599999999999682e+01 1.804399999999999977e+02 -2.202493000000000034e+00 -1.689753482813736302e-02
-4.769999999999999574e+00 7.937999999999999545e+01 1.911299999999999955e+02 -8.244161999999999324e+00 1.517521806581380861e-01
-4.767900000000000027e+00 9.540300000000000580e+01 1.956599999999999966e+02 -3.198610000000000042e+01 -2.589787045902767204e-01
-4.762699999999999712e+00 6.157500000000000284e+01 2.076500000000000057e+02 1.222850999999999999e+01 7.662865310664490615e-02
-4.758899999999999686e+00 9.721099999999999852e+01 1.772199999999999989e+02 6.714299999999999713e+00 3.034768285355590907e-03
-4.754400000000000404e+00 6.706199999999999761e+01 2.100399999999999920e+02 1.074321999999999999e+00 1.792631486540730290e-01
-4.745400000000000063e+00 9.919100000000000250e+01 1.997700000000000102e+02 6.944115000000000038e+00 -2.597993195725541438e-01
-4.742099999999999760e+00 8.311400000000000432e+01 1.808700000000000045e+02 -2.862962000000000007e+00 -7.518121856594925205e-03
-4.740099999999999980e+00 8.365500000000000114e+01 1.985399999999999920e+02 4.880276000000000280e+00 -2.618699106988816028e-01
-4.738299999999999734e+00 9.970099999999999341e+01 1.832299999999999898e+02 -2.386317999999999984e+01 1.020637545843936422e-04
-4.737499999999999822e+00 1.004800000000000040e+02 2.006500000000000057e+02 7.815650999999999726e+01 -1.391557723162780980e-01
-4.735999999999999766e+00 6.499099999999999966e+01 2.082199999999999989e+02 2.221141000000000087e-01 1.703346408782897559e-01
-4.731200000000000294e+00 8.378400000000000603e+01 1.860600000000000023e+02 6.519680000000000142e+00 1.511388934107677773e-01
-4.730000000000000426e+00 8.414300000000000068e+01 1.889900000000000091e+02 1.969214999999999938e+00 1.702633733755027912e-01
-4.725999999999999979e+00 7.272899999999999920e+01 1.909000000000000057e+02 6.089913000000000132e-01 5.374437980653271746e-02
-4.725500000000000256e+00 6.448799999999999955e+01 2.049600000000000080e+02 1.068901999999999930e+01 2.201845364594443022e-01
-4.722999999999999865e+00 7.945000000000000284e+01 1.706100000000000136e+02 2.187658000000000058e+01 1.714815618397350777e-02
-4.722999999999999865e+00 7.956799999999999784e+01 1.714600000000000080e+02 1.542200000000000060e+01 1.650432158556254525e-02
-4.722900000000000098e+00 9.607800000000000296e+01 1.798600000000000136e+02 8.531392999999999560e+00 -1.096191543305230498e-01
-4.721599999999999575e+00 6.644599999999999795e+01 2.090000000000000000e+02 1.098800999999999917e+00 1.699891376355720518e-01
-4.719999999999999751e+00 7.777599999999999625e+01 1.956200000000000045e+02 -8.582553000000000765e+00 -6.696780259675666480e-02
-4.719999999999999751e+00 7.800300000000000011e+01 1.948300000000000125e+02 -4.519860000000000433e+00 1.746930962198179824e-02
-4.719999999999999751e+00 7.800300000000000011e+01 1.964199999999999875e+02 -5.011211000000000304e+00 3.595575127187738973e-02
-4.716000000000000192e+00 7.984600000000000364e+01 1.761999999999999886e+02 -5.653481000000000201e+00 6.361595112383065798e-03
-4.713099999999999845e+00 9.988700000000000045e+01 2.023199999999999932e+02 3.365935000000000343e+01 -1.381198320489615827e-01
-4.708499999999999908e+00 8.922599999999999909e+01 1.874399999999999977e+02 1.475845999999999991e+00 -2.127711716380328334e-04
-4.701999999999999957e+00 1.002099999999999937e+02 2.014199999999999875e+02 4.712709000000000259e+01 -1.386973051041965332e-01
-4.701900000000000190e+00 9.678300000000000125e+01 1.948799999999999955e+02 -4.402752000000000265e+01 -2.588757852147805516e-01
-4.700999999999999623e+00 6.665300000000000580e+01 1.850900000000000034e+02 4.003333999999999726e+00 2.319874537702978912e-01
-4.700999999999999623e+00 6.665300000000000580e+01 1.861399999999999864e+02 5.742594000000000420e+00 8.198718525973770765e-02
-4.698699999999999655e+00 8.194400000000000261e+01 1.954300000000000068e+02 -4.551604000000000205e+00 3.724066110153242959e-02
-4.698100000000000165e+00 8.181699999999999307e+01 1.801399999999999864e+02 -3.991483000000000114e+00 -6.698037500447421785e-03
-4.696900000000000297e+00 8.062600000000000477e+01 1.793600000000000136e+02 -1.145578000000000074e+01 -5.550740170263384309e-03
-4.696900000000000297e+00 6.345000000000000284e+01 2.042199999999999989e+02 8.715702999999999534e+00 1.653039301861565502e-01
-4.688699999999999868e+00 6.182600000000000051e+01 2.145900000000000034e+02 -7.675358999999999654e-02 -9.894488699065337456e-02
-4.684300000000000352e+00 9.728900000000000148e+01 1.831200000000000045e+02 -3.469641000000000020e+01 -1.186353938844514084e-03
-4.683399999999999785e+00 7.041599999999999682e+01 1.791999999999999886e+02 1.260478999999999949e+01 5.063154998043813831e-02
-4.678700000000000081e+00 9.666400000000000148e+01 1.824499999999999886e+02 -1.505303999999999931e+01 -1.282233607361813951e-02
-4.678200000000000358e+00 7.922799999999999443e+01 1.939799999999999898e+02 -6.446387999999999785e+00 1.858375368092433921e-01
-4.678200000000000358e+00 9.876200000000000045e+01 1.831299999999999955e+02 -2.509694999999999965e+01 -4.321411481665686223e-04
-4.677999999999999936e+00 9.950499999999999545e+01 2.030800000000000125e+02 3.790852999999999895e+01 -1.375871659074461850e-01
-4.677299999999999791e+00 6.544499999999999318e+01 2.090000000000000000e+02 -2.865528999999999993e-01 1.666866860697722164e-01
-4.677299999999999791e+00 6.174699999999999989e+01 2.117100000000000080e+02 3.784727000000000174e+00 8.897416158168133804e-02
-4.676000000000000156e+00 6.994799999999999329e+01 1.894099999999999966e+02 3.808530000000000193e+00 8.362694415689328475e-02
-4.671599999999999753e+00 9.300499999999999545e+01 1.898400000000000034e+02 -3.405599000000000132e+01 9.208301024073857824e-03
-4.671599999999999753e+00 9.387099999999999511e+01 1.898400000000000034e+02 -3.694366999999999734e+01 9.308399915210334788e-03
-4.670899999999999608e+00 1.028199999999999932e+02 1.873499999999999943e+02 3.313450000000000273e+01 5.447755516477789661e-03
-4.669200000000000017e+00 6.680200000000000671e+01 2.108100000000000023e+02 7.524125999999999870e+00 1.809436999564675019e-01
-4.669200000000000017e+00 6.848399999999999466e+01 2.091299999999999955e+02 4.466521999999999992e-01 1.920127858953752098e-01
-4.668000000000000149e+00 8.891599999999999682e+01 1.882100000000000080e+02 -6.083975999999999829e-01 1.706415205894234576e-03
-4.666500000000000092e+00 8.408599999999999852e+01 1.811699999999999875e+02 -2.155011000000000010e+00 4.502380062388156544e-03
-4.658400000000000318e+00 9.687000000000000455e+01 2.001699999999999875e+02 7.060014999999999930e+00 -2.599804553008571717e-01
-4.657300000000000217e+00 6.802800000000000580e+01 1.870600000000000023e+02 3.293619999999999948e+01 1.181670405038583310e-01
-4.647499999999999964e+00 6.923999999999999488e+01 1.878300000000000125e+02 1.746621999999999897e+00 1.262489369984092225e-01
-4.644999999999999574e+00 9.378100000000000591e+01 1.788400000000000034e+02 4.770196999999999909e-01 1.301773157075648054e-03
-4.641099999999999781e+00 8.641800000000000637e+01 1.968100000000000023e+02 -2.129754000000000147e+00 -2.593967423682718154e-01
-4.639700000000000379e+00 6.172800000000000153e+01 2.043700000000000045e+02 3.449901999999999802e+00 2.763550147543521879e-02
-4.638600000000000279e+00 6.792199999999999704e+01 1.840699999999999932e+02 5.999624999999999986e+00 2.483781535177546629e-01
-4.636999999999999567e+00 8.945300000000000296e+01 1.869600000000000080e+02 8.664004000000000261e+00 -1.248983818115264287e-03
-4.636000000000000121e+00 8.034199999999999875e+01 1.774199999999999875e+02 -7.575671999999999962e+00 2.575896946393388832e-03
-4.634299999999999642e+00 9.812999999999999545e+01 2.040000000000000000e+02 9.579629999999999868e+00 -5.978518745651774380e-02
-4.631599999999999717e+00 8.036599999999999966e+01 1.783499999999999943e+02 -3.084024000000000143e+01 -1.208736731539264680e-03
-4.625000000000000000e+00 6.638500000000000512e+01 2.116200000000000045e+02 2.687024999999999864e+01 1.464847286664113304e-02
-4.621800000000000352e+00 7.056100000000000705e+01 1.802400000000000091e+02 -1.443194000000000088e+00 4.438331891447781785e-02
-4.618599999999999817e+00 6.959099999999999397e+01 1.885999999999999943e+02 2.341434000000000015e-01 1.066004792957364333e-01
-4.612599999999999589e+00 1.031200000000000045e+02 1.866500000000000057e+02 -3.668730000000000047e+01 4.686407825418084649e-03
-4.608200000000000074e+00 9.650900000000000034e+01 2.041399999999999864e+02 1.942790000000000106e+01 -5.837362515047844758e-02
-4.607999999999999652e+00 7.937500000000000000e+01 1.724099999999999966e+02 5.344760999999999740e+01 1.622885591706511171e-02
-4.607999999999999652e+00 7.872799999999999443e+01 1.734499999999999886e+02 1.599630999999999936e+01 1.476677614558952710e-02
-4.607999999999999652e+00 7.872799999999999443e+01 1.743100000000000023e+02 4.353915999999999897e+00 1.276555562807812905e-02
-4.605000000000000426e+00 7.127899999999999636e+01 1.903300000000000125e+02 -8.249952999999999870e-01 5.244365688511557627e-02
-4.603699999999999903e+00 9.361100000000000421e+01 1.873700000000000045e+02 -1.019805999999999990e+01 3.631105258886734022e-03
-4.603200000000000180e+00 9.739199999999999591e+01 1.780099999999999909e+02 2.026902000000000115e+01 7.357256243352384636e-04
-4.597599999999999909e+00 9.431600000000000250e+01 1.989600000000000080e+02 4.905396999999999785e+00 -2.598587945143363553e-01
-4.594999999999999751e+00 9.596599999999999397e+01 1.812899999999999920e+02 -3.033457999999999988e+00 -1.400083650201392783e-02
-4.594199999999999839e+00 6.698199999999999932e+01 2.082299999999999898e+02 -5.860625999999999891e-01 1.722898723604049942e-01
-4.594199999999999839e+00 6.809399999999999409e+01 2.082299999999999898e+02 -1.824335000000000040e+00 1.877288660079700633e-01
-4.594199999999999839e+00 6.809399999999999409e+01 2.100300000000000011e+02 6.536842000000000041e+00 1.885714288992292875e-01
-4.593600000000000350e+00 9.614000000000000057e+01 1.999699999999999989e+02 6.591910000000000380e+00 -2.599896182259748278e-01
-4.592900000000000205e+00 7.832200000000000273e+01 1.972100000000000080e+02 -8.522052000000000405e+00 -6.633330881319839112e-02
-4.588000000000000078e+00 7.481799999999999784e+01 1.724099999999999966e+02 -2.856634000000000118e+00 1.477271734088850264e-02
-4.586299999999999599e+00 8.485399999999999920e+01 1.849600000000000080e+02 7.218092000000000397e+00 -2.512756060513856443e-02
-4.581599999999999895e+00 1.000699999999999932e+02 1.839399999999999977e+02 -2.300256999999999863e+01 1.051543977522735986e-03
-4.581599999999999895e+00 1.009300000000000068e+02 1.839399999999999977e+02 -7.083504999999999718e+00 1.329489397115835112e-03
-4.576999999999999957e+00 8.214499999999999602e+01 1.974000000000000057e+02 -3.771675999999999807e+00 -2.606796899103108744e-01
-4.576999999999999957e+00 1.022699999999999960e+02 1.897299999999999898e+02 -4.398098000000000241e+01 -2.585432533347961637e-01
-4.575000000000000178e+00 8.898900000000000432e+01 2.050200000000000102e+02 -1.487664999999999971e+01 -4.580164712398232529e-02
-4.567700000000000315e+00 9.247799999999999443e+01 1.881200000000000045e+02 -1.034723999999999933e+01 4.702292133138232487e-03
-4.567700000000000315e+00 9.247799999999999443e+01 1.889900000000000091e+02 -1.732414999999999949e+01 6.894076794837325148e-03
-4.567700000000000315e+00 9.474299999999999500e+01 1.881200000000000045e+02 -2.214161999999999964e+01 5.699177645682411766e-03
-4.566900000000000404e+00 9.230500000000000682e+01 2.072500000000000000e+02 8.336548000000000513e+00 -5.291115900056129334e-02
-4.563299999999999912e+00 7.560399999999999920e+01 1.899900000000000091e+02 1.361445999999999934e+01 2.463603874626937029e-01
-4.563299999999999912e+00 7.801200000000000045e+01 1.899900000000000091e+02 5.410433000000000270e+00 1.209607216662574453e-01
-4.555699999999999861e+00 1.009800000000000040e+02 1.939099999999999966e+02 6.309402999999999651e+00 -2.589295464276245573e-01
-4.547799999999999621e+00 6.116400000000000148e+01 2.069300000000000068e+02 5.258356000000000030e+00 9.991044503663756848e-02
-4.547799999999999621e+00 8.977100000000000080e+01 1.961599999999999966e+02 2.493431999999999871e+00 -2.589729204982070265e-01
-4.543199999999999683e+00 1.026099999999999994e+02 1.889399999999999977e+02 -1.259248000000000012e+01 -2.585003902999116754e-01
-4.541999999999999815e+00 8.640600000000000591e+01 1.978799999999999955e+02 -4.219692999999999916e-01 -2.603528635824129966e-01
-4.541000000000000369e+00 7.855299999999999727e+01 1.981599999999999966e+02 -5.451520999999999617e+00 -6.876605151980483277e-02
-4.541000000000000369e+00 8.101300000000000523e+01 1.981599999999999966e+02 -3.910018000000000171e+01 -2.625069904305840085e-01
-4.532899999999999707e+00 6.895900000000000318e+01 1.870900000000000034e+02 1.845609999999999928e+01 1.161202059319137864e-01
-4.526200000000000223e+00 8.196500000000000341e+01 1.967400000000000091e+02 -1.119582000000000077e+00 -2.595804799646933558e-01
-4.522499999999999964e+00 9.373000000000000398e+01 2.069699999999999989e+02 1.159840999999999944e+01 -5.501563278358292258e-02
-4.516000000000000014e+00 9.218500000000000227e+01 1.823499999999999943e+02 1.774354999999999905e+01 -1.605235434335492567e-02
-4.509400000000000297e+00 1.026200000000000045e+02 1.880200000000000102e+02 1.127651000000000003e+01 6.223737683218964062e-03
-4.507799999999999585e+00 9.930700000000000216e+01 1.941500000000000057e+02 6.797913999999999568e+00 -2.588850545663434199e-01
-4.505600000000000271e+00 9.247199999999999420e+01 1.818300000000000125e+02 2.616363999999999912e+00 -1.619598626829205773e-02
-4.504100000000000215e+00 7.427899999999999636e+01 1.905200000000000102e+02 1.013988999999999940e+01 2.480267188521295962e-01
-4.501900000000000013e+00 7.978300000000000125e+01 1.989799999999999898e+02 -4.347034000000000020e+01 -2.648938500801160112e-01
-4.493999999999999773e+00 9.122599999999999909e+01 2.065399999999999920e+02 -5.519496000000000180e+00 -5.092244112520141058e-02
-4.493599999999999817e+00 7.077599999999999625e+01 1.825699999999999932e+02 9.191915000000000502e-01 3.803094637661391664e-02
-4.490300000000000402e+00 8.974899999999999523e+01 1.970699999999999932e+02 4.180303999999999576e+00 -2.594363825168389259e-01
-4.489600000000000257e+00 8.120799999999999841e+01 1.954300000000000068e+02 -1.702834999999999965e+01 3.749825815974559134e-02
-4.484899999999999665e+00 1.013499999999999943e+02 1.930600000000000023e+02 -5.562535999999999703e+00 -2.588421485375934639e-01
-4.482899999999999885e+00 6.341799999999999926e+01 2.146100000000000136e+02 7.697833000000000148e+00 1.018338381881285504e-01
-4.482300000000000395e+00 8.945000000000000284e+01 1.954600000000000080e+02 -4.652504999999999669e+00 -2.586214029934491010e-01
-4.478600000000000136e+00 6.856100000000000705e+01 1.836500000000000057e+02 8.489174999999999915e-01 2.557740971551886178e-01
-4.475999999999999979e+00 8.622400000000000375e+01 1.898700000000000045e+02 5.654646000000000328e+01 4.002469608582136761e-03
-4.475999999999999979e+00 8.762399999999999523e+01 1.898700000000000045e+02 1.118407000000000018e+01 6.159540510023051377e-03
-4.475900000000000212e+00 8.892900000000000205e+01 2.040800000000000125e+02 -1.082878999999999969e+01 -4.596746127796540876e-02
-4.472699999999999676e+00 8.322299999999999898e+01 1.978400000000000034e+02 -4.658044000000000073e-01 -2.611914167016119448e-01
-4.471499999999999808e+00 9.999299999999999500e+01 1.940200000000000102e+02 2.757667000000000090e+00 -2.589011894729985053e-01
-4.471199999999999619e+00 9.017100000000000648e+01 2.059199999999999875e+02 -2.582516000000000034e+01 -4.867158992640951282e-02
-4.469699999999999562e+00 9.536700000000000443e+01 1.773100000000000023e+02 5.172970000000000290e+00 4.710247975163549608e-03
-4.469699999999999562e+00 9.641700000000000159e+01 1.773100000000000023e+02 9.683289999999999509e+00 3.589675874772553510e-03
-4.469699999999999562e+00 9.641700000000000159e+01 1.790099999999999909e+02 2.938786999999999949e+01 -1.085124376389952072e-01
-4.466099999999999959e+00 6.525900000000000034e+01 2.073000000000000114e+02 2.042634999999999934e+01 1.712992752032693466e-01
-4.464699999999999669e+00 8.569299999999999784e+01 1.815999999999999943e+02 -1.758899999999999908e+00 -2.459023648316416028e-03
-4.464699999999999669e+00 8.569299999999999784e+01 1.843499999999999943e+02 2.981760999999999839e+01 -2.392075023484587643e-02
-4.464500000000000135e+00 9.470300000000000296e+01 1.957199999999999989e+02 -1.337510999999999939e+01 -2.589879101012682039e-01
-4.461700000000000443e+00 8.471099999999999852e+01 2.041999999999999886e+02 2.107674000000000092e+01 -3.172328015495962106e-02
-4.461700000000000443e+00 8.576099999999999568e+01 2.041999999999999886e+02 1.391982000000000053e+00 -3.572319828594619495e-02
-4.453100000000000058e+00 6.991100000000000136e+01 1.829300000000000068e+02 5.822302000000000033e-02 2.556082851694074787e-02
-4.443299999999999805e+00 8.275499999999999545e+01 1.956100000000000136e+02 -2.885521999999999920e+00 4.066765826350231261e-02
-4.440400000000000347e+00 9.857699999999999818e+01 2.000999999999999943e+02 1.260192999999999941e+01 -2.599023057823127703e-01
-4.439700000000000202e+00 7.175199999999999534e+01 1.772700000000000102e+02 -4.385951000000000155e-01 -3.499823291186397040e-02
-4.439700000000000202e+00 7.175199999999999534e+01 1.781399999999999864e+02 -2.149576000000000153e+00 -4.943580113355765943e-02
-4.431300000000000239e+00 8.151099999999999568e+01 1.947299999999999898e+02 -7.581208000000000169e+00 3.134285187433356878e-02
-4.431300000000000239e+00 8.237600000000000477e+01 1.947299999999999898e+02 -8.375866000000000255e+00 3.271599516214663411e-02
-4.417600000000000193e+00 8.862600000000000477e+01 2.033799999999999955e+02 -3.649258000000000113e+00 -4.560800184402083457e-02
-4.413400000000000212e+00 1.010300000000000011e+02 1.922800000000000011e+02 -1.497334999999999994e+01 -2.587314586790190329e-01
-4.410000000000000142e+00 6.587800000000000011e+01 2.083000000000000114e+02 4.558870999999999896e+00 1.656296985797968691e-01
-4.409200000000000230e+00 9.973499999999999943e+01 2.006500000000000057e+02 1.035799999999999983e+02 -1.390558242757666263e-01
-4.408599999999999852e+00 9.191700000000000159e+01 1.832500000000000000e+02 1.261270000000000024e+01 -1.556653518151740814e-02
-4.399000000000000021e+00 7.659300000000000352e+01 1.691800000000000068e+02 2.122691000000000106e+00 1.977996815706386385e-02
-4.399000000000000021e+00 7.791200000000000614e+01 1.684399999999999977e+02 8.593875999999999848e+00 1.949736812071701034e-02
-4.399000000000000021e+00 7.923099999999999454e+01 1.691800000000000068e+02 1.428242000000000012e+01 1.910602720496920245e-02
-4.399000000000000021e+00 7.946200000000000330e+01 1.699900000000000091e+02 1.017399999999999949e+02 1.893442403016786652e-02
-4.398900000000000254e+00 9.678600000000000136e+01 1.781599999999999966e+02 2.014502999999999844e+01 8.080262855355392149e-04
-4.396899999999999586e+00 8.637399999999999523e+01 1.957899999999999920e+02 -1.046284999999999954e+01 -2.585907301953863091e-01
-4.396700000000000053e+00 8.738700000000000045e+01 2.026500000000000057e+02 -1.408354000000000106e+00 -2.629865445853273864e-01
-4.390900000000000247e+00 8.434199999999999875e+01 2.033499999999999943e+02 7.112853999999999566e+00 -2.653987330152812740e-01
-4.390900000000000247e+00 8.612999999999999545e+01 2.033499999999999943e+02 4.358077999999999896e+00 -3.784892531781331587e-02
-4.388600000000000279e+00 8.848199999999999932e+01 1.995500000000000114e+02 -5.607495000000000118e+00 -2.610517769854988068e-01
-4.387699999999999712e+00 7.589100000000000534e+01 1.717599999999999909e+02 1.046744999999999948e+01 1.862533527373859063e-02
-4.384699999999999598e+00 8.669799999999999329e+01 1.987800000000000011e+02 4.810471999999999859e+00 -2.611087649768030761e-01
-4.381199999999999761e+00 8.986199999999999477e+01 1.863100000000000023e+02 5.060031999999999641e+00 -2.383078973917597022e-03
-4.375000000000000000e+00 1.034200000000000017e+02 1.862500000000000000e+02 -3.668730000000000047e+01 4.282074650456481509e-03
-4.374699999999999811e+00 1.012999999999999972e+02 1.908600000000000136e+02 -1.787764999999999915e+01 -2.585899365238798486e-01
-4.374299999999999855e+00 1.033199999999999932e+02 1.837299999999999898e+02 -1.372838999999999920e+01 1.713376439510601919e-03
-4.372700000000000031e+00 8.368300000000000693e+01 1.883700000000000045e+02 6.112542999999999616e+00 1.651034628566362683e-01
-4.368699999999999584e+00 8.257699999999999818e+01 1.801999999999999886e+02 -3.609506999999999799e+00 -4.451617117165582518e-03
-4.363999999999999879e+00 6.130100000000000193e+01 2.126899999999999977e+02 2.518952000000000080e+00 -9.712246945946598209e-02
-4.363999999999999879e+00 6.130100000000000193e+01 2.137400000000000091e+02 -1.896265000000000089e+00 -8.894168756678902388e-02
-4.361299999999999955e+00 7.625199999999999534e+01 1.699799999999999898e+02 1.734426999999999941e+00 1.996923493171903069e-02
-4.359899999999999665e+00 9.480599999999999739e+01 1.891100000000000136e+02 -4.459382000000000090e+01 7.827121364549233934e-03
-4.359300000000000175e+00 9.484300000000000352e+01 2.052700000000000102e+02 2.036793000000000120e+01 -5.656921042683536738e-02
-4.358999999999999986e+00 7.930599999999999739e+01 1.754099999999999966e+02 -3.487314000000000025e+00 1.126532229325078946e-02
-4.355900000000000105e+00 8.409000000000000341e+01 2.018499999999999943e+02 1.017961000000000027e+01 -2.653043707108907467e-01
-4.354800000000000004e+00 6.439499999999999602e+01 2.045099999999999909e+02 1.643115999999999843e+01 1.404420403932521988e-01
-4.352599999999999802e+00 8.961400000000000432e+01 1.979300000000000068e+02 1.121974999999999945e+01 -2.599215432036613427e-01
-4.341700000000000337e+00 1.010499999999999972e+02 1.914199999999999875e+02 -2.601155999999999954e-02 -2.586347826738590872e-01
-4.337399999999999700e+00 7.888899999999999579e+01 1.907400000000000091e+02 -1.723446999999999951e+00 1.423882822899766309e-01
-4.337299999999999933e+00 9.587300000000000466e+01 1.951299999999999955e+02 -4.361124000000000223e+01 -2.589044171201005939e-01
-4.336000000000000298e+00 9.492700000000000671e+01 1.780800000000000125e+02 3.107898000000000049e+00 2.778048046578133253e-03
-4.332600000000000229e+00 8.643300000000000693e+01 2.026500000000000057e+02 1.292831999999999937e+01 -2.636273527497233204e-01
-4.330000000000000071e+00 6.227499999999999858e+01 2.079199999999999875e+02 1.102551000000000059e+01 2.123595822254743803e-01
-4.330000000000000071e+00 6.227499999999999858e+01 2.087899999999999920e+02 -7.375987000000000293e+00 2.055377903100374937e-01
-4.324300000000000033e+00 7.265000000000000568e+01 1.727100000000000080e+02 -5.379110999999999976e+00 1.112166452964974232e-02
-4.323800000000000310e+00 6.601099999999999568e+01 2.124499999999999886e+02 3.872860000000000014e+01 2.910774618706685191e-02
-4.323500000000000121e+00 7.623900000000000432e+01 1.709000000000000057e+02 4.496615000000000251e+00 1.994985093442711716e-02
-4.320299999999999585e+00 6.267600000000000193e+01 2.146599999999999966e+02 2.261852999999999980e+01 -1.053341980464242988e-01
-4.319300000000000139e+00 8.729399999999999693e+01 1.947400000000000091e+02 -2.529193000000000069e+01 -2.579817847332973035e-01
-4.317099999999999937e+00 8.122899999999999920e+01 1.967400000000000091e+02 1.253762000000000043e+00 -2.596573277748636110e-01
-4.317099999999999937e+00 8.270099999999999341e+01 1.967400000000000091e+02 2.587293999999999983e-01 -2.595827771689712682e-01
-4.315000000000000391e+00 6.120300000000000296e+01 2.052199999999999989e+02 8.860659999999999314e+00 3.132216772107679348e-02
-4.315000000000000391e+00 6.120300000000000296e+01 2.062700000000000102e+02 6.922607000000000177e+00 1.176777745285058074e-01
-4.313100000000000378e+00 1.017999999999999972e+02 1.836299999999999955e+02 -6.423396000000000328e+00 1.240755926654740857e-03
-4.312700000000000422e+00 9.850000000000000000e+01 1.941200000000000045e+02 5.558239999999999981e+01 -2.588470009334161714e-01
-4.308099999999999596e+00 9.440300000000000580e+01 2.066399999999999864e+02 8.017576999999999288e+00 -5.600416961358876261e-02
-4.304700000000000415e+00 6.464300000000000068e+01 2.139600000000000080e+02 9.853194999999999482e+00 7.965753394662197784e-02
-4.301000000000000156e+00 9.514600000000000080e+01 2.045699999999999932e+02 2.444653999999999883e+01 -5.705892451471931970e-02
-4.300300000000000011e+00 9.291100000000000136e+01 1.874199999999999875e+02 -9.499489000000000516e+00 3.328812907671271915e-03
-4.300300000000000011e+00 9.431100000000000705e+01 1.874199999999999875e+02 -1.236660000000000004e+01 4.107928493118907960e-03
-4.298600000000000421e+00 8.308400000000000318e+01 1.871999999999999886e+02 7.907581999999999667e+00 1.545529064205542202e-01
-4.298600000000000421e+00 8.329300000000000637e+01 1.864600000000000080e+02 1.209590999999999994e+01 1.511972901557278037e-01
-4.298600000000000421e+00 8.329300000000000637e+01 1.879300000000000068e+02 6.827524999999999622e+00 1.602987069166891265e-01
-4.297299999999999898e+00 8.463400000000000034e+01 1.893899999999999864e+02 6.092217999999999911e+00 1.764762909172018224e-01
-4.286200000000000010e+00 8.442799999999999727e+01 2.026599999999999966e+02 1.404534999999999911e+01 -2.653440082308115011e-01
-4.285199999999999676e+00 6.252499999999999858e+01 2.041899999999999977e+02 6.619362999999999886e+00 1.345380769376278152e-02
-4.283100000000000129e+00 8.967000000000000171e+01 1.988300000000000125e+02 1.041620999999999952e+01 -2.604006300956097641e-01
-4.283100000000000129e+00 7.736100000000000421e+01 1.739099999999999966e+02 1.024441999999999986e+01 1.611078110492077109e-02
-4.275400000000000311e+00 6.967199999999999704e+01 1.873600000000000136e+02 5.237111999999999767e+00 1.288514573828082599e-01
-4.275000000000000355e+00 9.343800000000000239e+01 1.903300000000000125e+02 -3.037969999999999970e+01 1.060769601580979424e-02
-4.273200000000000109e+00 8.442499999999999716e+01 2.008499999999999943e+02 2.026250999999999891e+01 -2.644208311051821081e-01
-4.264300000000000423e+00 8.111700000000000443e+01 1.797500000000000000e+02 -4.179066999999999865e+00 -4.154011055277291413e-03
-4.263099999999999667e+00 7.416899999999999693e+01 1.726100000000000136e+02 -2.413260000000000005e+01 1.607866097007228448e-02
-4.255300000000000082e+00 8.651300000000000523e+01 1.949199999999999875e+02 -4.279742000000000246e+01 -2.579642588628509037e-01
-4.251699999999999591e+00 9.679800000000000182e+01 1.827199999999999989e+02 -2.510350999999999999e+01 -1.913929282810188006e-03
-4.251699999999999591e+00 9.798900000000000432e+01 1.833799999999999955e+02 -6.582931000000000310e+00 -5.316683738751534988e-04
-4.250300000000000189e+00 7.853600000000000136e+01 1.944000000000000057e+02 -5.005876999999999910e+00 1.656981093377607808e-02
-4.248000000000000220e+00 8.851900000000000546e+01 1.891200000000000045e+02 2.952809999999999935e+00 4.346985891076875740e-03
-4.246100000000000207e+00 9.617300000000000182e+01 1.820600000000000023e+02 -2.196323999999999899e+01 -1.341914234822555105e-02
-4.245599999999999596e+00 7.971899999999999409e+01 1.921100000000000136e+02 -4.771363000000000021e+00 1.708971820807039799e-01
-4.245599999999999596e+00 7.971899999999999409e+01 1.935800000000000125e+02 -1.097367000000000026e+01 1.907138790034497711e-01
-4.245599999999999596e+00 7.992799999999999727e+01 1.928499999999999943e+02 -5.674663999999999930e+00 1.830437128703633065e-01
-4.238900000000000112e+00 9.230500000000000682e+01 1.895699999999999932e+02 -2.067239000000000004e+01 8.447090528617086716e-03
-4.237000000000000099e+00 8.448799999999999955e+01 1.997400000000000091e+02 5.436486000000000018e+01 -2.633232768930739987e-01
-4.221899999999999764e+00 6.530299999999999727e+01 2.062700000000000102e+02 1.564466000000000001e+01 1.825086037856960275e-01
-4.220100000000000406e+00 9.923099999999999454e+01 1.836500000000000057e+02 -3.231962000000000046e+01 3.737903009572842512e-04
-4.218399999999999928e+00 8.708499999999999375e+01 1.995300000000000011e+02 2.484030000000000182e+00 -2.616253706367731025e-01
-4.212699999999999889e+00 6.502899999999999636e+01 2.054300000000000068e+02 5.778798000000000101e+00 2.024983263988868742e-01
-4.209699999999999775e+00 9.689400000000000546e+01 1.939499999999999886e+02 -9.133737999999999246e+00 -2.587264055364717485e-01
-4.208000000000000185e+00 9.776200000000000045e+01 2.001599999999999966e+02 8.507642000000000593e+00 -2.599726751356276067e-01
-4.207699999999999996e+00 8.837099999999999511e+01 1.944000000000000057e+02 1.153859000000000066e+02 -2.579770346908418777e-01
-4.200700000000000323e+00 7.187900000000000489e+01 1.905800000000000125e+02 2.340479000000000198e+00 2.451780520121754903e-01
-4.200700000000000323e+00 7.357899999999999352e+01 1.905800000000000125e+02 1.155185999999999957e+01 6.308771044655443749e-02
-4.199399999999999800e+00 8.415099999999999625e+01 1.990300000000000011e+02 7.847469000000000250e+00 -2.627175653189283144e-01
-4.196699999999999875e+00 9.276699999999999591e+01 1.805500000000000114e+02 -3.701071000000000222e+00 -1.690535328710399826e-02
-4.195100000000000051e+00 9.750799999999999557e+01 1.941899999999999977e+02 1.012954000000000043e+01 -2.588094607762934651e-01
-4.187599999999999767e+00 6.798099999999999454e+01 1.843400000000000034e+02 5.999624999999999986e+00 2.551260305993939825e-01
-4.184999999999999609e+00 1.005000000000000000e+02 1.844300000000000068e+02 -2.470598000000000027e+01 1.751882694151226478e-03
-4.184099999999999930e+00 6.697599999999999909e+01 2.112899999999999920e+02 3.644927000000000028e+00 2.636211450222515976e-02
-4.180600000000000094e+00 9.623699999999999477e+01 1.944300000000000068e+02 -2.119734000000000052e+01 -2.587819541531101719e-01
-4.175699999999999967e+00 6.750300000000000011e+01 1.847599999999999909e+02 1.685598999999999847e+01 2.496069147980572167e-01
-4.175699999999999967e+00 6.750300000000000011e+01 1.864600000000000080e+02 1.792655999999999850e+01 2.595038672110224764e-01
-4.175699999999999967e+00 6.855299999999999727e+01 1.864600000000000080e+02 4.773098000000000241e+01 2.812161647270225440e-01
-4.175699999999999967e+00 6.941899999999999693e+01 1.864600000000000080e+02 1.379401999999999973e+01 3.051871827505094892e-01
-4.175600000000000200e+00 9.720900000000000318e+01 2.038700000000000045e+02 2.746030999999999977e+01 -5.931618462975507544e-02
-4.175600000000000200e+00 1.022500000000000000e+02 1.873499999999999943e+02 1.372744999999999926e+01 5.469082369985305524e-03
-4.170600000000000307e+00 9.454900000000000659e+01 1.786999999999999886e+02 6.232258999999999993e+00 1.103141637776223951e-03
-4.165300000000000225e+00 7.527100000000000080e+01 1.725500000000000114e+02 -1.034234999999999971e+01 1.880852722953766862e-02
-4.164900000000000269e+00 9.361599999999999966e+01 1.978199999999999932e+02 1.389324000000000048e+01 -2.596154254327637245e-01
-4.164900000000000269e+00 9.361599999999999966e+01 1.986899999999999977e+02 2.104758999999999958e+01 -2.598846311066000392e-01
-4.163999999999999702e+00 9.302899999999999636e+01 1.797299999999999898e+02 -1.455111999999999961e+00 -1.280923490277342596e-03
-4.163000000000000256e+00 7.106199999999999761e+01 1.797100000000000080e+02 -1.017182999999999948e+00 5.268907760373409133e-02
-4.159600000000000186e+00 6.764499999999999602e+01 2.107199999999999989e+02 2.192030000000000101e+01 2.679374740500598678e-02
-4.156900000000000261e+00 8.016100000000000136e+01 1.785000000000000000e+02 -1.216883999999999943e+01 6.985245200115753131e-04
-4.153699999999999726e+00 8.436299999999999955e+01 1.853499999999999943e+02 4.080519999999999925e+01 1.487480237467108668e-01
-4.150699999999999612e+00 7.054399999999999693e+01 1.898899999999999864e+02 5.483744999999999870e-01 2.547551060960314140e-01
-4.150299999999999656e+00 7.470699999999999363e+01 1.901299999999999955e+02 2.937823999999999991e+00 2.454622011537934134e-01
-4.150100000000000122e+00 7.132500000000000284e+01 1.789000000000000057e+02 -2.686681000000000097e+00 -6.786583243897791051e-02
-4.146499999999999631e+00 7.127700000000000102e+01 1.805200000000000102e+02 -7.926270999999999844e+00 5.016059051198799856e-02
-4.146399999999999864e+00 9.888700000000000045e+01 1.933799999999999955e+02 -1.983700999999999937e+01 -2.587585585694500145e-01
-4.146399999999999864e+00 9.975300000000000011e+01 1.933799999999999955e+02 -1.928737999999999886e+01 -2.588097581717458406e-01
-4.144999999999999574e+00 9.589199999999999591e+01 1.781599999999999966e+02 5.930722000000000271e+00 1.607930194993874382e-03
-4.140399999999999636e+00 7.196500000000000341e+01 1.776800000000000068e+02 -3.105991000000000168e-01 -3.639968937293295431e-02
-4.139999999999999680e+00 8.621800000000000352e+01 1.824499999999999886e+02 -1.074286000000000074e+00 -9.719980757084242112e-03
-4.139999999999999680e+00 8.621800000000000352e+01 1.835000000000000000e+02 -2.851853000000000193e+00 -2.388871038977989289e-02
-4.139899999999999913e+00 1.005699999999999932e+02 1.930600000000000023e+02 -1.219640000000000057e+01 -2.588121492072149032e-01
-4.138700000000000045e+00 9.053600000000000136e+01 1.855200000000000102e+02 1.509867000000000070e+00 -3.189277332248936173e-03
-4.136999999999999567e+00 8.523600000000000421e+01 2.033499999999999943e+02 3.553261000000000003e+00 -3.420642452856843124e-02
-4.130700000000000038e+00 7.630400000000000205e+01 1.897199999999999989e+02 8.674530000000000740e+00 2.454986800854309092e-01
-4.130700000000000038e+00 7.731199999999999761e+01 1.897199999999999989e+02 1.262698999999999927e+01 2.436729770552591157e-01
-4.123000000000000220e+00 7.182500000000000284e+01 1.757899999999999920e+02 2.562968999999999942e-01 -1.113396159511665338e-02
-4.123000000000000220e+00 7.182500000000000284e+01 1.768400000000000034e+02 -6.081807000000000185e-01 -2.449228202696333845e-02
-4.110500000000000043e+00 8.101200000000000045e+01 1.943799999999999955e+02 -6.086208000000000062e+00 2.782674771739212377e-02
-4.110199999999999854e+00 8.489600000000000080e+01 1.814099999999999966e+02 -1.022791999999999923e+00 7.249679288393019944e-04
-4.107300000000000395e+00 1.017300000000000040e+02 1.901599999999999966e+02 -4.113474000000000075e+01 -2.585563674444869564e-01
-4.107199999999999740e+00 9.121599999999999397e+01 1.848899999999999864e+02 1.601515999999999940e+00 -3.552725052675074872e-03
-4.105299999999999727e+00 8.974899999999999523e+01 2.053100000000000023e+02 -7.875998000000000054e+00 -4.781824715459125075e-02
-4.104899999999999771e+00 6.713400000000000034e+01 1.856100000000000136e+02 4.025891999999999804e+00 2.478018233866535469e-01
-4.102299999999999613e+00 9.930400000000000205e+01 2.027700000000000102e+02 1.645446000000000097e+01 -1.378851529453770375e-01
-4.100299999999999834e+00 6.965900000000000603e+01 1.882199999999999989e+02 8.074092000000000491e-01 1.126022090007240822e-01
-4.098700000000000010e+00 8.492100000000000648e+01 2.003100000000000023e+02 1.002426999999999957e+01 -2.637041928625027953e-01
-4.098700000000000010e+00 8.492100000000000648e+01 2.019199999999999875e+02 1.151415000000000077e+01 -2.648269478415177236e-01
-4.097000000000000419e+00 7.034399999999999409e+01 1.830600000000000023e+02 -9.467985999999999791e+00 2.972437307952611324e-02
-4.093799999999999883e+00 6.600600000000000023e+01 2.075000000000000000e+02 3.634364000000000150e+00 1.669395271950437909e-01
-4.093099999999999739e+00 9.957800000000000296e+01 2.019300000000000068e+02 2.173667000000000016e+01 -1.384487320385666964e-01
-4.091800000000000104e+00 7.845000000000000284e+01 1.735900000000000034e+02 6.734983999999999860e+00 1.814678330801883580e-02
-4.087600000000000122e+00 9.565999999999999659e+01 1.789799999999999898e+02 1.290404999999999980e+01 -7.867307715188276906e-04
-4.085300000000000153e+00 9.391200000000000614e+01 1.970200000000000102e+02 1.116540999999999961e+01 -2.593720699512885308e-01
-4.084299999999999820e+00 6.753799999999999670e+01 2.075999999999999943e+02 1.316181000000000045e+00 1.837581138623457511e-01
-4.083999999999999631e+00 1.037900000000000063e+02 1.844900000000000091e+02 -1.526425000000000054e+01 2.536198311979897136e-03
-4.083999999999999631e+00 1.037900000000000063e+02 1.854300000000000068e+02 -4.616158999999999679e+01 3.470511490869925778e-03
-4.078700000000000436e+00 7.194400000000000261e+01 1.750099999999999909e+02 -7.443317000000000405e-01 -2.200052593154357312e-03
-4.076600000000000001e+00 9.062699999999999534e+01 2.057800000000000011e+02 -9.772233999999999199e+00 -4.984563954415539150e-02
-4.073999999999999844e+00 7.662500000000000000e+01 1.739099999999999966e+02 -7.078723000000000098e+00 1.765452854729714083e-02
-4.071299999999999919e+00 7.931300000000000239e+01 1.984499999999999886e+02 -2.260938000000000159e+01 -2.958179714813589239e-02
-4.071299999999999919e+00 8.025300000000000011e+01 1.984499999999999886e+02 -3.777908999999999651e+01 -2.640530257384608448e-01
-4.069899999999999629e+00 9.526699999999999591e+01 1.996699999999999875e+02 6.260823000000000249e+00 -2.600418141260891214e-01
-4.068999999999999950e+00 7.881100000000000705e+01 1.728700000000000045e+02 2.140636999999999901e+01 1.928406521673162524e-02
-4.066499999999999559e+00 8.371599999999999397e+01 1.981800000000000068e+02 -5.145246999999999460e-01 -2.618140668796710702e-01
-4.063900000000000290e+00 7.854999999999999716e+01 1.969499999999999886e+02 -9.485944999999999183e+00 -3.113880007984909382e-02
-4.061300000000000132e+00 8.758299999999999841e+01 1.942400000000000091e+02 4.090635999999999939e+01 2.788980235223399370e-02
-4.060999999999999943e+00 7.147599999999999909e+01 1.814399999999999977e+02 2.586084000000000049e+00 4.890613993341717813e-02
-4.060999999999999943e+00 7.147599999999999909e+01 1.823000000000000114e+02 4.524528000000000105e+00 4.779924694504343596e-02
-4.049299999999999677e+00 7.807500000000000284e+01 1.741200000000000045e+02 1.088148999999999944e+01 1.744012521756661480e-02
-4.045300000000000118e+00 6.915099999999999625e+01 1.833199999999999932e+02 -6.799468999999999652e-02 1.270321550518375628e-02
-4.044900000000000162e+00 1.025600000000000023e+02 1.836699999999999875e+02 -9.068301999999999197e+00 1.474221012837233832e-03
-4.044599999999999973e+00 8.521599999999999397e+01 2.026699999999999875e+02 8.589608999999999384e+00 -2.648655006317081062e-01
-4.041999999999999815e+00 8.942000000000000171e+01 2.045500000000000114e+02 -1.233309999999999995e+01 -4.716903539214567509e-02
-4.041999999999999815e+00 6.233599999999999852e+01 2.093799999999999955e+02 -5.443647000000000347e+00 2.031612448399383319e-01
-4.041999999999999815e+00 6.233599999999999852e+01 2.103199999999999932e+02 -6.853822000000000081e+00 7.492660290540532897e-02
-4.041000000000000369e+00 8.503199999999999648e+01 1.989799999999999898e+02 -9.492061000000000526e-01 -2.622579990132990480e-01
-4.038000000000000256e+00 6.899399999999999977e+01 2.085699999999999932e+02 -1.062565999999999899e+00 2.025629923630338225e-01
-4.038000000000000256e+00 6.899399999999999977e+01 2.096899999999999977e+02 -2.974380000000000024e+00 1.992238065811119119e-01
-4.036999999999999922e+00 9.571699999999999875e+01 1.801500000000000057e+02 -4.176471000000000267e+00 -1.101216042021825325e-01
-4.033999999999999808e+00 7.218000000000000682e+01 1.734699999999999989e+02 -3.876491000000000131e+00 9.421971567582159562e-03
-4.033800000000000274e+00 6.400799999999999557e+01 2.140900000000000034e+02 4.993617999999999668e+00 9.484697032775760150e-02
-4.031900000000000261e+00 9.421200000000000330e+01 1.961200000000000045e+02 3.128972999999999782e+00 -2.591157159496034756e-01
-4.016499999999999737e+00 8.889400000000000546e+01 1.882500000000000000e+02 3.543435999999999808e+00 1.776318882295634376e-03
-4.015699999999999825e+00 7.692799999999999727e+01 1.732100000000000080e+02 6.952808000000000099e+00 1.983316724359386260e-02
-4.015699999999999825e+00 7.692799999999999727e+01 1.746100000000000136e+02 2.898003000000000107e+00 1.621789635169267052e-02
-4.015699999999999825e+00 7.779399999999999693e+01 1.732100000000000080e+02 1.726522999999999897e+01 1.969127663461892400e-02
-4.015699999999999825e+00 7.779399999999999693e+01 1.746100000000000136e+02 3.415113999999999805e+01 1.641706192747546464e-02
-4.012500000000000178e+00 8.913500000000000512e+01 1.873300000000000125e+02 6.915658999999999779e+00 -7.736335111912667501e-04
-4.009999999999999787e+00 8.197299999999999898e+01 1.939600000000000080e+02 -7.689074999999999882e+00 2.623581121784611739e-02
-4.008799999999999919e+00 8.306900000000000261e+01 1.948799999999999955e+02 -9.954121999999999915e+00 3.658638334430790173e-02
-4.008000000000000007e+00 7.898399999999999466e+01 1.976899999999999977e+02 -1.240572000000000052e+01 -2.888170595876622324e-02
-4.008000000000000007e+00 8.058199999999999363e+01 1.976899999999999977e+02 -3.213963999999999999e+01 -2.620163166229101948e-01
-4.002600000000000158e+00 8.594100000000000250e+01 1.988199999999999932e+02 -7.022447000000000550e-01 -2.616444976233014974e-01
-4.001299999999999635e+00 6.194500000000000028e+01 2.072599999999999909e+02 1.050421000000000049e+01 8.550127211984542841e-02
-3.997799999999999798e+00 8.901300000000000523e+01 1.945800000000000125e+02 -3.212244000000000099e+00 -2.581740460175524499e-01
-3.996999999999999886e+00 8.700000000000000000e+01 1.900099999999999909e+02 2.495564999999999856e+01 6.042245932240470491e-03
-3.994899999999999896e+00 7.340999999999999659e+01 1.726500000000000057e+02 -8.247837999999999781e+00 1.686128393681635834e-02
-3.993900000000000006e+00 8.533400000000000318e+01 1.894499999999999886e+02 8.293459999999999610e+00 -8.855883912950704139e-06
-3.992599999999999927e+00 7.204600000000000648e+01 1.743899999999999864e+02 -1.389081999999999972e+01 4.133875536043316035e-03
-3.988799999999999901e+00 8.955100000000000193e+01 2.038300000000000125e+02 -4.036336999999999620e+00 -4.784323173033426524e-02
-3.983400000000000052e+00 6.258599999999999852e+01 2.110900000000000034e+02 -1.627469000000000054e+00 7.697669360316176934e-02
-3.980999999999999872e+00 9.672899999999999920e+01 1.925399999999999920e+02 -8.404434999999999434e+00 -2.584665443457844214e-01
-3.980799999999999894e+00 9.514100000000000534e+01 1.951399999999999864e+02 -1.461273000000000089e+01 -2.588942590905857211e-01
-3.979200000000000070e+00 6.523999999999999488e+01 2.132899999999999920e+02 2.184069999999999823e+01 3.921100102787106190e-02
-3.978299999999999947e+00 8.807099999999999795e+01 2.026399999999999864e+02 -1.917697000000000074e+01 -2.628367375426217123e-01
-3.976300000000000168e+00 8.528900000000000148e+01 1.997500000000000000e+02 2.771745000000000125e+00 -2.629902304004154701e-01
-3.973899999999999988e+00 8.073399999999999466e+01 1.962100000000000080e+02 -2.170789999999999864e+01 4.877210474700158227e-02
-3.973100000000000076e+00 8.924299999999999500e+01 1.995399999999999920e+02 -1.223062000000000094e+00 -2.609643851828380434e-01
-3.971600000000000019e+00 9.273799999999999955e+01 1.902700000000000102e+02 -2.230234000000000094e+01 1.052114688455165967e-02
-3.971600000000000019e+00 9.413800000000000523e+01 1.902700000000000102e+02 -3.798167999999999722e+01 1.052225573546911215e-02
-3.968700000000000117e+00 9.185200000000000387e+01 2.068899999999999864e+02 6.645122999999999891e+00 -5.242298068854733817e-02
-3.968700000000000117e+00 9.355200000000000671e+01 2.068899999999999864e+02 9.853298999999999808e+00 -5.510740257552134563e-02
-3.968199999999999950e+00 9.610500000000000398e+01 1.939600000000000080e+02 6.285250999999999699e+00 -2.586868913069073628e-01
-3.962800000000000100e+00 8.561400000000000432e+01 1.947500000000000000e+02 -2.711004000000000147e+01 3.363572052629152515e-02
-3.960700000000000109e+00 8.275799999999999557e+01 1.940699999999999932e+02 -8.562554999999999694e+00 2.890557971071987947e-02
-3.959999999999999964e+00 7.806600000000000250e+01 1.951599999999999966e+02 -4.594655000000000378e+00 2.426873524982541691e-02
-3.959999999999999964e+00 7.806600000000000250e+01 1.960900000000000034e+02 -5.203564000000000078e+00 -3.318879098291308699e-02
-3.950800000000000090e+00 1.025999999999999943e+02 1.863100000000000023e+02 -2.773081000000000174e+01 4.299825251451746752e-03
-3.946299999999999919e+00 1.000100000000000051e+02 1.928499999999999943e+02 -5.241347999999999985e+01 -2.587585487823023667e-01
-3.944999999999999840e+00 9.404800000000000182e+01 1.792800000000000011e+02 -1.149828999999999990e+00 -4.615921645750302340e-04
-3.944300000000000139e+00 8.624399999999999977e+01 1.995200000000000102e+02 1.001562000000000019e+01 -2.621906270331877953e-01
-3.941500000000000004e+00 7.927500000000000568e+01 1.915800000000000125e+02 -2.994156999999999957e+00 1.601966085567244624e-01
-3.940100000000000158e+00 8.417400000000000659e+01 1.887599999999999909e+02 5.607455999999999996e+00 1.715213542610560249e-01
-3.936999999999999833e+00 8.939400000000000546e+01 1.866599999999999966e+02 1.699008999999999991e+00 -2.222611453864280131e-03
-3.931400000000000006e+00 9.740600000000000591e+01 1.930200000000000102e+02 -1.053458000000000006e+01 -2.586075051951018944e-01
-3.930499999999999883e+00 8.924800000000000466e+01 2.031299999999999955e+02 -1.240620999999999974e+01 -4.757199694439131349e-02
-3.929800000000000182e+00 8.069799999999999329e+01 1.950800000000000125e+02 -3.118481999999999843e+01 3.614260931422527690e-02
-3.926899999999999835e+00 8.537199999999999989e+01 2.011100000000000136e+02 1.674361000000000033e+01 -2.641275432614888508e-01
-3.922499999999999876e+00 9.544499999999999318e+01 1.944399999999999977e+02 -1.179738000000000042e+01 -2.587491766589754549e-01
-3.922200000000000131e+00 9.642900000000000205e+01 1.931999999999999886e+02 -2.586843000000000004e+00 -2.585631805011620044e-01
-3.919999999999999929e+00 7.713700000000000045e+01 1.687400000000000091e+02 1.997857999999999912e+00 2.216446846851818225e-02
-3.919999999999999929e+00 7.868699999999999761e+01 1.687400000000000091e+02 5.155668999999999613e+00 2.151714856845119914e-02
-3.918299999999999894e+00 9.933899999999999864e+01 2.010900000000000034e+02 3.561325000000000074e+01 -1.388963580898124883e-01
-3.916700000000000070e+00 9.853100000000000591e+01 1.835900000000000034e+02 -1.452360999999999969e+01 -1.408592775472387003e-02
-3.906000000000000139e+00 8.322700000000000387e+01 1.962199999999999989e+02 -1.349204000000000070e+00 -2.588376901903331473e-01
-3.906000000000000139e+00 8.322700000000000387e+01 1.972700000000000102e+02 -1.329255000000000075e+00 -2.605435603464659744e-01
-3.906000000000000139e+00 8.597700000000000387e+01 1.962199999999999989e+02 2.476513999999999882e+00 -2.589995759898967576e-01
-3.906000000000000139e+00 8.597700000000000387e+01 1.972700000000000102e+02 -2.681006000000000000e+00 -2.600590461319297608e-01
-3.904500000000000082e+00 8.591700000000000159e+01 1.940500000000000114e+02 -2.863160999999999845e+01 2.886819841274167533e-02
-3.904500000000000082e+00 8.682399999999999807e+01 1.940500000000000114e+02 -1.665687000000000140e+01 2.802846107316997459e-02
