1.623799999999999955e+01 1.890500000000000114e+01 7.351999999999999602e+01 -1.462188000000000043e+00 3.491994194412566255e-02
1.623799999999999955e+01 2.035099999999999909e+01 7.271399999999999864e+01 1.721834000000000131e+01 2.330418018432666438e-01
1.623799999999999955e+01 2.586299999999999955e+01 5.233899999999999864e+01 1.310439000000000043e+01 1.025670168731885601e-01
1.624299999999999855e+01 5.465300000000000047e+00 6.431300000000000239e+01 -4.352318999999999605e+00 -1.740236831451736355e-01
1.624299999999999855e+01 1.254199999999999982e+01 4.402300000000000324e+01 2.588397000000000148e+01 1.353341247773752198e-01
1.624500000000000099e+01 3.241499999999999915e+01 4.291700000000000159e+01 5.244555000000000078e+00 -1.277345004065441603e-01
1.625100000000000122e+01 4.770000000000000284e+01 3.732200000000000273e+01 -2.102450000000000152e+00 -6.031042919117056422e-02
1.625100000000000122e+01 4.939999999999999858e+01 3.732200000000000273e+01 -1.811668000000000056e+00 -3.195920625123541137e-02
1.625300000000000011e+01 3.196600000000000108e+00 5.668999999999999773e+01 2.329184000000000143e+00 -2.171594880766043456e-01
1.625499999999999901e+01 5.354200000000000159e+01 5.085399999999999920e+01 -1.233747999999999934e+01 -4.413323854387761480e-02
1.625600000000000023e+01 2.692999999999999972e+01 4.558899999999999864e+01 -6.076488999999999585e+00 -7.393446746220830312e-02
1.625700000000000145e+01 2.962399999999999878e+01 4.688100000000000023e+01 -4.837545000000000428e+00 -1.923027320685626596e-01
1.625799999999999912e+01 3.741499999999999915e+01 3.963300000000000267e+01 -3.789009000000000071e+00 -1.703998308426812880e-01
1.625799999999999912e+01 3.766899999999999693e+01 3.873899999999999721e+01 -2.849651000000000156e+00 -1.656525970075244936e-01
1.626000000000000156e+01 5.118699999999999761e+01 5.464300000000000068e+01 -1.778262000000000143e+01 -1.661207161187465142e-01
1.626000000000000156e+01 5.118699999999999761e+01 5.550800000000000267e+01 1.099987999999999921e+01 -1.424615178834248153e-01
1.626200000000000045e+01 2.395200000000000173e+01 4.289900000000000091e+01 -2.716343999999999870e+00 -9.160849320897702930e-02
1.626200000000000045e+01 2.395200000000000173e+01 4.383899999999999864e+01 -3.356399999999999828e+00 -1.021916895415699439e-01
1.626500000000000057e+01 1.107199999999999918e+01 7.053199999999999648e+01 1.019828000000000046e+01 -3.394115629825275038e-01
1.626599999999999824e+01 2.960500000000000043e+01 5.049399999999999977e+01 1.446847999999999912e+00 -1.647324083208555889e-01
1.626999999999999957e+01 5.034799999999999898e+01 6.986599999999999966e+01 6.942789000000000321e+00 -2.643031242668527486e-02
1.626999999999999957e+01 5.060199999999999676e+01 6.897199999999999420e+01 7.968932999999999822e+00 -3.973741328308555941e-03
1.627499999999999858e+01 3.391400000000000148e+01 4.260099999999999909e+01 5.796956999999999804e-02 -1.307137864143187167e-01
1.628000000000000114e+01 3.979699999999999704e+01 6.790500000000000114e+01 -6.842038999999999760e-01 1.232371577285443359e-01
1.628500000000000014e+01 3.272999999999999687e+01 7.661799999999999500e+01 9.285736999999999242e+00 -1.206679809987976915e-01
1.628699999999999903e+01 5.025399999999999778e+01 3.971900000000000119e+01 2.320393999999999934e+01 -9.997670268294170035e-03
1.628900000000000148e+01 1.813100000000000023e+01 4.665999999999999659e+01 1.546941999999999950e+01 -1.310716061730790583e-01
1.628999999999999915e+01 1.397400000000000020e+01 4.569700000000000273e+01 1.882510999999999868e+01 1.134855955915606562e-01
1.628999999999999915e+01 1.537400000000000055e+01 4.569700000000000273e+01 1.351864999999999917e+01 -1.397851799526214078e-01
1.629599999999999937e+01 4.040999999999999659e+01 6.668999999999999773e+01 -8.982371999999999801e+00 1.877074201713740953e-01
1.629599999999999937e+01 4.127600000000000335e+01 6.668999999999999773e+01 -2.187613999999999947e+01 -1.527231732715554346e-01
1.629599999999999937e+01 4.127600000000000335e+01 6.809000000000000341e+01 5.685614000000000168e+00 -1.436303117455454414e-01
1.629899999999999949e+01 2.096699999999999875e+01 4.840500000000000114e+01 7.883238000000000412e+00 -1.645476603008057814e-01
1.630499999999999972e+01 5.191499999999999915e+01 4.585099999999999909e+01 5.902182000000000262e-01 -2.288847244234394618e-01
1.630999999999999872e+01 5.091799999999999926e+01 5.954099999999999682e+01 -1.691776000000000124e+01 -3.746252352171400291e-01
1.631099999999999994e+01 2.703699999999999903e+01 5.209899999999999665e+01 9.635177000000000325e-01 1.190120755160465060e-01
1.631899999999999906e+01 4.357600000000000051e+01 3.990400000000000347e+01 -7.718028999999999584e+00 -5.369029458491209050e-02
1.632400000000000162e+01 2.415099999999999980e+01 5.053699999999999903e+01 2.407958999999999961e+00 -4.820911790853665314e-03
1.632600000000000051e+01 2.742699999999999960e+01 7.601800000000000068e+01 7.283561999999999870e+00 -5.763468976186410936e-02
1.632799999999999940e+01 1.352100000000000080e+01 7.303900000000000148e+01 3.480095000000000272e-01 -1.754095328897259665e-01
1.633399999999999963e+01 9.384900000000000020e+00 4.531000000000000227e+01 5.638751000000000069e+00 -1.657755391009004542e-01
1.633399999999999963e+01 5.050600000000000023e+01 4.659700000000000131e+01 1.172613999999999912e+01 -1.394466756180452460e-01
1.633800000000000097e+01 3.076599999999999824e+01 4.291100000000000136e+01 2.386311000000000071e+00 -1.964424397417069423e-01
1.633800000000000097e+01 4.010000000000000142e+01 6.860500000000000398e+01 -8.873177999999999344e+00 1.301585224286206932e-01
1.634199999999999875e+01 2.830799999999999983e+01 5.129999999999999716e+01 -3.357895000000000074e+00 -1.845666262959878012e-01
1.634199999999999875e+01 3.001199999999999868e+00 5.219899999999999807e+01 -6.008871000000000073e+00 -2.492196116139036022e-01
1.634299999999999997e+01 1.051099999999999923e+01 4.310699999999999932e+01 2.321273000000000053e+01 -1.348677422256759906e-01
1.634299999999999997e+01 5.087400000000000233e+01 4.236099999999999710e+01 -4.322498000000000218e+01 1.828378677983941505e-02
1.634499999999999886e+01 1.094299999999999962e+01 6.957399999999999807e+01 9.028755000000000308e+00 -8.467281286027425469e-02
1.634799999999999898e+01 5.059199999999999875e+01 4.147899999999999920e+01 9.783158999999999494e+00 7.850137711325453488e-03
1.634900000000000020e+01 2.799899999999999878e+01 7.446599999999999397e+01 6.173618000000000272e+00 -4.854558308374476439e-02
1.634900000000000020e+01 2.820799999999999841e+01 7.373000000000000398e+01 7.624319999999999986e+00 -4.211108905790430373e-02
1.635200000000000031e+01 2.869000000000000128e+01 7.682899999999999352e+01 3.082473999999999847e+01 -8.524864497739462199e-02
1.635300000000000153e+01 2.942999999999999972e+01 4.273700000000000188e+01 -5.622560000000000002e+00 -1.875095786495138417e-01
1.635699999999999932e+01 1.848999999999999844e+01 4.722899999999999920e+01 2.245876000000000161e+01 -1.282403215257507112e-01
1.635699999999999932e+01 3.926600000000000090e+00 5.220799999999999841e+01 -1.583003000000000071e+01 -5.633282014704522845e-04
1.635900000000000176e+01 4.517999999999999972e+01 6.950300000000000011e+01 1.544567999999999941e+01 -2.763277715925128719e-01
1.635999999999999943e+01 4.942399999999999949e+01 4.710300000000000153e+01 5.139039999999999608e+00 -1.451683793751231411e-01
1.636499999999999844e+01 3.876299999999999812e+01 7.107200000000000273e+01 -4.529069999999999929e+00 1.075964498788208878e-01
1.636899999999999977e+01 7.783699999999999619e+00 4.874600000000000222e+01 5.769595999999999947e+00 1.451481890685759613e-01
1.636899999999999977e+01 7.783699999999999619e+00 4.961200000000000188e+01 3.900476999999999972e+00 1.370705349794575090e-01
1.637000000000000099e+01 4.223799999999999955e+01 6.797299999999999898e+01 2.487045999999999868e+00 -1.028719699858791359e-01
1.637199999999999989e+01 1.158399999999999963e+01 4.394299999999999784e+01 1.190052000000000021e+01 1.374082297507763228e-01
1.637699999999999889e+01 1.977700000000000102e+01 4.836599999999999966e+01 1.753724000000000061e+01 1.192486806141112021e-01
1.638700000000000045e+01 1.497000000000000108e+00 5.814900000000000091e+01 -8.711973999999999307e+01 -3.680058537315161749e-01
1.638899999999999935e+01 2.645799999999999841e+01 4.203699999999999903e+01 -1.812051999999999996e+00 -1.769491632266340653e-01
1.639600000000000080e+01 4.829099999999999682e+01 4.547899999999999920e+01 -7.356476999999999933e+00 -1.747137311198873610e-01
1.639600000000000080e+01 4.829099999999999682e+01 4.634499999999999886e+01 -4.146923000000000137e+00 -1.697980106476883189e-01
1.639999999999999858e+01 1.203400000000000070e+01 7.178600000000000136e+01 8.496707999999999927e+00 -1.878887455982495847e-01
1.640200000000000102e+01 5.451899999999999835e+01 4.852199999999999847e+01 -2.901951999999999998e+01 -2.446947039471712715e-01
1.640599999999999881e+01 3.598899999999999721e+01 4.265999999999999659e+01 -5.010304999999999787e+00 -2.327819998968392867e-01
1.640899999999999892e+01 4.966400000000000148e+01 4.312899999999999778e+01 3.881520000000000081e+00 -8.766867592384503666e-03
1.641000000000000014e+01 2.812300000000000111e+01 4.221000000000000085e+01 -6.401008000000000031e+00 -1.804100830314929182e-01
1.641499999999999915e+01 1.879299999999999926e+01 4.792900000000000205e+01 2.048768000000000100e+01 1.132851096187911522e-01
1.641600000000000037e+01 4.431000000000000050e+00 6.148899999999999721e+01 -7.207798999999999623e+00 -3.640405125139914988e-01
1.641600000000000037e+01 4.658000000000000362e+00 6.228799999999999670e+01 -6.457538999999999696e+00 -4.052095324040762003e-01
1.641799999999999926e+01 1.297899999999999920e+01 4.487899999999999778e+01 5.152951000000000192e+01 1.275834288547373907e-01
1.642000000000000171e+01 4.139800000000000324e+01 3.709400000000000119e+01 -4.545481999999999800e+01 -9.581828835698054381e-02
1.642399999999999949e+01 8.436600000000000321e+00 6.624599999999999511e+01 -5.833746999999999794e+00 2.391073581864399389e-01
1.642500000000000071e+01 2.812699999999999889e+01 7.281199999999999761e+01 -6.579349999999999810e+00 -1.353859506091199538e-01
1.643100000000000094e+01 4.549499999999999744e+01 3.957600000000000051e+01 1.516815000000000024e+00 -1.114267326591742435e-01
1.644000000000000128e+01 2.559600000000000009e+01 4.528799999999999670e+01 -3.629099000000000075e+00 -9.509804484977624206e-02
1.644099999999999895e+01 4.876100000000000101e+00 5.104500000000000171e+01 -4.141790000000000305e+01 -2.641410854074067657e-02
1.644500000000000028e+01 2.629599999999999937e+01 7.121099999999999852e+01 -3.037445999999999913e+01 -7.587348644612920689e-02
1.644500000000000028e+01 4.553399999999999892e+00 6.067300000000000182e+01 -7.029481999999999786e+00 -3.658156008522805980e-01
1.644900000000000162e+01 5.840300000000000047e+00 5.077600000000000335e+01 -7.875736999999999988e+00 -5.488962521838961633e-02
1.645599999999999952e+01 3.737199999999999989e+01 4.053499999999999659e+01 -4.494940999999999853e+00 -1.780092711144713180e-01
1.645700000000000074e+01 3.021699999999999875e+01 4.769200000000000017e+01 -7.147340999999999944e+00 -1.792198834807322838e-01
1.645700000000000074e+01 3.021699999999999875e+01 4.916400000000000148e+01 -2.025504000000000193e+00 -1.722664551093025520e-01
1.645700000000000074e+01 3.042599999999999838e+01 4.842799999999999727e+01 -4.544857000000000369e+00 -1.725036313151411815e-01
1.645899999999999963e+01 4.016799999999999926e+01 3.627100000000000080e+01 -4.169366000000000128e+00 -7.893303608559867901e-02
1.646399999999999864e+01 4.798199999999999932e+01 7.113800000000000523e+01 7.125225999999999615e+00 -6.128337253959033337e-02
1.646399999999999864e+01 7.220699999999999896e+00 6.554200000000000159e+01 -4.915861999999999732e+00 1.892806434454205877e-01
1.646499999999999986e+01 4.084300000000000352e+01 6.585500000000000398e+01 -1.021746000000000087e+01 1.641905660134591050e-01
1.646699999999999875e+01 4.588499999999999801e+01 7.110699999999999932e+01 -7.540575999999999945e-01 -2.247299886045331374e-01
1.646699999999999875e+01 4.996699999999999875e+01 4.242900000000000205e+01 4.093193000000000303e+00 -6.067723595726680352e-03
1.646999999999999886e+01 4.925999999999999801e+01 6.001800000000000068e+01 1.982432999999999979e+01 -3.789867197303217194e-01
1.647400000000000020e+01 5.154800000000000182e+01 5.382600000000000051e+01 -3.162062999999999846e+01 -1.259883374541916068e-01
1.647599999999999909e+01 4.844899999999999807e+01 6.213400000000000034e+01 -1.047170999999999985e+01 -3.873971180254692781e-01
1.647899999999999920e+01 4.114800000000000324e+01 3.880599999999999739e+01 -4.010961999999999961e+01 -9.275686047839817872e-02
1.648300000000000054e+01 4.875699999999999790e+01 4.397699999999999676e+01 -5.192898000000000280e+01 8.790443348704535254e-02
1.649200000000000088e+01 1.430100000000000016e+01 7.286199999999999477e+01 3.600550999999999835e+00 7.052959014839058072e-02
1.649500000000000099e+01 5.225900000000000034e+01 5.176100000000000279e+01 -3.269191000000000180e+00 -8.939816826285748586e-02
1.649899999999999878e+01 4.572700000000000209e+00 5.174499999999999744e+01 -8.870376000000000261e+00 -2.076994777927753527e-02
1.650300000000000011e+01 3.887100000000000222e+01 3.700099999999999767e+01 -7.222596000000000238e+00 -2.562414824683694192e-01
1.650499999999999901e+01 3.121900000000000119e+01 7.701900000000000546e+01 -4.368807999999999581e+00 -1.265192236780587898e-01
1.651099999999999923e+01 3.395099999999999785e+00 5.612800000000000011e+01 -1.393352999999999930e+01 -2.330342981378930034e-01
1.651099999999999923e+01 4.446300000000000097e+01 6.861599999999999966e+01 1.216918000000000077e+01 -2.758443096145323792e-01
1.651699999999999946e+01 5.019899999999999807e+01 4.196900000000000119e+01 1.527856000000000058e+01 -4.091491798401927955e-03
1.652799999999999869e+01 5.161999999999999744e+01 5.620799999999999841e+01 2.890756999999999977e+01 -1.272919126747714957e-01
1.652899999999999991e+01 5.175399999999999778e+01 5.238000000000000256e+01 -1.388311999999999991e+01 -1.222944312740807671e-01
1.652899999999999991e+01 3.926200000000000045e+01 6.732999999999999829e+01 -7.309506999999999532e-01 1.053733320581371896e-01
1.653699999999999903e+01 4.145199999999999818e+01 3.950600000000000023e+01 -1.852917000000000058e+01 -1.102575594082752797e-01
1.653699999999999903e+01 4.231700000000000017e+01 3.950600000000000023e+01 -8.242592000000000141e+00 -1.472946568274726142e-01
1.653699999999999903e+01 5.187700000000000244e+01 5.306600000000000250e+01 -1.970276000000000138e+01 -1.288326443055985149e-01
1.653999999999999915e+01 1.620799999999999841e+01 7.213800000000000523e+01 1.342052999999999940e+00 1.847568710078743501e-02
1.654100000000000037e+01 4.679299999999999926e+01 3.892900000000000205e+01 -1.770936999999999983e+00 -1.047918356766670556e-01
1.654200000000000159e+01 3.743800000000000239e+01 4.146800000000000352e+01 -6.814681000000000211e+00 -1.883628884189406105e-01
1.654799999999999827e+01 2.594999999999999929e+01 4.199199999999999733e+01 -2.562685000000000102e+00 -5.268700755137716019e-02
1.655199999999999960e+01 4.376400000000000290e+01 6.818600000000000705e+01 1.012556999999999974e+01 -2.842962317659040727e-01
1.655199999999999960e+01 2.442200000000000060e+01 4.213900000000000290e+01 -1.945454999999999934e+00 -7.671518299811704023e-02
1.655199999999999960e+01 2.442200000000000060e+01 4.459899999999999665e+01 -1.659189999999999898e+01 -1.036598522460880217e-01
1.656500000000000128e+01 7.822000000000000064e+00 4.717399999999999949e+01 6.154136000000000051e-01 -1.372258297210903477e-01
1.656500000000000128e+01 8.075900000000000745e+00 4.628000000000000114e+01 6.498219999999999885e+00 -1.426648998798710766e-01
1.657600000000000051e+01 2.634499999999999886e+01 4.575000000000000000e+01 -3.883122000000000185e+00 -8.588060664790432563e-02
1.657600000000000051e+01 4.717499999999999716e+01 3.817199999999999704e+01 -2.149329999999999963e+00 -8.422777965542259382e-02
1.657600000000000051e+01 4.992499999999999716e+01 3.817199999999999704e+01 6.723164999999999836e+00 -2.802187508247662787e-02
1.658599999999999852e+01 2.700199999999999889e+01 7.169799999999999329e+01 -1.629949999999999832e+01 -4.383508714160277986e-02
1.658999999999999986e+01 4.899600000000000222e+01 6.293200000000000216e+01 -9.045840999999999354e+00 -3.878384216533356521e-01
1.659299999999999997e+01 5.063299999999999912e+00 5.906199999999999761e+01 -9.699303999999999704e+00 -1.246091124791076643e-01
1.660200000000000031e+01 2.975200000000000067e+00 5.522299999999999898e+01 -1.439617999999999931e+01 -2.451097582277305675e-01
1.660699999999999932e+01 2.507999999999999829e+01 7.102500000000000568e+01 -1.024671000000000021e+01 -1.182026757731079042e-01
1.661100000000000065e+01 2.087900000000000134e+01 7.203199999999999648e+01 1.662781000000000020e+01 2.412513982183235872e-01
1.661199999999999832e+01 1.050999999999999979e+01 6.887399999999999523e+01 6.639857000000000120e+00 -7.606396801423942478e-02
1.661899999999999977e+01 1.008200000000000074e+01 4.405400000000000205e+01 1.422592999999999996e+00 -1.440150072407394011e-01
1.661899999999999977e+01 1.094800000000000040e+01 4.405400000000000205e+01 3.528223999999999805e+00 -1.472949004256505767e-01
1.662000000000000099e+01 4.854999999999999716e+01 3.725099999999999767e+01 -1.994035999999999920e+00 -5.054816760607770687e-02
1.662099999999999866e+01 5.060399999999999920e+01 5.383400000000000318e+01 -1.255082999999999949e+01 -1.612856612319947813e-01
1.662199999999999989e+01 3.506499999999999773e+01 7.309600000000000364e+01 -3.785106999999999999e+00 1.113469697383058336e-02
1.662199999999999989e+01 3.506499999999999773e+01 7.410399999999999920e+01 6.803316000000000363e-01 4.142666545145025359e-02
1.662199999999999989e+01 3.527400000000000091e+01 7.235999999999999943e+01 -1.867240999999999929e+01 -9.587032528114835389e-03
1.662300000000000111e+01 4.938900000000000290e+00 5.813100000000000023e+01 -1.108061000000000007e+01 -1.302371623711613691e-01
1.662500000000000000e+01 3.967600000000000193e+01 6.638700000000000045e+01 6.256052999999999642e+00 1.121727913723592068e-01
1.662800000000000011e+01 3.717999999999999972e+01 4.220100000000000051e+01 -1.505302999999999969e+01 -2.042689224259022773e-01
1.662999999999999901e+01 4.833400000000000318e+01 6.117099999999999937e+01 -8.367180000000000462e+01 -2.770733643320458239e-01
1.663400000000000034e+01 2.375400000000000134e+01 7.164900000000000091e+01 2.970502000000000109e+01 4.728305690406520156e-02
1.664099999999999824e+01 6.579399999999999693e+00 5.064200000000000301e+01 -3.479413999999999785e+00 1.578858635127180499e-01
1.664399999999999835e+01 4.463100000000000023e+01 3.960600000000000165e+01 2.002162000000000108e-01 -9.131329753315198250e-02
1.664699999999999847e+01 5.033599999999999852e+00 6.308200000000000074e+01 -5.114489999999999981e+00 -4.004101592588018010e-01
1.664799999999999969e+01 3.934300000000000352e+01 7.018899999999999295e+01 -5.991839999999999833e+00 1.109656110317869260e-01
1.665200000000000102e+01 2.736199999999999832e+01 4.607999999999999829e+01 -7.584858999999999796e+00 -3.135912215554683136e-01
1.665200000000000102e+01 1.261700000000000088e+01 7.225000000000000000e+01 3.357333999999999818e+00 -1.777916045640564324e-01
1.665299999999999869e+01 5.147299999999999898e+01 5.888799999999999812e+01 -7.008385999999999783e+00 -3.719475052181858143e-01
1.665500000000000114e+01 1.601899999999999835e+01 4.568999999999999773e+01 7.059040999999999677e+00 -1.390029049753344625e-01
1.665500000000000114e+01 1.508099999999999952e+01 7.268600000000000705e+01 1.968674999999999953e+00 6.337126884852742337e-02
1.666300000000000026e+01 4.872399999999999665e+01 4.704500000000000171e+01 5.634678000000000075e+00 -1.525961186433177352e-01
1.666300000000000026e+01 5.012400000000000233e+01 4.704500000000000171e+01 6.465847000000000122e+00 -1.324228546379908056e-01
1.666499999999999915e+01 2.209400000000000119e+01 7.179000000000000625e+01 3.324476000000000209e+00 2.575032857494986005e-01
1.666700000000000159e+01 4.217799999999999727e+01 6.749200000000000443e+01 2.576817999999999831e+00 -1.027478045429866399e-01
1.666799999999999926e+01 5.065200000000000102e+01 6.865300000000000580e+01 8.482547000000000281e+00 4.747277825151588818e-03
1.667399999999999949e+01 4.010699999999999932e+01 6.585500000000000398e+01 1.182029999999999959e+01 1.622339880482725483e-01
1.667399999999999949e+01 4.157900000000000063e+01 6.585500000000000398e+01 -1.285502999999999929e+01 5.247935667251971831e-02
1.667699999999999960e+01 1.736199999999999832e+01 7.293099999999999739e+01 2.227317000000000213e+00 -3.840959304680875708e-02
1.667800000000000082e+01 5.021000000000000085e+01 5.969899999999999807e+01 5.440043000000000184e+00 -3.760546961348648631e-01
1.667899999999999849e+01 3.362199999999999989e+01 7.662300000000000466e+01 2.152040999999999826e+01 -9.821844499888623958e-02
1.668400000000000105e+01 1.208799999999999919e+01 4.475800000000000267e+01 1.048962000000000039e+01 1.304024104285800845e-01
1.668799999999999883e+01 2.255699999999999861e+01 4.893999999999999773e+01 1.107615999999999934e+00 3.841199989160702134e-03
1.668900000000000006e+01 4.974799999999999756e+01 4.116299999999999670e+01 6.295541000000000054e+01 -2.770870623024205420e-02
1.668900000000000006e+01 3.785999999999999943e+01 7.116200000000000614e+01 -1.704590999999999923e+01 -1.065782921643649087e-02
1.669099999999999895e+01 2.154400000000000048e+01 4.890800000000000125e+01 3.282634999999999970e+00 -1.937782916215999018e-01
1.669399999999999906e+01 2.555299999999999905e+00 5.279800000000000182e+01 -1.775375000000000014e+01 -2.504296935153184078e-01
1.669399999999999906e+01 2.555299999999999905e+00 5.431799999999999784e+01 -2.999045999999999879e+01 -2.471395656918102812e-01
1.669500000000000028e+01 5.045600000000000307e+01 6.337800000000000011e+01 -3.617227999999999888e+00 -3.499999999999999778e-01
1.669500000000000028e+01 1.004700000000000060e+01 6.838599999999999568e+01 8.348603000000000662e+00 -7.330763285749818114e-02
1.669699999999999918e+01 6.164699999999999847e+00 6.527599999999999625e+01 -5.827950999999999659e+00 -1.818656804764364754e-01
1.669699999999999918e+01 4.954999999999999716e+01 4.018599999999999994e+01 1.772435000000000116e+01 -3.756222488785797980e-02
1.669999999999999929e+01 3.052599999999999980e+01 7.709699999999999420e+01 1.275904000000000060e+01 -1.176952129830930727e-01
1.670599999999999952e+01 1.803300000000000125e+01 7.334600000000000364e+01 6.825751999999999597e+00 -6.306667087809891825e-02
1.670799999999999841e+01 3.000100000000000122e+01 4.969800000000000040e+01 5.997363000000000000e-01 -1.704515411002344161e-01
1.670899999999999963e+01 1.741100000000000136e+01 4.635900000000000176e+01 1.113369999999999926e+01 -1.266308090806161912e-01
1.671300000000000097e+01 2.890800000000000125e+01 4.677799999999999869e+01 -8.185506999999999422e+00 -3.108015239950154274e-01
1.671300000000000097e+01 2.946999999999999886e+01 7.710500000000000398e+01 2.180810999999999922e+01 -9.789073546448334717e-02
1.671799999999999997e+01 3.700699999999999790e+01 7.102899999999999636e+01 -2.067589999999999861e+01 -2.776576076958609668e-02
1.671900000000000119e+01 4.995199999999999818e+01 3.925500000000000256e+01 6.319872000000000156e+00 -2.876772435740786865e-02
1.672700000000000031e+01 2.363500000000000156e+01 4.970199999999999818e+01 4.828653000000000084e+00 -2.203602553496458987e-03
1.672899999999999920e+01 4.197599999999999909e+01 6.695799999999999841e+01 -4.102072999999999858e+00 -1.118353949285794541e-01
1.673199999999999932e+01 4.040999999999999659e+01 6.515500000000000114e+01 1.002956999999999965e+01 3.830497319306048754e-01
1.673199999999999932e+01 4.127600000000000335e+01 6.515500000000000114e+01 -4.024225000000000385e+00 1.850427211132896557e-02
1.673799999999999955e+01 3.851700000000000301e+01 3.745400000000000063e+01 -4.401143000000000249e+00 6.058421459759988359e-02
1.674200000000000088e+01 3.513199999999999790e+01 7.576399999999999579e+01 3.798446999999999907e+00 -7.489354214407663302e-02
1.674399999999999977e+01 2.514699999999999847e+01 5.170300000000000296e+01 -6.090491000000000099e-01 9.914875466258832315e-02
1.674399999999999977e+01 2.633699999999999974e+01 5.236699999999999733e+01 7.351589999999999847e+00 1.075222938788119864e-01
1.674599999999999866e+01 5.089900000000000091e+01 6.783899999999999864e+01 9.318094000000000321e+00 1.093428316775209123e-02
1.675199999999999889e+01 3.475900000000000034e+01 7.648499999999999943e+01 6.493185000000000429e+00 -7.612125737536196146e-02
1.675400000000000134e+01 3.494000000000000217e+00 5.269899999999999807e+01 -1.309502999999999950e+01 -2.636631925780180685e-01
1.675499999999999901e+01 5.184400000000000119e+01 5.840200000000000102e+01 1.641813000000000144e+01 -3.706840914143352816e-01
1.675700000000000145e+01 2.225900000000000212e+00 5.355799999999999983e+01 -1.056042000000000058e+01 -2.465824838167778865e-01
1.675799999999999912e+01 8.919700000000000628e+00 6.702800000000000580e+01 -3.570194999999999896e-01 -1.715660012310182281e-01
1.676200000000000045e+01 3.548799999999999955e+01 7.192300000000000182e+01 -1.548154000000000075e+01 -1.864755096324476752e-02
1.676300000000000168e+01 1.346599999999999930e+01 4.564300000000000068e+01 7.604218999999999618e+00 1.151847037903733773e-01
1.676300000000000168e+01 1.975499999999999901e+01 7.319499999999999318e+01 1.155461999999999989e+00 1.781585862527332309e-02
1.676399999999999935e+01 2.906500000000000128e+01 5.107699999999999818e+01 1.117372999999999950e+00 -1.700869959715745616e-01
1.676399999999999935e+01 5.107800000000000296e+01 5.306600000000000250e+01 -2.733581999999999823e+01 -1.588707044927648027e-01
1.676599999999999824e+01 9.875799999999999912e+00 4.491400000000000148e+01 6.225132000000000332e+00 -1.558610419497184485e-01
1.676800000000000068e+01 4.970600000000000307e+01 7.039900000000000091e+01 1.275655000000000072e+01 -3.290283207027246137e-02
1.677100000000000080e+01 3.939999999999999858e+01 6.833799999999999386e+01 -8.615437999999999263e+00 1.061738859116534428e-01
1.677199999999999847e+01 5.110199999999999676e+01 4.625699999999999790e+01 2.892399000000000164e+00 -2.316788731606725382e-01
1.677199999999999847e+01 5.265200000000000102e+01 4.625699999999999790e+01 5.205904000000000309e+00 -2.249093362707625943e-01
1.677299999999999969e+01 2.021000000000000085e+01 4.885699999999999932e+01 9.117542999999999509e+00 7.197086958865131501e-03
1.677700000000000102e+01 1.460899999999999999e+01 4.600399999999999778e+01 2.570782000000000167e+01 1.043359225039170307e-01
1.677899999999999991e+01 2.727299999999999969e+01 4.213900000000000290e+01 -2.226688999999999918e+00 -1.753010028245412522e-01
1.678000000000000114e+01 5.413799999999999812e+01 5.037299999999999756e+01 -1.021405999999999992e+01 -4.379780961183822596e-02
1.678600000000000136e+01 4.883200000000000074e+01 7.093099999999999739e+01 1.101765999999999934e+01 -4.760536757026680166e-02
1.678600000000000136e+01 3.012999999999999901e+01 4.300399999999999778e+01 -1.014048000000000060e+00 -1.868983229691011105e-01
1.678999999999999915e+01 1.192200000000000060e+01 7.085699999999999932e+01 1.301254999999999917e+01 -3.508325880770498673e-01
1.679100000000000037e+01 5.197299999999999898e+01 5.660900000000000176e+01 2.608933000000000035e+01 -7.506563626756287966e-02
1.679200000000000159e+01 2.787800000000000011e+01 5.182399999999999807e+01 -3.869972000000000190e+00 1.760366797799567395e-02
1.679299999999999926e+01 2.866499999999999915e+01 4.260300000000000153e+01 -5.402739999999999654e+00 -1.788233989803653945e-01
1.680399999999999849e+01 4.806099999999999994e+01 4.050999999999999801e+01 7.268280999999999992e+00 -9.792954775314027804e-02
1.680900000000000105e+01 4.932699999999999818e+01 4.204699999999999704e+01 2.607030999999999921e+01 -4.161183003053695734e-02
1.680999999999999872e+01 3.187999999999999901e+01 7.694299999999999784e+01 2.048416000000000015e+00 -1.183847730183119201e-01
1.681200000000000117e+01 1.922599999999999909e+01 4.842000000000000171e+01 1.245833000000000013e+01 1.847694112973738076e-02
1.681299999999999883e+01 3.160500000000000043e+01 4.261699999999999733e+01 -4.450352000000000197e-01 -1.961429796271719483e-01
1.681400000000000006e+01 2.750300000000000011e+01 7.493800000000000239e+01 1.365272999999999959e+00 -3.772054948444784200e-02
1.681899999999999906e+01 3.468099999999999739e+01 4.279699999999999704e+01 1.113777999999999935e+01 -1.335541793473817296e-01
1.682499999999999929e+01 5.093699999999999761e+01 6.683100000000000307e+01 1.538673999999999964e+01 -2.856493510553850812e-01
1.682600000000000051e+01 5.221300000000000097e+01 5.755199999999999960e+01 1.808906999999999954e+01 -4.347467207288922830e-02
1.682999999999999829e+01 4.986800000000000210e+01 5.383400000000000318e+01 3.772384000000000182e+00 -1.952773473454935405e-01
1.682999999999999829e+01 5.081600000000000250e+01 5.229800000000000182e+01 -1.199825000000000053e+01 -1.680008022163342052e-01
1.682999999999999829e+01 5.377400000000000091e+01 4.774600000000000222e+01 -1.492079000000000022e+01 -2.524800850693830201e-01
1.683200000000000074e+01 7.318399999999999572e+00 5.050900000000000034e+01 3.536390999999999840e-01 1.523439495434720237e-01
1.683699999999999974e+01 5.449499999999999744e+01 4.957000000000000028e+01 -4.377562999999999960e+01 -3.630166537491175127e-02
1.683899999999999864e+01 3.528900000000000148e+01 4.292799999999999727e+01 1.790650000000000075e+00 -2.403633161630983062e-01
1.685300000000000153e+01 2.878000000000000114e+01 5.184799999999999898e+01 2.566674000000000078e+01 -1.794473724101983136e-01
1.685300000000000153e+01 2.743499999999999872e+01 7.239799999999999613e+01 -9.408633999999999276e+00 -1.209735702180685796e-01
1.686799999999999855e+01 5.336500000000000199e+01 4.689800000000000324e+01 -2.659463999999999828e+00 -2.616887663165639033e-01
1.686799999999999855e+01 1.113899999999999935e+01 6.949599999999999511e+01 9.195717999999999392e+00 -7.011622530319050473e-02
1.687099999999999866e+01 5.274900000000000233e+01 5.128199999999999648e+01 4.112837999999999994e+00 -7.325388377253430616e-02
1.687399999999999878e+01 2.479700000000000060e+01 5.087599999999999767e+01 -5.099344000000000321e+00 3.464337781687342084e-03
1.688599999999999923e+01 5.423400000000000176e+01 4.856700000000000017e+01 -3.600464999999999804e+01 -2.453227344407466204e-01
1.688599999999999923e+01 9.634999999999999787e+00 6.771200000000000330e+01 1.570162999999999975e+00 -6.263313414709306692e-02
1.688800000000000168e+01 5.111999999999999744e+01 5.159799999999999898e+01 5.886270999999999809e+00 -1.344217885767772513e-01
1.689000000000000057e+01 3.969800000000000040e+01 3.680400000000000205e+01 -7.533384999999999998e+00 -7.929951226279763343e-02
1.689000000000000057e+01 4.063799999999999812e+01 3.680400000000000205e+01 -2.047691000000000017e+01 -9.200412514823493038e-02
1.689000000000000057e+01 2.972599999999999909e+01 4.729500000000000171e+01 -5.962861000000000189e+00 -2.998978803586108133e-01
1.689499999999999957e+01 5.074099999999999611e+00 6.013900000000000290e+01 -1.141458000000000084e+01 -1.344673977057332659e-01
1.689600000000000080e+01 4.728199999999999648e+01 7.140500000000000114e+01 -7.304477999999999582e+00 -2.313701562222449104e-01
1.689699999999999847e+01 7.920700000000000074e+00 6.580899999999999750e+01 -6.069358000000000253e+00 2.298497412929133288e-01
1.689999999999999858e+01 4.926700000000000301e+01 4.269599999999999795e+01 -4.019586999999999577e+00 -4.136515802710356848e-02
1.690299999999999869e+01 4.876899999999999835e+01 6.041499999999999915e+01 -4.237517999999999674e+00 -2.725431329634960820e-01
1.690599999999999881e+01 5.084799999999999898e+01 5.495900000000000318e+01 1.966917999999999944e+00 -1.227997774777186135e-01
1.691199999999999903e+01 3.817199999999999704e+01 3.822200000000000131e+01 -2.895277999999999796e+00 6.166529117043918762e-02
1.691199999999999903e+01 1.300799999999999912e+01 7.278700000000000614e+01 2.055187999999999793e+00 -1.699416854423547174e-01
1.691400000000000148e+01 3.987400000000000233e+01 6.910599999999999454e+01 -8.811484000000000094e+00 1.158333068627550172e-01
1.692000000000000171e+01 4.197800000000000153e+01 6.637000000000000455e+01 -7.832754999999999690e+00 -1.109631414897976204e-01
1.692099999999999937e+01 2.797299999999999898e+01 7.649399999999999977e+01 4.317328999999999972e+00 -6.414405387836244476e-02
1.692699999999999960e+01 3.913300000000000001e+00 5.659799999999999898e+01 -3.072332000000000107e+01 -2.390822427818124485e-01
1.693199999999999861e+01 5.272700000000000387e+00 5.147800000000000153e+01 -1.562246999999999986e+01 -4.677281589863175465e-02
1.693299999999999983e+01 4.188400000000000034e+01 3.999699999999999989e+01 -1.743498999999999910e+01 1.305583588793864970e-02
1.693400000000000105e+01 5.080700000000000216e+01 6.587500000000000000e+01 -6.689433000000000185e+00 -2.328395241795205572e-01
1.693599999999999994e+01 1.577500000000000036e+01 7.262900000000000489e+01 2.023337999999999873e-02 5.114986599231402531e-02
1.693599999999999994e+01 1.664000000000000057e+01 7.262900000000000489e+01 -3.081481999999999832e-01 9.283720831988008515e-03
1.693799999999999883e+01 5.845900000000000318e+00 5.906199999999999761e+01 -1.612109999999999843e+01 -1.545038154399132335e-01
1.693900000000000006e+01 4.880599999999999739e+01 4.101700000000000301e+01 1.082719999999999949e+01 -7.070052512699252778e-02
1.694300000000000139e+01 5.198000000000000398e+00 6.388000000000000256e+01 -5.791220000000000034e+00 -1.547541160822523687e-01
1.694399999999999906e+01 4.516299999999999670e+01 6.974899999999999523e+01 7.761592000000000269e+00 -1.751837970456488480e-01
1.694399999999999906e+01 4.539399999999999835e+01 7.056399999999999295e+01 -1.429722999999999966e-01 -1.988136622892058558e-01
1.694399999999999906e+01 4.671300000000000097e+01 7.129900000000000659e+01 -2.248461999999999961e+01 -2.243370396957959090e-01
1.694900000000000162e+01 2.081099999999999994e+01 4.882200000000000273e+01 6.808600000000000207e+00 9.109205899653673166e-04
1.694999999999999929e+01 1.152399999999999913e+01 7.007599999999999341e+01 1.821835000000000093e+01 -3.399651771716820092e-01
1.695299999999999940e+01 4.096699999999999875e+01 3.756400000000000006e+01 -9.635012999999999295e+01 -9.922938795566807468e-02
1.696000000000000085e+01 5.112899999999999778e+01 5.581199999999999761e+01 1.441998000000000069e+01 -1.560113300148525672e-01
1.696099999999999852e+01 1.809499999999999886e+01 4.780100000000000193e+01 3.814891000000000076e+01 3.625502040559050454e-02
1.696600000000000108e+01 5.024099999999999966e+01 5.469899999999999807e+01 -2.993676000000000115e-01 -1.499384073166304954e-01
1.697400000000000020e+01 4.490200000000000102e+01 3.932600000000000051e+01 -2.821210000000000218e+00 -9.274520069464274596e-02
1.697400000000000020e+01 4.630199999999999960e+01 3.932600000000000051e+01 -2.271980000000000111e-01 -1.159938067697244141e-01
1.698499999999999943e+01 5.092600000000000193e+01 6.413800000000000523e+01 -2.439242000000000132e+01 -3.903289431221430572e-01
1.698499999999999943e+01 5.092600000000000193e+01 6.507800000000000296e+01 -3.005065000000000097e+01 -2.285262818310395683e-01
1.698799999999999955e+01 4.069899999999999807e+01 3.832300000000000040e+01 -8.001076000000000477e+01 2.526648846892622924e-01
1.698900000000000077e+01 2.285099999999999909e+01 7.183599999999999852e+01 4.719453999999999816e+00 2.675089000443017784e-01
1.699599999999999866e+01 5.542500000000000426e+00 5.976200000000000045e+01 -1.238746000000000080e+01 -1.452061794806344397e-01
1.699899999999999878e+01 5.476300000000000168e+00 5.827000000000000313e+01 -1.029046999999999912e+01 -1.895807682669155281e-02
1.700199999999999889e+01 3.791700000000000070e+00 5.569500000000000028e+01 -2.215431999999999846e+01 -2.553384152045958255e-01
1.700600000000000023e+01 4.302900000000000347e+01 6.774500000000000455e+01 2.598301999999999889e+00 -6.661469610748171899e-02
1.701300000000000168e+01 2.681800000000000139e+01 4.626599999999999824e+01 -1.155813000000000024e+01 -7.904310649946218181e-02
1.701300000000000168e+01 4.732500000000000284e+01 4.050999999999999801e+01 5.840438999999999936e+00 -1.312970434758135851e-01
1.701500000000000057e+01 1.779200000000000159e+01 4.724000000000000199e+01 5.677136999999999745e+01 3.032189027807519893e-02
1.701599999999999824e+01 1.051500000000000057e+01 4.454500000000000171e+01 3.795683000000000251e-01 -1.470059212396607196e-01
1.701599999999999824e+01 2.820799999999999841e+01 4.671999999999999886e+01 -1.263852999999999938e+01 -3.101488212125501631e-01
1.701899999999999835e+01 4.503999999999999915e+01 6.883700000000000330e+01 5.884996000000000116e+00 -2.635253838481766975e-01
1.701999999999999957e+01 3.886599999999999966e+01 6.689799999999999613e+01 -8.359741000000000533e-01 1.100333317958240159e-01
1.701999999999999957e+01 3.886599999999999966e+01 6.776300000000000523e+01 -7.381189000000000000e+00 9.000481906023813372e-02
1.702199999999999847e+01 2.366199999999999903e+01 4.336899999999999977e+01 -2.387446000000000179e+00 -9.483434099865005462e-02
1.702199999999999847e+01 2.388899999999999935e+01 4.257000000000000028e+01 -2.873689999999999856e+00 -8.389672461385175306e-02
1.702199999999999847e+01 2.388899999999999935e+01 4.416799999999999926e+01 -1.599483000000000033e+01 1.446184116676288781e-02
1.702199999999999847e+01 2.483800000000000097e+01 4.511699999999999733e+01 -5.689983999999999931e+00 -1.005222656187252372e-01
1.702199999999999847e+01 2.518199999999999861e+01 4.184899999999999665e+01 -2.728517000000000081e+00 -5.993767720427391893e-02
1.702400000000000091e+01 4.969599999999999795e+01 6.331499999999999773e+01 -3.459296999999999844e+00 -3.884224581238661100e-01
1.702400000000000091e+01 3.674699999999999989e+01 4.269200000000000017e+01 -4.094858000000000331e+00 -2.183830104791348314e-01
1.703000000000000114e+01 4.962599999999999767e+01 5.979200000000000159e+01 5.508617000000000097e+00 -3.772588044863652845e-01
1.703000000000000114e+01 8.564399999999999125e+00 4.571399999999999864e+01 2.234112999999999793e+00 -1.394982941390911502e-01
1.704200000000000159e+01 3.269500000000000028e+01 7.700000000000000000e+01 1.043946000000000041e+01 -1.021486535899887860e-01
1.704599999999999937e+01 2.320899999999999963e+01 4.950699999999999790e+01 9.888109000000000481e-01 -1.855015892833115985e-04
1.704599999999999937e+01 3.933400000000000318e+01 3.750500000000000256e+01 -1.134268999999999927e+01 2.464678985979554260e-01
1.704799999999999827e+01 2.960699999999999932e+01 4.301400000000000290e+01 -4.806259999999999977e+00 -1.802059402548829570e-01
1.704899999999999949e+01 2.794099999999999895e+01 7.329699999999999704e+01 -2.431887000000000132e+00 -9.659057016676544233e-03
1.704899999999999949e+01 2.794099999999999895e+01 7.416200000000000614e+01 -1.392365000000000130e-01 -2.614749263644875962e-02
1.705199999999999960e+01 1.464799999999999969e+01 7.317700000000000671e+01 -4.087844999999999729e+00 7.635842716146408471e-02
1.705199999999999960e+01 1.551399999999999935e+01 7.317700000000000671e+01 -1.521714999999999929e+00 5.442247614088528002e-02
1.705199999999999960e+01 2.141300000000000026e+01 7.158700000000000330e+01 1.057280000000000086e+01 2.553582405153270729e-01
1.705699999999999861e+01 4.193999999999999950e+00 5.264099999999999824e+01 -7.105198999999999820e+00 -1.346215896248647778e-02
1.705900000000000105e+01 5.272700000000000387e+00 6.483700000000000330e+01 -3.361712999999999951e+00 -1.670951514469894150e-01
1.705999999999999872e+01 5.106600000000000250e+00 5.747800000000000153e+01 -2.882619000000000042e+01 -3.779962544738453556e-02
1.705999999999999872e+01 3.788000000000000256e+01 4.106799999999999784e+01 -5.345125999999999600e+00 4.958333541723752846e-02
1.706899999999999906e+01 8.051000000000000156e+00 4.917900000000000205e+01 1.511101000000000028e+00 1.585047993106541431e-01
1.707100000000000151e+01 4.762800000000000011e+01 3.981000000000000227e+01 5.493968999999999880e+00 -1.083245721314606558e-01
1.707100000000000151e+01 4.762800000000000011e+01 4.121000000000000085e+01 1.895958000000000032e+00 -1.274454066408992337e-01
1.707700000000000173e+01 1.951000000000000156e+01 4.879899999999999949e+01 1.492956000000000039e+01 1.846386509472348544e-02
1.708099999999999952e+01 4.116799999999999926e+01 3.994299999999999784e+01 -1.119880999999999993e+01 2.498402101140924092e-01
1.708200000000000074e+01 2.963099999999999845e+00 5.355799999999999983e+01 -1.606457999999999942e+01 -2.625048958811466715e-01
1.708200000000000074e+01 2.657300000000000040e+01 4.208100000000000307e+01 -2.468036999999999814e+00 -1.724222458962312854e-01
1.708599999999999852e+01 5.098199999999999932e+01 5.928499999999999659e+01 8.172091999999999690e-01 -3.741856105661192644e-01
1.708800000000000097e+01 2.028000000000000114e+01 7.234499999999999886e+01 1.171728000000000058e+01 2.429540185182221812e-01
1.708999999999999986e+01 5.003999999999999915e+01 5.271500000000000341e+01 3.110198000000000107e+01 -2.152263790889426542e-01
1.708999999999999986e+01 3.391400000000000148e+01 4.283200000000000074e+01 2.543027999999999977e+01 -1.322755575766521585e-01
1.709199999999999875e+01 4.821399999999999864e+01 4.505299999999999727e+01 -1.409054000000000073e+01 8.108207630390502907e-02
1.709199999999999875e+01 4.842300000000000182e+01 4.431700000000000017e+01 -1.405052000000000056e+01 5.193118747079424752e-02
1.709199999999999875e+01 2.546999999999999886e+01 4.544700000000000273e+01 -4.027828999999999660e+00 -9.310614746857720503e-02
1.709600000000000009e+01 4.802400000000000091e+01 4.591199999999999903e+01 -2.619971000000000050e+00 -1.675915741688608906e-01
1.709600000000000009e+01 4.823299999999999699e+01 4.664800000000000324e+01 3.667025000000000201e+00 -1.588846748967090439e-01
1.709600000000000009e+01 4.942399999999999949e+01 4.731199999999999761e+01 7.034276000000000195e+00 -1.324904590731638132e-01
1.709900000000000020e+01 4.342199999999999704e+01 3.965599999999999881e+01 -5.506346999999999881e+00 -1.805018565430821509e-01
1.710099999999999909e+01 2.950900000000000034e+01 5.058500000000000085e+01 1.093355999999999995e+00 -1.560740872654596267e-01
1.710099999999999909e+01 4.802499999999999858e+01 3.784700000000000131e+01 -1.989144999999999941e+00 -6.809186680448169049e-02
1.710099999999999909e+01 4.907500000000000284e+01 3.784700000000000131e+01 -9.803880999999999846e-01 -5.060809701286572704e-02
1.710099999999999909e+01 4.907500000000000284e+01 3.954699999999999704e+01 1.405515999999999988e+00 -5.960250248917322441e-02
1.710300000000000153e+01 3.551599999999999824e+01 7.641700000000000159e+01 -9.411704000000000292e+00 -5.614245052244409839e-02
1.710300000000000153e+01 1.361400000000000077e+01 7.351500000000000057e+01 -4.650070999999999621e+00 7.903091849444768280e-02
1.710800000000000054e+01 5.187700000000000244e+01 4.619200000000000017e+01 5.557913000000000103e+00 -2.264425420918192433e-01
1.710800000000000054e+01 3.774000000000000199e+01 3.910799999999999699e+01 -4.800146999999999942e+00 5.674356863171882426e-02
1.710800000000000054e+01 3.774000000000000199e+01 4.015800000000000125e+01 -4.471565000000000012e+00 5.520069367983854169e-02
1.710800000000000054e+01 2.658599999999999852e+01 7.162999999999999545e+01 -1.151366999999999940e+01 -4.300971212029816582e-02
1.711299999999999955e+01 3.613199999999999790e+01 4.277300000000000324e+01 -8.026046999999999487e-01 -2.277447884341905482e-01
1.711400000000000077e+01 4.062800000000000011e+01 3.912700000000000244e+01 -1.394411999999999985e+01 2.593288193851895906e-01
1.711499999999999844e+01 1.852599999999999980e+01 4.836200000000000188e+01 2.936766000000000076e+01 -5.449842317001396541e-02
1.712000000000000099e+01 5.027700000000000102e+01 6.949699999999999989e+01 1.743825999999999965e+01 -9.476734171933414233e-03
1.712600000000000122e+01 3.798599999999999710e+01 4.250900000000000034e+01 -1.284140999999999977e+01 -1.635329472795999384e-01
1.712600000000000122e+01 3.255300000000000082e+00 5.458500000000000085e+01 -1.841569000000000145e+01 6.370967513798422854e-02
1.712900000000000134e+01 4.084300000000000352e+01 6.466400000000000148e+01 4.292615999999999765e+00 3.664574671664570515e-01
1.713200000000000145e+01 1.890500000000000114e+01 7.326600000000000534e+01 1.154579999999999940e+00 6.581671909309091961e-02
1.713200000000000145e+01 2.200900000000000034e+01 4.942699999999999960e+01 2.832298999999999900e+00 -1.745428968232781014e-02
1.713400000000000034e+01 1.524399999999999977e+01 4.598599999999999710e+01 4.361325000000000074e+01 -1.243178358029549402e-01
1.713400000000000034e+01 1.679400000000000048e+01 4.598599999999999710e+01 1.488011999999999979e+01 -1.233784050545921884e-01
1.713500000000000156e+01 1.070599999999999952e+01 6.879600000000000648e+01 1.057182000000000066e+01 -5.964568536584911179e-02
1.714099999999999824e+01 3.833500000000000085e+01 4.159199999999999875e+01 -5.981455000000000410e+00 3.977984536632885038e-02
1.714799999999999969e+01 2.800400000000000134e+01 4.260300000000000153e+01 -4.207000999999999991e+00 -1.730202106533726414e-01
1.715700000000000003e+01 3.015800000000000125e+01 4.799499999999999744e+01 -1.419571000000000005e+01 -1.695292754897539389e-01
1.715700000000000003e+01 3.015800000000000125e+01 4.886099999999999710e+01 -7.681497000000000241e+00 -1.650416861340301411e-01
1.716300000000000026e+01 7.995899999999999785e+00 4.817999999999999972e+01 -1.730324999999999891e+00 -1.313900734015401861e-01
1.716400000000000148e+01 2.684900000000000020e+01 7.557699999999999818e+01 -4.991050000000000209e-01 -2.675631886828930828e-01
1.716400000000000148e+01 2.432700000000000173e+01 5.011599999999999966e+01 -2.916752999999999929e+00 2.367533315711485391e-03
1.716499999999999915e+01 4.197599999999999909e+01 6.542199999999999704e+01 2.330283999999999800e+00 7.241972265614485260e-02
1.716600000000000037e+01 3.424699999999999989e+01 7.717700000000000671e+01 -8.919043999999999528e+00 -7.127286664586315879e-02
1.716600000000000037e+01 3.518699999999999761e+01 7.717700000000000671e+01 -1.945820000000000149e+01 -5.729100996454727923e-02
1.717200000000000060e+01 4.944400000000000261e+01 3.869700000000000273e+01 9.272102000000000288e+00 -4.775908829633427471e-02
1.717200000000000060e+01 1.267900000000000027e+01 7.082200000000000273e+01 1.334675999999999974e+01 -3.604867482176417059e-01
1.717299999999999827e+01 3.614300000000000068e+01 7.141100000000000136e+01 -2.062390999999999863e+01 -2.288691092099637628e-02
1.717500000000000071e+01 4.831999999999999851e+00 6.275600000000000023e+01 -1.235257999999999967e+01 -4.011431667720317118e-01
1.717599999999999838e+01 4.721300000000000274e+00 6.101899999999999835e+01 -1.569626000000000055e+01 -3.656435887291868969e-01
1.717699999999999960e+01 2.563700000000000045e+01 5.209899999999999665e+01 -3.096286999999999789e+00 8.963444520260613335e-02
1.717899999999999849e+01 4.389300000000000068e+01 6.794700000000000273e+01 1.876355999999999824e+01 -2.722030619648705407e-01
1.717899999999999849e+01 2.507199999999999918e+01 7.105100000000000193e+01 -1.233253000000000021e+01 1.199902126411803299e-01
1.717999999999999972e+01 4.016799999999999926e+01 3.756400000000000006e+01 -2.470519000000000176e+01 2.414181778094920683e-01
1.718499999999999872e+01 8.385999999999999233e+00 6.656199999999999761e+01 -7.858053999999999872e-01 -1.576496661383069708e-01
1.718499999999999872e+01 5.840300000000000047e+00 5.098499999999999943e+01 -3.732533999999999796e+00 6.341521196266183824e-02
1.718799999999999883e+01 5.114399999999999835e+01 5.866899999999999693e+01 6.241933000000000398e+00 -3.718374438964498485e-01
1.719000000000000128e+01 3.224800000000000111e+00 5.299900000000000233e+01 -7.949360999999999677e+00 -2.683208533005126961e-01
1.719699999999999918e+01 2.707100000000000151e+01 5.208599999999999852e+01 -1.228396000000000043e+00 1.122728996621963626e-01
1.719900000000000162e+01 9.384900000000000020e+00 4.531000000000000227e+01 -9.012807999999999931e-01 -1.451907394180320110e-01
1.719900000000000162e+01 4.840099999999999625e+00 5.217799999999999727e+01 -5.460734999999999673e+00 -3.812368848438441732e-02
