7.652700000000000280e+00 1.906899999999999906e+01 -6.754800000000000182e+01 -1.106779000000000046e+01 -1.496439080764482010e-02
7.653999999999999915e+00 4.730799999999999983e+01 -6.520099999999999341e+01 -4.215354000000000045e-01 -1.988424610089905425e-02
7.653999999999999915e+00 4.744400000000000261e+01 -6.694199999999999307e+01 -2.045548000000000144e+00 3.237093137511495161e-02
7.653999999999999915e+00 4.756199999999999761e+01 -6.609499999999999886e+01 1.190585999999999922e+00 1.052055692587424785e-03
7.658800000000000274e+00 2.148000000000000043e+01 -6.753000000000000114e+01 -2.112950000000000017e+01 -1.556216850362208970e-02
7.663999999999999702e+00 4.333299999999999841e+01 -6.679399999999999693e+01 -1.334046999999999983e+00 -1.595151176062977461e-01
7.665700000000000180e+00 2.999500000000000099e+01 -4.641100000000000136e+01 -6.879179999999999851e+00 -2.853508236548800703e-01
7.666699999999999626e+00 2.466400000000000148e+01 -5.304999999999999716e+01 -9.099062999999999457e-01 -3.960989186958968067e-01
7.670300000000000118e+00 3.443900000000000006e+01 -7.870499999999999829e+01 2.150101000000000095e-01 2.571790696437278173e-02
7.670300000000000118e+00 3.530400000000000205e+01 -7.870499999999999829e+01 -2.045242000000000004e+00 2.290155210424339727e-02
7.671899999999999942e+00 2.035800000000000054e+01 -5.949600000000000222e+01 -2.094765000000000210e+00 -1.818205984963778069e-02
7.674299999999999677e+00 2.621999999999999886e+01 -7.104399999999999693e+01 -1.522195999999999927e+01 -2.227385730851989126e-02
7.675600000000000200e+00 2.444399999999999906e+01 -6.786199999999999477e+01 -1.430137999999999998e+01 -1.674248652456382380e-02
7.683699999999999974e+00 3.541899999999999693e+01 -7.143800000000000239e+01 -9.991789999999999949e+00 -3.460457252231878555e-02
7.683699999999999974e+00 3.628499999999999659e+01 -7.143800000000000239e+01 -1.012796999999999947e+01 -3.602739185705754188e-02
7.693599999999999994e+00 1.807300000000000040e+01 -6.190100000000000335e+01 -6.979619999999999891e+01 -1.042223242913422471e-02
7.694700000000000095e+00 3.779200000000000159e+01 -7.891800000000000637e+01 -4.488256999999999941e+00 1.324687208387385559e-02
7.694700000000000095e+00 3.779200000000000159e+01 -7.616800000000000637e+01 -6.390410000000000146e+00 7.173200054868322795e-03
7.695999999999999730e+00 2.133599999999999852e+01 -5.421800000000000352e+01 -9.154975000000000307e+00 -3.963328796731089843e-01
7.698199999999999932e+00 2.458599999999999852e+01 -5.154899999999999949e+01 -1.637574000000000085e+00 -3.958545300521671972e-01
7.701999999999999957e+00 3.142999999999999972e+01 -4.830899999999999750e+01 -1.215570999999999913e+01 -2.847360832913406470e-01
7.712699999999999889e+00 2.369699999999999918e+01 -5.158700000000000330e+01 -7.171677999999999997e+00 -3.958984836883198133e-01
7.715499999999999581e+00 1.534099999999999930e+01 -6.278000000000000114e+01 -1.985946999999999907e+00 -1.102701034764158941e-02
7.717699999999999783e+00 3.498700000000000188e+01 -4.919200000000000017e+01 2.824584000000000206e+00 -2.835778407980599214e-01
7.721000000000000085e+00 3.157400000000000162e+01 -7.886499999999999488e+01 -6.702136000000000315e+00 3.293157436438204355e-02
7.724999999999999645e+00 2.496699999999999875e+01 -5.235000000000000142e+01 -8.140935000000000255e-01 -3.959751088565471866e-01
7.735999999999999766e+00 2.201500000000000057e+01 -5.157300000000000040e+01 -7.560779000000000138e+00 -3.959600234072349068e-01
7.736399999999999721e+00 4.207300000000000040e+01 -6.331600000000000250e+01 -1.004483000000000015e+00 1.358223176551760503e-01
7.738000000000000433e+00 2.573600000000000065e+01 -4.915800000000000125e+01 -8.814311999999999259e+00 -2.864569264710830065e-01
7.738299999999999734e+00 2.152100000000000080e+01 -5.503099999999999881e+01 -8.178174000000000277e+00 -3.964476724208196301e-01
7.738299999999999734e+00 4.567000000000000171e+01 -7.014400000000000546e+01 -4.151653999999999733e+00 -1.283580797080894342e-01
7.738299999999999734e+00 4.718999999999999773e+01 -7.014400000000000546e+01 -8.298914999999999154e+00 -1.232602915043089775e-01
7.740099999999999980e+00 3.693299999999999983e+01 -6.595099999999999341e+01 2.115396000000000054e+00 -3.200222703817184183e-03
7.741999999999999993e+00 3.511599999999999966e+01 -7.073799999999999955e+01 -1.452012000000000036e+01 -3.013858828476264143e-02
7.750899999999999679e+00 3.003999999999999915e+01 -4.743599999999999994e+01 -4.021363000000000198e+01 -2.852241347541035199e-01
7.753099999999999881e+00 4.184700000000000131e+01 -4.891199999999999903e+01 -1.673707999999999885e+01 -2.833063877960139143e-01
7.765100000000000335e+00 2.804700000000000060e+01 -7.489000000000000057e+01 -9.247704000000000590e+00 -3.033084373751577731e-02
7.765100000000000335e+00 3.070499999999999829e+01 -7.906399999999999295e+01 -7.841555999999999749e+00 3.464365446230210921e-02
7.770299999999999763e+00 3.912899999999999778e+01 -6.326100000000000279e+01 -2.007681999999999967e+00 -2.610700494816141082e-01
7.770299999999999763e+00 4.052900000000000347e+01 -6.326100000000000279e+01 -9.771564999999999834e-01 -2.586629435715811498e-01
7.772100000000000009e+00 2.312699999999999889e+01 -6.718899999999999295e+01 -2.584440000000000026e+01 -1.559806922643519264e-02
7.778200000000000003e+00 2.701500000000000057e+01 -4.835399999999999920e+01 -8.111212999999999340e+00 -2.858919130417204024e-01
7.783400000000000318e+00 4.572200000000000131e+01 -6.320300000000000296e+01 5.275057000000000329e+01 1.154887822388030172e-01
7.784299999999999997e+00 1.729200000000000159e+01 -6.738299999999999557e+01 -8.808028000000000191e+00 -1.441946350307122572e-02
7.786900000000000155e+00 2.868900000000000006e+01 -4.571000000000000085e+01 3.460434000000000054e+01 -2.857734336211689707e-01
7.797100000000000364e+00 2.064600000000000080e+01 -6.743600000000000705e+01 -1.796201999999999899e+01 -1.528296485195933599e-02
7.799999999999999822e+00 2.679799999999999827e+01 -7.284099999999999397e+01 -1.362715999999999994e+01 -2.561279399243395274e-02
7.806899999999999729e+00 4.080599999999999739e+01 -4.833299999999999841e+01 6.935826999999999742e+00 -2.832639940098314324e-01
7.807699999999999640e+00 3.266299999999999670e+01 -4.828300000000000125e+01 5.103940000000000143e-01 -2.844363662813392812e-01
7.814300000000000246e+00 4.336599999999999966e+01 -4.900999999999999801e+01 -2.161762999999999835e+01 -2.846270941645604458e-01
7.818399999999999572e+00 2.215200000000000102e+01 -5.418900000000000006e+01 -7.463683999999999763e+00 -3.963301678688654350e-01
7.818399999999999572e+00 2.731200000000000117e+01 -4.747699999999999676e+01 -1.598855999999999966e+01 -2.858906304668113463e-01
7.818999999999999950e+00 2.353900000000000148e+01 -5.421300000000000097e+01 1.767611000000000132e+01 -3.963226721271340125e-01
7.827099999999999724e+00 2.736100000000000065e+01 -4.647200000000000131e+01 -7.093906999999999741e+00 -2.859732081980500551e-01
7.828000000000000291e+00 1.703000000000000114e+01 -6.162100000000000222e+01 -2.400493000000000166e+01 -1.028978670752441274e-02
7.834999999999999964e+00 2.210000000000000142e+01 -4.900300000000000011e+01 -4.059568999999999761e+00 -2.880397172376080728e-01
7.834999999999999964e+00 2.364999999999999858e+01 -4.900300000000000011e+01 -1.154481999999999964e+01 -2.873962888651820924e-01
7.839000000000000412e+00 1.604599999999999937e+01 -6.168599999999999994e+01 -9.731436999999999671e+00 -1.035982668810095375e-02
7.843899999999999650e+00 3.824099999999999966e+01 -7.085299999999999443e+01 -2.620134000000000185e+00 -3.216521046940530593e-02
7.845699999999999896e+00 3.837299999999999756e+01 -6.361999999999999744e+01 -2.998845999999999901e+00 -2.632572690428156004e-01
7.850600000000000023e+00 3.772399999999999665e+01 -7.062199999999999989e+01 -6.345113999999999699e+00 -3.020907798650977402e-02
7.854099999999999859e+00 4.235099999999999909e+01 -6.413299999999999557e+01 -1.295468999999999982e+00 -7.995451008167385465e-02
7.858900000000000219e+00 3.920799999999999841e+01 -4.771999999999999886e+01 -2.689831999999999779e-01 -2.833826008600640600e-01
7.869900000000000340e+00 4.457300000000000040e+01 -6.151500000000000057e+01 7.789926999999999602e+00 1.109093455592800731e-01
7.869900000000000340e+00 4.478199999999999648e+01 -6.225099999999999767e+01 9.533049999999999358e+00 1.305822371919376224e-01
7.869900000000000340e+00 4.478199999999999648e+01 -6.077900000000000347e+01 8.404194000000000386e+00 -1.724855172923957236e-01
7.871599999999999930e+00 3.877400000000000091e+01 -7.167199999999999704e+01 -3.323891999999999847e+00 -4.207805552709222019e-02
7.876699999999999591e+00 3.556600000000000250e+01 -6.993399999999999750e+01 -1.244232000000000049e+01 -2.575253005802990991e-02
7.877200000000000202e+00 2.384299999999999997e+01 -5.351299999999999812e+01 -7.020437999999999956e-01 -3.962102737427072863e-01
7.880600000000000271e+00 4.116299999999999670e+01 -6.333800000000000097e+01 -9.460982000000000003e-01 -7.654423819229411174e-02
7.883300000000000196e+00 2.883299999999999841e+01 -7.744499999999999318e+01 -6.485635000000000261e+00 3.752583809375859697e-02
7.895699999999999719e+00 2.330799999999999983e+01 -5.206600000000000250e+01 -8.107844000000000051e+00 -3.959990292599276929e-01
7.898200000000000109e+00 2.722899999999999920e+01 -7.379900000000000659e+01 -1.056306000000000012e+01 -2.758461658521881368e-02
7.898500000000000298e+00 1.399200000000000088e+01 -6.491599999999999682e+01 -3.424046000000000145e+00 -1.223398599697144047e-02
7.900800000000000267e+00 3.260699999999999932e+01 -7.861299999999999955e+01 -6.921109999999999651e+00 3.057124414718788083e-02
7.903900000000000148e+00 1.566499999999999915e+01 -6.656300000000000239e+01 -2.996583000000000219e+00 -1.351837384162336494e-02
7.920099999999999696e+00 1.427299999999999969e+01 -6.579699999999999704e+01 -2.929644000000000137e+00 -1.279817029557045460e-02
7.922699999999999854e+00 4.410999999999999943e+01 -6.842900000000000205e+01 -8.570727000000000206e-01 -1.510507237819937176e-01
7.923000000000000043e+00 2.053699999999999903e+01 -5.421800000000000352e+01 -8.507540999999999798e+00 -3.963529572550238411e-01
7.936099999999999710e+00 2.968900000000000006e+01 -7.882899999999999352e+01 -6.536486000000000018e+00 3.628166989646008228e-02
7.949099999999999611e+00 4.468299999999999983e+01 -5.184700000000000131e+01 5.653582000000000107e+00 -2.836592755228123375e-01
7.953999999999999737e+00 2.110200000000000031e+01 -5.025699999999999790e+01 -6.920250000000000234e+00 -2.886817487687154404e-01
7.953999999999999737e+00 2.361100000000000065e+01 -5.276599999999999824e+01 -6.516291999999999973e+00 -3.961020757243067236e-01
7.956400000000000361e+00 3.595600000000000307e+01 -7.068000000000000682e+01 -9.093754999999999811e+00 -3.059642992306915027e-02
7.960200000000000387e+00 2.853500000000000014e+01 -7.655599999999999739e+01 -8.079582000000000264e+00 -3.328245983416103920e-02
7.961800000000000210e+00 3.692600000000000193e+01 -7.062199999999999989e+01 -8.405392000000000863e+00 -3.054123493977104614e-02
7.961999999999999744e+00 3.735900000000000176e+01 -7.546800000000000352e+01 -6.925690999999999597e+00 1.084837630695054123e-02
7.974000000000000199e+00 1.434600000000000009e+01 -6.410099999999999909e+01 -1.372921000000000058e+00 -1.179759507709436661e-02
7.974700000000000344e+00 4.444100000000000250e+01 -5.391199999999999903e+01 -4.404430999999999763e+00 1.685144408112567230e-02
7.980000000000000426e+00 2.412999999999999901e+01 -5.228699999999999903e+01 -5.226334999999999731e+00 -3.960140731938003311e-01
7.982899999999999885e+00 1.490900000000000070e+01 -6.347999999999999687e+01 -6.368251999999999802e-01 -1.146732533563300793e-02
7.984200000000000408e+00 2.099200000000000088e+01 -5.904299999999999926e+01 -5.608558000000000376e+00 -1.616615630194095585e-02
7.986299999999999955e+00 2.086599999999999966e+01 -5.497800000000000153e+01 -8.346484000000000236e+00 -3.964555742870052857e-01
7.986299999999999955e+00 2.086599999999999966e+01 -5.345799999999999841e+01 -8.609228999999999132e+00 -3.962545210076010571e-01
7.986299999999999955e+00 2.180600000000000094e+01 -5.345799999999999841e+01 -8.909214999999999662e+00 -3.962413152437744279e-01
7.986299999999999955e+00 2.267099999999999937e+01 -5.205799999999999983e+01 -8.172261000000000664e+00 -3.960244062191847769e-01
7.986900000000000333e+00 3.595700000000000074e+01 -6.801500000000000057e+01 -5.602665000000000006e+00 -1.488284394384485274e-02
7.986900000000000333e+00 3.595700000000000074e+01 -6.506300000000000239e+01 -1.142529000000000039e+01 -3.493094080781963991e-03
7.986900000000000333e+00 3.595700000000000074e+01 -6.366299999999999670e+01 -2.725565999999999889e+01 -7.673488195204492500e-05
7.986900000000000333e+00 3.682300000000000040e+01 -6.506300000000000239e+01 -2.372843000000000035e+00 -9.955771923621709908e-04
7.986900000000000333e+00 3.682300000000000040e+01 -6.366299999999999670e+01 -1.357343000000000011e+01 2.333052731090877463e-03
7.988000000000000433e+00 4.421500000000000341e+01 -5.671399999999999864e+01 -1.971282000000000068e+01 -1.407964055523062419e-01
7.999100000000000321e+00 3.775800000000000267e+01 -7.377400000000000091e+01 -9.859144000000000574e+00 -6.158346608634427538e-02
8.006899999999999906e+00 3.578099999999999881e+01 -4.910000000000000142e+01 -6.492836999999999748e+00 -2.835395514154249730e-01
8.006999999999999673e+00 3.873400000000000176e+01 -7.269499999999999318e+01 -5.652334999999999887e+00 -5.592204036564547842e-02
8.008300000000000196e+00 4.621000000000000085e+01 -6.398499999999999943e+01 6.371481000000000172e+00 3.679450907119596881e-01
8.011699999999999378e+00 2.526999999999999957e+01 -6.813700000000000045e+01 -1.448399000000000036e+01 -1.744427448899388625e-02
8.022399999999999309e+00 2.944000000000000128e+01 -4.564900000000000091e+01 1.936512000000000011e+00 -2.856862308152937624e-01
8.024699999999999278e+00 3.689999999999999858e+01 -6.793600000000000705e+01 -3.745468999999999937e+00 -1.237409255451040434e-02
8.025600000000000733e+00 2.130099999999999838e+01 -5.563199999999999790e+01 -9.742255000000000109e+00 -3.965482552836970820e-01
8.032500000000000639e+00 2.847899999999999920e+01 -7.559000000000000341e+01 -1.852526999999999902e+01 -3.208905183203848710e-02
8.045199999999999463e+00 3.565400000000000347e+01 -6.871500000000000341e+01 -1.337968000000000046e+01 -1.898609789322559804e-02
8.045199999999999463e+00 3.565400000000000347e+01 -6.436299999999999955e+01 -3.592061999999999955e+01 -2.463303457815689892e-03
8.045199999999999463e+00 3.712599999999999767e+01 -6.436299999999999955e+01 -6.413007999999999598e+00 1.730052445509013947e-03
8.046200000000000685e+00 3.036400000000000077e+01 -4.588799999999999812e+01 -1.807638000000000034e+01 -2.854623349346823158e-01
8.057299999999999685e+00 3.745499999999999829e+01 -7.447400000000000375e+01 -9.113165000000000404e+00 -6.451395250655564406e-02
8.074899999999999523e+00 3.353099999999999881e+01 -4.856600000000000250e+01 -7.250242000000000075e+00 -2.842718637543025229e-01
8.081500000000000128e+00 3.661599999999999966e+01 -4.935900000000000176e+01 -1.834723999999999933e+01 -2.833277630907778954e-01
8.081500000000000128e+00 3.780700000000000216e+01 -4.869500000000000028e+01 -2.227263999999999911e+01 -2.832649819041714312e-01
8.086299999999999599e+00 2.310699999999999932e+01 -5.351299999999999812e+01 -1.499042999999999992e+01 -3.962375534841827696e-01
8.089700000000000557e+00 1.479100000000000037e+01 -6.626300000000000523e+01 8.058112000000000608e-02 -1.318639165241031544e-02
8.090199999999999392e+00 1.850499999999999901e+01 -6.140999999999999659e+01 -4.483086999999999733e+01 -1.009209331891447632e-02
8.090700000000000003e+00 4.412800000000000011e+01 -5.557500000000000284e+01 -5.595689000000000135e+00 -3.017096733548599828e-03
8.090700000000000003e+00 4.412800000000000011e+01 -5.470900000000000318e+01 -4.240326999999999735e+00 6.412661006500008920e-03
8.093999999999999417e+00 4.329099999999999682e+01 -6.628600000000000136e+01 1.996991999999999934e-01 -1.591706676507869400e-01
8.093999999999999417e+00 4.329099999999999682e+01 -6.542100000000000648e+01 3.420205000000000051e-01 -1.606998396399260676e-01
8.096999999999999531e+00 2.260300000000000153e+01 -5.345900000000000318e+01 -2.428387000000000029e+01 -3.962375328809040198e-01
8.102700000000000458e+00 2.503500000000000014e+01 -4.931499999999999773e+01 2.391520999999999830e+01 -2.866676074682766862e-01
8.108900000000000219e+00 1.901000000000000156e+01 -6.067600000000000193e+01 -1.685022999999999982e+01 -8.653651544500600909e-03
8.110699999999999577e+00 3.384300000000000352e+01 -7.943999999999999773e+01 -5.356342999999999854e+00 2.819177187554395420e-02
8.110699999999999577e+00 3.489300000000000068e+01 -7.943999999999999773e+01 -3.896840000000000082e+00 2.532874465625272603e-02
8.116300000000000736e+00 2.792899999999999849e+01 -4.577300000000000324e+01 -6.103387999999999813e+00 -2.859999702982161107e-01
8.118000000000000327e+00 3.729099999999999682e+01 -6.992199999999999704e+01 -1.949202000000000012e+01 -2.484709063236269916e-02
8.119899999999999451e+00 1.952700000000000102e+01 -5.988300000000000267e+01 -9.599118999999999957e+00 -2.007765472923873223e-02
8.126400000000000290e+00 1.795499999999999829e+01 -6.770399999999999352e+01 -1.511585000000000001e+01 -1.486949083853611984e-02
8.141700000000000159e+00 2.144200000000000017e+01 -4.951899999999999835e+01 -7.613774000000000264e+00 -2.882733141375993791e-01
8.142899999999999139e+00 3.885999999999999943e+01 -7.096999999999999886e+01 -3.064954000000000178e+00 -3.321928235956284059e-02
8.146800000000000708e+00 2.593700000000000117e+01 -6.983799999999999386e+01 -8.438727999999999341e+00 -2.032619748859804121e-02
8.148999999999999133e+00 3.542699999999999960e+01 -7.935899999999999466e+01 -4.378910000000000302e+00 2.359107308423954649e-02
8.149699999999999278e+00 4.141400000000000148e+01 -4.842099999999999937e+01 -1.079316000000000031e+01 -2.838075833465106834e-01
8.150000000000000355e+00 4.025000000000000000e+01 -4.767999999999999972e+01 1.014660999999999973e+02 -2.837956706497001269e-01
8.154999999999999361e+00 3.726700000000000301e+01 -6.706399999999999295e+01 7.386108000000000118e+00 -7.004685887336670365e-03
8.154999999999999361e+00 3.726700000000000301e+01 -6.601399999999999579e+01 1.296270999999999951e+01 -2.713670519136849018e-03
8.157400000000000873e+00 1.755099999999999838e+01 -6.127000000000000313e+01 -4.605610000000000070e+01 -1.006672695240172152e-02
8.163100000000000023e+00 2.287500000000000000e+01 -5.276599999999999824e+01 -1.309005999999999936e+01 -3.961350698663495540e-01
8.164899999999999380e+00 3.213799999999999812e+01 -4.765699999999999648e+01 -8.340210000000000790e+00 -2.848090089812446712e-01
8.166399999999999437e+00 1.918400000000000105e+01 -6.739900000000000091e+01 -1.172488000000000063e+01 -1.494090232838591117e-02
8.170700000000000074e+00 2.643599999999999994e+01 -4.889099999999999824e+01 -1.598873999999999995e+01 -2.860888013438124822e-01
8.177699999999999747e+00 4.507099999999999795e+01 -5.801899999999999835e+01 1.156465000000000076e+00 -1.625406619905840067e-01
8.183500000000000441e+00 3.073999999999999844e+01 -4.770300000000000296e+01 -2.549473000000000056e+01 -2.851534513569166096e-01
8.191900000000000404e+00 2.127700000000000102e+01 -5.269100000000000250e+01 -1.744159000000000148e+01 -3.961600699628745059e-01
8.191900000000000404e+00 2.127700000000000102e+01 -5.129099999999999682e+01 -1.096615000000000073e+01 -3.959792966218795840e-01
8.199299999999999145e+00 3.446200000000000330e+01 -4.859599999999999653e+01 -3.793496000000000201e+00 -2.840823053913976159e-01
8.202999999999999403e+00 3.982900000000000063e+01 -6.299399999999999977e+01 -4.065227000000000146e-01 -2.589961383950720175e-01
8.204800000000000537e+00 2.242699999999999960e+01 -6.745699999999999363e+01 -1.402101000000000042e+01 -1.582050474227843923e-02
8.204800000000000537e+00 2.382700000000000173e+01 -6.745699999999999363e+01 -1.965125000000000099e+01 -1.616798952660274125e-02
8.208000000000000185e+00 4.642999999999999972e+01 -7.043399999999999750e+01 -4.164908999999999750e+00 -1.528078520615949176e-01
8.208000000000000185e+00 4.751400000000000290e+01 -6.737900000000000489e+01 -9.779731999999999204e+00 -2.542816989372815861e-01
8.208000000000000185e+00 4.772299999999999898e+01 -6.971299999999999386e+01 -2.347660000000000124e+01 -2.448092500230465429e-01
8.208000000000000185e+00 4.772299999999999898e+01 -6.811499999999999488e+01 -2.820580999999999960e+01 -2.518451368714298422e-01
8.208000000000000185e+00 4.795000000000000284e+01 -6.891400000000000148e+01 -1.194112999999999936e+01 -2.482262570569197524e-01
8.214100000000000179e+00 4.515200000000000102e+01 -5.266599999999999682e+01 -7.800741999999999621e+00 -2.796123578636538487e-01
8.220000000000000639e+00 3.694200000000000017e+01 -7.924299999999999500e+01 -4.282284999999999897e+00 1.807869003965272350e-02
8.220000000000000639e+00 3.838799999999999812e+01 -7.843699999999999761e+01 -4.257551999999999559e+00 8.628694987176832587e-03
8.220000000000000639e+00 3.838799999999999812e+01 -7.664900000000000091e+01 -4.395237999999999978e+00 3.132042428309286721e-03
8.220000000000000639e+00 3.864200000000000301e+01 -7.754300000000000637e+01 -3.020178000000000029e-01 3.457672475251547060e-03
8.221999999999999531e+00 4.517199999999999704e+01 -5.883899999999999864e+01 1.590639999999999965e+01 -1.714904105005480850e-01
8.222099999999999298e+00 4.260600000000000165e+01 -4.862199999999999989e+01 -4.376400000000000290e+01 -4.330338904373369213e-01
8.229100000000000747e+00 3.649300000000000210e+01 -6.992199999999999704e+01 -1.767402999999999835e+01 -2.566580515244849467e-02
8.232699999999999463e+00 3.830799999999999983e+01 -6.999200000000000443e+01 -9.069490000000000052e+00 -2.370309048618583422e-02
8.241799999999999571e+00 3.043700000000000117e+01 -4.700300000000000011e+01 -2.293297000000000097e+01 -2.853348268708777447e-01
8.242000000000000881e+00 4.530700000000000216e+01 -5.985799999999999699e+01 8.524067999999999756e+00 -1.796134960273490233e-01
8.250199999999999534e+00 2.158099999999999952e+01 -5.199099999999999966e+01 -8.992148000000000252e+00 -3.960646159035299263e-01
8.250199999999999534e+00 4.423700000000000188e+01 -5.022999999999999687e+01 -2.269162999999999997e+01 -2.818905251367740949e-01
8.253700000000000259e+00 2.223799999999999955e+01 -5.275800000000000267e+01 -1.801410999999999873e+01 -3.961539383525449209e-01
8.254300000000000637e+00 3.639000000000000057e+01 -6.871500000000000341e+01 -9.113184999999999647e+00 -1.811467220710780840e-02
8.254300000000000637e+00 3.639000000000000057e+01 -6.436299999999999955e+01 -1.233591999999999977e+01 -6.840866089712936216e-04
8.260899999999999466e+00 3.681700000000000017e+01 -6.915399999999999636e+01 -1.154397999999999946e+01 -2.012333437268442812e-02
8.274699999999999278e+00 4.499499999999999744e+01 -6.973399999999999466e+01 -4.652662000000000297e+00 -1.365048862109766725e-01
8.278299999999999770e+00 3.767300000000000182e+01 -6.388799999999999812e+01 -5.974867999999999846e+00 4.365956183777141772e-03
8.278999999999999915e+00 2.570299999999999940e+01 -6.883700000000000330e+01 -1.061522000000000077e+01 -1.870096988423455495e-02
8.283300000000000551e+00 3.023499999999999943e+01 -7.948000000000000398e+01 -6.650991000000000319e+00 3.561011736022254293e-02
8.283300000000000551e+00 3.117500000000000071e+01 -7.948000000000000398e+01 -6.877411999999999637e+00 3.399878996097945028e-02
8.284000000000000696e+00 4.389900000000000091e+01 -4.944100000000000250e+01 -1.767796999999999841e+01 -2.825504067009518283e-01
8.292999999999999261e+00 2.173400000000000176e+01 -5.633200000000000074e+01 -1.537876999999999938e+00 -3.966671781266594699e-01
8.302699999999999747e+00 4.663499999999999801e+01 -6.470900000000000318e+01 1.023963000000000001e+01 3.663086148401800135e-01
8.314000000000000057e+00 2.287500000000000000e+01 -4.870700000000000074e+01 -3.266369999999999862e+01 -2.874078572624498840e-01
8.331699999999999662e+00 3.820900000000000318e+01 -7.354500000000000171e+01 -6.481597999999999971e+00 -6.260031674973824678e-02
8.332000000000000739e+00 2.031800000000000139e+01 -6.684999999999999432e+01 -1.552849999999999930e+01 -1.473720713498676525e-02
8.334699999999999775e+00 4.157399999999999807e+01 -6.386399999999999721e+01 -9.904357999999999773e-01 -2.588678290736108334e-01
8.353600000000000136e+00 1.650499999999999901e+01 -6.104999999999999716e+01 -1.170049000000000028e+01 -9.998106850569375009e-03
8.357599999999999696e+00 1.807300000000000040e+01 -6.071000000000000085e+01 -2.445870000000000033e+01 -9.234765308063847683e-03
8.361299999999999955e+00 4.433800000000000097e+01 -5.109799999999999898e+01 -1.001094999999999935e+01 -2.805392643360995475e-01
8.368999999999999773e+00 3.490599999999999881e+01 -4.541199999999999903e+01 -7.664114999999999789e+00 -2.848773949146515272e-01
8.374299999999999855e+00 2.595299999999999940e+01 -7.154200000000000159e+01 -9.792740999999999474e+00 -2.296027921424235313e-02
8.374299999999999855e+00 2.595299999999999940e+01 -7.061100000000000421e+01 -6.173150999999999833e+00 -2.156943004366885033e-02
8.374499999999999389e+00 3.110900000000000176e+01 -4.588799999999999812e+01 -1.180832999999999977e+01 -2.854107607842503169e-01
8.378000000000000114e+00 3.928099999999999881e+01 -4.743500000000000227e+01 -3.743113000000000135e+00 -2.839482062870661849e-01
8.380000000000000782e+00 2.035099999999999909e+01 -5.072200000000000131e+01 -7.795010000000000439e+00 -3.959529419543805773e-01
8.392699999999999605e+00 4.494200000000000017e+01 -5.708800000000000097e+01 -4.030681000000000402e+00 -1.539990840698099994e-01
8.393000000000000682e+00 4.536399999999999721e+01 -6.270900000000000318e+01 1.542740000000000045e+01 3.729969084360801324e-01
8.393599999999999284e+00 2.441499999999999915e+01 -6.811799999999999500e+01 -1.534008000000000038e+01 -1.722486706516579077e-02
8.394800000000000040e+00 2.148000000000000043e+01 -6.732099999999999795e+01 -1.314568000000000048e+01 -1.546970018986327730e-02
8.407400000000000873e+00 4.514099999999999824e+01 -5.364500000000000313e+01 -4.236593000000000053e+00 2.351120572325748545e-02
8.408300000000000551e+00 3.776100000000000279e+01 -6.916200000000000614e+01 -7.780517999999999823e+00 -1.828064629348580619e-02
8.414899999999999380e+00 3.920600000000000307e+01 -7.225400000000000489e+01 -4.395597999999999672e+00 -5.138727902830200062e-02
8.415499999999999758e+00 1.540000000000000036e+01 -6.308400000000000318e+01 -7.089184999999999626e+00 -1.129415643257739715e-02
8.415499999999999758e+00 1.560899999999999999e+01 -6.234799999999999898e+01 -1.242187999999999981e+01 -1.083891521254433735e-02
8.439000000000000057e+00 2.981500000000000128e+01 -4.511299999999999955e+01 -1.225028999999999968e+01 -2.858124675278927995e-01
8.439000000000000057e+00 3.077299999999999969e+01 -4.511299999999999955e+01 -9.344319999999999737e+00 -2.856379695161953558e-01
8.443300000000000693e+00 2.067999999999999972e+01 -5.148199999999999932e+01 -8.541909999999999670e+00 -3.960374153667550190e-01
8.443300000000000693e+00 2.067999999999999972e+01 -4.996200000000000330e+01 -7.233895999999999660e+00 -2.885157076946257559e-01
8.446899999999999409e+00 1.624699999999999989e+01 -6.689000000000000057e+01 -7.930729000000000362e+00 -1.391411880603939631e-02
8.448000000000000398e+00 4.351400000000000290e+01 -6.794799999999999329e+01 7.852721000000000284e-01 -1.531317019746641916e-01
8.450900000000000745e+00 3.117299999999999827e+01 -4.700300000000000011e+01 -1.446299999999999919e+01 -2.852375397166823090e-01
8.451200000000000045e+00 2.162399999999999878e+01 -5.734499999999999886e+01 -7.596715999999999802e+00 -3.968164544628949852e-01
8.455999999999999517e+00 2.010600000000000165e+01 -5.468800000000000239e+01 -8.755278999999999812e+00 -3.964457030743068211e-01
8.455999999999999517e+00 2.010600000000000165e+01 -5.374799999999999756e+01 -8.764220999999999151e+00 -3.963283018379697431e-01
8.464299999999999713e+00 4.737800000000000011e+01 -6.553900000000000148e+01 2.169875999999999916e+00 1.578920276402442091e-01
8.468899999999999650e+00 4.740999999999999659e+01 -6.659900000000000375e+01 6.063741000000000270e+00 2.911636721365042438e-02
8.478999999999999204e+00 3.819599999999999795e+01 -4.805299999999999727e+01 -9.311334999999999695e+00 -2.837498243108646512e-01
8.483399999999999608e+00 4.566299999999999670e+01 -6.350699999999999790e+01 1.056853000000000087e+01 3.706589610224426123e-01
8.484799999999999898e+00 4.091299999999999670e+01 -4.770300000000000296e+01 -1.245171999999999990e+01 -4.322574658485537347e-01
8.485200000000000742e+00 3.211299999999999955e+01 -7.920900000000000318e+01 -1.559592999999999918e+01 3.206813861368813801e-02
8.485200000000000742e+00 3.297800000000000153e+01 -7.920900000000000318e+01 -8.055638000000000076e+00 3.017045087183108792e-02
8.493000000000000327e+00 2.634499999999999886e+01 -7.237600000000000477e+01 -1.142700999999999922e+01 -2.457555649224724137e-02
8.494500000000000384e+00 4.483299999999999841e+01 -5.439300000000000068e+01 3.596166000000000085e-01 1.356273451039071744e-02
8.500000000000000000e+00 2.673999999999999844e+01 -7.314400000000000546e+01 -1.509173999999999971e+01 -2.613326708835628925e-02
8.501099999999999213e+00 4.471999999999999886e+01 -5.606199999999999761e+01 -2.257918999999999787e+00 -8.946508935179935812e-03
8.501599999999999824e+00 2.098400000000000176e+01 -5.218200000000000216e+01 -1.494801999999999964e+01 -3.961206173181510137e-01
8.503899999999999793e+00 4.562100000000000222e+01 -5.342499999999999716e+01 -6.770097999999999949e+00 -2.746311088714933346e-01
8.508200000000000429e+00 2.312699999999999889e+01 -6.739799999999999613e+01 -1.754773000000000138e+01 -1.597811586150110069e-02
8.514099999999999113e+00 3.591599999999999682e+01 -4.909100000000000108e+01 -1.951619000000000170e+01 -2.838257359398586588e-01
8.514099999999999113e+00 3.731600000000000250e+01 -4.909100000000000108e+01 -2.370138999999999996e+01 -2.835592482564849304e-01
8.518100000000000449e+00 3.536200000000000188e+01 -4.854200000000000159e+01 -1.058885000000000076e+01 -2.840536544266553109e-01
8.524100000000000676e+00 2.868900000000000006e+01 -4.538499999999999801e+01 -1.319968000000000075e+01 -2.860024237568417060e-01
8.529799999999999827e+00 4.055799999999999983e+01 -4.696900000000000119e+01 -1.728798000000000101e+01 -4.319332770503782615e-01
8.530599999999999739e+00 2.691799999999999926e+01 -4.823599999999999710e+01 -5.497099999999999653e+00 -2.860925786621026923e-01
8.530599999999999739e+00 2.712699999999999889e+01 -4.750000000000000000e+01 -4.164727000000000068e+00 -2.860938461582881454e-01
8.533699999999999619e+00 3.298400000000000176e+01 -4.767499999999999716e+01 -1.019767000000000046e+01 -2.847543917349905085e-01
8.535299999999999443e+00 2.573499999999999943e+01 -4.904699999999999704e+01 -1.636690000000000111e+01 -2.863159471839752390e-01
8.537699999999999179e+00 1.731400000000000006e+01 -6.058400000000000318e+01 -2.315080000000000027e+01 -9.302403395423916588e-03
8.538999999999999702e+00 4.588900000000000290e+01 -5.266599999999999682e+01 -1.721576999999999913e+01 -2.722908010532467116e-01
8.538999999999999702e+00 1.598799999999999955e+01 -6.138300000000000267e+01 -9.651455000000000339e+00 -1.024556494942050790e-02
8.543400000000000105e+00 3.618500000000000227e+01 -7.934600000000000364e+01 -4.788076000000000221e+00 2.128101391764879863e-02
8.558699999999999974e+00 2.057000000000000028e+01 -5.290800000000000125e+01 -1.207959999999999923e+01 -3.962238712490800951e-01
8.569900000000000517e+00 4.484100000000000108e+01 -6.194700000000000273e+01 1.127084999999999937e+01 9.021922471895385542e-02
8.569900000000000517e+00 4.484100000000000108e+01 -6.108200000000000074e+01 1.070518999999999998e+01 9.146007186796169253e-02
8.574400000000000688e+00 2.747700000000000031e+01 -7.451900000000000546e+01 -1.200967999999999947e+01 -2.907136804833842375e-02
8.581599999999999895e+00 4.452499999999999858e+01 -5.514200000000000301e+01 -1.260547000000000084e+00 1.883818206273125961e-03
8.582000000000000739e+00 2.783299999999999841e+01 -7.525100000000000477e+01 -1.717083999999999833e+01 -3.059525404508901467e-02
8.586000000000000298e+00 2.716900000000000048e+01 -4.700300000000000011e+01 -6.068261999999999823e+00 -2.861367922635600358e-01
8.586000000000000298e+00 2.739600000000000080e+01 -4.620400000000000063e+01 -1.651683999999999841e+01 -2.861661488786925722e-01
8.587699999999999889e+00 2.007900000000000063e+01 -5.906600000000000250e+01 -1.298005999999999993e+00 -1.708133655812892407e-02
8.592299999999999827e+00 3.436800000000000210e+01 -8.003600000000000136e+01 -5.265056000000000402e+00 2.776558429087257890e-02
8.595900000000000318e+00 3.402900000000000347e+01 -4.810499999999999687e+01 -1.259124000000000088e+01 -2.844720247703872440e-01
8.596000000000000085e+00 3.410699999999999932e+01 -4.541199999999999903e+01 -4.360750000000000348e+00 -2.850803702022532415e-01
8.596000000000000085e+00 3.570499999999999829e+01 -4.541199999999999903e+01 -1.871515000000000128e+01 -4.311816351351869803e-01
8.598300000000000054e+00 1.707400000000000162e+01 -6.773600000000000421e+01 -8.204012999999999778e+00 -1.471843109389673644e-02
8.598300000000000054e+00 1.859400000000000119e+01 -6.773600000000000421e+01 -1.036550000000000082e+01 -1.512126658818416583e-02
8.602299999999999613e+00 4.556000000000000227e+01 -5.190599999999999881e+01 -1.918819999999999837e+01 -2.734070828707921841e-01
8.609400000000000830e+00 2.130499999999999972e+01 -5.822899999999999920e+01 -1.245265000000000022e+01 -2.734249199341457492e-01
8.618700000000000472e+00 4.217300000000000182e+01 -4.813100000000000023e+01 -1.852789999999999893e+01 -4.326744405941401750e-01
8.621700000000000585e+00 3.739999999999999858e+01 -6.834499999999999886e+01 -1.964218999999999937e+01 -1.394838408147297017e-02
8.621700000000000585e+00 3.739999999999999858e+01 -6.748000000000000398e+01 1.693208000000000046e+00 -9.087337022370299208e-03
8.635400000000000631e+00 1.961799999999999855e+01 -6.690900000000000603e+01 -1.499776999999999916e+01 -1.467978804898171195e-02
8.635400000000000631e+00 2.101800000000000068e+01 -6.690900000000000603e+01 -1.275210000000000043e+01 -1.498463056317181699e-02
8.635600000000000165e+00 3.912899999999999778e+01 -6.326100000000000279e+01 5.664970999999999757e-01 -2.609371418175799873e-01
8.635600000000000165e+00 4.052900000000000347e+01 -6.326100000000000279e+01 3.246113999999999944e-01 -1.048727933926219824e-01
8.637199999999999989e+00 4.284700000000000131e+01 -6.584999999999999432e+01 -1.041524999999999951e-01 -1.592148078573165093e-01
8.645400000000000418e+00 1.867599999999999838e+01 -5.992300000000000182e+01 -1.069889000000000046e+01 -2.071728556580756941e-02
8.653200000000000003e+00 2.049299999999999855e+01 -5.551500000000000057e+01 -9.331739999999999924e+00 -3.965635095124010467e-01
8.659299999999999997e+00 1.641100000000000136e+01 -6.065899999999999892e+01 -1.230434999999999945e+01 -9.762673868694594914e-03
8.659299999999999997e+00 3.357099999999999795e+01 -4.757200000000000273e+01 -6.969433000000000433e+00 -2.846990042702024493e-01
8.659299999999999997e+00 3.443599999999999994e+01 -4.617199999999999704e+01 -7.021259999999999835e+00 -2.848571284731490350e-01
8.659299999999999997e+00 3.443599999999999994e+01 -4.465200000000000102e+01 -9.407738000000000156e+00 -4.310150590661650516e-01
8.659299999999999997e+00 3.537599999999999767e+01 -4.617199999999999704e+01 -8.737792999999999921e+00 -2.847295811786322850e-01
8.659299999999999997e+00 3.537599999999999767e+01 -4.465200000000000102e+01 -1.629089000000000098e+01 -4.310519991215418512e-01
8.673000000000000043e+00 2.891799999999999926e+01 -7.807899999999999352e+01 -7.055918000000000134e+00 3.743081834112865769e-02
8.676999999999999602e+00 4.557099999999999795e+01 -7.020399999999999352e+01 -5.072822999999999638e+00 -1.665431152986065477e-01
8.679700000000000415e+00 4.724300000000000210e+01 -7.024699999999999989e+01 -1.574635999999999925e+01 -1.576545466417598740e-01
8.682000000000000384e+00 3.881900000000000261e+01 -4.719800000000000040e+01 -8.403988999999999265e+00 -4.318144332076399583e-01
8.688700000000000756e+00 1.403100000000000058e+01 -6.591100000000000136e+01 -3.223059000000000118e+00 -1.290081160747289998e-02
8.689999999999999503e+00 4.295100000000000051e+01 -6.680599999999999739e+01 1.688987000000000016e+00 -1.570212157274251952e-01
8.692999999999999616e+00 3.800000000000000000e+01 -6.391599999999999682e+01 3.946279999999999788e-01 5.044537771455939040e-03
8.702700000000000102e+00 1.365600000000000058e+01 -6.472799999999999443e+01 -1.049528000000000016e+00 -1.215959453312448826e-02
8.711700000000000443e+00 2.500300000000000011e+01 -6.856999999999999318e+01 -1.120743000000000045e+01 -1.810901202203156479e-02
8.713900000000000645e+00 3.070499999999999829e+01 -8.001300000000000523e+01 -6.735202000000000133e+00 3.514655231345929082e-02
8.717900000000000205e+00 3.771800000000000352e+01 -7.539199999999999591e+01 -8.370563000000000642e+00 9.340224347527046472e-03
8.717900000000000205e+00 3.792699999999999960e+01 -7.612800000000000011e+01 -6.698132000000000197e+00 7.289410720842898032e-03
8.722300000000000608e+00 2.539600000000000080e+01 -7.030800000000000693e+01 -3.522737999999999925e+00 -2.080084075115065309e-02
8.722500000000000142e+00 3.733700000000000330e+01 -6.467499999999999716e+01 -1.264863999999999988e+00 1.028868570297534514e-03
8.745300000000000296e+00 3.779200000000000159e+01 -7.891800000000000637e+01 -4.891710999999999920e+00 1.411656253417185869e-02
8.750299999999999301e+00 1.554700000000000060e+01 -6.683100000000000307e+01 -4.748637999999999693e+00 -1.375810788430590660e-02
8.752700000000000813e+00 4.213499999999999801e+01 -6.458499999999999375e+01 5.916798999999999670e-02 -5.523356061310236501e-03
8.754599999999999937e+00 3.190800000000000125e+01 -4.706199999999999761e+01 -1.128304999999999936e+01 -2.851783425593971688e-01
8.769999999999999574e+00 2.530600000000000094e+01 -6.926999999999999602e+01 -5.553861999999999632e+00 -1.925422015213876931e-02
8.771100000000000563e+00 3.957099999999999795e+01 -7.027400000000000091e+01 -9.302554999999999907e+00 -2.307005960620654370e-02
8.772999999999999687e+00 3.957399999999999807e+01 -7.179399999999999693e+01 -6.287233999999999767e+00 -4.454892472531279263e-02
8.774599999999999511e+00 3.971399999999999864e+01 -4.694400000000000261e+01 -8.473062999999999789e+00 -4.318442911455118716e-01
8.781499999999999417e+00 3.774799999999999756e+01 -4.839099999999999824e+01 -1.488959000000000010e+01 -2.838970765039270927e-01
8.783899999999999153e+00 2.133699999999999974e+01 -5.676500000000000057e+01 -7.321155000000000079e+00 -3.967487115561724176e-01
8.787000000000000810e+00 4.521200000000000330e+01 -6.028199999999999648e+01 5.971334999999999837e+00 7.738523030697727623e-02
8.789699999999999847e+00 1.452399999999999913e+01 -6.669599999999999795e+01 -1.767227000000000103e+00 -1.346909337715977185e-02
8.791800000000000281e+00 2.712199999999999989e+01 -7.402100000000000080e+01 -1.091141999999999967e+01 -2.790094362412248730e-02
8.792999999999999261e+00 2.364999999999999858e+01 -4.900300000000000011e+01 -3.469516000000000133e+01 -3.956250016860402008e-01
8.793599999999999639e+00 2.081099999999999994e+01 -5.600399999999999778e+01 -8.505311999999999983e+00 -3.966384392800749170e-01
8.800100000000000477e+00 2.818599999999999994e+01 -7.606499999999999773e+01 -9.571395000000000763e+00 -3.220004246402389386e-02
8.809699999999999420e+00 4.165100000000000335e+01 -4.770300000000000296e+01 -1.211494000000000071e+01 -4.323806682664712575e-01
8.812900000000000844e+00 3.160500000000000043e+01 -4.636200000000000188e+01 -1.726850999999999914e+01 -2.853774516245984327e-01
8.817500000000000782e+00 3.661599999999999966e+01 -4.914999999999999858e+01 -1.991835999999999984e+01 -2.838790240374366447e-01
8.827500000000000568e+00 2.217999999999999972e+01 -6.758799999999999386e+01 -1.479664000000000001e+01 -1.599407492461114161e-02
8.828699999999999548e+00 2.938400000000000034e+01 -7.906699999999999307e+01 -7.137086000000000041e+00 3.688639452630747967e-02
8.835000000000000853e+00 3.989900000000000091e+01 -7.106499999999999773e+01 -5.327866000000000213e+00 -3.260529579710810810e-02
8.841900000000000759e+00 3.161400000000000077e+01 -4.535000000000000142e+01 -1.455219999999999914e+01 -2.855740463233743531e-01
8.848100000000000520e+00 1.490900000000000070e+01 -6.347999999999999687e+01 -7.105248999999999704e+00 -1.155244001743811755e-02
8.851900000000000546e+00 4.535999999999999943e+01 -5.512899999999999778e+01 -1.707351000000000063e+00 6.071168416797566129e-03
8.856999999999999318e+00 3.758899999999999864e+01 -7.480700000000000216e+01 -8.021271999999999736e+00 1.165607001705055643e-02
8.856999999999999318e+00 3.779800000000000182e+01 -7.407099999999999795e+01 -5.168203000000000102e+00 -6.347113978294031955e-02
8.856999999999999318e+00 3.880499999999999972e+01 -7.306399999999999295e+01 -7.026135000000000019e+00 -6.028637650052492969e-02
8.858700000000000685e+00 4.606799999999999784e+01 -6.430200000000000671e+01 4.546732999999999691e+00 3.689988363643088021e-01
8.865299999999999514e+00 2.555600000000000094e+01 -7.104399999999999693e+01 -7.946631000000000000e+00 -2.199136862424618671e-02
8.868000000000000327e+00 4.134700000000000131e+01 -4.700300000000000011e+01 -1.537322999999999951e+01 -4.320437214599008868e-01
8.875000000000000000e+00 4.343699999999999761e+01 -4.893900000000000006e+01 -2.439469000000000065e+01 -2.799569159443923705e-01
8.878099999999999881e+00 3.029400000000000048e+01 -4.456900000000000261e+01 -2.204286000000000101e+01 -2.859492734566265737e-01
8.880499999999999616e+00 1.429400000000000048e+01 -6.400199999999999534e+01 -4.674605999999999817e+00 -1.181988535067397122e-02
8.880599999999999383e+00 3.483500000000000085e+01 -4.806799999999999784e+01 -8.762705000000000410e+00 -2.844569065873608915e-01
8.880599999999999383e+00 3.483500000000000085e+01 -4.666799999999999926e+01 -7.684109000000000300e+00 -2.847756339648853663e-01
8.880599999999999383e+00 4.540599999999999881e+01 -5.680299999999999727e+01 -2.496450999999999976e+00 -2.328340215645591932e-02
8.889300000000000423e+00 4.124900000000000233e+01 -6.385900000000000176e+01 -5.529448000000000141e-01 -1.396467820245191407e-02
8.890100000000000335e+00 3.770799999999999841e+01 -6.653900000000000148e+01 6.404287000000000063e+00 -3.943122944884644779e-03
8.892899999999999139e+00 4.565100000000000335e+01 -5.595700000000000074e+01 -2.055502999999999858e+00 -7.010842182077606233e-03
8.899300000000000210e+00 3.743399999999999750e+01 -6.562699999999999534e+01 8.379908999999999608e+00 -1.576910681298573274e-03
8.904799999999999827e+00 2.269500000000000028e+01 -6.788899999999999579e+01 -1.352857999999999983e+01 -1.648677798985175025e-02
8.904799999999999827e+00 2.355999999999999872e+01 -6.788899999999999579e+01 -1.377951999999999977e+01 -1.674862118104159664e-02
8.905599999999999739e+00 4.544700000000000273e+01 -5.420600000000000307e+01 -3.806773999999999880e+00 1.726071318914260827e-02
8.907999999999999474e+00 2.276899999999999835e+01 -7.210399999999999920e+01 -1.140038999999999980e+01 -2.116498132907869076e-02
8.911199999999999122e+00 2.583099999999999952e+01 -7.194199999999999307e+01 -9.853008000000000877e+00 -2.350623343814893518e-02
8.913000000000000256e+00 1.992000000000000171e+01 -5.119200000000000017e+01 -8.031128999999999962e+00 -3.960531277545374929e-01
8.913000000000000256e+00 1.992000000000000171e+01 -5.025200000000000244e+01 -7.552795999999999843e+00 -3.959472795087862762e-01
8.917899999999999494e+00 2.513200000000000145e+01 -6.984399999999999409e+01 -8.595518000000000214e+00 -2.000641176610164912e-02
8.919399999999999551e+00 1.783500000000000085e+01 -5.993200000000000216e+01 -1.241733999999999938e+01 -2.115523872075861928e-02
8.920700000000000074e+00 2.912199999999999989e+01 -4.489399999999999835e+01 -7.146809000000000189e+00 -2.860995399697651154e-01
8.922000000000000597e+00 4.490500000000000114e+01 -5.840599999999999881e+01 4.576920000000000321e+00 1.213008189745293369e-01
8.922000000000000597e+00 4.511399999999999721e+01 -5.767000000000000171e+01 9.640646000000000493e-01 -1.675617633767331749e-01
8.926700000000000301e+00 3.400399999999999778e+01 -4.687199999999999989e+01 -6.494711999999999819e+00 -2.848811683214079737e-01
8.931300000000000239e+00 4.007800000000000296e+01 -4.624300000000000210e+01 -8.802842000000000056e+00 -4.316670054843041449e-01
8.931300000000000239e+00 4.101800000000000068e+01 -4.624300000000000210e+01 -9.613253999999999522e+00 -4.317342637278522299e-01
8.938900000000000290e+00 3.453199999999999648e+01 -4.736800000000000210e+01 -7.367200000000000415e+00 -2.846877436179499066e-01
8.939000000000000057e+00 3.982900000000000063e+01 -6.320300000000000296e+01 1.129032000000000036e+00 -1.062343459063344736e-01
8.945899999999999963e+00 4.397500000000000142e+01 -6.846899999999999409e+01 5.777598000000000456e-01 4.277823274857865676e-02
8.956599999999999895e+00 3.207000000000000028e+01 -5.491199999999999903e+01 1.988748000000000005e+01 -3.966756269869787799e-01
8.960699999999999221e+00 3.351800000000000068e+01 -7.996500000000000341e+01 -5.720256000000000007e+00 2.982434594505315936e-02
8.960699999999999221e+00 3.521800000000000352e+01 -7.996500000000000341e+01 -4.935266000000000375e+00 2.569859713217159669e-02
8.962999999999999190e+00 2.386400000000000077e+01 -6.858899999999999864e+01 -1.333220999999999989e+01 -1.773319117689623609e-02
8.963200000000000500e+00 2.642699999999999960e+01 -4.863300000000000267e+01 -2.864743999999999957e+01 -2.862789954178479590e-01
8.968199999999999505e+00 4.513799999999999812e+01 -5.129800000000000182e+01 -2.867808000000000135e+01 -2.720129327055287871e-01
8.970599999999999241e+00 3.251100000000000279e+01 -4.715899999999999892e+01 -1.204880999999999958e+01 -2.851231315735174299e-01
8.970599999999999241e+00 3.337599999999999767e+01 -4.715899999999999892e+01 -4.163489000000000217e+00 -2.849552792164344317e-01
8.975400000000000489e+00 4.768099999999999739e+01 -6.823099999999999454e+01 -7.530793000000000070e+00 -2.423839710587332996e-01
8.977600000000000691e+00 2.398100000000000165e+01 -6.914400000000000546e+01 -1.044101000000000035e+01 -1.848772487434311926e-02
8.977999999999999758e+00 3.845000000000000284e+01 -7.698999999999999488e+01 -5.186675000000000146e+00 5.044080326921968060e-03
8.978699999999999903e+00 2.150199999999999889e+01 -4.918299999999999983e+01 -2.743389000000000166e+01 -3.957693877348134048e-01
8.983999999999999986e+00 4.428199999999999648e+01 -4.987500000000000000e+01 -2.175452999999999903e+01 -2.763640096944515734e-01
8.983999999999999986e+00 4.436699999999999733e+01 -6.908499999999999375e+01 -2.113681999999999839e+00 4.891043565550524941e-02
8.983999999999999986e+00 4.739500000000000313e+01 -6.734399999999999409e+01 1.700330999999999904e+01 -2.467484331804776221e-01
8.991199999999999193e+00 4.332500000000000284e+01 -6.763800000000000523e+01 -5.400496999999999659e-01 -1.531831607052210331e-01
8.996399999999999508e+00 3.870000000000000284e+01 -6.385799999999999699e+01 6.614811999999999692e+00 -2.633210087820306855e-01
9.001500000000000057e+00 1.921199999999999974e+01 -5.907999999999999829e+01 -7.913116999999999734e+00 -1.780595538148136217e-02
9.001799999999999358e+00 4.503399999999999892e+01 -5.936399999999999721e+01 8.264471000000000345e+00 9.580349344807076450e-02
9.005000000000000782e+00 2.496000000000000085e+01 -4.919299999999999784e+01 8.216438000000000130e+00 -2.865685937259318528e-01
9.005599999999999383e+00 3.903099999999999881e+01 -6.951200000000000045e+01 -1.979530000000000101e+01 -1.753303352452602326e-02
9.025199999999999889e+00 1.683299999999999841e+01 -6.005100000000000193e+01 -1.929007999999999967e+01 -2.189267815823850785e-02
9.028900000000000148e+00 3.220799999999999841e+01 -4.645900000000000318e+01 -1.632982000000000156e+01 -2.853260925713548835e-01
9.028900000000000148e+00 3.367999999999999972e+01 -4.645900000000000318e+01 -1.005052000000000029e-01 -2.850719036146261987e-01
