-8.212999999999999190e+00 2.129700000000000060e+01 -6.964000000000000057e+01 -2.173638999999999988e-01 -2.676194675104118237e-01
-8.212199999999999278e+00 8.333800000000000097e+00 -4.541700000000000159e+01 -5.171537000000000006e+01 -9.534277443205535496e-02
-8.212199999999999278e+00 8.333800000000000097e+00 -4.401700000000000301e+01 -9.313164000000000442e+00 -2.651043259335497670e-01
-8.212199999999999278e+00 9.199099999999999611e+00 -4.541700000000000159e+01 -3.546766000000000219e+01 -2.654234143240915000e-01
-8.211100000000000065e+00 2.414499999999999957e+01 -4.374099999999999966e+01 -3.543258999999999936e+00 -2.996015704494113807e-01
-8.209400000000000475e+00 -1.564899999999999913e+01 -3.493800000000000239e+01 2.099883000000000166e+00 1.043090734100947242e-01
-8.208000000000000185e+00 2.238800000000000168e+01 -5.107900000000000063e+01 -3.358220000000000027e+01 -2.684485052051370224e-01
-8.201399999999999579e+00 1.853399999999999892e+01 -3.207500000000000284e+01 1.212923999999999891e+00 -1.910869307081204949e-01
-8.200699999999999434e+00 -1.753000000000000114e+01 -1.197000000000000064e+01 2.176423000000000130e+01 -5.298836945351333150e-02
-8.199400000000000688e+00 4.976799999999999891e+00 -5.688300000000000267e+01 -8.730746000000000340e-01 -1.009410539684377495e-01
-8.198000000000000398e+00 -1.294400000000000084e+01 -9.705700000000000216e+00 3.520045000000000091e+00 -2.429324213138957522e-01
-8.195000000000000284e+00 -1.281900000000000084e+01 -8.276300000000000878e+00 2.958283999999999914e+00 -2.432015859174335437e-01
-8.195000000000000284e+00 -1.281900000000000084e+01 -7.225699999999999790e+00 3.834265999999999952e+00 -1.429518425475265198e-01
-8.189199999999999591e+00 -1.527999999999999936e+01 -3.704599999999999937e+01 3.141183000000000169e-01 1.018140069837470546e-01
-8.186899999999999622e+00 9.893700000000000827e+00 -4.105400000000000205e+01 1.962783999999999907e+01 -2.663932366689957254e-01
-8.186899999999999622e+00 1.010299999999999976e+01 -4.178999999999999915e+01 2.232975000000000065e+01 -2.663563156355178707e-01
-8.186899999999999622e+00 1.129400000000000048e+01 -4.245400000000000063e+01 -2.338042000000000176e+00 -2.668674785010355377e-01
-8.186199999999999477e+00 1.364400000000000013e+01 -5.768599999999999994e+01 -1.244173999999999936e+01 -2.664882370741837869e-01
-8.184599999999999653e+00 -1.672200000000000131e+01 -3.640400000000000347e+01 -2.090819999999999901e-01 1.041812556372125192e-01
-8.183299999999999130e+00 2.525199999999999889e+01 -4.755100000000000193e+01 -8.382868000000000208e+00 -2.993051062399292306e-01
-8.182999999999999829e+00 1.176700000000000079e+00 -2.622800000000000153e+01 -2.153302000000000049e+01 1.402522096883588622e-02
-8.182999999999999829e+00 1.176700000000000079e+00 -2.528800000000000026e+01 -6.565367000000000530e+01 1.594590790070143232e-02
-8.180699999999999861e+00 -1.442099999999999937e+01 -3.500000000000000000e+01 3.093675000000000175e+00 1.024613169327733553e-01
-8.178399999999999892e+00 5.770500000000000185e+00 -5.692900000000000205e+01 -5.557984999999999731e-01 -1.005770123899917962e-01
-8.176000000000000156e+00 7.266300000000000203e+00 -2.162600000000000122e+01 2.101494999999999891e+00 -8.465589267149234431e-02
-8.176000000000000156e+00 7.266300000000000203e+00 -2.057600000000000051e+01 1.521444999999999936e+00 -8.325252267844839016e-02
-8.174599999999999866e+00 -1.189100000000000001e+01 -4.745000000000000284e+01 1.763317999999999941e+01 -5.533659180888719602e-03
-8.171699999999999520e+00 -7.938799999999999635e+00 -4.346699999999999875e+01 8.153800999999999632e+00 -3.903996202019948368e-03
-8.170999999999999375e+00 2.029599999999999937e+01 -2.510699999999999932e+01 -9.768577000000000510e+00 -3.003179062683886680e-01
-8.167099999999999582e+00 2.045100000000000051e+01 -6.825900000000000034e+01 6.532435000000000436e+00 -2.675347890525415773e-01
-8.160500000000000753e+00 -2.385600000000000165e+01 -1.984499999999999886e+01 -2.708615999999999802e-01 -6.225811638339513732e-02
-8.160000000000000142e+00 5.300200000000000466e-01 -5.023799999999999955e+01 -4.413535000000000430e+00 -1.028385198136917145e-01
-8.159599999999999298e+00 9.690699999999999648e+00 -4.462500000000000000e+01 -1.717258999999999958e+01 -2.657423433292142589e-01
-8.158699999999999619e+00 1.253899999999999970e+01 -5.366899999999999693e+01 -5.709091999999999700e+01 -2.662900335017878151e-01
-8.154999999999999361e+00 2.997599999999999909e+01 -4.441499999999999915e+01 -1.277200999999999986e+01 -1.908737521434795970e-01
-8.149200000000000443e+00 -6.669900000000000162e+00 -1.181900000000000084e+01 1.784604999999999997e+00 -3.499999999999999778e-01
-8.148799999999999599e+00 3.356300000000000061e+00 -5.400900000000000034e+01 -1.508860000000000090e+00 -1.013460754967977079e-01
-8.148500000000000298e+00 -5.922699999999999854e+00 -3.921000000000000085e+01 1.371465000000000067e+01 -2.918180275381004711e-03
-8.147899999999999920e+00 1.859600000000000009e+01 -5.613799999999999812e+01 -1.142080999999999946e+01 -2.676766255629013935e-01
-8.146399999999999864e+00 2.812800000000000011e+01 -4.712299999999999756e+01 -4.716078000000000436e+00 -2.996314682924107742e-01
-8.144099999999999895e+00 -1.422899999999999920e+01 -3.704399999999999693e+01 7.011608999999999980e+00 -1.237484308776622827e-02
-8.142699999999999605e+00 4.632500000000000284e+00 -5.614300000000000068e+01 -9.576396999999999826e-01 -1.009967705488656609e-01
-8.139499999999999957e+00 -1.760699999999999932e+00 -3.383299999999999841e+01 1.064915000000000056e+01 -1.099626359213392301e-01
-8.138299999999999201e+00 -7.926000000000000156e+00 -4.435300000000000153e+01 9.466625999999999763e+00 -3.678975555238926578e-03
-8.134000000000000341e+00 2.786799999999999855e+01 -3.728399999999999892e+01 -2.170354999999999990e+01 -1.894744928675297646e-01
-8.131399999999999295e+00 -5.118599999999999817e+00 -1.400000000000000000e+01 2.144782000000000188e+00 -1.972562296133309467e-01
-8.130900000000000460e+00 2.487199999999999989e+01 -7.043500000000000227e+01 -8.479741999999999891e+00 -2.680600976689305748e-01
-8.124299999999999855e+00 -1.372000000000000064e+01 -1.072899999999999920e+01 4.385925999999999991e-01 -1.437889862470755065e-01
-8.124200000000000088e+00 -1.861499999999999844e+01 -3.634899999999999665e+01 7.240553000000000239e+00 1.063346473784025498e-01
-8.124200000000000088e+00 -1.774899999999999878e+01 -3.634899999999999665e+01 -1.159498000000000056e-01 1.054317768905534275e-01
-8.111599999999999255e+00 1.481300000000000061e+01 -5.676700000000000301e+01 -7.296706000000000358e+01 -2.667912433229953084e-01
-8.107900000000000773e+00 1.239100000000000001e+01 -3.694200000000000017e+01 5.908177999999999486e-01 -2.024147737501703903e-01
-8.107599999999999696e+00 9.280300000000000438e+00 -3.973599999999999710e+01 4.632146000000000186e+01 -2.663937047521772739e-01
-8.107499999999999929e+00 1.110100000000000087e+01 -5.837800000000000011e+01 -1.148724999999999996e+00 -9.876222529620397317e-02
-8.107200000000000628e+00 -4.625500000000000167e-01 -3.305299999999999727e+01 6.906156000000000184e+00 -1.066693719046981348e-01
-8.105000000000000426e+00 -9.275499999999999190e+00 -4.685300000000000153e+01 2.573562999999999823e-01 -4.104325829866107070e-03
-8.105000000000000426e+00 -8.032500000000000639e+00 -4.599499999999999744e+01 -2.262984000000000107e-01 -3.427350832701876217e-03
-8.105000000000000426e+00 -7.801000000000000156e+00 -4.517999999999999972e+01 -7.961342000000000141e+00 -3.406236639866676123e-03
-8.104699999999999349e+00 7.555600000000000094e+00 -5.749000000000000199e+01 -1.142595000000000027e+00 -9.991002671582736860e-02
-8.103099999999999525e+00 -2.355199999999999960e+01 -1.747400000000000020e+01 1.272149999999999892e+00 -6.250507023785634164e-02
-8.102899999999999991e+00 -2.457499999999999929e+01 -2.283200000000000074e+01 -1.604149000000000047e+00 -6.280650985051859647e-02
-8.102800000000000225e+00 3.147599999999999909e+01 -4.708500000000000085e+01 -1.895563999999999893e+01 -1.910994847206981262e-01
-8.102600000000000691e+00 -2.355199999999999960e+01 -1.901000000000000156e+01 -1.089920000000000055e-01 -6.230768192144255785e-02
-8.102299999999999613e+00 2.118799999999999883e+01 -5.199199999999999733e+01 -1.201380999999999943e+01 -2.039302979800897420e-01
-8.102199999999999847e+00 -2.450100000000000122e+01 -2.068100000000000094e+01 3.170234000000000218e+00 -6.236300538296885021e-02
-8.101300000000000168e+00 9.387299999999999756e+00 -4.392499999999999716e+01 -6.725621000000000294e+00 -2.657000381850094795e-01
-8.101200000000000401e+00 2.188400000000000034e+01 -2.923499999999999943e+01 -4.516308999999999685e+00 -1.872825472008176617e-01
-8.101000000000000867e+00 -1.759600000000000009e+01 -3.886899999999999977e+01 8.540805999999999676e-01 1.031239076324640125e-01
-8.100300000000000722e+00 2.821099999999999852e+01 -3.646900000000000119e+01 -2.281598999999999933e+01 -1.891235883802341866e-01
-8.098399999999999821e+00 1.862400000000000166e-02 -4.947999999999999687e+01 -3.295783999999999825e+00 -1.032297668927214807e-01
-8.096600000000000463e+00 3.716200000000000170e+00 -1.891600000000000037e+01 -3.111721999999999966e+01 -9.239098854813113104e-02
-8.092599999999999127e+00 2.918199999999999861e+01 -3.613100000000000023e+01 -3.222328000000000259e+01 -2.998775732050756315e-01
-8.090799999999999770e+00 3.815599999999999881e+00 -2.142399999999999949e+01 -4.893994000000000177e+00 -9.016394455367655880e-02
-8.090299999999999159e+00 2.128099999999999881e+01 -4.513100000000000023e+01 -1.583750000000000036e+01 -2.990734400092406320e-01
-8.085000000000000853e+00 7.190999999999999837e+00 -6.368299999999999983e+01 3.178697000000000106e+00 -1.011756985778720086e-01
-8.080000000000000071e+00 3.157600000000000051e+01 -3.894299999999999784e+01 3.845483000000000118e+01 -2.998328173684511322e-01
-8.079900000000000304e+00 -5.453400000000000247e+00 -1.305499999999999972e+01 1.422752000000000017e+00 -1.694405068795378777e-01
-8.079399999999999693e+00 4.081400000000000028e-01 -1.755000000000000071e+01 -1.093909000000000020e+00 1.816658001655523103e-02
-8.079000000000000625e+00 1.858099999999999952e+01 -3.128600000000000136e+01 2.424067000000000149e+01 -1.904982863230427204e-01
-8.075100000000000833e+00 -7.867399999999999949e+00 -1.165199999999999925e+01 1.762210999999999927e+01 -3.499999999999999778e-01
-8.074699999999999989e+00 1.767699999999999960e+01 -4.596200000000000330e+01 -8.839705999999999619e+00 -2.034560202326680112e-01
-8.074699999999999989e+00 1.994200000000000017e+01 -4.596200000000000330e+01 5.490001000000000353e+00 -2.042712664393221966e-01
-8.073999999999999844e+00 -3.879000000000000004e+00 -1.318500000000000050e+01 1.318667999999999951e+00 -2.044363979445089630e-01
-8.069100000000000605e+00 7.562000000000000277e+00 -4.458700000000000330e+01 -2.216932999999999865e+01 -9.558100742816068307e-02
-8.068699999999999761e+00 2.664900000000000091e+01 -4.708500000000000085e+01 -3.591149999999999842e+00 -2.995013971198959846e-01
-8.067999999999999616e+00 2.398900000000000077e+01 -4.185999999999999943e+01 -2.012635999999999825e+01 -2.998760918976129952e-01
-8.067999999999999616e+00 2.419800000000000040e+01 -4.259599999999999653e+01 -1.860795999999999850e+01 -2.997853194591135195e-01
-8.066900000000000404e+00 -2.168799999999999883e+01 -2.464099999999999824e+01 -1.901575000000000015e+00 -6.361473070857354140e-02
-8.065899999999999181e+00 -1.744600000000000151e+01 -3.704899999999999949e+01 -4.199899999999999745e-01 1.044560424404941124e-01
-8.064000000000000057e+00 6.225200000000000067e+00 -4.052000000000000313e+01 1.915008999999999961e+00 -9.461051538814316264e-02
-8.064000000000000057e+00 6.553499999999999659e+00 -3.977499999999999858e+01 2.412638000000000105e+01 -2.645856779458358732e-01
-8.064000000000000057e+00 7.871999999999999886e+00 -3.903999999999999915e+01 3.023985000000000056e+01 -2.656411261784852318e-01
-8.064000000000000057e+00 9.518800000000000594e+00 -4.052000000000000313e+01 2.918359999999999843e+01 -2.663757204473107820e-01
-8.063000000000000611e+00 -9.109199999999999520e+00 -1.079299999999999926e+01 7.722147999999999968e+01 -2.296789669117789146e-01
-8.062900000000000844e+00 -3.300300000000000011e+00 -3.826599999999999824e+01 1.904746000000000050e+00 -1.098557000297857994e-01
-8.058500000000000441e+00 -1.025600000000000067e+00 -1.753699999999999903e+01 -3.575352999999999781e+01 8.883123375517063339e-03
-8.053399999999999892e+00 -3.710399999999999809e-01 -5.095900000000000318e+01 -4.673727000000000409e+00 -1.035744167835754431e-01
-8.053300000000000125e+00 1.511599999999999966e+01 -5.606700000000000017e+01 -6.608633000000000379e+01 -2.669003856516871664e-01
-8.053300000000000125e+00 1.598099999999999987e+01 -5.606700000000000017e+01 -2.651694000000000173e+01 -2.671046932844036159e-01
-8.051999999999999602e+00 1.871999999999999886e+01 -5.498899999999999721e+01 -6.049813999999999581e+00 -2.678157640583432864e-01
-8.051899999999999835e+00 -1.987500000000000000e+01 -3.697999999999999687e+01 2.408224999999999838e+00 1.069030699281427327e-01
-8.051099999999999923e+00 -2.195400000000000063e+01 -1.479299999999999926e+01 -1.291056999999999899e+00 -5.196533764093679009e-02
-8.051000000000000156e+00 -1.579100000000000037e+01 -4.793800000000000239e+01 2.810782999999999987e+01 -7.226088537967677652e-03
-8.048999999999999488e+00 2.347999999999999865e+00 -2.130000000000000071e+01 -5.170274000000000036e+00 -1.692896254730890393e-01
-8.044800000000000395e+00 -2.324800000000000111e+01 -1.817399999999999949e+01 1.061687999999999965e+00 -6.237337652191511650e-02
-8.044000000000000483e+00 4.038700000000000401e+00 -5.548499999999999943e+01 -1.098112999999999895e+00 -1.012176535482871842e-01
-8.041499999999999204e+00 2.361100000000000065e+01 -6.579399999999999693e+01 -3.227080000000000126e+01 -2.680653226358200025e-01
-8.038700000000000401e+00 1.880999999999999872e+01 -4.671999999999999886e+01 8.342487000000000208e+00 -2.037776477719684676e-01
-8.038600000000000634e+00 -1.400500000000000078e+01 -3.615400000000000347e+01 5.557680999999999649e+00 -1.294263397156520182e-02
-8.035999999999999588e+00 -2.476300000000000168e+01 -1.991300000000000026e+01 -9.692589000000000343e-01 -6.237211758258479760e-02
-8.030699999999999505e+00 -2.445799999999999841e+01 -2.534600000000000009e+01 -2.230224000000000206e+00 -6.325332144292598879e-02
-8.030699999999999505e+00 -2.293799999999999883e+01 -2.534600000000000009e+01 -2.427884999999999849e+00 -6.349074573230997776e-02
-8.030099999999999127e+00 5.244600000000000151e+00 -4.177900000000000347e+01 8.427704000000000306e-01 -9.643449136418327794e-02
-8.028999999999999915e+00 5.355999999999999872e+00 -5.762899999999999778e+01 -1.454370000000000107e-01 -1.009244820995991027e-01
-8.028100000000000236e+00 -2.003300000000000125e+01 -2.715200000000000102e+01 4.138696999999999626e+00 -6.429507351763298628e-02
-8.028100000000000236e+00 -9.450300000000000367e+00 -1.007900000000000063e+01 7.620156999999999847e+00 -2.220323183239162612e-01
-8.026899999999999480e+00 1.702800000000000091e+00 -5.405499999999999972e+01 2.239076999999999984e+00 -1.023647757790420998e-01
-8.024599999999999511e+00 -5.387299999999999756e+00 -3.876299999999999812e+01 1.679157999999999973e+01 -2.288565919382440188e-03
-8.023300000000000765e+00 1.011100000000000065e+01 -5.827000000000000313e+01 -1.090553000000000106e+00 -9.910197571615955714e-02
-8.020699999999999719e+00 1.378400000000000070e+01 -3.655499999999999972e+01 -4.006180999999999770e+00 -2.036999745690430408e-01
-8.018100000000000449e+00 2.383399999999999963e-01 -2.817699999999999960e+01 -3.774929000000000201e+01 4.214831890390803235e-03
-8.018100000000000449e+00 4.474299999999999944e-01 -2.891300000000000026e+01 -2.372823999999999955e+01 4.407484120034971253e-03
-8.012800000000000367e+00 -1.592800000000000082e+01 -4.700300000000000011e+01 7.515534999999999854e+00 -7.598615929224565753e-03
-8.012000000000000455e+00 -2.112900000000000134e+01 -3.614000000000000057e+01 5.795620000000000216e-01 1.087880349879556813e-01
-8.012000000000000455e+00 -2.112900000000000134e+01 -3.518200000000000216e+01 1.499343999999999955e-01 1.098536442950154568e-01
-8.011100000000000776e+00 -1.453700000000000081e+01 -4.877799999999999869e+01 1.008539999999999992e+01 -6.419099530259729514e-03
-8.010899999999999466e+00 7.865400000000000169e+00 -4.388700000000000045e+01 -9.384985000000000355e+00 -9.500137640535466499e-02
-8.009700000000000486e+00 2.987300000000000111e+01 -4.961200000000000188e+01 -1.349813999999999936e+01 -2.995661069393596998e-01
-8.009700000000000486e+00 3.139300000000000068e+01 -4.961200000000000188e+01 -2.402355999999999980e+01 -2.996826855343436846e-01
-8.003899999999999793e+00 -1.320700000000000074e+01 -4.806000000000000227e+01 5.685410999999999859e+01 -6.006809777633129871e-03
-8.003399999999999181e+00 4.976200000000000401e+00 -1.966100000000000136e+01 -1.939980000000000038e-01 -8.848937930388617312e-02
-7.997099999999999653e+00 2.613299999999999912e+01 -6.975000000000000000e+01 -2.600008000000000052e+01 -2.682488576953241388e-01
-7.996299999999999741e+00 1.738800000000000068e-01 -4.646500000000000341e+01 -8.306281000000000247e+00 -1.030500914079924557e-01
-7.995599999999999596e+00 3.702900000000000080e+00 -5.488900000000000290e+01 -1.062723000000000084e+00 -1.013176002363234823e-01
-7.992099999999999760e+00 -1.521400000000000041e+01 -1.038100000000000023e+01 -3.144723000000000113e+01 -1.393821513311269411e-01
-7.991399999999999615e+00 -1.555700000000000038e+01 -3.596399999999999864e+01 2.076223000000000152e+00 1.032295944446123964e-01
-7.990000000000000213e+00 -1.066600000000000037e+01 -4.708800000000000097e+01 1.969953000000000065e+00 -4.886444125966509996e-03
-7.989600000000000257e+00 -1.783899999999999864e+01 -3.780599999999999739e+01 -3.454391999999999907e+00 1.042419614231226976e-01
-7.988000000000000433e+00 2.614799999999999969e+01 -6.884199999999999875e+01 -4.044834000000000174e+01 -2.682853665159701806e-01
-7.982099999999999973e+00 -2.640099999999999891e+00 -3.720799999999999841e+01 -5.473492000000000246e+00 -1.093596420624661364e-01
-7.977199999999999847e+00 -4.149899999999999700e+00 -1.667800000000000082e+01 1.393567999999999962e+01 -1.184117565410831990e-01
-7.974400000000000155e+00 1.279700000000000060e+01 -4.203399999999999892e+01 -2.534749000000000052e+01 -2.017383663902549140e-01
-7.969999999999999751e+00 2.584499999999999886e+01 -3.819400000000000261e+01 -1.066510000000000069e+01 -1.901124463622364813e-01
-7.969000000000000306e+00 1.580599999999999916e+01 -3.638000000000000256e+01 4.062816999999999901e+00 -2.052309206314010814e-01
-7.969000000000000306e+00 1.725199999999999889e+01 -3.557399999999999807e+01 6.574576000000000420e+00 -3.003343511463976157e-01
-7.966800000000000104e+00 -1.589700000000000024e+01 -3.634899999999999665e+01 -5.222667000000000392e+00 1.033196038997449551e-01
-7.964699999999999669e+00 5.739300000000000512e-01 -5.470199999999999818e+01 2.533066999999999958e+00 -1.031029241668942609e-01
-7.963000000000000078e+00 -1.911499999999999844e+01 -1.464400000000000013e+01 -2.685439999999999827e+00 -6.260177192717365779e-02
-7.962699999999999889e+00 1.486500000000000021e+01 -2.761799999999999855e+01 8.586449000000000442e-01 -1.919532101966135718e-01
-7.961100000000000065e+00 -1.284999999999999920e+00 -4.655799999999999983e+01 -3.755940999999999974e+01 -1.045093384621734456e-01
-7.957799999999999763e+00 4.551000000000000045e-01 -3.173000000000000043e+01 4.154268999999999878e-01 8.346899219527483069e-04
-7.956000000000000405e+00 -4.726099999999999746e+00 -1.318500000000000050e+01 6.184629000000000154e+00 -1.848010178430098960e-01
-7.956000000000000405e+00 -1.132299999999999973e-01 -2.332999999999999829e+01 -2.458616999999999919e+01 9.400777392979048352e-02
-7.956000000000000405e+00 9.585499999999999576e-02 -2.406599999999999895e+01 -5.403394999999999726e+01 7.364400396889970654e-03
-7.956000000000000405e+00 9.585499999999999576e-02 -2.259400000000000119e+01 -1.470625000000000071e+01 -8.291667383473254327e-02
-7.956000000000000405e+00 1.133299999999999974e+00 -2.171099999999999852e+01 1.638932999999999973e+00 -8.714393877536927291e-02
-7.953500000000000014e+00 2.506499999999999950e+00 -5.404099999999999682e+01 3.589369000000000032e+00 -1.018971176327390371e-01
-7.952099999999999724e+00 -4.822199999999999820e-01 -5.471000000000000085e+01 2.532813999999999899e-01 -1.037353441581388702e-01
-7.951999999999999957e+00 -2.110900000000000176e+01 -3.031800000000000139e+01 -2.910276999999999781e+00 -1.739784929868857521e-01
-7.951900000000000190e+00 -1.654200000000000159e+01 -1.114300000000000068e+01 -7.457787000000000166e-01 -5.362619102078153288e-02
-7.951699999999999768e+00 -1.277800000000000047e+01 -4.770600000000000307e+01 2.097651000000000110e+01 -5.880914078014967857e-03
-7.949600000000000222e+00 1.180300000000000082e+01 -5.366899999999999693e+01 -4.478159000000000134e+01 -2.661502798200858777e-01
-7.949600000000000222e+00 1.327500000000000036e+01 -5.366899999999999693e+01 -3.055020999999999987e+01 -2.665523501664693873e-01
-7.948299999999999699e+00 1.877999999999999892e+00 -4.381499999999999773e+01 -1.631070000000000064e+01 -1.010298671723194319e-01
-7.945899999999999963e+00 -2.066000000000000014e+01 -2.884100000000000108e+01 -2.040122999999999909e+00 -1.749625888119639983e-01
-7.942400000000000126e+00 2.241300000000000026e+01 -4.449300000000000210e+01 -1.593157000000000068e+01 -2.993146530698175267e-01
-7.937999999999999723e+00 1.549699999999999989e+01 -4.203399999999999892e+01 -2.719106999999999985e+01 -2.031727124523446670e-01
-7.937000000000000277e+00 2.369500000000000028e+01 -4.691400000000000148e+01 -1.926954999999999885e+01 -2.992124339549924184e-01
-7.934800000000000075e+00 1.897899999999999920e+01 -6.615099999999999625e+01 2.143400000000000194e+00 -2.673915155948771161e-01
-7.929499999999999993e+00 -2.267599999999999838e+00 -3.474600000000000222e+01 6.999011999999999567e+00 -1.105432180424515687e-01
-7.929199999999999804e+00 8.475699999999999790e+00 -5.824099999999999966e+01 -1.302411999999999903e+00 -9.973448014180082144e-02
-7.924699999999999633e+00 -1.692399999999999949e+01 -4.388600000000000279e+01 3.922514000000000056e+00 -9.284437979656673043e-03
-7.924599999999999866e+00 1.285699999999999932e+01 -5.779299999999999926e+01 -6.767832000000000292e+00 -9.806180580650036838e-02
-7.924100000000000144e+00 1.846399999999999864e+01 -3.467699999999999960e+01 -7.058965999999999852e+00 -1.918555907287140816e-01
-7.921999999999999709e+00 -2.514699999999999935e+00 -4.832099999999999795e+01 -2.606679000000000190e+00 -1.054813831660140339e-01
-7.921999999999999709e+00 -2.514699999999999935e+00 -4.738100000000000023e+01 -4.563055000000000305e+00 -1.056097826458098216e-01
-7.921000000000000263e+00 -1.240799999999999947e+01 -6.337900000000000311e+00 5.208923000000000414e+00 -1.430176665075975073e-01
-7.920300000000000118e+00 2.283200000000000074e+01 -4.064399999999999835e+01 -7.919608000000000203e+00 -2.999595881329890634e-01
-7.911100000000000243e+00 1.596599999999999930e+01 -5.222599999999999909e+01 7.932525000000000048e+00 -2.673956512139432640e-01
-7.908999999999999808e+00 2.184600000000000009e+01 -7.013599999999999568e+01 -1.622100000000000097e+00 -2.677196250357645191e-01
-7.908999999999999808e+00 2.332199999999999918e+01 -7.081799999999999784e+01 3.410974999999999979e-01 -2.678888620477092863e-01
-7.907000000000000028e+00 -2.761699999999999822e+00 -3.630599999999999739e+01 -7.525559999999999583e+00 -1.103294100384804854e-01
-7.907000000000000028e+00 -2.552599999999999980e+00 -3.557000000000000028e+01 -3.774770000000000181e+00 -1.104914897602199131e-01
-7.906600000000000072e+00 2.879100000000000215e+00 -4.260300000000000153e+01 -2.659076999999999913e+00 -9.962146730234713865e-02
-7.902899999999999814e+00 2.354299999999999926e+01 -6.526399999999999579e+01 -4.983279000000000281e+01 -2.680973990874935819e-01
-7.902899999999999814e+00 2.354299999999999926e+01 -6.439900000000000091e+01 -3.613624000000000080e+01 -2.681368862162160083e-01
-7.900999999999999801e+00 2.256200000000000117e+01 -4.767199999999999704e+01 -7.393542000000000058e+00 -2.990137532269584453e-01
-7.900299999999999656e+00 -4.347100000000000186e+00 -1.405700000000000038e+01 6.208037000000000027e+00 -2.118157240152477583e-01
-7.899499999999999744e+00 3.111199999999999832e+01 -4.668399999999999750e+01 -2.602211000000000141e+01 -1.910200321686416070e-01
-7.895699999999999719e+00 1.850300000000000011e+01 -5.185000000000000142e+01 1.102515000000000001e+01 -2.032651253751932841e-01
-7.894999999999999574e+00 1.926200000000000045e+01 -6.708299999999999841e+01 5.327799999999999869e+00 -2.674238827402655727e-01
-7.894800000000000040e+00 2.803700000000000081e-01 -2.732999999999999829e+01 -3.703748000000000218e+01 5.519260014157699977e-03
-7.892000000000000348e+00 -2.062999999999999901e+01 -1.475999999999999979e+01 2.643129000000000062e+01 -5.205510806656545725e-02
-7.892000000000000348e+00 2.348999999999999844e+01 -6.384400000000000119e+01 -2.495798999999999879e+01 -2.681578110776062784e-01
-7.891300000000000203e+00 1.210699999999999932e+01 -5.296900000000000119e+01 -2.626827000000000112e+01 -2.662690186140041493e-01
-7.891300000000000203e+00 1.297199999999999953e+01 -5.296900000000000119e+01 -2.548388999999999882e+01 -2.665135270321849492e-01
-7.890799999999999592e+00 6.235800000000000232e+00 -5.768200000000000216e+01 2.903983000000000203e+00 -1.005651550131268224e-01
-7.888499999999999623e+00 -5.791699999999999626e+00 -1.188899999999999935e+01 -4.103284999999999627e+00 -3.499999999999999778e-01
-7.886999999999999567e+00 1.630499999999999972e+01 -4.302799999999999869e+01 -9.200399999999999689e-01 -2.033940570477866527e-01
-7.885200000000000209e+00 2.426399999999999935e+01 -3.817000000000000171e+01 -3.160288999999999859e+01 -1.904823731172887447e-01
-7.884000000000000341e+00 8.545999999999999375e+00 -6.574099999999999966e+01 7.746597000000000399e+00 -1.010928884518878801e-01
-7.883000000000000007e+00 2.603399999999999892e+01 -6.834799999999999898e+01 -3.658561000000000263e+01 -2.683034783173384730e-01
-7.882399999999999629e+00 4.488500000000000156e+00 -4.178499999999999659e+01 2.943759000000000015e+00 -9.741683128347959630e-02
-7.882299999999999862e+00 -1.206000000000000050e+01 -5.900100000000000122e+00 5.208923000000000414e+00 -2.543470206388575572e-01
-7.881999999999999673e+00 1.884100000000000108e+01 -6.527100000000000080e+01 -3.375252999999999726e-01 -2.673946715817555053e-01
-7.881999999999999673e+00 1.909499999999999886e+01 -6.437699999999999534e+01 -4.117827000000000126e+00 -2.674545472278409552e-01
-7.881899999999999906e+00 2.060500000000000043e+01 -3.039900000000000091e+01 6.538376000000000410e+00 -1.884167663912534874e-01
-7.881099999999999994e+00 -6.355299999999999727e+00 -4.077499999999999858e+01 1.613717000000000112e+01 -2.944877948518238170e-03
-7.881099999999999994e+00 -6.355299999999999727e+00 -3.990999999999999659e+01 1.861457000000000050e+01 -3.157146811177715708e-03
-7.880200000000000315e+00 -2.430900000000000105e+01 -1.911199999999999832e+01 -1.097958000000000034e+01 -6.241174235207160026e-02
-7.879100000000000215e+00 2.856099999999999994e+01 -4.782300000000000040e+01 -9.634287000000000489e+00 -2.996210513447126744e-01
-7.877799999999999692e+00 -1.685900000000000176e+01 -4.047200000000000131e+01 1.231826000000000043e+01 -1.108523412040854188e-02
-7.876599999999999824e+00 1.512299999999999933e+01 -2.688500000000000156e+01 -1.280713999999999908e+00 -1.907715005395721475e-01
-7.876000000000000334e+00 -1.805499999999999972e+01 -1.282000000000000028e+01 7.935711999999999655e+00 -5.270822918646167476e-02
-7.875300000000000189e+00 2.326899999999999835e+01 -3.819500000000000028e+01 -1.262906000000000084e+01 -1.907925339679460985e-01
-7.873499999999999943e+00 2.323600000000000065e+01 -6.336299999999999955e+01 -1.423404000000000025e+01 -2.681465685137167099e-01
-7.870599999999999596e+00 7.133700000000000152e+00 -5.773499999999999943e+01 1.467764999999999986e+00 -1.001892098693406841e-01
-7.868599999999999817e+00 2.377400000000000091e+01 -4.433299999999999841e+01 -9.014200000000000657e+00 -2.995128979286157955e-01
-7.867700000000000138e+00 2.572500000000000142e+01 -7.050400000000000489e+01 -1.794278999999999868e+01 -2.681899201164522628e-01
-7.867399999999999949e+00 -1.719999999999999929e+01 -3.969899999999999807e+01 1.236826999999999899e+00 1.022575293802792801e-01
-7.866299999999999848e+00 2.881400000000000006e+01 -4.851599999999999824e+01 -1.123610000000000042e+01 -2.995805346065792962e-01
-7.864600000000000257e+00 -2.428800000000000026e+01 -1.645799999999999841e+01 2.650274000000000019e+00 -5.190764325094251314e-02
-7.863699999999999690e+00 3.075900000000000034e+01 -3.635300000000000153e+01 5.151233999999999646e+00 -2.994524707737584168e-01
-7.859799999999999898e+00 1.212100000000000044e+01 -5.442900000000000205e+01 -7.013719000000000392e+01 -2.662487773594591767e-01
-7.856799999999999784e+00 -1.818199999999999861e+01 -3.704899999999999949e+01 2.992204999999999782e+00 1.053120163663727737e-01
-7.854300000000000281e+00 -6.123599999999999710e+00 -4.171999999999999886e+01 8.226696000000000453e+00 -2.502164127363849799e-03
-7.853500000000000369e+00 6.376100000000000101e+00 -6.368299999999999983e+01 6.922900000000000276e+00 -1.014820678537859122e-01
-7.853500000000000369e+00 8.005900000000000460e+00 -6.368299999999999983e+01 2.031225999999999843e+01 -1.009433430656194036e-01
-7.853299999999999947e+00 2.025100000000000122e+01 -6.331000000000000227e+01 -8.496881000000000128e+00 -2.676786879022579058e-01
-7.852699999999999569e+00 -1.063599999999999923e+01 -5.087900000000000311e+00 1.351557000000000031e+01 -2.581172978359219106e-01
-7.851300000000000168e+00 5.041000000000000369e+00 -2.247599999999999909e+01 -1.282035000000000036e+00 -8.825768303157871530e-02
-7.851300000000000168e+00 6.740999999999999659e+00 -2.247599999999999909e+01 -1.401610999999999940e+00 -8.604958017286976069e-02
-7.851300000000000168e+00 6.740999999999999659e+00 -1.972599999999999909e+01 -2.373454000000000175e+00 -8.314044046707740054e-02
-7.849700000000000344e+00 -9.455299999999999372e+00 -7.750000000000000000e+00 1.315024000000000015e+01 -2.339923796974250902e-01
-7.846300000000000274e+00 1.807100000000000151e+01 -2.425700000000000145e+01 2.091975000000000140e+00 -3.024505920223569122e-01
-7.846300000000000274e+00 1.977100000000000080e+01 -2.425700000000000145e+01 -6.272217999999999627e+00 -2.999772052420216495e-01
-7.842600000000000016e+00 7.338000000000000078e+00 -4.513199999999999790e+01 -1.569449999999999967e+01 -9.614367200948728542e-02
-7.841000000000000192e+00 -1.697999999999999954e+00 -5.293299999999999983e+01 3.951535999999999937e-01 -1.045324800409496574e-01
-7.841000000000000192e+00 -1.444099999999999939e+00 -5.382699999999999818e+01 -2.843841000000000077e-02 -1.043460536974507302e-01
-7.841000000000000192e+00 -1.444099999999999939e+00 -5.203900000000000148e+01 3.323188000000000031e+00 -1.043874145713047791e-01
-7.839000000000000412e+00 1.907100000000000151e+01 -5.403600000000000136e+01 -7.434775000000000134e+00 -2.680361106181273767e-01
-7.838199999999999612e+00 3.041700000000000159e+01 -4.527199999999999847e+01 -7.941746000000000194e+00 -1.908523762906042809e-01
-7.831900000000000084e+00 1.937099999999999866e+01 -5.314099999999999824e+01 -5.524461999999999762e+00 -2.034417468784776306e-01
-7.831000000000000405e+00 -4.139999999999999791e-01 -5.017999999999999972e+01 -7.999120999999999704e+00 -1.036544509925068080e-01
-7.828199999999999825e+00 1.300099999999999945e+01 -5.448899999999999721e+01 -3.880640999999999963e+01 -2.664867332756282736e-01
-7.825000000000000178e+00 -1.685200000000000031e+01 -4.283599999999999852e+01 2.042294000000000054e+01 -9.737612088170310987e-03
-7.820100000000000051e+00 -2.985300000000000065e+00 -1.318500000000000050e+01 3.513939000000000146e+00 -2.163819755848054860e-01
-7.817999999999999616e+00 3.265400000000000080e+00 -1.818700000000000117e+01 -1.463729999999999976e+01 -9.405594664363436941e-02
-7.817800000000000082e+00 -1.027400000000000091e+00 -4.956300000000000239e+01 -6.925417000000000378e+00 -1.041536783570477659e-01
-7.816699999999999982e+00 2.568299999999999983e+01 -6.750700000000000500e+01 -5.193037000000000347e+01 -2.683023941972763060e-01
-7.815599999999999881e+00 8.766400000000000858e+00 -4.590800000000000125e+01 -3.087777000000000172e+01 -2.654077526388040065e-01
-7.815000000000000391e+00 -2.073499999999999943e+01 -3.434499999999999886e+01 1.349971000000000088e-01 1.106252244502873988e-01
-7.812999999999999723e+00 1.253800000000000026e+01 -3.814099999999999824e+01 1.630192999999999870e+01 -2.023520017637626400e-01
-7.812700000000000422e+00 1.658299999999999841e+01 -2.497400000000000020e+01 3.734427999999999859e+00 -1.863132507558391548e-01
-7.812400000000000233e+00 1.242699999999999960e+01 -3.038100000000000023e+01 -6.259379999999999944e-01 -2.076282953439892720e-01
-7.812299999999999578e+00 1.274900000000000055e+01 -3.349499999999999744e+01 -2.886116000000000237e-01 -2.047508215000172771e-01
-7.812299999999999578e+00 1.274900000000000055e+01 -3.262899999999999778e+01 -3.491045999999999871e-01 -2.054613935192824703e-01
-7.812000000000000277e+00 8.407599999999999518e-01 -1.685000000000000142e+01 4.118840999999999752e+00 2.244978937932309154e-02
-7.811700000000000088e+00 1.901399999999999935e+01 -3.058599999999999852e+01 1.468730000000000047e+01 -1.894120114888289685e-01
-7.810999999999999943e+00 1.255100000000000016e+01 -2.939099999999999824e+01 -1.631950999999999929e+00 -2.092617520961444488e-01
-7.810699999999999754e+00 1.316499999999999915e+01 -2.869600000000000151e+01 -4.737532999999999994e+00 -1.947997588834712857e-01
-7.809999999999999609e+00 2.284400000000000119e+01 -3.889099999999999824e+01 -1.988926999999999978e+01 -1.910903893710647894e-01
-7.809000000000000163e+00 -9.260699999999999932e+00 -7.059300000000000352e+00 8.696512999999999494e+00 -2.402270077970515005e-01
-7.809000000000000163e+00 -9.260699999999999932e+00 -6.008700000000000152e+00 1.911545999999999879e+01 -2.519430013429230231e-01
-7.809000000000000163e+00 -2.556200000000000117e+01 -1.991300000000000026e+01 -3.638942000000000121e+00 -6.247808727591160766e-02
-7.808699999999999974e+00 -2.404599999999999937e+01 -1.816799999999999926e+01 -1.128789999999999960e+00 -6.249853059068244399e-02
-7.805799999999999628e+00 -9.209799999999999542e+00 -9.471999999999999531e+00 6.170621999999999829e+00 -2.238822117184503802e-01
-7.802100000000000257e+00 -2.023600000000000065e+01 -3.349699999999999989e+01 7.124770000000000270e-01 1.113667622337404239e-01
-7.800699999999999967e+00 -2.282799999999999940e+01 -1.454700000000000060e+01 4.622251999999999583e+00 -5.204710314030067814e-02
-7.798000000000000043e+00 -9.360699999999999577e+00 -8.512700000000000600e+00 1.201934999999999931e+01 -2.281853837655919981e-01
-7.792900000000000382e+00 3.112800000000000011e+01 -3.720300000000000296e+01 4.391143999999999714e+00 -2.995431343157204940e-01
-7.788999999999999702e+00 6.711999999999999744e+00 -6.445799999999999841e+01 1.361015000000000086e+01 -1.014862998553363732e-01
-7.788999999999999702e+00 6.711999999999999744e+00 -6.290800000000000125e+01 6.283034999999999926e+00 -1.012656223236149400e-01
-7.788999999999999702e+00 7.669999999999999929e+00 -6.290800000000000125e+01 1.205039999999999978e+01 -1.009389264648153511e-01
-7.788000000000000256e+00 2.172700000000000031e+01 -6.262800000000000011e+01 -1.926616999999999891e+01 -2.679586866613786755e-01
-7.787399999999999878e+00 3.115600000000000147e+00 -2.136599999999999966e+01 -6.140591999999999828e+00 -9.092099310349127661e-02
-7.784299999999999997e+00 7.641399999999999970e+00 -4.583200000000000074e+01 -2.735876000000000019e+01 -9.626242319403756353e-02
-7.783000000000000362e+00 1.230499999999999972e+01 -3.119699999999999918e+01 -3.520270999999999817e-01 -2.064898132435614708e-01
-7.783000000000000362e+00 1.253200000000000003e+01 -3.199599999999999866e+01 -3.628010999999999875e+00 -2.058673203549156450e-01
-7.782399999999999984e+00 2.254599999999999937e+01 -3.981000000000000227e+01 -8.059554999999999580e+00 -3.001021216282435677e-01
-7.782300000000000217e+00 -1.482099999999999973e+01 -3.596399999999999864e+01 5.773085000000000022e+00 1.023400941993341806e-01
-7.780899999999999928e+00 -1.910800000000000054e+01 -3.701500000000000057e+01 3.967211999999999961e+01 1.062690987379510538e-01
-7.779499999999999638e+00 2.976899999999999835e+01 -3.624499999999999744e+01 -1.712534000000000134e+01 -2.996793055453507715e-01
-7.776900000000000368e+00 2.207300000000000040e+01 -4.930199999999999960e+01 -2.977466000000000079e+01 -2.988430419362967938e-01
-7.776600000000000179e+00 4.471400000000000041e+00 -5.704999999999999716e+01 1.061525999999999970e+00 -1.012969998780130637e-01
-7.775999999999999801e+00 -2.918600000000000083e-01 -1.760800000000000054e+01 -9.852766000000000801e+00 1.524312492275370010e-02
-7.775100000000000122e+00 4.462299999999999933e+00 -5.762899999999999778e+01 2.386779000000000206e+00 -1.013884064817138497e-01
-7.774200000000000443e+00 1.750199999999999889e+01 -4.467399999999999949e+01 -1.838413999999999993e+00 -2.036643706870305270e-01
-7.774200000000000443e+00 1.331700000000000017e+01 -3.719299999999999784e+01 2.244004999999999939e+01 -2.032474694939637450e-01
-7.772999999999999687e+00 8.840999999999999304e+00 -5.894100000000000250e+01 -2.022380000000000067e+00 -9.977859394096960655e-02
-7.769000000000000128e+00 1.520800000000000018e+01 -2.589499999999999957e+01 -2.865078000000000014e+00 -1.893591305193853824e-01
-7.765299999999999869e+00 2.734900000000000020e+01 -4.708500000000000085e+01 -5.552058999999999855e+00 -2.995913243238788048e-01
-7.764999999999999680e+00 -4.598799999999999777e+00 -1.496400000000000041e+01 1.207243000000000066e+01 -2.181239710155966072e-01
-7.763799999999999812e+00 -3.238599999999999923e+00 -1.678000000000000114e+01 -1.059004000000000056e-01 -1.146103168352496926e-01
-7.763200000000000323e+00 5.764999999999999680e+00 -4.096000000000000085e+01 7.132152000000000491e-01 -9.561291595998186454e-02
-7.759400000000000297e+00 2.468900000000000006e+01 -6.683299999999999841e+01 -5.020284000000000191e+01 -2.682083781829681657e-01
-7.756999999999999673e+00 -2.420299999999999940e+01 -1.546799999999999997e+01 3.270919999999999828e+00 -5.198646457182446584e-02
-7.754299999999999748e+00 1.059399999999999942e+01 -4.218599999999999994e+01 -5.660936999999999913e-02 -2.668099774338400509e-01
-7.751999999999999780e+00 1.706800000000000139e+01 -5.234499999999999886e+01 1.448991999999999969e+01 -2.677284589398556403e-01
-7.749299999999999855e+00 -5.269599999999999618e+00 -1.233500000000000085e+01 3.084232999999999780e+00 -1.495964345325239142e-01
-7.749299999999999855e+00 -4.404300000000000104e+00 -1.233500000000000085e+01 3.839119000000000170e+00 -1.634560668581367948e-01
-7.749299999999999855e+00 -3.353699999999999903e+00 -1.403500000000000014e+01 5.235134000000000398e+00 -2.285618364110434675e-01
-7.749299999999999855e+00 -3.353699999999999903e+00 -1.233500000000000085e+01 3.765591999999999828e+00 -1.857144807453158242e-01
-7.747700000000000031e+00 -6.210300000000000153e+00 -1.109299999999999997e+01 -6.641701000000000299e+00 -3.499999999999999778e-01
-7.745700000000000252e+00 -2.523300000000000054e+01 -2.067299999999999827e+01 -1.523733000000000004e+00 -6.238294927898919984e-02
-7.745700000000000252e+00 -2.523300000000000054e+01 -1.915299999999999869e+01 -2.958817999999999948e+00 -6.252321167602635510e-02
-7.744799999999999685e+00 1.822299999999999898e+01 -5.665899999999999892e+01 -7.990499999999999936e+00 -2.676487959483042633e-01
-7.743999999999999773e+00 2.130300000000000082e+01 -2.625900000000000034e+01 -4.467229999999999990e+01 -2.998908215927852949e-01
-7.743999999999999773e+00 2.252799999999999869e+01 -2.870200000000000173e+01 -1.763278000000000034e+01 -3.003349978001351728e-01
-7.743999999999999773e+00 2.252799999999999869e+01 -2.710399999999999920e+01 -3.770237000000000194e+01 -2.994388525851049976e-01
-7.743999999999999773e+00 2.275499999999999901e+01 -2.790299999999999869e+01 -4.481313999999999709e+01 -2.997516838446516174e-01
-7.742799999999999905e+00 -1.847899999999999920e+01 -1.365399999999999991e+01 2.853183000000000025e+00 -6.289984903548541395e-02
-7.741900000000000226e+00 -1.119100000000000072e+01 -4.718299999999999983e+01 4.144579000000000235e+00 -5.112635044225022005e-03
-7.739099999999999646e+00 2.804699999999999971e+00 -1.708899999999999864e+01 2.424050999999999956e+00 4.556365704824637264e-02
-7.738100000000000200e+00 -2.022599999999999909e+01 -3.273899999999999721e+01 -1.028574000000000099e+00 1.124678571041034525e-01
-7.738100000000000200e+00 -2.022599999999999909e+01 -3.187300000000000111e+01 -1.480952000000000046e+00 1.138175044533778213e-01
-7.733999999999999986e+00 2.075300000000000011e+01 -6.920099999999999341e+01 5.110592999999999719e+00 -2.676172362234173763e-01
-7.732300000000000395e+00 8.042400000000000659e+00 -6.492600000000000193e+01 8.917711999999999861e+00 -1.011415133753957446e-01
-7.732000000000000206e+00 1.508600000000000030e+01 -5.202700000000000102e+01 7.339248000000000438e-01 -2.672186761768228225e-01
-7.723900000000000432e+00 -1.445500000000000007e+01 -1.034600000000000009e+01 -2.346677999999999997e+01 -1.452848350701593794e-01
-7.722999999999999865e+00 -1.623300000000000054e+01 -4.542199999999999704e+01 1.057937000000000083e+01 -8.260020618169655951e-03
-7.721000000000000085e+00 -1.354299999999999926e+01 -1.001900000000000013e+01 1.918773999999999980e+00 -2.444843139024359679e-01
-7.718200000000000394e+00 4.097000000000000419e+00 -1.915399999999999991e+01 -3.296092999999999762e+01 -9.091826849392926901e-02
-7.717100000000000293e+00 -2.447299999999999898e+01 -1.713899999999999935e+01 2.909806000000000115e+00 -5.191195773062073915e-02
-7.716000000000000192e+00 -2.064999999999999858e+01 -3.691499999999999915e+01 3.506209999999999827e+00 1.077084723244771530e-01
-7.714800000000000324e+00 1.667699999999999960e+01 -5.653699999999999903e+01 -7.007519000000000275e+00 -2.673208882532971398e-01
-7.713300000000000267e+00 4.167100000000000248e-01 -2.651800000000000068e+01 -7.682778000000000418e+01 7.357826267853600014e-03
-7.712699999999999889e+00 1.204499999999999993e+01 -4.213900000000000290e+01 -3.186446000000000112e+01 -2.014390290677501305e-01
-7.712299999999999933e+00 2.040299999999999869e+01 -4.525999999999999801e+01 -3.573179000000000105e+00 -2.989769450564077058e-01
-7.710600000000000342e+00 -8.951700000000000212e-01 -3.354399999999999693e+01 2.614485000000000170e+00 -1.078944688131445451e-01
-7.709900000000000198e+00 -4.582600000000000229e+00 -1.597799999999999976e+01 1.476299999999999990e+01 -1.117713992030419101e-01
-7.705499999999999794e+00 -2.064300000000000068e+01 -3.107199999999999918e+01 -5.145120000000000360e+00 -1.745405074584289729e-01
-7.704699999999999882e+00 8.954700000000000770e+00 -4.343399999999999750e+01 -2.536447999999999828e-02 -2.657707605967628006e-01
-7.704299999999999926e+00 4.830700000000000216e+00 -5.847899999999999920e+01 1.278300999999999910e+00 -1.013591118843002875e-01
-7.704299999999999926e+00 5.881300000000000416e+00 -5.847899999999999920e+01 1.051773999999999987e+00 -1.008984549268856501e-01
-7.702499999999999680e+00 -2.025499999999999901e+01 -2.576999999999999957e+01 -4.804540000000000255e+00 -6.408845027664701599e-02
-7.701699999999999768e+00 2.472700000000000031e+01 -4.695499999999999829e+01 -9.062747999999999138e+00 -2.993443629738555267e-01
-7.701699999999999768e+00 2.577700000000000102e+01 -4.695499999999999829e+01 -2.292215000000000114e+00 -2.994552105947924092e-01
-7.701399999999999579e+00 2.737699999999999889e+01 -3.768099999999999739e+01 -1.543251000000000062e+01 -1.894545421242094796e-01
-7.695700000000000429e+00 -6.264999999999999680e+00 -4.220799999999999841e+01 4.580523999999999596e+00 -2.513726677935841126e-03
-7.692899999999999849e+00 -5.261200000000000321e-01 -4.652300000000000324e+01 -3.570779000000000281e+01 -1.038397849444690629e-01
-7.689000000000000057e+00 -2.905400000000000205e+00 -3.818800000000000239e+01 -2.503964999999999996e+00 -1.092996382699496227e-01
-7.686600000000000321e+00 1.776699999999999946e+01 -5.185000000000000142e+01 1.513815999999999917e+01 -2.679870085968584781e-01
-7.686600000000000321e+00 1.923900000000000077e+01 -5.185000000000000142e+01 1.065958999999999968e+01 -2.035097210403661872e-01
-7.679899999999999949e+00 8.471000000000000085e+00 -6.445000000000000284e+01 8.409605000000000885e+00 -1.009441634918070152e-01
-7.677399999999999558e+00 -7.328000000000000291e+00 -1.108399999999999963e+01 -6.711620000000000363e-01 -3.499999999999999778e-01
-7.673700000000000188e+00 1.538899999999999935e+01 -5.132699999999999818e+01 1.057300000000000040e+01 -2.673864703260382947e-01
-7.673700000000000188e+00 1.625400000000000134e+01 -5.132699999999999818e+01 1.924726000000000070e+01 -2.676347216403436313e-01
-7.673600000000000421e+00 7.846700000000000230e+00 -2.129899999999999949e+01 2.255506000000000011e+00 -8.340318352361415777e-02
-7.672399999999999665e+00 2.160800000000000054e+01 -5.147999999999999687e+01 -2.126714000000000127e+01 -2.683734347270997911e-01
-7.671000000000000263e+00 1.717000000000000171e+01 -4.423499999999999943e+01 9.824711000000000416e-01 -2.036347602549680169e-01
-7.670300000000000118e+00 -2.212099999999999866e+01 -2.513200000000000145e+01 -1.868597999999999981e+00 -6.361031751589631134e-02
-7.668300000000000338e+00 1.385699999999999932e+00 -1.623900000000000077e+01 1.423543000000000003e+00 2.998625984410115825e-02
-7.668300000000000338e+00 2.436300000000000132e+00 -1.623900000000000077e+01 4.509520000000000195e+00 4.490276686932523353e-02
-7.667300000000000004e+00 1.478800000000000026e+01 -3.645700000000000074e+01 4.241734999999999811e-01 -2.046828308341225033e-01
-7.666500000000000092e+00 -2.138700000000000045e+01 -2.501200000000000045e+01 -3.843675999999999870e+00 -6.373716646754626347e-02
-7.666100000000000136e+00 9.705399999999999139e+00 -5.889600000000000080e+01 -3.487611999999999934e+00 -9.947018367392075622e-02
-7.666000000000000369e+00 8.373300000000000187e-01 -3.085300000000000153e+01 -1.583464999999999900e+00 3.412924772047477070e-03
-7.666000000000000369e+00 8.373300000000000187e-01 -2.980300000000000082e+01 -3.548687000000000147e+00 4.918120587524081253e-03
-7.664500000000000313e+00 2.194900000000000162e+01 -5.060000000000000142e+01 -6.032623999999999853e+01 -2.683950828689300461e-01
-7.662700000000000067e+00 -1.597400000000000020e+01 -1.044400000000000084e+01 -1.824257000000000017e+00 -1.430495023104376984e-01
-7.660000000000000142e+00 2.848199999999999932e+01 -3.639800000000000324e+01 -1.662567999999999913e+01 -3.000757833416946019e-01
-7.659600000000000186e+00 -2.144500000000000028e+01 -1.470299999999999940e+01 -9.922620999999999469e+00 -5.209191242877683065e-02
-7.659600000000000186e+00 -1.981500000000000128e+01 -1.470299999999999940e+01 8.628460000000000463e+00 -6.260689614574707629e-02
-7.658000000000000362e+00 1.408300000000000107e+00 -4.457500000000000284e+01 -6.294617999999999824e+00 -1.017773273160256509e-01
-7.657000000000000028e+00 1.424699999999999989e+01 -5.715299999999999869e+01 -1.697334000000000032e+01 -2.667602626725354420e-01
-7.656699999999999839e+00 1.554899999999999949e+01 -5.557600000000000051e+01 -2.206528000000000134e+01 -2.671242060138425689e-01
-7.648399999999999643e+00 1.112400000000000055e+00 -5.476200000000000045e+01 1.056815000000000060e+00 -1.028537993707262926e-01
-7.644999999999999574e+00 2.627599999999999980e+01 -5.370900000000000318e+01 -8.681502999999999304e+00 -2.990150592868969781e-01
-7.642100000000000115e+00 1.837699999999999889e+01 -4.622899999999999920e+01 -1.500367999999999924e+01 -2.038005397305797106e-01
-7.642100000000000115e+00 1.924200000000000088e+01 -4.622899999999999920e+01 2.935522000000000187e+00 -2.041040804304626310e-01
-7.641000000000000014e+00 2.033200000000000074e+01 -4.930199999999999960e+01 -2.900898000000000110e+01 -2.683609890325466818e-01
