1.682199999999999918e+01 7.972899999999999920e+01 9.485200000000000387e+01 -4.375725000000000087e+00 2.763778776727334741e-01
1.682199999999999918e+01 8.326300000000000523e+01 8.107599999999999341e+01 -6.159128000000000380e-01 1.025702246769826520e-01
1.683500000000000085e+01 6.984399999999999409e+01 9.257899999999999352e+01 -1.225742999999999938e+01 4.672181284608657725e-02
1.685900000000000176e+01 8.057699999999999818e+01 9.144199999999999307e+01 1.201648999999999923e+01 1.005044940153285438e-01
1.686799999999999855e+01 7.379200000000000159e+01 9.837800000000000011e+01 -2.210932000000000119e+00 5.504508176317355478e-02
1.687099999999999866e+01 6.876600000000000534e+01 8.312300000000000466e+01 2.553484000000000087e+00 1.784665864450274975e-01
1.687300000000000111e+01 7.796500000000000341e+01 9.678600000000000136e+01 -7.420873000000000275e+00 9.195023172649438581e-02
1.687399999999999878e+01 6.861400000000000432e+01 9.175600000000000023e+01 -1.255414000000000030e+01 4.507653050475120271e-02
1.689900000000000091e+01 7.990099999999999625e+01 7.692199999999999704e+01 4.489930000000000199e+00 2.465605792367357996e-01
1.690700000000000003e+01 7.502200000000000557e+01 9.920099999999999341e+01 -3.606739999999999924e+01 8.802434244927073714e-02
1.690700000000000003e+01 6.927400000000000091e+01 8.172700000000000387e+01 -1.371297999999999995e+01 3.850785237768748065e-02
1.692800000000000082e+01 7.873600000000000421e+01 8.649399999999999977e+01 -5.715862000000000442e+00 9.960197168556247926e-02
1.693499999999999872e+01 8.024399999999999977e+01 9.046500000000000341e+01 2.333537000000000194e+00 1.004913046720661701e-01
1.693499999999999872e+01 7.577500000000000568e+01 7.874099999999999966e+01 4.791707999999999856e+00 8.303514797985599161e-02
1.694200000000000017e+01 7.109799999999999898e+01 9.358599999999999852e+01 -2.325048999999999921e+00 4.882679894733458342e-02
1.694300000000000139e+01 7.852599999999999625e+01 7.600100000000000477e+01 1.272580999999999918e+01 9.495194860481426247e-02
1.694300000000000139e+01 7.367100000000000648e+01 9.747499999999999432e+01 1.102354999999999974e+00 5.424006064126033616e-02
1.696600000000000108e+01 6.896999999999999886e+01 7.950700000000000500e+01 -1.196186999999999889e+00 3.947947481987378743e-02
1.696600000000000108e+01 6.896999999999999886e+01 8.102700000000000102e+01 -1.110340000000000060e+01 1.838065788815737567e-01
1.696600000000000108e+01 6.990999999999999659e+01 7.950700000000000500e+01 -7.306110999999999578e+00 7.479282441175716389e-02
1.697100000000000009e+01 7.299099999999999966e+01 8.080200000000000671e+01 5.765332999999999686e+01 1.144311939660700023e-01
1.697100000000000009e+01 7.439100000000000534e+01 8.080200000000000671e+01 2.434488999999999947e+01 1.053414531282997890e-01
1.697599999999999909e+01 7.096599999999999397e+01 8.022499999999999432e+01 -7.681275000000000297e+00 9.065565847911175035e-02
1.697899999999999920e+01 8.199800000000000466e+01 7.916599999999999682e+01 -6.006358999999999781e+00 1.033149789399132323e-01
1.698300000000000054e+01 6.798600000000000421e+01 8.717100000000000648e+01 -5.830993000000000315e+00 2.775319452051342936e-02
1.700000000000000000e+01 7.140200000000000102e+01 9.428600000000000136e+01 -2.170577999999999896e+00 5.005927513063653661e-02
1.701000000000000156e+01 7.637199999999999989e+01 9.880100000000000193e+01 -2.966116999999999848e+01 8.966252744840695621e-02
1.701200000000000045e+01 8.167900000000000205e+01 8.454900000000000659e+01 9.458826000000000178e-01 1.011940813440979081e-01
1.701800000000000068e+01 6.825400000000000489e+01 8.793000000000000682e+01 -7.830985000000000085e+00 3.190676094095721421e-02
1.701899999999999835e+01 8.326900000000000546e+01 7.997899999999999920e+01 -5.442523000000000444e+00 1.038071398987018973e-01
1.702599999999999980e+01 7.263299999999999557e+01 9.606900000000000261e+01 -1.897005999999999970e+00 5.264755412600222867e-02
1.702899999999999991e+01 6.864100000000000534e+01 8.026699999999999591e+01 -1.950459000000000032e+01 1.823528940218909766e-01
1.705399999999999849e+01 7.790200000000000102e+01 9.579999999999999716e+01 2.190129999999999910e+01 9.213774936967350504e-02
1.706299999999999883e+01 7.173099999999999454e+01 9.504600000000000648e+01 -1.973967000000000027e+00 5.126113219607796034e-02
1.706500000000000128e+01 7.908400000000000318e+01 8.912900000000000489e+01 -1.174091999999999913e+00 1.002895827906651743e-01
1.707100000000000151e+01 8.298900000000000432e+01 8.273900000000000432e+01 -1.846327999999999969e+00 1.024207212309518472e-01
1.707199999999999918e+01 7.991700000000000159e+01 8.508499999999999375e+01 -2.390162999999999816e+00 1.003268179198929244e-01
1.708200000000000074e+01 8.293999999999999773e+01 7.921899999999999409e+01 -2.365657999999999817e+00 1.044446242671677599e-01
1.711199999999999832e+01 8.019899999999999807e+01 9.409199999999999875e+01 -6.191490000000000293e+01 2.771567481486060247e-01
1.712099999999999866e+01 6.992799999999999727e+01 8.146599999999999397e+01 -1.565705999999999953e+01 5.289577785961158130e-02
1.712199999999999989e+01 7.027400000000000091e+01 8.020799999999999841e+01 -3.130254000000000048e+01 7.281200143251795320e-02
1.713800000000000168e+01 6.833400000000000318e+01 8.382299999999999329e+01 5.337970999999999577e+00 1.754267911518817835e-01
1.716400000000000148e+01 6.908400000000000318e+01 9.251600000000000534e+01 -3.649872999999999923e+00 4.705502136750457781e-02
1.716499999999999915e+01 8.014199999999999591e+01 8.982299999999999329e+01 -1.319903000000000048e+01 1.007384760379311378e-01
1.717899999999999849e+01 6.897599999999999909e+01 8.775600000000000023e+01 -9.912399999999999878e+00 3.147221857604097506e-02
1.717899999999999849e+01 6.897599999999999909e+01 8.915600000000000591e+01 -4.179504999999999804e+00 3.751412656812360552e-02
1.718900000000000006e+01 7.858499999999999375e+01 8.824200000000000443e+01 1.629538000000000153e+01 1.002600701723356663e-01
1.719000000000000128e+01 7.707899999999999352e+01 9.821899999999999409e+01 -2.288221000000000060e+00 9.057175740525461038e-02
1.719800000000000040e+01 6.798099999999999454e+01 8.443600000000000705e+01 1.254175000000000040e+00 1.747234593956127902e-01
1.719800000000000040e+01 6.798099999999999454e+01 8.548600000000000421e+01 7.131178999999999713e-01 1.606838956991245640e-02
1.722200000000000131e+01 6.946599999999999397e+01 8.843899999999999295e+01 1.746833999999999887e-01 3.489106371622539837e-02
1.722200000000000131e+01 7.531000000000000227e+01 7.949399999999999977e+01 5.478481999999999630e+00 8.961676286169106831e-02
1.723000000000000043e+01 7.899299999999999500e+01 9.498099999999999454e+01 7.805038000000000409e+01 9.412298228405650835e-02
1.723100000000000165e+01 7.027700000000000102e+01 9.306999999999999318e+01 -8.325385000000000701e+00 4.813422237323301822e-02
1.724399999999999977e+01 7.760200000000000387e+01 9.797499999999999432e+01 2.308606000000000158e+00 9.126958614222251132e-02
1.724500000000000099e+01 7.684600000000000364e+01 7.684199999999999875e+01 1.239605000000000068e+01 8.112324625536607159e-02
1.724500000000000099e+01 7.806699999999999307e+01 9.497199999999999420e+01 4.825220000000000198e+01 9.270574379877064009e-02
1.728500000000000014e+01 7.971899999999999409e+01 8.909900000000000375e+01 -2.902137000000000189e+00 1.007844061150502679e-01
1.729899999999999949e+01 6.855299999999999727e+01 8.987999999999999545e+01 -3.421828999999999787e+00 4.032762371246795263e-02
1.730799999999999983e+01 6.872299999999999898e+01 8.717100000000000648e+01 -1.338069999999999915e+01 2.852758387508506563e-02
1.732799999999999940e+01 6.834499999999999886e+01 8.637500000000000000e+01 -3.424716000000000093e+00 2.343342066969088255e-02
1.732999999999999829e+01 7.066400000000000148e+01 8.146599999999999397e+01 -1.089213999999999904e+00 6.919221964562842497e-02
1.733800000000000097e+01 7.455200000000000671e+01 9.866800000000000637e+01 -1.973443999999999932e+01 8.732444665360455938e-02
1.734499999999999886e+01 7.012199999999999989e+01 8.820699999999999363e+01 1.337863000000000024e+00 3.465216355522135472e-02
1.734700000000000131e+01 7.924800000000000466e+01 8.606399999999999295e+01 -4.245322999999999958e+00 1.006674869536096084e-01
1.736700000000000088e+01 6.943000000000000682e+01 8.023300000000000409e+01 -1.118410000000000082e+01 4.485006126905991680e-02
1.737500000000000000e+01 7.578100000000000591e+01 9.902700000000000102e+01 -1.348813999999999957e+01 8.895524783886797626e-02
1.738800000000000168e+01 7.036100000000000421e+01 8.216599999999999682e+01 8.737439000000000178e+00 6.006509609315598824e-02
1.740099999999999980e+01 7.422299999999999898e+01 9.790800000000000125e+01 -5.947250000000000369e+00 8.668693450480947915e-02
1.740399999999999991e+01 7.369100000000000250e+01 8.106900000000000261e+01 2.757758000000000109e+01 1.174237582551570513e-01
1.740399999999999991e+01 7.488200000000000500e+01 8.040500000000000114e+01 1.168881999999999977e+01 1.016527762496889781e-01
1.740399999999999991e+01 6.952500000000000568e+01 8.781999999999999318e+01 -6.499274999999999913e+00 3.256379936761340937e-02
1.740899999999999892e+01 7.166599999999999682e+01 8.049200000000000443e+01 2.489863999999999855e+00 1.010803189523868939e-01
1.742399999999999949e+01 7.905100000000000193e+01 7.659699999999999420e+01 1.427129000000000048e+01 1.039422364360552686e-01
1.742500000000000071e+01 7.297599999999999909e+01 9.632299999999999329e+01 2.730377999999999972e+00 5.329148859423937790e-02
1.744600000000000151e+01 8.088599999999999568e+01 8.497700000000000387e+01 2.646097999999999839e+00 1.017054538433224548e-01
1.745299999999999940e+01 8.366299999999999670e+01 8.174200000000000443e+01 1.517951000000000050e+00 1.040991617706379380e-01
1.745400000000000063e+01 7.053400000000000603e+01 8.073199999999999932e+01 -1.265570999999999913e+01 7.267098489646808823e-02
1.745499999999999829e+01 6.942199999999999704e+01 8.260200000000000387e+01 5.104923000000000322e+00 4.317528044380190833e-02
1.745799999999999841e+01 7.084999999999999432e+01 9.385299999999999443e+01 -5.051733999999999725e+00 4.977427831405157460e-02
1.745899999999999963e+01 7.214199999999999591e+01 9.567199999999999704e+01 -6.796044000000000196e+00 5.245883966156134059e-02
1.746099999999999852e+01 8.282399999999999807e+01 8.323499999999999943e+01 2.107749999999999901e-01 1.030914963747719126e-01
1.746199999999999974e+01 6.922199999999999420e+01 8.712000000000000455e+01 -1.025009000000000015e+01 2.893797602286674042e-02
1.750700000000000145e+01 8.382299999999999329e+01 8.051699999999999591e+01 -9.811851000000000766e+00 1.050765318182886182e-01
1.751200000000000045e+01 8.044799999999999329e+01 9.274500000000000455e+01 1.948913999999999902e+01 2.783152811145760408e-01
1.751300000000000168e+01 8.246999999999999886e+01 7.868600000000000705e+01 -5.142630999999999730e+00 1.064635565254985761e-01
1.753300000000000125e+01 7.097100000000000364e+01 9.475600000000000023e+01 -2.671367000000000047e+00 5.123893613463707808e-02
1.753699999999999903e+01 8.227500000000000568e+01 8.406799999999999784e+01 -1.103091999999999961e+00 1.027438550387908267e-01
1.754100000000000037e+01 7.636700000000000443e+01 7.761700000000000443e+01 8.997496999999999190e+00 8.780111424084881266e-02
1.755199999999999960e+01 8.370000000000000284e+01 7.950900000000000034e+01 -5.188401999999999958e+00 2.321997987139197139e-01
1.755399999999999849e+01 7.085800000000000409e+01 8.820699999999999363e+01 -1.075721000000000038e-01 7.143515333681246804e-02
1.755799999999999983e+01 7.949099999999999966e+01 7.736199999999999477e+01 8.769776000000000238e-01 1.050085954808583216e-01
1.757300000000000040e+01 7.769700000000000273e+01 9.721800000000000352e+01 2.475049999999999972e+00 9.152896165830273767e-02
1.757600000000000051e+01 8.093500000000000227e+01 7.868600000000000705e+01 -1.038330000000000020e+01 1.055878497243531722e-01
1.760200000000000031e+01 7.656399999999999295e+01 9.899899999999999523e+01 -2.524522999999999850e+00 8.993286580971465716e-02
1.761199999999999832e+01 7.980200000000000671e+01 7.792799999999999727e+01 -3.551321000000000172e+00 1.051181502201003343e-01
1.761199999999999832e+01 7.055500000000000682e+01 8.750700000000000500e+01 -3.300339999999999829e+00 6.872564169181256954e-02
1.761199999999999832e+01 7.055500000000000682e+01 8.890699999999999648e+01 -2.383986000000000161e+00 3.811437586492553292e-02
1.761499999999999844e+01 6.893300000000000693e+01 8.351000000000000512e+01 5.824975000000000014e-01 1.791962948018174240e-01
1.761700000000000088e+01 7.624399999999999977e+01 7.852899999999999636e+01 1.101840999999999937e+01 9.241397399761468179e-02
1.762199999999999989e+01 7.928499999999999659e+01 8.850900000000000034e+01 -7.162773999999999752e+00 1.011667477631323087e-01
1.762800000000000011e+01 7.879399999999999693e+01 8.679800000000000182e+01 -8.668487000000000720e+00 1.010671907450471502e-01
1.762800000000000011e+01 7.879399999999999693e+01 8.766299999999999670e+01 5.283115999999999701e+00 1.010522470795113953e-01
1.762900000000000134e+01 6.883499999999999375e+01 8.637600000000000477e+01 -3.310837999999999948e+00 2.456187449750847629e-02
1.763400000000000034e+01 7.767499999999999716e+01 7.667199999999999704e+01 4.728709000000000273e+00 9.641373835314528962e-02
1.763400000000000034e+01 6.832399999999999807e+01 9.128600000000000136e+01 -4.366082999999999714e+00 4.507591528326680003e-02
1.763400000000000034e+01 6.855100000000000193e+01 9.208499999999999375e+01 -2.984172000000000047e+00 4.689370021195174432e-02
1.763400000000000034e+01 6.977599999999999625e+01 9.293000000000000682e+01 -5.087228000000000350e+01 4.836601758316497884e-02
1.764199999999999946e+01 7.850000000000000000e+01 9.448099999999999454e+01 8.077053999999999689e+01 9.365947204259421344e-02
1.765200000000000102e+01 7.949500000000000455e+01 9.445600000000000307e+01 4.826984000000000208e+01 2.770525568634487623e-01
1.766300000000000026e+01 6.844599999999999795e+01 9.046999999999999886e+01 -3.316427000000000014e+00 4.283699414271917999e-02
1.767800000000000082e+01 7.736700000000000443e+01 9.523900000000000432e+01 3.446679999999999922e+01 9.151700780446433980e-02
1.767800000000000082e+01 7.736700000000000443e+01 9.610500000000000398e+01 1.458338999999999963e+01 9.128875864250235450e-02
1.770100000000000051e+01 7.525300000000000011e+01 9.882500000000000284e+01 -1.193271999999999977e+01 8.827899680350831391e-02
1.770200000000000173e+01 7.986199999999999477e+01 9.365800000000000125e+01 6.181197000000000052e+00 2.776707328996215196e-01
1.771799999999999997e+01 8.058899999999999864e+01 9.034099999999999397e+01 -1.411373999999999995e+01 1.014939718956466563e-01
1.773999999999999844e+01 7.231999999999999318e+01 8.047899999999999920e+01 5.272880999999999929e+00 1.124678793331429089e-01
1.774800000000000111e+01 7.138400000000000034e+01 8.818500000000000227e+01 -2.353288000000000046e+00 7.398210416012351853e-02
1.775499999999999901e+01 8.047899999999999920e+01 8.938899999999999579e+01 -1.248808999999999969e+01 1.016029310989007700e-01
1.775600000000000023e+01 8.036799999999999500e+01 9.112600000000000477e+01 4.761680000000000135e+00 1.014275591711871066e-01
1.776899999999999835e+01 7.777200000000000557e+01 9.810399999999999920e+01 1.553776000000000046e+00 9.149993912962092746e-02
1.778500000000000014e+01 6.992799999999999727e+01 8.265699999999999648e+01 1.008726000000000056e+01 5.205618826520808096e-02
1.779400000000000048e+01 6.846200000000000330e+01 8.496099999999999852e+01 1.966854000000000102e-01 1.358788397915960955e-02
1.779700000000000060e+01 8.029000000000000625e+01 8.548699999999999477e+01 1.509047000000000027e+00 1.021299752626066704e-01
1.780600000000000094e+01 6.870699999999999363e+01 8.580700000000000216e+01 -4.923567000000000249e+00 2.098741072955612880e-02
1.780600000000000094e+01 7.107999999999999829e+01 8.748499999999999943e+01 -6.073839999999999684e+00 7.160324540029200380e-02
1.780600000000000094e+01 7.107999999999999829e+01 8.888500000000000512e+01 -2.525637000000000021e-01 7.342264895042052708e-02
1.782100000000000151e+01 7.106100000000000705e+01 8.103300000000000125e+01 1.926147000000000054e+00 8.172835988224710912e-02
1.782100000000000151e+01 7.106100000000000705e+01 8.189900000000000091e+01 7.790155000000000385e+00 7.432550443745020163e-02
1.782199999999999918e+01 7.140699999999999648e+01 8.064100000000000534e+01 3.605141000000000151e+00 9.415415428603519932e-02
1.782300000000000040e+01 7.144100000000000250e+01 9.551600000000000534e+01 -6.377352000000000132e+00 5.254864733643194175e-02
1.782999999999999829e+01 8.167300000000000182e+01 7.863899999999999579e+01 -1.771795000000000009e+00 1.075609141012606323e-01
1.783099999999999952e+01 6.874699999999999989e+01 8.415500000000000114e+01 -4.419913999999999787e-01 1.786614023355040104e-01
1.783500000000000085e+01 8.331900000000000261e+01 8.276399999999999579e+01 -4.793635000000000090e+00 1.043396313535650544e-01
1.783599999999999852e+01 7.299099999999999966e+01 8.080200000000000671e+01 1.100592999999999932e+01 1.158355392036938963e-01
1.783599999999999852e+01 7.439100000000000534e+01 8.080200000000000671e+01 9.840780000000000527e+00 1.120923911858337785e-01
1.784199999999999875e+01 8.323000000000000398e+01 7.874899999999999523e+01 -1.230125999999999920e+01 2.358684900988167743e-01
1.785999999999999943e+01 7.290099999999999625e+01 9.607299999999999329e+01 -5.245531999999999861e+00 5.335732224899662063e-02
1.787900000000000134e+01 8.023499999999999943e+01 7.862800000000000011e+01 -1.008257000000000048e+01 1.065067378037985596e-01
1.789000000000000057e+01 7.734600000000000364e+01 9.865200000000000102e+01 5.074585999999999819e-01 9.092016104183189840e-02
1.790299999999999869e+01 6.967600000000000193e+01 8.638500000000000512e+01 -8.037070999999999188e+00 2.653709251769824709e-02
1.791400000000000148e+01 7.388400000000000034e+01 9.648300000000000409e+01 2.359125999999999834e+01 8.579697440942660180e-02
1.792699999999999960e+01 7.488800000000000523e+01 9.823399999999999466e+01 -8.480501000000000289e+00 8.771035439463194250e-02
1.794099999999999895e+01 8.008899999999999864e+01 8.865800000000000125e+01 -3.834191000000000127e+00 1.018453913420225287e-01
1.794500000000000028e+01 7.779999999999999716e+01 9.453900000000000148e+01 4.631819999999999737e+01 9.251516517438121423e-02
1.794500000000000028e+01 7.779999999999999716e+01 9.680500000000000682e+01 7.423823000000000505e-01 9.178185604198106640e-02
1.794699999999999918e+01 7.017100000000000648e+01 8.668300000000000693e+01 -9.261155999999999722e+00 6.481183147498179031e-02
1.797500000000000142e+01 8.131499999999999773e+01 8.503400000000000603e+01 3.063797000000000104e+00 1.030165136589986652e-01
1.798300000000000054e+01 7.536100000000000421e+01 7.981000000000000227e+01 6.828350999999999615e+00 9.830455019549913520e-02
1.801999999999999957e+01 7.714199999999999591e+01 7.732099999999999795e+01 1.198029999999999973e+02 9.925333756194947010e-02
1.802299999999999969e+01 7.873799999999999955e+01 7.707399999999999807e+01 5.276834000000000024e+00 1.076670839495560000e-01
1.805999999999999872e+01 7.949399999999999977e+01 8.653100000000000591e+01 -1.712832999999999828e+01 1.021889893294380680e-01
1.807700000000000173e+01 7.809499999999999886e+01 7.721599999999999397e+01 5.916687999999999725e+00 1.050793246586428920e-01
1.808599999999999852e+01 7.471299999999999386e+01 9.730100000000000193e+01 6.729263000000000439e+00 8.729631556324646269e-02
1.808800000000000097e+01 7.062800000000000011e+01 8.259900000000000375e+01 7.557815999999999867e+00 6.422352053387569981e-02
1.809400000000000119e+01 6.967600000000000193e+01 8.956300000000000239e+01 -4.796235000000000248e+00 4.074601859080052152e-02
1.810399999999999920e+01 6.908400000000000318e+01 9.251600000000000534e+01 -3.932163000000000075e+00 4.832044532704547757e-02
1.811899999999999977e+01 7.919100000000000250e+01 8.723099999999999454e+01 -6.285910000000000331e+00 1.020857887825116495e-01
1.813299999999999912e+01 6.915800000000000125e+01 8.482200000000000273e+01 -7.438067000000000206e+00 1.533096897106858182e-02
1.813500000000000156e+01 7.957500000000000284e+01 8.794400000000000261e+01 -3.965875000000000039e+00 1.021088736243303263e-01
1.814000000000000057e+01 7.369100000000000250e+01 8.085999999999999943e+01 -4.984354999999999758e-01 1.217818421127427470e-01
1.815800000000000125e+01 7.673999999999999488e+01 7.804200000000000159e+01 2.423758000000000123e+01 1.002900561673611690e-01
1.816100000000000136e+01 8.288200000000000500e+01 8.353900000000000148e+01 -1.166489999999999938e+01 1.045317309318439386e-01
1.817599999999999838e+01 6.965399999999999636e+01 8.309199999999999875e+01 6.370275000000000354e+00 4.905228712225732923e-02
1.819699999999999918e+01 6.900100000000000477e+01 8.998900000000000432e+01 -3.501920000000000144e+00 4.226319554858915667e-02
1.823900000000000077e+01 7.178000000000000114e+01 8.775199999999999534e+01 -4.780807000000000251e+00 7.576183479073010651e-02
1.823900000000000077e+01 7.178000000000000114e+01 8.861700000000000443e+01 -2.384964999999999780e+00 7.635436932333405924e-02
1.824099999999999966e+01 6.929000000000000625e+01 8.396999999999999886e+01 -1.616314000000000028e+00 4.808059071124322348e-02
1.826000000000000156e+01 7.816899999999999693e+01 9.853700000000000614e+01 2.133344000000000129e+00 9.196294442313127093e-02
1.827299999999999969e+01 7.796500000000000341e+01 9.765099999999999625e+01 4.725792000000000215e+00 9.185863953201171828e-02
1.828099999999999881e+01 7.673300000000000409e+01 9.951600000000000534e+01 2.298732999999999915e+00 9.019313024596654904e-02
1.829100000000000037e+01 7.917100000000000648e+01 7.777400000000000091e+01 -2.921310000000000073e+00 1.094588509079592875e-01
1.829200000000000159e+01 8.031000000000000227e+01 9.221999999999999886e+01 1.072221000000000046e+01 1.002083913794099973e-01
1.829299999999999926e+01 7.068099999999999739e+01 9.428600000000000136e+01 -3.334782999999999831e+00 5.137457519425971120e-02
1.829299999999999926e+01 7.090800000000000125e+01 9.508499999999999375e+01 -7.668192000000000341e+00 5.247141789347702090e-02
1.829299999999999926e+01 7.220099999999999341e+01 9.580599999999999739e+01 -1.151925999999999917e+01 5.337171839536780649e-02
1.831099999999999994e+01 7.345099999999999341e+01 9.599200000000000443e+01 4.851338000000000150e+00 5.374122024607223824e-02
1.831200000000000117e+01 7.974399999999999977e+01 7.823099999999999454e+01 -4.487943999999999711e+00 1.094220886098079826e-01
1.831200000000000117e+01 8.093500000000000227e+01 7.889499999999999602e+01 -6.243832000000000271e+00 1.090373509157845228e-01
1.831200000000000117e+01 8.246999999999999886e+01 7.845900000000000318e+01 -2.678726000000000163e+00 1.099434025992182817e-01
1.831200000000000117e+01 8.376300000000000523e+01 7.918000000000000682e+01 -3.481600000000000250e+01 2.340219421122917143e-01
1.831200000000000117e+01 8.398999999999999488e+01 7.997899999999999920e+01 -1.520058000000000042e+01 1.077014434096307260e-01
1.831700000000000017e+01 7.630200000000000671e+01 7.883199999999999363e+01 5.977266000000000190e+00 1.019175902171769454e-01
1.833099999999999952e+01 7.779999999999999716e+01 9.938700000000000045e+01 2.928148000000000195e+00 9.143720798648583004e-02
1.833699999999999974e+01 8.413200000000000500e+01 8.143000000000000682e+01 -7.894848999999999783e+00 1.064783433466672397e-01
1.834700000000000131e+01 7.458400000000000318e+01 9.675000000000000000e+01 1.273362000000000016e+01 8.701937526147665580e-02
1.836100000000000065e+01 7.055700000000000216e+01 9.337900000000000489e+01 -1.769003999999999976e+01 5.005022361535521602e-02
1.836199999999999832e+01 7.949399999999999977e+01 9.412800000000000011e+01 2.619415000000000049e+01 2.777776823537608242e-01
1.837500000000000000e+01 7.484499999999999886e+01 8.024699999999999989e+01 4.618199999999999861e+00 1.097584901599999718e-01
1.837800000000000011e+01 7.709999999999999432e+01 9.567199999999999704e+01 2.125800999999999874e+01 9.103968655599577187e-02
1.837800000000000011e+01 7.730899999999999750e+01 9.493600000000000705e+01 2.536743999999999843e+01 9.158788316350673087e-02
1.837800000000000011e+01 7.730899999999999750e+01 9.640800000000000125e+01 7.200548000000000393e+00 9.120007725824080813e-02
1.837800000000000011e+01 7.850000000000000000e+01 9.427200000000000557e+01 4.154896000000000100e+01 9.384900803526355362e-02
1.839399999999999835e+01 6.861400000000000432e+01 9.081600000000000250e+01 -1.845626000000000033e+01 4.508810617607549032e-02
1.839399999999999835e+01 6.861400000000000432e+01 9.175600000000000023e+01 -2.899402999999999864e+01 4.734045675824151422e-02
1.840200000000000102e+01 7.980400000000000205e+01 9.335500000000000398e+01 1.831571999999999889e+01 2.784028451090566070e-01
1.840200000000000102e+01 7.795999999999999375e+01 9.711400000000000432e+01 4.822536999999999630e+00 9.197308475088436519e-02
1.840800000000000125e+01 8.180599999999999739e+01 8.463700000000000045e+01 6.925181000000000253e+00 1.042282996055709648e-01
1.841700000000000159e+01 8.400300000000000011e+01 8.243200000000000216e+01 -5.440259000000000178e+00 1.059168664689785072e-01
1.843900000000000006e+01 7.757399999999999807e+01 7.802100000000000080e+01 5.941042000000000201e+01 1.062496387726848679e-01
1.845599999999999952e+01 7.587699999999999534e+01 7.937300000000000466e+01 4.508237000000000272e+00 1.030805155005594387e-01
1.845700000000000074e+01 8.054500000000000171e+01 8.610099999999999909e+01 -2.745169999999999888e+00 1.033894016676631944e-01
1.846799999999999997e+01 8.230500000000000682e+01 8.419199999999999307e+01 -3.814566999999999819e+00 1.046976833184584538e-01
1.846999999999999886e+01 7.531100000000000705e+01 9.863200000000000500e+01 -2.736625999999999781e+00 8.838423059720067199e-02
1.847599999999999909e+01 7.231999999999999318e+01 8.026999999999999602e+01 2.053227000000000135e+00 1.171464027673149583e-01
1.847700000000000031e+01 8.412399999999999523e+01 8.085899999999999466e+01 -1.410937000000000019e+01 1.072742051081726766e-01
1.848600000000000065e+01 8.064700000000000557e+01 8.904300000000000637e+01 -1.446589999999999954e+01 1.026546376202393807e-01
1.850600000000000023e+01 7.134799999999999898e+01 8.705200000000000671e+01 -9.345864000000000615e+00 7.295648450770986226e-02
1.850600000000000023e+01 7.134799999999999898e+01 8.931699999999999307e+01 -3.070451999999999959e+00 7.525145352528142539e-02
1.851500000000000057e+01 8.033299999999999841e+01 9.139400000000000546e+01 -6.536497999999999919e+00 1.018573004891937944e-01
1.851500000000000057e+01 8.054200000000000159e+01 9.065800000000000125e+01 -5.438038999999999845e+01 1.023520477595442485e-01
1.851500000000000057e+01 8.076900000000000546e+01 8.985899999999999466e+01 -7.065010999999999797e+01 1.025422958303442850e-01
1.852100000000000080e+01 7.111899999999999977e+01 8.220199999999999818e+01 1.841604000000000019e+00 7.447318673457682670e-02
1.852100000000000080e+01 7.132800000000000296e+01 8.146599999999999397e+01 -3.780857999999999830e+00 8.348465685902285716e-02
1.852700000000000102e+01 6.980800000000000693e+01 8.993600000000000705e+01 -6.865263999999999811e+00 4.278891835050437770e-02
1.853600000000000136e+01 7.325900000000000034e+01 8.036899999999999977e+01 -4.108062000000000324e+00 1.261323738253941062e-01
1.861400000000000077e+01 7.415099999999999625e+01 9.604999999999999716e+01 1.119387000000000043e+01 8.619805042536746176e-02
1.862000000000000099e+01 7.027100000000000080e+01 9.268399999999999750e+01 -3.288228000000000151e+01 4.921794911397475020e-02
1.862399999999999878e+01 6.955500000000000682e+01 8.438899999999999579e+01 -1.306907000000000041e+00 5.338115875458106924e-02
1.862399999999999878e+01 6.955500000000000682e+01 8.525499999999999545e+01 -2.001959999999999962e+00 2.180704787153509364e-02
1.862699999999999889e+01 6.981300000000000239e+01 8.586400000000000432e+01 -4.826482999999999635e+00 2.622127536671616660e-02
1.864099999999999824e+01 8.035599999999999454e+01 8.682500000000000284e+01 -3.634971000000000174e+00 1.034297851530635165e-01
1.864099999999999824e+01 8.035599999999999454e+01 8.822499999999999432e+01 -3.756988999999999912e+00 1.030098897980318284e-01
1.864699999999999847e+01 7.043800000000000239e+01 8.625100000000000477e+01 -5.753550999999999860e+00 6.608091159926492153e-02
1.867500000000000071e+01 8.137300000000000466e+01 8.533700000000000330e+01 5.680057999999999829e+00 1.043273539577792147e-01
1.869999999999999929e+01 8.005299999999999727e+01 8.752500000000000568e+01 -4.259388000000000396e+00 1.032346276949673014e-01
1.870700000000000074e+01 8.353300000000000125e+01 8.319199999999999307e+01 -3.790395999999999788e+01 1.059683971760532889e-01
1.872700000000000031e+01 7.045999999999999375e+01 8.989400000000000546e+01 -1.034468000000000032e+01 4.325525243393324448e-02
1.874500000000000099e+01 8.023499999999999943e+01 7.862800000000000011e+01 -2.869628000000000068e+00 1.114690848793679495e-01
1.876300000000000168e+01 7.144100000000000250e+01 9.551600000000000534e+01 -1.626072999999999880e+01 5.348591737212132768e-02
1.876599999999999824e+01 8.166899999999999693e+01 7.861499999999999488e+01 -1.800923000000000052e+00 1.116371020577429513e-01
1.878200000000000003e+01 8.323000000000000398e+01 7.874899999999999523e+01 -2.723946000000000112e+01 1.107510006510270956e-01
1.878600000000000136e+01 7.403100000000000591e+01 8.031000000000000227e+01 1.921874000000000082e-01 1.238032953226664706e-01
1.878600000000000136e+01 7.498000000000000398e+01 9.773399999999999466e+01 4.203426000000000329e+00 8.783418389024594264e-02
1.880999999999999872e+01 7.779999999999999716e+01 9.453900000000000148e+01 2.615259000000000000e+01 9.261709216585742310e-02
1.881200000000000117e+01 7.727500000000000568e+01 9.998300000000000409e+01 3.859001999999999821e+00 9.085748894007426857e-02
1.882000000000000028e+01 7.584199999999999875e+01 9.922700000000000387e+01 6.913331000000000337e-01 8.915939490001154044e-02
1.884400000000000119e+01 7.693399999999999750e+01 7.859399999999999409e+01 7.500516000000000183e+00 1.085909853811278525e-01
1.885600000000000165e+01 7.865000000000000568e+01 9.801200000000000045e+01 7.287444999999999951e+00 9.269925369601714205e-02
1.885600000000000165e+01 7.865000000000000568e+01 9.906199999999999761e+01 4.197284999999999933e+00 9.248998816508577359e-02
1.885699999999999932e+01 7.829800000000000182e+01 7.771500000000000341e+01 4.200543999999999834e+00 1.127511778139422133e-01
1.886400000000000077e+01 6.937399999999999523e+01 9.052599999999999625e+01 -9.615467999999999904e+00 4.509620129906870972e-02
1.886400000000000077e+01 6.937399999999999523e+01 9.204600000000000648e+01 -2.982290000000000063e+01 4.852086367068714906e-02
1.889799999999999969e+01 6.967700000000000671e+01 8.345300000000000296e+01 8.785374000000000239e-01 5.212212908074738416e-02
1.892699999999999960e+01 6.904500000000000171e+01 9.128600000000000136e+01 -1.267364000000000068e+01 4.711895972426193013e-02
1.893900000000000006e+01 7.183899999999999864e+01 8.744899999999999807e+01 -2.708521999999999874e+00 7.630306559507402109e-02
1.893900000000000006e+01 7.183899999999999864e+01 8.892100000000000648e+01 -3.057484999999999786e+00 7.714142055607767223e-02
1.893900000000000006e+01 7.204800000000000182e+01 8.818500000000000227e+01 -2.015960999999999892e+00 7.767801821259104345e-02
1.895299999999999940e+01 7.062800000000000011e+01 8.259900000000000375e+01 3.763818999999999804e+00 6.585242620968563554e-02
1.895599999999999952e+01 7.790900000000000603e+01 9.680800000000000693e+01 8.069506999999999763e+00 9.203299568069767123e-02
1.895700000000000074e+01 7.147899999999999920e+01 8.054500000000000171e+01 -1.193880999999999970e-01 9.868098871660903326e-02
1.896699999999999875e+01 7.278900000000000148e+01 7.983599999999999852e+01 1.602765999999999913e+00 1.317056532982149308e-01
1.898199999999999932e+01 8.090800000000000125e+01 8.755800000000000693e+01 3.519249999999999989e+00 1.038351416503181801e-01
1.902400000000000091e+01 7.983299999999999841e+01 9.342300000000000182e+01 1.107330000000000041e+02 2.789030324913480685e-01
1.902400000000000091e+01 8.006399999999999295e+01 9.260800000000000409e+01 7.401207999999999743e+01 9.892486417541272725e-02
1.902400000000000091e+01 8.027299999999999613e+01 9.187199999999999989e+01 2.662800999999999974e+00 1.008206137549504389e-01
1.903000000000000114e+01 7.115999999999999659e+01 8.983599999999999852e+01 -7.537401000000000018e+00 4.405924053560675291e-02
1.903200000000000003e+01 8.308199999999999363e+01 8.384699999999999420e+01 -1.612254000000000076e+01 1.061340636728054232e-01
1.904599999999999937e+01 7.871299999999999386e+01 9.447899999999999920e+01 1.864078999999999908e+01 9.415300392940847973e-02
1.904700000000000060e+01 7.345099999999999341e+01 9.578300000000000125e+01 3.521275000000000155e+00 5.420310579068464418e-02
1.904700000000000060e+01 7.464199999999999591e+01 9.644700000000000273e+01 8.667707000000000050e+00 8.715126650983787138e-02
1.904700000000000060e+01 7.485099999999999909e+01 9.718300000000000693e+01 5.878192999999999557e+00 8.759432783947039558e-02
1.904799999999999827e+01 8.093500000000000227e+01 7.868600000000000705e+01 -6.180938000000000265e+00 1.128268198883002060e-01
1.905300000000000082e+01 7.097100000000000364e+01 9.295099999999999341e+01 -2.112505000000000166e+01 5.030886675995530771e-02
1.905300000000000082e+01 7.097100000000000364e+01 9.381600000000000250e+01 -1.040752999999999950e+01 5.162760719207550031e-02
1.905300000000000082e+01 7.097100000000000364e+01 9.475600000000000023e+01 -7.812596000000000096e+00 5.290124710022474364e-02
1.907199999999999918e+01 8.370000000000000284e+01 7.950900000000000034e+01 -2.229520000000000124e+01 1.102861466647730576e-01
1.907799999999999940e+01 7.736700000000000443e+01 9.523900000000000432e+01 1.466286000000000023e+01 9.167605283757526702e-02
1.907799999999999940e+01 7.736700000000000443e+01 9.610500000000000398e+01 1.320885999999999960e+01 9.143600599074686031e-02
1.907999999999999829e+01 7.092900000000000205e+01 8.664700000000000557e+01 -2.093345999999999929e+00 7.040890001947472387e-02
1.909700000000000131e+01 7.527500000000000568e+01 9.881999999999999318e+01 1.344221000000000110e+00 8.843494030162275810e-02
1.910800000000000054e+01 8.207299999999999329e+01 8.506999999999999318e+01 5.391890000000000072e+00 1.054069692357719329e-01
1.910900000000000176e+01 8.131799999999999784e+01 8.662999999999999545e+01 -1.180118000000000000e+00 1.044853212180969076e-01
1.912800000000000011e+01 8.249899999999999523e+01 7.858100000000000307e+01 -1.871833999999999998e+00 1.125568000715416461e-01
1.913899999999999935e+01 7.784199999999999875e+01 7.845300000000000296e+01 7.372722999999999693e+00 1.125692729187095092e-01
1.914699999999999847e+01 8.382099999999999795e+01 8.041200000000000614e+01 -6.546334000000000231e+01 1.093620756550339052e-01
1.915200000000000102e+01 7.962399999999999523e+01 9.428900000000000148e+01 2.001238000000000028e+01 2.783859626107423324e-01
1.916600000000000037e+01 8.176999999999999602e+01 8.576999999999999602e+01 -2.308936000000000099e+00 1.050750116493240072e-01
1.916799999999999926e+01 8.257299999999999329e+01 8.462500000000000000e+01 -1.230037999999999965e+00 1.058402904504828906e-01
1.917699999999999960e+01 8.406600000000000250e+01 8.116299999999999670e+01 -1.891535000000000011e+01 1.085707612615854217e-01
1.917699999999999960e+01 8.406600000000000250e+01 8.276099999999999568e+01 -3.744252000000000180e+01 1.071742717876403156e-01
1.917699999999999960e+01 8.429300000000000637e+01 8.196200000000000330e+01 -4.785974000000000217e+01 1.077887265651051169e-01
1.918100000000000094e+01 7.642499999999999716e+01 9.991200000000000614e+01 1.937721999999999944e+00 8.993685008591148500e-02
1.919999999999999929e+01 7.213299999999999557e+01 9.593000000000000682e+01 -8.580679999999999197e+00 5.439829381317198148e-02
1.921999999999999886e+01 7.901399999999999579e+01 7.768399999999999750e+01 3.931448000000000054e+00 1.164335974401182472e-01
1.922100000000000009e+01 7.106100000000000705e+01 8.103300000000000125e+01 -1.740294999999999925e+00 8.432784319025715680e-02
1.922100000000000009e+01 7.106100000000000705e+01 8.189900000000000091e+01 2.089106000000000019e-01 7.679988159765281652e-02
1.922700000000000031e+01 7.007500000000000284e+01 9.036899999999999977e+01 -8.139115999999999573e+00 4.546320869161241118e-02
1.923000000000000043e+01 6.964600000000000080e+01 9.121099999999999852e+01 -4.295571000000000339e+01 4.741636627418228250e-02
1.924399999999999977e+01 6.969299999999999784e+01 8.386400000000000432e+01 -1.393593999999999999e+00 5.458385349575121948e-02
1.926000000000000156e+01 7.077899999999999636e+01 8.060399999999999920e+01 1.986210999999999949e-01 8.365931098292986312e-02
1.927400000000000091e+01 8.036799999999999500e+01 9.112600000000000477e+01 -5.323921000000000348e+00 1.026319919285211685e-01
1.928300000000000125e+01 8.083499999999999375e+01 8.864900000000000091e+01 -3.184187999999999796e+00 1.038512694723041641e-01
1.929599999999999937e+01 7.202899999999999636e+01 7.989900000000000091e+01 1.898284000000000082e+00 1.204964461094229222e-01
1.929599999999999937e+01 7.354900000000000659e+01 7.989900000000000091e+01 2.008411999999999864e+00 1.352716959294903154e-01
1.929599999999999937e+01 7.494899999999999807e+01 7.989900000000000091e+01 3.282420000000000115e+00 1.149778666383071829e-01
1.931200000000000117e+01 8.058899999999999864e+01 9.034099999999999397e+01 -4.060969999999999658e+01 1.033168889489434195e-01
1.931400000000000006e+01 8.008100000000000307e+01 7.821099999999999852e+01 -5.389950999999999492e-01 1.154247489026051510e-01
1.931599999999999895e+01 8.061299999999999955e+01 8.940600000000000591e+01 -4.007990000000000208e+01 1.036055090799446604e-01
1.932000000000000028e+01 7.053900000000000148e+01 9.225100000000000477e+01 -3.553345999999999805e+01 4.954199881295287544e-02
1.932400000000000162e+01 6.982200000000000273e+01 8.290600000000000591e+01 9.429834999999999745e-01 5.437372549763328650e-02
1.932400000000000162e+01 6.982200000000000273e+01 8.482200000000000273e+01 -4.170537999999999634e+00 5.885742265577341426e-02
1.935200000000000031e+01 6.973999999999999488e+01 8.547199999999999420e+01 -4.065077999999999747e+00 2.713336567837586547e-02
1.936799999999999855e+01 7.889900000000000091e+01 9.946099999999999852e+01 1.832999000000000045e+00 9.274608508691754849e-02
1.937399999999999878e+01 8.256199999999999761e+01 8.590200000000000102e+01 5.747351000000000543e-01 1.054227525579973096e-01
1.937699999999999889e+01 7.954200000000000159e+01 7.792400000000000659e+01 4.945478999999999736e+00 1.166859761024725828e-01
1.937999999999999901e+01 7.632399999999999807e+01 7.931199999999999761e+01 6.734332000000000207e+00 1.116932750229194526e-01
1.941300000000000026e+01 8.200300000000000011e+01 8.650799999999999557e+01 -6.749929000000000068e-01 1.051108349178784679e-01
1.944200000000000017e+01 7.732299999999999329e+01 1.003900000000000006e+02 3.474857000000000085e+00 9.096672857937510015e-02
1.945799999999999841e+01 7.585800000000000409e+01 9.950600000000000023e+01 2.399824000000000179e+00 8.927980838976050382e-02
1.946300000000000097e+01 7.165099999999999625e+01 8.943899999999999295e+01 -2.503188000000000191e+00 7.707324491689399037e-02
1.946300000000000097e+01 7.185999999999999943e+01 8.870300000000000296e+01 -3.973168000000000255e-01 7.742495829583534439e-02
1.946399999999999864e+01 7.139499999999999602e+01 8.712000000000000455e+01 1.245333999999999941e+00 7.408619145425390795e-02
1.946799999999999997e+01 6.994299999999999784e+01 8.595199999999999818e+01 -2.899827000000000155e+00 3.060836834971395609e-02
1.946900000000000119e+01 7.840600000000000591e+01 1.002500000000000000e+02 5.595215999999999745e+00 9.212417429901362254e-02
1.948000000000000043e+01 7.415099999999999625e+01 9.604999999999999716e+01 6.306189999999999962e+00 8.634837690803882915e-02
1.948999999999999844e+01 7.053400000000000603e+01 9.019299999999999784e+01 -3.400951000000000057e+00 4.569296353394775717e-02
1.951000000000000156e+01 7.806699999999999307e+01 9.497199999999999420e+01 1.744751000000000118e+01 9.295752705019653950e-02
1.951200000000000045e+01 7.043800000000000239e+01 8.625100000000000477e+01 -2.435153000000000123e+00 6.716147103399416896e-02
1.951800000000000068e+01 7.255400000000000205e+01 9.615900000000000603e+01 -6.268892000000000131e+00 5.496389412776060690e-02
1.953500000000000014e+01 7.138200000000000500e+01 9.526600000000000534e+01 -1.043951999999999991e+01 5.405851631082454756e-02
1.955099999999999838e+01 7.699299999999999500e+01 7.910800000000000409e+01 6.798535000000000217e+00 1.136159876506150218e-01
1.955199999999999960e+01 7.824099999999999966e+01 9.637500000000000000e+01 9.849780000000000868e+00 9.269271345356881742e-02
1.955600000000000094e+01 7.903300000000000125e+01 9.750799999999999557e+01 2.837048999999999932e+00 9.337878234431826185e-02
1.956599999999999895e+01 7.484199999999999875e+01 9.825900000000000034e+01 3.433683999999999958e+00 5.692522521526153373e-02
1.956899999999999906e+01 7.776399999999999579e+01 9.567199999999999704e+01 1.313048000000000037e+01 9.222946383631558387e-02
1.957199999999999918e+01 7.833299999999999841e+01 7.805700000000000216e+01 7.796257999999999910e+00 1.172082248877156091e-01
1.958899999999999864e+01 8.175199999999999534e+01 8.745699999999999363e+01 4.590004000000000417e+00 1.048716182091485177e-01
1.960500000000000043e+01 7.133299999999999841e+01 9.475900000000000034e+01 -1.568542000000000058e+01 5.355965054326779218e-02
1.960900000000000176e+01 8.303300000000000125e+01 7.913599999999999568e+01 -2.839445999999999870e+01 1.126184023297183839e-01
1.961499999999999844e+01 8.134900000000000375e+01 8.814000000000000057e+01 2.249385000000000190e+00 1.045553069193823070e-01
1.961700000000000088e+01 8.078100000000000591e+01 7.826900000000000546e+01 3.797702000000000022e-01 1.162216097126169967e-01
1.963899999999999935e+01 7.178000000000000114e+01 8.775199999999999534e+01 7.886857000000000451e-01 7.669695381173848026e-02
1.964600000000000080e+01 7.034699999999999420e+01 8.019899999999999807e+01 2.225070999999999799e+00 8.042943589776249680e-02
1.965299999999999869e+01 7.036100000000000421e+01 8.076600000000000534e+01 2.690544000000000047e+00 7.370873273367709033e-02
1.965299999999999869e+01 7.036100000000000421e+01 8.216599999999999682e+01 1.742609000000000075e+00 6.496789834658882323e-02
1.965700000000000003e+01 7.121200000000000330e+01 8.011299999999999955e+01 1.818527000000000005e+00 1.017283385871595031e-01
1.966199999999999903e+01 8.336299999999999955e+01 7.994299999999999784e+01 -5.861883999999999872e+01 1.113641850102850689e-01
1.967800000000000082e+01 7.919299999999999784e+01 9.490999999999999659e+01 5.283784999999999954e+00 9.471567650397612337e-02
1.970700000000000074e+01 8.309999999999999432e+01 8.505599999999999739e+01 1.782502000000000031e+00 1.064825235812077997e-01
1.971199999999999974e+01 7.066400000000000148e+01 8.146599999999999397e+01 1.745665999999999940e+00 7.421634137666019426e-02
1.971900000000000119e+01 8.334499999999999886e+01 8.590200000000000102e+01 2.793137999999999899e+00 1.059625315601189222e-01
1.971900000000000119e+01 8.365000000000000568e+01 8.067799999999999727e+01 -3.810285999999999973e+01 1.104120522741104810e-01
1.972100000000000009e+01 7.016100000000000136e+01 9.079600000000000648e+01 -1.570559000000000083e+01 4.751227998006980063e-02
1.972100000000000009e+01 7.016100000000000136e+01 9.162600000000000477e+01 -2.233869999999999933e+01 4.915603661402282581e-02
1.972400000000000020e+01 8.033100000000000307e+01 9.217499999999999716e+01 1.384908000000000072e+01 1.005519326578894479e-01
1.973199999999999932e+01 8.314100000000000534e+01 8.415099999999999625e+01 -1.543304999999999971e+01 1.071764595934024955e-01
1.974599999999999866e+01 8.173900000000000432e+01 7.834900000000000375e+01 -4.730863000000000151e-01 1.156165024600817465e-01
1.974699999999999989e+01 7.458400000000000318e+01 9.675000000000000000e+01 6.312279000000000195e+00 8.723799905720601433e-02
1.975700000000000145e+01 7.869499999999999318e+01 9.564100000000000534e+01 6.414952000000000432e+00 9.364151456903910264e-02
1.975799999999999912e+01 7.656199999999999761e+01 1.003400000000000034e+02 6.531366000000000227e+00 9.017871401173543910e-02
1.978000000000000114e+01 7.176699999999999591e+01 9.578000000000000114e+01 -4.816472000000000087e+00 5.486882602566509753e-02
1.978300000000000125e+01 7.345099999999999341e+01 9.599200000000000443e+01 4.842084999999999972e+00 5.513355956043770878e-02
1.978999999999999915e+01 8.297599999999999909e+01 8.675199999999999534e+01 2.897688000000000041e+00 1.055786232267373198e-01
1.979100000000000037e+01 7.965900000000000603e+01 9.388800000000000523e+01 2.952101000000000042e+01 2.791470310534637234e-01
1.979100000000000037e+01 7.986799999999999500e+01 9.315200000000000102e+01 1.656065000000000111e+02 9.765213251053848909e-02
1.979100000000000037e+01 8.008100000000000307e+01 9.261899999999999977e+01 1.122432000000000016e+02 9.907224761326528795e-02
1.979500000000000171e+01 7.928000000000000114e+01 9.654600000000000648e+01 -3.435112000000000165e-01 9.406006639704132810e-02
1.979899999999999949e+01 7.566100000000000136e+01 7.962399999999999523e+01 3.503785999999999845e+00 1.139636812658257475e-01
1.980699999999999861e+01 8.356300000000000239e+01 8.328499999999999659e+01 -2.715327999999999875e+01 1.079630017442555490e-01
1.981899999999999906e+01 7.432299999999999329e+01 7.992000000000000171e+01 2.618542000000000147e+00 1.267432812908036444e-01
1.983800000000000097e+01 7.102700000000000102e+01 9.263700000000000045e+01 -1.072131000000000078e+01 5.103825306603067963e-02
1.983800000000000097e+01 7.123600000000000421e+01 9.337300000000000466e+01 -1.117858000000000018e+01 5.210661264656794855e-02
1.989099999999999824e+01 7.536700000000000443e+01 9.910899999999999466e+01 4.652847000000000399e+00 6.132519501600944972e-02
1.989399999999999835e+01 7.287000000000000455e+01 7.948000000000000398e+01 3.018569999999999975e+00 1.385681044924901850e-01
1.989600000000000080e+01 7.115999999999999659e+01 8.983599999999999852e+01 -1.818151999999999990e+00 4.601212441709925938e-02
1.990200000000000102e+01 7.896699999999999875e+01 1.007099999999999937e+02 2.847007000000000065e+00 9.268657102790785196e-02
1.993700000000000117e+01 8.400300000000000011e+01 8.149200000000000443e+01 -2.042980999999999980e+01 1.097837153724873921e-01
1.993700000000000117e+01 8.400300000000000011e+01 8.243200000000000216e+01 -2.169098999999999933e+01 1.088541624845959371e-01
1.994999999999999929e+01 7.788100000000000023e+01 1.008400000000000034e+02 2.185484999999999900e+00 9.159191991670867505e-02
1.996499999999999986e+01 7.086499999999999488e+01 7.972100000000000364e+01 3.352198000000000011e+00 1.020686186813224705e-01
1.996600000000000108e+01 6.985599999999999454e+01 8.148099999999999454e+01 2.522431000000000090e+00 5.972218289642885342e-02
1.998100000000000165e+01 7.984999999999999432e+01 1.022699999999999960e+02 -1.033083000000000062e+01 9.331924519736803370e-02
1.998999999999999844e+01 7.095099999999999341e+01 8.679200000000000159e+01 1.232604000000000033e+00 7.186402808393649311e-02
1.999399999999999977e+01 7.968200000000000216e+01 9.561899999999999977e+01 -4.204875000000000140e-01 9.504708248880611166e-02
1.999399999999999977e+01 7.968200000000000216e+01 9.713700000000000045e+01 -1.043932000000000038e+01 9.435205771425056454e-02
1.999399999999999977e+01 7.925600000000000023e+01 9.800499999999999545e+01 -4.800155000000000172e+00 9.355073564083228599e-02
1.999399999999999977e+01 7.925600000000000023e+01 9.887099999999999511e+01 1.829380000000000006e+00 9.332365580150576989e-02
1.999399999999999977e+01 7.925600000000000023e+01 9.992100000000000648e+01 4.000156999999999741e+00 9.310689413460714048e-02
1.999599999999999866e+01 7.176200000000000045e+01 7.946699999999999875e+01 4.427831000000000294e+00 1.247976990011855358e-01
2.000400000000000134e+01 7.784199999999999875e+01 7.845300000000000296e+01 8.557674000000000447e+00 1.185654184174837616e-01
2.001399999999999935e+01 8.034799999999999898e+01 7.777800000000000580e+01 1.138556999999999952e+01 1.194609818767118636e-01
