-3.781099999999999994e+01 -5.771099999999999852e+01 2.576200000000000045e+01 9.687542000000000098e-01 -1.582244108156042606e-01
-3.780899999999999750e+01 -5.241799999999999926e+01 3.958500000000000085e+01 1.220035999999999987e+01 -4.220161134094739530e-02
-3.780899999999999750e+01 -5.094599999999999795e+01 3.958500000000000085e+01 2.666585999999999856e+01 -5.231739201467115047e-02
-3.780299999999999727e+01 -4.257300000000000040e+01 1.848900000000000077e+01 2.607502999999999904e+00 9.986908187682863591e-02
-3.780199999999999960e+01 -3.966299999999999670e+01 3.326200000000000045e+01 2.184405999999999892e+01 -2.861447145641179968e-01
-3.780100000000000193e+01 -5.715599999999999881e+01 3.564200000000000301e+01 6.818912000000000084e+00 -1.554407492567276561e-01
-3.780100000000000193e+01 -5.797800000000000153e+01 1.660500000000000043e+01 1.648681999999999981e+00 -1.645711403087685432e-01
-3.780100000000000193e+01 -5.627799999999999869e+01 1.660500000000000043e+01 -5.361723999999999934e-01 -1.645629030879426358e-01
-3.780100000000000193e+01 -4.089399999999999835e+01 3.558299999999999841e+01 2.607460000000000111e+00 -2.863985373667200518e-01
-3.779500000000000171e+01 -4.020700000000000074e+01 1.967999999999999972e+01 -5.026574000000000098e+00 1.739467722912050873e-01
-3.779399999999999693e+01 -4.857099999999999795e+01 3.242600000000000193e+01 2.815137999999999963e+01 -3.588831606668831109e-02
-3.779200000000000159e+01 -4.235799999999999699e+01 2.039699999999999847e+01 3.529431000000000207e+00 1.010239565118851157e-01
-3.778799999999999670e+01 -4.231400000000000006e+01 1.705199999999999960e+01 2.406757999999999953e+00 1.454726299130274791e-01
-3.778699999999999903e+01 -5.839500000000000313e+01 4.297800000000000153e+01 7.156939999999999635e+00 -3.499999999999999778e-01
-3.778699999999999903e+01 -5.669500000000000028e+01 4.297800000000000153e+01 1.366946000000000083e+01 -9.218103530919605215e-02
-3.778600000000000136e+01 -6.048299999999999699e+01 3.225200000000000244e+01 1.520562999999999931e+01 -6.272621248302653885e-02
-3.778600000000000136e+01 -5.159199999999999875e+01 4.120900000000000318e+01 3.087575000000000003e+01 -6.012412073640277521e-02
-3.778300000000000125e+01 -4.467399999999999949e+01 4.194599999999999795e+01 1.269206999999999930e+01 -6.383508916301255942e-02
-3.778300000000000125e+01 -5.503999999999999915e+01 2.785800000000000054e+01 6.844063000000000230e+00 -1.894916965431711620e-01
-3.777700000000000102e+01 -6.333899999999999864e+01 3.386899999999999977e+01 6.105794999999999639e+00 -6.548294254889955313e-02
-3.777400000000000091e+01 -3.836299999999999955e+01 3.277199999999999847e+01 2.259441999999999950e+01 -3.500000000000000333e-01
-3.777100000000000080e+01 -3.809700000000000131e+01 2.078399999999999892e+01 -8.900028000000000716e+00 1.751952524364168151e-01
-3.776500000000000057e+01 -5.193399999999999750e+01 4.041199999999999903e+01 1.544103999999999921e+01 -5.110629870708923578e-02
-3.775999999999999801e+01 -5.049699999999999989e+01 2.991000000000000014e+01 1.976372999999999891e+01 -6.381967414987174680e-02
-3.775999999999999801e+01 -5.049699999999999989e+01 3.077599999999999980e+01 1.603192999999999913e+01 -2.777723657962781825e-02
-3.775900000000000034e+01 -5.523400000000000176e+01 4.142600000000000193e+01 1.955528999999999940e+01 -1.017943306163658634e-01
-3.775600000000000023e+01 -3.839900000000000091e+01 2.764000000000000057e+01 5.091294999999999682e+00 -2.862916794615865679e-01
-3.775600000000000023e+01 -5.148400000000000176e+01 3.865400000000000347e+01 2.394814999999999827e+01 -4.304579830167259286e-02
-3.775300000000000011e+01 -5.775300000000000011e+01 3.679099999999999682e+01 4.456072999999999951e+00 -1.559657896023234902e-01
-3.775200000000000244e+01 -5.852199999999999847e+01 3.964099999999999824e+01 5.938121999999999900e+00 -1.575831651846815451e-01
-3.775099999999999767e+01 -5.635199999999999676e+01 3.333200000000000074e+01 6.214490999999999765e+00 -2.811061722751026504e-01
-3.774900000000000233e+01 -6.205599999999999739e+01 3.443099999999999739e+01 7.750173000000000201e+00 -6.320022399848761185e-02
-3.774799999999999756e+01 -3.679899999999999949e+01 2.628500000000000014e+01 -2.619162000000000035e+01 -8.802902614811188020e-02
-3.774699999999999989e+01 -4.918200000000000216e+01 1.774699999999999989e+01 7.208238000000000145e-01 -1.847077257458794221e-03
-3.774399999999999977e+01 -3.527100000000000080e+01 2.613800000000000168e+01 -3.097669000000000139e+01 -7.965821687021908126e-02
-3.774300000000000210e+01 -4.142300000000000182e+01 1.918900000000000006e+01 -1.452626999999999891e+00 -2.337493726921945070e-02
-3.774300000000000210e+01 -4.342000000000000171e+01 4.014800000000000324e+01 2.581077000000000155e+01 -5.103215526403788449e-02
-3.774300000000000210e+01 -4.342000000000000171e+01 4.110600000000000165e+01 5.464407999999999488e-01 -5.185738729726180329e-02
-3.774000000000000199e+01 -5.400000000000000000e+01 2.996900000000000119e+01 5.996624999999999872e+00 -1.879480998663450586e-01
-3.773899999999999721e+01 -5.437599999999999767e+01 4.047999999999999687e+01 9.974138999999999200e+00 -3.225351415671688649e-02
-3.773899999999999721e+01 -5.351100000000000279e+01 4.047999999999999687e+01 5.995707999999999593e+00 -3.908992812717056176e-02
-3.773199999999999932e+01 -3.859400000000000119e+01 2.844699999999999918e+01 5.807850000000000179e+00 -2.862968104469856834e-01
-3.771800000000000352e+01 -5.987100000000000222e+01 3.479099999999999682e+01 -1.453548000000000062e+00 -5.976334516248794915e-02
-3.771699999999999875e+01 -5.207699999999999818e+01 1.575500000000000078e+01 1.581520999999999955e+00 -8.857155255856749435e-04
-3.771699999999999875e+01 -4.685600000000000165e+01 4.227799999999999869e+01 5.171097999999999928e+01 -8.458320931836689482e-02
-3.771699999999999875e+01 -5.725600000000000023e+01 2.280900000000000105e+01 5.770813000000000415e+00 -1.610745471466722978e-01
-3.771200000000000330e+01 -5.149600000000000222e+01 3.802900000000000347e+01 2.142191000000000045e+01 -3.968282046848219113e-02
-3.771200000000000330e+01 -5.063100000000000023e+01 3.662899999999999778e+01 3.257726999999999862e+01 -3.858407060416143425e-02
-3.771200000000000330e+01 -5.063100000000000023e+01 3.802900000000000347e+01 2.201098999999999961e+01 -4.475384311132491605e-02
-3.770400000000000063e+01 -3.844400000000000261e+01 2.905300000000000082e+01 6.984422999999999604e+00 -2.860983740825894239e-01
-3.770400000000000063e+01 -3.823499999999999943e+01 2.978900000000000148e+01 9.482412999999999315e+00 -2.858260209751382064e-01
-3.770199999999999818e+01 -4.756300000000000239e+01 1.743499999999999872e+01 -1.366729999999999912e+01 -3.030464972505074808e-02
-3.770199999999999818e+01 -5.325699999999999790e+01 3.489999999999999858e+01 1.103051999999999921e+01 -2.173807558978286397e-02
-3.768999999999999773e+01 -5.035900000000000176e+01 1.757300000000000040e+01 3.098869999999999791e+00 -9.752064741732705813e-04
-3.768099999999999739e+01 -5.320700000000000074e+01 4.117999999999999972e+01 3.115774000000000044e+00 -4.618987868412031961e-02
-3.767600000000000193e+01 -4.736800000000000210e+01 2.840800000000000125e+01 1.289695999999999998e+01 -7.188067821696281223e-02
-3.767199999999999704e+01 -5.839300000000000068e+01 3.868299999999999983e+01 4.349382000000000303e+00 -1.569870217889940689e-01
-3.767000000000000171e+01 -4.541499999999999915e+01 4.197800000000000153e+01 1.662436999999999898e+01 -7.072592940357871893e-02
-3.765800000000000125e+01 -5.481300000000000239e+01 2.861499999999999844e+01 9.708629999999999427e+00 -1.889655519236986825e-01
-3.765800000000000125e+01 -6.212199999999999989e+01 2.936899999999999977e+01 2.228102000000000160e+01 -6.649012303988435790e-02
-3.765500000000000114e+01 -6.114000000000000057e+01 3.555100000000000193e+01 -3.548430000000000195e-01 -6.100409362249259448e-02
-3.765500000000000114e+01 -6.020000000000000284e+01 3.403099999999999881e+01 -4.202762999999999916e-01 -6.074920277142333708e-02
-3.765500000000000114e+01 -6.020000000000000284e+01 3.555100000000000193e+01 -3.569552999999999976e+00 -5.953240551515744799e-02
-3.765400000000000347e+01 -5.179999999999999716e+01 3.732900000000000063e+01 2.271324999999999861e+01 -3.473348816174838538e-02
-3.765400000000000347e+01 -5.032800000000000296e+01 3.732900000000000063e+01 3.507824000000000098e+01 -4.288095659361586265e-02
-3.764500000000000313e+01 -4.922500000000000142e+01 2.829899999999999949e+01 1.850446000000000168e+01 -6.823693637818142865e-02
-3.763900000000000290e+01 -5.414300000000000068e+01 1.752100000000000080e+01 8.126146999999999565e+00 2.583747685333724620e-03
-3.763600000000000279e+01 -4.181000000000000227e+01 1.786700000000000088e+01 1.538572000000000051e+00 1.728411939244896278e-01
-3.763600000000000279e+01 -5.447399999999999665e+01 3.405899999999999750e+01 1.220595000000000097e+00 -2.830806953601082698e-01
-3.763499999999999801e+01 -5.332200000000000273e+01 3.402600000000000335e+01 1.402294999999999980e+01 -2.034651935222000357e-02
-3.763000000000000256e+01 -4.409199999999999875e+01 1.855799999999999983e+01 9.384354000000000084e+00 1.806461224936724286e-01
-3.763000000000000256e+01 -4.322599999999999909e+01 1.855799999999999983e+01 5.332063999999999915e+00 1.003782916003347764e-01
-3.762599999999999767e+01 -3.795700000000000074e+01 2.676000000000000156e+01 8.829997000000000540e+00 -1.731803958376295915e-01
-3.762500000000000000e+01 -3.775399999999999778e+01 3.204599999999999937e+01 2.304840000000000089e+01 -3.500000000000000333e-01
-3.762299999999999756e+01 -4.606199999999999761e+01 1.714600000000000080e+01 -8.099047999999999803e+00 -3.136632138039947837e-02
-3.762199999999999989e+01 -5.178399999999999892e+01 3.649499999999999744e+01 2.403738999999999848e+01 -3.186106271009268853e-02
-3.761800000000000210e+01 -5.287800000000000011e+01 4.193999999999999773e+01 6.343633999999999773e+00 -5.513136872246825193e-02
-3.761800000000000210e+01 -5.193800000000000239e+01 4.193999999999999773e+01 7.789219000000000115e+00 -6.362557099155864704e-02
-3.761500000000000199e+01 -5.809300000000000352e+01 3.333200000000000074e+01 4.046311000000000213e+00 -5.930741346193117020e-02
-3.760399999999999920e+01 -4.286999999999999744e+01 1.786199999999999832e+01 1.276867999999999892e+00 1.467422584538398689e-01
-3.760000000000000142e+01 -5.168200000000000216e+01 3.958500000000000085e+01 1.843973000000000084e+01 -4.674381850517538017e-02
-3.759899999999999665e+01 -4.248599999999999710e+01 2.810800000000000054e+01 1.490207999999999977e+01 -7.350227664252859117e-02
-3.759899999999999665e+01 -4.108599999999999852e+01 2.810800000000000054e+01 9.610049999999999315e+00 -7.215620018510955636e-02
-3.759899999999999665e+01 -4.108599999999999852e+01 3.037399999999999878e+01 1.577491000000000021e+01 -2.879334062069082711e-01
-3.759599999999999653e+01 -6.050399999999999778e+01 3.333100000000000307e+01 6.682125000000000092e+00 -6.166520184059724047e-02
-3.759400000000000119e+01 -4.183700000000000330e+01 1.848900000000000077e+01 2.622764000000000206e-01 1.464802931484363302e-01
-3.757699999999999818e+01 -5.301800000000000068e+01 3.332600000000000051e+01 1.075932000000000066e+01 -2.080460320053686626e-02
-3.756900000000000261e+01 -5.750000000000000000e+01 2.491000000000000014e+01 4.047907999999999618e+00 -1.593087155768137531e-01
-3.756799999999999784e+01 -5.460600000000000165e+01 4.127400000000000091e+01 1.678284999999999982e+01 -1.060932930724493017e-01
-3.755899999999999750e+01 -5.744200000000000017e+01 2.655300000000000082e+01 1.602222000000000035e+00 -1.575029766080146554e-01
-3.754999999999999716e+01 -4.442999999999999972e+01 1.780099999999999838e+01 -2.698234999999999939e+00 1.799277691997787643e-01
-3.754399999999999693e+01 -5.772399999999999665e+01 3.248199999999999932e+01 3.824723000000000095e+00 -5.993264521884546919e-02
-3.754399999999999693e+01 -5.667399999999999949e+01 3.248199999999999932e+01 4.557498999999999967e+00 -2.534401095846526841e-01
-3.754399999999999693e+01 -5.940299999999999869e+01 3.403199999999999648e+01 2.666795000000000027e+00 -5.968124475528745199e-02
-3.754299999999999926e+01 -6.329200000000000159e+01 2.957199999999999918e+01 4.141268000000000171e+01 -6.747357957517788329e-02
-3.754200000000000159e+01 -5.786800000000000210e+01 3.429299999999999926e+01 5.428219999999999601e+00 -5.798751997168159755e-02
-3.753399999999999892e+01 -4.320799999999999841e+01 1.705199999999999960e+01 5.170966000000000173e-01 1.459662543951102398e-01
-3.753399999999999892e+01 -4.142000000000000171e+01 1.705199999999999960e+01 8.912470000000000114e-01 1.726920294928779853e-01
-3.752400000000000091e+01 -3.920000000000000284e+01 1.988899999999999935e+01 -4.399128000000000149e+00 1.742679910681396993e-01
-3.752100000000000080e+01 -6.273299999999999699e+01 3.446500000000000341e+01 5.762451999999999686e+00 -6.409320645252639115e-02
-3.751899999999999835e+01 -4.192699999999999960e+01 3.632600000000000051e+01 1.957948999999999984e+01 -2.873624514231084004e-01
-3.751500000000000057e+01 -5.292399999999999949e+01 1.676300000000000168e+01 1.934717000000000020e+00 4.405111012578010648e-04
-3.751200000000000045e+01 -4.262299999999999756e+01 3.092800000000000082e+01 1.531569999999999965e+01 -7.091501847299527816e-02
-3.748100000000000165e+01 -4.957800000000000296e+01 2.871199999999999974e+01 2.133865000000000123e+01 -6.737603575037735826e-02
-3.747999999999999687e+01 -5.062599999999999767e+01 4.131600000000000250e+01 1.530397999999999925e+01 -6.805130060219455324e-02
-3.747899999999999920e+01 -6.395499999999999829e+01 3.086799999999999855e+01 9.376993999999999829e+00 -6.751843022883662060e-02
-3.747599999999999909e+01 -5.850300000000000011e+01 1.745499999999999829e+01 1.326414999999999955e-01 -1.644324058430799151e-01
-3.747599999999999909e+01 -5.850300000000000011e+01 1.850499999999999901e+01 3.486878999999999951e-01 -1.639554150607545058e-01
-3.747599999999999909e+01 -5.593399999999999750e+01 2.782799999999999940e+01 3.747961999999999794e+00 -1.894400758807022189e-01
-3.747599999999999909e+01 -4.375600000000000023e+01 2.930499999999999972e+01 2.492887999999999948e+01 -7.392099451116873610e-02
-3.747599999999999909e+01 -4.375600000000000023e+01 3.017000000000000171e+01 2.344994000000000156e+01 -7.311355366407717993e-02
-3.747399999999999665e+01 -4.671099999999999852e+01 2.940800000000000125e+01 1.448277000000000037e+01 -7.312901124920395679e-02
-3.747399999999999665e+01 -4.671099999999999852e+01 3.027400000000000091e+01 1.372246999999999950e+01 -7.285250585606535545e-02
-3.747299999999999898e+01 -5.356700000000000017e+01 3.066900000000000048e+01 6.437503000000000419e+00 -1.875147640225041934e-01
-3.747200000000000131e+01 -5.394299999999999784e+01 4.117999999999999972e+01 8.835917999999999495e+00 -3.882185890824862290e-02
-3.746300000000000097e+01 -4.283899999999999864e+01 1.620200000000000173e+01 -9.977850000000000330e-01 3.425914787445046850e-01
-3.746300000000000097e+01 -4.178900000000000148e+01 1.620200000000000173e+01 9.119869999999999921e-01 1.723589677366595685e-01
-3.745499999999999829e+01 -5.571600000000000108e+01 3.358500000000000085e+01 4.801588999999999885e+00 -2.816251105483564832e-01
-3.744899999999999807e+01 -4.044599999999999795e+01 3.416400000000000148e+01 8.687065000000000481e+00 -2.865378592200436003e-01
-3.744700000000000273e+01 -4.389900000000000091e+01 4.188100000000000023e+01 8.560703999999999425e+00 -5.626122471174390544e-02
-3.744500000000000028e+01 -5.106400000000000006e+01 3.732900000000000063e+01 2.506710999999999956e+01 -3.821091045751377757e-02
-3.744299999999999784e+01 -5.854399999999999693e+01 3.413799999999999812e+01 3.305536000000000030e+00 -5.857809057099468142e-02
-3.744200000000000017e+01 -4.379399999999999693e+01 3.931600000000000250e+01 3.023048999999999964e+01 -5.230193418867608302e-02
-3.743999999999999773e+01 -4.816599999999999682e+01 4.173400000000000176e+01 1.694204999999999828e+01 -8.602728984712589011e-02
-3.743299999999999983e+01 -5.540899999999999892e+01 1.690099999999999980e+01 9.135976000000000097e-01 -1.646762467700011445e-01
-3.743200000000000216e+01 -5.712800000000000011e+01 1.653399999999999892e+01 3.815951000000000093e+00 -1.648224415709221291e-01
-3.742600000000000193e+01 -4.723700000000000188e+01 3.087500000000000000e+01 1.212894999999999968e+01 -7.148792344442110591e-02
-3.742099999999999937e+01 -3.818099999999999739e+01 3.930700000000000216e+01 8.452417999999999765e+00 -3.500000000000000333e-01
-3.741799999999999926e+01 -5.833700000000000330e+01 1.916499999999999915e+01 2.323767000000000138e+00 -1.636631734942986527e-01
-3.741799999999999926e+01 -5.799199999999999733e+01 1.994800000000000040e+01 3.953520999999999841e+00 -1.632337239373707338e-01
-3.741799999999999926e+01 -5.778300000000000125e+01 2.068400000000000105e+01 9.025159000000000376e+00 -1.627954847496500268e-01
-3.741799999999999926e+01 -5.433400000000000318e+01 2.948699999999999832e+01 8.293086999999999875e+00 -1.884122444551827591e-01
-3.741100000000000136e+01 -4.404399999999999693e+01 3.832300000000000040e+01 1.163233000000000033e+02 -5.001555083419582243e-02
-3.741100000000000136e+01 -4.383500000000000085e+01 3.758700000000000330e+01 5.962483000000000288e+01 -4.726597161560176785e-02
-3.740800000000000125e+01 -4.770100000000000051e+01 3.162699999999999889e+01 1.293810000000000038e+01 -3.642223118410651411e-02
-3.740699999999999648e+01 -6.366299999999999670e+01 3.007999999999999829e+01 4.136966000000000143e+00 -6.755587621059050418e-02
-3.740299999999999869e+01 -3.888199999999999790e+01 3.320000000000000284e+01 2.086710000000000065e+01 -3.500000000000000333e-01
-3.739800000000000324e+01 -4.064000000000000057e+01 1.918900000000000006e+01 1.113961999999999897e+00 1.734506276515374035e-01
-3.739800000000000324e+01 -4.843800000000000239e+01 1.778999999999999915e+01 -7.770318999999999976e-01 -3.014565368811246079e-02
-3.739699999999999847e+01 -4.900399999999999778e+01 3.193499999999999872e+01 1.523196000000000083e+01 -3.290534093476928101e-02
-3.739699999999999847e+01 -4.813799999999999812e+01 3.193499999999999872e+01 1.460975999999999964e+01 -3.561924537834314924e-02
-3.739300000000000068e+01 -5.343800000000000239e+01 3.162699999999999889e+01 7.806714000000000375e+00 -2.847479492964603009e-01
-3.739200000000000301e+01 -4.053999999999999915e+01 3.506600000000000250e+01 -1.338603999999999949e+01 -2.862348062284809092e-01
-3.738600000000000279e+01 -3.716599999999999682e+01 4.046099999999999852e+01 1.469617000000000040e+01 -3.499999999999999778e-01
-3.737700000000000244e+01 -5.333299999999999841e+01 3.246999999999999886e+01 7.863752999999999993e+00 -2.847715616318161058e-01
-3.737700000000000244e+01 -4.122800000000000153e+01 1.768299999999999983e+01 4.609140000000000015e+00 1.728318882629453768e-01
-3.737500000000000000e+01 -5.818500000000000227e+01 3.695600000000000307e+01 5.047498000000000040e+00 -1.565627139011899205e-01
-3.737500000000000000e+01 -5.818500000000000227e+01 3.782099999999999795e+01 5.364362999999999992e+00 -1.561509713274890077e-01
-3.736899999999999977e+01 -4.183800000000000097e+01 1.460100000000000087e+01 1.471404000000000067e+01 1.719566521681153703e-01
-3.736200000000000188e+01 -4.365899999999999892e+01 1.785800000000000054e+01 5.020024000000000264e+00 1.464814480756569393e-01
-3.735600000000000165e+01 -3.753699999999999903e+01 4.105199999999999960e+01 1.538730999999999938e+01 -3.499999999999999223e-01
-3.734899999999999665e+01 -3.443299999999999983e+01 2.170100000000000051e+01 -1.252538999999999980e+01 1.774535780256157880e-01
-3.734799999999999898e+01 -5.378699999999999903e+01 3.327300000000000324e+01 8.743017999999999290e+00 -2.841015628675885307e-01
-3.734300000000000352e+01 -5.751599999999999824e+01 4.341299999999999670e+01 9.538548000000000471e+00 -3.499999999999999778e-01
-3.734199999999999875e+01 -5.907699999999999818e+01 3.456000000000000227e+01 -7.635709000000000302e+00 -5.852854959936735352e-02
-3.734199999999999875e+01 -5.549399999999999977e+01 2.859299999999999997e+01 8.028297000000000239e+00 -1.889341104182422071e-01
-3.734100000000000108e+01 -4.852499999999999858e+01 2.824099999999999966e+01 1.350797000000000025e+01 -7.008866058309470848e-02
-3.734000000000000341e+01 -5.767699999999999960e+01 3.514399999999999835e+01 1.233346000000000053e+01 -1.564958875990019593e-01
-3.734000000000000341e+01 -4.094299999999999784e+01 1.848900000000000077e+01 2.973972999999999978e+00 1.731193664954498168e-01
-3.733899999999999864e+01 -4.930700000000000216e+01 3.123499999999999943e+01 1.113312999999999953e+01 -3.091410871418846448e-02
-3.733800000000000097e+01 -3.760600000000000165e+01 2.118100000000000094e+01 -3.154093000000000035e+00 1.753837506683895708e-01
-3.732800000000000296e+01 -4.979699999999999704e+01 3.104299999999999926e+01 9.600236999999999910e+00 -6.491841740659180793e-02
-3.732500000000000284e+01 -4.231400000000000006e+01 1.542200000000000060e+01 3.148423999999999889e+00 1.720013086349603815e-01
-3.731900000000000261e+01 -5.478999999999999915e+01 3.339200000000000301e+01 2.758284000000000180e+00 -2.827975195646826867e-01
-3.731900000000000261e+01 -5.936500000000000199e+01 4.156300000000000239e+01 1.613937999999999917e+01 -1.562886766757848322e-01
-3.731700000000000017e+01 -3.819800000000000040e+01 3.755700000000000216e+01 1.004368000000000016e+01 -3.500000000000000333e-01
-3.730299999999999727e+01 -3.733400000000000318e+01 3.930700000000000216e+01 1.209210999999999991e+01 -3.499999999999999778e-01
-3.729599999999999937e+01 -6.117600000000000193e+01 2.981500000000000128e+01 4.691962000000000188e+00 -6.514898635047342013e-02
-3.729099999999999682e+01 -3.779399999999999693e+01 4.182699999999999818e+01 3.452962999999999738e+01 -3.499999999999999778e-01
-3.728399999999999892e+01 -5.938000000000000256e+01 3.525999999999999801e+01 -8.766315000000000524e+00 -5.810276601726717394e-02
-3.727799999999999869e+01 -6.212700000000000244e+01 3.524900000000000233e+01 6.525868000000000002e+00 -6.246832438489188094e-02
-3.727499999999999858e+01 -5.780799999999999983e+01 2.135500000000000043e+01 1.264958000000000027e+01 -1.624738472669303435e-01
-3.727400000000000091e+01 -3.603099999999999881e+01 2.642800000000000082e+01 -1.852927999999999997e+01 -7.923395461856487521e-02
-3.727400000000000091e+01 -3.473799999999999955e+01 2.570700000000000074e+01 -3.460773999999999972e+01 -8.032140024625286645e-02
-3.727000000000000313e+01 -5.658100000000000307e+01 4.305299999999999727e+01 8.486302999999999486e+00 -9.159178679156586289e-02
-3.726899999999999835e+01 -3.767699999999999960e+01 3.849199999999999733e+01 1.215403000000000056e+01 -3.500000000000000333e-01
-3.726800000000000068e+01 -3.801299999999999812e+01 4.046099999999999852e+01 1.505319000000000074e+01 -3.500000000000000333e-01
-3.726200000000000045e+01 -5.899099999999999966e+01 4.070900000000000318e+01 6.257863000000000397e+00 -1.577034667413909075e-01
-3.726200000000000045e+01 -5.878199999999999648e+01 3.997299999999999898e+01 1.058047000000000004e+01 -1.579438759898918188e-01
-3.725900000000000034e+01 -4.904500000000000171e+01 4.137599999999999767e+01 1.637571000000000154e+01 -7.864846945991248173e-02
-3.725800000000000267e+01 -5.105899999999999750e+01 1.644000000000000128e+01 2.275558999999999887e+00 -1.962760702471061380e-03
-3.725300000000000011e+01 -5.818399999999999750e+01 3.619599999999999795e+01 5.645005000000000273e+00 -1.568750214575993507e-01
-3.725200000000000244e+01 -6.418899999999999295e+01 3.249399999999999977e+01 5.737172000000000160e+00 -6.704617770301093960e-02
-3.725200000000000244e+01 -6.393500000000000227e+01 3.338799999999999812e+01 7.693041000000000018e+00 -6.632547981011130411e-02
-3.724799999999999756e+01 -5.249099999999999966e+01 1.606299999999999883e+01 1.526340999999999948e+00 -9.961075910350446726e-04
-3.724300000000000210e+01 -5.371099999999999852e+01 1.703000000000000114e+01 3.973253000000000146e+00 1.010049459470624585e-03
-3.724199999999999733e+01 -5.005499999999999972e+01 3.030999999999999872e+01 1.512240000000000073e+01 -6.510367066729588759e-02
-3.723799999999999955e+01 -4.763100000000000023e+01 4.198199999999999932e+01 3.660895000000000010e+01 -8.648901726913905963e-02
-3.723700000000000188e+01 -5.767099999999999937e+01 2.228999999999999915e+01 1.031404000000000032e+01 -1.618464997345195056e-01
-3.723100000000000165e+01 -5.370499999999999829e+01 4.174300000000000210e+01 2.933028999999999886e+00 -4.414905058639184698e-02
-3.722599999999999909e+01 -4.254200000000000159e+01 3.689500000000000313e+01 2.370831000000000088e+01 -4.135223209593873184e-02
-3.722399999999999665e+01 -6.067000000000000171e+01 3.608400000000000318e+01 -4.237700000000000244e+00 -5.930041785692824474e-02
-3.722299999999999898e+01 -3.877700000000000102e+01 2.662399999999999878e+01 5.942859999999999587e+00 -2.865459098809571281e-01
-3.721500000000000341e+01 -4.122699999999999676e+01 3.626700000000000301e+01 4.485610999999999571e+00 -2.864659015460734315e-01
-3.721500000000000341e+01 -3.751400000000000290e+01 3.795300000000000296e+01 1.000717999999999996e+01 -3.500000000000000333e-01
-3.721399999999999864e+01 -3.852100000000000080e+01 3.679999999999999716e+01 9.470700000000000784e+00 -3.499999999999999778e-01
-3.721399999999999864e+01 -5.001100000000000279e+01 2.941199999999999903e+01 2.678763999999999967e+01 -6.612172425982125457e-02
-3.721300000000000097e+01 -5.978199999999999648e+01 3.353399999999999892e+01 -7.128995999999999666e-01 -6.023280564029932782e-02
-3.721300000000000097e+01 -5.891700000000000159e+01 3.353399999999999892e+01 3.138892999999999933e+00 -5.931136982401943175e-02
-3.720799999999999841e+01 -4.332300000000000040e+01 3.087000000000000099e+01 1.904739000000000004e+01 -7.196992362702193946e-02
-3.720799999999999841e+01 -4.192300000000000182e+01 3.087000000000000099e+01 1.329898000000000025e+01 -7.029055283086199646e-02
-3.720600000000000307e+01 -3.777400000000000091e+01 3.030999999999999872e+01 7.749852999999999881e+00 -3.499999999999999778e-01
-3.720600000000000307e+01 -3.752000000000000313e+01 3.120400000000000063e+01 8.625901000000000707e+00 -3.499999999999999778e-01
-3.720199999999999818e+01 -3.660999999999999943e+01 4.127100000000000080e+01 1.437667000000000073e+01 -3.499999999999999778e-01
-3.719899999999999807e+01 -6.405100000000000193e+01 3.161400000000000077e+01 4.193249999999999922e+00 -6.721090524234529795e-02
-3.719800000000000040e+01 -3.322299999999999898e+01 3.467600000000000193e+01 9.971318000000000126e+00 -3.499999999999999778e-01
-3.719599999999999795e+01 -4.135600000000000165e+01 1.550200000000000067e+01 5.699372000000000327e+00 1.721764970840289899e-01
-3.718699999999999761e+01 -5.240800000000000125e+01 4.247299999999999898e+01 4.459774000000000171e+01 -6.391136933535698783e-02
-3.717399999999999949e+01 -5.935399999999999920e+01 4.276800000000000068e+01 1.917948000000000164e+01 -1.535062181629274214e-01
-3.717300000000000182e+01 -4.321800000000000352e+01 2.853500000000000014e+01 1.923121000000000080e+01 -7.412921705329000854e-02
-3.717300000000000182e+01 -4.608899999999999864e+01 4.208200000000000074e+01 1.688437000000000126e+02 -7.745073097168156395e-02
-3.717300000000000182e+01 -3.908400000000000318e+01 2.886599999999999966e+01 4.965648999999999980e+00 -2.864481982126448334e-01
-3.717300000000000182e+01 -3.884199999999999875e+01 3.850900000000000034e+01 1.094816999999999929e+01 -3.500000000000000333e-01
-3.717199999999999704e+01 -6.287199999999999989e+01 2.973199999999999932e+01 1.374319999999999986e+01 -6.684159039641100752e-02
-3.716899999999999693e+01 -5.584000000000000341e+01 3.272099999999999653e+01 7.893932999999999645e+00 -1.840940738329946702e-01
-3.716700000000000159e+01 -4.503399999999999892e+01 1.727499999999999858e+01 -3.403265999999999902e+00 1.790046068869612650e-01
-3.716700000000000159e+01 -3.907500000000000284e+01 3.930700000000000216e+01 1.286617999999999995e+01 -3.500000000000000333e-01
-3.716599999999999682e+01 -4.178600000000000136e+01 2.784100000000000108e+01 6.866711999999999705e+00 -7.322061142193030114e-02
-3.716599999999999682e+01 -4.059499999999999886e+01 2.997700000000000031e+01 1.482150000000000034e+01 -2.874711052852741977e-01
-3.716599999999999682e+01 -4.038600000000000279e+01 2.924099999999999966e+01 9.147812999999999306e+00 -2.873636392649721039e-01
-3.716499999999999915e+01 -3.760799999999999699e+01 2.592399999999999949e+01 -1.238635999999999981e+01 -8.693513871068000998e-02
-3.716199999999999903e+01 -5.860099999999999909e+01 3.277400000000000091e+01 9.241559999999999775e-01 -5.983543837378933056e-02
-3.715999999999999659e+01 -3.888000000000000256e+01 2.711499999999999844e+01 2.883661000000000030e+00 -2.865393000675732216e-01
-3.715400000000000347e+01 -6.008599999999999852e+01 3.283400000000000318e+01 1.331874999999999964e+01 -6.122876145529125569e-02
-3.714900000000000091e+01 -3.693999999999999773e+01 4.187100000000000222e+01 1.131151000000000018e+01 -3.499999999999999778e-01
-3.714800000000000324e+01 -3.912500000000000000e+01 2.796099999999999852e+01 2.516271000000000146e+00 -2.865910199453138851e-01
-3.714500000000000313e+01 -4.285600000000000165e+01 1.553200000000000003e+01 -4.131998000000000060e-01 3.427195583348025543e-01
-3.714099999999999824e+01 -4.668900000000000006e+01 1.708099999999999952e+01 -3.122234000000000176e+00 -3.205720194351682067e-02
-3.713799999999999812e+01 -3.434599999999999653e+01 2.479200000000000159e+01 -3.113172000000000139e+01 -8.119351548123529549e-02
-3.713199999999999790e+01 -3.627199999999999847e+01 4.046099999999999852e+01 1.607278000000000162e+01 -3.500000000000000333e-01
-3.713199999999999790e+01 -4.403199999999999648e+01 1.725400000000000134e+01 -1.372529000000000110e+00 1.457044806777562374e-01
-3.712899999999999778e+01 -5.463199999999999790e+01 1.696000000000000085e+01 1.736420999999999992e+00 -1.648517996148076981e-01
-3.712299999999999756e+01 -3.623299999999999699e+01 2.164900000000000091e+01 -6.728424000000000404e+00 1.762222417833713140e-01
-3.712299999999999756e+01 -5.696399999999999864e+01 2.708699999999999974e+01 -2.961057999999999968e+00 -1.571950608417214124e-01
-3.712100000000000222e+01 -6.005899999999999750e+01 3.162300000000000111e+01 1.616026000000000096e+01 -6.237479071473651937e-02
-3.711800000000000210e+01 -5.820600000000000307e+01 2.525000000000000000e+01 4.191304999999999836e+00 -1.593399194347588366e-01
-3.711800000000000210e+01 -5.820600000000000307e+01 2.618799999999999883e+01 2.127171000000000145e+00 -1.583053101052973033e-01
-3.711500000000000199e+01 -4.273199999999999932e+01 1.460100000000000087e+01 -9.960512000000000254e-01 1.716538319084326969e-01
-3.711500000000000199e+01 -4.094400000000000261e+01 1.460100000000000087e+01 2.597043999999999908e+00 1.720363175377158105e-01
-3.709599999999999653e+01 -3.870600000000000307e+01 4.015699999999999648e+01 1.791111000000000075e+01 -3.499999999999999778e-01
-3.709599999999999653e+01 -3.767399999999999949e+01 3.679999999999999716e+01 8.793288999999999689e+00 -3.500000000000000333e-01
-3.709100000000000108e+01 -3.989999999999999858e+01 1.962199999999999989e+01 -4.506355000000000111e+00 1.736914214448346538e-01
-3.707500000000000284e+01 -5.864399999999999835e+01 3.525999999999999801e+01 1.133361000000000063e+00 -5.690064603535394117e-02
-3.707399999999999807e+01 -3.830499999999999972e+01 3.307500000000000284e+01 1.986195999999999984e+01 -3.499999999999999778e-01
-3.707099999999999795e+01 -3.803900000000000148e+01 2.048100000000000165e+01 -7.138761999999999830e+00 1.747565467597881894e-01
-3.706700000000000017e+01 -3.836999999999999744e+01 4.095900000000000318e+01 1.223473000000000077e+01 -3.500000000000000333e-01
-3.706300000000000239e+01 -5.719899999999999807e+01 3.188599999999999923e+01 3.554288000000000114e+00 -5.988750894739523073e-02
-3.706199999999999761e+01 -3.801700000000000301e+01 3.598499999999999943e+01 8.176042999999999950e+00 -3.499999999999999778e-01
-3.706099999999999994e+01 -3.664099999999999824e+01 3.961099999999999710e+01 1.080845000000000056e+01 -3.499999999999999778e-01
-3.706000000000000227e+01 -3.860900000000000176e+01 4.182699999999999818e+01 1.635838000000000036e+01 -3.499999999999999778e-01
-3.705899999999999750e+01 -5.076299999999999812e+01 1.725000000000000000e+01 2.490886000000000156e+00 -1.924203570290798290e-03
-3.705899999999999750e+01 -3.396300000000000097e+01 2.246099999999999852e+01 -5.511086000000000240e+01 1.780797501115532755e-01
-3.704999999999999716e+01 -6.353300000000000125e+01 3.421200000000000330e+01 4.818152999999999686e+00 -6.525729229404883536e-02
-3.704899999999999949e+01 -5.108100000000000307e+01 4.177000000000000313e+01 3.436657999999999902e+01 -6.872658324841930677e-02
-3.704399999999999693e+01 -4.236299999999999955e+01 1.375099999999999945e+01 -7.571957999999999744e-01 1.715357718442347690e-01
-3.704399999999999693e+01 -4.131300000000000239e+01 1.375099999999999945e+01 1.148171000000000053e+00 1.717462891934406488e-01
-3.704200000000000159e+01 -4.741100000000000136e+01 3.054100000000000037e+01 1.372541000000000011e+01 -7.184521355161291312e-02
-3.703199999999999648e+01 -5.429699999999999704e+01 3.032600000000000051e+01 8.443759000000000015e+00 -1.877406333594212884e-01
-3.703099999999999881e+01 -4.045499999999999829e+01 2.865299999999999869e+01 8.634323999999999444e+00 -2.874349010667048843e-01
-3.703000000000000114e+01 -5.835999999999999943e+01 4.335999999999999943e+01 8.729938999999999893e+00 -3.500000000000000333e-01
-3.702700000000000102e+01 -4.373199999999999932e+01 1.642800000000000082e+01 -1.957634000000000096e+00 1.449282772397762487e-01
-3.702600000000000335e+01 -6.023100000000000165e+01 3.110699999999999932e+01 1.283164999999999978e+01 -6.298366432534904802e-02
-3.702199999999999847e+01 -5.897500000000000142e+01 3.606700000000000017e+01 9.557691000000000381e-01 -1.588700123399817976e-01
-3.702000000000000313e+01 -4.069700000000000273e+01 1.522799999999999976e+01 2.620172000000000168e+00 1.721885911873588804e-01
-3.701800000000000068e+01 -4.058299999999999841e+01 3.610000000000000142e+01 -4.448647000000000240e+00 -2.857229882669515275e-01
-3.701800000000000068e+01 -3.971800000000000352e+01 3.610000000000000142e+01 5.493750999999999607e+00 -3.499999999999999778e-01
-3.701700000000000301e+01 -5.234400000000000119e+01 1.532300000000000040e+01 8.382935000000000247e-01 -2.064294676703667432e-03
-3.701700000000000301e+01 -3.909700000000000131e+01 3.763000000000000256e+01 1.058317000000000085e+01 -3.499999999999999778e-01
-3.701700000000000301e+01 -5.731499999999999773e+01 2.311199999999999832e+01 6.255287000000000042e+00 -1.613866274191450567e-01
-3.701700000000000301e+01 -5.731499999999999773e+01 2.397800000000000153e+01 5.695095000000000240e+00 -1.606478863106619026e-01
-3.701599999999999824e+01 -3.974600000000000222e+01 3.529699999999999704e+01 6.803537000000000390e+00 -3.499999999999999778e-01
-3.701299999999999812e+01 -3.787500000000000000e+01 3.542999999999999972e+01 7.733121999999999829e+00 -3.499999999999999778e-01
-3.701100000000000279e+01 -5.544899999999999807e+01 4.193399999999999750e+01 1.535612000000000066e+01 -9.718747633999418045e-02
-3.701100000000000279e+01 -3.953000000000000114e+01 3.379399999999999693e+01 1.594646999999999970e+01 -3.499999999999999778e-01
-3.700900000000000034e+01 -6.147899999999999920e+01 3.610099999999999909e+01 1.009687999999999919e+00 -6.051055634976524461e-02
-3.700699999999999790e+01 -3.906300000000000239e+01 2.622500000000000142e+01 7.383081999999999923e+00 -2.867200278694406190e-01
-3.700600000000000023e+01 -3.844899999999999807e+01 3.369100000000000250e+01 1.468219000000000030e+01 -3.499999999999999778e-01
-3.700399999999999778e+01 -4.625399999999999778e+01 1.684600000000000009e+01 -2.917415999999999787e+00 1.154439157120585036e-01
-3.700300000000000011e+01 -3.694400000000000261e+01 3.891100000000000136e+01 1.007469000000000037e+01 -3.500000000000000888e-01
-3.700300000000000011e+01 -3.516400000000000148e+01 2.153300000000000125e+01 -1.764123999999999981e+01 1.767421194926082628e-01
-3.699699999999999989e+01 -6.246699999999999875e+01 2.366199999999999903e+01 4.294642999999999766e+00 -1.612569209243135682e-01
-3.699499999999999744e+01 -4.065699999999999648e+01 1.687999999999999901e+01 3.848412999999999862e+00 1.725919272292766593e-01
-3.699499999999999744e+01 -3.827300000000000324e+01 4.260199999999999676e+01 1.058525000000000027e+01 -3.499999999999999778e-01
-3.699499999999999744e+01 -3.731499999999999773e+01 4.260199999999999676e+01 1.645774000000000115e+01 -3.499999999999999778e-01
-3.699399999999999977e+01 -4.880199999999999960e+01 3.114199999999999946e+01 1.207803999999999967e+01 -6.801763811025555995e-02
-3.699399999999999977e+01 -4.793699999999999761e+01 3.114199999999999946e+01 1.245636999999999972e+01 -7.031544135258979700e-02
-3.698499999999999943e+01 -5.503399999999999892e+01 2.921900000000000119e+01 6.594851000000000241e+00 -1.886285819208155523e-01
-3.698299999999999699e+01 -4.710799999999999699e+01 2.984100000000000108e+01 1.807967999999999975e+01 -7.290697291121660262e-02
-3.698299999999999699e+01 -4.041199999999999903e+01 1.603399999999999892e+01 2.721249999999999947e+00 1.724371697257947034e-01
-3.697800000000000153e+01 -4.334400000000000119e+01 3.718999999999999773e+01 3.260139000000000209e+01 -4.309443902471840615e-02
-3.697500000000000142e+01 -6.056799999999999784e+01 3.054100000000000037e+01 7.947376000000000218e+00 -6.380997237897381713e-02
-3.697099999999999653e+01 -6.340100000000000335e+01 3.066499999999999915e+01 1.292195000000000071e+01 -6.681475136467671105e-02
-3.696800000000000352e+01 -4.467399999999999949e+01 4.217699999999999960e+01 4.301559000000000310e+01 -6.366496103978500076e-02
-3.696800000000000352e+01 -4.335499999999999687e+01 3.981199999999999761e+01 4.294409000000000276e+01 -4.883499217355782851e-02
-3.696800000000000352e+01 -4.335499999999999687e+01 4.144200000000000017e+01 2.218894000000000144e+00 -4.998592182557538843e-02
-3.696800000000000352e+01 -4.312400000000000233e+01 4.062700000000000244e+01 3.283258000000000010e+01 -4.758712948717339769e-02
-3.696699999999999875e+01 -3.403799999999999670e+01 3.467600000000000193e+01 7.947028000000000425e+00 -3.499999999999999778e-01
-3.696699999999999875e+01 -3.240800000000000125e+01 3.467600000000000193e+01 9.179308999999999941e+00 -3.500000000000000333e-01
-3.696500000000000341e+01 -4.773799999999999955e+01 1.752199999999999847e+01 -3.605493000000000059e+00 -3.157712964825969137e-02
-3.696099999999999852e+01 -3.661999999999999744e+01 3.795300000000000296e+01 9.544895000000000351e+00 -3.499999999999999778e-01
-3.696000000000000085e+01 -3.941499999999999915e+01 3.679999999999999716e+01 6.789832999999999785e+00 -3.499999999999999778e-01
-3.696000000000000085e+01 -4.786399999999999721e+01 2.878600000000000136e+01 1.477215999999999951e+01 -7.171467226110264659e-02
-3.695799999999999841e+01 -4.004899999999999949e+01 3.459700000000000131e+01 1.668841000000000019e+00 -2.859079842771010682e-01
-3.695600000000000307e+01 -3.837899999999999778e+01 1.952899999999999991e+01 -3.097021999999999942e+00 1.741839510842394245e-01
-3.695600000000000307e+01 -5.991100000000000136e+01 3.611899999999999977e+01 -3.747409999999999908e+00 -5.756656512570601514e-02
-3.695499999999999829e+01 -4.834499999999999886e+01 4.143399999999999750e+01 1.641156000000000148e+01 -8.289797236773589761e-02
-3.695100000000000051e+01 -5.765299999999999869e+01 1.712999999999999901e+01 1.689450000000000074e+01 -1.649049960018648675e-01
-3.695000000000000284e+01 -5.869200000000000017e+01 3.680100000000000193e+01 3.613865999999999801e+00 -1.576424269304869674e-01
-3.694800000000000040e+01 -3.875999999999999801e+01 2.552499999999999858e+01 1.055358000000000018e+01 -1.110819311303210544e-01
-3.694800000000000040e+01 -3.789399999999999835e+01 2.552499999999999858e+01 1.010752000000000095e+00 -8.722495755141881912e-02
-3.694599999999999795e+01 -3.392199999999999704e+01 2.377700000000000102e+01 -4.907565000000000310e+01 -8.214638722452763386e-02
-3.694500000000000028e+01 -5.935000000000000142e+01 3.283400000000000318e+01 2.753877000000000130e+00 -6.024418419385405704e-02
-3.694500000000000028e+01 -4.895799999999999841e+01 2.873199999999999932e+01 1.511996000000000073e+01 -6.940593533855118902e-02
-3.693699999999999761e+01 -5.883400000000000318e+01 3.913700000000000045e+01 7.767695999999999934e+00 -1.575160332195251756e-01
-3.693599999999999994e+01 -4.933400000000000318e+01 1.797200000000000131e+01 -1.125753999999999921e+00 -2.927485775443150733e-03
-3.692799999999999727e+01 -5.856000000000000227e+01 3.829599999999999937e+01 4.527451000000000114e+00 -1.566014864615256352e-01
-3.692699999999999960e+01 -6.202600000000000335e+01 2.974399999999999977e+01 1.475952999999999982e+01 -6.588746519682259217e-02
-3.692499999999999716e+01 -3.769599999999999795e+01 3.234899999999999665e+01 2.331724000000000174e+01 -3.500000000000000333e-01
-3.690200000000000102e+01 -4.685600000000000165e+01 4.204699999999999704e+01 1.636230999999999938e+02 -8.165319563400939840e-02
-3.690200000000000102e+01 -3.370199999999999818e+01 3.390100000000000335e+01 6.805848000000000120e+00 -3.499999999999999778e-01
-3.690200000000000102e+01 -3.370199999999999818e+01 3.545100000000000051e+01 7.537544999999999717e+00 -3.499999999999999778e-01
-3.690200000000000102e+01 -3.274399999999999977e+01 3.390100000000000335e+01 6.361489999999999867e+00 -3.500000000000000333e-01
-3.690200000000000102e+01 -3.274399999999999977e+01 3.545100000000000051e+01 8.853218000000000032e+00 -3.500000000000000333e-01
-3.689500000000000313e+01 -3.872200000000000131e+01 3.542999999999999972e+01 7.543885000000000396e+00 -3.500000000000000333e-01
-3.689399999999999835e+01 -5.441799999999999926e+01 4.170499999999999829e+01 8.100549000000000888e+00 -1.069591310146543045e-01
-3.689000000000000057e+01 -3.698899999999999721e+01 3.710300000000000153e+01 8.101013000000000019e+00 -3.499999999999999778e-01
-3.688400000000000034e+01 -5.858100000000000307e+01 3.738799999999999812e+01 3.872606000000000215e+00 -1.569526987590607880e-01
-3.688300000000000267e+01 -5.629999999999999716e+01 1.670599999999999952e+01 7.850203999999999516e-01 -1.651071192171674751e-01
-3.686599999999999966e+01 -4.985999999999999943e+01 4.113300000000000267e+01 3.535311999999999699e+01 -7.127502910237859535e-02
-3.685799999999999699e+01 -5.316799999999999926e+01 4.240999999999999659e+01 3.530570999999999771e+01 -5.435470759096514698e-02
-3.685799999999999699e+01 -5.164800000000000324e+01 4.240999999999999659e+01 2.153537999999999997e+01 -7.046094849802474192e-02
-3.683800000000000097e+01 -4.738900000000000290e+01 1.713899999999999935e+01 -1.854994000000000032e+00 1.165423258123891442e-01
-3.683700000000000330e+01 -4.061800000000000210e+01 2.810099999999999909e+01 4.507098000000000049e+00 -2.875552577494254192e-01
-3.682600000000000051e+01 -5.654200000000000159e+01 2.780499999999999972e+01 -7.821329000000000420e+00 -1.896277826500278318e-01
-3.682399999999999807e+01 -4.033299999999999841e+01 1.892200000000000060e+01 3.932460999999999984e+00 1.731799034202025356e-01
-3.681700000000000017e+01 -5.809300000000000352e+01 1.789499999999999957e+01 4.058830999999999967e-01 -1.646839804499042881e-01
-3.681700000000000017e+01 -5.634400000000000119e+01 2.826800000000000068e+01 7.885779000000000538e-01 -1.892672208784549615e-01
-3.681499999999999773e+01 -5.319100000000000250e+01 1.632999999999999829e+01 1.561865999999999977e+00 -8.293339094398160128e-04
-3.680599999999999739e+01 -4.560300000000000153e+01 1.680499999999999972e+01 -4.690748000000000140e+00 1.144129424971902231e-01
-3.680400000000000205e+01 -3.679099999999999682e+01 2.613800000000000168e+01 -2.757653000000000176e+01 -7.920929013517205575e-02
-3.680400000000000205e+01 -3.527100000000000080e+01 2.613800000000000168e+01 -3.823711000000000126e+01 -7.988131462064736177e-02
-3.679599999999999937e+01 -3.726599999999999824e+01 3.623599999999999710e+01 1.533693000000000062e+01 -3.500000000000000333e-01
-3.679299999999999926e+01 -3.851100000000000279e+01 2.969699999999999918e+01 6.657968000000000330e+00 -2.858042613088033201e-01
-3.678999999999999915e+01 -5.767499999999999716e+01 2.704700000000000060e+01 -3.656388000000000194e+00 -1.575256235519893189e-01
-3.678799999999999670e+01 -3.920000000000000284e+01 1.967999999999999972e+01 -5.235611999999999711e+00 1.738173678649496123e-01
-3.678799999999999670e+01 -5.393299999999999983e+01 3.107700000000000173e+01 1.336763000000000012e+01 -1.871701634809311010e-01
-3.678699999999999903e+01 -5.097599999999999909e+01 1.556499999999999950e+01 5.970467000000000191e+00 -3.423457928994758266e-03
-3.678699999999999903e+01 -5.429699999999999704e+01 3.270700000000000074e+01 7.176285000000000025e+00 -2.835133579447795538e-01
-3.678600000000000136e+01 -6.124000000000000199e+01 3.656099999999999994e+01 4.278279000000000387e+00 -5.948074575587460056e-02
-3.678099999999999881e+01 -4.931099999999999994e+01 2.914499999999999957e+01 1.234022000000000041e+01 -6.855544884945177775e-02
-3.678099999999999881e+01 -4.931099999999999994e+01 3.054500000000000171e+01 7.168292000000000108e+00 -6.746394406481133477e-02
-3.677600000000000335e+01 -5.823599999999999710e+01 1.893799999999999883e+01 9.732505000000000184e-01 -1.642372742029567789e-01
-3.677600000000000335e+01 -4.402300000000000324e+01 2.973699999999999832e+01 2.213456000000000046e+01 -7.426040579615604542e-02
-3.677600000000000335e+01 -4.381400000000000006e+01 2.900100000000000122e+01 2.426756999999999920e+01 -7.464978617934425742e-02
-3.677600000000000335e+01 -4.381400000000000006e+01 3.047299999999999898e+01 2.836963000000000079e+01 -7.326774389477822003e-02
-3.677600000000000335e+01 -4.262299999999999756e+01 3.113700000000000045e+01 8.164106000000000307e+00 -7.097337036279552369e-02
-3.677000000000000313e+01 -6.326599999999999824e+01 2.366199999999999903e+01 2.852094999999999914e+01 -1.615423175408451373e-01
-3.677000000000000313e+01 -6.166799999999999926e+01 2.366199999999999903e+01 -1.908962000000000048e+00 -1.613623281917858643e-01
-3.676899999999999835e+01 -5.980100000000000193e+01 4.213000000000000256e+01 1.495124999999999993e+01 -1.564287144478269109e-01
-3.676700000000000301e+01 -3.995600000000000307e+01 2.856700000000000017e+01 5.492322999999999844e+00 -2.870255381162293840e-01
-3.675900000000000034e+01 -3.698100000000000165e+01 3.542999999999999972e+01 2.803086000000000055e+01 -3.499999999999999778e-01
-3.675699999999999790e+01 -5.622899999999999920e+01 3.190399999999999991e+01 4.736436999999999564e+00 -1.852232711979894253e-01
-3.675699999999999790e+01 -5.288799999999999812e+01 1.563000000000000078e+01 1.063064000000000009e+00 -1.769961809515292707e-03
-3.674399999999999977e+01 -5.588199999999999790e+01 4.263400000000000034e+01 1.639983000000000146e+01 -9.451971230147453162e-02
-3.674399999999999977e+01 -4.046200000000000330e+01 1.796399999999999864e+01 8.601319999999999411e+00 1.728146157434135022e-01
-3.674399999999999977e+01 -3.909799999999999898e+01 3.449399999999999977e+01 8.468441000000000329e+00 -3.499999999999999778e-01
-3.674199999999999733e+01 -4.373599999999999710e+01 3.901299999999999812e+01 3.887539000000000300e+01 -4.808866289344602973e-02
-3.673799999999999955e+01 -4.459199999999999875e+01 1.661299999999999955e+01 -3.350230999999999959e+00 2.926708936489169632e-01
-3.673400000000000176e+01 -6.007200000000000273e+01 4.289699999999999847e+01 7.572850999999999999e+00 -1.551967628946201994e-01
-3.673299999999999699e+01 -4.248599999999999710e+01 2.810800000000000054e+01 1.107511000000000045e+01 -7.391553972997699784e-02
-3.673299999999999699e+01 -4.108599999999999852e+01 3.037399999999999878e+01 1.504381000000000057e+01 -2.877763587409970514e-01
-3.673199999999999932e+01 -6.236899999999999977e+01 3.649000000000000199e+01 5.484277999999999764e+00 -6.190140051842522168e-02
-3.672800000000000153e+01 -5.399300000000000210e+01 3.200699999999999790e+01 7.453400000000000247e+00 -1.860439437712394783e-01
-3.672599999999999909e+01 -4.836999999999999744e+01 3.044200000000000017e+01 1.040182000000000073e+01 -7.005687672994884152e-02
