2.950100000000000122e+01 1.966100000000000136e+01 6.610099999999999909e+01 3.323718999999999824e+01 -2.765000243536291924e-01
2.950199999999999889e+01 4.261599999999999966e+01 8.000900000000000034e+01 1.715791000000000066e+00 -2.548786576146410687e-01
2.950499999999999901e+01 3.739600000000000080e+01 9.216400000000000148e+01 -9.528029999999999333e+00 -2.543846132195810017e-01
2.950600000000000023e+01 3.504699999999999704e+01 9.390099999999999625e+01 3.559689999999999799e+00 -2.542450670902535181e-01
2.950600000000000023e+01 3.750699999999999790e+01 9.296099999999999852e+01 -8.940780000000000172e+00 -2.544085181862870693e-01
2.950600000000000023e+01 3.750699999999999790e+01 9.390099999999999625e+01 -9.610512999999999195e+00 -2.544282239010682289e-01
2.951099999999999923e+01 3.437599999999999767e+01 8.126300000000000523e+01 1.362692999999999977e+01 -2.540561087541751695e-01
2.951099999999999923e+01 3.577600000000000335e+01 8.126300000000000523e+01 9.925416000000000238e+00 -2.542272248149344271e-01
2.951999999999999957e+01 2.836299999999999955e+01 9.096899999999999409e+01 1.780092000000000063e-01 -2.534590500076376318e-01
2.953600000000000136e+01 1.683800000000000097e+01 6.087700000000000244e+01 1.012124999999999986e+01 -1.586668791631517250e-01
2.954500000000000171e+01 3.627700000000000102e+01 9.472400000000000375e+01 9.848302000000000334e+00 -2.543680830537227155e-01
2.955099999999999838e+01 1.850300000000000011e+01 6.518099999999999739e+01 5.737848000000000326e+01 -2.777913533286135994e-01
2.955099999999999838e+01 1.997500000000000142e+01 6.518099999999999739e+01 3.510573999999999728e+01 -2.757301626569227948e-01
2.955199999999999960e+01 3.369899999999999807e+01 6.632099999999999795e+01 1.891078999999999954e+00 -2.591262751717048340e-01
2.956299999999999883e+01 4.148599999999999710e+01 8.576099999999999568e+01 1.842440000000000078e+00 -2.546866437826958984e-01
2.957799999999999940e+01 2.602700000000000102e+01 8.946999999999999886e+01 -6.186867999999999812e-01 -2.530459691716723802e-01
2.958399999999999963e+01 2.432700000000000173e+01 7.500600000000000023e+01 1.127473999999999954e+01 -2.522302242206063139e-01
2.958800000000000097e+01 1.242300000000000004e+01 8.550199999999999534e+01 -2.478617999999999988e+00 -2.493843592053487657e-01
2.958899999999999864e+01 1.929400000000000048e+01 8.018800000000000239e+01 -2.374455999999999989e+01 -2.495745725468328513e-01
2.958899999999999864e+01 1.950300000000000011e+01 7.945199999999999818e+01 -1.371031999999999940e+01 -2.495518386919866605e-01
2.958899999999999864e+01 1.950300000000000011e+01 8.092400000000000659e+01 -8.026056000000000523e+00 -2.498714718442593963e-01
2.959100000000000108e+01 2.087999999999999901e+01 7.696800000000000352e+01 7.889154000000000444e+00 -2.502734417862598759e-01
2.959299999999999997e+01 1.779100000000000037e+01 6.098199999999999932e+01 1.207673999999999914e+01 -1.618058778232117079e-01
2.959499999999999886e+01 1.364499999999999957e+01 8.382999999999999829e+01 -3.936176999999999815e+00 -2.484970198236144956e-01
2.959499999999999886e+01 1.364499999999999957e+01 8.469499999999999318e+01 -1.198568000000000033e+01 -2.490777181567459253e-01
2.959600000000000009e+01 3.810399999999999920e+01 9.001500000000000057e+01 1.331444000000000072e+00 -2.544272436012161021e-01
2.960300000000000153e+01 3.154899999999999949e+01 6.582699999999999818e+01 -2.170560000000000045e+00 -2.588949585764054873e-01
2.960600000000000165e+01 2.437500000000000000e+01 7.194100000000000250e+01 -4.976768999999999998e+00 -2.528715235930157901e-01
2.960800000000000054e+01 3.929200000000000159e+01 8.891100000000000136e+01 7.391111999999999682e+00 -2.545161989698377925e-01
2.961100000000000065e+01 1.542500000000000071e+01 6.119400000000000261e+01 6.751642000000000365e+00 -1.626619880367418669e-01
2.961100000000000065e+01 1.847700000000000031e+01 8.803199999999999648e+01 2.528102000000000071e+00 -2.515136481952464087e-01
2.961199999999999832e+01 1.998900000000000077e+01 6.151100000000000279e+01 1.436152000000000051e+01 -1.337969603815531427e-01
2.961700000000000088e+01 4.086299999999999955e+01 7.285500000000000398e+01 2.725724000000000036e+00 -3.499999999999999778e-01
2.961899999999999977e+01 4.371500000000000341e+01 7.788299999999999557e+01 2.992268000000000150e+00 -3.499999999999999778e-01
2.962300000000000111e+01 3.611999999999999744e+01 6.746099999999999852e+01 -8.313762000000000540e+00 -2.588210070229126081e-01
2.962600000000000122e+01 4.149499999999999744e+01 8.695799999999999841e+01 5.020364999999999966e+00 -2.546882865389535344e-01
2.962699999999999889e+01 1.974800000000000111e+01 7.772700000000000387e+01 5.462245000000000239e+00 -2.495439526814826059e-01
2.962699999999999889e+01 1.974800000000000111e+01 7.866299999999999670e+01 -5.091709999999999958e+00 -2.496371512954081717e-01
2.962900000000000134e+01 2.599200000000000088e+01 6.253499999999999659e+01 -7.577295000000000336e+00 -1.448988324674677641e-01
2.962900000000000134e+01 2.728500000000000014e+01 6.325600000000000023e+01 -6.324671000000000376e+00 -1.461050481694618486e-01
2.962900000000000134e+01 2.851099999999999923e+01 6.397899999999999920e+01 -1.153518999999999961e+00 -1.470433023137378004e-01
2.962900000000000134e+01 1.420599999999999952e+01 7.027200000000000557e+01 1.612002000000000024e+01 -2.440020177787320110e-01
2.962900000000000134e+01 1.441499999999999915e+01 6.953600000000000136e+01 1.741749000000000080e+01 -1.590282783866734384e-01
2.963100000000000023e+01 3.359599999999999653e+01 9.118000000000000682e+01 -1.262393999999999927e+01 -2.540627222928723561e-01
2.963599999999999923e+01 2.069399999999999906e+01 8.172400000000000375e+01 -1.305968000000000018e+00 -2.506739191441091363e-01
2.964999999999999858e+01 2.476200000000000045e+01 8.862699999999999534e+01 -8.796138000000000012e-01 -2.527912855942291426e-01
2.965599999999999881e+01 2.574399999999999977e+01 8.865600000000000591e+01 -2.457819999999999894e+00 -2.529569406477811810e-01
2.965700000000000003e+01 2.355099999999999838e+01 6.264999999999999858e+01 8.631081000000000003e+00 -1.418079324265315022e-01
2.965800000000000125e+01 1.116399999999999970e+01 8.886400000000000432e+01 2.497307999999999950e+01 -2.510997115582774830e-01
2.965899999999999892e+01 3.066199999999999903e+01 9.050199999999999534e+01 -5.787704999999999878e+00 -2.537413588445673884e-01
2.966000000000000014e+01 2.134299999999999997e+01 6.228600000000000136e+01 1.997950000000000159e+01 -1.722198612499924175e-01
2.966000000000000014e+01 2.253399999999999892e+01 6.295000000000000284e+01 1.583018000000000036e+01 -1.744819882722713766e-01
2.966499999999999915e+01 2.335500000000000043e+01 8.730299999999999727e+01 1.471594999999999942e+01 -2.523826042725932917e-01
2.967200000000000060e+01 2.948999999999999844e+01 9.083400000000000318e+01 -1.900090000000000146e+01 -2.536287011903504696e-01
2.967399999999999949e+01 3.628499999999999659e+01 7.846099999999999852e+01 1.754428000000000054e+01 -2.544361627139402060e-01
2.967399999999999949e+01 3.649399999999999977e+01 7.919700000000000273e+01 1.657103000000000037e+01 -2.544255878810215421e-01
2.967599999999999838e+01 2.170100000000000051e+01 7.706799999999999784e+01 8.892549999999999955e+00 -2.508666201414098129e-01
2.967899999999999849e+01 3.491899999999999693e+01 6.653300000000000125e+01 -9.732590000000000074e+00 -2.592498781818349807e-01
2.968799999999999883e+01 4.342799999999999727e+01 7.866299999999999670e+01 3.857800000000000118e+00 -2.550135446991955712e-01
2.968900000000000006e+01 2.439300000000000068e+01 8.784099999999999397e+01 -3.007216999999999807e-01 -2.526574762707538002e-01
2.969699999999999918e+01 2.284400000000000119e+01 7.587000000000000455e+01 1.310520999999999958e+01 -2.515855844087983018e-01
2.969699999999999918e+01 2.222100000000000009e+01 8.665500000000000114e+01 2.173385000000000034e+01 -2.520649859885370492e-01
2.970400000000000063e+01 2.303600000000000136e+01 7.125100000000000477e+01 -2.047791999999999835e+00 -2.527017621077687348e-01
2.970400000000000063e+01 3.005199999999999960e+01 6.426000000000000512e+01 -7.669780999999999960e-01 -1.480632523225097752e-01
2.970899999999999963e+01 3.999399999999999977e+01 8.825600000000000023e+01 6.464550000000000018e+00 -2.545883589255022450e-01
2.971099999999999852e+01 2.137199999999999989e+01 7.190000000000000568e+01 7.076233000000000217e+00 -2.517699091705634662e-01
2.971399999999999864e+01 3.256900000000000261e+01 6.616800000000000637e+01 8.039209999999999967e-01 -2.588562702477259503e-01
2.971799999999999997e+01 1.913400000000000034e+01 6.158500000000000085e+01 1.787840999999999880e+01 -1.669246607071105948e-01
2.971900000000000119e+01 2.169900000000000162e+01 7.509199999999999875e+01 1.205208999999999975e+01 -2.511242709662716566e-01
2.972200000000000131e+01 1.182399999999999984e+01 7.335500000000000398e+01 4.043867999999999796e+00 -2.312943587714836879e-01
2.972200000000000131e+01 1.207799999999999940e+01 7.246099999999999852e+01 1.010707000000000022e+01 -2.334981778528336105e-01
2.972200000000000131e+01 1.308500000000000085e+01 7.145399999999999352e+01 1.205300000000000082e+01 -2.391492605219740497e-01
2.973400000000000176e+01 3.485499999999999687e+01 8.151699999999999591e+01 1.329781999999999975e+01 -2.541781104604567409e-01
2.973600000000000065e+01 4.386299999999999955e+01 7.928400000000000603e+01 5.714935000000000154e-02 -2.550279180122193012e-01
2.973600000000000065e+01 1.545299999999999940e+01 8.806300000000000239e+01 8.643490999999999147e+00 -2.510999010129632558e-01
2.973600000000000065e+01 1.685300000000000153e+01 8.806300000000000239e+01 1.693778000000000006e+01 -2.513116606865437030e-01
2.974299999999999855e+01 4.436800000000000210e+01 7.801900000000000546e+01 2.508891999999999789e-01 -3.499999999999999778e-01
2.975000000000000000e+01 4.299399999999999977e+01 7.373399999999999466e+01 -1.466812999999999967e+01 -3.499999999999999778e-01
2.976099999999999923e+01 1.923900000000000077e+01 6.518099999999999739e+01 4.910672000000000281e+01 -2.765361440550418437e-01
2.976099999999999923e+01 3.328900000000000148e+01 7.830700000000000216e+01 7.395260999999999640e+00 -2.541115545176403367e-01
2.976099999999999923e+01 3.349799999999999756e+01 7.757099999999999795e+01 1.210426999999999964e+01 -2.541813240420347508e-01
2.976099999999999923e+01 3.468900000000000006e+01 7.690699999999999648e+01 3.183556000000000097e+01 -2.543700800710027021e-01
2.976099999999999923e+01 3.588000000000000256e+01 7.757099999999999795e+01 2.318150999999999939e+01 -2.544644769505743365e-01
2.976200000000000045e+01 3.947500000000000142e+01 7.059699999999999420e+01 3.889597999999999889e+00 -2.576800469169241437e-01
2.976899999999999835e+01 3.932900000000000063e+01 7.148399999999999466e+01 1.063382999999999967e+01 -2.571538419272606513e-01
2.976899999999999835e+01 3.953799999999999670e+01 7.221999999999999886e+01 1.011806999999999945e+01 -3.499999999999999778e-01
2.977199999999999847e+01 2.393700000000000117e+01 7.543200000000000216e+01 1.199410999999999916e+01 -2.521910264041943295e-01
2.977599999999999980e+01 2.134199999999999875e+01 7.428900000000000148e+01 1.558942000000000050e+01 -2.511474182815728873e-01
2.978600000000000136e+01 1.914300000000000068e+01 8.817499999999999716e+01 -4.158459999999999823e+00 -2.517752135185504225e-01
2.978800000000000026e+01 3.913000000000000256e+01 6.959099999999999397e+01 1.174907999999999930e+01 -2.581574529588511746e-01
2.978900000000000148e+01 4.176400000000000290e+01 7.291100000000000136e+01 -1.410041999999999973e+01 -3.499999999999999778e-01
2.979599999999999937e+01 4.334400000000000119e+01 7.700700000000000500e+01 2.357253000000000043e+00 -3.499999999999999778e-01
2.981200000000000117e+01 1.067800000000000082e+01 8.092100000000000648e+01 7.259783999999999793e+00 -2.449705996863134616e-01
2.981299999999999883e+01 1.461700000000000088e+01 8.936799999999999500e+01 6.733969000000000094e+00 -2.514983942487261093e-01
2.982000000000000028e+01 3.770799999999999841e+01 6.865200000000000102e+01 -1.482074999999999920e-01 -2.583563410196057508e-01
2.982799999999999940e+01 1.212199999999999989e+01 7.734999999999999432e+01 8.078960999999999615e+00 -2.390182974539313832e-01
2.982799999999999940e+01 1.222700000000000031e+01 7.654900000000000659e+01 5.566788999999999987e+00 -2.374586438170175617e-01
2.983899999999999864e+01 2.744600000000000151e+01 9.046299999999999386e+01 8.862470999999999322e+00 -2.534109036705262663e-01
2.984400000000000119e+01 1.165700000000000003e+01 8.188400000000000034e+01 6.210829000000000377e+00 -2.465147950955124956e-01
2.984600000000000009e+01 2.265899999999999892e+01 8.147700000000000387e+01 5.601245000000000251e-01 -2.516093003557707264e-01
2.985399999999999920e+01 4.304099999999999682e+01 7.630700000000000216e+01 8.379632000000000858e+00 -3.499999999999999778e-01
2.985999999999999943e+01 4.477000000000000313e+01 7.921599999999999397e+01 -5.252822000000000102e+00 -2.551055801307179904e-01
2.986899999999999977e+01 1.418399999999999928e+01 6.602599999999999625e+01 2.433659000000000106e+01 -1.768167303606970886e-01
2.986899999999999977e+01 1.418399999999999928e+01 6.689100000000000534e+01 3.073575999999999908e+01 -1.634350205274947565e-01
2.987000000000000099e+01 3.111599999999999966e+01 6.512699999999999534e+01 -1.855883999999999867e-01 -1.486316297168163714e-01
2.987600000000000122e+01 4.348100000000000165e+01 7.977800000000000580e+01 -2.670389999999999819e+00 -2.550147519207285329e-01
2.987800000000000011e+01 1.080700000000000038e+01 9.123699999999999477e+01 1.856854999999999833e+01 -2.520512223687147446e-01
2.987800000000000011e+01 1.176500000000000057e+01 9.123699999999999477e+01 3.862465000000000259e+01 -2.520239008558199378e-01
2.988400000000000034e+01 1.075900000000000034e+01 7.845999999999999375e+01 8.018323000000000533e+00 -2.401052925950431793e-01
2.989000000000000057e+01 3.655199999999999960e+01 6.816100000000000136e+01 -1.672835999999999990e+00 -2.583527975564183787e-01
2.989399999999999835e+01 1.323900000000000077e+01 9.019199999999999307e+01 1.421906000000000070e+01 -2.517313176719949697e-01
2.989399999999999835e+01 2.017999999999999972e+01 7.702700000000000102e+01 1.000803999999999938e+01 -2.502016539726213962e-01
2.989699999999999847e+01 4.416400000000000148e+01 7.705100000000000193e+01 2.562276000000000220e+00 -3.499999999999999778e-01
2.989699999999999847e+01 4.416400000000000148e+01 7.866299999999999670e+01 8.382165000000000532e+00 -2.550969085854958851e-01
2.989999999999999858e+01 2.035099999999999909e+01 8.728000000000000114e+01 -2.305009000000000086e+01 -2.518852467858269106e-01
2.990099999999999980e+01 2.261499999999999844e+01 7.783599999999999852e+01 6.941944999999999588e+00 -2.515313952762369687e-01
2.990800000000000125e+01 4.106300000000000239e+01 8.734499999999999886e+01 1.076506000000000007e+01 -2.547068091856369287e-01
2.991100000000000136e+01 4.141799999999999926e+01 8.151200000000000045e+01 -4.893392000000000408e+00 -2.548320897239992888e-01
2.991199999999999903e+01 4.217600000000000193e+01 8.066800000000000637e+01 3.935454000000000008e+00 -2.549097233447709110e-01
2.991300000000000026e+01 2.285999999999999943e+01 7.868200000000000216e+01 5.730949999999999989e+00 -2.516299081179671493e-01
2.992099999999999937e+01 3.250999999999999801e+01 9.053600000000000136e+01 -4.516234000000000082e-01 -2.540079755265430284e-01
2.992299999999999827e+01 2.157700000000000173e+01 8.655700000000000216e+01 1.059570000000000078e+01 -2.520321145006180208e-01
2.992599999999999838e+01 1.388499999999999979e+01 6.515200000000000102e+01 9.919862999999999431e+00 -1.858428724019372258e-01
2.992800000000000082e+01 3.268599999999999994e+01 7.994100000000000250e+01 4.488691000000000209e+00 -2.540134271822024337e-01
2.992800000000000082e+01 3.268599999999999994e+01 8.080700000000000216e+01 5.320293999999999635e+00 -2.539825095751090389e-01
2.993299999999999983e+01 1.740099999999999980e+01 8.864700000000000557e+01 8.951437000000000310e+00 -2.516874393394684106e-01
2.993400000000000105e+01 2.411400000000000077e+01 8.726800000000000068e+01 7.121870999999999619e+00 -2.526554409481180929e-01
2.993900000000000006e+01 1.999399999999999977e+01 8.166599999999999682e+01 -2.920252999999999877e-01 -2.506297083028742878e-01
2.994300000000000139e+01 1.047100000000000009e+01 9.046200000000000330e+01 9.667828999999999340e+00 -2.518738330199667419e-01
2.994300000000000139e+01 3.456799999999999784e+01 9.239799999999999613e+01 -4.023223999999999911e+00 -2.542530613544854434e-01
2.994399999999999906e+01 3.626700000000000301e+01 8.086599999999999966e+01 1.293624999999999936e+01 -2.544167397571969746e-01
2.994399999999999906e+01 3.647599999999999909e+01 8.012999999999999545e+01 1.507537999999999911e+01 -2.544641628356653085e-01
2.994800000000000040e+01 2.076399999999999935e+01 6.157600000000000051e+01 2.531240000000000023e+01 -1.361221589665222442e-01
2.995200000000000173e+01 1.073700000000000010e+01 8.962999999999999545e+01 1.531761000000000017e+01 -2.515955558341668175e-01
2.995499999999999829e+01 2.781099999999999994e+01 6.392099999999999937e+01 -9.875764000000000209e+00 -1.465813116340881628e-01
2.995899999999999963e+01 2.231200000000000117e+01 7.713599999999999568e+01 1.123898999999999937e+01 -2.514880990648596382e-01
2.996000000000000085e+01 1.388199999999999967e+01 6.754600000000000648e+01 2.601414000000000115e+01 -1.601965251043266092e-01
2.996000000000000085e+01 2.425100000000000122e+01 6.259199999999999875e+01 6.297939000000000398e+00 -1.428964420008252412e-01
2.996999999999999886e+01 4.201899999999999835e+01 8.689499999999999602e+01 3.217149000000000036e+00 -2.547870222396718676e-01
2.997599999999999909e+01 3.580700000000000216e+01 9.419100000000000250e+01 -3.470364000000000004e+00 -2.544007510242015102e-01
2.997599999999999909e+01 3.674699999999999989e+01 9.419100000000000250e+01 -2.429338999999999871e+01 -2.544663034590340933e-01
2.997899999999999920e+01 4.085799999999999699e+01 8.395399999999999352e+01 -6.859220000000000539e+01 -2.547481308950289569e-01
2.997899999999999920e+01 4.106700000000000017e+01 8.321800000000000352e+01 -5.074054000000000286e+01 -2.547783092029624052e-01
2.997899999999999920e+01 4.129399999999999693e+01 8.241899999999999693e+01 -6.910454000000000008e+01 -2.548132642071382348e-01
2.997899999999999920e+01 1.417200000000000060e+01 6.427299999999999613e+01 1.250201999999999991e+01 -1.948595758453534610e-01
2.998300000000000054e+01 4.199799999999999756e+01 8.619100000000000250e+01 8.020359999999999712e-01 -2.547953189306838562e-01
2.999099999999999966e+01 1.018699999999999939e+01 7.979699999999999704e+01 1.122545000000000037e+01 -2.433327480469388571e-01
2.999500000000000099e+01 3.398599999999999710e+01 8.161899999999999977e+01 1.109795000000000087e+01 -2.541520629186124203e-01
3.000100000000000122e+01 2.292099999999999937e+01 8.671399999999999864e+01 1.283871000000000038e+02 -2.523881680312903830e-01
3.000400000000000134e+01 1.501999999999999957e+01 8.876300000000000523e+01 5.288825000000000109e+00 -2.514622505620494608e-01
3.000700000000000145e+01 4.304699999999999704e+01 7.503799999999999670e+01 1.230160000000000053e+01 -3.499999999999999778e-01
3.000799999999999912e+01 1.804400000000000048e+01 8.852299999999999613e+01 5.857061999999999991e+00 -2.518002305343564062e-01
3.000799999999999912e+01 3.308100000000000307e+01 7.912699999999999534e+01 8.533457999999999544e+00 -2.541330350481043610e-01
3.001300000000000168e+01 3.707900000000000063e+01 9.167300000000000182e+01 1.787650000000000006e+01 -2.544502888965420317e-01
3.001699999999999946e+01 1.201500000000000057e+01 7.582999999999999829e+01 3.429092999999999947e+00 -2.360699090926917099e-01
3.002100000000000080e+01 4.080799999999999983e+01 8.451000000000000512e+01 -2.474434000000000111e+01 -2.547430596792947255e-01
3.002100000000000080e+01 4.101700000000000301e+01 8.524599999999999511e+01 1.541056999999999899e+00 -2.547467297719357981e-01
3.002799999999999869e+01 1.294500000000000028e+01 8.356300000000000239e+01 -2.294947000000000070e+00 -2.486431953770016356e-01
3.002799999999999869e+01 1.294500000000000028e+01 8.496299999999999386e+01 -5.854366999999999877e+00 -2.495660891813141213e-01
3.003200000000000003e+01 1.731200000000000117e+01 6.043800000000000239e+01 8.470957000000000292e+00 -1.219474494456844332e-01
3.003600000000000136e+01 1.213299999999999912e+01 9.052899999999999636e+01 2.748797000000000068e+01 -2.519036380603394965e-01
3.003699999999999903e+01 3.555499999999999972e+01 8.145900000000000318e+01 1.195242000000000004e+01 -2.543499369220269535e-01
3.003900000000000148e+01 3.547800000000000153e+01 9.343099999999999739e+01 -2.383413000000000004e+00 -2.543702391688645870e-01
3.003900000000000148e+01 3.707600000000000051e+01 9.343099999999999739e+01 -2.165548000000000073e+01 -2.544850420346275177e-01
3.003999999999999915e+01 1.615299999999999869e+01 8.800400000000000489e+01 1.756660000000000110e+01 -2.513853277042863987e-01
3.004700000000000060e+01 4.429800000000000182e+01 8.002899999999999636e+01 -6.402153000000000205e+00 -2.550866483981110711e-01
3.005399999999999849e+01 1.161700000000000088e+01 8.581499999999999773e+01 -4.125299000000000049e+00 -2.499765130235321320e-01
3.006200000000000117e+01 1.371499999999999986e+01 7.066899999999999693e+01 1.280841999999999992e+01 -2.449648217640379433e-01
3.006400000000000006e+01 3.408700000000000330e+01 9.157699999999999818e+01 -7.448739999999999917e+00 -2.542180272902559990e-01
3.006500000000000128e+01 1.616000000000000014e+01 6.075300000000000011e+01 1.124047999999999981e+01 -1.553416936364093448e-01
3.006899999999999906e+01 2.992200000000000060e+01 9.034300000000000352e+01 -6.858115999999999879e+00 -2.537683328601922361e-01
3.007300000000000040e+01 2.126800000000000068e+01 7.657699999999999818e+01 1.291475999999999935e+01 -2.511332130151360809e-01
3.007400000000000162e+01 3.680799999999999983e+01 9.267199999999999704e+01 3.536934999999999940e-01 -2.544586178418440370e-01
3.008399999999999963e+01 2.529100000000000037e+01 8.810099999999999909e+01 1.616727999999999943e+00 -2.530089177235637088e-01
3.008599999999999852e+01 1.324799999999999933e+01 8.426300000000000523e+01 -1.008498999999999945e+01 -2.492541142963078382e-01
3.008699999999999974e+01 4.556900000000000261e+01 7.921599999999999397e+01 -4.921109000000000400e+00 -2.551880300421434100e-01
3.008699999999999974e+01 2.150000000000000000e+01 8.189600000000000080e+01 1.192638000000000087e+00 -2.514187153156909882e-01
3.008800000000000097e+01 2.644399999999999906e+01 8.892300000000000182e+01 -8.813646000000000535e-01 -2.532519830722941845e-01
3.008999999999999986e+01 2.440299999999999869e+01 7.251600000000000534e+01 -3.919061999999999824e+00 -2.532133429659542134e-01
3.009199999999999875e+01 3.136199999999999832e+01 9.023399999999999466e+01 -1.599762000000000128e-01 -2.539259078849122053e-01
3.009299999999999997e+01 4.106400000000000006e+01 7.285299999999999443e+01 1.826650000000000107e+00 -3.500000000000000333e-01
3.009299999999999997e+01 2.183399999999999963e+01 6.268299999999999983e+01 3.367421000000000220e+01 -1.730662884417865643e-01
3.009700000000000131e+01 3.517399999999999949e+01 9.273099999999999454e+01 -2.278040999999999983e+00 -2.543421567743392453e-01
3.009900000000000020e+01 2.675199999999999889e+01 6.282500000000000284e+01 -5.658229000000000175e-01 -1.457678421436056360e-01
3.010000000000000142e+01 4.517099999999999937e+01 7.807599999999999341e+01 5.257912000000000002e-02 -3.499999999999999778e-01
3.011299999999999955e+01 1.443699999999999939e+01 6.349499999999999744e+01 7.289254999999999818e+00 -1.916106049066398642e-01
3.011499999999999844e+01 3.827600000000000335e+01 8.975499999999999545e+01 -7.420284000000000324e-01 -2.545412643844616185e-01
3.012300000000000111e+01 1.168599999999999994e+01 7.415399999999999636e+01 1.562710000000000043e+00 -2.332955684307690680e-01
3.013100000000000023e+01 1.997500000000000142e+01 8.807399999999999807e+01 -3.347570999999999852e+00 -2.521025305377833647e-01
3.013599999999999923e+01 1.457499999999999929e+01 6.256900000000000261e+01 1.253138000000000041e+01 -1.828716389758590077e-01
3.013599999999999923e+01 1.482900000000000063e+01 6.167499999999999716e+01 6.732472999999999708e+00 -1.719143280138106522e-01
3.014199999999999946e+01 4.048499999999999943e+01 8.785899999999999466e+01 1.160519999999999996e+01 -2.547070989838349231e-01
3.014199999999999946e+01 1.201600000000000001e+01 8.245999999999999375e+01 -4.927234999999999809e-01 -2.476778764491459894e-01
3.014699999999999847e+01 3.186899999999999977e+01 6.590000000000000568e+01 -4.312301000000000051e-01 -2.587487253035791746e-01
3.014999999999999858e+01 4.524000000000000199e+01 7.997599999999999909e+01 -4.624309000000000225e+00 -2.551579076209102293e-01
3.015800000000000125e+01 1.185899999999999999e+01 7.518300000000000693e+01 1.039611999999999981e+00 -2.350938892559787663e-01
3.016199999999999903e+01 1.231499999999999950e+01 8.309999999999999432e+01 -1.236920999999999937e+00 -2.483286144573127463e-01
3.016300000000000026e+01 2.093299999999999983e+01 7.339499999999999602e+01 1.431428999999999974e+01 -2.517199310635273024e-01
3.016300000000000026e+01 2.103699999999999903e+01 7.259399999999999409e+01 1.171958000000000055e+01 -2.520369724371119835e-01
3.016400000000000148e+01 2.692099999999999937e+01 8.961299999999999955e+01 -1.907621000000000011e+00 -2.533948195120530600e-01
3.016499999999999915e+01 3.337500000000000000e+01 6.599599999999999511e+01 1.475964999999999971e+00 -2.591682728689450044e-01
3.017399999999999949e+01 1.128599999999999959e+01 9.046200000000000330e+01 6.591594999999999516e+01 -2.519804711816820975e-01
3.018299999999999983e+01 1.871000000000000085e+01 8.866599999999999682e+01 1.289860999999999924e+00 -2.520414457501067296e-01
3.018700000000000117e+01 1.256600000000000072e+01 7.189499999999999602e+01 1.108811000000000035e+01 -2.408186317002866395e-01
3.019399999999999906e+01 3.398899999999999721e+01 7.717400000000000659e+01 3.172918999999999912e+01 -2.544249880066017377e-01
3.019399999999999906e+01 3.538900000000000290e+01 7.717400000000000659e+01 3.398062000000000182e+01 -2.545746849598119477e-01
3.019500000000000028e+01 3.059100000000000108e+01 6.427700000000000102e+01 7.081269999999999509e-01 -1.484610084869974200e-01
3.019500000000000028e+01 3.311899999999999977e+01 8.150700000000000500e+01 7.012388999999999761e+00 -2.541138299096186159e-01
3.020200000000000173e+01 4.002900000000000347e+01 7.261700000000000443e+01 1.021861999999999959e+01 -3.499999999999999778e-01
3.020499999999999829e+01 2.323699999999999832e+01 7.569899999999999807e+01 1.152598000000000056e+01 -2.523088409027423040e-01
3.020499999999999829e+01 2.442800000000000082e+01 7.503499999999999659e+01 9.855964999999999421e+00 -2.528299316042300626e-01
3.020499999999999829e+01 2.451899999999999835e+01 7.345199999999999818e+01 5.005190999999999946e-01 -2.531511591154056995e-01
3.020499999999999829e+01 2.463700000000000045e+01 7.429900000000000659e+01 7.899594999999999700e+00 -2.530206169822865614e-01
3.020799999999999841e+01 2.829599999999999937e+01 9.053400000000000603e+01 2.797457999999999956e+01 -2.536365796523993299e-01
3.020899999999999963e+01 2.217800000000000082e+01 7.546800000000000352e+01 9.573294000000000636e+00 -2.519072348830040387e-01
3.021000000000000085e+01 1.144699999999999918e+01 8.951000000000000512e+01 5.068341999999999814e+01 -2.517019697640711651e-01
3.021499999999999986e+01 1.764399999999999835e+01 8.925199999999999534e+01 3.837680000000000202e+00 -2.520388814957141843e-01
3.021999999999999886e+01 2.501800000000000068e+01 6.277600000000000335e+01 3.474663000000000057e+00 -1.439711143137675786e-01
3.022599999999999909e+01 2.087699999999999889e+01 8.661499999999999488e+01 -4.757446000000000175e-01 -2.520686569892466311e-01
3.023999999999999844e+01 1.161800000000000033e+01 8.693699999999999761e+01 2.395839000000000052e+00 -2.507219876865273700e-01
3.026500000000000057e+01 4.488600000000000279e+01 7.713200000000000500e+01 -6.014808000000000376e-01 -3.500000000000000333e-01
3.026599999999999824e+01 3.627700000000000102e+01 9.343099999999999739e+01 -3.450356000000000023e+01 -2.544723302750425686e-01
3.026599999999999824e+01 4.378699999999999903e+01 7.631399999999999295e+01 2.342881000000000213e+00 -3.499999999999999778e-01
3.027499999999999858e+01 1.847700000000000031e+01 8.922299999999999898e+01 1.289860999999999924e+00 -2.521791966036017185e-01
3.027599999999999980e+01 3.577400000000000091e+01 6.710399999999999920e+01 -1.528658000000000072e+01 -2.588556729363961084e-01
3.027799999999999869e+01 1.192300000000000004e+01 8.496899999999999409e+01 -6.389282999999999824e+00 -2.497342578424159298e-01
3.028300000000000125e+01 2.321999999999999886e+01 8.081499999999999773e+01 1.216747000000000023e+00 -2.521081284001872591e-01
3.028300000000000125e+01 2.342899999999999849e+01 8.007899999999999352e+01 4.248215000000000074e+00 -2.521635803727754754e-01
3.029700000000000060e+01 1.382000000000000028e+01 6.832800000000000296e+01 2.831894000000000133e+01 -1.594327816089984862e-01
3.030099999999999838e+01 1.955799999999999983e+01 8.866599999999999682e+01 -3.016836999999999991e-01 -2.522422925616237821e-01
3.030900000000000105e+01 4.224399999999999977e+01 7.337300000000000466e+01 1.278783999999999921e+00 -3.499999999999999778e-01
3.031400000000000006e+01 3.420700000000000074e+01 6.616100000000000136e+01 9.798056000000000765e+00 -2.592177103624373480e-01
3.031500000000000128e+01 1.236899999999999977e+01 8.426600000000000534e+01 -4.035828999999999667e+00 -2.493821241657993570e-01
3.031599999999999895e+01 3.850300000000000011e+01 6.898900000000000432e+01 9.108956999999999748e-01 -2.582612921624132807e-01
3.032199999999999918e+01 1.944800000000000040e+01 7.921899999999999409e+01 -4.223311000000000148e-01 -2.504003823032351361e-01
3.032300000000000040e+01 3.606099999999999994e+01 6.776500000000000057e+01 -5.300548000000000037e+00 -2.584065514995682600e-01
3.032700000000000173e+01 2.236100000000000065e+01 7.175199999999999534e+01 3.314683000000000046e+00 -2.530796684052079581e-01
3.032700000000000173e+01 2.376099999999999923e+01 7.175199999999999534e+01 -4.613583000000000212e+00 -2.534776281360379691e-01
3.032700000000000173e+01 1.948000000000000043e+01 7.815900000000000603e+01 7.315596000000000210e+00 -2.503549843280450382e-01
3.032700000000000173e+01 1.968900000000000006e+01 7.742300000000000182e+01 1.417937000000000047e+01 -2.504867066791766628e-01
3.032900000000000063e+01 1.414700000000000024e+01 6.910399999999999920e+01 3.952230999999999739e+01 -1.605301760309755799e-01
3.032900000000000063e+01 1.414700000000000024e+01 6.996899999999999409e+01 2.681171000000000149e+01 -2.488466627130922204e-01
3.032999999999999829e+01 2.368100000000000094e+01 8.677700000000000102e+01 1.754370999999999867e+02 -2.527176889502948387e-01
3.033299999999999841e+01 3.709199999999999875e+01 9.085699999999999932e+01 1.051323999999999970e+01 -2.545051012553294911e-01
3.034199999999999875e+01 1.176999999999999957e+01 7.328799999999999670e+01 3.289366999999999930e+00 -2.368061834247947028e-01
3.034799999999999898e+01 1.397400000000000020e+01 8.975100000000000477e+01 9.473566999999999183e+00 -2.519059498123415453e-01
3.034799999999999898e+01 2.113500000000000156e+01 7.406100000000000705e+01 1.905468000000000117e+01 -2.519086312494024926e-01
3.035200000000000031e+01 4.294100000000000250e+01 8.053400000000000603e+01 -1.274858999999999964e+00 -2.550494724200030872e-01
3.035600000000000165e+01 2.601200000000000045e+01 8.822299999999999898e+01 3.484859000000000151e+00 -2.532435666810121111e-01
3.035600000000000165e+01 2.325799999999999912e+01 7.920900000000000318e+01 7.534187000000000189e+00 -2.521718372504236916e-01
3.035800000000000054e+01 1.143099999999999916e+01 8.843200000000000216e+01 2.618100999999999789e+00 -2.514331249705855642e-01
3.036400000000000077e+01 2.218799999999999883e+01 8.168899999999999295e+01 -8.151295000000000068e-02 -2.518741235697183889e-01
3.036799999999999855e+01 1.653699999999999903e+01 6.050300000000000011e+01 8.704212000000000060e+00 -1.197254675802864599e-01
3.036799999999999855e+01 1.808699999999999974e+01 6.050300000000000011e+01 1.332197999999999993e+01 -1.262510332084001430e-01
3.037199999999999989e+01 1.950300000000000011e+01 8.126900000000000546e+01 -5.139804999999999513e-01 -2.507778326134441627e-01
3.037199999999999989e+01 2.069399999999999906e+01 8.193300000000000693e+01 1.108298999999999923e+00 -2.513712949688519105e-01
3.037199999999999989e+01 2.922200000000000131e+01 9.040099999999999625e+01 1.962775999999999965e-01 -2.537846980819339904e-01
3.037199999999999989e+01 3.062199999999999989e+01 9.040099999999999625e+01 -1.679308000000000023e+00 -2.539334860027028240e-01
3.037300000000000111e+01 4.171500000000000341e+01 8.137099999999999511e+01 -4.289149000000000100e+00 -2.549517202578724384e-01
3.037600000000000122e+01 2.056800000000000139e+01 7.663599999999999568e+01 4.523675000000000068e+01 -2.511422468659981755e-01
3.037600000000000122e+01 2.196799999999999997e+01 7.663599999999999568e+01 1.207498999999999967e+01 -2.518429924400543696e-01
3.037699999999999889e+01 1.140399999999999991e+01 7.781900000000000261e+01 9.696498000000000062e+00 -2.408692144238467614e-01
3.038800000000000168e+01 2.851099999999999923e+01 6.418800000000000239e+01 -1.423732000000000042e+01 -1.471917129065377638e-01
3.039300000000000068e+01 2.355099999999999838e+01 6.285900000000000176e+01 7.408619999999999983e+00 -1.421547338627216217e-01
3.040899999999999892e+01 4.005199999999999960e+01 8.855899999999999750e+01 1.430184999999999995e+01 -2.547248299989686715e-01
3.041400000000000148e+01 3.143700000000000117e+01 6.520000000000000284e+01 -6.638745000000000340e-01 -1.488778879523132426e-01
3.042200000000000060e+01 1.302699999999999925e+01 7.115099999999999625e+01 1.284712999999999994e+01 -2.457499881838076106e-01
3.042399999999999949e+01 1.000300000000000011e+01 7.893600000000000705e+01 4.066741999999999635e+00 -2.427184970829666111e-01
3.042399999999999949e+01 1.000300000000000011e+01 7.998600000000000421e+01 5.593866000000000227e+00 -2.447988621667724907e-01
3.042699999999999960e+01 1.998900000000000077e+01 6.128000000000000114e+01 4.138058000000000192e+01 -1.342355805862081586e-01
3.042699999999999960e+01 2.130799999999999983e+01 6.201500000000000057e+01 1.405443999999999960e+02 -1.380056693181332395e-01
3.042800000000000082e+01 2.599200000000000088e+01 6.276200000000000045e+01 4.404557000000000055e-01 -1.451245769171708722e-01
3.042899999999999849e+01 4.273899999999999721e+01 8.656000000000000227e+01 -6.718442000000000025e-01 -2.549177019338021433e-01
3.042899999999999849e+01 2.329700000000000060e+01 7.820900000000000318e+01 7.975261999999999851e+00 -2.522917536466240951e-01
3.043599999999999994e+01 3.947999999999999687e+01 7.059099999999999397e+01 8.472811000000000092e+00 -2.575736697746768833e-01
3.043599999999999994e+01 1.572000000000000064e+01 8.849500000000000455e+01 7.371457999999999622e+00 -2.517435268938998383e-01
3.043599999999999994e+01 1.658599999999999852e+01 8.849500000000000455e+01 1.628256000000000014e+01 -2.518488674063790733e-01
3.044200000000000017e+01 3.625300000000000011e+01 7.878499999999999659e+01 1.604080000000000084e+01 -2.546473340213654124e-01
3.044200000000000017e+01 3.646200000000000330e+01 7.952100000000000080e+01 1.548765999999999998e+01 -2.546319353593739510e-01
3.044699999999999918e+01 2.729799999999999827e+01 6.351899999999999835e+01 -3.239433000000000007e+00 -1.463051900945976092e-01
3.044999999999999929e+01 1.114199999999999946e+01 8.143999999999999773e+01 2.922880000000000145e+00 -2.469967082531225044e-01
3.044999999999999929e+01 1.914300000000000068e+01 8.936599999999999966e+01 2.714139999999999997e+00 -2.523959757423441252e-01
3.045400000000000063e+01 4.150800000000000267e+01 8.564300000000000068e+01 2.654662999999999884e-01 -2.548581017668858917e-01
3.046099999999999852e+01 3.355599999999999739e+01 7.787399999999999523e+01 1.941638999999999982e+01 -2.544293931967142042e-01
3.046099999999999852e+01 3.582099999999999795e+01 7.787399999999999523e+01 2.447598999999999947e+01 -2.546614426368298267e-01
3.046900000000000119e+01 3.959599999999999653e+01 7.191700000000000159e+01 1.755136999999999858e+01 -3.499999999999999778e-01
3.046999999999999886e+01 3.485499999999999687e+01 8.172599999999999909e+01 4.135139999999999816e+00 -2.543980643563081290e-01
3.046999999999999886e+01 3.604599999999999937e+01 8.106199999999999761e+01 8.101288999999999518e+00 -2.545394474212183122e-01
3.047299999999999898e+01 1.240199999999999925e+01 8.992400000000000659e+01 2.193862999999999985e+01 -2.519939110037085483e-01
3.047400000000000020e+01 3.929200000000000159e+01 8.891100000000000136e+01 -1.466229000000000005e+00 -2.546841952559940614e-01
3.049299999999999855e+01 1.547799999999999976e+01 7.855899999999999750e+01 7.885493999999999559e+00 -2.474581636186176659e-01
3.049500000000000099e+01 1.688899999999999935e+01 8.919499999999999318e+01 1.091244999999999976e+01 -2.520975748661536953e-01
3.049599999999999866e+01 3.359599999999999653e+01 9.118000000000000682e+01 -4.457107999999999848e+00 -2.542672793607217985e-01
3.049699999999999989e+01 3.468900000000000006e+01 7.711599999999999966e+01 6.802451000000000647e+01 -2.546107935933524247e-01
3.049899999999999878e+01 2.310900000000000176e+01 7.752299999999999613e+01 1.090748999999999924e+01 -2.523423956761890463e-01
3.050000000000000000e+01 2.656400000000000006e+01 8.836299999999999955e+01 6.291953000000000351e+00 -2.533903776485040282e-01
3.050499999999999901e+01 4.072899999999999920e+01 7.267499999999999716e+01 5.437930999999999848e+00 -3.500000000000000333e-01
3.052499999999999858e+01 3.206199999999999761e+01 9.050199999999999534e+01 1.332751000000000019e+00 -2.541207069707033805e-01
3.053500000000000014e+01 4.234100000000000108e+01 8.755299999999999727e+01 5.515779000000000210e+00 -2.549011129634087824e-01
3.053600000000000136e+01 1.514899999999999913e+01 8.037600000000000477e+01 1.678909000000000162e+01 -2.482239737862697027e-01
3.053800000000000026e+01 1.358500000000000085e+01 6.637399999999999523e+01 2.138925000000000054e+01 -1.661947249295529783e-01
3.053800000000000026e+01 3.517900000000000205e+01 9.199800000000000466e+01 -8.581967000000000567e+00 -2.544203429708190023e-01
3.053800000000000026e+01 3.622899999999999920e+01 9.199800000000000466e+01 1.513038000000000061e+01 -2.544980173054476325e-01
3.054700000000000060e+01 3.876700000000000301e+01 8.935800000000000409e+01 -7.764732999999999663e+00 -2.546616569568868060e-01
3.055300000000000082e+01 1.326099999999999923e+01 6.550900000000000034e+01 1.013077000000000005e+01 -1.836596779906318200e-01
3.056400000000000006e+01 1.931599999999999895e+01 6.116899999999999693e+01 1.622063999999999950e+01 -1.322899264770675543e-01
3.057000000000000028e+01 1.328299999999999947e+01 6.715099999999999625e+01 2.015316999999999936e+01 -1.619760188197814088e-01
3.057100000000000151e+01 1.810900000000000176e+01 9.009499999999999886e+01 3.173350000000000115e+00 -2.524727974197299996e-01
3.058099999999999952e+01 4.477000000000000313e+01 8.050900000000000034e+01 -5.827804000000000428e+00 -2.551929722152039837e-01
3.058200000000000074e+01 2.137900000000000134e+01 7.457399999999999807e+01 1.890765000000000029e+01 -2.522265424308710591e-01
3.058299999999999841e+01 2.410200000000000031e+01 6.276700000000000301e+01 5.769852000000000203e+00 -1.429816050712747200e-01
3.059400000000000119e+01 2.419399999999999906e+01 7.245199999999999818e+01 -2.447347999999999857e+00 -2.536817053317192427e-01
3.060000000000000142e+01 3.752499999999999858e+01 9.015699999999999648e+01 -1.233805999999999958e+00 -2.545861678355899604e-01
3.060099999999999909e+01 3.915599999999999881e+01 6.964600000000000080e+01 3.016872000000000220e+00 -2.579907475878823742e-01
3.060200000000000031e+01 1.863899999999999935e+01 9.018099999999999739e+01 2.968731000000000009e+00 -2.525647462256020992e-01
3.060699999999999932e+01 4.578499999999999659e+01 7.799099999999999966e+01 -5.184136999999999773e+00 -3.499999999999999778e-01
3.060800000000000054e+01 4.133100000000000307e+01 8.777800000000000580e+01 1.234384999999999977e+01 -2.548503001350262975e-01
3.061199999999999832e+01 1.138100000000000023e+01 8.584600000000000364e+01 -4.554273000000000238e+00 -2.505595546341828905e-01
3.061299999999999955e+01 3.316700000000000159e+01 9.091200000000000614e+01 -3.958362999999999854e+00 -2.542529981755821678e-01
3.062000000000000099e+01 4.600000000000000000e+01 7.874599999999999511e+01 -7.373997000000000135e+00 -2.553154651527179686e-01
3.062000000000000099e+01 4.600000000000000000e+01 7.968600000000000705e+01 -1.114232999999999940e+01 -2.552845705594942727e-01
3.062800000000000011e+01 3.241899999999999693e+01 8.037399999999999523e+01 -4.973187000000000246e+00 -2.542237260728123505e-01
3.062800000000000011e+01 3.262800000000000011e+01 7.963800000000000523e+01 -4.026151000000000035e-01 -2.542838108564757227e-01
3.062800000000000011e+01 3.262800000000000011e+01 8.110999999999999943e+01 -1.454367000000000021e-01 -2.542201415563872802e-01
3.062900000000000134e+01 1.116600000000000037e+01 8.503700000000000614e+01 -2.257051999999999836e+00 -2.501533321479946781e-01
3.062999999999999901e+01 2.306099999999999994e+01 7.169400000000000261e+01 -6.333841999999999750e+00 -2.536700541083166116e-01
3.063400000000000034e+01 2.438100000000000023e+01 8.683499999999999375e+01 -2.419389999999999930e+00 -2.530028413198588955e-01
3.063800000000000168e+01 2.393700000000000117e+01 7.543200000000000216e+01 1.128295999999999921e+01 -2.530285844441017562e-01
3.063800000000000168e+01 3.256499999999999773e+01 6.582200000000000273e+01 9.570427000000000239e-01 -1.494032399819851253e-01
3.065299999999999869e+01 1.204800000000000004e+01 7.233700000000000330e+01 4.171725999999999601e+00 -2.438901466671170581e-01
3.065599999999999881e+01 1.711899999999999977e+01 8.998699999999999477e+01 3.018882000000000065e+00 -2.523934184033412853e-01
3.065899999999999892e+01 2.017699999999999960e+01 8.774800000000000466e+01 -2.514358000000000004e+01 -2.523866560747382026e-01
3.065899999999999892e+01 2.038599999999999923e+01 8.701200000000000045e+01 -2.254948999999999870e+01 -2.523033818784964910e-01
3.065899999999999892e+01 2.157700000000000173e+01 8.634799999999999898e+01 6.085270000000000401e+00 -2.524398863458213738e-01
3.065899999999999892e+01 2.257900000000000063e+01 7.670300000000000296e+01 1.188364999999999938e+01 -2.524056768323009736e-01
3.066100000000000136e+01 1.542500000000000071e+01 6.119400000000000261e+01 6.743406000000000233e+00 -1.659355402320995543e-01
3.067299999999999827e+01 2.221399999999999864e+01 8.645399999999999352e+01 1.641516999999999982e+01 -2.525881352334299335e-01
3.067399999999999949e+01 2.016100000000000136e+01 8.843500000000000227e+01 -4.871129999999999960e+00 -2.525055114272499734e-01
3.068100000000000094e+01 4.146200000000000330e+01 7.334900000000000375e+01 1.766108999999999929e+00 -3.499999999999999778e-01
3.068199999999999861e+01 3.665299999999999869e+01 9.120699999999999363e+01 5.891758000000000095e+01 -2.545483823196368900e-01
3.068900000000000006e+01 2.777100000000000080e+01 8.993800000000000239e+01 5.239054000000000144e+01 -2.537019935533263437e-01
3.069200000000000017e+01 1.149499999999999922e+01 8.427700000000000102e+01 -2.037374999999999936e+00 -2.497905560994202467e-01
3.070100000000000051e+01 1.184399999999999942e+01 8.907800000000000296e+01 1.398794000000000004e+01 -2.518967120168375540e-01
3.070200000000000173e+01 1.474200000000000088e+01 7.855899999999999750e+01 1.362813000000000052e+01 -2.472074731733069908e-01
3.070200000000000173e+01 1.621399999999999864e+01 7.855899999999999750e+01 5.510716000000000392e+00 -2.486154773008886210e-01
3.070400000000000063e+01 1.615299999999999869e+01 8.919499999999999318e+01 8.820161999999999836e+00 -2.521474353694393988e-01
3.070400000000000063e+01 2.003699999999999903e+01 8.936599999999999966e+01 2.233153999999999861e+00 -2.526532775051189561e-01
3.071000000000000085e+01 4.572599999999999909e+01 7.710599999999999454e+01 -4.312847999999999793e+00 -3.499999999999999778e-01
3.071300000000000097e+01 4.445799999999999841e+01 7.624699999999999989e+01 -2.492485999999999868e-01 -3.499999999999999778e-01
3.071499999999999986e+01 4.277199999999999847e+01 7.444700000000000273e+01 3.761628999999999934e+01 -3.499999999999999778e-01
3.071699999999999875e+01 1.312400000000000055e+01 8.982200000000000273e+01 9.261983000000000743e+00 -2.521310869985877168e-01
3.071900000000000119e+01 4.320799999999999841e+01 8.731900000000000261e+01 1.878382999999999914e+00 -2.549855536221593555e-01
3.071999999999999886e+01 2.974099999999999966e+01 6.395199999999999818e+01 2.030559999999999921e+00 -1.480967196228087368e-01
3.071999999999999886e+01 3.118700000000000117e+01 6.475799999999999557e+01 -6.638745000000000340e-01 -1.488371791414126732e-01
3.073000000000000043e+01 1.311999999999999922e+01 6.806100000000000705e+01 2.446156999999999826e+01 -1.589136017447167482e-01
3.073600000000000065e+01 4.297699999999999676e+01 7.532299999999999329e+01 2.202458999999999989e+01 -3.500000000000000333e-01
3.073900000000000077e+01 4.100399999999999778e+01 8.288899999999999579e+01 -2.515375999999999834e+01 -2.549389817131458846e-01
3.074500000000000099e+01 1.441300000000000026e+01 8.037600000000000477e+01 2.443033000000000143e+01 -2.481271759849403014e-01
3.074500000000000099e+01 1.588499999999999979e+01 8.037600000000000477e+01 1.607730000000000103e+01 -2.490883058635264824e-01
3.074699999999999989e+01 1.284900000000000020e+01 6.637399999999999523e+01 1.726662999999999926e+01 -2.860214847864145371e-01
3.074899999999999878e+01 1.052800000000000047e+01 7.808599999999999852e+01 3.981212000000000195e+00 -2.421320475176687026e-01
3.074899999999999878e+01 1.052800000000000047e+01 8.083599999999999852e+01 1.210047999999999924e+01 -2.468630359356559778e-01
3.075100000000000122e+01 1.395599999999999952e+01 6.461599999999999966e+01 7.480489999999999640e+00 -1.943807546577422385e-01
3.075199999999999889e+01 4.382600000000000051e+01 8.051000000000000512e+01 -5.960319000000000145e+00 -2.551757905486064515e-01
3.075400000000000134e+01 1.459999999999999964e+01 8.939400000000000546e+01 -7.070958999999999994e-01 -2.521026106363705166e-01
3.075400000000000134e+01 4.347599999999999909e+01 8.656000000000000227e+01 -6.607185000000000308e+00 -2.550163645179907568e-01
3.075600000000000023e+01 3.655199999999999960e+01 6.816100000000000136e+01 1.190954000000000068e+00 -2.581670810418068562e-01
3.075600000000000023e+01 2.270400000000000063e+01 8.125199999999999534e+01 1.132606999999999919e+00 -2.523401087532709530e-01
3.075700000000000145e+01 4.220799999999999841e+01 8.570099999999999341e+01 -5.906117000000000311e-02 -2.549576223524406826e-01
3.076099999999999923e+01 1.504499999999999993e+01 7.785899999999999466e+01 1.236697999999999986e+01 -2.473741262311826561e-01
3.076099999999999923e+01 1.504499999999999993e+01 7.925900000000000034e+01 1.251342999999999961e+01 -2.479981660493364992e-01
3.076099999999999923e+01 1.591000000000000014e+01 7.785899999999999466e+01 1.143510000000000026e+01 -2.482945484590821650e-01
3.076099999999999923e+01 1.591000000000000014e+01 7.925900000000000034e+01 1.028556999999999988e+01 -2.487063863372063199e-01
3.076200000000000045e+01 1.344699999999999918e+01 7.023600000000000421e+01 1.414193999999999996e+01 -2.511800530921298180e-01
3.076300000000000168e+01 1.480000000000000071e+01 8.121299999999999386e+01 3.743724000000000274e+01 -2.488840407145391231e-01
3.077299999999999969e+01 1.909700000000000131e+01 8.014199999999999591e+01 -2.186888000000000165e+00 -2.508985628816668978e-01
3.077299999999999969e+01 1.930600000000000094e+01 7.940600000000000591e+01 -1.272842999999999947e+00 -2.509390850274102469e-01
3.077299999999999969e+01 1.930600000000000094e+01 8.087800000000000011e+01 -1.137953999999999910e+00 -2.510840368410506285e-01
3.077299999999999969e+01 4.539699999999999847e+01 7.634600000000000364e+01 -1.228272000000000030e+00 -3.500000000000000333e-01
