3.573499999999999943e+01 -5.659799999999999720e+00 1.739499999999999886e+02 -7.211090000000000444e+00 -1.050974128512925654e-01
3.573499999999999943e+01 4.472500000000000142e+01 1.647700000000000102e+02 3.609849000000000085e+00 -3.197681677403532152e-01
3.573899999999999721e+01 3.361599999999999966e+01 1.390600000000000023e+02 -1.528167000000000009e+01 -2.135563810068322188e-01
3.573899999999999721e+01 9.435000000000000497e+00 1.800699999999999932e+02 -2.700741999999999976e+01 -1.889638946717230317e-01
3.574000000000000199e+01 3.125900000000000034e+01 1.431500000000000057e+02 5.425775999999999932e+00 -2.148617815422026178e-01
3.574000000000000199e+01 3.064099999999999824e+01 1.390000000000000000e+02 -2.404256999999999922e-01 -2.142516925088301938e-01
3.574000000000000199e+01 -7.278599999999999515e-01 1.959699999999999989e+02 1.399025999999999925e+01 -1.036881732034735659e-01
3.574000000000000199e+01 3.327499999999999858e+01 1.436999999999999886e+02 -8.743353000000000819e+00 -2.143484955217065391e-01
3.574099999999999966e+01 -1.015099999999999980e+01 1.694600000000000080e+02 4.202461000000000113e-01 -1.252502342926966605e-01
3.574300000000000210e+01 1.060800000000000054e+01 1.792899999999999920e+02 6.688310000000000421e+00 -1.895904979732381812e-01
3.574799999999999756e+01 1.396299999999999919e+01 1.454099999999999966e+02 -2.948017999999999805e+00 -2.415785083776338937e-01
3.575000000000000000e+01 3.820700000000000074e+01 1.870099999999999909e+02 1.473236999999999952e+01 -7.000000000000002054e-02
3.575200000000000244e+01 1.551200000000000045e+01 1.415300000000000011e+02 -4.109098999999999613e+00 -2.413747436316221184e-01
3.575300000000000011e+01 3.336500000000000199e+01 1.615900000000000034e+02 -2.058898000000000117e+00 -2.631126005834488746e-01
3.575500000000000256e+01 2.653999999999999915e+01 1.539199999999999875e+02 4.906506000000000256e+01 -2.203654829749033817e-01
3.575600000000000023e+01 4.515599999999999881e+01 1.745000000000000000e+02 -1.375062999999999924e+01 -1.629198634218459174e-01
3.575600000000000023e+01 4.655599999999999739e+01 1.745000000000000000e+02 -2.392042999999999964e+01 -2.912171455540403242e-01
3.575900000000000034e+01 3.318299999999999983e+01 1.699300000000000068e+02 -5.910454000000000008e+01 -1.435947227832589657e-01
3.576200000000000045e+01 9.203900000000000858e+00 1.504199999999999875e+02 -2.502958000000000016e+00 -2.405739164640967598e-01
3.576200000000000045e+01 3.331900000000000261e+01 1.921500000000000057e+02 8.533531999999999229e+00 -7.351106742594318288e-02
3.576299999999999812e+01 3.567399999999999949e+01 1.708199999999999932e+02 -2.526138999999999868e+01 -1.136359249922493271e-02
3.576299999999999812e+01 3.236399999999999721e+01 1.498400000000000034e+02 4.166846000000000161e-01 -2.162567474842819748e-01
3.576400000000000290e+01 2.467599999999999838e+01 1.503400000000000034e+02 -1.184187000000000012e+01 -2.193905709553148620e-01
3.576400000000000290e+01 1.895100000000000051e+01 2.051500000000000057e+02 1.173478999999999939e+00 -2.002945079915610938e-01
3.576500000000000057e+01 3.688299999999999912e+00 2.021800000000000068e+02 3.443020000000000191e+00 -1.932534452186883966e-01
3.576500000000000057e+01 5.317999999999999616e+00 2.038000000000000114e+02 5.790677999999999770e+00 -1.941417548706032281e-01
3.576599999999999824e+01 2.177299999999999969e+01 1.366999999999999886e+02 -8.683189000000000490e+00 -2.155674392109175608e-01
3.576899999999999835e+01 8.730199999999999960e+00 1.513400000000000034e+02 -2.308518999999999988e+00 -2.404718871392403368e-01
3.577199999999999847e+01 2.105499999999999972e+01 2.039300000000000068e+02 -3.837934999999999874e+00 -2.014467073736039837e-01
3.577199999999999847e+01 2.252700000000000102e+01 2.039300000000000068e+02 -3.564023999999999859e+00 -2.022722756475194006e-01
3.577199999999999847e+01 2.412500000000000000e+01 2.039300000000000068e+02 -3.485243000000000091e+00 -2.031571475090963030e-01
3.577199999999999847e+01 3.024099999999999966e+01 1.602299999999999898e+02 -1.479913999999999952e+01 -2.664977294873142610e-01
3.577400000000000091e+01 9.477299999999999613e+00 1.811500000000000057e+02 -2.496015999999999835e+01 -1.891948957098810724e-01
3.577600000000000335e+01 2.485000000000000142e+01 1.404300000000000068e+02 6.988834000000000435e-01 -2.158722600402236957e-01
3.577600000000000335e+01 1.315199999999999925e+01 1.823700000000000045e+02 -1.768103999999999942e+01 -1.921500815572944609e-01
3.577600000000000335e+01 1.347700000000000031e+01 1.816299999999999955e+02 -1.778638000000000119e+01 -1.923040592829463324e-01
3.577700000000000102e+01 2.428699999999999903e+01 1.512599999999999909e+02 -1.645946999999999960e+01 -2.198782391209729570e-01
3.578099999999999881e+01 2.886899999999999977e+01 1.967199999999999989e+02 1.422275999999999918e+01 -7.341422023344616743e-02
3.578099999999999881e+01 2.138400000000000034e+01 2.007899999999999920e+02 1.311836999999999920e+00 -2.017680086421810015e-01
3.578199999999999648e+01 5.155899999999999750e+01 1.781100000000000136e+02 -3.548299000000000092e+01 -1.624498674373175411e-01
3.578600000000000136e+01 3.442799999999999727e+01 1.406800000000000068e+02 -1.038841000000000037e+01 -2.135615134987036146e-01
3.578600000000000136e+01 3.589500000000000313e+01 1.412400000000000091e+02 -8.861819999999999808e+00 -2.132579179379786027e-01
3.578900000000000148e+01 2.610399999999999832e+00 1.972199999999999989e+02 3.134072000000000102e+01 -1.915254900708253660e-01
3.578900000000000148e+01 4.010399999999999743e+00 1.972199999999999989e+02 1.941844000000000037e+01 -1.918890026372476465e-01
3.578900000000000148e+01 9.865299999999999514e+00 1.533499999999999943e+02 1.290817000000000014e+01 -3.733142278433391331e-02
3.579099999999999682e+01 4.500000000000000000e+01 1.774900000000000091e+02 3.381578000000000195e+00 -1.667466689671329994e-01
3.579200000000000159e+01 -2.709900000000000198e+00 1.816999999999999886e+02 8.107301999999999564e-01 -1.026876565853701156e-01
3.579699999999999704e+01 3.667699999999999960e+01 1.704300000000000068e+02 -6.478928999999999938e+00 -1.395555389722638318e-01
3.579899999999999949e+01 1.221599999999999930e+01 1.561100000000000136e+02 -1.214987999999999957e+01 -3.787917469438377427e-02
3.579999999999999716e+01 2.699800000000000111e+01 1.503600000000000136e+02 -3.403661000000000048e+00 -2.186950535049116129e-01
3.580100000000000193e+01 2.989399999999999835e+01 1.595500000000000114e+02 -1.252844999999999942e+01 -2.671721554797580889e-01
3.580100000000000193e+01 3.648700000000000188e+01 1.412599999999999909e+02 -5.622474000000000416e+00 -2.131171743984667244e-01
3.580199999999999960e+01 -4.350600000000000023e+00 1.584099999999999966e+02 5.587952999999999726e+00 -1.403483611114953455e-01
3.580599999999999739e+01 5.151100000000000279e+01 1.797500000000000000e+02 -1.748429000000000144e+01 -1.639794995832009605e-01
3.580700000000000216e+01 1.358600000000000030e+01 2.023600000000000136e+02 2.032213000000000136e+01 -1.972106327402253501e-01
3.580700000000000216e+01 1.477699999999999925e+01 2.030200000000000102e+02 1.144879000000000069e+01 -1.979274931994988163e-01
3.581000000000000227e+01 9.519700000000000273e+00 1.822199999999999989e+02 -1.433003000000000071e+01 -1.894614164661271027e-01
3.581000000000000227e+01 5.253000000000000030e-02 1.572299999999999898e+02 -5.009357999999999755e+00 -4.265173780892590749e-02
3.581499999999999773e+01 2.253099999999999881e+01 2.000000000000000000e+02 7.436793999999999905e-01 -2.025791805723067829e-01
3.581499999999999773e+01 4.808899999999999864e+01 1.775200000000000102e+02 4.936139999999999972e+00 -1.641560479198625189e-01
3.581600000000000250e+01 3.368399999999999750e+01 1.944399999999999977e+02 -1.742326999999999941e+02 -7.348480305221860576e-02
3.581700000000000017e+01 2.861899999999999977e+01 1.566699999999999875e+02 4.369976999999999556e+00 -2.694220333126212119e-01
3.581799999999999784e+01 8.946999999999999176e+00 1.570399999999999920e+02 -1.537587000000000081e+01 -4.013266809488613002e-02
3.581799999999999784e+01 -4.645400000000000418e+00 1.670099999999999909e+02 9.029379999999999740e+00 -1.424351808933623995e-02
3.581900000000000261e+01 -7.906299999999999883e+00 1.730800000000000125e+02 1.136701000000000050e+01 -1.238237191327266895e-01
3.582000000000000028e+01 4.409199999999999875e+01 1.645600000000000023e+02 -6.986822000000000310e-01 -3.201207907475401293e-01
3.582099999999999795e+01 3.012300000000000111e+01 1.958799999999999955e+02 4.242408999999999963e+01 -7.343529713460432429e-02
3.582099999999999795e+01 1.990399999999999991e+01 2.050500000000000114e+02 2.250292999999999921e+01 -2.007981503455721906e-01
3.582200000000000273e+01 4.832000000000000028e+01 1.765500000000000114e+02 3.729089000000000098e+00 -1.629409895792140461e-01
3.582399999999999807e+01 2.261899999999999977e+01 1.521599999999999966e+02 5.462327000000000155e+00 -2.466485024839567830e-01
3.582699999999999818e+01 2.781800000000000139e+01 1.402400000000000091e+02 3.904151000000000149e-01 -2.151683554746038618e-01
3.582699999999999818e+01 4.411899999999999977e+01 1.833000000000000114e+02 -1.038434999999999953e+01 -6.999999999999999278e-02
3.582699999999999818e+01 4.565400000000000347e+01 1.837299999999999898e+02 -5.563880999999999943e+01 -6.999999999999999278e-02
3.582699999999999818e+01 4.694700000000000273e+01 1.830099999999999909e+02 -7.426449999999999818e+01 -6.999999999999997891e-02
3.582800000000000296e+01 8.506000000000000227e+00 2.084199999999999875e+02 -7.638905000000000278e+00 -1.961598930603978830e-01
3.582800000000000296e+01 -1.147100000000000009e+00 1.810699999999999932e+02 2.806468000000000185e+00 -1.019791680230497655e-01
3.583400000000000318e+01 3.263900000000000290e+01 1.464199999999999875e+02 1.443146999999999913e+01 -2.151784775900330293e-01
3.583500000000000085e+01 4.735999999999999943e+01 1.820999999999999943e+02 -1.919303000000000026e+01 -6.999999999999997891e-02
3.583500000000000085e+01 2.285600000000000165e+01 2.046899999999999977e+02 -7.414655999999999914e+00 -2.023925738136141683e-01
3.583500000000000085e+01 2.379599999999999937e+01 2.031699999999999875e+02 -1.154415999999999976e+01 -2.030543263041797442e-01
3.583500000000000085e+01 2.379599999999999937e+01 2.046899999999999977e+02 -1.432499999999999929e+01 -2.028938199298693790e-01
3.583599999999999852e+01 4.056700000000000195e+00 2.013199999999999932e+02 4.511975999999999765e+00 -1.931349384294651084e-01
3.583599999999999852e+01 4.056700000000000195e+00 2.030300000000000011e+02 9.984496000000000038e+00 -1.935970167090802496e-01
3.583899999999999864e+01 3.468699999999999761e+01 1.674399999999999977e+02 -1.649238000000000071e+01 -1.394568980300639471e-01
3.583899999999999864e+01 3.608700000000000330e+01 1.674399999999999977e+02 -7.894296999999999898e+00 -1.377177868108586389e-01
3.583899999999999864e+01 3.347899999999999920e+01 1.465999999999999943e+02 7.669309000000000154e+00 -2.149101631289992709e-01
3.584100000000000108e+01 2.269800000000000040e+01 1.961500000000000057e+02 6.032421000000000033e-01 -2.030479458175806773e-01
3.584400000000000119e+01 2.887300000000000111e+01 1.574499999999999886e+02 -1.510966000000000031e+00 -2.689407240332469251e-01
3.584400000000000119e+01 3.565100000000000335e+01 1.616100000000000136e+02 8.663550000000000750e+00 -2.613156941730734872e-01
3.584400000000000119e+01 3.684199999999999875e+01 1.609499999999999886e+02 2.318608999999999920e+00 -2.608286296064261656e-01
3.584499999999999886e+01 5.188799999999999812e+01 1.788700000000000045e+02 -3.155151000000000039e+01 -1.629710651693157819e-01
3.584599999999999653e+01 9.132999999999999119e+00 2.053100000000000023e+02 7.863919000000000104e+00 -1.957929940416227033e-01
3.585099999999999909e+01 -3.987999999999999989e+00 1.791999999999999886e+02 9.286119000000000456e-01 -1.034950882055313964e-01
3.585199999999999676e+01 1.091499999999999915e+01 1.570399999999999920e+02 -1.567155999999999949e+01 -3.926858292589508609e-02
3.585199999999999676e+01 7.995700000000000252e+00 2.088199999999999932e+02 -6.503472999999999615e+00 -1.960700572783672380e-01
3.585399999999999920e+01 3.334599999999999653e+01 1.448700000000000045e+02 -4.464532000000000167e+00 -2.145762456262275408e-01
3.585600000000000165e+01 2.571999999999999886e+01 1.522599999999999909e+02 2.137167999999999957e+00 -2.199049820706459324e-01
3.586299999999999955e+01 4.397800000000000042e-01 1.981100000000000136e+02 8.098848000000000269e+00 -1.913694811580243238e-01
3.586299999999999955e+01 -4.716699999999999782e-01 1.579300000000000068e+02 -1.241710000000000091e+00 -4.303969428582229972e-02
3.586899999999999977e+01 -5.604100000000000054e-02 1.975200000000000102e+02 9.680908999999999764e+00 -1.911092758765456923e-01
3.586899999999999977e+01 2.265099999999999980e+01 2.032100000000000080e+02 -6.645181000000000004e+00 -2.023930525372736877e-01
3.587299999999999756e+01 1.369400000000000084e+01 1.485099999999999909e+02 -5.619259999999999700e+00 -2.419423483381445139e-01
3.587299999999999756e+01 4.805700000000000216e+01 1.757199999999999989e+02 -1.507395999999999958e+00 -1.622154187862855923e-01
3.587299999999999756e+01 1.234999999999999964e+01 1.554699999999999989e+02 -8.422646999999999551e+00 -3.732859345531470974e-02
3.587599999999999767e+01 -3.059699999999999864e+00 1.812500000000000000e+02 -1.173276999999999931e-01 -1.028902544247974060e-01
3.587899999999999778e+01 3.241499999999999915e+01 1.951999999999999886e+02 -4.379117999999999711e+01 -7.346484788397264487e-02
3.587899999999999778e+01 3.335499999999999687e+01 1.936800000000000068e+02 -6.707224999999999682e+01 -7.349126911264980411e-02
3.587899999999999778e+01 3.335499999999999687e+01 1.951999999999999886e+02 -2.868293999999999855e+01 -7.347310124585415547e-02
3.588000000000000256e+01 3.864099999999999824e+01 1.598799999999999955e+02 -8.733792000000000222e-01 -2.601536661913812498e-01
3.588000000000000256e+01 3.395100000000000051e+01 1.722500000000000000e+02 1.051121000000000016e+01 -1.187983098948850250e-02
3.588000000000000256e+01 3.846900000000000119e+01 1.861500000000000057e+02 1.472207000000000043e+01 -6.999999999999997891e-02
3.588199999999999790e+01 -3.943099999999999827e+00 1.841500000000000057e+02 -7.234397999999999662e+00 -1.032227600647545318e-01
3.588300000000000267e+01 2.503800000000000026e+01 2.046899999999999977e+02 -3.438666000000000000e+00 -2.035415032766969001e-01
3.588499999999999801e+01 -6.322000000000000064e+00 1.890800000000000125e+02 -1.062139999999999951e+01 -1.044592432831982221e-01
3.589000000000000057e+01 1.000500000000000078e+01 2.067400000000000091e+02 -2.149578999999999951e+01 -1.963953700509614986e-01
3.589000000000000057e+01 8.625999999999999446e+00 1.523899999999999864e+02 7.219470000000000276e+00 -2.404937636543512947e-01
3.589200000000000301e+01 4.148499999999999943e+01 1.841299999999999955e+02 2.320517999999999859e+00 -6.999999999999999278e-02
3.589200000000000301e+01 4.169900000000000162e+00 2.058600000000000136e+02 -2.078829999999999914e-02 -1.943393989116557752e-01
3.589300000000000068e+01 3.380799999999999983e+01 1.457199999999999989e+02 -4.666279000000000288e+00 -2.146028450488727812e-01
3.589399999999999835e+01 9.768800000000000594e+00 2.075800000000000125e+02 -2.390100999999999942e+01 -1.964556348975121380e-01
3.589399999999999835e+01 -1.068899999999999961e+00 1.840300000000000011e+02 -7.720016000000000211e+00 -1.019036900623457170e-01
3.589399999999999835e+01 -2.036499999999999977e-01 1.826299999999999955e+02 1.191174999999999962e+01 -1.014721066374908026e-01
3.589399999999999835e+01 -2.036499999999999977e-01 1.840300000000000011e+02 7.244345000000000034e+00 -1.014900053225824550e-01
3.589500000000000313e+01 4.247200000000000131e+01 1.833799999999999955e+02 1.528670999999999891e+00 -6.999999999999999278e-02
3.589500000000000313e+01 1.179100000000000037e+01 1.831200000000000045e+02 -1.615630000000000166e+01 -1.912612443552664243e-01
3.589699999999999847e+01 3.214900000000000091e+01 1.456899999999999977e+02 9.104851999999999279e+00 -2.151818034241113620e-01
3.589699999999999847e+01 3.940599999999999881e+01 1.854900000000000091e+02 1.611445000000000149e+01 -6.999999999999997891e-02
3.590100000000000335e+01 2.566900000000000048e+01 2.045800000000000125e+02 -2.054000999999999966e+00 -2.038802594897525799e-01
3.590200000000000102e+01 3.315100000000000335e+01 1.474699999999999989e+02 8.472407999999999717e+00 -2.152579773578740530e-01
3.590400000000000347e+01 2.157999999999999829e+01 2.032400000000000091e+02 -4.510684999999999611e+00 -2.017724395005351945e-01
3.590699999999999648e+01 3.001200000000000045e+01 1.524799999999999898e+02 2.872765000000000057e+01 -2.182864409172458886e-01
3.590999999999999659e+01 3.204999999999999716e+01 1.430099999999999909e+02 2.920584999999999987e+00 -2.146154596682434690e-01
3.591100000000000136e+01 1.756200000000000117e+01 2.055600000000000023e+02 5.588309999999999667e-01 -1.996020216148539084e-01
3.591199999999999903e+01 2.830799999999999983e+01 1.558000000000000114e+02 3.969396000000000146e+00 -2.203121499178377629e-01
3.591599999999999682e+01 3.281799999999999784e+01 1.706299999999999955e+02 -1.422067000000000014e+01 -1.189156883453180644e-02
3.591599999999999682e+01 3.281799999999999784e+01 1.714900000000000091e+02 -5.127094999999999736e+00 -1.202031622629110355e-02
3.591899999999999693e+01 -1.137599999999999945e+01 1.701200000000000045e+02 9.071363000000000065e-01 -1.254350313087367885e-01
3.591899999999999693e+01 -1.137599999999999945e+01 1.718199999999999932e+02 1.427004000000000050e-01 -1.251205739646958082e-01
3.592099999999999937e+01 4.953000000000000114e+01 1.762599999999999909e+02 1.482124999999999915e+01 -1.618524241528061514e-01
3.592099999999999937e+01 4.160999999999999588e+00 1.542100000000000080e+02 -2.130750000000000099e+01 -4.021194191863915190e-02
3.592499999999999716e+01 3.091600000000000037e+01 1.949199999999999875e+02 -7.339763000000000659e+01 -7.345363158587155106e-02
3.592499999999999716e+01 9.736900000000000333e+00 2.059799999999999898e+02 -6.531530000000000058e+00 -1.961621143865815708e-01
3.592699999999999960e+01 2.608899999999999864e+01 1.531100000000000136e+02 4.372447999999999979e+01 -2.201247350260156499e-01
3.592799999999999727e+01 1.437800000000000011e+01 1.446100000000000136e+02 -1.329887000000000041e+00 -2.415948127698583081e-01
3.592799999999999727e+01 -4.783999999999999808e+00 1.921999999999999886e+02 1.993530999999999942e+00 -1.042810313793010313e-01
3.592799999999999727e+01 -4.530100000000000016e+00 1.930999999999999943e+02 4.184261000000000230e+00 -1.043352280234654678e-01
3.592900000000000205e+01 5.691499999999999559e+00 1.549699999999999989e+02 -7.099604000000000248e+00 -4.008512362674452462e-02
3.592999999999999972e+01 9.849000000000000199e+00 2.026100000000000136e+02 3.529137999999999664e+01 -1.955245217565231841e-01
3.593099999999999739e+01 1.399699999999999989e+01 1.478100000000000023e+02 -5.329856000000000371e+00 -2.419589146118465428e-01
3.593099999999999739e+01 4.809599999999999653e+01 1.677500000000000000e+02 2.711086999999999847e+01 -3.183393090949730997e-01
3.593099999999999739e+01 4.830499999999999972e+01 1.684900000000000091e+02 2.565118999999999971e+01 -3.182278400578051891e-01
3.593200000000000216e+01 3.461200000000000188e+01 1.900900000000000034e+02 3.407802000000000220e+01 -7.355057411038784521e-02
3.593299999999999983e+01 -6.202300000000000146e+00 1.688799999999999955e+02 2.979921000000000042e+00 -1.242376722791482396e-01
3.593599999999999994e+01 6.339999999999999858e+00 2.087100000000000080e+02 -3.003060000000000063e+00 -1.955599389478088201e-01
3.593800000000000239e+01 3.305100000000000193e+01 1.929799999999999898e+02 6.333035999999999888e+01 -7.349738281432391385e-02
3.594100000000000250e+01 2.534199999999999875e+01 2.053899999999999864e+02 -7.923600000000000421e+00 -2.035981043646074018e-01
3.594100000000000250e+01 2.694000000000000128e+01 2.053899999999999864e+02 -4.794995000000000118e+00 -2.043766303728025979e-01
3.594299999999999784e+01 -4.589999999999999858e+00 1.845900000000000034e+02 -3.236994000000000149e+00 -1.035188035961743386e-01
3.594400000000000261e+01 4.989099999999999824e+01 1.755399999999999920e+02 9.058690000000000353e+00 -1.608863436639330624e-01
3.594599999999999795e+01 3.490599999999999881e+01 1.469199999999999875e+02 -1.602064999999999984e+01 -2.144704836593923081e-01
3.595100000000000051e+01 3.659799999999999898e+01 1.681500000000000057e+02 -5.134089999999999598e+00 -1.378058272157912378e-01
3.595199999999999818e+01 9.975100000000000633e-02 1.833300000000000125e+02 1.213030000000000008e+01 -1.013401903690323430e-01
3.595300000000000296e+01 -8.884999999999999787e+00 1.691599999999999966e+02 1.887769000000000030e+00 -1.249527516665397409e-01
3.595499999999999829e+01 4.499299999999999855e+00 2.066200000000000045e+02 -4.058380999999999794e+00 -1.946123083279001631e-01
3.596000000000000085e+01 2.448499999999999943e+01 1.520500000000000114e+02 3.379291999999999963e+00 -2.201156225231869767e-01
3.596000000000000085e+01 3.788799999999999812e+01 1.428000000000000114e+02 6.443657000000000412e-01 -2.129564499311429326e-01
3.596000000000000085e+01 -1.004700000000000060e+01 1.726100000000000136e+02 4.779816000000000065e-01 -1.245896581576736717e-01
3.596099999999999852e+01 2.188400000000000034e+01 2.047599999999999909e+02 -2.084750000000000103e+00 -2.018633750094832036e-01
3.596200000000000330e+01 1.735900000000000176e+01 1.407700000000000102e+02 -3.255497999999999781e+00 -2.417031433965242671e-01
3.596800000000000352e+01 1.583999999999999986e+01 2.054099999999999966e+02 7.136466999999999672e+00 -1.987423956931725910e-01
3.596999999999999886e+01 2.737800000000000011e+01 1.538700000000000045e+02 3.436247000000000185e+01 -2.199633610912596904e-01
3.597299999999999898e+01 4.417099999999999582e+00 2.049199999999999875e+02 1.318510999999999989e+00 -1.941993646694215037e-01
3.597299999999999898e+01 1.113499999999999979e+01 1.532500000000000000e+02 -2.943725999999999843e+00 -3.658713547753962569e-02
3.597299999999999898e+01 1.232600000000000051e+01 1.539199999999999875e+02 -1.127693000000000012e+01 -3.628835075689832573e-02
3.597299999999999898e+01 1.253500000000000014e+01 1.546500000000000057e+02 -9.677168999999999244e+00 -3.664706851017833500e-02
3.597399999999999665e+01 2.299800000000000111e+01 1.984099999999999966e+02 -2.767818999999999807e+00 -2.030406570610004402e-01
3.597599999999999909e+01 2.084400000000000119e+01 2.048400000000000034e+02 4.565834999999999866e+00 -2.013034361417314067e-01
3.597999999999999687e+01 4.983400000000000318e+01 1.769600000000000080e+02 1.883574000000000126e+01 -1.624010246569369542e-01
3.598100000000000165e+01 2.179100000000000037e+01 2.039300000000000068e+02 -4.458815999999999669e+00 -2.018561091043817035e-01
3.598899999999999721e+01 3.148799999999999955e+01 1.511200000000000045e+02 1.311590000000000034e+00 -2.170875639819409009e-01
3.599000000000000199e+01 -1.174499999999999922e+01 1.709699999999999989e+02 6.744991000000000181e-01 -1.253702160292979040e-01
3.599300000000000210e+01 1.329299999999999926e+01 1.786500000000000057e+02 -2.060108999999999924e+01 -1.918644710787442142e-01
3.599399999999999977e+01 1.205499999999999972e+01 2.030999999999999943e+02 1.134426999999999985e+01 -1.966153661304223532e-01
3.599499999999999744e+01 2.027200000000000113e-01 1.548100000000000023e+02 -2.448040000000000216e+00 -4.155052937079141417e-02
3.599699999999999989e+01 2.575100000000000122e+01 1.539199999999999875e+02 1.799636999999999887e+01 -2.205317897770195101e-01
3.600200000000000244e+01 3.726599999999999824e+01 1.882400000000000091e+02 3.765623000000000076e+01 -6.999999999999999278e-02
3.600399999999999778e+01 2.567099999999999937e+01 2.061500000000000057e+02 -6.769078000000000372e+00 -2.036507365276189474e-01
3.600399999999999778e+01 2.661100000000000065e+01 2.046299999999999955e+02 -2.650446000000000080e+00 -2.043375115356494409e-01
3.600399999999999778e+01 2.661100000000000065e+01 2.061500000000000057e+02 -1.546554000000000073e+01 -2.040928429098815555e-01
3.600600000000000023e+01 9.867699999999999250e+00 1.793700000000000045e+02 -2.323384000000000071e+01 -1.893515971543193177e-01
3.600699999999999790e+01 3.082600000000000051e+01 1.438499999999999943e+02 8.365289000000000641e+00 -2.151865184980431833e-01
3.600699999999999790e+01 3.082600000000000051e+01 1.447100000000000080e+02 7.515615999999999630e+00 -2.153983472677854505e-01
3.600699999999999790e+01 3.020799999999999841e+01 1.396999999999999886e+02 -3.361348000000000114e-02 -2.145051512841117114e-01
3.600900000000000034e+01 2.323100000000000165e+01 1.420800000000000125e+02 -2.911109000000000169e+00 -2.166449347518399071e-01
3.601100000000000279e+01 -5.980699999999999683e+00 1.578400000000000034e+02 1.195845000000000047e+00 -1.399068499141018496e-01
3.601100000000000279e+01 -5.191399999999999793e+00 1.748700000000000045e+02 -1.002993999999999941e+00 -1.047361251011630634e-01
3.601100000000000279e+01 -5.191399999999999793e+00 1.757400000000000091e+02 1.077938000000000063e+00 -1.045642632826027790e-01
3.601299999999999812e+01 3.787800000000000011e+01 1.470800000000000125e+02 -5.399320000000000164e+01 -2.134888315970636108e-01
3.601299999999999812e+01 3.917099999999999937e+01 1.447599999999999909e+02 -1.372983999999999938e+01 -2.128357036761405197e-01
3.601299999999999812e+01 3.917099999999999937e+01 1.463600000000000136e+02 -2.666973000000000127e+01 -2.130068750680028378e-01
3.601299999999999812e+01 3.939800000000000324e+01 1.455600000000000023e+02 -3.289377000000000351e+01 -2.128574927811689721e-01
3.601299999999999812e+01 3.223599999999999710e+01 1.610699999999999932e+02 -6.713797999999999710e+00 -2.643092916039030404e-01
3.601700000000000301e+01 -9.159399999999999764e+00 1.588000000000000114e+02 4.089087000000000138e+00 -2.458979714831200647e-01
3.602100000000000080e+01 3.623400000000000176e+01 1.471899999999999977e+02 -2.207947000000000060e+01 -2.140605219437851370e-01
3.602199999999999847e+01 -1.822200000000000042e+00 1.579399999999999977e+02 -5.362738000000000227e+00 -4.321011412189089407e-02
3.602300000000000324e+01 2.610699999999999932e+01 1.546200000000000045e+02 1.487204999999999977e+01 -2.206828388205414604e-01
3.602400000000000091e+01 4.472299999999999898e+01 1.751999999999999886e+02 -1.565795999999999921e+01 -1.642377375051146671e-01
3.602600000000000335e+01 2.858299999999999841e+01 1.515900000000000034e+02 -4.867542000000000257e+00 -2.185565299592124866e-01
3.602700000000000102e+01 3.361599999999999966e+01 1.692299999999999898e+02 -6.541244000000000369e+01 -1.424458094358922455e-01
3.602799999999999869e+01 -8.174500000000000099e+00 1.605699999999999932e+02 5.737041999999999753e+00 -2.448776624910546096e-01
3.602799999999999869e+01 2.037900000000000134e+01 1.420399999999999920e+02 3.266488999999999976e+00 -2.170876176720360762e-01
3.602799999999999869e+01 2.157000000000000028e+01 1.426999999999999886e+02 -8.761309000000000680e+00 -2.171134681019950552e-01
3.602799999999999869e+01 9.190000000000000391e-01 1.986999999999999886e+02 6.086716000000000015e+00 -1.916848498478199159e-01
3.602900000000000347e+01 4.778699999999999903e+01 1.669300000000000068e+02 3.262633000000000294e+01 -3.185348839462767145e-01
3.602900000000000347e+01 2.469099999999999895e+01 1.539199999999999875e+02 -6.689576999999999884e-01 -2.711834950941579420e-02
3.602900000000000347e+01 3.988000000000000256e+01 1.604499999999999886e+02 -1.848035000000000094e+00 -2.591242865784172400e-01
3.603099999999999881e+01 1.554000000000000048e+00 1.541800000000000068e+02 -6.288185000000000358e+00 -4.095254827103668449e-02
3.603099999999999881e+01 -3.406000000000000139e+00 1.580500000000000114e+02 1.185383000000000076e+00 -1.414146685306641726e-01
3.603099999999999881e+01 2.650799999999999912e+01 1.496399999999999864e+02 -3.384360000000000035e+00 -2.185237485778554201e-01
3.603099999999999881e+01 4.489099999999999646e+00 2.038400000000000034e+02 4.621266999999999570e+00 -1.939669435959807675e-01
3.603300000000000125e+01 2.335500000000000043e+01 1.521599999999999966e+02 1.835137999999999892e+01 -2.203734108645280243e-01
3.603300000000000125e+01 1.011500000000000021e+01 1.831100000000000136e+02 -1.486839999999999939e+01 -1.901931845190329984e-01
3.603799999999999670e+01 2.775199999999999889e+01 1.530900000000000034e+02 2.127468999999999966e+01 -2.194880096068273223e-01
3.604099999999999682e+01 -5.262199999999999989e+00 1.901899999999999977e+02 -1.936452000000000062e+00 -1.041939200779037622e-01
3.604099999999999682e+01 -1.908600000000000074e+00 1.832100000000000080e+02 -4.421397999999999939e+00 -1.023195691573806770e-01
3.604099999999999682e+01 -1.043299999999999894e+00 1.818100000000000023e+02 6.613410000000000011e+00 -1.019376752678345238e-01
3.604399999999999693e+01 -4.969500000000000028e+00 1.909900000000000091e+02 4.210482999999999976e+00 -1.041866676257348773e-01
3.604800000000000182e+01 1.148499999999999943e+01 1.486899999999999977e+02 -2.969107000000000163e+00 -2.412105621043812709e-01
3.604800000000000182e+01 2.352599999999999980e+01 1.954499999999999886e+02 9.200754999999999129e+00 -2.037785214863102323e-01
3.604899999999999949e+01 2.095100000000000051e+01 2.014900000000000091e+02 -3.157122999999999902e+00 -2.014618817707111431e-01
3.604899999999999949e+01 2.095100000000000051e+01 2.023499999999999943e+02 -2.435753000000000057e+00 -2.014356265974227012e-01
3.604899999999999949e+01 2.503699999999999903e+01 1.496699999999999875e+02 -2.869044999999999845e+00 -2.189577973505189568e-01
3.605400000000000205e+01 2.471199999999999974e+01 1.544600000000000080e+02 -9.250382000000000104e+00 -2.750948184427367063e-02
3.605599999999999739e+01 3.406499999999999773e+01 1.616399999999999864e+02 4.424604000000000426e+00 -2.625040659538787624e-01
3.606000000000000227e+01 4.585600000000000165e+01 1.744399999999999977e+02 -2.140916999999999959e+01 -1.623600138192871079e-01
3.606300000000000239e+01 -3.217400000000000121e-02 1.556500000000000057e+02 -2.829016999999999893e+00 -4.195076637213736998e-02
3.606400000000000006e+01 8.684900000000000730e+00 2.032800000000000011e+02 4.299231000000000336e+01 -1.952311464143642039e-01
3.606400000000000006e+01 3.710999999999999943e+01 1.688700000000000045e+02 -2.865301999999999794e+00 -1.379008901145662436e-01
3.606400000000000006e+01 3.710999999999999943e+01 1.697299999999999898e+02 -5.235871999999999638e+00 -1.386003919343645197e-01
3.606400000000000006e+01 -8.884999999999999787e+00 1.726500000000000057e+02 4.205067999999999806e+00 -1.242190482754643305e-01
3.606499999999999773e+01 1.932600000000000051e+01 1.407299999999999898e+02 -8.824977000000000515e-01 -2.168521060415317669e-01
3.607200000000000273e+01 -4.372300000000000075e+00 1.783000000000000114e+02 -9.417746999999999646e-01 -1.038070455614732435e-01
3.607300000000000040e+01 8.096099999999999852e+00 1.545900000000000034e+02 -3.030247999999999831e+00 -3.892403923805502763e-02
3.607500000000000284e+01 3.532999999999999829e+01 1.714600000000000080e+02 -1.998236999999999952e+01 -1.149732221312798654e-02
3.607600000000000051e+01 -8.903100000000000236e+00 1.579699999999999989e+02 7.046268999999999672e+00 -2.464359595749220089e-01
3.607600000000000051e+01 -8.903100000000000236e+00 1.597500000000000000e+02 1.131396999999999942e+01 -2.453318800373980868e-01
3.607600000000000051e+01 -7.456999999999999851e+00 1.571599999999999966e+02 4.107744000000000284e+00 -2.471744153598474658e-01
3.608299999999999841e+01 3.738900000000000290e+01 1.420099999999999909e+02 -9.201439000000000590e+00 -2.130286989900796457e-01
3.608299999999999841e+01 2.209100000000000108e+01 2.007199999999999989e+02 -2.336747000000000130e-01 -2.022228220414617472e-01
3.608400000000000318e+01 2.828000000000000114e+01 1.508899999999999864e+02 -3.427980999999999945e+00 -2.183920264683500423e-01
3.608400000000000318e+01 2.828000000000000114e+01 1.522899999999999920e+02 -4.472177000000000291e+00 -2.189468007168406394e-01
3.608400000000000318e+01 2.923799999999999955e+01 1.538400000000000034e+02 -6.497438999999999965e+00 -2.191269748161537301e-01
3.608400000000000318e+01 1.412300000000000111e+00 1.983799999999999955e+02 9.156295000000000073e+00 -1.917070185276178451e-01
3.608500000000000085e+01 2.208399999999999963e+01 2.031100000000000136e+02 -5.009167999999999843e+00 -2.020661539883685798e-01
3.608500000000000085e+01 8.514400000000000190e+00 1.563400000000000034e+02 -1.150386999999999915e+01 -3.982600422714455135e-02
3.608500000000000085e+01 -5.078000000000000291e+00 1.677100000000000080e+02 6.577617000000000047e+00 -1.242180283033864630e-01
3.608899999999999864e+01 4.396099999999999675e+00 2.004699999999999989e+02 5.103922999999999988e+00 -1.930600490935379665e-01
3.609100000000000108e+01 2.218599999999999994e+01 1.514600000000000080e+02 -1.856402999999999892e+01 -2.461759386270287453e-01
3.609100000000000108e+01 2.218599999999999994e+01 1.528600000000000136e+02 1.057132000000000005e+01 -2.465503962203692834e-01
3.609100000000000108e+01 2.305199999999999960e+01 1.514600000000000080e+02 -1.777530000000000143e+01 -2.201220432912494862e-01
3.609100000000000108e+01 2.305199999999999960e+01 1.528600000000000136e+02 5.797126000000000090e+01 -2.469466006535815938e-01
3.609499999999999886e+01 -1.579700000000000104e+00 1.817700000000000102e+02 4.756019000000000219e+00 -1.022079911710244426e-01
3.610000000000000142e+01 -2.212000000000000188e+00 1.825099999999999909e+02 -1.492097000000000007e+00 -1.024816654321999698e-01
3.610000000000000142e+01 -7.399200000000000221e-01 1.825099999999999909e+02 5.997251000000000332e+00 -1.017850414347384602e-01
3.610099999999999909e+01 3.779999999999999716e+01 1.601599999999999966e+02 8.213545999999999125e+00 -2.606119921777387272e-01
3.610199999999999676e+01 3.307200000000000273e+01 1.457199999999999989e+02 8.640947000000000600e+00 -2.148906884633038084e-01
3.610600000000000165e+01 3.425399999999999778e+01 1.681399999999999864e+02 -2.617219000000000051e+01 -1.407016294186424765e-01
3.610799999999999699e+01 -5.780700000000000394e+00 1.645399999999999920e+02 -3.524802000000000213e-01 -1.230228121001511188e-01
3.610799999999999699e+01 -4.589800000000000324e+00 1.652100000000000080e+02 1.884402000000000044e+01 -1.227247598219272789e-01
3.610799999999999699e+01 -4.380700000000000038e+00 1.659399999999999977e+02 8.768274999999999153e+00 -1.219298029025500385e-01
3.611099999999999710e+01 -7.976099999999999746e+00 1.615000000000000000e+02 6.176573000000000313e+00 -2.442669792741332946e-01
3.611699999999999733e+01 2.809400000000000119e+01 1.966500000000000057e+02 2.620514999999999972e+01 -7.340778031073144638e-02
3.611699999999999733e+01 2.964399999999999835e+01 1.966500000000000057e+02 1.407331000000000074e+02 -7.342370052867469576e-02
3.611800000000000210e+01 2.323100000000000165e+01 1.999399999999999977e+02 -1.785821000000000103e+00 -2.030326894782500946e-01
3.611899999999999977e+01 2.504100000000000037e+01 1.948700000000000045e+02 9.916413000000000366e+00 -2.050910687664823373e-01
3.612100000000000222e+01 7.009999999999999787e+00 1.544600000000000080e+02 -2.966596000000000011e+00 -3.930523867500616830e-02
3.612100000000000222e+01 9.647000000000000242e+00 1.570999999999999943e+02 -1.425267000000000017e+01 -3.987332371407672355e-02
3.612100000000000222e+01 -5.815299999999999692e+00 1.852500000000000000e+02 4.939199000000000339e+00 -1.040636500577222928e-01
3.612199999999999989e+01 -4.839999999999999858e+00 1.581800000000000068e+02 9.735884000000000205e-01 -1.403197512262811530e-01
3.612299999999999756e+01 3.378900000000000148e+01 1.475099999999999909e+02 -2.787898000000000209e+00 -2.150486563362714043e-01
3.612400000000000233e+01 -6.479400000000000048e+00 1.862500000000000000e+02 3.367678999999999867e+00 -1.043589209868502204e-01
3.612500000000000000e+01 -3.470299999999999940e+00 1.808600000000000136e+02 1.099224999999999897e+00 -1.031445491578133061e-01
3.612500000000000000e+01 -3.470299999999999940e+00 1.825500000000000114e+02 -1.200015999999999972e+00 -1.030606860122669222e-01
3.612800000000000011e+01 1.251800000000000068e+01 1.484199999999999875e+02 -2.870407999999999848e+00 -2.415358330434014822e-01
3.612899999999999778e+01 3.164300000000000068e+01 1.952599999999999909e+02 -6.894796999999999798e+01 -7.345720881748148134e-02
3.613300000000000267e+01 4.926899999999999835e+01 1.808000000000000114e+02 1.484445999999999932e+00 -1.664826040526559969e-01
3.613700000000000045e+01 -3.714700000000000113e+00 1.816999999999999886e+02 2.828918999999999739e-01 -1.032051903235221973e-01
3.613900000000000290e+01 1.255199999999999960e+01 1.831699999999999875e+02 -1.362608999999999959e+01 -1.920550362276395862e-01
3.614000000000000057e+01 5.032300000000000040e+01 1.735999999999999943e+02 1.830707000000000084e+00 -2.886905068414578057e-01
3.614000000000000057e+01 5.032300000000000040e+01 1.746500000000000057e+02 -6.081116999999999884e+00 -2.898025968185741208e-01
3.614200000000000301e+01 3.538700000000000045e+01 1.673799999999999955e+02 -1.351252999999999993e+01 -1.386156339501528056e-01
3.614500000000000313e+01 5.085799999999999699e+01 1.779499999999999886e+02 3.349025999999999836e+00 -1.627797329880893151e-01
3.614900000000000091e+01 2.802299999999999969e+01 1.546200000000000045e+02 2.550290999999999997e+01 -2.199310939370227869e-01
3.614900000000000091e+01 2.957400000000000162e+01 1.530699999999999932e+02 1.519850999999999885e+02 -2.186716565249263444e-01
3.614999999999999858e+01 -3.510499999999999954e+00 1.799499999999999886e+02 1.400841000000000003e+00 -1.032432368126223327e-01
3.614999999999999858e+01 -3.510499999999999954e+00 1.834499999999999886e+02 -7.160476000000000063e+00 -1.030683748195511118e-01
3.615299999999999869e+01 4.203799999999999670e+01 1.613899999999999864e+02 1.529228000000000032e+00 -2.576077418925574181e-01
3.615400000000000347e+01 2.710699999999999932e+01 1.547100000000000080e+02 1.535172999999999988e+01 -2.203219982699713975e-01
3.615400000000000347e+01 4.053099999999999881e+01 1.609000000000000057e+02 -2.138314999999999966e+00 -2.585766774118489209e-01
3.615500000000000114e+01 1.701699999999999946e+01 2.055999999999999943e+02 -7.417253999999999792e+00 -1.993480050351800204e-01
3.615899999999999892e+01 1.345299999999999940e+01 1.474099999999999966e+02 -4.168140000000000178e+00 -2.417310837821904923e-01
3.616100000000000136e+01 2.441700000000000159e+01 2.053300000000000125e+02 -3.254119000000000206e+00 -2.031270760380771423e-01
3.616100000000000136e+01 2.033099999999999952e+01 2.056399999999999864e+02 1.901914000000000016e+01 -2.010198691126203197e-01
3.616100000000000136e+01 -6.362700000000000022e-01 1.833300000000000125e+02 7.448125000000000107e+00 -1.017467282023960251e-01
3.616199999999999903e+01 1.454599999999999937e+01 1.438400000000000034e+02 6.990478999999999665e+00 -2.415374081613797796e-01
3.616400000000000148e+01 5.012800000000000011e+01 1.727899999999999920e+02 -1.448395000000000099e+00 -2.878668039933934830e-01
3.616499999999999915e+01 8.385300000000000864e+00 1.553899999999999864e+02 -6.931893999999999778e+00 -3.927807891586803518e-02
3.616700000000000159e+01 1.221100000000000030e+01 1.783100000000000023e+02 -2.479738000000000042e+01 -1.910319345927030676e-01
3.616700000000000159e+01 -6.150699999999999612e+00 1.735600000000000023e+02 8.687025999999999470e+00 -1.053917600975751157e-01
3.616799999999999926e+01 4.542499999999999716e+01 1.650399999999999920e+02 3.908526999999999862e+00 -3.196112721404806289e-01
3.616799999999999926e+01 4.687100000000000222e+01 1.658499999999999943e+02 1.098334000000000010e+01 -3.189834093339791732e-01
3.617099999999999937e+01 4.480100000000000193e+01 1.766500000000000057e+02 -2.808444000000000162e+00 -1.659593717238792843e-01
3.617199999999999704e+01 3.027100000000000080e+01 1.518600000000000136e+02 8.633492999999999640e+00 -2.179025409332517316e-01
3.617199999999999704e+01 2.332600000000000051e+01 2.025800000000000125e+02 -4.099281000000000397e+00 -2.028235381468853904e-01
3.617300000000000182e+01 -1.218800000000000106e+00 1.955800000000000125e+02 1.530343000000000053e+01 -1.037878080771201111e-01
3.617300000000000182e+01 2.628300000000000125e+01 1.955099999999999909e+02 1.340740000000000087e+01 -2.059127596900170443e-01
3.617499999999999716e+01 -7.201699999999999768e+00 1.730999999999999943e+02 2.621543000000000134e+01 -1.235780772669736460e-01
3.617799999999999727e+01 9.118999999999999773e+00 1.534300000000000068e+02 5.260493999999999915e+01 -3.779076071763236289e-02
3.617900000000000205e+01 2.787099999999999866e+01 1.504199999999999875e+02 -3.914938999999999947e+00 -2.183477614828019386e-01
3.617999999999999972e+01 1.108099999999999952e+01 1.787700000000000102e+02 -1.595982000000000056e+01 -1.902263176215570895e-01
3.617999999999999972e+01 2.679299999999999926e+01 1.406299999999999955e+02 5.218607999999999691e+00 -2.155223931876290300e-01
3.618099999999999739e+01 2.519500000000000028e+01 1.531100000000000136e+02 1.140381000000000000e+01 -2.203009632711804555e-01
3.618099999999999739e+01 4.925800000000000267e+01 1.710300000000000011e+02 -2.195787999999999940e+01 -3.179501207936147322e-01
3.618299999999999983e+01 3.325099999999999767e+01 1.721899999999999977e+02 2.581075999999999926e+00 -1.199047135314626651e-02
3.618500000000000227e+01 3.162000000000000099e+01 1.377199999999999989e+02 1.065417000000000058e+01 -2.139079396181282067e-01
3.618500000000000227e+01 3.267000000000000171e+01 1.377199999999999989e+02 1.704827000000000092e+00 -2.136822699909390333e-01
3.618599999999999994e+01 1.065499999999999936e+01 1.533199999999999932e+02 1.594478000000000006e-01 -3.692665991704998513e-02
3.618900000000000006e+01 3.392699999999999960e+01 1.405399999999999920e+02 -1.022946999999999917e+01 -2.137376173505655397e-01
3.618999999999999773e+01 3.817499999999999716e+01 1.436800000000000068e+02 -8.575167000000000428e+00 -2.130217514947937152e-01
3.619100000000000250e+01 8.999900000000000233e+00 1.505999999999999943e+02 -2.268524000000000207e+00 -2.405735711824297796e-01
3.619299999999999784e+01 2.931599999999999895e+01 1.604699999999999989e+02 -1.797638999999999854e+01 -3.236298197944428856e-02
3.619400000000000261e+01 -8.423000000000000043e+00 1.632299999999999898e+02 -2.340961000000000014e-01 -1.234948515830510407e-01
3.619400000000000261e+01 -8.195999999999999730e+00 1.624300000000000068e+02 1.127207000000000070e+00 -1.243809430291742402e-01
3.619400000000000261e+01 -8.195999999999999730e+00 1.640300000000000011e+02 1.215576000000000018e-01 -1.227570403225129170e-01
3.619400000000000261e+01 -6.902999999999999581e+00 1.647500000000000000e+02 -3.803061999999999898e+01 -1.224216834199893522e-01
3.619500000000000028e+01 2.827100000000000080e+01 1.538799999999999955e+02 4.033098999999999990e+01 -2.195387994196754400e-01
3.619599999999999795e+01 3.637400000000000233e+01 1.705500000000000114e+02 -9.677521000000000484e+00 -1.400704436938986497e-01
3.619599999999999795e+01 -3.217999999999999972e+00 1.948700000000000045e+02 6.034232000000000262e+00 -1.042516165648300352e-01
3.619800000000000040e+01 2.141900000000000048e+01 1.522599999999999909e+02 6.106525999999999677e+00 -2.460121614691891945e-01
3.619800000000000040e+01 4.779299999999999926e+01 1.780800000000000125e+02 1.013568000000000069e+01 -1.650162611646825983e-01
3.619899999999999807e+01 3.417900000000000205e+01 1.907899999999999920e+02 3.381020000000000181e+01 -7.353599829376686325e-02
3.620600000000000307e+01 2.461599999999999966e+01 2.034600000000000080e+02 -3.304962000000000177e+00 -2.034503919176844922e-01
3.620900000000000318e+01 3.616100000000000136e+01 1.893899999999999864e+02 4.905320999999999998e+01 -7.356981162907939853e-02
3.621000000000000085e+01 2.548999999999999844e+01 1.546100000000000136e+02 7.696839999999999904e+00 -2.733181608636459786e-02
3.621600000000000108e+01 4.824699999999999989e+01 1.810399999999999920e+02 4.062702999999999953e+00 -1.674966884840445869e-01
3.621800000000000352e+01 1.320299999999999940e+01 1.456999999999999886e+02 -3.339176999999999840e+00 -2.414242036273725189e-01
3.621800000000000352e+01 1.320299999999999940e+01 1.466399999999999864e+02 -4.675631000000000093e+00 -2.415506997707085046e-01
3.621800000000000352e+01 5.077799999999999869e+01 1.800699999999999932e+02 -1.084411000000000058e+01 -1.647772887789403506e-01
3.622099999999999653e+01 4.747200000000000131e+01 1.751399999999999864e+02 -1.233726000000000056e+01 -1.620509147692676399e-01
3.622099999999999653e+01 4.959100000000000108e+01 1.717400000000000091e+02 -4.793160999999999916e+01 -2.868308769594577479e-01
3.622200000000000131e+01 2.119499999999999940e+00 1.976200000000000045e+02 6.534566999999999837e+01 -1.916772911482901298e-01
3.622200000000000131e+01 3.310400000000000009e+00 1.969499999999999886e+02 2.166899000000000086e+01 -1.917630786848119884e-01
3.622200000000000131e+01 4.501299999999999635e+00 1.976200000000000045e+02 1.661831000000000103e+01 -1.922990749916274889e-01
3.622200000000000131e+01 4.058200000000000074e+01 1.847800000000000011e+02 1.740865000000000151e+01 -6.999999999999999278e-02
3.622399999999999665e+01 4.549099999999999966e+01 1.778899999999999864e+02 7.235038000000000302e+00 -1.667498934948207223e-01
3.622599999999999909e+01 2.389399999999999835e+01 1.991299999999999955e+02 -2.073169000000000040e+00 -2.035603311067464283e-01
3.622699999999999676e+01 9.692399999999999238e+00 1.498600000000000136e+02 -2.390222000000000069e+00 -2.407482065281728867e-01
3.622899999999999920e+01 2.389900000000000091e+01 1.529300000000000068e+02 7.871529999999999916e+01 -2.205148958836362638e-01
3.623299999999999699e+01 3.764000000000000057e+01 1.873700000000000045e+02 2.906868000000000052e+01 -6.999999999999999278e-02
3.623299999999999699e+01 9.148999999999999133e+00 2.026699999999999875e+02 3.884969999999999857e+01 -1.953107339757902960e-01
3.623299999999999699e+01 1.054899999999999949e+01 2.026699999999999875e+02 3.090095000000000169e+01 -1.958957731717629047e-01
3.623499999999999943e+01 2.940299999999999869e+01 1.590800000000000125e+02 -3.850159000000000020e+01 -3.041843368383530602e-02
3.623599999999999710e+01 2.923799999999999955e+01 1.522899999999999920e+02 2.960067000000000004e+00 -2.185139363501005794e-01
3.623899999999999721e+01 1.288599999999999923e+01 2.026299999999999955e+02 1.188917999999999964e+01 -1.969701497083138075e-01
3.623899999999999721e+01 1.428599999999999959e+01 2.026299999999999955e+02 1.205001999999999995e+01 -1.976750566565949607e-01
3.624000000000000199e+01 4.333100000000000307e+01 1.623199999999999932e+02 1.131219999999999969e-02 -3.209838021016306331e-01
3.624300000000000210e+01 2.127700000000000102e+01 2.055399999999999920e+02 3.341922999999999977e+00 -2.015067279561232882e-01
3.624399999999999977e+01 2.509199999999999875e+01 2.001800000000000068e+02 -1.466755999999999949e+00 -2.041898662971341483e-01
3.624399999999999977e+01 2.507900000000000063e+01 2.040999999999999943e+02 -3.053730999999999973e+00 -2.036119486393939970e-01
3.624499999999999744e+01 2.447899999999999920e+01 1.412299999999999898e+02 -7.015272999999999648e-01 -2.161725174981685704e-01
3.624900000000000233e+01 7.562999999999999723e+00 2.093100000000000023e+02 -3.386258000000000212e+00 -1.960756607943915930e-01
3.625200000000000244e+01 2.918799999999999883e+01 1.582700000000000102e+02 -8.493574999999999875e+00 -2.680653612620701454e-01
3.625300000000000011e+01 4.339200000000000301e+01 1.634300000000000068e+02 -5.298784999999999634e+00 -3.207932083908678900e-01
3.625300000000000011e+01 4.360099999999999909e+01 1.641599999999999966e+02 -3.337060000000000137e+00 -3.205807486171899923e-01
3.625500000000000256e+01 3.385499999999999687e+01 1.925500000000000114e+02 -8.330232000000000525e+00 -7.350937337652092840e-02
3.625600000000000023e+01 3.062999999999999901e+01 1.607400000000000091e+02 -4.893627999999999645e+00 -2.656495300396783943e-01
3.625600000000000023e+01 3.303900000000000148e+01 1.385699999999999932e+02 -1.379731999999999914e+01 -2.137110678210759340e-01
3.625699999999999790e+01 2.172200000000000131e+01 1.515600000000000023e+02 -9.309450000000000003e+00 -2.459558264926354210e-01
