6.727299999999999613e+01 2.078000000000000114e+01 3.985099999999999909e+01 -4.381114000000000175e+00 -2.155246066978476482e-01
6.727700000000000102e+01 2.287500000000000000e+01 4.368099999999999739e+01 -1.885588000000000042e+00 -2.142984436243039748e-01
6.727899999999999636e+01 4.567799999999999727e+01 4.952600000000000335e+01 -6.880982999999999628e+00 -1.847948815058435279e-01
6.728300000000000125e+01 4.982600000000000051e+01 1.874500000000000099e+01 -1.134220999999999968e+01 -2.802165206994773894e-01
6.728799999999999670e+01 1.486500000000000021e+01 3.800300000000000011e+01 -1.579922000000000049e+00 -2.175871282662020789e-01
6.729300000000000637e+01 2.495100000000000051e+01 3.301800000000000068e+01 3.073995000000000033e+01 -2.155907985203064925e-01
6.729699999999999704e+01 6.823099999999999454e+01 4.348299999999999699e+01 4.746893000000000029e+00 -3.216867080097366438e-01
6.729999999999999716e+01 2.195899999999999963e+00 4.603900000000000148e+01 -5.020622999999999614e+00 -7.878014557985996147e-02
6.730599999999999739e+01 2.722599999999999909e+01 5.072500000000000142e+01 6.063036999999999566e+00 -2.147746324397492024e-01
6.730700000000000216e+01 2.318400000000000105e+01 4.468399999999999750e+01 -2.965285999999999866e+00 -2.140322579988671592e-01
6.731100000000000705e+01 2.736700000000000088e+01 4.345000000000000284e+01 5.817953000000000152e-01 -1.728991073253845767e-01
6.731100000000000705e+01 7.501000000000000334e+00 6.084199999999999875e+01 4.495701999999999998e+01 -1.839373108122183131e-01
6.731300000000000239e+01 3.296600000000000108e+01 4.021800000000000352e+01 -1.812407999999999930e+01 -1.728110235115242754e-01
6.731499999999999773e+01 1.147700000000000031e+01 6.646699999999999875e+01 -1.683068999999999926e+00 -1.948591354634851280e-01
6.731499999999999773e+01 4.488799999999999812e+01 1.900400000000000134e+01 -6.115861999999999910e+00 -2.805373138621787277e-01
6.731499999999999773e+01 4.488799999999999812e+01 2.047599999999999909e+01 -2.247955999999999843e+00 -2.804454151764871339e-01
6.731499999999999773e+01 4.509700000000000131e+01 1.973999999999999844e+01 -9.557610000000000383e+00 -2.804764804577094539e-01
6.731600000000000250e+01 6.336500000000000199e+01 2.462500000000000000e+01 -1.684500000000000108e+00 -3.126594788408244563e-01
6.731699999999999307e+01 6.218600000000000350e+00 5.830499999999999972e+01 -2.006015000000000104e+00 -7.734534822956602718e-02
6.731699999999999307e+01 2.740899999999999892e+01 5.743500000000000227e+01 1.621022999999999925e+01 -1.887312145223425941e-01
6.731900000000000261e+01 8.913999999999999702e+00 5.536299999999999955e+01 -8.916396999999999906e+00 -7.752269053505241037e-02
6.731900000000000261e+01 4.360899999999999999e+00 4.886299999999999955e+01 -6.994263000000000119e+00 -7.811516896293332901e-02
6.731999999999999318e+01 4.360699999999999932e+01 4.846900000000000119e+01 3.945235999999999965e+00 -1.843295841007448754e-01
6.732299999999999329e+01 1.217500000000000071e+01 6.814400000000000546e+01 -4.392535000000000189e-01 -1.535363565075480996e-01
6.732299999999999329e+01 1.328700000000000081e+01 6.814400000000000546e+01 -6.513781999999999961e+00 -1.539161388104252903e-01
6.732399999999999807e+01 5.696000000000000085e+01 5.795700000000000074e+01 -1.931190000000000140e+01 -3.243824969127263591e-01
6.732800000000000296e+01 2.680000000000000071e+01 4.837800000000000011e+01 4.523304000000000435e+00 -2.140978440862975896e-01
6.732899999999999352e+01 3.092999999999999972e+01 4.621999999999999886e+01 1.337336999999999954e+01 -1.727340280705073616e-01
6.733299999999999841e+01 2.460999999999999943e+01 3.211899999999999977e+01 8.295339999999999492e+00 -2.157682990093351960e-01
6.733299999999999841e+01 1.226299999999999990e+01 6.646200000000000330e+01 -1.202941000000000038e+00 -1.950331675717509039e-01
6.733299999999999841e+01 1.319899999999999984e+01 6.646200000000000330e+01 -1.367070000000000007e+01 -1.540231815393172943e-01
6.733599999999999852e+01 2.753900000000000148e+01 5.832699999999999818e+01 2.368929999999999936e+01 -1.894347952216361985e-01
6.733700000000000330e+01 6.150999999999999801e+00 6.156700000000000017e+01 -8.415635000000000476e-02 -1.836785624633970326e-01
6.733700000000000330e+01 3.494200000000000017e+01 3.943399999999999750e+01 -7.955282000000000409e+00 -1.728234174343445950e-01
6.734099999999999397e+01 5.105799999999999983e+01 1.791000000000000014e+01 -6.415287000000000184e+00 -2.801923106862832524e-01
6.734300000000000352e+01 3.715700000000000003e+00 5.888199999999999790e+01 -6.615959999999999619e-01 -7.724568334243149537e-02
6.734300000000000352e+01 3.715700000000000003e+00 5.993200000000000216e+01 9.548877999999999533e-01 -1.870173989737074771e-01
6.734799999999999898e+01 1.231400000000000006e+01 4.102400000000000091e+01 1.938649999999999984e+00 -2.182207178506113954e-01
6.734799999999999898e+01 1.371400000000000041e+01 4.102400000000000091e+01 -1.708566999999999947e+00 -2.176692055695515771e-01
6.735399999999999920e+01 6.342000000000000171e+01 3.757200000000000273e+01 2.330799000000000021e+01 -3.113423950299712972e-01
6.735599999999999454e+01 3.221399999999999864e+01 2.529599999999999937e+01 3.116620000000000168e+00 -2.153963412542799216e-01
6.735599999999999454e+01 4.247399999999999665e+01 4.922699999999999676e+01 -1.597259999999999991e+01 -1.845048863575030340e-01
6.735800000000000409e+01 6.705299999999999727e+01 3.740599999999999881e+01 -3.149042000000000119e+00 -3.113077571961365697e-01
6.736299999999999955e+01 3.021600000000000108e+01 3.477600000000000335e+01 -4.310359000000000052e+00 -1.731134588778825423e-01
6.736599999999999966e+01 4.935600000000000165e+01 1.954400000000000048e+01 -6.174590000000000245e+00 -2.801978018158178818e-01
6.736899999999999977e+01 1.361100000000000065e+01 6.738700000000000045e+01 -2.221796000000000149e+01 -1.540773425028167665e-01
6.737199999999999989e+01 9.554999999999999716e+00 4.028300000000000125e+01 2.167049000000000003e+00 -2.193991440936735593e-01
6.737300000000000466e+01 1.268999999999999950e+01 6.859199999999999875e+01 -2.225590000000000046e+01 -1.536741159631493381e-01
6.737500000000000000e+01 1.182399999999999984e+01 6.734699999999999420e+01 2.362846999999999920e+00 -1.950528031576152233e-01
6.737900000000000489e+01 6.797899999999999920e+01 4.190800000000000125e+01 2.878442000000000078e+01 -3.113694783217064721e-01
6.737999999999999545e+01 2.735900000000000176e+01 4.228199999999999648e+01 -3.270757000000000136e+00 -1.729417850722552719e-01
6.737999999999999545e+01 1.383699999999999974e+01 6.666400000000000148e+01 -3.375688000000000244e+01 -1.542046599718121525e-01
6.738100000000000023e+01 6.897499999999999432e+01 4.072500000000000142e+01 -1.240594999999999892e+00 -3.113437932471101455e-01
6.738200000000000500e+01 2.679299999999999926e+01 4.997800000000000153e+01 6.636243999999999588e+00 -2.145972726577126954e-01
6.738700000000000045e+01 5.091000000000000192e+00 5.796099999999999852e+01 1.032469000000000037e+01 -7.728632753277597800e-02
6.738899999999999579e+01 5.837299999999999756e+01 2.413899999999999935e+01 -1.781139999999999901e+01 -3.132293974799455483e-01
6.739400000000000546e+01 2.621199999999999974e+01 5.925699999999999790e+01 3.454032000000000213e+00 -1.904229471331737589e-01
6.739700000000000557e+01 6.311699999999999733e+01 2.919399999999999906e+01 -9.312098000000000297e+01 -3.120175243491919437e-01
6.740000000000000568e+01 8.702700000000000102e+00 5.830599999999999739e+01 -1.683324999999999960e-01 -1.850769550478515713e-01
6.740000000000000568e+01 5.989499999999999602e+00 4.428999999999999915e+01 1.425328999999999979e+01 -7.894451097672433582e-02
6.740099999999999625e+01 5.913799999999999812e+01 3.014099999999999824e+01 2.072023000000000081e+01 -3.122131541989546788e-01
6.740200000000000102e+01 6.104300000000000281e+00 5.502700000000000102e+01 9.461500999999999806e+01 -7.734208618124494006e-02
6.740399999999999636e+01 5.072899999999999920e+01 1.714999999999999858e+01 -7.471242000000000161e+00 -2.802554268080174604e-01
6.740399999999999636e+01 5.072899999999999920e+01 1.867000000000000171e+01 -8.809062000000000836e+00 -2.801677142329320191e-01
6.740699999999999648e+01 2.945299999999999940e+01 3.463799999999999812e+01 -1.522378000000000009e+00 -2.146472513890595180e-01
6.741100000000000136e+01 2.477700000000000102e+01 4.728900000000000148e+01 -1.133899000000000079e+01 -2.139380809532243077e-01
6.741200000000000614e+01 5.729200000000000159e+01 5.424699999999999989e+01 3.920497000000000298e+01 -3.235291082864381051e-01
6.741200000000000614e+01 5.729200000000000159e+01 5.511200000000000188e+01 2.702537999999999885e-01 -3.237235314693462374e-01
6.741700000000000159e+01 1.185399999999999920e+01 6.248400000000000176e+01 1.064707999999999970e+02 -8.950904595477207626e-02
6.742100000000000648e+01 5.043599999999999994e+01 4.926299999999999812e+01 2.139187000000000083e+01 -3.224466078829841820e-01
6.742100000000000648e+01 1.032600000000000051e+01 6.233700000000000330e+01 -2.013183999999999862e+00 -1.940348099751650346e-01
6.742100000000000648e+01 4.167699999999999960e+01 5.052100000000000080e+01 -3.346359999999999779e+00 -1.849254688403194069e-01
6.742400000000000659e+01 4.905299999999999727e+01 2.024399999999999977e+01 6.065295000000000547e-01 -2.801735369862812242e-01
6.742900000000000205e+01 6.027799999999999869e+01 3.548199999999999932e+01 3.054122000000000225e-01 -3.113645141474402633e-01
6.743200000000000216e+01 2.521199999999999974e+01 5.999199999999999733e+01 9.611951999999999430e+01 -1.563728099083754874e-01
6.744100000000000250e+01 7.610999999999999766e+00 5.877799999999999869e+01 -4.268912000000000262e+00 -7.747405065938171853e-02
6.744599999999999795e+01 1.504700000000000060e+01 6.589600000000000080e+01 -9.952858000000000871e+00 -1.546095026891875779e-01
6.744599999999999795e+01 6.160199999999999676e+01 3.634000000000000341e+01 4.766079999999999650e+00 -3.113590176237587270e-01
6.745000000000000284e+01 3.149399999999999977e+01 3.694500000000000028e+01 -9.498198999999999614e+00 -1.729886870430814572e-01
6.745300000000000296e+01 1.723400000000000176e+01 6.894700000000000273e+01 -1.154349000000000069e+00 -1.549494234896600653e-01
6.745300000000000296e+01 1.855300000000000082e+01 6.968200000000000216e+01 3.932148000000000110e+01 -1.551820562754646082e-01
6.745300000000000296e+01 1.987199999999999989e+01 6.731699999999999307e+01 -6.836680000000000534e-01 -1.555875063305764139e-01
6.745300000000000296e+01 1.987199999999999989e+01 6.894700000000000273e+01 8.308146000000000697e+00 -1.554816528654961727e-01
6.745300000000000296e+01 2.010300000000000153e+01 6.813200000000000500e+01 -6.883174999999999599e+00 -1.555748893132093413e-01
6.745300000000000296e+01 3.142900000000000027e+00 4.691499999999999915e+01 5.341910000000000380e+00 -7.856468265919318295e-02
6.745399999999999352e+01 3.737599999999999767e+01 2.465599999999999881e+01 -2.393336000000000130e+00 -2.808201525675145249e-01
6.745600000000000307e+01 5.369100000000000250e+01 5.934199999999999875e+01 1.124046000000000056e+01 -1.860752558423783287e-01
6.745600000000000307e+01 5.524099999999999966e+01 5.934199999999999875e+01 -1.577773999999999965e+01 -3.248575514741526282e-01
6.745699999999999363e+01 4.948199999999999932e+01 2.101899999999999835e+01 8.014912999999999954e+00 -1.736241553472076260e-01
6.745799999999999841e+01 6.494100000000000250e+01 3.726100000000000279e+01 5.790693000000000090e+00 -3.113340551394754852e-01
6.745799999999999841e+01 8.977100000000000080e+00 6.077199999999999847e+01 4.166189000000000142e+00 -1.840881848544529686e-01
6.745999999999999375e+01 1.518299999999999983e+00 4.377199999999999847e+01 -5.340799999999999770e+00 -7.918981118085607895e-02
6.745999999999999375e+01 1.518299999999999983e+00 4.471200000000000330e+01 -9.691950000000000287e+00 -7.903756886895067779e-02
6.746200000000000330e+01 3.420000000000000284e+01 3.575099999999999767e+01 -4.596017999999999937e+00 -1.729906625918863905e-01
6.746399999999999864e+01 1.906400000000000006e+01 3.933299999999999841e+01 -3.063719999999999999e+00 -2.161024752770566160e-01
6.747400000000000375e+01 6.278499999999999659e+01 4.888300000000000267e+01 -4.071621999999999630e+00 -3.224294786503815180e-01
6.747599999999999909e+01 6.187899999999999778e+01 2.927299999999999969e+01 -2.672681000000000040e+01 -3.121102540916232404e-01
6.748099999999999454e+01 3.770100000000000051e+01 4.875200000000000244e+01 -5.765566999999999886e+00 -1.839808868746479753e-01
6.748199999999999932e+01 2.292500000000000071e+01 6.100999999999999801e+01 3.874828999999999724e+01 -1.561915656381756001e-01
6.748199999999999932e+01 2.411599999999999966e+01 6.034599999999999653e+01 3.326718000000000330e+01 -1.562926335851116399e-01
6.748300000000000409e+01 3.375900000000000034e+01 4.000099999999999767e+01 -7.891384999999999650e+00 -1.728381912238177720e-01
6.748300000000000409e+01 3.116600000000000037e+01 3.785099999999999909e+01 2.513059000000000154e+00 -1.729648962689722957e-01
6.748399999999999466e+01 3.274799999999999756e+01 3.512599999999999767e+01 -7.956839000000000439e+00 -1.730458516812105052e-01
6.748499999999999943e+01 4.351500000000000057e+01 1.785099999999999909e+01 -8.322293000000000163e+00 -2.807109250806337220e-01
6.748499999999999943e+01 6.107300000000000040e+01 4.929099999999999682e+01 2.611962999999999813e+00 -3.224940844738036771e-01
6.748499999999999943e+01 2.568400000000000105e+01 3.021999999999999886e+01 3.224542000000000241e-01 -2.158049617041404300e-01
6.748499999999999943e+01 2.738400000000000034e+01 3.021999999999999886e+01 -3.137956000000000079e-01 -2.155277396093670250e-01
6.748699999999999477e+01 3.359400000000000119e+01 2.906500000000000128e+01 2.001924999999999955e+01 -1.733243785374802004e-01
6.748799999999999955e+01 1.804299999999999926e+01 3.738499999999999801e+01 -9.828397000000000716e+00 -2.166695065278020915e-01
6.748900000000000432e+01 3.775800000000000267e+01 2.289099999999999824e+01 7.816043999999999770e+00 -2.809096580887847638e-01
6.749200000000000443e+01 2.737199999999999989e+01 4.419899999999999807e+01 -1.866103000000000067e+00 -1.729276756491345546e-01
6.749899999999999523e+01 3.449699999999999989e+01 3.483899999999999864e+01 -5.940699999999999648e+00 -1.730320036878696122e-01
6.749899999999999523e+01 2.748000000000000220e+00 4.294899999999999807e+01 -1.261681000000000052e+00 -7.926238891348622029e-02
6.750000000000000000e+01 7.671999999999999709e+00 5.488900000000000290e+01 -9.503462000000000742e+00 -7.745468907311173212e-02
6.750199999999999534e+01 6.888899999999999579e+01 4.479200000000000159e+01 2.160904999999999987e+01 -3.219023408117185903e-01
6.750700000000000500e+01 1.273099999999999987e+01 6.733400000000000318e+01 1.064686999999999983e+01 -1.537789240795852386e-01
6.750900000000000034e+01 3.275800000000000267e+01 3.612100000000000222e+01 -9.400992000000000459e+00 -1.730051638702477523e-01
6.750900000000000034e+01 2.252799999999999869e+01 4.296600000000000108e+01 -4.090600000000000236e+00 -2.145576305332216605e-01
6.751000000000000512e+01 6.854399999999999693e+01 4.769700000000000273e+01 -1.704568000000000083e+01 -3.223005185081359025e-01
6.751099999999999568e+01 2.404200000000000159e+01 4.676599999999999824e+01 -1.873518999999999934e+01 -2.138728243784114580e-01
6.751099999999999568e+01 5.087100000000000222e+01 2.172899999999999920e+01 1.912432000000000087e+01 -1.736151725779159494e-01
6.751200000000000045e+01 3.121699999999999875e+01 3.882900000000000063e+01 -2.733226999999999851e+00 -1.729301284358089885e-01
6.751300000000000523e+01 3.139799999999999969e+01 4.702799999999999869e+01 1.185313999999999979e+01 -1.727640366234223512e-01
6.751600000000000534e+01 2.711599999999999966e+01 3.993399999999999750e+01 -9.386768999999999252e+00 -1.730564143513532993e-01
6.751600000000000534e+01 2.732499999999999929e+01 4.067000000000000171e+01 -1.850930999999999926e+01 -1.730198006822814549e-01
6.751800000000000068e+01 2.019000000000000128e+01 6.444499999999999318e+01 -5.012156999999999840e+01 -1.557715867951227628e-01
6.751900000000000546e+01 4.226100000000000279e+01 1.489400000000000013e+01 -2.214952999999999950e+00 -2.809640675543078059e-01
6.751999999999999602e+01 4.205599999999999739e+01 1.775799999999999912e+01 -1.629588999999999999e+01 -2.808338527376987859e-01
6.751999999999999602e+01 4.318599999999999994e+01 2.219200000000000017e+01 5.239798999999999651e+00 -2.804649559374648993e-01
6.752400000000000091e+01 1.669200000000000017e+01 3.565899999999999892e+01 -3.524833999999999801e+00 -2.172596800013669172e-01
6.752500000000000568e+01 4.056600000000000250e+01 2.272599999999999909e+01 1.035473999999999961e+01 -2.806519415369861936e-01
6.753300000000000125e+01 3.913300000000000267e+01 2.196999999999999886e+01 -9.533738999999999963e-01 -2.808372481596515535e-01
6.753499999999999659e+01 6.076100000000000279e+01 2.453800000000000026e+01 -2.015235000000000110e+00 -3.129237618079199756e-01
6.753700000000000614e+01 5.711299999999999955e+01 2.302599999999999980e+01 -1.648730000000000029e+00 -1.736622405356171572e-01
6.754300000000000637e+01 5.973299999999999699e+01 5.011399999999999721e+01 7.118096000000000423e+00 -3.226550417652829239e-01
6.754399999999999693e+01 3.145799999999999841e+01 3.430199999999999960e+01 -5.265139999999999709e+00 -1.731250366118128048e-01
6.754999999999999716e+01 1.383600000000000030e+01 6.366799999999999926e+01 9.185216999999999743e+00 -1.949505319364900624e-01
6.755100000000000193e+01 6.348899999999999721e+01 4.925999999999999801e+01 -4.395391000000000048e+00 -3.225088177011145030e-01
6.755100000000000193e+01 3.512299999999999756e+01 3.648499999999999943e+01 -3.013440999999999814e+00 -1.729638332529004896e-01
6.755500000000000682e+01 5.338000000000000256e+01 2.064000000000000057e+01 1.555182000000000064e+00 -1.736819180857264444e-01
6.755500000000000682e+01 1.510599999999999987e+01 3.721399999999999864e+01 -4.270497999999999905e+00 -2.175949775364955929e-01
6.755800000000000693e+01 1.409299999999999997e+01 4.057699999999999818e+01 -5.847963000000000022e+00 -2.175863376109503644e-01
6.755800000000000693e+01 3.226299999999999812e+01 2.814300000000000068e+01 7.269566000000000194e+00 -2.151106548633690829e-01
6.755899999999999750e+01 4.082600000000000051e+01 1.599499999999999922e+01 -2.852367999999999792e+00 -2.810290277039436679e-01
6.755899999999999750e+01 4.082600000000000051e+01 1.693499999999999872e+01 -2.939405999999999963e+00 -2.809815676994987799e-01
6.756300000000000239e+01 1.546199999999999974e+01 3.648199999999999932e+01 -3.117513000000000201e+00 -2.175523210511785821e-01
6.756300000000000239e+01 1.792200000000000060e+01 3.648199999999999932e+01 -1.988916000000000039e+01 -2.168181376807317984e-01
6.756300000000000239e+01 4.798899999999999721e+01 1.421000000000000085e+01 -1.818907000000000052e+00 -2.805821953719755957e-01
6.756300000000000239e+01 4.950900000000000034e+01 1.421000000000000085e+01 -2.139037000000000077e+00 -2.804855472104328951e-01
6.756399999999999295e+01 1.593999999999999950e+01 6.720900000000000318e+01 -5.738273000000000401e+00 -1.547379672376302251e-01
6.756600000000000250e+01 3.649000000000000021e+00 5.357800000000000296e+01 -1.963411000000000017e+00 -8.820556673428917027e-02
6.756600000000000250e+01 3.875999999999999890e+00 5.437700000000000244e+01 -4.809022999999999826e+00 -8.812071771538659837e-02
6.756799999999999784e+01 3.766199999999999903e+01 2.389900000000000091e+01 1.592980999999999980e+00 -2.808475232316186565e-01
6.757299999999999329e+01 3.878799999999999670e+01 4.963000000000000256e+01 -5.972146999999999650e+00 -1.844344034633904894e-01
6.757399999999999807e+01 4.813100000000000023e+01 4.729999999999999716e+01 -2.404669000000000167e+01 -3.122078414476349706e-01
6.757399999999999807e+01 4.932200000000000273e+01 4.796399999999999864e+01 3.308708000000000204e+00 -3.121583243224745896e-01
6.757500000000000284e+01 4.838599999999999568e+00 5.018699999999999761e+01 -4.717558999999999614e+00 -8.835352456028346124e-02
6.757500000000000284e+01 5.194800000000000040e+01 2.178300000000000125e+01 1.716150000000000020e+01 -1.736290469072983289e-01
6.757599999999999341e+01 6.570199999999999818e+01 3.703600000000000136e+01 7.698133999999999588e+00 -3.113373224012678242e-01
6.758599999999999852e+01 4.553600000000000314e+00 5.091599999999999682e+01 9.309526999999999664e-01 -8.832191499027014503e-02
6.758799999999999386e+01 4.429299999999999926e+01 1.411400000000000077e+01 -2.145458000000000087e+00 -2.808444762788807614e-01
6.759099999999999397e+01 2.986599999999999966e+01 4.512500000000000000e+01 8.104148000000000351e+00 -1.728289123530121485e-01
6.759300000000000352e+01 1.168399999999999928e+01 4.036800000000000210e+01 -1.052759999999999946e-01 -2.185319514793216400e-01
6.759499999999999886e+01 1.557300000000000040e+01 6.659900000000000375e+01 -5.045645000000000380e+00 -1.546797614392808606e-01
6.759499999999999886e+01 3.771399999999999864e+00 5.276200000000000045e+01 -1.039884999999999948e+00 -8.825643977385139172e-02
6.759999999999999432e+01 2.447400000000000020e+01 3.708100000000000307e+01 5.065903999999999963e-01 -2.151461149718778554e-01
6.760099999999999909e+01 3.983700000000000330e+01 5.052499999999999858e+01 -6.355075000000000252e+00 -1.848591913683804711e-01
6.760599999999999454e+01 8.551899999999999835e+00 4.302300000000000324e+01 1.238245000000000040e+01 -2.196571425787812726e-01
6.760599999999999454e+01 8.880200000000000315e+00 4.227900000000000347e+01 3.487198000000000064e+01 -2.195579914536824051e-01
6.760899999999999466e+01 2.625199999999999889e+01 4.761200000000000188e+01 -6.879151000000000016e-01 -2.140088043207789281e-01
6.761400000000000432e+01 5.742999999999999972e+01 5.719700000000000273e+01 -5.082010999999999967e+01 -3.242247018910441314e-01
6.761499999999999488e+01 2.821699999999999875e+01 5.198499999999999943e+01 2.528075999999999990e+00 -1.849088920046109696e-01
6.761499999999999488e+01 2.496000000000000085e+01 3.509300000000000352e+01 1.468338999999999928e+01 -2.153408980886188373e-01
6.761499999999999488e+01 2.516900000000000048e+01 3.435699999999999932e+01 1.554438000000000031e+01 -2.154020147634977955e-01
6.761799999999999500e+01 5.036800000000000210e+01 1.633299999999999841e+01 -1.224615000000000009e+01 -2.803235798830211456e-01
6.761799999999999500e+01 5.234599999999999653e+01 5.229899999999999949e+01 -8.884757000000000460e+00 -3.232356839866588616e-01
6.761799999999999500e+01 5.257300000000000040e+01 5.150000000000000000e+01 -5.267902000000000307e+00 -3.230301766998348034e-01
6.761799999999999500e+01 5.278199999999999648e+01 5.076400000000000290e+01 8.395426999999999751e-01 -3.228466263872650233e-01
6.762399999999999523e+01 4.290699999999999648e+01 4.852700000000000102e+01 -6.802464999999999762e+00 -1.843569457961797831e-01
6.762500000000000000e+01 1.489600000000000080e+01 6.465300000000000580e+01 -8.946267999999999887e+00 -1.546258626631013822e-01
6.762699999999999534e+01 3.516700000000000159e+01 3.367399999999999949e+01 -2.437060999999999922e+01 -1.730934331802778114e-01
6.762800000000000011e+01 6.191100000000000136e+01 4.900500000000000256e+01 -1.187600999999999934e-01 -3.224683676484497719e-01
6.762800000000000011e+01 5.168999999999999595e+00 5.519599999999999795e+01 -1.292912000000000061e+00 -8.793183207168252247e-02
6.762999999999999545e+01 6.252300000000000324e+01 2.441199999999999903e+01 3.003616000000000064e-01 -3.127749000072807539e-01
6.763200000000000500e+01 3.607300000000000040e+01 2.551899999999999835e+01 -2.433403000000000205e+00 -1.734698659751549854e-01
6.763400000000000034e+01 6.240999999999999659e+01 3.724399999999999977e+01 3.828728999999999871e+01 -3.113836215715298783e-01
6.764000000000000057e+01 3.602799999999999869e+01 4.877400000000000091e+01 2.133855000000000146e+01 -1.838802113592938325e-01
6.764100000000000534e+01 6.851699999999999591e+01 3.864300000000000068e+01 4.720212000000000074e+00 -3.113443013535684978e-01
6.764100000000000534e+01 6.389000000000000057e+01 2.547500000000000142e+01 -1.717117999999999922e+00 -3.125071694649707021e-01
6.764300000000000068e+01 5.943999999999999773e+01 2.946900000000000119e+01 2.015471000000000146e+01 -3.123059793506452464e-01
6.764300000000000068e+01 6.063100000000000023e+01 2.880499999999999972e+01 3.550590999999999831e+00 -3.123010639379612541e-01
6.764300000000000068e+01 6.457599999999999341e+01 5.013799999999999812e+01 -2.924008999999999858e+00 -3.226720104168884218e-01
6.764300000000000068e+01 6.627599999999999625e+01 5.013799999999999812e+01 6.931277000000000044e+01 -3.226727067910524771e-01
6.764400000000000546e+01 2.617500000000000071e+01 3.882600000000000051e+01 7.246667999999999665e+00 -2.145534986405829569e-01
6.764600000000000080e+01 6.841200000000000614e+01 4.120799999999999841e+01 2.580623999999999896e+01 -3.113835035608187862e-01
6.764700000000000557e+01 5.246800000000000352e+01 5.311500000000000199e+01 -5.981837999999999766e+00 -3.234467272020346007e-01
6.764900000000000091e+01 4.435199999999999676e+01 4.846900000000000119e+01 5.714349000000000345e+00 -1.844477642408857976e-01
6.765200000000000102e+01 1.301399999999999935e+01 4.108200000000000074e+01 1.223104999999999976e+01 -2.179423820654663169e-01
6.765500000000000114e+01 5.756400000000000006e+01 5.627300000000000324e+01 -2.550108000000000175e+01 -3.240137983380121933e-01
6.765699999999999648e+01 6.764999999999999680e+00 4.435499999999999687e+01 4.046983000000000175e+01 -7.890036986721712942e-02
6.765999999999999659e+01 3.810199999999999676e+01 4.907900000000000063e+01 -1.106114999999999959e+01 -1.841874123589628820e-01
6.766100000000000136e+01 1.297899999999999920e+01 6.276899999999999835e+01 1.704975999999999914e+01 -8.984588079489277956e-02
6.766400000000000148e+01 2.917500000000000071e+01 4.486200000000000188e+01 2.959315000000000140e+00 -1.728730439277912367e-01
6.766500000000000625e+01 2.911499999999999844e+01 5.382200000000000273e+01 -5.822263000000000410e+00 -1.861298498721504768e-01
6.766500000000000625e+01 2.911499999999999844e+01 5.542000000000000171e+01 -1.634849000000000174e+01 -1.872061297651480272e-01
6.766500000000000625e+01 2.934199999999999875e+01 5.462100000000000222e+01 -9.685641000000000389e+00 -1.866576235885488988e-01
6.766800000000000637e+01 9.076000000000000512e+00 4.105799999999999983e+01 2.378963999999999857e+01 -2.195392905812950102e-01
6.767100000000000648e+01 5.627900000000000347e+01 2.209400000000000119e+01 2.087295999999999818e+00 -1.736830309185828092e-01
6.767400000000000659e+01 3.460499999999999687e+01 2.539499999999999957e+01 2.966103000000000023e+01 -2.810702827310694318e-01
6.767499999999999716e+01 2.166400000000000148e+01 4.108100000000000307e+01 -1.597730999999999923e+01 -2.151368921704945036e-01
6.767499999999999716e+01 2.166400000000000148e+01 4.198799999999999955e+01 -1.642512999999999934e+01 -2.149767025903184248e-01
6.767700000000000671e+01 5.247999999999999687e+01 5.399900000000000233e+01 2.015600000000000058e+00 -3.236811842124847072e-01
6.767900000000000205e+01 3.568299999999999983e+01 3.183299999999999841e+01 -1.387284000000000006e+01 -1.731778372517515929e-01
6.767900000000000205e+01 3.568299999999999983e+01 3.269899999999999807e+01 -2.387114000000000047e+01 -1.731383341199819736e-01
6.768000000000000682e+01 3.989900000000000002e+00 4.342300000000000182e+01 -1.884301999999999921e+00 -7.913274714812086608e-02
6.768600000000000705e+01 6.402200000000000557e+01 2.653800000000000026e+01 -7.003589999999999982e+00 -3.123483303774481912e-01
6.768699999999999761e+01 4.559000000000000341e+01 1.466200000000000081e+01 -4.365686999999999762e-01 -2.807241124011405908e-01
6.768800000000000239e+01 3.015800000000000125e+01 4.595700000000000074e+01 3.534850000000000048e+00 -1.728360140342382612e-01
6.769299999999999784e+01 2.673600000000000065e+01 5.838400000000000034e+01 1.721707999999999927e+01 -1.896567784671641665e-01
6.769700000000000273e+01 5.134599999999999653e+01 4.921600000000000108e+01 7.887507999999999697e+01 -3.224929638621162886e-01
6.769700000000000273e+01 5.253699999999999903e+01 4.988000000000000256e+01 3.444742000000000193e+00 -3.226508617269480683e-01
6.770199999999999818e+01 6.760800000000000409e+01 3.805899999999999750e+01 9.976036999999999821e-01 -3.113491246165543402e-01
6.770199999999999818e+01 3.340500000000000114e+01 5.039999999999999858e+01 1.210093999999999959e+01 -1.844023057493479056e-01
6.770399999999999352e+01 5.289500000000000313e+00 4.423199999999999932e+01 1.228623999999999938e+01 -7.895928613720948341e-02
6.770699999999999363e+01 2.789000000000000057e+01 5.626500000000000057e+01 4.599505999999999872e+00 -1.878832890668073741e-01
6.771299999999999386e+01 1.577399999999999913e+01 6.557599999999999341e+01 -9.204822000000000282e-01 -1.547827700564391729e-01
6.771500000000000341e+01 2.484400000000000119e+01 3.790400000000000347e+01 -9.526483000000000034e-01 -2.149588091241091958e-01
6.771699999999999875e+01 2.218400000000000105e+01 6.312100000000000222e+01 1.662644999999999840e+01 -1.560344690621158770e-01
6.771699999999999875e+01 2.243799999999999883e+01 6.222699999999999676e+01 2.001169000000000153e+01 -1.560816967841766600e-01
6.771699999999999875e+01 2.264699999999999847e+01 6.149099999999999966e+01 3.895163000000000153e+01 -1.561149050620367629e-01
6.771800000000000352e+01 5.624799999999999756e+01 5.809499999999999886e+01 -1.506404000000000032e+01 -3.245210043157503721e-01
6.771800000000000352e+01 6.634799999999999898e+01 3.724300000000000210e+01 1.772574000000000094e+00 -3.113500194961478784e-01
6.772400000000000375e+01 1.989199999999999946e+01 3.942699999999999960e+01 -3.169391000000000069e+00 -2.158799845245754911e-01
6.772499999999999432e+01 6.347899999999999920e+01 2.783200000000000074e+01 -3.207853999999999672e+01 -3.122066714390827058e-01
6.772499999999999432e+01 6.368800000000000239e+01 2.709600000000000009e+01 -3.528796999999999962e+00 -3.122971453144358089e-01
6.772599999999999909e+01 6.239500000000000313e+01 2.944999999999999929e+01 -2.093856999999999857e+01 -3.120498574101608358e-01
6.772700000000000387e+01 6.350500000000000256e+01 2.839600000000000080e+01 -3.948485000000000156e+01 -3.121208560798047760e-01
6.773000000000000398e+01 6.753100000000000591e+01 4.235000000000000142e+01 3.247345999999999844e+00 -3.215741313591055084e-01
6.773000000000000398e+01 6.753100000000000591e+01 4.321600000000000108e+01 2.917962999999999862e+00 -3.216882401221616283e-01
6.773099999999999454e+01 1.863100000000000023e+01 3.863300000000000267e+01 -1.651893999999999973e+00 -2.163518325993542546e-01
6.773199999999999932e+01 5.031900000000000261e+01 1.554800000000000004e+01 -4.109441000000000344e+01 -2.803690552551627024e-01
6.773199999999999932e+01 3.501200000000000045e+01 5.002199999999999847e+01 2.583927999999999869e+01 -1.843559145834733903e-01
6.773699999999999477e+01 6.411400000000000432e+01 3.735600000000000165e+01 6.517717000000000205e+00 -3.113758800135715266e-01
6.773900000000000432e+01 1.741000000000000103e+00 4.514500000000000313e+01 -1.541862000000000066e+00 -7.893904825382994095e-02
6.774099999999999966e+01 5.029500000000000171e+01 1.926000000000000156e+01 -1.110360999999999976e+01 -2.801613145680187933e-01
6.774200000000000443e+01 2.918799999999999883e+01 3.434100000000000108e+01 6.228806999999999761e+00 -2.147584964682791031e-01
6.774299999999999500e+01 2.131299999999999883e+01 4.028199999999999648e+01 -1.775448000000000093e+01 -2.153695888669959757e-01
6.774500000000000455e+01 5.391000000000000014e+00 6.117900000000000205e+01 -9.262309000000000125e+00 -1.846200775876395972e-01
6.774500000000000455e+01 6.910999999999999588e+00 5.871900000000000119e+01 -5.974461999999999939e+00 -7.746311489739669820e-02
6.774500000000000455e+01 6.910999999999999588e+00 6.117900000000000205e+01 -5.504328000000000554e-01 -1.836716748824198386e-01
6.774599999999999511e+01 3.226599999999999824e+01 3.995100000000000051e+01 -1.688465000000000060e+01 -1.729083155649079884e-01
6.774699999999999989e+01 1.028599999999999959e+01 4.012899999999999778e+01 -2.273963999999999874e+00 -2.190975362278714533e-01
6.774800000000000466e+01 4.439699999999999847e+01 1.860699999999999932e+01 -5.774663000000000324e+00 -2.806002849448486214e-01
6.774800000000000466e+01 4.439699999999999847e+01 2.087199999999999989e+01 3.543556999999999846e+00 -2.804600594424822568e-01
6.774899999999999523e+01 1.692099999999999937e+01 6.839900000000000091e+01 -1.020871000000000084e+00 -1.548663330928650994e-01
6.775100000000000477e+01 9.404899999999999594e+00 5.575999999999999801e+01 3.580510999999999999e+00 -7.761098701828932078e-02
6.775100000000000477e+01 9.614000000000000767e+00 5.649600000000000222e+01 1.771212000000000009e+00 -7.763227413819381861e-02
6.775199999999999534e+01 5.321200000000000330e+01 5.856700000000000017e+01 7.713963000000000347e-01 -3.248643680615336260e-01
6.775199999999999534e+01 5.865100000000000335e+01 3.135399999999999920e+01 2.962469000000000108e+01 -3.120682425387223957e-01
6.775199999999999534e+01 5.285099999999999909e+01 5.687299999999999756e+01 -1.984499999999999931e+00 -3.244365915480699747e-01
6.776099999999999568e+01 6.015900000000000247e+00 5.015299999999999869e+01 -8.473680999999999131e+00 -8.826802975450587230e-02
6.776200000000000045e+01 4.986999999999999744e+01 4.853399999999999892e+01 6.720278000000000418e+00 -3.223345566528136308e-01
6.776600000000000534e+01 3.190200000000000102e+01 4.953000000000000114e+01 7.874480000000000146e+00 -1.838762581501837690e-01
6.776600000000000534e+01 3.726500000000000057e+01 2.521999999999999886e+01 -5.304253000000000107e+00 -1.734800247297882958e-01
6.776999999999999602e+01 3.564200000000000301e+01 3.830100000000000193e+01 -7.615503000000000355e+00 -1.729265823436821059e-01
6.776999999999999602e+01 5.836500000000000199e+01 3.276899999999999835e+01 1.136316000000000059e+01 -3.118456505290696512e-01
6.776999999999999602e+01 5.857399999999999807e+01 3.350500000000000256e+01 1.304107999999999912e+01 -3.116934054956322919e-01
6.776999999999999602e+01 5.891899999999999693e+01 3.428799999999999670e+01 4.917582999999999593e+00 -3.115202037199311103e-01
6.777100000000000080e+01 1.547100000000000009e+01 6.487600000000000477e+01 -8.322836999999999819e+00 -1.547409424684583756e-01
6.777200000000000557e+01 6.100500000000000256e+01 3.567600000000000193e+01 3.377674999999999983e+00 -3.113980294900349222e-01
6.777700000000000102e+01 3.550399999999999778e+01 3.728399999999999892e+01 -5.763271999999999728e+00 -1.729641330050600001e-01
6.777800000000000580e+01 2.360900000000000176e+01 4.606600000000000250e+01 -1.422545999999999999e+01 -2.138027905282607610e-01
6.778100000000000591e+01 3.164799999999999969e+01 4.771399999999999864e+01 7.245563999999999893e+00 -1.728213056578536966e-01
6.778100000000000591e+01 3.185699999999999932e+01 4.845000000000000284e+01 2.142427999999999955e+01 -1.833667194181217708e-01
6.778499999999999659e+01 5.259300000000000352e+01 5.606600000000000250e+01 -1.451603999999999894e+00 -3.242423889486291122e-01
6.778700000000000614e+01 3.445900000000000318e+01 3.994299999999999784e+01 -9.518211000000000865e+00 -1.728847305516972299e-01
6.778799999999999670e+01 3.602100000000000080e+00 4.763499999999999801e+01 1.160426999999999986e-01 -7.839509130945308824e-02
6.778799999999999670e+01 3.927000000000000046e+00 4.837199999999999989e+01 -7.925067999999999557e+00 -7.823288186088896146e-02
6.778799999999999670e+01 2.085300000000000153e+01 6.404300000000000637e+01 -3.300860999999999734e+01 -1.558290677904818344e-01
6.778799999999999670e+01 4.281499999999999773e+01 1.779299999999999926e+01 -4.700462999999999880e+01 -2.807706026598190685e-01
6.779000000000000625e+01 5.307500000000000284e+01 5.763199999999999790e+01 -1.984661999999999926e+00 -3.246308961317069808e-01
6.779200000000000159e+01 5.446600000000000108e+01 5.940699999999999648e+01 2.800403999999999982e+01 -1.860725027630077411e-01
6.779800000000000182e+01 1.834100000000000108e+01 3.804699999999999704e+01 4.610284000000000049e+00 -2.165196698597482428e-01
6.779999999999999716e+01 6.901399999999999579e+01 4.599699999999999989e+01 -1.013175999999999988e+01 -3.221047473383602533e-01
6.779999999999999716e+01 6.901399999999999579e+01 4.693699999999999761e+01 -5.405935000000000201e+01 -3.222346348973307850e-01
6.779999999999999716e+01 2.450400000000000134e+01 6.014999999999999858e+01 4.045806999999999931e+01 -1.562626732471871505e-01
6.780100000000000193e+01 3.363799999999999812e+01 3.500999999999999801e+01 -1.039420999999999928e+01 -1.730810370894669270e-01
6.780200000000000671e+01 2.696999999999999886e+01 4.388300000000000267e+01 -4.046719000000000399e+00 -1.730266607219127784e-01
6.780800000000000693e+01 2.701200000000000045e+01 5.700200000000000244e+01 2.573764999999999858e+01 -1.885382249239934971e-01
6.780800000000000693e+01 3.303499999999999659e+01 2.491400000000000148e+01 2.586510999999999783e+00 -2.153672712301776537e-01
6.781000000000000227e+01 2.515899999999999892e+01 3.107000000000000028e+01 1.325666999999999929e+00 -2.158229757877442034e-01
6.781000000000000227e+01 6.778900000000000148e+01 4.790500000000000114e+01 -3.107683000000000106e+01 -3.223605936220971802e-01
6.781399999999999295e+01 2.474200000000000088e+01 4.682399999999999807e+01 -5.144267000000000145e+00 -2.139520188115435206e-01
6.781499999999999773e+01 5.123899999999999721e+01 1.915200000000000102e+01 -8.222676999999999126e+00 -1.737260919804128889e-01
6.781699999999999307e+01 3.229200000000000159e+01 3.689500000000000313e+01 -3.985049999999999670e+01 -1.730312655286271040e-01
6.782200000000000273e+01 5.886399999999999721e+01 2.453600000000000136e+01 -2.981889999999999930e+00 -3.131308900050950306e-01
6.782500000000000284e+01 2.791999999999999815e+00 4.652000000000000313e+01 2.115774000000000044e+01 -7.864297790385427200e-02
6.782500000000000284e+01 4.491999999999999993e+00 4.377000000000000313e+01 3.750748999999999889e+00 -7.905294234310568380e-02
6.782800000000000296e+01 5.247299999999999898e+01 5.498599999999999710e+01 -1.523201000000000027e+00 -3.239690711831556547e-01
6.783299999999999841e+01 9.402699999999999392e+00 5.803799999999999670e+01 7.332714999999999650e-01 -1.851249635675890071e-01
6.783700000000000330e+01 2.835999999999999943e+01 3.185399999999999920e+01 4.899244000000000376e+00 -2.152113822580819513e-01
6.783799999999999386e+01 3.171300000000000097e+01 2.595100000000000051e+01 -2.129191000000000000e-01 -2.154174220261302897e-01
6.783799999999999386e+01 3.171300000000000097e+01 2.700100000000000122e+01 4.143611999999999851e-01 -2.153126480700911505e-01
6.784399999999999409e+01 5.022599999999999909e+01 2.118499999999999872e+01 2.927805999999999997e+01 -1.736493603976005384e-01
6.784399999999999409e+01 5.109199999999999875e+01 2.118499999999999872e+01 1.759287000000000134e+01 -1.736571467425205295e-01
6.784399999999999409e+01 5.836200000000000188e+01 3.214800000000000324e+01 1.748638000000000048e+01 -3.119606091769111522e-01
6.784499999999999886e+01 5.799199999999999733e+01 5.397999999999999687e+01 -2.875199999999999978e+00 -3.235195558646410396e-01
6.784900000000000375e+01 4.129599999999999937e+01 1.523499999999999943e+01 -3.066481000000000012e+00 -2.810260445814156682e-01
6.784900000000000375e+01 4.129599999999999937e+01 1.769500000000000028e+01 -9.917078000000000060e+00 -2.809012422961821298e-01
6.785200000000000387e+01 8.234700000000000131e+00 6.043200000000000216e+01 -1.046256999999999993e+00 -1.841073833475024568e-01
6.785299999999999443e+01 3.166300000000000026e+01 3.766599999999999682e+01 -7.773475000000000357e+00 -1.730218333083891613e-01
6.785299999999999443e+01 1.593200000000000038e+01 3.572200000000000131e+01 -3.470037000000000038e+00 -2.174889804459851361e-01
6.785299999999999443e+01 1.745200000000000173e+01 3.572200000000000131e+01 -7.243844000000000172e+00 -2.170500263646954475e-01
6.785399999999999920e+01 2.653399999999999892e+01 3.014900000000000091e+01 2.740486000000000200e+00 -2.156955230969597737e-01
6.785399999999999920e+01 4.165800000000000125e+01 2.306800000000000139e+01 7.551619999999999777e+00 -1.735499797098471741e-01
6.785999999999999943e+01 4.142699999999999605e+00 5.180400000000000205e+01 -1.342819999999999903e+00 -8.831065243352474725e-02
6.786499999999999488e+01 4.624399999999999977e+01 4.895000000000000284e+01 -2.613465000000000149e+00 -1.847560144299235096e-01
6.786799999999999500e+01 5.839600000000000080e+01 5.259100000000000108e+01 5.870528000000000413e-01 -3.232175971852796481e-01
6.786799999999999500e+01 4.565699999999999648e+00 5.855700000000000216e+01 2.498060999999999865e+00 -7.735072577074783573e-02
6.787000000000000455e+01 3.529200000000000159e+01 3.104700000000000060e+01 2.132235999999999798e+00 -1.732429406639893199e-01
6.787300000000000466e+01 3.069800000000000040e+01 3.436500000000000199e+01 -5.333441999999999794e+00 -1.731955019457838696e-01
6.787300000000000466e+01 3.221800000000000352e+01 3.436500000000000199e+01 -6.229866000000000348e+00 -1.731506024057564708e-01
6.787300000000000466e+01 8.119300000000000850e+00 4.372299999999999898e+01 1.182579999999999920e+01 -2.197876109093465369e-01
6.787399999999999523e+01 5.148899999999999721e+01 1.744000000000000128e+01 -4.858877999999999808e+00 -2.801987877847499919e-01
6.787399999999999523e+01 5.148899999999999721e+01 1.837999999999999901e+01 -1.429499000000000031e+01 -2.801450344528219616e-01
6.788800000000000523e+01 4.676299999999999812e+01 4.811999999999999744e+01 -8.596716000000000690e+00 -3.124214944373607805e-01
6.788899999999999579e+01 2.780499999999999972e+01 4.468999999999999773e+01 -2.536496999999999780e+00 -1.729894994660644558e-01
6.788899999999999579e+01 8.074799999999999756e+00 5.502600000000000335e+01 -1.192353999999999914e+00 -7.752838256626831681e-02
6.789000000000000057e+01 2.503000000000000114e+01 3.202799999999999869e+01 6.180067000000000199e+00 -2.157416985485523797e-01
6.789000000000000057e+01 2.674800000000000111e+01 4.334199999999999875e+01 -3.513116000000000128e+00 -1.730684805346913158e-01
6.789100000000000534e+01 9.468099999999999739e+00 6.116899999999999693e+01 -2.306430000000000202e+00 -1.839040657866270467e-01
6.789100000000000534e+01 9.792999999999999261e+00 6.190599999999999881e+01 -1.074689000000000050e+01 -1.938685549435362476e-01
6.789100000000000534e+01 1.108600000000000030e+01 6.262700000000000244e+01 -7.866088999999999665e+00 -1.942432130332736873e-01
6.789100000000000534e+01 2.605099999999999838e+01 5.851200000000000045e+01 7.669178999999999746e+00 -1.898960298120604684e-01
6.789600000000000080e+01 2.873900000000000077e+01 5.302799999999999869e+01 -8.790580999999999534e+00 -1.856814819242775805e-01
6.790099999999999625e+01 6.197699999999999676e+01 3.654399999999999693e+01 1.965353999999999957e+01 -3.114113860594697192e-01
6.790200000000000102e+01 2.688800000000000168e+01 4.465599999999999881e+01 -3.629122999999999877e+00 -1.730461753785911827e-01
6.790200000000000102e+01 4.992300000000000182e+01 2.048499999999999943e+01 8.140978999999999743e+00 -1.736751700007548860e-01
6.790300000000000580e+01 5.768800000000000239e+01 5.467999999999999972e+01 2.541729999999999823e+00 -3.236915810115551517e-01
6.790500000000000114e+01 4.385900000000000176e+01 1.812500000000000000e+01 -9.606042999999999665e+00 -2.806700514854186812e-01
6.790600000000000591e+01 1.456099999999999994e+01 3.965999999999999659e+01 -1.482898999999999923e+01 -2.175353802147734772e-01
6.790800000000000125e+01 5.256499999999999773e+01 2.082199999999999918e+01 5.026913999999999660e+00 -1.736879402870111777e-01
6.790900000000000603e+01 5.435600000000000165e+01 2.079200000000000159e+01 4.317374000000000045e+00 -1.737093223270214926e-01
6.790999999999999659e+01 3.498199999999999932e+01 3.422999999999999687e+01 -6.446665999999999563e+00 -1.731098446285230796e-01
6.791299999999999670e+01 5.783599999999999852e+01 2.368199999999999861e+01 -7.028003000000000000e+00 -1.736779636389141346e-01
6.791299999999999670e+01 1.473399999999999999e+01 3.800699999999999790e+01 -2.571712999999999916e+00 -2.176497422971031825e-01
6.791500000000000625e+01 2.341600000000000037e+01 6.061299999999999955e+01 2.912479000000000084e+01 -1.561569985072442934e-01
6.791700000000000159e+01 2.800100000000000122e+01 3.098799999999999955e+01 7.778965000000000352e+00 -2.153751568269194894e-01
6.791899999999999693e+01 3.548700000000000188e+01 3.893900000000000006e+01 -8.008639000000000507e+00 -1.729296596004728515e-01
6.792499999999999716e+01 6.163499999999999801e+01 2.906200000000000117e+01 -2.045178999999999903e+01 -3.121826169192553624e-01
6.792600000000000193e+01 4.206199999999999761e+01 4.967499999999999716e+01 6.411575000000000468e-01 -1.847483976702997410e-01
6.793000000000000682e+01 2.278300000000000214e+00 4.348199999999999932e+01 -6.404259999999999842e+00 -7.917333468683861175e-02
6.793200000000000216e+01 1.777799999999999869e+01 6.938599999999999568e+01 -4.718130999999999631e+00 -1.549591373065827005e-01
6.793200000000000216e+01 1.932799999999999940e+01 6.938599999999999568e+01 5.117075999999999958e+00 -1.552677894533788239e-01
6.793200000000000216e+01 6.972100000000000186e+00 5.462199999999999989e+01 3.042433000000000121e+01 -7.746739591679432935e-02
6.793899999999999295e+01 4.197300000000000253e+00 5.940699999999999648e+01 4.566946000000000061e-01 -1.868115779582436020e-01
6.793999999999999773e+01 2.769200000000000017e+01 5.113499999999999801e+01 1.265773999999999955e+00 -1.844705802800060135e-01
6.794199999999999307e+01 6.889100000000000534e+01 4.043299999999999983e+01 -3.249124999999999819e+00 -3.113991095605629922e-01
6.794499999999999318e+01 3.069800000000000040e+01 4.675999999999999801e+01 2.614968999999999877e+00 -1.728761649134860912e-01
6.794899999999999807e+01 2.836899999999999977e+01 4.489900000000000091e+01 1.197399000000000102e+00 -1.729724059967061855e-01
6.795000000000000284e+01 5.978000000000000114e+01 3.502199999999999847e+01 8.345502000000000475e-02 -3.114308370239676771e-01
6.795199999999999818e+01 4.505199999999999960e+01 4.852700000000000102e+01 5.768758999999999970e-01 -1.845697164814221747e-01
6.795300000000000296e+01 5.556300000000000239e+00 5.844899999999999807e+01 8.830822999999999867e-01 -7.740535504168566394e-02
6.795699999999999363e+01 4.344299999999999784e+01 1.418500000000000050e+01 -1.714455000000000062e+00 -2.809052592845486251e-01
6.795699999999999363e+01 4.514300000000000068e+01 1.418500000000000050e+01 -3.239349999999999952e+00 -2.807797038164677184e-01
6.796099999999999852e+01 1.446199999999999974e+01 6.406399999999999295e+01 -7.242778999999999634e+00 -1.544973326524511636e-01
6.796299999999999386e+01 4.364800000000000324e+01 2.135300000000000153e+01 4.311956999999999596e+00 -2.804880626021681866e-01
6.796399999999999864e+01 3.443999999999999773e+01 3.020599999999999952e+01 2.167483999999999966e+01 -1.733081138462538584e-01
6.796800000000000352e+01 6.680100000000000193e+01 4.928799999999999670e+01 7.772869000000000028e+00 -3.225826653975931713e-01
6.796999999999999886e+01 4.068699999999999761e+01 5.059599999999999653e+01 -6.196239000000000052e-01 -1.850128255210125860e-01
6.796999999999999886e+01 6.751999999999999780e+00 5.015299999999999869e+01 -3.492039000000000115e+00 -8.822655628062184285e-02
6.797100000000000364e+01 9.619999999999999218e+00 5.705499999999999972e+01 9.421650999999999776e-01 -1.854370625498321656e-01
6.797499999999999432e+01 8.947100000000000719e+00 5.876899999999999835e+01 5.019983999999999558e-01 -1.848007616459910185e-01
6.797599999999999909e+01 6.900199999999999534e+01 3.946600000000000108e+01 1.482489999999999952e+01 -3.113874858711231930e-01
6.797700000000000387e+01 2.293400000000000105e+01 4.337700000000000244e+01 -4.819142000000000259e+00 -2.144605704449339678e-01
6.798300000000000409e+01 5.843999999999999773e+01 5.189800000000000324e+01 9.183766000000000318e+00 -3.230911335404361151e-01
6.798300000000000409e+01 5.864900000000000091e+01 5.116199999999999903e+01 1.340595000000000070e+01 -3.229380397073996489e-01
6.798399999999999466e+01 3.323299999999999699e+01 3.608800000000000097e+01 -1.318923000000000023e+01 -1.730704325838597901e-01
6.798399999999999466e+01 3.463300000000000267e+01 3.608800000000000097e+01 -5.194848000000000354e+00 -1.730483908295918360e-01
