2.648899999999999864e+02 -6.501100000000000101e+00 8.210200000000000387e+01 -8.570489999999999498e+00 -3.633419996335974234e-01
2.648899999999999864e+02 -9.589999999999999858e+00 7.586700000000000443e+01 -1.465244999999999997e+01 -3.770607141277205754e-01
2.648999999999999773e+02 -1.773300000000000054e+01 9.735299999999999443e+01 7.938338000000000338e-01 -3.630330823340537916e-01
2.649100000000000250e+02 1.531300000000000061e+01 9.726399999999999579e+01 -4.767878999999999934e+01 -3.767674363625276857e-01
2.649100000000000250e+02 1.902500000000000080e+00 7.887699999999999534e+01 -7.004507000000000261e+00 -3.836964256070800605e-01
2.649100000000000250e+02 -1.124300000000000033e+01 8.643300000000000693e+01 -4.267742000000000147e+00 -3.632138161700636525e-01
2.649100000000000250e+02 -1.516099999999999959e+01 7.846399999999999864e+01 -3.246182999999999819e+00 -3.769570047173996796e-01
2.649100000000000250e+02 -1.236299999999999955e+00 7.301699999999999591e+01 1.739763999999999911e+01 -1.037858786356915530e-01
2.649100000000000250e+02 -1.255900000000000016e+00 1.083599999999999994e+02 6.524244000000000376e+00 -3.632865532701594624e-01
2.649100000000000250e+02 -8.275000000000000355e+00 6.816200000000000614e+01 -4.812510999999999872e-01 -1.181336613486141385e-01
2.649200000000000159e+02 7.079200000000000159e+00 1.036200000000000045e+02 1.041169999999999973e+01 -2.598661707485873107e-01
2.649200000000000159e+02 7.079200000000000159e+00 1.045199999999999960e+02 4.256235999999999819e+01 -2.599426564174948107e-01
2.649200000000000159e+02 -1.264100000000000001e+01 8.189400000000000546e+01 -4.608509000000000100e+01 -3.770017207144453764e-01
2.649300000000000068e+02 1.592700000000000005e+00 1.049599999999999937e+02 2.221230999999999867e+01 -3.767713152148682298e-01
2.649300000000000068e+02 1.819600000000000106e+00 7.244700000000000273e+01 -1.255759999999999987e+00 -1.035550594577706318e-01
2.649300000000000068e+02 -1.365300000000000047e+01 1.061599999999999966e+02 -1.171746000000000087e+01 -3.631013333702339252e-01
2.649399999999999977e+02 -4.165199999999999569e+00 7.119100000000000250e+01 -2.034809000000000090e+00 -1.047142812015059848e-01
2.649399999999999977e+02 1.560200000000000031e+01 9.262099999999999511e+01 4.623273000000000188e+00 -3.767520393549588786e-01
2.649399999999999977e+02 -1.244500000000000028e+01 8.711899999999999977e+01 7.088773999999999909e-01 -3.631833299654431135e-01
2.649499999999999886e+02 -6.804499999999999993e+00 8.140200000000000102e+01 -4.684445000000000192e+00 -3.633416141939301292e-01
2.649499999999999886e+02 1.920400000000000107e+00 7.322599999999999909e+01 -4.557299000000000433e+00 -1.033420532498830618e-01
2.649499999999999886e+02 -8.267899999999999139e+00 1.075199999999999960e+02 3.465822999999999876e+00 -3.631863954203083944e-01
2.649599999999999795e+02 -1.281400000000000006e+01 7.684199999999999875e+01 -1.435579000000000072e+01 -3.770051758990527468e-01
2.649700000000000273e+02 -9.440200000000000813e+00 8.185399999999999920e+01 -3.520676999999999879e+01 -3.632855534074475590e-01
2.649800000000000182e+02 -1.479199999999999982e+01 7.761400000000000432e+01 -3.892713999999999785e+00 -3.769659586766797021e-01
2.649800000000000182e+02 -6.652199999999999669e+00 6.880400000000000205e+01 1.213335999999999970e+01 -1.186297500869139265e-01
2.649900000000000091e+02 -6.918999999999999595e+00 1.090799999999999983e+02 -3.075591000000000008e+01 -3.632043617189193996e-01
2.649900000000000091e+02 -5.399000000000000021e+00 1.090799999999999983e+02 -5.970732999999999890e+01 -3.632266211863018901e-01
2.649900000000000091e+02 -9.399100000000000676e+00 1.071200000000000045e+02 4.585035999999999667e+00 -3.631691446995114481e-01
2.649900000000000091e+02 4.468700000000000117e+00 8.021699999999999875e+01 -7.825025000000000119e+00 -3.969519365121054189e-01
2.650000000000000000e+02 8.889299999999999979e-01 7.808899999999999864e+01 -5.885343999999999909e+00 -3.837771984675571457e-01
2.650099999999999909e+02 -1.563100000000000023e+01 9.289799999999999613e+01 -2.974458999999999964e+00 -3.630846523937042436e-01
2.650099999999999909e+02 -2.823599999999999888e+00 7.345199999999999818e+01 2.343286000000000158e+01 -1.038780643001633724e-01
2.650099999999999909e+02 -9.111299999999999955e+00 7.410200000000000387e+01 -1.233239999999999981e+01 -3.770680261739539074e-01
2.650199999999999818e+02 -1.714000000000000057e+01 8.965500000000000114e+01 3.288459000000000021e+00 -3.630672081101932180e-01
2.650199999999999818e+02 -1.593599999999999994e+01 9.159499999999999886e+01 -1.032179000000000002e+01 -3.630835104082955622e-01
2.650199999999999818e+02 -1.572700000000000031e+01 9.233100000000000307e+01 -5.851932999999999829e+00 -3.630848080089238428e-01
2.650299999999999727e+02 -1.735900000000000176e+01 1.003299999999999983e+02 -8.621534999999999616e-02 -3.630369213861792677e-01
2.650299999999999727e+02 -1.735900000000000176e+01 1.028299999999999983e+02 5.927246000000000237e+00 -3.630376155600282262e-01
2.650299999999999727e+02 -1.676200000000000045e+01 9.052899999999999636e+01 7.108577000000000368e-01 -3.630708960625736448e-01
2.650299999999999727e+02 -1.152200000000000024e+01 8.717300000000000182e+01 -3.380536000000000207e+00 -3.632027474891022512e-01
2.650299999999999727e+02 -1.488700000000000045e+01 8.743200000000000216e+01 -2.339106999999999825e+00 -3.631279828057596415e-01
2.650299999999999727e+02 1.035599999999999987e+01 9.765399999999999636e+01 1.754590999999999923e+01 -2.593565503640768988e-01
2.650400000000000205e+02 -1.524699999999999989e+01 7.948300000000000409e+01 -4.132641999999999705e+00 -3.769556015595369458e-01
2.650400000000000205e+02 1.119100000000000072e+01 9.098199999999999932e+01 5.332502999999999993e+00 -3.767394584960461756e-01
2.650400000000000205e+02 1.165199999999999925e+01 9.689499999999999602e+01 -2.771393000000000129e+01 -2.593021489335431973e-01
2.650400000000000205e+02 1.305199999999999960e+01 9.689499999999999602e+01 -1.154715999999999987e+01 -2.593256995195586945e-01
2.650400000000000205e+02 -1.141900000000000048e+01 8.179500000000000171e+01 -1.039551999999999943e+01 -3.770261340264798866e-01
2.650500000000000114e+02 -3.956199999999999939e+00 7.269400000000000261e+01 -4.915775000000000006e+00 -1.042538402686466609e-01
2.650500000000000114e+02 -1.024399999999999977e+01 7.334399999999999409e+01 3.255281999999999787e+00 -3.770488397158585636e-01
2.650600000000000023e+02 -1.159399999999999942e+01 6.783499999999999375e+01 6.438608999999999583e+00 -1.168544496491084467e-01
2.650600000000000023e+02 -1.249000000000000021e+01 7.622499999999999432e+01 -4.578598999999999641e+00 -3.770125408661298416e-01
2.650600000000000023e+02 1.192299999999999915e+00 7.878900000000000148e+01 -1.159726000000000035e+01 -3.837378896678692031e-01
2.650600000000000023e+02 -1.595800000000000018e+01 9.340300000000000580e+01 -2.511421999999999821e-01 -3.630757762221500373e-01
2.650600000000000023e+02 2.576600000000000001e-01 7.816400000000000148e+01 -3.552398000000000167e+00 -3.838117140491507095e-01
2.650600000000000023e+02 5.161999999999999922e+00 9.202299999999999613e+01 3.941173000000000037e+00 -3.632153046553727727e-01
2.650799999999999841e+02 -1.524499999999999922e+01 1.037699999999999960e+02 5.975329999999999808e-01 -3.630736706473345898e-01
2.650799999999999841e+02 -1.377399999999999913e+01 7.695699999999999363e+01 -6.040799999999999947e+00 -3.769879875526690460e-01
2.651000000000000227e+02 -1.512299999999999933e+01 8.039000000000000057e+01 -4.959761000000000308e+00 -3.769575297651372447e-01
2.651000000000000227e+02 -1.489600000000000080e+01 8.118899999999999295e+01 -1.614556999999999931e+01 -3.769607651735149556e-01
2.651000000000000227e+02 -1.360299999999999976e+01 8.190999999999999659e+01 -5.573478000000000065e+01 -3.769853695498999735e-01
2.651000000000000227e+02 1.034499999999999975e+00 7.703100000000000591e+01 8.758139999999999814e-01 -3.837988554134481034e-01
2.651000000000000227e+02 1.243600000000000039e+00 7.629500000000000171e+01 -1.006223000000000090e+00 -3.838078564753705235e-01
2.651100000000000136e+02 6.567099999999999937e+00 9.004399999999999693e+01 6.305039999999999978e+00 -2.584781413950995588e-01
2.651100000000000136e+02 6.567099999999999937e+00 9.090900000000000603e+01 6.820095000000000240e+00 -2.585744372432973170e-01
2.651100000000000136e+02 1.062299999999999933e+01 8.941800000000000637e+01 2.063241000000000103e+00 -3.767318919661445942e-01
2.651200000000000045e+02 1.430100000000000016e+01 9.212699999999999534e+01 8.809032999999999447e+00 -3.767493818250889914e-01
2.651299999999999955e+02 -3.220500000000000029e-01 1.050900000000000034e+02 1.348625999999999969e+01 -3.633124353957836172e-01
2.651299999999999955e+02 9.741099999999999426e+00 9.994700000000000273e+01 2.633192999999999984e+01 -2.595733559527995671e-01
2.651299999999999955e+02 -1.588400000000000034e+01 1.032900000000000063e+02 -1.619080999999999992e-01 -3.630623273289395603e-01
2.651399999999999864e+02 1.280199999999999960e+01 9.142400000000000659e+01 8.917878999999999223e+00 -3.767444677903758476e-01
2.651499999999999773e+02 9.118999999999999773e+00 8.753900000000000148e+01 2.962025999999999826e+00 -3.767202802837715803e-01
2.651600000000000250e+02 -9.157299999999999329e+00 7.516700000000000159e+01 -1.719350000000000023e+01 -3.770712444434572985e-01
2.651600000000000250e+02 5.017000000000000348e+00 1.054399999999999977e+02 1.028410000000000046e+00 -2.597415699079269613e-01
2.651700000000000159e+02 -1.887300000000000111e+01 9.557200000000000273e+01 -5.354594999999999771e-01 -3.630116214341502223e-01
2.651700000000000159e+02 -1.861899999999999977e+01 9.467799999999999727e+01 -9.196758999999999906e-01 -3.630181526928249469e-01
2.651700000000000159e+02 -1.861899999999999977e+01 9.646599999999999397e+01 3.932180000000000120e-01 -3.630151575109077933e-01
2.651700000000000159e+02 -1.717299999999999827e+01 9.387199999999999989e+01 -9.645262000000000002e-01 -3.630487786917910298e-01
2.651700000000000159e+02 -1.606599999999999895e+01 8.847400000000000375e+01 -8.113004999999999800e-01 -3.630953639912463116e-01
2.651700000000000159e+02 -8.949999999999999289e+00 8.111799999999999500e+01 -4.909503999999999735e+01 -3.770714528228414908e-01
2.651700000000000159e+02 -1.247799999999999976e+01 6.832800000000000296e+01 5.354684999999999917e+00 -1.163399241665354217e-01
2.651800000000000068e+02 -1.139899999999999913e+01 7.593300000000000693e+01 -1.132568999999999981e+01 -3.770342309560659744e-01
2.651800000000000068e+02 8.314500000000000668e+00 1.009399999999999977e+02 5.175817000000000334e+00 -2.596496955007830398e-01
2.651800000000000068e+02 -1.063700000000000045e+01 1.071099999999999994e+02 2.297154000000000096e+01 -3.631490232311410660e-01
2.651800000000000068e+02 -4.563200000000000034e-01 7.289700000000000557e+01 1.563795999999999964e+00 -1.036940078942533983e-01
2.651800000000000068e+02 6.554700000000000415e+00 8.523300000000000409e+01 -8.356714999999999449e+00 -3.767031324539710235e-01
2.651899999999999977e+02 4.147700000000000276e-01 9.099699999999999989e+01 1.624379000000000062e+01 -3.634025637890417326e-01
2.651899999999999977e+02 1.049399999999999977e+01 8.845999999999999375e+01 7.303247000000000488e-01 -3.767275911022432977e-01
2.651999999999999886e+02 7.928099999999999703e+00 8.673900000000000432e+01 -8.820104000000000610e+00 -3.767139626319241930e-01
2.651999999999999886e+02 1.246000000000000085e+01 1.003400000000000034e+02 7.230976999999999544e-01 -2.596495176472660704e-01
2.652099999999999795e+02 -5.790700000000000180e+00 6.898199999999999932e+01 4.309417999999999971e+00 -1.189584721383405014e-01
2.652099999999999795e+02 1.612999999999999989e+00 9.233799999999999386e+01 1.364938000000000073e+01 -3.634116555643253088e-01
2.652200000000000273e+02 -6.068800000000000416e+00 8.242499999999999716e+01 -1.550559999999999938e+00 -3.633499101482570715e-01
2.652200000000000273e+02 -6.068800000000000416e+00 8.329000000000000625e+01 -8.700341999999999132e+00 -3.633435861280308599e-01
2.652200000000000273e+02 7.091999999999999638e+00 1.017600000000000051e+02 -4.818124000000000073e+00 -2.597118725812132545e-01
2.652200000000000273e+02 7.091999999999999638e+00 1.026299999999999955e+02 -7.069462999999999442e-02 -2.597910952043737121e-01
2.652200000000000273e+02 9.838800000000000878e+00 9.905500000000000682e+01 1.417990999999999957e+01 -2.594916571347005152e-01
2.652200000000000273e+02 1.692000000000000171e+01 9.368699999999999761e+01 5.882126999999999661e+00 -3.767587281811631827e-01
2.652200000000000273e+02 -1.729299999999999926e+01 9.806499999999999773e+01 1.247071000000000041e+00 -3.630379072869414081e-01
2.652200000000000273e+02 -1.412299999999999933e+01 1.054000000000000057e+02 -1.988258000000000081e+00 -3.630921677417437987e-01
2.652300000000000182e+02 -1.046899999999999942e+01 8.121599999999999397e+01 -2.964199999999999946e+01 -3.770470630338086382e-01
2.652300000000000182e+02 1.633699999999999875e-01 7.882399999999999807e+01 -2.598934999999999995e+00 -3.837956803721846444e-01
2.652300000000000182e+02 2.201299999999999812e+00 1.050799999999999983e+02 4.102532000000000068e+01 -3.767574588705683292e-01
2.652400000000000091e+02 1.662600000000000122e+01 9.658799999999999386e+01 2.636803000000000008e+00 -3.767683521391015367e-01
2.652400000000000091e+02 -1.088000000000000078e+01 8.527200000000000557e+01 -3.972158999999999995e+00 -3.632298653985484016e-01
2.652500000000000000e+02 -1.050200000000000067e+01 7.588100000000000023e+01 -1.436661999999999928e+01 -3.770510656085453993e-01
2.652500000000000000e+02 -1.325200000000000067e+01 8.706799999999999784e+01 -1.656604999999999883e-01 -3.631653512038833798e-01
2.652599999999999909e+02 9.942699999999999871e-01 8.896599999999999397e+01 1.561672000000000082e+01 -3.634254108197143007e-01
2.652599999999999909e+02 -1.289300000000000068e+01 1.062199999999999989e+02 -4.056738000000000000e+01 -3.631124247994783616e-01
2.652699999999999818e+02 4.457799999999999763e+00 8.314100000000000534e+01 3.375598999999999705e+01 -3.633281850334879604e-01
2.652699999999999818e+02 -2.031000000000000139e+00 7.344400000000000261e+01 9.542564000000000135e+01 -1.037484490477816185e-01
2.652699999999999818e+02 3.231399999999999828e+00 9.288100000000000023e+01 6.993717000000000183e+00 -3.632885185931130634e-01
2.652699999999999818e+02 4.096700000000000230e+00 9.288100000000000023e+01 4.424055000000000071e+00 -3.632303093768746161e-01
2.652699999999999818e+02 -4.783600000000000074e-01 7.816400000000000148e+01 -3.167749999999999844e+00 -3.838544143025860444e-01
2.652699999999999818e+02 -1.276699999999999946e+01 6.909999999999999432e+01 2.704299999999999926e+01 -1.159916749371829592e-01
2.652799999999999727e+02 -8.866099999999999426e+00 6.793600000000000705e+01 -3.584799999999999986e+00 -1.179925393264799754e-01
2.652799999999999727e+02 5.341499999999999915e+00 8.899699999999999989e+01 7.813691000000000386e+00 -3.632375583036438482e-01
2.652900000000000205e+02 -3.680000000000000160e+00 1.082900000000000063e+02 5.955682000000000365e+00 -3.632536476886787380e-01
2.652900000000000205e+02 5.584399999999999586e+00 8.518500000000000227e+01 -7.655680000000000263e+00 -3.632728570223198172e-01
2.653000000000000114e+02 -1.074200000000000088e+01 8.439199999999999591e+01 -4.247837999999999781e+00 -3.632393971748004158e-01
2.653000000000000114e+02 -1.424399999999999977e+01 1.045000000000000000e+02 1.895080000000000098e+01 -3.630896573989553233e-01
2.653000000000000114e+02 9.923799999999999955e+00 9.835399999999999920e+01 2.204699000000000098e+01 -2.594262534025896239e-01
2.653000000000000114e+02 -7.340300000000000047e+00 8.409900000000000375e+01 -2.098985000000000056e+01 -3.633129579677186194e-01
2.653100000000000023e+02 -1.071499999999999986e+01 7.345499999999999829e+01 -1.151207000000000091e+00 -3.770449394882934291e-01
2.653100000000000023e+02 -3.523600000000000065e+00 7.339400000000000546e+01 3.202644999999999964e+00 -1.039738310961106915e-01
2.653100000000000023e+02 6.185999999999999943e+00 1.048599999999999994e+02 9.142960999999999672e+01 -2.599783832578129728e-01
2.653199999999999932e+02 -9.065099999999999270e+00 8.345600000000000307e+01 -2.165065999999999935e+00 -3.632823114244947971e-01
2.653199999999999932e+02 -1.661599999999999966e+01 8.872499999999999432e+01 9.906422999999999757e-01 -3.630810480715674915e-01
2.653199999999999932e+02 -6.158999999999999808e+00 1.091500000000000057e+02 -6.393274000000000257e+01 -3.632154139620519251e-01
2.653199999999999932e+02 6.948800000000000310e+00 8.594499999999999318e+01 -5.954104000000000241e+01 -3.767081486019699943e-01
2.653299999999999841e+02 -1.749600000000000044e-01 7.746399999999999864e+01 -6.229433000000000192e-02 -3.838567518534760081e-01
2.653299999999999841e+02 6.902899999999999592e-01 7.746399999999999864e+01 -3.034902999999999906e+00 -3.838043583948057003e-01
2.653299999999999841e+02 4.451800000000000423e+00 8.442600000000000193e+01 1.846080999999999861e+01 -3.633123256027298575e-01
2.653299999999999841e+02 -1.331199999999999939e+01 7.624500000000000455e+01 -3.909936000000000078e+00 -3.770002959151576016e-01
2.653399999999999750e+02 1.105599999999999916e+01 9.759600000000000364e+01 -8.960359000000000407e+00 -2.593693774791295814e-01
2.653399999999999750e+02 1.235200000000000031e+01 9.683700000000000330e+01 -1.712414000000000058e+01 -2.593147806708792635e-01
2.653399999999999750e+02 -7.639400000000000190e+00 1.085799999999999983e+02 -1.729648000000000074e+00 -3.631941279387889132e-01
2.653399999999999750e+02 -7.237099999999999866e+00 8.091100000000000136e+01 -1.471002999999999972e+01 -3.633390629300783936e-01
2.653500000000000227e+02 -1.208999999999999986e+01 7.253400000000000603e+01 -1.027203000000000088e+00 -3.770188845881052853e-01
2.653600000000000136e+02 -1.199099999999999966e+01 1.062800000000000011e+02 -3.742293000000000092e+01 -3.631269375073189476e-01
2.653700000000000045e+02 2.358900000000000219e+00 7.940699999999999648e+01 -5.977078999999999809e+00 -3.836478961716022207e-01
2.653700000000000045e+02 -1.794300000000000139e+01 8.965500000000000114e+01 -1.500871000000000066e+00 -3.630474145833663124e-01
2.653799999999999955e+02 -1.299799999999999933e+01 7.130100000000000193e+01 2.889457000000000164e+00 -1.152416660955588174e-01
2.653799999999999955e+02 -1.074399999999999977e+01 6.762800000000000011e+01 1.467680000000000096e+00 -1.172963301105136302e-01
2.653799999999999955e+02 -6.104499999999999815e+00 8.166899999999999693e+01 6.000948000000000171e+00 -3.633557954879568230e-01
2.653799999999999955e+02 8.593199999999999728e-01 1.046800000000000068e+02 1.486039000000000065e+01 -3.767887717117915369e-01
2.653899999999999864e+02 -1.447400000000000020e+01 7.701500000000000057e+01 -2.970286000000000204e+00 -3.769775790670749638e-01
2.653899999999999864e+02 -7.546699999999999520e-01 1.057900000000000063e+02 1.305990000000000073e+01 -3.633042461489682240e-01
2.653899999999999864e+02 -7.546699999999999520e-01 1.066599999999999966e+02 1.266369000000000078e+01 -3.633007706433861728e-01
2.653899999999999864e+02 -7.546699999999999520e-01 1.077099999999999937e+02 1.399751999999999974e+01 -3.632967754498543922e-01
2.653999999999999773e+02 3.126399999999999846e+00 7.985999999999999943e+01 -2.789387000000000061e+00 -3.835907935193019758e-01
2.654100000000000250e+02 -2.117100000000000204e+00 1.086899999999999977e+02 1.251806999999999981e+01 -3.632747231581415770e-01
2.654100000000000250e+02 -1.317099999999999937e+01 7.027200000000000557e+01 7.283475000000000144e+00 -1.154670789441375467e-01
2.654100000000000250e+02 -4.624799999999999578e+00 7.023999999999999488e+01 -1.035594999999999999e+01 -1.050439569858458294e-01
2.654200000000000159e+02 -8.699099999999999611e+00 1.073900000000000006e+02 2.902946000000000026e+00 -3.631792655009181692e-01
2.654300000000000068e+02 4.461299999999999599e+00 9.218000000000000682e+01 4.787742999999999860e-01 -3.632250996455698155e-01
2.654300000000000068e+02 1.243400000000000061e+00 7.268500000000000227e+01 1.154241000000000072e+00 -1.035173755880070406e-01
2.654300000000000068e+02 -6.613999999999999879e+00 8.415000000000000568e+01 -1.333610000000000007e+01 -3.633277564281428562e-01
2.654300000000000068e+02 1.443099999999999916e+01 9.768899999999999295e+01 -2.074530000000000030e+01 -2.594356301111097607e-01
2.654300000000000068e+02 9.224899999999999878e+00 1.008199999999999932e+02 1.564185999999999943e+01 -2.596589938614960458e-01
2.654399999999999977e+02 -1.185200000000000031e+01 8.130400000000000205e+01 -5.741823000000000121e+01 -3.770251080752139439e-01
2.654399999999999977e+02 -5.726499999999999924e-01 7.882399999999999807e+01 -4.682509999999999728e-01 -3.838384098393360366e-01
2.654399999999999977e+02 -1.757400000000000162e+01 8.880500000000000682e+01 4.394338000000000299e+00 -3.630590244260121224e-01
2.654399999999999977e+02 -1.757400000000000162e+01 9.050499999999999545e+01 6.157808000000000170e+00 -3.630506536693514641e-01
2.654499999999999886e+02 2.134100000000000108e+00 7.496299999999999386e+01 7.001479999999999926e+00 -3.837899093397086348e-01
2.654499999999999886e+02 1.009399999999999942e+01 1.003400000000000034e+02 1.881501000000000090e+01 -2.596259543525137881e-01
2.654499999999999886e+02 1.156600000000000072e+01 1.003400000000000034e+02 -1.181733999999999979e-01 -2.596459277073956406e-01
2.654499999999999886e+02 1.335399999999999920e+01 1.003400000000000034e+02 6.727787000000000184e+00 -2.596701559652190294e-01
2.654599999999999795e+02 -1.642699999999999960e+01 9.119899999999999807e+01 7.212591000000000419e-01 -3.630717874249783095e-01
2.654599999999999795e+02 1.507600000000000051e+01 9.219199999999999307e+01 3.305306000000000211e+01 -3.767522689738843633e-01
2.654599999999999795e+02 -1.082199999999999918e+01 8.604000000000000625e+01 -4.655890000000000306e+00 -3.632256715681089210e-01
2.654599999999999795e+02 -1.082199999999999918e+01 8.690500000000000114e+01 -5.868879999999999875e+00 -3.632195614513201720e-01
2.654700000000000273e+02 -4.955199999999999605e+00 6.943300000000000693e+01 -5.196716000000000335e+00 -1.053296090660029022e-01
2.654700000000000273e+02 -1.291799999999999926e+01 7.553300000000000125e+01 -3.843472000000000222e+00 -3.770095266842619641e-01
2.654800000000000182e+02 4.073500000000000121e+00 1.055799999999999983e+02 -1.196547000000000027e+00 -2.595080300878819246e-01
2.654800000000000182e+02 2.418099999999999916e+00 8.896500000000000341e+01 8.952092000000000382e+00 -3.970079937424214056e-01
2.654800000000000182e+02 -7.901399999999999757e+00 8.398999999999999488e+01 -1.275896999999999970e+01 -3.633031015483706438e-01
2.654900000000000091e+02 -9.936999999999999389e+00 1.071599999999999966e+02 7.127496999999999971e+00 -3.631595788322808382e-01
2.655000000000000000e+02 4.832300000000000040e+00 8.122599999999999909e+01 -8.311747000000000440e+00 -3.633370900402853043e-01
2.655000000000000000e+02 4.832300000000000040e+00 8.227599999999999625e+01 3.261404000000000281e+01 -3.633245433045940720e-01
2.655000000000000000e+02 -4.970500000000000362e+00 1.087900000000000063e+02 -1.128956999999999944e+01 -3.632337623822403661e-01
2.655000000000000000e+02 -2.692499999999999893e-01 7.952400000000000091e+01 4.302629999999999733e+00 -3.837972943343992416e-01
2.655000000000000000e+02 6.670000000000000373e-01 7.952400000000000091e+01 -3.157173999999999925e+00 -3.837409152598778017e-01
2.655099999999999909e+02 -1.564199999999999946e+01 7.793899999999999295e+01 -2.701811999999999880e+00 -3.769538096728266008e-01
2.655099999999999909e+02 -1.564199999999999946e+01 7.898900000000000432e+01 -3.390502999999999822e+00 -3.769529460415327327e-01
2.655099999999999909e+02 -1.813400000000000034e+01 1.015799999999999983e+02 2.380635999999999974e+00 -3.630197057334111910e-01
2.655099999999999909e+02 -1.790299999999999869e+01 1.007699999999999960e+02 1.183356999999999992e+00 -3.630234022396009452e-01
2.655099999999999909e+02 -1.790299999999999869e+01 1.023900000000000006e+02 3.400329000000000268e-01 -3.630243335796743409e-01
2.655099999999999909e+02 -1.692599999999999838e+01 9.876099999999999568e+01 2.731670999999999960e+00 -3.630418973208816569e-01
2.655099999999999909e+02 -1.692599999999999838e+01 9.962600000000000477e+01 1.630956999999999990e+00 -3.630413325376893319e-01
2.655099999999999909e+02 -1.658399999999999963e+01 1.031299999999999955e+02 -1.309049000000000085e+01 -3.630477037379223337e-01
2.655099999999999909e+02 -1.216200000000000081e+01 8.769100000000000250e+01 -1.083491999999999900e+00 -3.631847131866833833e-01
2.655099999999999909e+02 -1.548300000000000054e+01 8.777200000000000557e+01 1.221322999999999936e+00 -3.631102999512674789e-01
2.655099999999999909e+02 -1.411200000000000010e+01 8.713599999999999568e+01 -2.523563999999999918e+00 -3.631449576887841313e-01
2.655099999999999909e+02 -1.160100000000000087e+01 7.344199999999999307e+01 2.527800000000000047e+00 -3.770320977644774363e-01
2.655099999999999909e+02 1.770000000000000018e+00 7.584099999999999397e+01 2.178212999999999955e+00 -3.837858237587868926e-01
2.655199999999999818e+02 2.313000000000000167e+00 9.239600000000000080e+01 9.999987000000000847e+00 -3.633545442761925703e-01
2.655199999999999818e+02 9.968999999999999417e+00 8.760999999999999943e+01 1.997954000000000008e+00 -3.767238626727590911e-01
2.655199999999999818e+02 1.081900000000000084e+01 9.025000000000000000e+01 4.893037999999999776e+00 -3.767377926910995822e-01
2.655199999999999818e+02 5.616499999999999826e-01 8.966599999999999682e+01 2.106735000000000113e+01 -3.634162934920815990e-01
2.655199999999999818e+02 5.616499999999999826e-01 9.053199999999999648e+01 1.628819000000000017e+01 -3.634104154959030830e-01
2.655199999999999818e+02 1.193500000000000050e+01 1.011899999999999977e+02 -2.741544999999999899e+00 -2.597318059461099504e-01
2.655199999999999818e+02 1.298499999999999943e+01 9.949299999999999500e+01 2.185896000000000061e+00 -2.595884682422555656e-01
2.655199999999999818e+02 1.298499999999999943e+01 1.011899999999999977e+02 -2.446048999999999918e+00 -2.597452141901702705e-01
2.655299999999999727e+02 -1.116900000000000048e+01 8.127400000000000091e+01 -2.605969999999999942e+01 -3.770390645247702066e-01
2.655299999999999727e+02 -9.768900000000000361e+00 8.127400000000000091e+01 -2.887353999999999843e+01 -3.770635107305885247e-01
2.655299999999999727e+02 -9.768900000000000361e+00 8.354000000000000625e+01 3.235676000000000219e+00 -3.632672896592385459e-01
2.655400000000000205e+02 5.867099999999999760e+00 9.117600000000000193e+01 3.839339999999999975e+00 -3.631972286900236879e-01
2.655400000000000205e+02 1.631200000000000117e+01 9.296099999999999852e+01 2.216981000000000090e+00 -3.767570329414997032e-01
2.655500000000000114e+02 -9.940599999999999881e+00 7.391299999999999670e+01 -1.211538999999999966e+01 -3.770627222895673869e-01
2.655500000000000114e+02 1.147599999999999953e+00 9.145099999999999341e+01 7.135195999999999650e+00 -3.634132963330634625e-01
2.655600000000000023e+02 1.195199999999999996e+01 9.100799999999999557e+01 2.449428999999999856e+00 -3.767433103235033887e-01
2.655600000000000023e+02 1.694299999999999917e+00 8.890800000000000125e+01 8.068659999999999499e+00 -3.634172146347372512e-01
2.655600000000000023e+02 1.360100000000000087e+01 9.174099999999999966e+01 1.320719000000000065e+01 -3.767489799932891570e-01
2.655699999999999932e+02 -1.467699999999999960e+01 1.037999999999999972e+02 -8.485810000000000297e-01 -3.630807830572297390e-01
2.655699999999999932e+02 7.410800000000000054e+00 8.665699999999999648e+01 -1.185707000000000022e+01 -3.767137139685975411e-01
2.655699999999999932e+02 -1.436299999999999955e+01 8.162000000000000455e+01 -2.217476999999999876e+01 -3.769764093007780259e-01
2.655699999999999932e+02 -1.183200000000000074e+01 7.544199999999999307e+01 -1.528309999999999924e+01 -3.770316302556752652e-01
2.655699999999999932e+02 5.809700000000000308e+00 8.975400000000000489e+01 6.510146999999999906e+00 -3.632124038886992978e-01
2.655799999999999841e+02 -4.391399999999999970e+00 7.174800000000000466e+01 -5.237276999999999738e+00 -1.045648970623325597e-01
2.655799999999999841e+02 1.718400000000000105e+01 9.568399999999999750e+01 2.299166999999999916e+01 -3.767677005674170410e-01
2.655899999999999750e+02 1.340900000000000070e+01 9.768399999999999750e+01 -1.260066999999999915e+01 -2.594226614129621078e-01
2.655899999999999750e+02 1.721600000000000108e+01 9.462399999999999523e+01 2.204772000000000176e+01 -3.767641913272817833e-01
2.655899999999999750e+02 -9.857300000000000395e+00 7.543399999999999750e+01 -2.661971000000000132e+01 -3.770670060569919491e-01
2.655899999999999750e+02 -1.150399999999999956e+01 8.771800000000000352e+01 -2.589796999999999905e+00 -3.631989704775944738e-01
2.656000000000000227e+02 6.170499999999999652e+00 9.047599999999999909e+01 6.621574999999999989e+00 -3.631953911797342616e-01
2.656000000000000227e+02 -1.647299999999999898e+01 9.360500000000000398e+01 3.059137000000000217e+00 -3.630605435188306584e-01
2.656000000000000227e+02 6.126800000000000246e+00 8.592499999999999716e+01 -2.372888000000000019e+01 -3.632447877176389617e-01
2.656000000000000227e+02 -8.250000000000000000e+00 8.084999999999999432e+01 -3.351304999999999978e+01 -3.633204842412765534e-01
2.656100000000000136e+02 3.542499999999999982e+00 8.024200000000000443e+01 -7.620788000000000117e+00 -3.969911992578124549e-01
2.656200000000000045e+02 7.020900000000000141e+00 1.033100000000000023e+02 6.686429000000000400e+00 -2.598672554929523093e-01
2.656200000000000045e+02 5.485999999999999766e+00 1.049200000000000017e+02 4.785173999999999594e+00 -2.598915975600254447e-01
2.656200000000000045e+02 3.073100000000000165e+00 1.054300000000000068e+02 -1.417731000000000130e-01 -2.592223325848951321e-01
2.656200000000000045e+02 -9.461999999999999744e+00 6.778799999999999670e+01 -1.882206999999999908e-01 -1.178196676561884537e-01
2.656200000000000045e+02 -1.634900000000000020e+01 8.815099999999999625e+01 -1.901931000000000038e+00 -3.630881179222694710e-01
2.656299999999999955e+02 1.171199999999999974e+01 9.948999999999999488e+01 1.447074999999999889e+00 -2.595733930879249307e-01
2.656299999999999955e+02 1.960299999999999931e+00 7.367100000000000648e+01 3.981902999999999970e+00 -1.031555660574597910e-01
2.656299999999999955e+02 8.419000000000000483e+00 8.713599999999999568e+01 5.365839000000000025e-01 -3.767186555211555210e-01
2.656499999999999773e+02 4.619600000000000151e+00 8.897400000000000375e+01 1.137682000000000038e+01 -3.632506685347854369e-01
2.656499999999999773e+02 -6.537099999999999689e+00 8.096899999999999409e+01 -1.025717999999999996e+01 -3.633543593665081728e-01
2.656499999999999773e+02 -9.553900000000000503e+00 7.473399999999999466e+01 -2.462657000000000096e+01 -3.770721503877647596e-01
2.656499999999999773e+02 7.791999999999999815e+00 1.015000000000000000e+02 -6.834342000000000361e+00 -2.597123565242053789e-01
2.656499999999999773e+02 8.698999999999999844e+00 1.015000000000000000e+02 1.753309999999999869e-01 -2.597239014385206990e-01
2.656499999999999773e+02 -7.341400000000000148e+00 6.853199999999999648e+01 2.822941000000000145e+00 -1.185119969743649859e-01
2.656600000000000250e+02 -1.269699999999999918e+01 8.149099999999999966e+01 -9.125548999999999467e+01 -3.770115934242331823e-01
2.656600000000000250e+02 -8.102999999999999758e+00 6.806399999999999295e+01 4.635525999999999813e-01 -1.183211682676338639e-01
2.656600000000000250e+02 1.083000000000000007e+01 1.003400000000000034e+02 2.124909000000000159e+00 -2.596431672630499232e-01
2.656600000000000250e+02 -1.116200000000000081e+01 1.065100000000000051e+02 7.116109999999999935e+00 -3.631396430961701949e-01
2.656600000000000250e+02 1.527999999999999936e+01 9.748600000000000421e+01 -1.832049999999999912e+01 -3.767719766023064909e-01
2.656800000000000068e+02 3.256400000000000183e+00 8.917700000000000671e+01 5.577079000000000342e+00 -3.969558073794695607e-01
2.656800000000000068e+02 4.864099999999999646e+00 8.523999999999999488e+01 3.611252999999999957e+01 -3.632858195970837256e-01
2.656899999999999977e+02 -1.802299999999999969e+01 9.419700000000000273e+01 -5.556153999999999815e-01 -3.630262007127270096e-01
2.656899999999999977e+02 -1.336299999999999955e+01 1.056899999999999977e+02 -3.075900000000000034e+01 -3.631028652684623603e-01
2.657099999999999795e+02 4.048399999999999999e+00 8.906699999999999307e+01 1.337607999999999997e+01 -3.632642429073890677e-01
2.657099999999999795e+02 7.488599999999999923e+00 1.022000000000000028e+02 -6.741349999999999731e+00 -2.597759880341350414e-01
2.657099999999999795e+02 -8.230999999999999872e+00 1.081500000000000057e+02 1.313307000000000002e+00 -3.631852753075756057e-01
2.657200000000000273e+02 -1.060300000000000020e+00 7.340500000000000114e+01 8.838872999999999536e+00 -1.035887807269048333e-01
2.657200000000000273e+02 -4.379999999999999893e+00 1.085600000000000023e+02 -3.668970999999999982e+00 -3.632431913645178256e-01
2.657200000000000273e+02 -2.979999999999999982e+00 1.085600000000000023e+02 1.170486999999999966e+01 -3.632635123560530865e-01
2.657200000000000273e+02 -1.280000000000000027e+00 1.085600000000000023e+02 4.456826999999999650e+00 -3.768181294698166317e-01
2.657200000000000273e+02 -1.816600000000000037e+01 9.697400000000000375e+01 -1.460253000000000072e-02 -3.630181056337817291e-01
2.657300000000000182e+02 2.576600000000000001e-01 7.697299999999999898e+01 1.340704999999999991e+01 -3.838419411624692246e-01
2.657300000000000182e+02 -9.399100000000000676e+00 1.073299999999999983e+02 2.662704000000000182e+00 -3.631676622840228630e-01
2.657300000000000182e+02 1.062400000000000055e+01 9.808700000000000330e+01 3.044732000000000127e+01 -2.594219654157419175e-01
2.657300000000000182e+02 1.062400000000000055e+01 9.948699999999999477e+01 1.110716000000000037e+01 -2.595606607494083673e-01
2.657400000000000091e+02 4.749999999999999778e-01 7.271599999999999397e+01 2.971411999999999942e+00 -1.035766757272055250e-01
2.657400000000000091e+02 1.191900000000000048e+01 9.732800000000000296e+01 -1.060579000000000072e+01 -2.593664658404781220e-01
2.657400000000000091e+02 1.278500000000000014e+01 9.732800000000000296e+01 -1.159972999999999921e+01 -2.593809086234964978e-01
2.657400000000000091e+02 -1.232600000000000051e+01 7.304699999999999704e+01 -1.456369999999999942e+00 -3.770210349289974117e-01
2.657400000000000091e+02 6.783699999999999619e+00 1.044000000000000057e+02 3.131655999999999906e+01 -2.599651616013862743e-01
2.657500000000000000e+02 -4.014499999999999957e+00 7.299800000000000466e+01 -9.571642000000000650e+00 -1.041319786130335129e-01
2.657500000000000000e+02 -2.823599999999999888e+00 7.366200000000000614e+01 7.398438999999999766e+00 -1.037605504841993681e-01
2.657500000000000000e+02 -4.174500000000000099e+00 7.085999999999999943e+01 -2.399080999999999797e+00 -1.047807707433280056e-01
2.657500000000000000e+02 -1.242399999999999949e+01 1.057900000000000063e+02 -5.114457000000000164e+01 -3.631185322890117528e-01
2.657599999999999909e+02 5.169100000000000250e+00 8.601800000000000068e+01 4.138587000000000238e+00 -3.632669993564835442e-01
2.657599999999999909e+02 -1.369200000000000017e+01 1.049300000000000068e+02 -5.531587000000000032e-01 -3.630969477712541749e-01
2.657599999999999909e+02 -8.749599999999999600e-01 7.773199999999999932e+01 -3.722806999999999977e+00 -3.838890580650365369e-01
2.657599999999999909e+02 4.894599999999999618e+00 9.159000000000000341e+01 3.594669999999999810e+00 -3.632139178523250966e-01
2.657599999999999909e+02 1.155300000000000082e+01 9.805700000000000216e+01 -8.373498000000000330e-01 -2.594343884918122733e-01
2.657599999999999909e+02 1.185599999999999987e+01 9.875700000000000500e+01 1.695537999999999990e+00 -2.595084222486706560e-01
2.657699999999999818e+02 -8.330000000000000071e+00 8.389700000000000557e+01 -9.076753000000000071e+00 -3.632960164054140351e-01
2.657799999999999727e+02 1.595199999999999996e+01 9.737600000000000477e+01 -1.190306999999999960e+01 -3.767729713806509673e-01
2.657799999999999727e+02 -1.204800000000000004e+01 7.442199999999999704e+01 -3.481968000000000174e+00 -3.770294099758023099e-01
2.657799999999999727e+02 -1.774599999999999866e+01 9.755700000000000216e+01 9.393329999999999735e-01 -3.630250738842285552e-01
2.657799999999999727e+02 -1.404100000000000037e+01 7.652400000000000091e+01 -4.259285000000000210e+00 -3.769914829606676454e-01
2.657799999999999727e+02 -1.058000000000000052e+00 7.936299999999999955e+01 1.163021999999999945e-01 -3.838485747252035063e-01
2.657900000000000205e+02 -1.160899999999999999e+01 1.060300000000000011e+02 -7.001595999999999931e-01 -3.631320843155868561e-01
2.657900000000000205e+02 1.032000000000000028e+01 9.878700000000000614e+01 1.361219000000000001e+01 -2.594891311784265353e-01
2.657900000000000205e+02 -1.601699999999999946e+01 9.196899999999999409e+01 -8.187049000000000021e+00 -3.630748984212029962e-01
2.658000000000000114e+02 3.118700000000000028e+00 9.235899999999999466e+01 7.494944000000000273e+00 -3.632857928522967295e-01
2.658100000000000023e+02 -1.248399999999999999e+01 7.494299999999999784e+01 -3.488283000000000023e+00 -3.770221680444396095e-01
2.658199999999999932e+02 -1.399600000000000044e+01 1.042300000000000040e+02 1.013063999999999965e+01 -3.630914241901735395e-01
2.658199999999999932e+02 1.593199999999999894e-01 1.049500000000000028e+02 1.009118999999999922e+01 -3.633220839200588248e-01
2.658299999999999841e+02 -7.046599999999999753e+00 8.464100000000000534e+01 -2.012315999999999860e+01 -3.633173721409935220e-01
2.658299999999999841e+02 1.095699999999999896e+00 7.680599999999999739e+01 5.665287000000000184e+00 -3.837946486697735304e-01
2.658299999999999841e+02 -1.511700000000000088e+01 7.708899999999999864e+01 -2.639387999999999845e+00 -3.769692285076760019e-01
2.658399999999999750e+02 -6.839999999999999858e+00 1.089699999999999989e+02 -1.728548999999999936e+01 -3.632054463943608091e-01
2.658399999999999750e+02 -7.546199999999999575e-01 8.006300000000000239e+01 5.711603000000000208e+00 -3.838063933536607353e-01
2.658399999999999750e+02 1.106199999999999961e-01 8.006300000000000239e+01 6.807036000000000087e+00 -3.837531601750125976e-01
2.658399999999999750e+02 1.816999999999999948e+00 7.994700000000000273e+01 -5.640677000000000163e+00 -3.836549453129875498e-01
2.658500000000000227e+02 1.297700000000000031e+01 9.838400000000000034e+01 -3.330195999999999934e+00 -2.594917848396199878e-01
2.658500000000000227e+02 -1.713400000000000034e+01 9.116400000000000148e+01 8.835652000000000506e-01 -3.630537298704553106e-01
2.658500000000000227e+02 -5.787200000000000344e+00 8.315800000000000125e+01 -7.948254999999999626e+00 -3.633539425221262720e-01
2.658600000000000136e+02 -1.525200000000000067e+01 7.987900000000000489e+01 -7.125257000000000396e+00 -3.769642929915795748e-01
2.658600000000000136e+02 -5.913999999999999702e+00 8.388200000000000500e+01 -1.093744000000000050e+01 -3.633460734044663965e-01
2.658600000000000136e+02 -1.483300000000000018e+01 8.085999999999999943e+01 -2.880218999999999951e+01 -3.769716374525783342e-01
2.658700000000000045e+02 1.430100000000000016e+01 9.179900000000000659e+01 7.294607000000000063e+00 -3.767517201332649668e-01
2.658700000000000045e+02 1.295599999999999952e+01 9.086100000000000421e+01 2.020077000000000123e+00 -3.767458068634454982e-01
2.658799999999999955e+02 -1.731400000000000006e+01 9.395799999999999841e+01 -8.293565000000000520e-01 -3.630396931461712384e-01
2.658899999999999864e+02 -1.611100000000000065e+01 9.305200000000000671e+01 9.354516999999999971e-01 -3.630679196398401976e-01
2.658899999999999864e+02 1.567200000000000060e+01 9.253199999999999648e+01 4.673079999999999679e+00 -3.767564540461458278e-01
2.658999999999999773e+02 1.170600000000000085e+00 8.001500000000000057e+01 -5.651117000000000168e+00 -3.836899929612166971e-01
2.658999999999999773e+02 1.020500000000000007e+01 1.009599999999999937e+02 7.281539000000000428e+00 -2.597020822138309537e-01
2.658999999999999773e+02 1.107000000000000028e+01 1.009599999999999937e+02 2.171653000000000056e-01 -2.597134699192154561e-01
2.658999999999999773e+02 1.384999999999999964e+01 9.832399999999999807e+01 -4.725060000000000038e+00 -2.595011179343442165e-01
2.658999999999999773e+02 -5.907499999999999751e+00 1.087999999999999972e+02 -3.029317999999999955e+01 -3.632199296096579877e-01
2.658999999999999773e+02 -1.360299999999999976e+01 8.168300000000000693e+01 -5.142533000000000243e+01 -3.769961655855474936e-01
2.659100000000000250e+02 9.533300000000000551e+00 1.014899999999999949e+02 8.610997000000000234e-01 -2.597435293807742740e-01
2.659100000000000250e+02 1.880400000000000071e+00 9.190500000000000114e+01 7.343965999999999994e+00 -3.633822884749565718e-01
2.659300000000000068e+02 -1.704899999999999949e+01 8.820900000000000318e+01 -8.662651999999999575e-01 -3.630699837911253725e-01
2.659300000000000068e+02 1.093500000000000050e+01 8.992100000000000648e+01 2.505592000000000041e+00 -3.767384273103197012e-01
2.659300000000000068e+02 8.245499999999999829e+00 1.022300000000000040e+02 -1.194321000000000055e+01 -2.597968867976960250e-01
2.659300000000000068e+02 -1.042399999999999949e+01 8.678700000000000614e+01 -7.391526999999999958e+00 -3.632293013414761296e-01
2.659399999999999977e+02 -1.367800000000000082e+01 7.582299999999999329e+01 -8.368812000000000140e+00 -3.770008377060801719e-01
2.659399999999999977e+02 -1.125300000000000011e+01 7.465200000000000102e+01 -7.469622000000000206e+00 -3.770469839919110555e-01
2.659599999999999795e+02 1.261600000000000055e+00 8.939900000000000091e+01 7.995890000000000164e+00 -3.634324020102840946e-01
2.659599999999999795e+02 1.261600000000000055e+00 9.079900000000000659e+01 4.546782000000000323e+00 -3.634227086314172905e-01
2.659599999999999795e+02 2.126900000000000013e+00 8.939900000000000091e+01 4.327031999999999989e+00 -3.633713134279334955e-01
2.659599999999999795e+02 1.354599999999999937e+01 9.902400000000000091e+01 -3.132873000000000019e+00 -2.595661341944611733e-01
2.659599999999999795e+02 -6.641399999999999970e+00 6.859000000000000341e+01 3.869877999999999929e+00 -1.188301094997692847e-01
2.659599999999999795e+02 1.478299999999999947e+01 9.786799999999999500e+01 -1.310300999999999938e+01 -2.594733938411201146e-01
2.659700000000000273e+02 1.206700000000000017e+01 9.068000000000000682e+01 2.131860999999999895e-01 -3.767440465255514903e-01
2.659700000000000273e+02 -1.046899999999999942e+01 8.100700000000000500e+01 -1.296823999999999977e+01 -3.770590620167833529e-01
2.659700000000000273e+02 -1.842399999999999949e+01 8.912999999999999545e+01 -1.932490000000000041e+00 -3.630342739985905620e-01
2.659700000000000273e+02 -1.842399999999999949e+01 9.018000000000000682e+01 -7.517852000000000423e-01 -3.630292035765087522e-01
2.659700000000000273e+02 1.576999999999999957e+00 9.120499999999999829e+01 8.105681999999999832e+00 -3.634085713773066439e-01
2.659700000000000273e+02 -1.071499999999999986e+01 7.464600000000000080e+01 -1.156296000000000035e+01 -3.770571897889303248e-01
2.659900000000000091e+02 -1.735900000000000176e+01 1.003299999999999983e+02 5.355354000000000170e+00 -3.630293407466748112e-01
2.659900000000000091e+02 -1.735900000000000176e+01 1.028299999999999983e+02 2.241433999999999926e-01 -3.630304914993519594e-01
2.659900000000000091e+02 1.092200000000000060e+01 8.892900000000000205e+01 -1.022108000000000017e+00 -3.767340855883530848e-01
2.659900000000000091e+02 -1.193699999999999939e+01 8.820900000000000318e+01 -7.489677999999999614e-01 -3.631855077370206297e-01
2.659900000000000091e+02 -1.488700000000000045e+01 8.743200000000000216e+01 4.711337000000000330e+00 -3.631233941721512815e-01
2.659900000000000091e+02 -1.333699999999999974e+01 8.743200000000000216e+01 3.215659000000000045e+00 -3.631588757526027500e-01
2.659900000000000091e+02 -1.024399999999999977e+01 1.065100000000000051e+02 5.813315000000000232e+00 -3.631541412145203873e-01
2.659900000000000091e+02 -1.072700000000000031e+01 8.748699999999999477e+01 -4.632545000000000357e+00 -3.632176134949743895e-01
2.660000000000000000e+02 6.559400000000000119e+00 8.641599999999999682e+01 -7.318711000000000411e+00 -3.767119971513630539e-01
2.660000000000000000e+02 1.105599999999999916e+01 9.878700000000000614e+01 9.519087999999999994e+00 -2.595065766881045066e-01
2.660000000000000000e+02 -4.288299999999999557e+00 6.980599999999999739e+01 -1.830957000000000079e+01 -1.051005189195618750e-01
2.660099999999999909e+02 1.235200000000000031e+01 9.802800000000000580e+01 -1.998061000000000087e+00 -2.594512422866245283e-01
2.660099999999999909e+02 1.246000000000000085e+01 1.017900000000000063e+02 -5.589323000000000263e+00 -2.598118651109462274e-01
2.660099999999999909e+02 -1.313899999999999935e+01 1.044899999999999949e+02 7.039362999999999815e+00 -3.631055915808886203e-01
2.660099999999999909e+02 9.582500000000000462e-01 9.009900000000000375e+01 1.115737999999999985e+01 -3.634233894044874846e-01
2.660099999999999909e+02 -1.854799999999999827e+01 9.504699999999999704e+01 3.452827999999999786e+00 -3.630106828978835742e-01
2.660099999999999909e+02 -1.854799999999999827e+01 9.609699999999999420e+01 2.626238000000000183e-01 -3.630089820043121973e-01
2.660199999999999818e+02 -5.641600000000000392e+00 6.878199999999999648e+01 -5.700429999999999886e+00 -1.191971760063480767e-01
2.660199999999999818e+02 -1.266099999999999959e+01 6.935699999999999932e+01 7.640323000000000420e+00 -1.159775840315225570e-01
2.660199999999999818e+02 -1.231600000000000072e+01 6.857399999999999807e+01 1.742326000000000041e+00 -1.163711179685336106e-01
2.660199999999999818e+02 -1.086999999999999922e+01 6.776800000000000068e+01 9.132846999999999937e+00 -1.172545616911869759e-01
2.660199999999999818e+02 3.982299999999999951e+00 8.090099999999999625e+01 -3.464175000000000004e+00 -3.969537086007975391e-01
2.660299999999999727e+02 4.826999999999999957e+00 1.053799999999999955e+02 -1.376844000000000001e+01 -2.597605239058087268e-01
2.660299999999999727e+02 -4.423300000000000010e-01 7.703199999999999648e+01 4.523805000000000298e+00 -3.838817118265856476e-01
2.660299999999999727e+02 -5.681600000000000428e+00 8.231799999999999784e+01 -7.680225000000000080e+00 -3.633635640542368095e-01
2.660400000000000205e+02 5.052200000000000024e+00 8.946500000000000341e+01 5.289414999999999978e+00 -3.632268123994232267e-01
2.660400000000000205e+02 5.052200000000000024e+00 9.086499999999999488e+01 3.355285999999999991e+00 -3.632120540437334122e-01
2.660400000000000205e+02 9.118999999999999773e+00 8.728499999999999659e+01 1.807117000000000084e+00 -3.767225938212318548e-01
2.660400000000000205e+02 1.056499999999999950e+01 8.809099999999999397e+01 -4.083653999999999895e-01 -3.767295937030500363e-01
2.660500000000000114e+02 -1.539499999999999957e+01 1.032999999999999972e+02 5.623939000000000021e+00 -3.630652821225662796e-01
2.660500000000000114e+02 1.383500000000000085e+01 9.981799999999999784e+01 1.494539000000000062e+00 -2.596490976806065110e-01
2.660500000000000114e+02 1.383500000000000085e+01 1.008700000000000045e+02 -5.281219000000000108e+00 -2.597469888676006144e-01
2.660500000000000114e+02 6.185999999999999943e+00 1.046500000000000057e+02 8.509809999999999874e+00 -2.599941538822290732e-01
2.660600000000000023e+02 3.646599999999999842e+00 8.326399999999999579e+01 1.395841000000000065e+01 -3.969608804551705283e-01
2.660699999999999932e+02 -1.430799999999999983e+01 1.037900000000000063e+02 -1.500289999999999957e-01 -3.630846817515114289e-01
2.660699999999999932e+02 -1.344200000000000017e+01 1.037900000000000063e+02 5.056475999999999971e+00 -3.631002069672056853e-01
2.660699999999999932e+02 9.168699999999999406e+00 1.021899999999999977e+02 -1.312720000000000020e+01 -2.598103038672319731e-01
2.660699999999999932e+02 1.690800000000000125e+01 9.344199999999999307e+01 1.042054000000000080e+01 -3.767621243509852169e-01
2.660699999999999932e+02 1.716199999999999903e+01 9.433599999999999852e+01 3.629449999999999932e+01 -3.767656245486059596e-01
2.660699999999999932e+02 2.782000000000000028e+00 8.966800000000000637e+01 3.448071999999999804e-01 -3.969703610606788446e-01
