1.457399999999999984e+01 1.219500000000000028e+01 1.407499999999999929e+01 -1.957003999999999966e+00 -2.580750159817533640e-01
1.458200000000000074e+01 1.258999999999999986e+01 1.282099999999999973e+01 -1.955295000000000005e+00 -2.581217244211199691e-01
1.463199999999999967e+01 1.094699999999999918e+01 1.322400000000000020e+01 -1.030021999999999949e+01 -2.581738377921291572e-01
1.464000000000000057e+01 1.391699999999999982e+01 1.375099999999999945e+01 1.507084000000000046e+01 -2.580274715568912081e-01
1.465700000000000003e+01 1.512599999999999945e+01 1.438899999999999935e+01 1.896057000000000059e+01 -1.517150925844613640e-01
1.469699999999999918e+01 1.128299999999999947e+01 1.244899999999999984e+01 -2.513968999999999898e+00 -2.582009860934165180e-01
1.469699999999999918e+01 1.128299999999999947e+01 1.399900000000000055e+01 -1.002161000000000080e+01 -2.581305130679489301e-01
1.469699999999999918e+01 1.224099999999999966e+01 1.244899999999999984e+01 -4.543174999999999741e+00 -2.581639853506439986e-01
1.471100000000000030e+01 1.249799999999999933e+01 1.460100000000000087e+01 -2.557907000000000153e+00 -2.580492613672972779e-01
1.471100000000000030e+01 1.354800000000000004e+01 1.290099999999999980e+01 -1.744409000000000098e+00 -2.580936150998117684e-01
1.471100000000000030e+01 1.354800000000000004e+01 1.460100000000000087e+01 1.507423999999999964e+01 -2.580037374003538719e-01
1.476299999999999990e+01 1.676800000000000068e+01 1.435599999999999987e+01 1.352743000000000073e+01 -1.518619052262389080e-01
1.481199999999999939e+01 1.436800000000000033e+01 1.455700000000000038e+01 1.928201999999999927e+01 -2.579826421484835430e-01
1.482799999999999940e+01 1.547400000000000020e+01 1.358099999999999952e+01 1.122429999999999950e+01 -1.518576050474983452e-01
1.482799999999999940e+01 1.547400000000000020e+01 1.513100000000000023e+01 1.703049000000000035e+01 -1.515542310112343860e-01
1.482799999999999940e+01 1.643199999999999861e+01 1.358099999999999952e+01 1.064875999999999934e+01 -1.519544556663516288e-01
1.482799999999999940e+01 1.643199999999999861e+01 1.513100000000000023e+01 2.853028000000000119e+01 -1.516530478204918819e-01
1.484900000000000020e+01 1.465300000000000047e+01 1.375099999999999945e+01 1.249799999999999933e+01 -1.517450896388530812e-01
1.507000000000000028e+01 1.170800000000000018e+01 1.461599999999999966e+01 -3.101106999999999836e+00 -2.581213585763852958e-01
1.508399999999999963e+01 1.469800000000000040e+01 1.519500000000000028e+01 1.067862000000000045e+01 -2.579622875708466045e-01
1.513599999999999923e+01 1.176200000000000045e+01 1.190499999999999936e+01 -2.362807000000000102e+00 -2.582478783326741523e-01
1.516000000000000014e+01 1.444899999999999984e+01 1.303800000000000026e+01 2.663256000000000068e+00 -1.517846800180429057e-01
1.517600000000000016e+01 1.050799999999999912e+01 1.274499999999999922e+01 -5.196809000000000012e+00 -2.582646812440979045e-01
1.517600000000000016e+01 1.050799999999999912e+01 1.370299999999999940e+01 -1.024788999999999994e+01 -2.582250687563859559e-01
1.519200000000000017e+01 1.302299999999999969e+01 1.519699999999999918e+01 4.951419999999999710e+00 -2.580472047856424700e-01
1.526699999999999946e+01 1.595299999999999940e+01 1.303700000000000081e+01 1.688898999999999972e+01 -1.518952899203628581e-01
1.526699999999999946e+01 1.595299999999999940e+01 1.567500000000000071e+01 5.525815000000000055e+01 -1.513642643718234038e-01
1.530700000000000038e+01 1.720700000000000074e+01 1.387700000000000067e+01 1.054363999999999990e+01 -1.518583717883505990e-01
1.530700000000000038e+01 1.720700000000000074e+01 1.483500000000000085e+01 3.167285000000000039e+01 -1.516672572870201852e-01
1.547199999999999953e+01 1.098700000000000010e+01 1.447799999999999976e+01 -1.920342000000000127e+01 -2.582018613965951226e-01
1.547199999999999953e+01 1.253700000000000081e+01 1.197000000000000064e+01 -2.921536999999999829e+00 -2.582491257644962124e-01
1.547700000000000031e+01 1.382900000000000063e+01 1.523399999999999999e+01 2.485136999999999929e+01 -2.580420624331857260e-01
1.550399999999999956e+01 1.681299999999999883e+01 1.567200000000000060e+01 2.484969999999999857e+01 -1.513887193291328648e-01
1.553800000000000026e+01 1.518599999999999994e+01 1.300200000000000067e+01 1.522256999999999927e+01 -1.517639300301032168e-01
1.556099999999999994e+01 1.217300000000000004e+01 1.512599999999999945e+01 -3.083397999999999861e+00 -2.581297165670597971e-01
1.556099999999999994e+01 1.387299999999999933e+01 1.237599999999999945e+01 -1.219230999999999954e+00 -2.581922910636904045e-01
1.560299999999999976e+01 1.672800000000000153e+01 1.310200000000000031e+01 6.343347999999999764e+00 -1.518784777268745445e-01
1.565099999999999980e+01 1.074600000000000044e+01 1.188400000000000034e+01 -2.252477999999999980e+00 -2.583347283877669986e-01
1.565600000000000058e+01 1.501200000000000045e+01 1.576800000000000068e+01 1.169311000000000078e+01 -2.579823520749818799e-01
1.587400000000000055e+01 1.426099999999999923e+01 1.572499999999999964e+01 1.713965999999999923e+01 -2.580432637512866112e-01
1.588100000000000023e+01 1.176200000000000045e+01 1.157699999999999996e+01 -6.370104999999999684e+00 -2.583319161144891907e-01
1.589600000000000080e+01 1.618299999999999983e+01 1.630699999999999861e+01 3.310345000000000226e+01 -1.615186207755325287e-01
1.589700000000000024e+01 4.838799999999999812e+01 3.954299999999999926e+01 2.407824999999999882e+00 -3.768799144208591634e-01
1.589700000000000024e+01 1.036999999999999922e+01 1.410500000000000043e+01 -1.032206000000000046e+01 -2.582883328878483042e-01
1.590399999999999991e+01 1.168699999999999939e+01 1.489700000000000024e+01 -2.536625000000000085e+01 -2.581996753010278312e-01
1.601200000000000045e+01 1.618299999999999983e+01 1.782199999999999918e+01 6.207137999999999600e+00 -1.613033325518387628e-01
1.601500000000000057e+01 1.736499999999999844e+01 1.520299999999999940e+01 5.042224000000000217e+01 -1.514107695214952087e-01
1.603500000000000014e+01 1.447799999999999976e+01 1.268299999999999983e+01 4.715508999999999951e+00 -2.582053923563969455e-01
1.605099999999999838e+01 1.319100000000000072e+01 1.544299999999999962e+01 6.960575000000000401e+00 -2.581253105142387039e-01
1.605300000000000082e+01 1.544500000000000028e+01 1.625900000000000034e+01 1.537068000000000012e+01 -2.579839002149918459e-01
1.608200000000000074e+01 1.001999999999999957e+01 1.331900000000000084e+01 -3.546183999999999781e+00 -2.583512737586154961e-01
1.608200000000000074e+01 1.595299999999999940e+01 1.280599999999999916e+01 3.122113000000000138e+00 -1.517409730689595615e-01
1.608200000000000074e+01 1.727199999999999847e+01 1.354100000000000037e+01 4.081235000000000213e+01 -1.517312044748396760e-01
1.608200000000000074e+01 1.750300000000000011e+01 1.435599999999999987e+01 1.043566000000000003e+02 -1.515905368816020116e-01
1.609199999999999875e+01 4.784899999999999665e+01 3.870400000000000063e+01 -5.620399999999999840e-01 -3.767981292667663684e-01
1.609799999999999898e+01 1.300699999999999967e+01 1.183500000000000085e+01 -2.872501999999999889e+00 -2.582995401047663564e-01
1.615099999999999980e+01 4.749399999999999977e+01 3.954299999999999926e+01 2.108054000000000094e+00 -3.768012304689497549e-01
1.615099999999999980e+01 4.928199999999999648e+01 3.954299999999999926e+01 -3.639599999999999780e-02 -3.768469837817930435e-01
1.619600000000000151e+01 1.562700000000000067e+01 1.701200000000000045e+01 1.071970999999999918e+01 -2.579496042198748951e-01
1.619600000000000151e+01 1.673900000000000077e+01 1.701200000000000045e+01 1.055654000000000003e+01 -1.613648114303056214e-01
1.622200000000000131e+01 4.786299999999999955e+01 4.039300000000000068e+01 1.465907999999999989e+00 -3.768284262496798265e-01
1.622200000000000131e+01 4.891299999999999670e+01 3.869299999999999784e+01 -6.729619000000000018e-01 -3.767990444702075115e-01
1.622200000000000131e+01 4.891299999999999670e+01 4.039300000000000068e+01 1.346142999999999923e-01 -3.768593710359259275e-01
1.624399999999999977e+01 1.132699999999999996e+01 1.139600000000000080e+01 -2.453657999999999895e+00 -2.583883458898209584e-01
1.624899999999999878e+01 4.632800000000000296e+01 3.769100000000000250e+01 -3.777507999999999977e-01 -3.767109575450222625e-01
1.626599999999999824e+01 1.528899999999999970e+01 1.782199999999999918e+01 2.024948000000000192e+00 -2.579256306110190300e-01
1.626599999999999824e+01 1.707700000000000173e+01 1.782199999999999918e+01 3.032824999999999882e+00 -1.612194842629337543e-01
1.628800000000000026e+01 9.951700000000000657e+00 1.231700000000000017e+01 1.315850000000000075e-01 -2.584094915414604787e-01
1.632600000000000051e+01 1.723400000000000176e+01 1.629400000000000048e+01 2.445638999999999896e+01 -1.614252944240683607e-01
1.633699999999999974e+01 1.565799999999999947e+01 1.867200000000000060e+01 5.628645999999999816e+00 -2.578637346843162259e-01
1.633699999999999974e+01 1.670799999999999841e+01 1.867200000000000060e+01 1.028853999999999935e+01 -1.611131293801353337e-01
1.633899999999999864e+01 1.517800000000000082e+01 1.274099999999999966e+01 3.596175000000000122e+00 -1.619806200606862256e-01
1.638400000000000034e+01 1.091099999999999959e+01 1.460100000000000087e+01 -1.065995000000000026e+01 -2.582980800328107396e-01
1.638700000000000045e+01 4.720799999999999841e+01 3.763799999999999812e+01 6.071853000000000389e-01 -3.767132110190422045e-01
1.640099999999999980e+01 4.683200000000000074e+01 3.850600000000000023e+01 3.300899999999999945e+00 -3.767116695596953724e-01
1.644800000000000040e+01 1.405899999999999928e+01 1.570299999999999940e+01 1.575999000000000017e+01 -2.581221715660064198e-01
1.646300000000000097e+01 1.346299999999999919e+01 1.186200000000000010e+01 -2.138023000000000007e+00 -2.583193746830146353e-01
1.649800000000000111e+01 4.696300000000000097e+01 3.943500000000000227e+01 4.883795000000000108e+00 -3.767109191634145926e-01
1.650300000000000011e+01 4.543399999999999750e+01 3.769100000000000250e+01 5.988105000000000233e-01 -2.725207423810956930e-01
1.652599999999999980e+01 4.813300000000000267e+01 3.784400000000000119e+01 -1.055862999999999996e+00 -3.767162801570256847e-01
1.656099999999999994e+01 1.672800000000000153e+01 1.310200000000000031e+01 2.645532000000000039e+01 -1.516430946117802159e-01
1.657400000000000162e+01 4.580299999999999727e+01 3.684100000000000108e+01 -1.995851999999999904e-01 -2.723273607743467162e-01
1.657400000000000162e+01 4.580299999999999727e+01 3.854099999999999682e+01 2.581716000000000122e+00 -2.714741663288753326e-01
1.657400000000000162e+01 4.685300000000000153e+01 3.684100000000000108e+01 -1.301192999999999933e-01 -3.766724032522049126e-01
1.661299999999999955e+01 1.047700000000000031e+01 1.146700000000000053e+01 -1.859695000000000098e+00 -2.584502887021727924e-01
1.661299999999999955e+01 1.217699999999999960e+01 1.146700000000000053e+01 -2.534199000000000090e+00 -2.583924008860211119e-01
1.667299999999999827e+01 1.036899999999999977e+01 1.430199999999999960e+01 -1.014218999999999937e+01 -2.583632505601888285e-01
1.669300000000000139e+01 1.771399999999999864e+01 1.546199999999999974e+01 2.404298999999999964e+01 -1.512041309926485666e-01
1.669399999999999906e+01 1.618299999999999983e+01 1.929799999999999827e+01 2.783389000000000113e+00 -2.578485142734328606e-01
1.669600000000000151e+01 1.407499999999999929e+01 1.227500000000000036e+01 -1.977602000000000082e+00 -2.583058015093342985e-01
1.670299999999999940e+01 4.838799999999999812e+01 4.098899999999999721e+01 2.128150999999999904e+00 -3.767449712065125134e-01
1.671900000000000119e+01 1.758500000000000085e+01 1.837999999999999901e+01 4.079667999999999850e+00 -1.610645252720518394e-01
1.672700000000000031e+01 1.759799999999999898e+01 1.732400000000000162e+01 3.293635999999999786e+00 -1.612263599952625526e-01
1.674699999999999989e+01 4.701299999999999812e+01 4.006799999999999784e+01 4.118651999999999980e+00 -3.766682960694442417e-01
1.674699999999999989e+01 4.976299999999999812e+01 3.901800000000000068e+01 7.138858000000000148e-01 -3.767267087854493934e-01
1.674699999999999989e+01 4.976299999999999812e+01 4.006799999999999784e+01 3.531789999999999985e+00 -3.767448610542263321e-01
1.675199999999999889e+01 1.335899999999999999e+01 1.564400000000000013e+01 7.527637000000000356e+00 -2.581917341278830436e-01
1.678200000000000003e+01 1.765800000000000125e+01 1.398199999999999932e+01 1.424962999999999980e+01 -1.515046641603780553e-01
1.678200000000000003e+01 1.776999999999999957e+01 1.478899999999999970e+01 4.079469999999999885e+01 -1.513407001238785132e-01
1.678300000000000125e+01 1.471199999999999974e+01 1.733899999999999864e+01 3.563290999999999986e+00 -2.580509046568643106e-01
1.678500000000000014e+01 1.539700000000000024e+01 1.280400000000000027e+01 3.596175000000000122e+00 -1.619391609051276937e-01
1.678900000000000148e+01 1.229599999999999937e+01 1.515399999999999991e+01 -4.295295999999999559e+00 -2.582627625809455485e-01
1.680600000000000094e+01 1.445800000000000018e+01 1.649200000000000088e+01 9.895732000000000639e+00 -2.581097741008843705e-01
1.684799999999999898e+01 4.761299999999999955e+01 3.700300000000000011e+01 -1.472048000000000023e+00 -3.766532430924407482e-01
1.685000000000000142e+01 4.906799999999999784e+01 3.787800000000000011e+01 -6.403265000000000207e+00 -3.766854211782758588e-01
1.686199999999999832e+01 1.480799999999999983e+01 1.834700000000000131e+01 5.988216000000000427e+00 -2.580016184625886222e-01
1.692899999999999849e+01 1.601999999999999957e+01 1.294400000000000084e+01 5.716649000000000314e+00 -1.618834844223014380e-01
1.693100000000000094e+01 4.626299999999999812e+01 3.916700000000000159e+01 1.100311999999999912e+01 -2.707583087611863393e-01
1.694300000000000139e+01 4.744500000000000028e+01 4.095400000000000063e+01 5.545355999999999952e+00 -3.766452818173639527e-01
1.694800000000000040e+01 4.493800000000000239e+01 3.831000000000000227e+01 2.460325000000000095e+00 -2.741500419720573900e-01
1.697200000000000131e+01 1.776899999999999835e+01 1.670499999999999829e+01 1.076440000000000019e+01 -1.612920406339844459e-01
1.698000000000000043e+01 1.817299999999999827e+01 1.875199999999999889e+01 4.687299000000000326e+00 -1.609439413858839707e-01
1.698100000000000165e+01 4.860199999999999676e+01 3.708500000000000085e+01 -2.758483000000000018e+00 -3.766544214941445201e-01
1.698799999999999955e+01 1.732400000000000162e+01 1.344200000000000017e+01 7.085427000000000142e+00 -1.515307856887699034e-01
1.700900000000000034e+01 4.531400000000000006e+01 3.887299999999999756e+01 3.558171000000000195e+00 -2.732887622072266987e-01
1.701200000000000045e+01 1.753399999999999892e+01 1.908899999999999864e+01 6.977275999999999812e+00 -1.609315000115097705e-01
1.702199999999999847e+01 1.290799999999999947e+01 1.556700000000000017e+01 1.978766999999999943e+00 -2.582469539748978304e-01
1.704299999999999926e+01 4.753499999999999659e+01 4.343599999999999994e+01 4.414366000000000123e-01 -3.766297546326372037e-01
1.705499999999999972e+01 4.632800000000000296e+01 3.624499999999999744e+01 1.119407999999999931e-01 -2.724309346742830318e-01
1.707199999999999918e+01 4.923799999999999955e+01 4.091799999999999926e+01 3.958721999999999852e+00 -3.766714108199371580e-01
1.709900000000000020e+01 4.495300000000000296e+01 3.716599999999999682e+01 3.010922999999999794e-01 -2.745576382906642632e-01
1.710000000000000142e+01 4.795499999999999829e+01 4.147999999999999687e+01 3.439750000000000085e+00 -3.766264881331015113e-01
1.712600000000000122e+01 1.134299999999999997e+01 1.475799999999999912e+01 -1.299135000000000062e+01 -2.583566272034049649e-01
1.713800000000000168e+01 9.627000000000000668e+00 1.284200000000000053e+01 3.470539000000000041e+00 -2.584887062794071766e-01
1.713800000000000168e+01 9.880900000000000460e+00 1.194800000000000040e+01 2.024119999999999919e+00 -2.585064264748471730e-01
1.713800000000000168e+01 9.880900000000000460e+00 1.373600000000000065e+01 1.419394000000000045e+00 -2.584514156701062659e-01
1.713800000000000168e+01 1.132699999999999996e+01 1.114199999999999946e+01 -1.412738000000000049e+00 -2.584824652862124372e-01
1.713800000000000168e+01 1.295700000000000074e+01 1.160500000000000043e+01 -3.566549999999999887e+00 -2.584136411624016194e-01
1.715800000000000125e+01 4.765200000000000102e+01 4.217999999999999972e+01 5.206231000000000053e-01 -3.765937775438591983e-01
1.717899999999999849e+01 1.609700000000000131e+01 1.983299999999999841e+01 1.554974999999999996e+00 -2.578938285559352339e-01
1.717899999999999849e+01 1.714699999999999847e+01 1.983299999999999841e+01 3.254605999999999888e+00 -1.608254231231293074e-01
1.717999999999999972e+01 4.631300000000000239e+01 3.980100000000000193e+01 7.300303999999999682e+00 -2.706913066109506438e-01
1.721799999999999997e+01 1.469699999999999918e+01 1.253599999999999959e+01 7.881863000000000063e+00 -2.583297253733262133e-01
1.725900000000000034e+01 1.860000000000000142e+01 1.789300000000000068e+01 1.498050000000000104e+00 -1.610391311073899323e-01
1.727599999999999980e+01 1.820599999999999952e+01 1.719600000000000151e+01 3.033771999999999913e+00 -1.611723968390072204e-01
1.727599999999999980e+01 4.488100000000000023e+01 3.957300000000000040e+01 4.063113000000000419e+00 -2.747670970303697779e-01
1.727899999999999991e+01 1.764900000000000091e+01 1.962500000000000000e+01 1.983757999999999910e+00 -1.608120118842979174e-01
1.729700000000000060e+01 4.664099999999999824e+01 4.343599999999999994e+01 2.788577999999999890e-01 -3.764425378615206541e-01
1.729700000000000060e+01 4.842900000000000205e+01 4.343599999999999994e+01 4.813131999999999966e-01 -3.765775899786124592e-01
1.733299999999999841e+01 1.825900000000000034e+01 1.450200000000000067e+01 1.886357000000000061e+00 -1.513168866377306299e-01
1.733699999999999974e+01 1.897599999999999909e+01 1.869500000000000028e+01 3.427763999999999811e+00 -1.608759077728328102e-01
1.736199999999999832e+01 1.671999999999999886e+01 1.321100000000000030e+01 1.844296999999999898e+01 -1.617954545208338257e-01
1.736799999999999855e+01 4.700999999999999801e+01 4.258599999999999852e+01 2.537388999999999895e-01 -3.764775109533459729e-01
1.736799999999999855e+01 4.700999999999999801e+01 4.428600000000000136e+01 7.265428000000000441e-01 -3.764058531039410904e-01
1.736799999999999855e+01 4.806000000000000227e+01 4.428600000000000136e+01 -1.831629999999999925e-01 -3.765095164631946378e-01
1.738500000000000156e+01 4.876100000000000279e+01 4.151700000000000301e+01 7.870852000000000182e+00 -3.765754488909978659e-01
1.739300000000000068e+01 4.713799999999999812e+01 3.617499999999999716e+01 6.827054000000000178e-01 -3.765793143153490230e-01
1.740599999999999881e+01 1.795899999999999963e+01 1.369500000000000028e+01 4.717756999999999756e+00 -1.514427259642887325e-01
1.740800000000000125e+01 1.860699999999999932e+01 1.954500000000000171e+01 1.123104999999999976e+01 -1.607445949320149003e-01
1.741100000000000136e+01 4.668699999999999761e+01 4.066499999999999915e+01 4.625066999999999595e+00 -3.765015308148013107e-01
1.742399999999999949e+01 4.547800000000000153e+01 3.631600000000000250e+01 5.085946999999999552e-01 -2.742699861703700726e-01
1.742599999999999838e+01 4.731300000000000239e+01 4.188600000000000279e+01 7.803860000000000241e+00 -3.764968624292174271e-01
1.742999999999999972e+01 1.409399999999999942e+01 1.628200000000000003e+01 9.562962999999999880e+00 -2.582158437293561315e-01
1.744300000000000139e+01 4.845799999999999841e+01 4.221699999999999875e+01 7.727185000000000414e+00 -3.765387498912539099e-01
1.744699999999999918e+01 4.588000000000000256e+01 4.050099999999999767e+01 3.338276000000000021e+00 -2.720297200573694174e-01
1.744999999999999929e+01 4.534899999999999665e+01 4.044500000000000028e+01 5.337553999999999910e+00 -2.736611500621299320e-01
1.746000000000000085e+01 2.549299999999999855e+01 3.591799999999999926e+01 -1.109581000000000017e+01 -1.531760210079978202e-01
1.746600000000000108e+01 1.337599999999999945e+01 1.182900000000000063e+01 -2.581501999999999963e+00 -2.584254447538222865e-01
1.746900000000000119e+01 4.699099999999999966e+01 4.136500000000000199e+01 6.684783000000000364e+00 -3.764827776947614613e-01
1.749099999999999966e+01 4.804599999999999937e+01 3.645400000000000063e+01 -3.123098999999999847e+00 -3.765817620735437132e-01
1.751399999999999935e+01 3.651200000000000045e+01 4.815200000000000102e+01 1.010881000000000002e-01 -1.817834534875187036e-01
1.751800000000000068e+01 4.423199999999999932e+01 3.872699999999999676e+01 6.452617000000000491e-01 -2.768513579566841409e-01
1.753000000000000114e+01 4.398700000000000188e+01 3.957300000000000040e+01 6.496628000000000291e+00 -2.776976973719395558e-01
1.753200000000000003e+01 4.441499999999999915e+01 3.789399999999999835e+01 3.082927000000000195e+00 -2.763413984536256529e-01
1.753699999999999903e+01 4.950200000000000244e+01 3.742900000000000205e+01 -7.585988999999999649e+00 -3.765937852279251929e-01
1.755300000000000082e+01 1.523199999999999932e+01 1.960200000000000031e+01 2.276095999999999897e+00 -2.580127331333325058e-01
1.756200000000000117e+01 1.442500000000000071e+01 1.885099999999999909e+01 1.888333999999999957e+00 -2.580958790326058905e-01
1.756500000000000128e+01 1.863400000000000034e+01 1.630999999999999872e+01 5.321505000000000152e+00 -1.612675563324712791e-01
1.756599999999999895e+01 4.460600000000000165e+01 3.721000000000000085e+01 6.623236000000000123e-01 -2.759535380626980117e-01
1.757000000000000028e+01 4.994200000000000017e+01 3.855599999999999739e+01 -1.760855000000000059e+00 -3.626560515494871018e-01
1.758399999999999963e+01 1.344699999999999918e+01 1.553800000000000026e+01 6.701016000000000084e+00 -2.582941973785052303e-01
1.758599999999999852e+01 1.160399999999999920e+01 1.481700000000000017e+01 -6.639539000000000080e+00 -2.583964756762124892e-01
1.759700000000000131e+01 4.983400000000000318e+01 4.043699999999999761e+01 1.104892000000000074e+01 -3.624942786952906615e-01
1.759700000000000131e+01 5.008800000000000097e+01 3.954299999999999926e+01 3.246737000000000251e+01 -3.625349171235168755e-01
1.759700000000000131e+01 1.436700000000000088e+01 1.688599999999999923e+01 1.683123000000000147e+01 -2.581984434054546140e-01
1.760099999999999909e+01 4.435600000000000165e+01 4.042300000000000182e+01 4.556631000000000320e+00 -2.770930721921410766e-01
1.760500000000000043e+01 1.544100000000000072e+01 1.270299999999999940e+01 1.133332000000000050e+01 -1.619095724086593857e-01
1.762099999999999866e+01 1.898900000000000077e+01 1.719600000000000151e+01 4.587438999999999822e+00 -1.611072623957031380e-01
1.762399999999999878e+01 4.628999999999999915e+01 4.231400000000000006e+01 4.556813000000000113e-01 -2.692756803926011355e-01
1.763500000000000156e+01 4.657699999999999818e+01 4.188600000000000279e+01 1.216008999999999896e+00 -2.688709432920294295e-01
1.763899999999999935e+01 1.447100000000000009e+01 1.767599999999999838e+01 7.152122000000000313e+00 -2.581624962359088116e-01
1.765599999999999881e+01 4.596600000000000108e+01 4.308200000000000074e+01 1.238815000000000055e-01 -2.696239164800969257e-01
1.766000000000000014e+01 1.662199999999999989e+01 2.042899999999999849e+01 7.950079999999999814e+00 -2.579070092850782592e-01
1.766100000000000136e+01 3.167899999999999849e+01 9.150000000000000355e+00 -2.755461000000000160e-01 -1.829651402735711641e-01
1.766300000000000026e+01 1.047700000000000031e+01 1.146700000000000053e+01 -8.211355999999999655e-01 -2.585513339089985929e-01
1.766300000000000026e+01 1.047700000000000031e+01 1.421700000000000053e+01 8.475055000000000227e-01 -2.584696012672794696e-01
1.767699999999999960e+01 1.216600000000000037e+01 1.133699999999999974e+01 -1.667564999999999964e+00 -2.585019248368821687e-01
1.767800000000000082e+01 4.625500000000000256e+01 4.136500000000000199e+01 1.761884999999999923e+00 -2.707888035149710326e-01
1.768700000000000117e+01 2.469399999999999906e+01 3.591799999999999926e+01 -3.623177999999999788e+00 -1.531309543969821829e-01
1.768700000000000117e+01 2.629200000000000159e+01 3.591799999999999926e+01 -4.717432999999999765e+00 -1.530889331635902351e-01
1.772200000000000131e+01 4.475600000000000023e+01 4.231400000000000006e+01 -1.393459000000000003e+00 -2.761782904425661433e-01
1.773900000000000077e+01 4.488100000000000023e+01 4.120300000000000296e+01 2.337025999999999826e+00 -2.758577969967331289e-01
1.775000000000000000e+01 2.502299999999999969e+01 3.515800000000000125e+01 -3.410480999999999874e+00 -1.537691011850516876e-01
1.775000000000000000e+01 2.502299999999999969e+01 3.667799999999999727e+01 -4.462721000000000160e+00 -1.522811398570657615e-01
1.775000000000000000e+01 2.596300000000000097e+01 3.515800000000000125e+01 -3.618250999999999884e+00 -1.537535023072801876e-01
1.775000000000000000e+01 2.596300000000000097e+01 3.667799999999999727e+01 -9.715436999999999657e+00 -1.522419093404569490e-01
1.776800000000000068e+01 3.561800000000000210e+01 4.815200000000000102e+01 1.965213000000000099e-01 -1.470415541041261709e-01
1.776800000000000068e+01 3.740599999999999881e+01 4.815200000000000102e+01 1.738782999999999967e+00 -8.330343620519278791e-02
1.777700000000000102e+01 4.582900000000000063e+01 4.175399999999999778e+01 6.692428000000000266e-01 -2.722822325844001523e-01
1.779500000000000171e+01 1.601999999999999957e+01 1.294400000000000084e+01 9.138393000000000654e+00 -1.618426505180872721e-01
1.783299999999999841e+01 4.555400000000000205e+01 4.231400000000000006e+01 -4.003991000000000078e-01 -2.731558386665580151e-01
1.783899999999999864e+01 3.598700000000000188e+01 4.730199999999999960e+01 3.485370999999999886e-01 -1.611934672811892455e-01
1.783899999999999864e+01 3.598700000000000188e+01 4.900200000000000244e+01 1.473141000000000034e-01 -1.571510664299757554e-01
1.783899999999999864e+01 3.703699999999999903e+01 4.730199999999999960e+01 2.743805999999999745e-01 -1.848450209335648353e-01
1.783899999999999864e+01 3.703699999999999903e+01 4.900200000000000244e+01 1.573029000000000011e+00 -7.006693563569825478e-02
1.784900000000000020e+01 4.753499999999999659e+01 4.488199999999999790e+01 8.348339000000000176e-01 -3.761658505697685895e-01
1.786100000000000065e+01 1.870700000000000074e+01 1.510699999999999932e+01 1.336905999999999928e+00 -1.510898753929792726e-01
1.786700000000000088e+01 1.422000000000000064e+01 1.215199999999999925e+01 -6.200911999999999535e-01 -2.584291407780931471e-01
1.786799999999999855e+01 4.635699999999999932e+01 3.588100000000000023e+01 3.301274999999999959e+00 -2.736193167176343422e-01
1.787800000000000011e+01 4.521000000000000085e+01 4.311500000000000199e+01 -1.478907999999999889e+00 -2.744021270830375725e-01
1.788100000000000023e+01 4.894599999999999795e+01 3.652900000000000347e+01 -2.173188999999999815e+00 -3.765496072470323474e-01
1.788200000000000145e+01 1.806700000000000017e+01 9.103999999999999204e+00 -3.837692000000000103e+00 -1.522185735906801951e-01
1.788400000000000034e+01 4.485199999999999676e+01 3.667300000000000182e+01 -2.526512000000000202e-01 -2.759743396961024109e-01
1.788700000000000045e+01 1.742500000000000071e+01 1.314000000000000057e+01 3.259008000000000127e+00 -1.617465210680898990e-01
1.788899999999999935e+01 1.808200000000000074e+01 2.014099999999999824e+01 1.906568999999999958e+00 -1.606410153222242454e-01
1.789099999999999824e+01 4.339099999999999824e+01 3.999900000000000233e+01 -7.203302999999999789e-01 -1.982054343603314450e-01
1.789199999999999946e+01 3.086400000000000077e+01 9.150000000000000355e+00 -4.234496999999999844e-01 -1.826408527019665606e-01
1.789199999999999946e+01 3.249399999999999977e+01 9.150000000000000355e+00 2.862179999999999724e-01 -1.831209738081162330e-01
1.789300000000000068e+01 4.615999999999999659e+01 4.396099999999999852e+01 6.784854999999999636e-01 -2.680626396975301917e-01
1.789300000000000068e+01 4.890999999999999659e+01 4.291100000000000136e+01 5.273003000000000107e+00 -3.625707672120287439e-01
1.789300000000000068e+01 4.890999999999999659e+01 4.396099999999999852e+01 2.492871999999999866e-01 -3.624349212061642733e-01
1.791400000000000148e+01 4.422500000000000142e+01 4.155499999999999972e+01 -1.101140999999999925e+00 -2.788855713100300560e-01
1.793299999999999983e+01 1.945700000000000074e+01 1.817000000000000171e+01 7.316260999999999903e+00 -1.608997061465365919e-01
1.793299999999999983e+01 1.945700000000000074e+01 1.921999999999999886e+01 6.871424000000000198e+00 -1.607112396442032520e-01
1.793700000000000117e+01 4.880899999999999750e+01 4.209100000000000108e+01 1.140470999999999968e+01 -3.764044062581632377e-01
1.793700000000000117e+01 4.901800000000000068e+01 4.135499999999999687e+01 2.133404000000000167e+01 -3.626915933047477614e-01
1.794300000000000139e+01 1.862600000000000122e+01 1.406799999999999962e+01 -8.683154999999999291e+00 -1.513025952864212043e-01
1.794900000000000162e+01 4.395700000000000074e+01 4.231400000000000006e+01 -6.461951000000000001e+00 -2.804104071479258109e-01
1.795700000000000074e+01 3.119999999999999929e+01 8.375000000000000000e+00 9.729446000000000483e-01 -1.827498886896586627e-01
1.795700000000000074e+01 3.119999999999999929e+01 9.925000000000000711e+00 -1.315744000000000025e+00 -1.826798094634966840e-01
1.795700000000000074e+01 3.215800000000000125e+01 8.375000000000000000e+00 8.051479000000000497e+00 -1.830214572313667298e-01
1.795700000000000074e+01 3.215800000000000125e+01 9.925000000000000711e+00 3.100741999999999976e+01 -1.829731695160765614e-01
1.797500000000000142e+01 4.349099999999999966e+01 3.895400000000000063e+01 3.419118000000000102e+00 -2.097621158818011033e-01
1.798799999999999955e+01 9.951700000000000657e+00 1.231700000000000017e+01 1.153725999999999985e+01 -2.585777788139758671e-01
1.798799999999999955e+01 9.951700000000000657e+00 1.336700000000000088e+01 1.058403999999999989e+01 -2.585493594474278511e-01
1.800000000000000000e+01 1.234399999999999942e+01 1.491600000000000037e+01 -1.505311999999999983e+01 -2.584120766244087930e-01
1.801200000000000045e+01 4.428600000000000136e+01 4.307399999999999807e+01 -5.072580000000000311e+00 -2.794182108758753724e-01
1.801300000000000168e+01 1.445700000000000074e+01 1.982199999999999918e+01 -2.623658999999999852e-01 -2.581152290060340637e-01
1.801599999999999824e+01 4.255400000000000205e+01 3.980599999999999739e+01 -4.762228000000000350e+00 -2.001904442900400150e-01
1.802700000000000102e+01 4.177799999999999869e+01 1.443299999999999983e+01 -7.611361999999999739e+00 -9.229145158270055105e-02
1.802899999999999991e+01 1.577200000000000024e+01 2.035800000000000054e+01 6.263088999999999906e+00 -2.580191754949975880e-01
1.803399999999999892e+01 4.379500000000000171e+01 3.825399999999999778e+01 1.432697000000000109e+00 -2.096727725481416782e-01
1.803399999999999892e+01 4.379500000000000171e+01 4.089200000000000301e+01 2.722728000000000037e+00 -2.801473471502973211e-01
1.805000000000000071e+01 1.122100000000000009e+01 1.130000000000000071e+01 -8.978256999999999488e-01 -2.585699424673574276e-01
1.805000000000000071e+01 1.122100000000000009e+01 1.438400000000000034e+01 -1.878589000000000064e+00 -2.584788783664764833e-01
1.807100000000000151e+01 1.380199999999999960e+01 1.897200000000000131e+01 1.884717999999999893e+00 -2.581978941820354811e-01
1.808800000000000097e+01 4.724399999999999977e+01 3.598700000000000188e+01 1.073851000000000111e+00 -2.856996698822069636e-01
1.809499999999999886e+01 4.937299999999999756e+01 4.095799999999999841e+01 1.231290000000000084e+01 -3.626431429707388521e-01
1.810300000000000153e+01 2.650700000000000145e+01 3.513100000000000023e+01 -8.208833999999999520e+00 -1.536786342330753175e-01
1.810900000000000176e+01 1.726800000000000068e+01 9.103999999999999204e+00 -5.136281000000000319e+00 -1.520972679106364911e-01
1.810900000000000176e+01 1.886599999999999966e+01 9.103999999999999204e+00 -1.829733999999999838e+01 -1.522557248207106750e-01
1.811100000000000065e+01 4.666100000000000136e+01 4.488300000000000267e+01 5.048494999999999955e+00 -3.617069759852439281e-01
1.812999999999999901e+01 1.415199999999999925e+01 1.597899999999999920e+01 1.882827999999999946e+01 -2.583166720627606550e-01
1.812999999999999901e+01 1.436100000000000065e+01 1.671499999999999986e+01 1.628960000000000008e+01 -2.582778490968397067e-01
1.813599999999999923e+01 1.354499999999999993e+01 1.974699999999999989e+01 -3.906433999999999740e-01 -2.581870663977600677e-01
1.814900000000000091e+01 4.392099999999999937e+01 3.757099999999999795e+01 3.941751000000000005e+00 -2.098807390943859819e-01
1.816100000000000136e+01 2.708699999999999974e+01 2.295100000000000051e+01 -2.361536000000000080e+00 -2.442699899361061022e-01
1.817200000000000060e+01 1.759700000000000131e+01 8.343999999999999417e+00 -4.449061999999999628e+00 -1.522416917433984662e-01
1.817200000000000060e+01 1.759700000000000131e+01 9.864000000000000767e+00 -1.175883999999999929e+01 -1.519843874305710496e-01
1.817200000000000060e+01 1.853699999999999903e+01 8.343999999999999417e+00 -4.313798000000000243e+00 -1.523330206313355528e-01
1.817200000000000060e+01 1.853699999999999903e+01 9.864000000000000767e+00 -1.598784999999999989e+01 -1.520791101884680363e-01
1.817599999999999838e+01 1.467699999999999960e+01 1.226800000000000068e+01 1.689918999999999949e+00 -2.584441033832763912e-01
1.818100000000000094e+01 2.549299999999999855e+01 3.462500000000000000e+01 -3.857810000000000183e+00 -1.540533668739654805e-01
1.818100000000000094e+01 2.549299999999999855e+01 3.721099999999999852e+01 -2.270424999999999827e+01 -1.513961473178896955e-01
1.818499999999999872e+01 4.298700000000000188e+01 3.897099999999999653e+01 -8.530564000000000480e-01 -2.107771005056419678e-01
1.821699999999999875e+01 1.946999999999999886e+01 1.667099999999999937e+01 8.939253000000000782e+00 -1.611336225196741134e-01
1.821799999999999997e+01 4.838499999999999801e+01 4.481099999999999994e+01 1.108060999999999963e+00 -3.765813999910300747e-01
1.821799999999999997e+01 1.670799999999999841e+01 1.293200000000000038e+01 4.416933000000000109e-01 -1.617913582691226648e-01
1.821999999999999886e+01 2.426300000000000168e+01 3.544800000000000040e+01 -6.235127999999999560e+00 -1.534231024519587261e-01
1.821999999999999886e+01 2.426300000000000168e+01 3.638799999999999812e+01 -7.761560000000000237e+00 -1.525034085213402002e-01
1.821999999999999886e+01 2.672299999999999898e+01 3.638799999999999812e+01 -7.862071000000000254e+00 -1.524061258377626404e-01
1.823300000000000054e+01 1.815599999999999881e+01 1.330799999999999983e+01 -1.091475999999999891e+00 -1.513484843923233181e-01
1.824299999999999855e+01 4.175500000000000256e+01 3.980599999999999739e+01 -7.983668000000000431e-01 -2.130229849467642489e-01
1.824299999999999855e+01 4.328999999999999915e+01 3.827100000000000080e+01 -1.917368999999999879e-01 -2.105781101716267256e-01
1.825400000000000134e+01 4.097899999999999920e+01 1.443299999999999983e+01 -2.843726999999999894e+00 -9.233864724909647548e-02
1.825400000000000134e+01 4.257699999999999818e+01 1.443299999999999983e+01 -4.488659000000000177e+00 -9.226817709141756085e-02
1.825799999999999912e+01 1.893199999999999861e+01 2.007000000000000028e+01 1.087904999999999944e+01 -1.605639372505908713e-01
1.830600000000000094e+01 4.208400000000000318e+01 3.904599999999999937e+01 -7.687713999999999936e-01 -2.125278648561811090e-01
1.830600000000000094e+01 4.208400000000000318e+01 4.056600000000000250e+01 -1.765417000000000014e+00 -2.014701855527586127e-01
1.831099999999999994e+01 1.324200000000000088e+01 1.522000000000000064e+01 8.578675999999999746e+00 -2.584040522262370243e-01
1.831700000000000017e+01 4.130799999999999983e+01 1.519299999999999962e+01 -3.706201000000000079e+00 -9.230224960036580162e-02
1.831700000000000017e+01 4.224799999999999756e+01 1.367300000000000004e+01 -4.265659999999999563e+00 -9.231022122370660665e-02
1.831700000000000017e+01 4.224799999999999756e+01 1.519299999999999962e+01 -4.989156000000000368e+00 -9.225920125275419159e-02
1.832000000000000028e+01 3.651200000000000045e+01 4.670600000000000307e+01 1.194563999999999959e+00 -1.520648614191058567e-01
1.832000000000000028e+01 3.651200000000000045e+01 4.959799999999999898e+01 5.098534999999999595e-01 -7.001379164264179278e-02
1.832400000000000162e+01 4.811699999999999733e+01 3.608599999999999852e+01 -1.803037000000000001e+00 -3.765114508931124426e-01
1.832499999999999929e+01 4.316299999999999670e+01 4.114500000000000313e+01 -1.556000000000000050e+00 -1.648427261750910477e-01
1.832600000000000051e+01 4.546000000000000085e+01 4.369400000000000261e+01 -3.980942000000000203e+00 -2.733796489123716533e-01
1.833200000000000074e+01 1.507199999999999918e+01 2.030000000000000071e+01 1.676957999999999949e+00 -2.581107049251920582e-01
1.833500000000000085e+01 3.320400000000000063e+01 1.224399999999999977e+01 1.222331999999999974e+00 -1.830872304815173712e-01
1.833899999999999864e+01 1.420400000000000063e+01 1.810900000000000176e+01 7.507792000000000243e+00 -2.582553422145604238e-01
1.834900000000000020e+01 4.102000000000000313e+01 4.401400000000000290e+01 -1.275298000000000043e+00 -2.073596191680303069e-01
1.835999999999999943e+01 1.031700000000000017e+01 1.192600000000000016e+01 1.329339000000000048e+00 -2.586131923165995161e-01
1.836400000000000077e+01 3.513700000000000045e+01 4.762700000000000244e+01 3.063248000000000082e-01 -1.503187592675931383e-01
1.836400000000000077e+01 3.513700000000000045e+01 4.867699999999999960e+01 2.052109000000000016e-01 -1.571937321693736844e-01
1.836400000000000077e+01 3.788700000000000045e+01 4.762700000000000244e+01 9.224767999999999857e-01 -8.507435532864442151e-02
1.836400000000000077e+01 3.788700000000000045e+01 4.867699999999999960e+01 7.116666999999999632e+00 -7.101983848392511012e-02
1.836700000000000088e+01 1.273000000000000043e+01 1.974699999999999989e+01 -2.750291000000000263e-01 -2.582667410492863747e-01
1.836799999999999855e+01 1.738200000000000145e+01 2.054400000000000048e+01 1.127450999999999937e+01 -2.579829042546635254e-01
1.837199999999999989e+01 3.267699999999999960e+01 1.040499999999999936e+01 3.292640000000000100e+01 -1.829584535247745780e-01
1.838200000000000145e+01 4.539800000000000324e+01 3.618699999999999761e+01 1.475335000000000063e+00 -2.755924351919381565e-01
1.838299999999999912e+01 4.346600000000000108e+01 4.184499999999999886e+01 -1.681491000000000069e+00 -1.636469349980460564e-01
1.838299999999999912e+01 4.346600000000000108e+01 4.278300000000000125e+01 -2.170360000000000067e+00 -1.623151660058144985e-01
1.838400000000000034e+01 4.107399999999999807e+01 1.372600000000000087e+01 -3.143813999999999886e+00 -9.236197033636998899e-02
1.838800000000000168e+01 2.628800000000000026e+01 2.295100000000000051e+01 -1.748513999999999902e+00 -2.438810983533992727e-01
1.838800000000000168e+01 2.788599999999999923e+01 2.295100000000000051e+01 -2.429342000000000112e+00 -2.443682927914075653e-01
1.839600000000000080e+01 3.167899999999999849e+01 7.831500000000000128e+00 5.773627000000000065e-01 -1.827547998563526233e-01
1.840700000000000003e+01 4.588900000000000290e+01 4.436500000000000199e+01 3.305410000000000181e+00 -2.697893000862207624e-01
1.843199999999999861e+01 1.306600000000000072e+01 1.897200000000000131e+01 1.016574000000000089e+00 -2.582891500725452150e-01
1.843199999999999861e+01 1.306600000000000072e+01 2.052199999999999847e+01 -1.754738000000000131e-01 -2.582279562313418708e-01
1.843199999999999861e+01 1.402399999999999913e+01 2.052199999999999847e+01 3.316526999999999781e+00 -2.581742940439465950e-01
1.843599999999999994e+01 3.042500000000000071e+01 8.670999999999999375e+00 -5.619832000000000161e-01 -1.823460817737983797e-01
1.843599999999999994e+01 3.042500000000000071e+01 9.628999999999999559e+00 -4.169055999999999873e-01 -1.822839177539871403e-01
1.843599999999999994e+01 3.293299999999999983e+01 8.670999999999999375e+00 9.729463999999999890e-01 -1.830647764523853915e-01
1.843599999999999994e+01 3.293299999999999983e+01 9.628999999999999559e+00 4.954957000000000278e+00 -1.830375947565088535e-01
1.843700000000000117e+01 4.957699999999999818e+01 3.703900000000000148e+01 -7.950287000000000326e+00 -3.628908389426007686e-01
1.843700000000000117e+01 4.984599999999999653e+01 3.798499999999999943e+01 -7.510696000000000261e+00 -3.627997309393831138e-01
1.844300000000000139e+01 4.475600000000000023e+01 4.360699999999999932e+01 -3.838443999999999967e+00 -2.778748225351079237e-01
1.845100000000000051e+01 2.661700000000000088e+01 2.219099999999999895e+01 -1.539690000000000003e+00 -2.441280324264755441e-01
1.845100000000000051e+01 2.661700000000000088e+01 2.371099999999999852e+01 -1.850603999999999916e+00 -2.437299922272960218e-01
1.845100000000000051e+01 2.755699999999999861e+01 2.219099999999999895e+01 -1.822632000000000030e+00 -2.444007932337827760e-01
1.845100000000000051e+01 2.755699999999999861e+01 2.371099999999999852e+01 -2.445206000000000213e+00 -2.440301945129705330e-01
1.846900000000000119e+01 4.991400000000000148e+01 3.907500000000000284e+01 3.499593999999999760e-01 -3.627189722804919914e-01
1.847400000000000020e+01 4.444599999999999795e+01 3.672099999999999653e+01 6.987179999999999502e-01 -2.772351656883599302e-01
1.848300000000000054e+01 1.213299999999999912e+01 1.156799999999999962e+01 5.636250999999999678e+00 -2.585772548545048899e-01
1.849099999999999966e+01 2.612099999999999866e+01 3.451899999999999835e+01 -8.708723000000000880e+00 -1.540598773670152632e-01
1.850199999999999889e+01 4.977499999999999858e+01 3.993599999999999994e+01 7.526957999999999593e+00 -3.626873200352597193e-01
1.850900000000000034e+01 1.908800000000000097e+01 1.579400000000000048e+01 3.579019999999999868e+00 -1.612737831517891685e-01
1.850900000000000034e+01 1.149000000000000021e+01 1.435899999999999999e+01 -3.446272000000000002e+00 -2.585219182037020169e-01
1.851000000000000156e+01 2.473300000000000054e+01 3.468800000000000239e+01 -4.391424999999999912e+00 -1.539403465405721483e-01
1.851000000000000156e+01 2.473300000000000054e+01 3.714800000000000324e+01 -3.508906999999999954e+01 -1.514216207058487196e-01
1.851000000000000156e+01 2.625300000000000011e+01 3.714800000000000324e+01 -3.647872999999999877e+01 -1.513256527449528543e-01
1.853099999999999881e+01 3.265999999999999659e+01 1.147700000000000031e+01 2.332466000000000150e+01 -1.828489461105449743e-01
1.854500000000000171e+01 1.389100000000000001e+01 1.222899999999999920e+01 5.252493999999999774e-01 -2.585095233657845326e-01
1.855399999999999849e+01 1.662199999999999989e+01 2.068299999999999983e+01 5.686072000000000237e+00 -2.580467072826684305e-01
1.856599999999999895e+01 3.238900000000000290e+01 1.224399999999999977e+01 3.504567000000000210e+00 -1.827075804493782651e-01
1.856599999999999895e+01 3.401899999999999835e+01 1.224399999999999977e+01 4.732186999999999699e+00 -1.832690229651169900e-01
1.856899999999999906e+01 1.887099999999999866e+01 1.504499999999999993e+01 -1.872873999999999839e+01 -1.613926035427401540e-01
1.857300000000000040e+01 4.621699999999999875e+01 4.533400000000000318e+01 5.531397000000000119e-01 -2.649999804254733471e-01
1.857600000000000051e+01 4.022099999999999653e+01 4.401400000000000290e+01 -3.390194000000000152e+00 -2.109697015261320918e-01
1.857600000000000051e+01 4.181900000000000261e+01 4.401400000000000290e+01 -1.345864000000000082e+01 -1.682629423448229189e-01
1.857700000000000173e+01 2.697599999999999909e+01 2.183599999999999852e+01 -1.811504999999999921e+00 -2.442359617555590334e-01
1.857799999999999940e+01 4.671000000000000085e+01 3.544299999999999784e+01 -2.271021000000000012e-01 -2.738372750365362096e-01
1.857999999999999829e+01 3.100700000000000145e+01 1.052999999999999936e+01 8.812476000000000198e+00 -1.823476429771483942e-01
1.859400000000000119e+01 2.690399999999999991e+01 3.469800000000000040e+01 -7.958727999999999803e+00 -1.539518587357207313e-01
1.859900000000000020e+01 1.695200000000000173e+01 8.293799999999999173e+00 -5.013698999999999906e+00 -1.521124118663785829e-01
1.860099999999999909e+01 4.040400000000000347e+01 1.478800000000000026e+01 -3.563504000000000005e+00 -9.237227279188837958e-02
1.860300000000000153e+01 1.806700000000000017e+01 7.810999999999999943e+00 -4.664012999999999742e+00 -1.522916848758574804e-01
1.860300000000000153e+01 1.806700000000000017e+01 1.039700000000000024e+01 -4.309687000000000268e+01 -1.518468112779771950e-01
1.861299999999999955e+01 4.588799999999999812e+01 3.546500000000000341e+01 5.840316999999999731e-02 -2.749856336042223459e-01
1.862600000000000122e+01 4.332200000000000273e+01 3.788400000000000034e+01 3.932279000000000191e-01 -1.674046579051180761e-01
1.863100000000000023e+01 3.272500000000000142e+01 1.301900000000000013e+01 3.331885999999999903e+00 -1.827592407489616877e-01
1.863100000000000023e+01 3.368299999999999983e+01 1.146899999999999942e+01 1.860475999999999885e+01 -1.831466251530862455e-01
1.863100000000000023e+01 3.368299999999999983e+01 1.301900000000000013e+01 3.261172000000000182e+00 -1.831033676168066504e-01
1.863700000000000045e+01 4.907699999999999818e+01 4.165800000000000125e+01 2.141716999999999871e+01 -3.767111962825179239e-01
1.863899999999999935e+01 4.054999999999999716e+01 4.325399999999999778e+01 -1.650341000000000058e+00 -2.083870532924544661e-01
1.863899999999999935e+01 4.054999999999999716e+01 4.477400000000000091e+01 -9.737721000000000515e+00 -2.115539907951448362e-01
1.863899999999999935e+01 4.149000000000000199e+01 4.477400000000000091e+01 -1.401225999999999949e+01 -1.703184564485536734e-01
1.864099999999999824e+01 1.739600000000000080e+01 1.291999999999999993e+01 1.450571000000000055e+00 -1.617435131372642609e-01
1.864199999999999946e+01 1.929700000000000060e+01 8.634299999999999642e+00 -2.020786000000000016e+01 -1.522747311454394903e-01
1.864199999999999946e+01 1.929700000000000060e+01 9.573700000000000543e+00 -3.247523000000000337e+01 -1.521160701525509640e-01
1.864199999999999946e+01 4.710999999999999943e+01 4.525399999999999778e+01 2.488846000000000114e+00 -3.770355723883476173e-01
1.864300000000000068e+01 4.251800000000000068e+01 4.115599999999999881e+01 -8.979497999999999536e+00 -1.674862424694531504e-01
1.864499999999999957e+01 4.306099999999999994e+01 4.359000000000000341e+01 -2.439480999999999788e+00 -1.641017274948129712e-01
1.865500000000000114e+01 1.374099999999999966e+01 1.545299999999999940e+01 2.132482999999999862e+01 -2.584196440299610931e-01
1.865800000000000125e+01 4.394700000000000273e+01 4.362400000000000233e+01 -1.186955000000000027e+01 -1.608432559521492666e-01
1.867200000000000060e+01 4.250600000000000023e+01 3.843800000000000239e+01 -2.005529000000000117e+00 -2.119756013646430515e-01
1.867399999999999949e+01 1.879400000000000048e+01 1.372199999999999953e+01 -6.850539000000000378e+00 -1.615780456126226228e-01
1.868799999999999883e+01 1.480000000000000071e+01 2.058599999999999852e+01 4.213992000000000182e+00 -2.581718984853185184e-01
1.868900000000000006e+01 3.566199999999999903e+01 4.677700000000000102e+01 1.725489999999999968e+00 -1.501383744513735685e-01
1.868900000000000006e+01 3.566199999999999903e+01 4.952700000000000102e+01 1.582068000000000030e+00 -1.744628289394195009e-01
1.868900000000000006e+01 3.736200000000000188e+01 4.952700000000000102e+01 2.798556000000000044e+00 -7.121632131019786649e-02
1.869000000000000128e+01 4.909700000000000131e+01 4.255599999999999739e+01 1.354003999999999941e+01 -3.768028817786318596e-01
1.869200000000000017e+01 1.310100000000000087e+01 1.196299999999999919e+01 1.302765999999999924e-01 -2.585577253801317754e-01
1.869500000000000028e+01 4.761299999999999955e+01 3.560699999999999932e+01 -1.738866999999999940e+00 -3.765835008538894746e-01
1.869699999999999918e+01 4.762100000000000222e+01 4.524600000000000222e+01 1.494250999999999996e+00 -3.771645105795179420e-01
1.870299999999999940e+01 1.039400000000000013e+01 1.283500000000000085e+01 1.342121000000000031e+01 -2.586231542261119842e-01
1.870299999999999940e+01 1.891600000000000037e+01 1.453800000000000026e+01 -3.574996999999999758e+01 -1.614579371425579057e-01
1.872500000000000142e+01 3.999799999999999756e+01 1.378800000000000026e+01 -2.202847999999999917e+00 -9.242501425608060095e-02
