3.093599999999999994e+01 1.790299999999999869e+01 1.138899999999999935e+01 9.232896999999999821e+01 1.603637451712758011e-01
3.093599999999999994e+01 1.790299999999999869e+01 1.293900000000000006e+01 3.683615999999999957e+01 1.614964037051286883e-01
3.093599999999999994e+01 1.886100000000000065e+01 1.138899999999999935e+01 4.097185999999999950e+01 1.612996295815141701e-01
3.093599999999999994e+01 1.886100000000000065e+01 1.293900000000000006e+01 1.410303999999999860e+02 1.623762188098153980e-01
3.095100000000000051e+01 8.812699999999999534e+00 1.229199999999999982e+01 -5.597650000000000148e+01 1.448621136790032293e-01
3.095200000000000173e+01 1.165600000000000058e+01 7.966700000000000337e+00 -2.883587999999999951e+01 1.457647670999940026e-01
3.096099999999999852e+01 2.225900000000000212e+00 3.961100000000000065e+00 -8.841701999999999728e+00 1.163019867707046073e-01
3.097700000000000031e+01 2.825099999999999945e+00 -1.844999999999999973e+00 -8.314024000000000569e+01 2.313381433186431635e-01
3.097899999999999920e+01 5.567400000000000126e+00 1.853299999999999947e+00 -1.069724000000000075e+01 1.209739561174744821e-01
3.098100000000000165e+01 1.000999999999999979e+01 9.113899999999999224e+00 -5.552832999999999686e+01 1.435738652679784955e-01
3.098199999999999932e+01 5.269899999999999807e+00 1.423199999999999932e+01 1.011139999999999972e+01 1.384495216755158298e-01
3.098300000000000054e+01 -5.537899999999999601e+00 6.278900000000000148e+00 -4.748226999999999975e+00 1.065339518564279303e-01
3.098499999999999943e+01 9.184400000000000119e+00 1.052500000000000036e+01 -1.032905000000000051e+01 1.435265371644736665e-01
3.098999999999999844e+01 -1.103999999999999915e+01 1.416300000000000026e+01 -6.599009999999999820e+00 1.108220445060590365e-01
3.098999999999999844e+01 7.583000000000000185e+00 1.311500000000000021e+01 -6.997893999999999437e+01 1.427978373505000287e-01
3.099200000000000088e+01 6.857000000000000206e+00 2.603000000000000203e+00 -5.398263000000000034e+00 1.252387954076273346e-01
3.099200000000000088e+01 8.947200000000000486e+00 1.136800000000000033e+01 -1.143712000000000018e+01 1.440315007153826488e-01
3.099399999999999977e+01 -2.345600000000000129e+00 2.162399999999999878e+00 7.933876999999999846e+00 2.235994276505971767e-01
3.099399999999999977e+01 -2.345600000000000129e+00 3.027600000000000069e+00 1.888740999999999914e+01 2.223256661732992134e-01
3.099599999999999866e+01 1.463299999999999879e-01 -2.463999999999999968e+00 -2.419098999999999933e+01 -5.087719457442281545e-02
3.100100000000000122e+01 1.756700000000000017e+01 1.216399999999999970e+01 4.957533000000000101e+01 1.604811414184849627e-01
3.100100000000000122e+01 1.919699999999999918e+01 1.216399999999999970e+01 4.429704000000000264e+01 1.620252490304901205e-01
3.101899999999999835e+01 -5.903299999999999770e+00 2.018199999999999861e+01 2.203194999999999837e+01 1.232040230909344364e-01
3.101899999999999835e+01 -4.852699999999999569e+00 2.018199999999999861e+01 -2.068105000000000082e+00 1.246975595772833734e-01
3.101999999999999957e+01 6.569700000000000095e+00 1.330400000000000027e+01 2.946061999999999959e+00 1.405261441854283311e-01
3.102299999999999969e+01 -7.410999999999999588e+00 1.024000000000000021e+00 3.342590999999999757e-01 1.512113997562695433e-01
3.102299999999999969e+01 -7.157099999999999795e+00 1.302599999999999869e-01 -1.007794999999999941e-01 1.524680909993213207e-01
3.102499999999999858e+01 -3.695100000000000051e+00 -2.489700000000000024e+00 -3.299606999999999957e+00 -4.814671360112328380e-02
3.102599999999999980e+01 2.062900000000000011e-01 4.558699999999999974e+00 -2.978359999999999896e+00 1.130914715628468237e-01
3.102799999999999869e+01 -7.101600000000000357e+00 1.809499999999999886e+01 8.157683000000000462e+00 1.193870721334179263e-01
3.102799999999999869e+01 -4.018399999999999750e+00 1.809499999999999886e+01 2.096355000000000146e+01 1.237613783272178275e-01
3.103699999999999903e+01 -3.744299999999999962e+00 1.725400000000000134e+01 1.219372000000000078e+01 1.232468806248038506e-01
3.105000000000000071e+01 -8.609600000000000364e+00 1.158900000000000041e+01 1.474399999999999933e+00 1.099226171627001730e-01
3.105099999999999838e+01 -3.524000000000000021e+00 7.330400000000000027e+00 -1.281162999999999919e+01 1.105266107429119932e-01
3.105099999999999838e+01 -3.524000000000000021e+00 9.595599999999999241e+00 -6.221242999999999634e-01 1.135773636500028577e-01
3.105999999999999872e+01 -1.793199999999999905e+00 -2.477399999999999824e+00 3.663190999999999864e+00 -4.952485675846972357e-02
3.106099999999999994e+01 1.551600000000000090e+00 -1.077399999999999913e+00 -1.514094000000000051e+01 2.296280321796463075e-01
3.106400000000000006e+01 3.418000000000000149e+00 1.547100000000000009e+01 8.619509000000000754e+00 1.354305723246665705e-01
3.106599999999999895e+01 1.170500000000000007e+01 5.427500000000000213e+00 -1.567736999999999936e+00 1.417373175756104220e-01
3.106700000000000017e+01 9.918599999999999639e-01 -1.066999999999999948e+00 1.580175000000000052e-01 2.294264966894212221e-01
3.107100000000000151e+01 -6.442099999999999937e+00 4.765299999999999869e+00 -2.204596000000000000e+00 1.439983144627202116e-01
3.107300000000000040e+01 -8.035000000000000142e+00 1.668700000000000117e+01 3.823389999999999844e+01 1.166869980794773137e-01
3.107300000000000040e+01 2.205600000000000005e+00 1.623600000000000065e+01 2.869974000000000025e+00 1.335434745422866554e-01
3.108099999999999952e+01 1.118099999999999916e+01 4.443200000000000038e+00 9.189144999999999675e-01 1.388780566537443917e-01
3.108599999999999852e+01 -7.477000000000000313e+00 1.083000000000000007e+01 4.044857000000000036e-01 1.101534998987804964e-01
3.108999999999999986e+01 -4.484300000000000175e+00 1.933200000000000074e+01 -1.048794999999999922e+00 1.244027821984230869e-01
3.109299999999999997e+01 1.228099999999999969e+00 -1.844999999999999973e+00 -1.297189999999999976e+01 2.307505407669904751e-01
3.109400000000000119e+01 -5.825899999999999856e+00 -7.916499999999999648e-01 -9.336022000000000487e-01 1.527628366113640834e-01
3.110099999999999909e+01 -8.878700000000000481e-01 -2.452399999999999913e+00 -4.315871999999999709e+00 -5.016301249349693070e-02
3.110600000000000165e+01 5.139599999999999724e+00 1.249399999999999977e+01 4.708229000000000219e+00 1.359878247685857577e-01
3.112000000000000099e+01 5.515799999999999592e+00 1.336200000000000010e+01 8.966803000000000523e+00 1.379700033168508866e-01
3.112099999999999866e+01 -1.170100000000000051e+01 1.185800000000000054e+01 -5.642763000000000417e+00 1.079353936963812488e-01
3.112099999999999866e+01 -1.170100000000000051e+01 1.279800000000000004e+01 -1.055513000000000012e+01 1.089633428556640304e-01
3.114099999999999824e+01 -1.033500000000000085e+00 1.335499999999999909e+00 -6.183646999999999672e+00 2.251111675035538384e-01
3.115299999999999869e+01 -6.343300000000000161e+00 1.941700000000000159e+01 6.121373000000000175e+00 1.218787393519526752e-01
3.116000000000000014e+01 -1.047100000000000009e+01 1.103500000000000014e+01 -4.152796999999999739e-01 1.078872979023219186e-01
3.116300000000000026e+01 4.820100000000000051e+00 1.458300000000000018e+01 8.366139999999999688e+00 1.376788781831493336e-01
3.118799999999999883e+01 2.487400000000000055e+00 1.550099999999999945e+01 6.590792000000000428e+00 1.333449712388338204e-01
3.119600000000000151e+01 6.004299999999999748e+00 1.245400000000000063e+01 5.649240999999999957e+00 1.380187002324249623e-01
3.120400000000000063e+01 2.025999999999999801e+00 -1.844999999999999973e+00 -2.939604999999999890e+01 2.310238733835738856e-01
3.120899999999999963e+01 1.461000000000000076e+00 4.079500000000000348e+00 -5.312211999999999712e+00 1.151724312872645511e-01
3.121300000000000097e+01 -7.402700000000000280e+00 2.669299999999999784e+00 -1.399343000000000004e+00 1.484755231636214479e-01
3.121300000000000097e+01 -7.402700000000000280e+00 3.608699999999999797e+00 -3.255514999999999937e+00 1.469738894519304340e-01
3.121399999999999864e+01 -2.237999999999999989e+00 1.613500000000000156e+01 -6.820411000000000001e+01 1.245702411569653972e-01
3.121399999999999864e+01 -7.291999999999999815e+00 1.872000000000000108e+00 -8.095523000000000025e-01 1.496586746312336402e-01
3.121399999999999864e+01 -4.772999999999999687e+00 6.485299999999999621e+00 -5.682224999999999859e+00 1.080369277362959179e-01
3.121699999999999875e+01 -5.028999999999999915e+00 9.622999999999999332e+00 1.481915000000000049e+01 1.116676741399789535e-01
3.121799999999999997e+01 -5.166199999999999903e+00 -1.098500000000000032e+00 -2.962178999999999895e+00 -4.847609930348457941e-02
3.123199999999999932e+01 1.838200000000000145e+01 1.216399999999999970e+01 3.600874000000000308e+01 1.608366396676533527e-01
3.123600000000000065e+01 1.000799999999999912e+01 3.114700000000000024e+00 7.160582999999999920e+00 1.338301157439107103e-01
3.124200000000000088e+01 1.212599999999999945e+01 6.267299999999999649e+00 -1.310533999999999999e+01 1.438660637045880153e-01
3.124200000000000088e+01 1.212599999999999945e+01 7.206699999999999662e+00 -2.109646000000000043e+01 1.453176672112171386e-01
3.125000000000000000e+01 -1.105299999999999949e+00 1.689300000000000068e+01 -7.264258000000000104e-01 1.275334570874170070e-01
3.125000000000000000e+01 1.645299999999999985e+00 1.689300000000000068e+01 1.863415999999999961e+00 1.330144447303834854e-01
3.125100000000000122e+01 -9.731500000000000483e+00 1.524600000000000044e+01 1.591682999999999915e+01 1.134144095124249157e-01
3.125799999999999912e+01 2.000699999999999978e-01 7.096900000000000430e-02 -5.106770000000000032e+00 2.274019624691646091e-01
3.126699999999999946e+01 8.347699999999999676e+00 2.974200000000000177e+00 1.194857000000000014e+01 1.295882743641575963e-01
3.127799999999999869e+01 4.376000000000000334e+00 1.247499999999999964e+01 1.030269000000000101e+00 1.340614577173601385e-01
3.127899999999999991e+01 2.016999999999999904e-01 -1.002899999999999903e+00 -5.128994999999999527e-01 2.290927015532278066e-01
3.129299999999999926e+01 -6.650699999999999612e+00 9.819599999999999440e+00 8.790741000000000582e+00 1.100507201956435754e-01
3.129400000000000048e+01 2.700000000000000178e-01 1.781400000000000006e+01 4.496227000000000196e+00 1.311634510278285592e-01
3.130199999999999960e+01 4.920399999999999774e-01 -1.844999999999999973e+00 -9.089306000000000552e+00 2.304950838837773741e-01
3.130499999999999972e+01 -2.638999999999999790e+00 -2.465100000000000069e+00 3.142703000000000024e-01 -4.886128390789291898e-02
3.134199999999999875e+01 2.735599999999999810e+00 3.180899999999999839e+00 -5.298676000000000386e+00 1.167844977957351593e-01
3.135300000000000153e+01 -9.309599999999999653e+00 1.152999999999999936e+01 -1.351250999999999980e+00 1.095863447829711346e-01
3.135300000000000153e+01 -7.909600000000000186e+00 1.152999999999999936e+01 1.105264999999999942e+00 1.108885276899734540e-01
3.136100000000000065e+01 4.727100000000000080e+00 1.325200000000000067e+01 9.282985999999999294e+00 1.358473836250492783e-01
3.136199999999999832e+01 -3.333699999999999886e+00 1.651899999999999835e+01 -1.636082999999999998e+01 1.232210694924973787e-01
3.136599999999999966e+01 1.084600000000000009e+01 8.103199999999999292e+00 -5.386936000000000035e+01 1.436705125275496153e-01
3.137399999999999878e+01 4.706999999999999851e+00 1.179400000000000048e+01 -6.375485000000000291e+00 1.339486913680066060e-01
3.137399999999999878e+01 5.572199999999999598e+00 1.179400000000000048e+01 4.635266999999999804e+00 1.360457512938215707e-01
3.138500000000000156e+01 1.684700000000000086e+00 1.586999999999999922e+01 5.139929999999999666e+00 1.319992355631173508e-01
3.139000000000000057e+01 -5.981099999999999639e+00 5.385900000000000354e+00 3.323223000000000038e+00 1.425999140332696591e-01
3.139900000000000091e+01 3.092900000000000205e+00 2.378299999999999859e+00 -4.802481000000000222e+00 1.165490055877237002e-01
3.139900000000000091e+01 4.538999999999999702e+00 1.572000000000000064e+00 -3.767082999999999959e+00 1.186284693622177144e-01
3.141600000000000037e+01 -8.590199999999999392e+00 1.603399999999999892e+01 2.047673999999999950e+01 1.155937528643352225e-01
3.142099999999999937e+01 7.113299999999999734e+00 1.258200000000000074e+01 -3.581965999999999894e+01 1.407086275697571054e-01
3.142099999999999937e+01 8.052699999999999747e+00 1.258200000000000074e+01 -5.156947000000000259e+01 1.429243406254631643e-01
3.142699999999999960e+01 -1.645599999999999952e+00 1.895000000000000018e+00 -3.657798000000000105e+00 2.242808282633385331e-01
3.142699999999999960e+01 -1.645599999999999952e+00 3.294999999999999929e+00 -8.874340999999999480e-02 1.089736617972099503e-01
3.143199999999999861e+01 -2.904399999999999871e+00 7.699300000000000033e+00 -6.443976000000000148e+00 1.124708425230551978e-01
3.143700000000000117e+01 -3.079999999999999960e-01 -1.728900000000000103e+00 -4.274824999999999875e+00 2.300651257384744297e-01
3.144399999999999906e+01 6.086199999999999832e+00 2.294799999999999951e+00 -5.180907999999999625e+00 1.232001156346950871e-01
3.146000000000000085e+01 -5.378000000000000114e+00 1.944699999999999918e+01 4.250435000000000407e+00 1.233707118129241387e-01
3.146300000000000097e+01 6.437000000000000277e+00 1.175399999999999956e+01 1.085481000000000051e+01 1.380518470862373837e-01
3.148000000000000043e+01 6.943200000000000482e-01 4.043999999999999595e+00 -6.005198000000000036e+00 1.139750014359138530e-01
3.148300000000000054e+01 9.645099999999999341e+00 1.000399999999999956e+01 -5.692107000000000028e+00 1.434321125900806237e-01
3.148400000000000176e+01 -3.033100000000000129e+00 9.198999999999999844e+00 -4.155986000000000402e+00 1.143274153740344301e-01
3.148400000000000176e+01 -2.823999999999999844e+00 8.462999999999999190e+00 -5.455504000000000353e+00 1.136739290406601766e-01
3.148400000000000176e+01 8.382099999999999440e+00 1.182199999999999918e+01 -5.947203999999999979e+01 1.427597446317010466e-01
3.148499999999999943e+01 -1.949000000000000066e+00 2.595000000000000195e+00 2.489199999999999857e+00 2.232504998053405632e-01
3.148699999999999832e+01 3.639899999999999913e+00 1.247499999999999964e+01 -2.491134999999999877e+00 1.322935649171611827e-01
3.148699999999999832e+01 -9.161400000000000432e+00 1.520599999999999952e+01 2.485343999999999909e+01 1.141231867803167710e-01
3.149699999999999989e+01 -3.957500000000000018e+00 -1.961500000000000021e+00 3.663756000000000235e-01 -4.841378019057281795e-02
3.149699999999999989e+01 -1.320500000000000007e+00 -1.961500000000000021e+00 5.546007999999999605e+00 2.301184796557212420e-01
3.150300000000000011e+01 -6.932999999999999829e+00 4.368699999999999584e+00 -3.937219999999999942e+00 1.453088936729990399e-01
3.151500000000000057e+01 -1.044400000000000084e+01 1.464400000000000013e+01 5.070369000000000348e+00 1.123476879353879215e-01
3.151699999999999946e+01 -1.538000000000000034e+00 1.619300000000000139e+01 -1.563926000000000016e+01 1.260180529585259446e-01
3.153999999999999915e+01 1.000200000000000067e+01 9.201100000000000279e+00 -1.036486000000000018e+01 1.431201661048458473e-01
3.154200000000000159e+01 8.685499999999999332e+00 1.112199999999999989e+01 1.310798999999999914e+01 1.425688670113551271e-01
3.154500000000000171e+01 2.027400000000000091e+00 1.487500000000000000e+01 2.958115999999999968e+00 1.316064612852355376e-01
3.154500000000000171e+01 2.892700000000000049e+00 1.487500000000000000e+01 4.677602000000000260e+00 1.334921699599053435e-01
3.154500000000000171e+01 3.943299999999999805e+00 1.177500000000000036e+01 -1.066599000000000075e+01 1.320840192227171472e-01
3.154500000000000171e+01 3.943299999999999805e+00 1.317500000000000071e+01 1.623080999999999996e+00 1.338711816422069878e-01
3.154500000000000171e+01 3.943299999999999805e+00 1.487500000000000000e+01 8.650403999999999982e+00 1.358323454860032586e-01
3.154799999999999827e+01 -6.560999999999999943e+00 -3.513299999999999756e-01 -2.478111000000000064e-01 1.525825865671449622e-01
3.156099999999999994e+01 1.053299999999999947e+01 3.964700000000000113e+00 5.648354999999999571e+00 1.363477313041057681e-01
3.157600000000000051e+01 -6.503300000000000303e+00 1.859400000000000119e+01 1.093432999999999922e+01 1.210167453032436891e-01
3.159100000000000108e+01 -1.094100000000000072e+01 1.156799999999999962e+01 -1.046864000000000017e+00 1.086520598656255804e-01
3.159400000000000119e+01 -7.256500000000000172e-01 3.793299999999999894e+00 4.501122000000000156e+01 1.112859888781744661e-01
3.159900000000000020e+01 -8.788299999999999557e+00 1.178599999999999959e+01 4.005663000000000196e+00 1.106272161597013498e-01
3.160500000000000043e+01 9.157999999999999474e+00 3.043899999999999828e+00 6.712012999999999785e+00 1.316665380884871062e-01
3.161100000000000065e+01 -9.910700000000000065e-01 1.044999999999999929e+00 -5.299050000000000260e+00 2.257242187583826942e-01
3.161599999999999966e+01 4.311700000000000088e+00 1.402500000000000036e+01 6.772821999999999676e+00 1.357026607446651656e-01
3.162300000000000111e+01 7.652300000000000324e+00 2.948399999999999910e+00 2.766944000000000159e+01 1.279586711775794750e-01
3.162800000000000011e+01 -7.382100000000000328e+00 1.703099999999999881e+01 7.713067999999999813e+00 1.182457840945394106e-01
3.164499999999999957e+01 -5.301300000000000345e+00 5.951500000000000234e+00 1.133662999999999954e+01 1.074651112024255228e-01
3.164900000000000091e+01 -4.328999999999999737e+00 9.890399999999999636e+00 8.607628999999999309e+00 1.134991598522876732e-01
3.164999999999999858e+01 2.161000000000000032e+00 3.692899999999999849e+00 -4.308735999999999677e+00 1.166284289397299112e-01
3.165200000000000102e+01 -1.029099999999999904e+00 3.093300000000000161e+00 3.012776000000000121e+00 1.100674890155159680e-01
3.165399999999999991e+01 -1.126999999999999957e+01 1.232799999999999940e+01 -1.317163000000000039e+01 1.093158669249922887e-01
3.166700000000000159e+01 -2.930499999999999883e+00 1.609299999999999997e+01 -3.513877000000000095e+01 1.235407676102776992e-01
3.166900000000000048e+01 1.061800000000000033e+01 4.955300000000000260e+00 1.069772000000000034e+01 1.380731344323986864e-01
3.166900000000000048e+01 -6.876700000000000035e-01 -1.354999999999999982e+00 -2.166490000000000027e+00 2.294000674061204559e-01
3.166900000000000048e+01 -6.876700000000000035e-01 3.449999999999999734e-01 -6.460240999999999900e+00 2.268531444851116241e-01
3.169399999999999906e+01 -1.213000000000000078e+00 2.595000000000000195e+00 -2.943060000000000009e+00 2.234465336846013783e-01
3.169900000000000162e+01 -3.337000000000000188e+00 6.999200000000000088e+00 7.504802999999999891e+00 1.112922630783020062e-01
3.171199999999999974e+01 1.136599999999999966e+01 5.977000000000000313e+00 -1.018665000000000020e+01 1.413159267479191239e-01
3.171199999999999974e+01 1.136599999999999966e+01 7.496999999999999886e+00 -3.779073999999999955e+01 1.435933637406499319e-01
3.173400000000000176e+01 -5.837299999999999933e+00 9.451999999999999957e+00 3.929828999999999795e+00 1.110955127002073717e-01
3.173999999999999844e+01 -3.192599999999999882e-01 -5.050000000000000044e-01 -5.186360999999999777e+00 2.282341013601368596e-01
3.177199999999999847e+01 -6.935299999999999798e+00 1.770799999999999841e+01 6.684403999999999790e+00 1.196297164301022009e-01
3.177199999999999847e+01 -4.184700000000000308e+00 1.770799999999999841e+01 1.416342000000000034e+01 1.234152571542969923e-01
3.177499999999999858e+01 1.169500000000000028e+01 6.737000000000000099e+00 -2.228004999999999924e+01 1.431237741577088274e-01
3.177499999999999858e+01 -2.553300000000000014e-01 1.721799999999999997e+01 5.181078000000000294e+00 1.295813417342825402e-01
3.177499999999999858e+01 7.953299999999999814e-01 1.721799999999999997e+01 2.984118000000000048e+00 1.315975979618456693e-01
3.178600000000000136e+01 -7.418700000000000294e+00 1.113400000000000034e+01 2.076114000000000015e+00 1.114201173931339273e-01
3.178600000000000136e+01 -2.113700000000000134e+00 -1.868999999999999995e+00 8.929779999999999163e+00 -4.972522479889100733e-02
3.179400000000000048e+01 -7.158000000000000362e+00 1.033300000000000018e+01 4.681179000000000201e+00 1.107522863045548867e-01
3.179799999999999827e+01 -1.645599999999999952e+00 -1.434800000000000075e+00 5.157982999999999763e+00 2.292710505186291436e-01
3.181299999999999883e+01 -3.197200000000000042e+00 -2.012100000000000222e+00 3.722329999999999917e+00 -4.881065851879255041e-02
3.182999999999999829e+01 -4.368000000000000327e+00 -1.526299999999999990e+00 2.512102999999999975e-01 -4.847592863880979819e-02
3.183999999999999986e+01 -1.096899999999999942e+01 1.379400000000000048e+01 7.411811000000000371e-01 1.113051812982030625e-01
3.184600000000000009e+01 1.163699999999999957e+00 1.636799999999999855e+01 5.843869000000000424e-01 1.314546690629636028e-01
3.184900000000000020e+01 1.003700000000000081e+01 8.350500000000000256e+00 -1.823269000000000162e+01 1.417362190709627601e-01
3.185200000000000031e+01 -4.055600000000000094e+00 1.675000000000000000e+01 1.122888999999999982e+01 1.225925891344385732e-01
3.187000000000000099e+01 3.418000000000000149e+00 1.402500000000000036e+01 1.001877999999999957e+01 1.336359850413683659e-01
3.187300000000000111e+01 6.910899999999999821e+00 2.761400000000000077e+00 1.096368999999999971e+01 1.260380388348192882e-01
3.187300000000000111e+01 -7.086299999999999599e+00 4.986700000000000021e-01 3.300634000000000068e+00 1.516135419117994598e-01
3.188400000000000034e+01 -9.593999999999999417e+00 1.182300000000000040e+01 -1.076581000000000010e+01 1.102832612011990510e-01
3.188400000000000034e+01 -9.593999999999999417e+00 1.471499999999999986e+01 1.927903999999999840e+01 1.135119949258082545e-01
3.189499999999999957e+01 -7.814700000000000202e+00 1.633099999999999952e+01 2.035182999999999964e+01 1.171518842053649034e-01
3.189999999999999858e+01 5.964199999999999946e+00 1.123799999999999955e+01 8.857359999999999900e+00 1.360707299849895358e-01
3.190399999999999991e+01 7.822099999999999831e+00 1.116799999999999926e+01 2.660966000000000165e+01 1.403222484020035521e-01
3.191100000000000136e+01 1.075500000000000078e+01 5.828700000000000436e+00 -1.451623000000000019e+01 1.395910564485953187e-01
3.191400000000000148e+01 8.294599999999999751e-01 1.546199999999999974e+01 -1.857987000000000055e+00 1.298081789056119706e-01
3.191400000000000148e+01 5.037799999999999834e+00 1.121899999999999942e+01 -1.377044000000000068e+01 1.338729579243725376e-01
3.191400000000000148e+01 -4.505700000000000038e+00 6.052599999999999980e+00 1.346001000000000047e+01 1.089168519729767637e-01
3.192000000000000171e+01 -8.461399999999999366e+00 1.547300000000000075e+01 1.548269999999999946e+01 1.155055822310744051e-01
3.192399999999999949e+01 3.689000000000000057e+00 1.896700000000000053e+00 -3.565402999999999878e+00 1.177767676941173097e-01
3.192399999999999949e+01 5.389000000000000234e+00 1.896700000000000053e+00 -2.480570999999999859e+00 1.214199105464614653e-01
3.192699999999999960e+01 3.185599999999999987e+00 1.321000000000000085e+01 2.796305999999999958e+00 1.321559127585962556e-01
3.192899999999999849e+01 -7.236699999999999910e+00 1.511200000000000099e+00 -4.677640000000000131e-01 1.501366478748448474e-01
3.193199999999999861e+01 -1.067999999999999972e+01 1.194999999999999929e+01 -1.568083000000000027e+01 1.096278788807289323e-01
3.193400000000000105e+01 1.194900000000000073e+00 1.448000000000000043e+01 -2.717074000000000211e+00 1.294250224421709117e-01
3.194000000000000128e+01 -5.559999999999999609e+00 1.865899999999999892e+01 1.551797999999999966e+01 1.225232863932761151e-01
3.194200000000000017e+01 -6.424299999999999455e-01 1.647400000000000020e+01 1.734159000000000006e+00 1.280968506516587668e-01
3.194200000000000017e+01 4.376000000000000334e+00 1.128400000000000070e+01 -2.564836999999999989e+01 1.324190415647363839e-01
3.194500000000000028e+01 -5.811499999999999666e+00 5.165000000000000036e+00 1.359989999999999988e+01 1.429572520720475137e-01
3.194999999999999929e+01 -2.237999999999999989e+00 1.592600000000000016e+01 -4.300059999999999860e+01 1.246446512100023857e-01
3.197299999999999898e+01 -7.692999999999999616e+00 3.138999999999999790e+00 -1.477935999999999916e+00 1.480786752278604734e-01
3.197299999999999898e+01 -7.466000000000000192e+00 2.339900000000000091e+00 -1.817868999999999957e+00 1.490675403646908315e-01
3.197299999999999898e+01 -7.466000000000000192e+00 3.938099999999999934e+00 -4.949761999999999773e+00 1.466410990386984581e-01
3.197700000000000031e+01 -1.445300000000000057e-02 3.725000000000000089e+00 1.166750000000000043e+01 1.129660668349814906e-01
3.197800000000000153e+01 3.243300000000000072e+00 1.204199999999999982e+01 -1.025178000000000011e+01 1.308292132819440234e-01
3.198600000000000065e+01 2.481700000000000017e+00 1.414000000000000057e+01 2.920088999999999935e+00 1.317247579226580312e-01
3.198999999999999844e+01 8.111700000000000799e+00 3.313699999999999868e+00 4.396173999999999893e+01 1.296663382345805138e-01
3.200800000000000267e+01 9.048999999999999488e+00 1.048499999999999943e+01 1.961420000000000030e+01 1.421955456512545291e-01
3.202400000000000091e+01 1.461000000000000076e+00 3.847999999999999865e+00 8.748953999999999454e+00 1.158807780798646603e-01
3.202400000000000091e+01 2.651899999999999924e+00 3.184000000000000163e+00 -3.894287999999999972e+00 1.173889228913584937e-01
3.202499999999999858e+01 -1.453000000000000069e+00 1.610200000000000031e+01 -2.875472999999999857e+01 1.262400107559099594e-01
3.203600000000000136e+01 -3.899000000000000021e+00 6.467299999999999827e+00 5.011218999999999646e+00 1.103436705574531163e-01
3.204299999999999926e+01 -5.691900000000000404e+00 -5.095699999999999674e-01 -1.681108999999999964e+00 1.519343890933350372e-01
3.205299999999999727e+01 -8.132699999999999818e+00 1.189199999999999946e+01 4.678632000000000346e+00 1.118754386201799844e-01
3.208200000000000074e+01 -6.578999999999999737e+00 9.622999999999999332e+00 1.960687000000000069e+00 1.108870362174316782e-01
3.208200000000000074e+01 -5.028999999999999915e+00 9.622999999999999332e+00 1.387833000000000006e+01 1.127297977788091626e-01
3.208200000000000074e+01 -3.629000000000000004e+00 9.622999999999999332e+00 -2.162827000000000055e+00 1.146576689599465293e-01
3.208599999999999852e+01 9.683299999999999130e+00 3.640000000000000124e+00 4.785427999999999571e+00 1.337506889260602905e-01
3.209700000000000131e+01 -1.121899999999999897e+00 -5.624400000000000510e-01 -3.602710000000000079e+00 2.281703994172288308e-01
3.210000000000000142e+01 2.700000000000000178e-01 1.636799999999999855e+01 3.520821999999999896e+00 1.297227420888609761e-01
3.210199999999999676e+01 -1.387699999999999934e+00 6.123800000000000354e-01 -1.158918000000000070e+01 2.264258718146137661e-01
3.210199999999999676e+01 -1.387699999999999934e+00 1.477600000000000025e+00 -7.343626000000000431e+00 2.251921349201032319e-01
3.211899999999999977e+01 -3.623000000000000220e+00 1.605000000000000071e+01 1.099108999999999892e+00 1.226071682301135002e-01
3.213199999999999790e+01 -2.846099999999999852e+00 8.867900000000000560e+00 2.047276999999999791e+00 1.149321968451645776e-01
3.213199999999999790e+01 -2.637000000000000011e+00 8.131899999999999906e+00 4.021304999999999907e+00 1.143188280664289846e-01
3.214500000000000313e+01 1.043500000000000050e+01 7.541400000000000325e+00 -1.586396000000000051e+01 1.412335655755504182e-01
3.215599999999999881e+01 -2.721999999999999975e+00 7.333599999999999675e+00 6.808703999999999645e+00 1.132157553236610437e-01
3.215699999999999648e+01 1.005199999999999960e+01 4.490000000000000213e+00 1.139503999999999984e+01 1.358541214687090659e-01
3.215699999999999648e+01 3.760199999999999654e-02 1.555300000000000082e+01 -1.079040999999999961e+01 1.284043001735469258e-01
3.216599999999999682e+01 1.083099999999999952e+01 6.734700000000000131e+00 -1.652211000000000141e+01 1.409209868314760528e-01
3.218699999999999761e+01 -8.894000000000000128e+00 1.477299999999999969e+01 1.203224999999999945e+01 1.145105723740013348e-01
3.220700000000000074e+01 -6.231399999999999828e+00 4.711000000000000298e+00 -4.952387999999999835e+01 1.441992430062850883e-01
3.221500000000000341e+01 8.673600000000000421e+00 3.603800000000000114e+00 7.535731000000000179e+00 1.314022082389784685e-01
3.221600000000000108e+01 3.410000000000000253e-01 1.485299999999999976e+01 -8.261540000000000106e+00 1.282085544957367873e-01
3.222699999999999676e+01 9.714299999999999713e+00 5.300300000000000011e+00 2.170183000000000106e+01 1.362974973553719160e-01
3.224300000000000210e+01 6.767299999999999649e+00 1.127299999999999969e+01 1.843899000000000044e+01 1.378195823931855357e-01
3.224600000000000222e+01 7.336000000000000298e+00 3.378000000000000114e+00 5.304124999999999801e+01 1.280396114865465784e-01
3.224900000000000233e+01 3.163699999999999957e+00 2.746700000000000141e+00 -1.804702999999999946e+00 1.181088503448643190e-01
3.225300000000000011e+01 1.007000000000000028e+01 5.995700000000000252e+00 2.901904000000000039e+00 1.381133759550621787e-01
3.226400000000000290e+01 8.380900000000000460e+00 1.063100000000000023e+01 3.197281999999999869e+01 1.406684320416294043e-01
3.226400000000000290e+01 -8.248900000000000787e+00 1.246299999999999919e+01 8.189828999999999581e+00 1.126325044178035223e-01
3.226800000000000068e+01 -2.544399999999999995e+00 -1.635199999999999987e+00 2.690376999999999796e+00 2.293637465462810554e-01
3.228099999999999881e+01 6.855499999999999927e-01 3.783300000000000107e+00 1.942641000000000062e+01 1.146711890093465441e-01
3.229299999999999926e+01 4.538999999999999702e+00 1.825900000000000079e+00 -2.144331999999999905e+00 1.198200132838043164e-01
3.229299999999999926e+01 8.310900000000000176e+00 4.490000000000000213e+00 1.561912000000000056e+01 1.318957811893835264e-01
3.229699999999999704e+01 -6.085300000000000153e+00 1.803300000000000125e+01 2.007620999999999967e+01 1.213535091733879134e-01
3.229699999999999704e+01 -5.034699999999999953e+00 1.803300000000000125e+01 8.616759000000000057e+00 1.227675073827271951e-01
3.232800000000000296e+01 -7.323800000000000310e+00 1.672700000000000031e+01 1.833418999999999910e+00 1.184570129316244447e-01
3.233100000000000307e+01 1.627599999999999936e+00 1.398900000000000077e+01 -8.715049000000000490e+00 1.297850046738659724e-01
3.233299999999999841e+01 9.574299999999999145e+00 9.635300000000000864e+00 1.251154999999999973e+01 1.420083957626822602e-01
3.233500000000000085e+01 -7.597400000000000375e+00 1.133099999999999952e+01 7.719847999999999821e+00 1.120771184332395726e-01
3.233800000000000097e+01 -1.075099999999999945e+00 1.598300000000000054e+01 -1.964807000000000059e+01 1.268759182369909311e-01
3.234199999999999875e+01 5.950499999999999901e+00 2.617999999999999883e+00 -1.058730999999999978e-01 1.239196516934454317e-01
3.236500000000000199e+01 -1.011899999999999977e+01 1.241900000000000048e+01 -5.356565999999999939e+00 1.110173330789734764e-01
3.236500000000000199e+01 -1.011899999999999977e+01 1.411899999999999977e+01 1.944451000000000107e+01 1.128347577704407606e-01
3.236500000000000199e+01 -9.068699999999999761e+00 1.241900000000000048e+01 5.345683000000000185e+00 1.119107041560511162e-01
3.236899999999999977e+01 6.424400000000000333e+00 3.302099999999999813e+00 3.144760000000000222e+00 1.259266112856433084e-01
3.237800000000000011e+01 -7.980000000000000426e+00 1.606299999999999883e+01 -8.560774999999999635e-03 1.170303326773863423e-01
3.239800000000000324e+01 2.161000000000000032e+00 3.692899999999999849e+00 -2.836596000000000117e+00 1.174615379962212491e-01
3.239800000000000324e+01 7.336299999999999599e+00 4.928499999999999659e+00 -3.798935000000000173e+00 1.303234699143882014e-01
3.239800000000000324e+01 -6.236299999999999955e+00 1.739999999999999880e-01 6.727612999999999843e+00 1.512649880462940133e-01
3.240500000000000114e+01 -3.467799999999999994e+00 -1.679799999999999960e+00 -7.396031999999999607e-02 -4.877953502816467779e-02
3.241100000000000136e+01 9.157999999999999474e+00 4.490000000000000213e+00 1.546589999999999954e+01 1.337900389139990431e-01
3.241299999999999670e+01 -5.054000000000000270e+00 5.454299999999999926e+00 1.927008000000000010e+01 1.083532235823023437e-01
3.241700000000000159e+01 7.683699999999999974e+00 4.119699999999999918e+00 3.315404999999999802e+01 1.299355088187045537e-01
3.242300000000000182e+01 -3.154700000000000060e+00 6.633600000000000385e+00 1.579870000000000019e+01 1.120789994503775810e-01
3.243099999999999739e+01 -4.594699999999999562e+00 1.726800000000000068e+01 8.977002999999999844e+00 1.226512461019082095e-01
3.243599999999999994e+01 -1.048799999999999955e+01 1.326900000000000013e+01 1.810009999999999897e+00 1.116967137931897114e-01
3.244299999999999784e+01 -6.932999999999999829e+00 4.368699999999999584e+00 -1.037077999999999989e+01 1.455308633183847733e-01
3.244299999999999784e+01 2.820899999999999963e+00 3.474099999999999966e+00 -1.884068000000000076e+00 1.185332320510420062e-01
3.244299999999999784e+01 4.054000000000000270e+00 1.102100000000000080e+01 -5.754184999999999661e+01 1.313323114869953678e-01
3.245799999999999841e+01 -2.153000000000000025e+00 1.583500000000000085e+01 -3.131693999999999889e+01 1.248948930509271305e-01
3.246800000000000352e+01 8.925599999999999312e+00 5.304899999999999949e+00 1.796124000000000009e+01 1.344597295400551951e-01
3.246900000000000119e+01 -6.604700000000000237e+00 1.024000000000000021e+00 1.677137000000000100e+01 1.502580423827757083e-01
3.247299999999999898e+01 -7.512900000000000134e+00 1.246299999999999919e+01 2.949618000000000073e+00 1.135985905483075653e-01
3.247800000000000153e+01 -4.743400000000000283e+00 -9.020700000000000385e-01 -1.565401999999999960e+00 2.279900576169215098e-01
3.248100000000000165e+01 5.393699999999999939e+00 1.063499999999999979e+01 -1.834527999999999892e+01 1.338227854011101448e-01
3.252700000000000102e+01 9.228999999999999204e+00 6.004900000000000126e+00 9.095340999999999454e+00 1.361352266973458736e-01
3.253199999999999648e+01 -7.816300000000000026e+00 1.316300000000000026e+01 8.253253000000000839e+00 1.141247041095095616e-01
3.253199999999999648e+01 -6.928699999999999859e-01 2.549399999999999888e+00 -1.062646999999999897e+00 1.113108040432385926e-01
3.253300000000000125e+01 -4.166000000000000369e+00 6.078700000000000436e+00 5.560081000000000273e+00 1.102475770883148548e-01
3.253900000000000148e+01 -6.980699999999999683e+00 1.809600000000000097e+00 -3.005764000000000102e+00 1.494010267754326549e-01
3.254200000000000159e+01 6.857000000000000206e+00 4.152999999999999581e+00 2.340637000000000079e+00 1.281528088699517842e-01
3.255199999999999960e+01 -2.923000000000000043e+00 1.578299999999999947e+01 -2.323170000000000002e+01 1.236228089098037053e-01
3.255199999999999960e+01 -8.714199999999999946e+00 1.321599999999999930e+01 2.682623999999999853e+01 1.133007857859633233e-01
3.256099999999999994e+01 -7.122499999999999609e+00 1.006199999999999939e+01 2.318925000000000125e+00 1.113816821813466973e-01
3.256099999999999994e+01 -5.804000000000000270e+00 9.326999999999999957e+00 1.507849000000000039e+01 1.119937343641822930e-01
3.256099999999999994e+01 -4.253099999999999881e+00 9.767599999999999838e+00 2.332716000000000012e+00 1.144760954002174147e-01
3.256099999999999994e+01 -3.062199999999999811e+00 9.103600000000000136e+00 -1.797672999999999910e-01 1.153685465046534048e-01
3.256700000000000017e+01 -9.155200000000000671e+00 1.405100000000000016e+01 3.097891999999999868e+01 1.138052176429980716e-01
3.257000000000000028e+01 2.285400000000000098e+00 1.359200000000000053e+01 -9.984401000000000082e+00 1.306878363602849979e-01
3.257300000000000040e+01 2.364199999999999913e-01 3.441699999999999982e+00 6.525037999999999672e-01 1.138527642320167066e-01
3.257800000000000296e+01 -1.943799999999999972e+00 -9.127699999999999703e-01 -1.970123000000000069e+00 2.285381355509082391e-01
3.259799999999999898e+01 -1.667499999999999982e+00 -7.241000000000000041e-03 -1.338030999999999970e+01 2.273578288528038394e-01
3.259799999999999898e+01 -1.667499999999999982e+00 8.580100000000000504e-01 -9.970674999999999955e+00 2.261697135052223029e-01
3.260199999999999676e+01 9.749800000000000466e+00 8.815799999999999415e+00 2.906334000000000195e+00 1.411128342107961786e-01
3.260600000000000165e+01 9.991400000000000503e+00 7.991600000000000037e+00 2.927426000000000084e+00 1.405369328471981760e-01
3.260699999999999932e+01 6.600200000000000067e+00 4.928499999999999659e+00 -4.820959000000000216e+00 1.286954366385114901e-01
3.261200000000000188e+01 -4.045200000000000351e+00 1.621000000000000085e+01 7.712126999999999732e+00 1.224029313986229328e-01
3.261999999999999744e+01 -8.403100000000000236e+00 1.516999999999999993e+01 1.514232999999999940e+00 1.157998602773589736e-01
3.262599999999999767e+01 6.284699999999999953e+00 1.063000000000000078e+01 2.843615000000000137e+01 1.357709038285764280e-01
3.262599999999999767e+01 7.335300000000000153e+00 1.063000000000000078e+01 2.544247000000000014e+01 1.381052381189993572e-01
3.263000000000000256e+01 2.662599999999999856e+00 1.277299999999999969e+01 -1.005955999999999939e+01 1.305123641804999957e-01
3.263400000000000034e+01 9.275700000000000056e-01 1.404700000000000060e+01 -2.050495000000000090e+01 1.285074477682905392e-01
3.263600000000000279e+01 -7.477000000000000313e+00 1.178899999999999970e+01 1.152852999999999994e+01 1.130382212981112106e-01
3.264800000000000324e+01 -3.589999999999999858e-01 1.511999999999999922e+01 -3.053941999999999979e+01 1.272994710184189304e-01
3.265400000000000347e+01 3.194999999999999840e+00 4.143299999999999983e+00 7.712626000000000204e-01 1.203356253402792370e-01
3.265999999999999659e+01 2.784400000000000208e+00 1.187500000000000000e+01 -1.002521999999999913e+01 1.296835389415749440e-01
3.266499999999999915e+01 6.903599999999999959e+00 5.628499999999999837e+00 -8.326584999999999681e+00 1.303742856250685866e-01
3.266499999999999915e+01 7.768900000000000361e+00 5.628499999999999837e+00 2.860303000000000040e+00 1.323087707405449232e-01
3.267999999999999972e+01 -6.589199999999999946e+00 1.733299999999999841e+01 1.835801999999999934e+00 1.202014219942950657e-01
3.268999999999999773e+01 -9.593999999999999417e+00 1.326900000000000013e+01 7.689472999999999558e+00 1.126834212148807718e-01
3.269899999999999807e+01 5.679999999999999716e+00 8.894000000000000128e+00 -3.681357000000000212e+00 1.321555316999872831e-01
3.269899999999999807e+01 9.946199999999999264e+00 6.906799999999999606e+00 -2.850103999999999971e+00 1.388910371662449017e-01
3.270300000000000296e+01 -5.522100000000000009e+00 4.696900000000000297e+00 -2.426475999999999900e+01 1.436147680764855161e-01
3.272800000000000153e+01 2.518899999999999917e+00 9.727999999999999758e+00 -8.766222000000000847e+00 1.264093394294586170e-01
3.272800000000000153e+01 5.589100000000000179e+00 9.727999999999999758e+00 -1.174660000000000082e+01 1.330490692250597129e-01
3.273299999999999699e+01 -7.402700000000000280e+00 2.669299999999999784e+00 -1.508952999999999989e+00 1.485293776408141697e-01
3.273299999999999699e+01 -7.402700000000000280e+00 3.608699999999999797e+00 -6.750878000000000156e+00 1.471673441351725731e-01
3.273799999999999955e+01 -5.559999999999999609e+00 1.729799999999999827e+01 7.215614999999999668e+00 1.215105466926683364e-01
3.274699999999999989e+01 3.354000000000000092e+00 1.107900000000000063e+01 -1.339594999999999914e+01 1.299055441384100451e-01
3.276100000000000279e+01 8.560999999999999943e+00 5.961700000000000443e+00 3.782296999999999798e+00 1.345226018989874317e-01
3.277400000000000091e+01 4.013700000000000045e+00 2.422000000000000153e+00 -1.179583000000000048e+00 1.199154802386404733e-01
3.277400000000000091e+01 5.064300000000000246e+00 2.422000000000000153e+00 3.589913000000000132e+00 1.220569930884835286e-01
3.278399999999999892e+01 2.471999999999999975e+00 9.130800000000000693e+00 3.203248000000000206e-01 1.255509013084517844e-01
3.281099999999999994e+01 -7.489099999999999646e+00 1.646000000000000085e+01 -7.654421000000000141e+00 1.183067352333986300e-01
3.282099999999999795e+01 3.817099999999999937e+00 8.306699999999999307e+00 -4.948062999999999767e-02 1.272999449861953458e-01
3.282600000000000051e+01 -5.802100000000000257e+00 9.665599999999999747e-01 9.539671000000000234e+00 1.495796078792075157e-01
3.283899999999999864e+01 1.461000000000000076e+00 4.079500000000000348e+00 5.057553999999999661e+00 1.170809283506605292e-01
3.283899999999999864e+01 -8.314199999999999591e+00 1.396899999999999942e+01 6.433044999999999902e+00 1.147757789963474995e-01
3.284499999999999886e+01 3.645300000000000207e+00 3.271999999999999797e+00 6.417831999999999981e-01 1.202951342553857661e-01
3.284499999999999886e+01 5.432699999999999640e+00 3.271999999999999797e+00 1.472141000000000055e+01 1.239765830930439350e-01
3.285099999999999909e+01 2.423599999999999977e+00 4.054100000000000037e+00 -8.336961999999999984e-01 1.188740972175949262e-01
3.285600000000000165e+01 -2.663800000000000168e+00 7.030199999999999783e+00 1.146169000000000082e+01 1.137876288660887719e-01
3.285600000000000165e+01 -2.663800000000000168e+00 8.502299999999999969e+00 4.421395999999999660e+00 1.155448983910448424e-01
3.285600000000000165e+01 -2.454699999999999882e+00 7.766300000000000203e+00 1.046565999999999974e+01 1.149726364926218769e-01
3.285799999999999699e+01 8.724299999999999500e+00 9.960000000000000853e+00 2.317457999999999885e+01 1.401654025543990489e-01
3.286299999999999955e+01 3.931000000000000050e+00 4.143299999999999983e+00 1.419961999999999946e+00 1.220003814222694605e-01
3.286599999999999966e+01 -6.209399999999999586e+00 1.788999999999999924e+00 -2.586545999999999790e+00 1.486969993368466580e-01
3.286999999999999744e+01 5.630899999999999572e+00 4.161500000000000199e+00 1.962906999999999957e+00 1.255991942023541030e-01
3.287400000000000233e+01 4.523699999999999832e+00 1.048799999999999955e+01 -4.898550999999999789e+01 1.316738794006739044e-01
3.287400000000000233e+01 -5.059899999999999842e+00 -4.900000000000000189e-02 -4.054016999999999982e+00 2.269411508827954838e-01
3.290400000000000347e+01 -1.329499999999999904e+00 1.933799999999999963e+00 -6.982553000000000232e+00 2.248738616402551904e-01
3.290800000000000125e+01 6.416100000000000136e+00 8.894000000000000128e+00 -2.126184999999999992e+00 1.337592190324547459e-01
3.292199999999999704e+01 2.762300000000000200e+00 4.843300000000000161e+00 2.272095000000000198e+00 1.205920151028105902e-01
3.292199999999999704e+01 3.627600000000000158e+00 4.843300000000000161e+00 1.626527000000000056e+00 1.223317749381008790e-01
3.292699999999999960e+01 -8.461399999999999366e+00 1.446599999999999930e+01 4.582809000000000133e+00 1.152355772317676941e-01
3.292900000000000205e+01 5.934300000000000352e+00 4.861500000000000377e+00 -1.233079000000000036e+01 1.272258478439072804e-01
3.293299999999999983e+01 -5.363299999999999734e+00 6.510000000000000231e-01 5.160955999999999655e+00 1.496644697741259245e-01
3.293699999999999761e+01 3.254900000000000126e+00 9.727999999999999758e+00 -1.979798999999999864e+01 1.280089570538221477e-01
3.293699999999999761e+01 4.853100000000000414e+00 9.727999999999999758e+00 -3.371177999999999741e+01 1.314188491289078886e-01
3.296399999999999864e+01 -7.116299999999999848e+00 1.203100000000000058e+01 3.157091000000000136e+01 1.140198256499372204e-01
3.296399999999999864e+01 -7.116299999999999848e+00 1.289600000000000080e+01 1.967983000000000038e+00 1.149792361912895383e-01
3.296600000000000108e+01 5.247399999999999842e+00 8.194000000000000838e+00 -1.859803000000000139e+01 1.302681142343130594e-01
3.296600000000000108e+01 6.112700000000000244e+00 8.194000000000000838e+00 -1.725855999999999923e+01 1.321591569734191784e-01
3.297099999999999653e+01 4.655999999999999694e+00 8.221000000000000085e+00 1.265314000000000022e-02 1.290238334007280663e-01
3.297099999999999653e+01 6.869500000000000384e+00 1.006900000000000084e+01 2.342371999999999943e+01 1.362315370874946363e-01
3.297200000000000131e+01 4.584900000000000198e+00 8.969099999999999184e+00 -6.757527999999999757e+00 1.298572856887292848e-01
3.299300000000000210e+01 1.735999999999999988e+00 9.130800000000000693e+00 1.190094000000000030e+01 1.241662962372333812e-01
3.299300000000000210e+01 3.208000000000000185e+00 9.130800000000000693e+00 -5.614190999999999931e+00 1.271538134842624124e-01
3.299499999999999744e+01 2.951499999999999790e+00 1.042800000000000082e+01 -1.794363999999999848e+01 1.282834573107288212e-01
3.300000000000000000e+01 -4.072000000000000064e+00 -1.278699999999999948e+00 -1.421049999999999924e+00 2.286459146541187926e-01
3.300000000000000000e+01 -2.552000000000000046e+00 -1.278699999999999948e+00 -2.752731999999999957e+00 2.289401916410149229e-01
3.300600000000000023e+01 -2.544899999999999940e-01 3.045100000000000140e+00 3.799999000000000016e-01 1.131609908595491570e-01
3.300800000000000267e+01 3.600499999999999812e+00 1.052899999999999991e+01 -3.509655000000000058e+01 1.297641528445646342e-01
3.300800000000000267e+01 -3.612600000000000033e+00 1.571899999999999942e+01 -2.730205000000000215e+00 1.227133758402033648e-01
3.302700000000000102e+01 7.756300000000000416e+00 9.967299999999999827e+00 2.383068000000000097e+01 1.379962724501348492e-01
3.303999999999999915e+01 -6.578999999999999737e+00 9.622999999999999332e+00 1.273282999999999943e+00 1.120129758818404764e-01
3.304899999999999949e+01 -4.995199999999999640e+00 9.511599999999999611e+00 2.170924999999999994e+00 1.137337461432589986e-01
3.305100000000000193e+01 2.039400000000000102e+00 8.430799999999999628e+00 1.078144999999999953e+01 1.238940543413409034e-01
3.305700000000000216e+01 2.966499999999999915e+00 8.371000000000000441e+00 3.653434999999999988e+00 1.256889680907798124e-01
3.305799999999999983e+01 1.486199999999999966e+00 9.741099999999999426e+00 1.667335999999999885e+01 1.244899154222604415e-01
3.306199999999999761e+01 7.336299999999999599e+00 6.119399999999999729e+00 -4.740020999999999596e+00 1.320149153335795911e-01
3.307999999999999829e+01 -4.802699999999999747e+00 1.649899999999999878e+01 1.920512000000000086e+01 1.218778868399491844e-01
3.308700000000000330e+01 1.661399999999999988e+00 1.376699999999999946e+01 -1.328501999999999938e+01 1.296817256030656507e-01
3.308899999999999864e+01 4.249699999999999811e+00 7.606700000000000017e+00 -5.727547999999999639e+00 1.273697055230196828e-01
3.309199999999999875e+01 -4.905999999999999694e+00 2.380100000000000104e+00 1.993005000000000138e+01 1.465488239070503185e-01
3.309499999999999886e+01 2.975600000000000023e+00 6.686099999999999710e+00 1.099648000000000003e+01 1.235250868680950881e-01
3.309799999999999898e+01 6.203599999999999781e+00 5.361100000000000421e+00 -1.961271999999999949e+01 1.285313608840099320e-01
3.309899999999999665e+01 4.538999999999999702e+00 3.271999999999999797e+00 2.173719000000000179e+00 1.222893623709714050e-01
3.310799999999999699e+01 1.600000000000000033e-01 1.418999999999999950e+01 -1.600497999999999976e+01 1.273330103256832269e-01
3.310900000000000176e+01 3.351799999999999891e+00 7.553799999999999848e+00 1.773489999999999966e+01 1.254343169594137053e-01
3.310900000000000176e+01 2.642999999999999794e+00 1.113599999999999923e+01 -2.896368999999999971e+00 1.285550976336869156e-01
3.313400000000000034e+01 -6.063600000000000101e+00 1.680699999999999861e+01 -6.711151000000000089e+00 1.205718442337584129e-01
3.313499999999999801e+01 -5.031200000000000117e+00 5.093499999999999694e+00 -2.931845000000000034e+00 1.090363361189298635e-01
3.314000000000000057e+01 -5.028299999999999770e+00 1.192900000000000071e+00 -1.069123999999999963e+00 2.254896116785961302e-01
3.314200000000000301e+01 -3.534400000000000208e+00 9.494999999999999218e+00 2.100766000000000022e-01 1.157538125306344784e-01
3.314200000000000301e+01 7.610000000000000098e-01 4.021200000000000330e+00 1.620170000000000110e+00 1.160922732140211994e-01
3.315599999999999881e+01 -3.781000000000000139e+00 2.000999999999999890e+00 -4.889980999999999689e+00 2.246009933350701648e-01
3.316299999999999670e+01 9.091200000000000614e+00 6.499600000000000044e+00 7.364186999999999816e-01 1.362775434544180042e-01
