2.402700000000000102e+01 3.584799999999999898e+01 8.254600000000000648e+01 -7.048957999999999835e+00 -3.088890091716066655e-01
2.402899999999999991e+01 1.366300000000000026e+01 5.634100000000000108e+01 1.061259000000000086e+01 -8.814108262445823072e-02
2.403300000000000125e+01 2.876099999999999923e+01 4.812199999999999989e+01 4.729102000000000028e-01 1.849855949466229152e-02
2.403500000000000014e+01 3.580100000000000193e+01 7.147299999999999898e+01 8.118311999999999529e+00 1.017513709243776238e-01
2.403500000000000014e+01 3.743099999999999739e+01 7.147299999999999898e+01 1.214104999999999990e+01 -8.104495686408019761e-02
2.405199999999999960e+01 1.451200000000000045e+01 6.710599999999999454e+01 1.211699999999999999e+00 -2.577772331977383202e-01
2.405199999999999960e+01 2.794600000000000151e+01 8.432200000000000273e+01 -1.454433000000000087e+00 -2.660605077511657424e-01
2.405199999999999960e+01 2.794600000000000151e+01 8.526200000000000045e+01 -1.819477000000000011e+00 -2.662876242253015557e-01
2.405199999999999960e+01 3.313199999999999790e+01 6.886199999999999477e+01 3.744991999999999877e+00 -1.740064517574946013e-01
2.405199999999999960e+01 3.313199999999999790e+01 6.991200000000000614e+01 2.930775999999999826e+00 -1.734062845571763822e-01
2.405399999999999849e+01 4.822099999999999653e+01 9.404900000000000659e+01 2.278322999999999876e+00 -3.061762602916177634e-01
2.405399999999999849e+01 4.590299999999999869e+01 9.651999999999999602e+01 -2.028953000000000007e+00 -3.068590377946346370e-01
2.405399999999999849e+01 4.590299999999999869e+01 9.747799999999999443e+01 -1.655510000000000037e+00 -3.069658075459263946e-01
2.405499999999999972e+01 3.056599999999999895e+01 7.163299999999999557e+01 -5.942015999999999742e+00 -3.400274187977407325e-01
2.405999999999999872e+01 1.764799999999999969e+01 5.220600000000000307e+01 5.216853999999999658e+00 -7.217580307738905021e-02
2.405999999999999872e+01 3.367699999999999960e+01 8.301600000000000534e+01 -6.545030999999999821e+00 -3.101316143018048033e-01
2.407000000000000028e+01 1.498300000000000054e+01 5.538199999999999790e+01 1.402678000000000091e+00 1.984625695931337488e-02
2.407300000000000040e+01 1.469500000000000028e+01 6.879300000000000637e+01 -1.078622999999999976e+01 -3.500000000000000333e-01
2.407300000000000040e+01 1.492200000000000060e+01 6.959199999999999875e+01 -3.168296999999999919e+00 -3.499999999999999778e-01
2.407300000000000040e+01 1.621499999999999986e+01 7.031300000000000239e+01 -1.786952000000000140e+01 -3.500000000000000333e-01
2.407400000000000162e+01 4.803399999999999892e+01 9.276399999999999579e+01 -2.885864999999999903e+00 -3.060548925637583406e-01
2.407900000000000063e+01 4.175699999999999790e+01 9.129300000000000637e+01 -9.635974000000000483e-01 -3.072692678374070452e-01
2.407900000000000063e+01 4.175699999999999790e+01 9.403499999999999659e+01 5.894567000000000334e+00 -3.075570702166170456e-01
2.408200000000000074e+01 2.521600000000000108e+01 5.011399999999999721e+01 1.044949000000000083e+01 2.320671456289354409e-02
2.408399999999999963e+01 3.874900000000000233e+01 9.314499999999999602e+01 -9.337461000000000233e-01 -3.084359229805005986e-01
2.409600000000000009e+01 4.788300000000000267e+01 9.177100000000000080e+01 -3.384548999999999808e+00 -3.059615640357565280e-01
2.409600000000000009e+01 1.461299999999999955e+01 6.792600000000000193e+01 -1.263592000000000048e+00 -2.566725511018049799e-01
2.410000000000000142e+01 3.613700000000000045e+01 7.069799999999999329e+01 1.053344000000000058e+01 -8.135296276184046660e-02
2.410000000000000142e+01 3.613700000000000045e+01 7.224800000000000466e+01 1.628236000000000061e+01 1.021589590128919867e-01
2.410000000000000142e+01 3.709499999999999886e+01 7.069799999999999329e+01 5.149975999999999665e+00 -8.143148226057296546e-02
2.410000000000000142e+01 3.709499999999999886e+01 7.224800000000000466e+01 6.033987999999999907e+00 -8.057448505596978561e-02
2.411199999999999832e+01 4.791799999999999926e+01 9.334900000000000375e+01 -3.555394999999999861e+00 -3.061293776996408811e-01
2.411899999999999977e+01 2.905000000000000071e+01 5.367900000000000205e+01 1.113011000000000017e+01 -2.590032761004240069e-01
2.412000000000000099e+01 3.432500000000000284e+01 5.741899999999999693e+01 -2.371485999999999983e+00 -1.820521795161940126e-01
2.413200000000000145e+01 3.983500000000000085e+01 9.590999999999999659e+01 1.679723000000000077e+00 -3.083035816179412469e-01
2.413700000000000045e+01 4.145300000000000296e+01 9.059300000000000352e+01 -4.922362999999999822e+00 -3.072698293097292921e-01
2.414199999999999946e+01 2.970599999999999952e+01 5.220799999999999841e+01 2.626574000000000098e+01 -1.669865600829326113e-01
2.414900000000000091e+01 3.505199999999999960e+01 8.673499999999999943e+01 3.292602000000000029e+00 -3.095605416762016726e-01
2.415099999999999980e+01 4.603199999999999648e+01 9.508700000000000330e+01 -3.982706999999999997e+00 -3.066487386864111264e-01
2.415099999999999980e+01 4.603199999999999648e+01 9.595199999999999818e+01 -5.118238999999999983e+00 -3.067474163470375048e-01
2.415399999999999991e+01 2.086700000000000088e+01 5.123599999999999710e+01 1.590616999999999948e+01 -1.600720085436030948e-01
2.416199999999999903e+01 1.530300000000000082e+01 5.339800000000000324e+01 -2.263676999999999850e+01 1.930624828238458254e-02
2.416900000000000048e+01 3.220900000000000318e+01 8.278100000000000591e+01 -3.064181000000000044e+00 -2.656570965537968787e-01
2.417000000000000171e+01 3.581099999999999994e+01 7.943399999999999750e+01 -2.089142000000000010e+01 -3.639967702431101126e-01
2.417599999999999838e+01 3.846000000000000085e+01 9.393899999999999295e+01 -7.849722999999999562e-01 -3.085868127040493625e-01
2.417599999999999838e+01 3.846000000000000085e+01 9.498900000000000432e+01 1.014833000000000096e+00 -3.086741376612922583e-01
2.417599999999999838e+01 4.121000000000000085e+01 9.498900000000000432e+01 7.269871000000000194e+00 -3.077878832844931356e-01
2.417599999999999838e+01 3.425099999999999767e+01 5.994899999999999807e+01 -1.618177000000000021e+01 -9.559792117609608453e-02
2.417800000000000082e+01 4.266299999999999670e+01 9.134499999999999886e+01 -5.905226999999999560e-01 -3.069911075904909192e-01
2.417800000000000082e+01 4.266299999999999670e+01 9.398300000000000409e+01 4.013918000000000319e+00 -3.072790971061725718e-01
2.417800000000000082e+01 1.483399999999999963e+01 5.590999999999999659e+01 8.509968999999999895e+00 -8.699484860105610728e-02
2.417899999999999849e+01 3.866599999999999682e+01 9.166899999999999693e+01 -7.165656000000000247e-01 -3.083114647984180889e-01
2.418700000000000117e+01 4.489999999999999858e+01 9.432800000000000296e+01 -4.270482999999999585e+00 -3.067827607008478674e-01
2.419099999999999895e+01 4.776500000000000057e+01 9.034000000000000341e+01 -9.423595000000000610e+00 -3.057958675894777434e-01
2.420100000000000051e+01 3.878699999999999903e+01 8.975700000000000500e+01 -1.412034999999999929e+00 -3.080844788212592222e-01
2.420700000000000074e+01 4.353799999999999670e+01 9.123999999999999488e+01 -1.276685999999999988e+00 -3.067439321265681418e-01
2.420700000000000074e+01 4.353799999999999670e+01 9.387399999999999523e+01 1.926085999999999965e+00 -3.070380123193602317e-01
2.420899999999999963e+01 2.953300000000000125e+01 8.311100000000000421e+01 -1.282840999999999898e+00 -2.657457359092113003e-01
2.420899999999999963e+01 3.497200000000000131e+01 6.668099999999999739e+01 1.530218000000000131e+02 -8.425786368841539642e-02
2.421099999999999852e+01 2.182000000000000028e+01 5.113100000000000023e+01 8.023583000000000709e+01 -1.603700605370128041e-01
2.421399999999999864e+01 2.460699999999999932e+01 7.118600000000000705e+01 -3.598456999999999795e+01 -3.400101989995436558e-01
2.421499999999999986e+01 2.394099999999999895e+01 5.041599999999999682e+01 1.448418999999999990e+01 -1.616560147125156721e-01
2.421699999999999875e+01 4.471500000000000341e+01 9.058299999999999841e+01 -2.749588000000000143e+00 -3.063907519622711129e-01
2.421699999999999875e+01 4.728300000000000125e+01 7.768999999999999773e+01 -1.955780999999999992e+00 -2.927239413489070019e-01
2.421699999999999875e+01 3.207900000000000063e+01 6.404900000000000659e+01 9.499914000000000414e+00 -8.399024878052177567e-02
2.421699999999999875e+01 3.347899999999999920e+01 6.404900000000000659e+01 2.301398000000000010e+01 -8.680151808292196902e-02
2.421900000000000119e+01 2.219399999999999906e+01 7.072899999999999920e+01 1.248010000000000019e+01 -3.398902493731886243e-01
2.422500000000000142e+01 1.937500000000000000e+01 5.194500000000000028e+01 1.097804999999999964e+01 -6.995812743688156754e-02
2.422599999999999909e+01 3.065099999999999980e+01 5.153499999999999659e+01 3.670763000000000176e+01 -1.800702383818033325e-01
2.423400000000000176e+01 3.044000000000000128e+01 8.254099999999999682e+01 -5.583715999999999680e-01 -2.656027415436423289e-01
2.423400000000000176e+01 3.148999999999999844e+01 8.254099999999999682e+01 -1.982050000000000090e+00 -2.656034695070298435e-01
2.423699999999999832e+01 3.646800000000000352e+01 6.921099999999999852e+01 6.843660999999999994e+00 -8.229398891513386993e-02
2.424500000000000099e+01 3.661599999999999966e+01 6.992199999999999704e+01 4.472902999999999629e+00 -8.181459035919273759e-02
2.424899999999999878e+01 3.832800000000000296e+01 9.085899999999999466e+01 -7.148527999999999549e-01 -3.083498971833180669e-01
2.424899999999999878e+01 2.606599999999999895e+01 7.127899999999999636e+01 -1.736060000000000159e+01 -3.400552505906861978e-01
2.425100000000000122e+01 4.647500000000000142e+01 8.857800000000000296e+01 -3.522855999999999987e+00 -3.058073151632498266e-01
2.426099999999999923e+01 4.007699999999999818e+01 8.893300000000000693e+01 -2.212416000000000160e+00 -3.075125041351718935e-01
2.426599999999999824e+01 4.929399999999999693e+01 9.691700000000000159e+01 -1.427322999999999897e+00 -3.062976122025180548e-01
2.427400000000000091e+01 2.283299999999999841e+01 7.081000000000000227e+01 1.882902999999999949e+01 -3.399208821584052131e-01
2.427499999999999858e+01 4.501800000000000068e+01 8.988299999999999557e+01 -3.493288000000000171e+00 -3.062294471046634325e-01
2.427499999999999858e+01 2.979200000000000159e+01 5.560499999999999687e+01 2.738065999999999889e+00 -2.703085237013826969e-01
2.427899999999999991e+01 3.491499999999999915e+01 6.409900000000000375e+01 8.740795000000000314e+00 -1.003501237628878495e-01
2.428099999999999881e+01 1.938500000000000156e+01 7.101300000000000523e+01 -5.667874000000000301e+00 -3.398204951262042695e-01
2.428600000000000136e+01 4.975699999999999790e+01 9.601099999999999568e+01 9.026720000000000299e-01 -3.061266263782292940e-01
2.428600000000000136e+01 3.327000000000000313e+01 6.792499999999999716e+01 7.064051000000000080e+00 -1.747794612543180914e-01
2.428699999999999903e+01 1.782700000000000173e+01 7.049599999999999511e+01 -4.837324000000000068e-01 -3.500000000000000333e-01
2.428699999999999903e+01 1.340000000000000036e+01 5.834300000000000352e+01 1.509243999999999986e+01 -8.469537136101580599e-02
2.428999999999999915e+01 4.524499999999999744e+01 8.940099999999999625e+01 -3.330687999999999871e+00 -3.061237169432272642e-01
2.428999999999999915e+01 4.770499999999999829e+01 8.940099999999999625e+01 -6.829241999999999813e+00 -3.056748948635145124e-01
2.428999999999999915e+01 3.438300000000000267e+01 7.840600000000000591e+01 -4.710105000000000430e+00 -3.646374826119259671e-01
2.428999999999999915e+01 3.309799999999999898e+01 8.296899999999999409e+01 -5.585505000000000386e+00 -2.657050583852044179e-01
2.429700000000000060e+01 3.101999999999999957e+01 5.068500000000000227e+01 -1.182605000000000040e+01 -9.116307532401939084e-02
2.430000000000000071e+01 4.130700000000000216e+01 8.975600000000000023e+01 -2.726868000000000070e+00 -3.071780565603224322e-01
2.430600000000000094e+01 1.628800000000000026e+01 5.283500000000000085e+01 5.013060000000000294e+00 -7.371474269359544473e-02
2.430900000000000105e+01 2.940099999999999980e+01 7.345499999999999829e+01 8.181694000000000244e+00 -3.402764846234480611e-01
2.431099999999999994e+01 3.037800000000000011e+01 8.645300000000000296e+01 8.798849000000000586e+00 -2.665008563971593691e-01
2.431099999999999994e+01 3.207999999999999829e+01 8.645300000000000296e+01 -2.475337000000000032e+01 -3.112395634598031924e-01
2.431500000000000128e+01 3.071699999999999875e+01 4.965500000000000114e+01 -3.111297000000000068e+01 -9.382136061105418590e-02
2.431899999999999906e+01 2.928099999999999881e+01 5.301400000000000290e+01 1.089254999999999995e+01 -1.677117183815070578e-01
2.433500000000000085e+01 1.698300000000000054e+01 7.037900000000000489e+01 -2.349709999999999965e+01 -3.499999999999999778e-01
2.433500000000000085e+01 3.391299999999999670e+01 7.736299999999999955e+01 -3.817120000000000068e+00 -3.649568029652841550e-01
2.433999999999999986e+01 3.370700000000000074e+01 6.716200000000000614e+01 1.273244000000000042e+01 -1.758185129322847595e-01
2.434100000000000108e+01 2.751300000000000168e+01 7.341100000000000136e+01 -6.446929000000000132e-01 -3.402606193530939849e-01
2.434199999999999875e+01 2.841600000000000037e+01 8.356199999999999761e+01 -1.455101999999999896e+00 -2.658812285371925377e-01
2.434199999999999875e+01 2.841600000000000037e+01 8.602200000000000557e+01 -4.617092000000000418e+00 -2.664769708072708410e-01
2.434299999999999997e+01 2.869300000000000139e+01 4.950399999999999778e+01 5.043172999999999684e-01 1.976472893694803529e-02
2.434600000000000009e+01 3.726500000000000057e+01 7.826999999999999602e+01 -3.038075000000000081e+00 -3.739064244824060190e-01
2.435000000000000142e+01 4.638199999999999790e+01 9.825300000000000011e+01 -3.870096999999999898e+00 -3.068982692845166893e-01
2.435000000000000142e+01 4.793200000000000216e+01 9.825300000000000011e+01 -2.770853999999999928e+01 -3.066347514608315228e-01
2.435099999999999909e+01 2.896999999999999886e+01 5.220799999999999841e+01 6.582588000000000328e+00 -1.687929547685486642e-01
2.435300000000000153e+01 2.050300000000000011e+01 5.192399999999999949e+01 1.067450999999999972e+01 -6.830721996957102304e-02
2.435800000000000054e+01 2.229500000000000171e+01 5.133299999999999841e+01 4.006853999999999871e+01 -1.601456491193420650e-01
2.435999999999999943e+01 1.308699999999999974e+01 5.729899999999999949e+01 3.232209999999999805e+00 -8.731581958006581767e-02
2.437699999999999889e+01 3.260699999999999932e+01 7.076200000000000045e+01 1.025708999999999982e+00 -1.722217123086573209e-01
2.437699999999999889e+01 2.965800000000000125e+01 4.981300000000000239e+01 6.127867999999999649e-01 -9.522045899002844205e-02
2.438100000000000023e+01 1.318900000000000006e+01 6.119400000000000261e+01 -5.686252999999999780e+00 -7.539558589801843846e-02
2.438700000000000045e+01 1.431400000000000006e+01 5.637800000000000011e+01 6.855796999999999919e+00 -8.759950518219866700e-02
2.439199999999999946e+01 2.108599999999999852e+01 7.096699999999999875e+01 6.298366999999999827e+00 -3.398791352485164285e-01
2.439399999999999835e+01 3.563799999999999812e+01 7.438200000000000500e+01 -6.639775000000000205e+00 -3.297704040616353249e-01
2.439799999999999969e+01 3.676500000000000057e+01 8.554800000000000182e+01 1.003909999999999941e-01 -3.085354672879513371e-01
2.441199999999999903e+01 3.831199999999999761e+01 9.309900000000000375e+01 -1.609040999999999944e+00 -3.085125929036637293e-01
2.441600000000000037e+01 3.738199999999999790e+01 7.011700000000000443e+01 8.845895999999999759e+00 -8.167081717811060237e-02
2.442000000000000171e+01 4.985000000000000142e+01 9.497100000000000364e+01 2.616796000000000078e+01 -3.059633950201774422e-01
2.442099999999999937e+01 3.349199999999999733e+01 5.650200000000000244e+01 3.577992000000000061e+00 -1.813684870259868187e-01
2.442200000000000060e+01 4.869700000000000273e+01 9.400600000000000023e+01 6.877798000000000300e+00 -3.060078599066505811e-01
2.443299999999999983e+01 2.927899999999999991e+01 5.068500000000000227e+01 1.514934000000000047e+01 -1.685142404002807071e-01
2.443299999999999983e+01 3.592399999999999949e+01 6.997799999999999443e+01 1.845551000000000030e+01 -8.163418288459441119e-02
2.443900000000000006e+01 3.716499999999999915e+01 8.366700000000000159e+01 -1.611288000000000054e+01 -3.081809304201775790e-01
2.443900000000000006e+01 3.661599999999999966e+01 8.236899999999999977e+01 -6.639238999999999891e+00 -3.083512375200360145e-01
2.444000000000000128e+01 3.239200000000000301e+01 5.589999999999999858e+01 9.984813000000000160e-01 -1.804098370254674788e-01
2.444000000000000128e+01 3.665699999999999648e+01 7.284399999999999409e+01 1.530042000000000080e+01 1.028604428758085748e-01
2.444099999999999895e+01 3.727300000000000324e+01 7.643300000000000693e+01 -1.377444999999999986e+01 -3.742780613061862938e-01
2.444399999999999906e+01 4.648400000000000176e+01 7.768999999999999773e+01 -6.384519000000000055e+00 -2.921381777463922247e-01
2.444399999999999906e+01 4.808200000000000074e+01 7.768999999999999773e+01 -7.987798999999999872e+00 -2.930303059798116116e-01
2.444399999999999906e+01 2.682300000000000040e+01 4.784799999999999898e+01 5.458082000000000100e+00 1.971957515930330626e-02
2.444399999999999906e+01 2.787300000000000111e+01 4.784799999999999898e+01 1.043935999999999975e+00 1.884218153809583823e-02
2.444999999999999929e+01 3.789300000000000068e+01 9.050000000000000000e+01 -2.954324999999999868e-01 -3.084378187618822542e-01
2.444999999999999929e+01 3.742900000000000205e+01 7.736299999999999955e+01 9.255043000000000575e+00 -3.740654037410228172e-01
2.445299999999999940e+01 1.283900000000000041e+01 6.182399999999999807e+01 -3.293178999999999856e+00 -2.641082739902932408e-01
2.445700000000000074e+01 1.375999999999999979e+01 5.730100000000000193e+01 1.745257000000000147e+01 -8.790137770500701386e-02
2.446099999999999852e+01 3.697299999999999898e+01 8.277200000000000557e+01 -1.359160999999999930e+01 -3.081972721413146488e-01
2.446300000000000097e+01 3.365800000000000125e+01 6.938700000000000045e+01 3.510009999999999852e+00 -1.742916097804004250e-01
2.446399999999999864e+01 3.841100000000000136e+01 9.219299999999999784e+01 -8.211214999999999486e-01 -3.083811075452819184e-01
2.446799999999999997e+01 3.565299999999999869e+01 6.921099999999999852e+01 2.816996999999999929e+01 -8.212960868535922054e-02
2.446799999999999997e+01 3.728300000000000125e+01 6.921099999999999852e+01 1.112714000000000070e+01 -8.225174692442842328e-02
2.447299999999999898e+01 1.157600000000000051e+01 6.384199999999999875e+01 -1.431986000000000026e+01 -2.597207617214778441e-01
2.447299999999999898e+01 1.180300000000000082e+01 6.304299999999999926e+01 -5.877202999999999733e+00 -2.611812445467153743e-01
2.447299999999999898e+01 1.180300000000000082e+01 6.464100000000000534e+01 -1.032353999999999949e+01 -2.587082388205796946e-01
2.447299999999999898e+01 1.302800000000000047e+01 6.548600000000000421e+01 -1.478266999999999953e+01 -2.586122898586842300e-01
2.447299999999999898e+01 3.684300000000000352e+01 7.919299999999999784e+01 -1.796746999999999872e+01 -3.636135309774572999e-01
2.447400000000000020e+01 3.530499999999999972e+01 7.099899999999999523e+01 8.052894000000000219e+00 1.016292559033708243e-01
2.448199999999999932e+01 3.398899999999999721e+01 7.611400000000000432e+01 -1.126551000000000080e+01 -3.302573328703719557e-01
2.448199999999999932e+01 3.421600000000000108e+01 7.531499999999999773e+01 -4.490742000000000012e+00 -3.300940061434011752e-01
2.448199999999999932e+01 3.680199999999999960e+01 7.531499999999999773e+01 -2.521233000000000146e+01 -1.582960678185630354e-01
2.448499999999999943e+01 3.164600000000000080e+01 6.334899999999999665e+01 -1.818312999999999846e+01 -8.329834279350892268e-02
2.448699999999999832e+01 3.105699999999999861e+01 7.123600000000000421e+01 -8.149686999999999903e-01 -3.399226843294477218e-01
2.448999999999999844e+01 3.879800000000000182e+01 8.910699999999999932e+01 -1.101463000000000081e+00 -3.079340347479663231e-01
2.449200000000000088e+01 3.076699999999999946e+01 5.593200000000000216e+01 3.698783000000000154e+00 -2.718660293214280044e-01
2.450100000000000122e+01 3.898499999999999943e+01 9.583899999999999864e+01 5.918330000000000091e+00 -3.084922668786677091e-01
2.450100000000000122e+01 4.068500000000000227e+01 9.583899999999999864e+01 1.189352000000000054e+01 -3.079508763110748726e-01
2.450700000000000145e+01 4.681300000000000239e+01 7.693000000000000682e+01 -1.493425999999999920e+00 -2.593936518590848062e-01
2.450700000000000145e+01 4.681300000000000239e+01 7.845000000000000284e+01 -5.679401000000000366e+00 -3.731722829237075767e-01
2.450700000000000145e+01 4.775300000000000011e+01 7.693000000000000682e+01 -3.110853999999999786e+00 -2.595886008732753991e-01
2.450700000000000145e+01 4.775300000000000011e+01 7.845000000000000284e+01 -1.467450999999999972e+01 -3.731298433754293153e-01
2.450900000000000034e+01 2.907999999999999829e+01 5.150399999999999778e+01 9.817458999999999492e+00 -1.687084707998439126e-01
2.451500000000000057e+01 2.451599999999999824e+01 5.038100000000000023e+01 1.202281999999999940e+01 -1.619050154392100427e-01
2.451500000000000057e+01 2.570700000000000074e+01 4.971699999999999875e+01 5.357312000000000296e+00 2.253665598209435642e-02
2.451500000000000057e+01 2.591600000000000037e+01 4.898100000000000165e+01 5.446400999999999826e+00 2.163132450150535846e-02
2.451500000000000057e+01 2.824200000000000088e+01 4.869800000000000040e+01 3.694991999999999721e-02 1.934533829124533005e-02
2.451800000000000068e+01 3.420199999999999818e+01 8.666400000000000148e+01 -2.053770999999999791e+00 -3.099317414689577999e-01
2.451800000000000068e+01 3.590200000000000102e+01 8.666400000000000148e+01 -5.848162000000000083e-01 -3.090150092762259382e-01
2.452100000000000080e+01 3.277900000000000347e+01 6.410699999999999932e+01 1.293073000000000050e+01 -8.563793986763733324e-02
2.452299999999999969e+01 3.163500000000000156e+01 6.243399999999999750e+01 -1.329153999999999947e+01 -1.889801345912023034e-01
2.452799999999999869e+01 1.851999999999999957e+01 5.203199999999999648e+01 7.814021999999999579e+00 -7.126316082463934887e-02
2.453300000000000125e+01 3.598899999999999721e+01 6.843600000000000705e+01 5.934641000000000055e+00 -8.270710916006743241e-02
2.453300000000000125e+01 3.694700000000000273e+01 6.843600000000000705e+01 8.947694000000000258e+00 -8.277214579376693249e-02
2.454200000000000159e+01 2.935999999999999943e+01 5.490500000000000114e+01 6.914596000000000409e+00 -2.710021780042098927e-01
2.454299999999999926e+01 1.545500000000000007e+01 7.002299999999999613e+01 -2.419928000000000168e+01 -3.499999999999999778e-01
2.454299999999999926e+01 3.352900000000000347e+01 6.842900000000000205e+01 3.592585000000000139e+00 -1.747733626333002332e-01
2.454400000000000048e+01 4.293699999999999761e+01 9.430100000000000193e+01 -5.106809000000000154e+00 -3.071482399515089168e-01
2.455099999999999838e+01 3.012600000000000122e+01 5.068500000000000227e+01 1.927249000000000123e+01 -9.249319806415862155e-02
2.456099999999999994e+01 3.141400000000000148e+01 6.164900000000000091e+01 -1.076040000000000063e+01 -1.881211667111784835e-01
2.456099999999999994e+01 3.162300000000000111e+01 6.091299999999999670e+01 -3.227756999999999987e+00 -1.877312957697641616e-01
2.456099999999999994e+01 3.281400000000000006e+01 6.024900000000000233e+01 -4.368216999999999572e+00 -9.661541838492666845e-02
2.457600000000000051e+01 3.032000000000000028e+01 7.236599999999999966e+01 -3.806766999999999790e+00 -3.401458721457467638e-01
2.457900000000000063e+01 3.536200000000000188e+01 7.195199999999999818e+01 1.015292000000000083e+00 1.019100039807702557e-01
2.457900000000000063e+01 3.786999999999999744e+01 7.099399999999999977e+01 3.239275000000000126e+00 -8.109926113647211721e-02
2.457900000000000063e+01 3.786999999999999744e+01 7.195199999999999818e+01 4.343217999999999801e-01 -8.056876308327416691e-02
2.457999999999999829e+01 4.571500000000000341e+01 8.864100000000000534e+01 -3.699485000000000134e+00 -3.058534538023131022e-01
2.457999999999999829e+01 4.723499999999999943e+01 8.864100000000000534e+01 -4.720093000000000316e+00 -3.055799993649450097e-01
2.458399999999999963e+01 4.446699999999999875e+01 9.481900000000000261e+01 -8.187305000000000277e+00 -3.068321497966075007e-01
2.458399999999999963e+01 4.533200000000000074e+01 9.481900000000000261e+01 -8.180469000000000435e+00 -3.066475751694731633e-01
2.458500000000000085e+01 2.790399999999999991e+01 4.950800000000000267e+01 -1.716979999999999951e+00 2.040848216325284389e-02
2.458999999999999986e+01 4.083700000000000330e+01 8.899599999999999511e+01 -5.454004000000000296e+00 -3.071572189357086868e-01
2.459299999999999997e+01 2.979100000000000037e+01 7.310099999999999909e+01 -3.849272000000000027e+00 -3.402632074571306786e-01
2.459299999999999997e+01 1.704400000000000048e+01 5.271399999999999864e+01 1.101970999999999989e+01 -7.294966394994681358e-02
2.459499999999999886e+01 3.104899999999999949e+01 8.678199999999999648e+01 -6.084440999999999988e+00 -2.665727290801859772e-01
2.460399999999999920e+01 4.397099999999999653e+01 9.436499999999999488e+01 -6.554923999999999751e+00 -3.068868334314512891e-01
2.460600000000000165e+01 3.670700000000000074e+01 8.608400000000000318e+01 2.474357000000000084e-01 -3.085425133423330690e-01
2.460800000000000054e+01 3.803399999999999892e+01 9.001200000000000045e+01 -6.774483000000000033e-01 -3.082916644837252473e-01
2.461100000000000065e+01 3.447399999999999665e+01 6.719799999999999329e+01 4.014014999999999844e+01 -8.361573300603127035e-02
2.461100000000000065e+01 1.553400000000000070e+01 5.470600000000000307e+01 4.454583000000000403e+00 1.959575299475466853e-02
2.461100000000000065e+01 1.553400000000000070e+01 5.564200000000000301e+01 1.351566000000000045e+01 1.990100717669488969e-02
2.461400000000000077e+01 4.391700000000000159e+01 9.094899999999999807e+01 -1.961975000000000025e+00 -3.064975019102401665e-01
2.461400000000000077e+01 2.967800000000000082e+01 8.639499999999999602e+01 -2.215200000000000102e+01 -2.665428991459309338e-01
2.461400000000000077e+01 3.278000000000000114e+01 8.639499999999999602e+01 -9.348262000000000072e+00 -3.107438045178469443e-01
2.462300000000000111e+01 2.345899999999999963e+01 5.108599999999999852e+01 1.774243999999999843e+01 -1.607695369646593986e-01
2.462699999999999889e+01 1.371499999999999986e+01 6.604500000000000171e+01 -1.193012000000000050e+01 -2.583732576695083605e-01
2.464199999999999946e+01 4.563600000000000279e+01 9.551900000000000546e+01 -7.947267000000000081e+00 -3.066547457777694108e-01
2.464600000000000080e+01 3.349099999999999966e+01 6.023899999999999721e+01 -1.197444999999999915e+01 -9.643859688009479014e-02
2.464600000000000080e+01 3.478399999999999892e+01 5.792000000000000171e+01 -1.485421999999999976e+01 -9.247338037392062449e-02
2.464600000000000080e+01 3.478399999999999892e+01 5.951800000000000068e+01 -3.696916000000000224e+01 -9.499476152304116294e-02
2.464600000000000080e+01 3.501100000000000279e+01 5.871900000000000119e+01 -7.813737999999999850e+00 -9.369910717546556245e-02
2.465299999999999869e+01 1.569999999999999929e+01 5.383100000000000307e+01 -2.696358000000000033e+00 1.934950499905101207e-02
2.465599999999999881e+01 2.138899999999999935e+01 5.190999999999999659e+01 2.702355999999999980e+01 -1.591792801040641803e-01
2.465800000000000125e+01 4.032399999999999807e+01 8.084399999999999409e+01 -4.076488999999999585e+00 -3.065737591763449954e-01
2.466400000000000148e+01 3.634700000000000131e+01 7.362500000000000000e+01 6.607686000000000393e-01 -1.614275623509665858e-01
2.466700000000000159e+01 3.806300000000000239e+01 9.350600000000000023e+01 -1.307388999999999912e+00 -3.085800476172345097e-01
2.466900000000000048e+01 3.417099999999999937e+01 6.789799999999999613e+01 4.169279000000000401e+00 -8.296425158442580217e-02
2.467099999999999937e+01 4.192900000000000205e+01 9.471999999999999886e+01 7.096919999999999895e+00 -3.074315591138032655e-01
2.467200000000000060e+01 3.439399999999999835e+01 6.938700000000000045e+01 3.737589999999999968e+00 1.005675890852443660e-01
2.467800000000000082e+01 3.491700000000000159e+01 6.921099999999999852e+01 4.992623000000000033e+00 -8.197513538223379082e-02
2.468199999999999861e+01 2.655699999999999861e+01 7.167600000000000193e+01 -2.989580999999999822e+00 -3.401121958098122233e-01
2.468199999999999861e+01 2.676599999999999824e+01 7.241200000000000614e+01 -1.461222000000000021e+00 -3.401809721525740349e-01
2.468299999999999983e+01 3.581300000000000239e+01 6.535299999999999443e+01 -6.184192999999999607e+00 -8.542300695471825855e-02
2.468799999999999883e+01 3.414000000000000057e+01 6.370600000000000307e+01 9.389682999999999780e+00 -1.004975802738803797e-01
2.468799999999999883e+01 3.723400000000000176e+01 8.478900000000000148e+01 -6.879359000000000002e+00 -3.081552313386179964e-01
2.468900000000000006e+01 3.472500000000000142e+01 8.267700000000000671e+01 -5.705239999999999867e+00 -3.093188926625714541e-01
2.469099999999999895e+01 2.827499999999999858e+01 7.383599999999999852e+01 -2.496917999999999971e+00 -3.403123582230320743e-01
2.469099999999999895e+01 3.555199999999999960e+01 6.620000000000000284e+01 1.140608999999999984e+00 -8.457049543506009459e-02
2.469399999999999906e+01 3.543399999999999750e+01 6.708700000000000330e+01 1.435737999999999914e+01 -8.373739974184804535e-02
2.470499999999999829e+01 2.413800000000000168e+01 7.075199999999999534e+01 -1.896266999999999925e+01 -3.399630409728572333e-01
2.470499999999999829e+01 2.507600000000000051e+01 7.075199999999999534e+01 -3.153302000000000049e+01 -3.399905298991802161e-01
2.470700000000000074e+01 3.505100000000000193e+01 7.925499999999999545e+01 -1.420423000000000080e+01 -3.641960043424837812e-01
2.470899999999999963e+01 3.777499999999999858e+01 7.037999999999999545e+01 3.424309000000000047e+00 -8.139987471449246226e-02
2.471399999999999864e+01 2.022100000000000009e+01 5.260999999999999943e+01 7.596290999999999904e+00 -6.817839008016066127e-02
2.471399999999999864e+01 2.108599999999999852e+01 5.260999999999999943e+01 8.070842999999999989e+00 -6.679745632842586101e-02
2.471499999999999986e+01 4.439800000000000324e+01 9.052899999999999636e+01 -3.321235999999999855e+00 -3.063051944507390045e-01
2.471499999999999986e+01 3.096499999999999986e+01 8.194499999999999318e+01 1.559657999999999989e+00 -2.654758409408369824e-01
2.471600000000000108e+01 4.937100000000000222e+01 9.419599999999999795e+01 8.734090000000000131e+00 -3.058627472678460690e-01
2.471999999999999886e+01 1.389100000000000001e+01 5.873899999999999721e+01 1.099642000000000053e+01 -8.442697787717302893e-02
2.471999999999999886e+01 1.389100000000000001e+01 6.021099999999999852e+01 -6.266098999999999641e+00 -7.956862002352800556e-02
2.471999999999999886e+01 1.409999999999999964e+01 5.947500000000000142e+01 1.381175999999999959e+00 -8.239545344370688418e-02
2.472100000000000009e+01 4.947599999999999909e+01 9.676099999999999568e+01 -9.070342000000000127e+00 -3.061524706359520787e-01
2.472299999999999898e+01 3.239800000000000324e+01 8.270099999999999341e+01 -4.418097000000000385e+00 -2.656623311699583545e-01
2.472400000000000020e+01 3.488199999999999790e+01 7.021800000000000352e+01 4.455375000000000085e+00 1.013054022080525085e-01
2.472500000000000142e+01 4.215400000000000347e+01 9.088400000000000034e+01 -5.584902999999999729e+00 -3.069190252862365464e-01
2.473300000000000054e+01 2.833299999999999841e+01 5.073700000000000188e+01 7.681662000000000212e-01 -1.710296225682499116e-01
2.473499999999999943e+01 3.361099999999999710e+01 7.715699999999999648e+01 -3.817120000000000068e+00 -3.650557408837025730e-01
2.475199999999999889e+01 3.426500000000000057e+01 6.842900000000000205e+01 3.761216999999999810e+00 -8.249501514342451325e-02
2.475199999999999889e+01 3.426500000000000057e+01 7.034499999999999886e+01 3.353772999999999893e+00 1.007675272238161696e-01
2.475499999999999901e+01 3.062399999999999878e+01 7.193600000000000705e+01 -3.806766999999999790e+00 -3.400567004463549425e-01
2.475799999999999912e+01 2.016300000000000026e+01 7.127899999999999636e+01 -2.821145000000000014e+00 -3.398853167964273059e-01
2.475799999999999912e+01 3.545900000000000318e+01 6.453799999999999670e+01 -9.633471999999999591e-01 -8.625560198537665646e-02
2.476300000000000168e+01 3.302900000000000347e+01 7.062699999999999534e+01 2.008821999999999885e+00 9.960023553371805116e-02
2.476399999999999935e+01 4.883299999999999841e+01 9.743800000000000239e+01 -2.272383999999999915e+01 -3.063127443937592731e-01
2.476899999999999835e+01 2.734799999999999898e+01 4.869800000000000040e+01 -7.075388000000000233e-01 2.008143202841365660e-02
2.476899999999999835e+01 2.916199999999999903e+01 7.381199999999999761e+01 -2.799529000000000156e+00 -3.299178899698924083e-01
2.476999999999999957e+01 2.910800000000000054e+01 8.314799999999999613e+01 -1.155329999999999968e+00 -2.657917909422952141e-01
2.477700000000000102e+01 1.886899999999999977e+01 7.103300000000000125e+01 -4.014310999999999852e-01 -3.398047354529752373e-01
2.477899999999999991e+01 2.182999999999999829e+01 7.080100000000000193e+01 1.926029000000000124e+01 -3.398917740873391713e-01
2.478699999999999903e+01 1.407099999999999973e+01 6.665200000000000102e+01 -3.230115000000000069e+00 -2.577024490871967499e-01
2.478800000000000026e+01 4.852799999999999869e+01 9.791299999999999670e+01 -1.200371999999999950e+01 -3.064085416961828123e-01
2.479200000000000159e+01 4.539500000000000313e+01 9.648099999999999454e+01 -2.220477999999999952e+00 -3.067806098750032184e-01
2.479200000000000159e+01 4.560399999999999920e+01 9.721699999999999875e+01 -5.736894999999999634e+00 -3.068263642565614568e-01
2.479799999999999827e+01 1.455199999999999960e+01 6.829900000000000659e+01 -1.409256000000000064e+00 -3.499999999999999778e-01
2.480000000000000071e+01 3.555599999999999739e+01 6.773600000000000421e+01 4.335938999999999766e+00 -8.313301423659351375e-02
2.480799999999999983e+01 4.818099999999999739e+01 9.048199999999999932e+01 -5.738296000000000063e+00 -3.055688507114832642e-01
2.480799999999999983e+01 4.818099999999999739e+01 9.141800000000000637e+01 -7.508458000000000077e-01 -3.056772003019571082e-01
2.481099999999999994e+01 3.181400000000000006e+01 7.118999999999999773e+01 7.917229000000000072e-01 -3.398393433001686281e-01
2.481200000000000117e+01 2.765599999999999881e+01 8.479200000000000159e+01 -1.208312000000000053e+00 -2.662527970195362470e-01
2.481200000000000117e+01 2.788299999999999912e+01 8.399299999999999500e+01 -1.375741000000000103e+00 -2.660390228456249728e-01
2.481200000000000117e+01 2.788299999999999912e+01 8.559099999999999397e+01 -3.169512999999999803e+00 -2.664442570504599872e-01
2.481200000000000117e+01 2.917599999999999838e+01 8.631199999999999761e+01 -1.624841999999999942e+01 -2.665642510431679990e-01
2.481599999999999895e+01 3.152400000000000091e+01 5.588600000000000279e+01 2.704162000000000177e+00 -9.005576787895588908e-02
2.482100000000000151e+01 3.350200000000000244e+01 8.660599999999999454e+01 -2.536160999999999888e+00 -3.102676155260702950e-01
2.482600000000000051e+01 2.711599999999999966e+01 4.951299999999999812e+01 1.484676000000000107e+00 2.111389522841543645e-02
2.482900000000000063e+01 4.583800000000000097e+01 9.781399999999999295e+01 -1.940314000000000094e+00 -3.068429871303725021e-01
2.482900000000000063e+01 4.715699999999999648e+01 9.854900000000000659e+01 -3.130398999999999887e+01 -3.066924531706897161e-01
2.483099999999999952e+01 4.832399999999999807e+01 9.323199999999999932e+01 -1.361793999999999949e+00 -3.058649382363424207e-01
2.483299999999999841e+01 1.498499999999999943e+01 6.926300000000000523e+01 -1.040330999999999939e+01 -3.499999999999999778e-01
2.484199999999999875e+01 3.645199999999999818e+01 7.954200000000000159e+01 -1.285595999999999961e+01 -3.636261060000032241e-01
2.484199999999999875e+01 2.857400000000000162e+01 5.177600000000000335e+01 -7.170321000000000389e+00 -1.699104422746061660e-01
2.484199999999999875e+01 2.857400000000000162e+01 5.264099999999999824e+01 -2.732400999999999858e+00 -1.695654643991222621e-01
2.484499999999999886e+01 3.784700000000000131e+01 9.138400000000000034e+01 6.992020000000000124e+00 -3.084289118446063571e-01
2.484799999999999898e+01 3.007100000000000151e+01 5.590599999999999881e+01 3.484827999999999815e+00 -2.706226147509566138e-01
2.485500000000000043e+01 3.794500000000000028e+01 8.939199999999999591e+01 1.164157999999999998e-01 -3.081987414924699520e-01
2.487500000000000000e+01 3.739099999999999824e+01 7.272700000000000387e+01 2.655188000000000059e+01 -7.997915490940711580e-02
2.487800000000000011e+01 4.599300000000000210e+01 7.722100000000000364e+01 -6.827677000000000440e+00 -2.923169178805361534e-01
2.487800000000000011e+01 3.490699999999999648e+01 6.789799999999999613e+01 -2.984823000000000004e+00 -8.291828589249648773e-02
2.488299999999999912e+01 3.379200000000000159e+01 7.785999999999999943e+01 -3.775412999999999908e+00 -3.648606974059769303e-01
2.488500000000000156e+01 2.641199999999999903e+01 4.858299999999999841e+01 3.822648000000000046e+00 2.080703299120081201e-02
2.488500000000000156e+01 2.741900000000000048e+01 5.021300000000000097e+01 -2.762818999999999914e+00 2.154228200278480651e-02
2.488500000000000156e+01 3.952499999999999858e+01 8.084399999999999409e+01 -8.001378000000000767e+00 -3.067795702869016705e-01
2.488500000000000156e+01 4.112299999999999756e+01 8.084399999999999409e+01 -1.864539999999999864e+01 -3.730528775679573528e-01
2.488700000000000045e+01 3.923100000000000165e+01 8.861700000000000443e+01 -2.009184999999999999e-01 -3.075932763003787485e-01
2.488899999999999935e+01 3.716199999999999903e+01 8.598099999999999454e+01 5.421032000000000295e+00 -3.082250217471781406e-01
2.489000000000000057e+01 1.446000000000000085e+01 5.703399999999999892e+01 1.184881999999999991e+01 -8.745480056817848957e-02
2.489399999999999835e+01 3.385099999999999909e+01 8.277100000000000080e+01 -5.500332000000000221e+00 -3.097951916920453352e-01
2.489999999999999858e+01 3.830700000000000216e+01 8.865399999999999636e+01 5.851609999999999978e+00 -3.079621311514507132e-01
2.490299999999999869e+01 3.791499999999999915e+01 9.266700000000000159e+01 -1.486502999999999908e+00 -3.085035602615459061e-01
2.490599999999999881e+01 3.581099999999999994e+01 7.964300000000000068e+01 -7.974321999999999910e+00 -3.638256400676542768e-01
2.490599999999999881e+01 3.652199999999999847e+01 6.781900000000000261e+01 9.521297000000000565e+00 -8.307941736511564867e-02
2.490700000000000003e+01 3.777900000000000347e+01 6.968500000000000227e+01 1.082351000000000063e+00 -8.176043145157038672e-02
2.490700000000000003e+01 1.615599999999999881e+01 7.017900000000000205e+01 -1.060496999999999979e+01 -3.499999999999999778e-01
2.491100000000000136e+01 3.801899999999999835e+01 9.453499999999999659e+01 -1.965640000000000054e+00 -3.086280291606037229e-01
2.491300000000000026e+01 1.527500000000000036e+01 5.636399999999999721e+01 1.538484000000000052e+01 -8.665893739056082512e-02
2.491300000000000026e+01 4.476800000000000068e+01 9.554399999999999693e+01 -1.232854000000000028e+01 -3.067687911708474324e-01
2.491799999999999926e+01 3.577600000000000335e+01 7.299599999999999511e+01 1.548049999999999926e+00 1.026197713654668497e-01
2.491799999999999926e+01 4.630299999999999727e+01 7.644799999999999329e+01 -2.186420000000000030e+00 -2.593316828421564635e-01
2.492000000000000171e+01 3.829299999999999926e+01 9.537600000000000477e+01 2.776695999999999831e+00 -3.085984650646471095e-01
2.493499999999999872e+01 3.989200000000000301e+01 9.626699999999999591e+01 9.909421000000000035e+00 -3.081363390834993554e-01
2.493599999999999994e+01 3.453900000000000148e+01 7.077299999999999613e+01 4.841650999999999705e+00 1.012856817519588448e-01
2.493799999999999883e+01 4.728300000000000125e+01 7.639700000000000557e+01 -3.218951000000000118e+00 -2.595588083209008912e-01
2.493799999999999883e+01 4.728300000000000125e+01 7.898300000000000409e+01 -9.191722000000000392e+00 -3.730243860199445871e-01
2.493900000000000006e+01 1.364199999999999946e+01 6.068599999999999994e+01 -7.278489999999999682e+00 -7.741823686642829161e-02
2.494099999999999895e+01 4.336999999999999744e+01 9.479200000000000159e+01 -1.562897000000000070e+01 -3.069927366696805771e-01
2.494099999999999895e+01 3.749600000000000222e+01 9.093300000000000693e+01 4.356094999999999828e+00 -3.085078340105745776e-01
2.494099999999999895e+01 3.578900000000000148e+01 8.221099999999999852e+01 -6.092319999999999958e+00 -3.086023499307107842e-01
2.494200000000000017e+01 3.727600000000000335e+01 7.863200000000000500e+01 -4.453267999999999560e+00 -3.634346210596939297e-01
2.494300000000000139e+01 1.233600000000000030e+01 6.507200000000000273e+01 -1.510628999999999955e+01 -2.583929883311728015e-01
2.494600000000000151e+01 4.820799999999999841e+01 9.229600000000000648e+01 2.192045999999999939e+00 -3.057384791832668536e-01
2.494600000000000151e+01 3.444299999999999784e+01 7.875600000000000023e+01 -3.578038999999999970e+00 -3.644570153447660998e-01
2.494699999999999918e+01 2.521600000000000108e+01 5.011399999999999721e+01 7.531653000000000375e+00 2.349876725408159978e-02
2.494800000000000040e+01 3.985399999999999920e+01 8.008400000000000318e+01 -6.172845999999999833e+00 -3.732616997014680527e-01
2.494800000000000040e+01 3.985399999999999920e+01 8.160399999999999920e+01 -1.485005999999999915e+01 -3.066822465470416259e-01
2.494800000000000040e+01 4.079399999999999693e+01 8.008400000000000318e+01 -3.486677999999999944e+00 -3.731950934590729796e-01
2.494800000000000040e+01 4.079399999999999693e+01 8.160399999999999920e+01 -1.531523999999999930e+01 -3.063460003021263867e-01
2.495100000000000051e+01 3.112600000000000122e+01 8.941200000000000614e+01 3.163834000000000035e+00 -3.118128713724687140e-01
2.495100000000000051e+01 3.235900000000000176e+01 6.359499999999999886e+01 -3.345849999999999991e+00 -8.516779168206266293e-02
2.495200000000000173e+01 3.474900000000000233e+01 7.488400000000000034e+01 -6.020565000000000389e+00 -3.299536896102214234e-01
2.495499999999999829e+01 3.190800000000000125e+01 8.198000000000000398e+01 -3.477024999999999810e+00 -2.654991227077669880e-01
2.495599999999999952e+01 3.224000000000000199e+01 6.037400000000000233e+01 -3.697313999999999989e+00 -9.718748770505905576e-02
2.496099999999999852e+01 4.131099999999999994e+01 9.548199999999999932e+01 1.230700000000000038e+01 -3.076176367610384266e-01
2.497100000000000009e+01 4.312400000000000233e+01 9.097499999999999432e+01 -3.336584999999999912e+00 -3.065895201202126219e-01
2.497400000000000020e+01 3.636399999999999721e+01 7.472299999999999898e+01 -9.720783000000000840e+00 -1.587942122566957104e-01
2.497700000000000031e+01 4.605299999999999727e+01 7.815999999999999659e+01 -7.483609999999999651e+00 -3.732000736291165022e-01
2.497700000000000031e+01 4.851299999999999812e+01 7.721999999999999886e+01 -2.156269999999999953e+01 -2.595299529318398912e-01
2.497700000000000031e+01 4.851299999999999812e+01 7.815999999999999659e+01 -3.240364999999999895e+01 -2.922764046846795805e-01
2.497700000000000031e+01 3.744899999999999807e+01 7.760299999999999443e+01 1.625500999999999863e+01 -3.739581831689525737e-01
2.497800000000000153e+01 3.721099999999999852e+01 9.012699999999999534e+01 2.235380000000000145e+00 -3.085482857731340900e-01
2.498000000000000043e+01 4.493200000000000216e+01 7.494199999999999307e+01 9.731695999999999680e-01 -8.002065578710976235e-02
2.499899999999999878e+01 3.094300000000000139e+01 7.759000000000000341e+01 -8.016714999999999591e+00 -2.643737707007063897e-01
2.500799999999999912e+01 2.343799999999999883e+01 7.081000000000000227e+01 3.071350999999999942e+01 -3.399523169447583038e-01
2.501099999999999923e+01 3.166199999999999903e+01 8.732599999999999341e+01 -2.904281000000000112e+00 -3.114239684036982925e-01
2.501099999999999923e+01 3.234700000000000131e+01 8.688500000000000512e+01 -8.147152000000000172e+00 -3.109624116466215282e-01
2.501200000000000045e+01 3.772200000000000131e+01 6.873199999999999932e+01 2.178418999999999883e+00 -8.239103644781754776e-02
2.501200000000000045e+01 2.582799999999999940e+01 4.880100000000000193e+01 4.721747999999999834e+00 2.158938283078844222e-02
2.502100000000000080e+01 1.650000000000000000e+01 5.333100000000000307e+01 7.345430000000000348e+00 -7.354918016708147932e-02
2.502700000000000102e+01 3.309799999999999898e+01 8.276000000000000512e+01 -5.149193000000000353e+00 -3.102440697370095202e-01
2.503099999999999881e+01 3.486099999999999710e+01 7.132699999999999818e+01 3.306871999999999812e+00 1.017698698253757666e-01
2.503500000000000014e+01 2.217099999999999937e+01 5.156700000000000017e+01 1.834053000000000111e+01 -1.600132086226133121e-01
2.503800000000000026e+01 1.234299999999999997e+01 6.240400000000000347e+01 -3.093560999999999783e+00 -2.627957384946851827e-01
2.504299999999999926e+01 3.505199999999999960e+01 8.698900000000000432e+01 -2.859008999999999912e+00 -3.093413334551218252e-01
2.504400000000000048e+01 2.923000000000000043e+01 5.435900000000000176e+01 3.287283999999999651e+01 -2.714700664064993996e-01
2.505000000000000071e+01 4.011099999999999710e+01 8.859499999999999886e+01 -2.815170000000000172e+00 -3.072118424702297568e-01
2.505000000000000071e+01 4.485699999999999932e+01 8.980899999999999750e+01 -3.582316000000000056e+00 -3.060128219985068787e-01
2.505000000000000071e+01 4.518200000000000216e+01 8.907200000000000273e+01 -4.110896000000000328e+00 -3.058571745794829155e-01
2.505000000000000071e+01 4.647500000000000142e+01 8.835099999999999909e+01 -1.719210999999999956e+01 -3.055263893606916525e-01
2.505000000000000071e+01 4.776800000000000068e+01 8.907200000000000273e+01 -1.875283999999999907e+01 -3.053964424463156968e-01
2.505000000000000071e+01 4.809300000000000352e+01 8.980899999999999750e+01 -1.648374000000000095e+01 -3.054322206469285983e-01
2.505300000000000082e+01 1.767000000000000171e+01 5.235699999999999932e+01 4.922107999999999706e+00 -7.256508726986124480e-02
2.505300000000000082e+01 1.937000000000000099e+01 5.235699999999999932e+01 4.919446999999999903e+00 -6.983675495661580135e-02
2.505399999999999849e+01 4.248799999999999955e+01 9.478400000000000603e+01 4.537600999999999996e-01 -3.071875535957548364e-01
2.505600000000000094e+01 2.394999999999999929e+01 5.068999999999999773e+01 1.034561000000000064e+01 -1.617215296145742276e-01
2.505999999999999872e+01 4.136999999999999744e+01 8.942700000000000671e+01 -1.162242999999999959e+01 -3.068809390804322357e-01
2.505999999999999872e+01 4.169500000000000028e+01 9.016400000000000148e+01 -2.779305000000000092e+01 -3.068661660277663961e-01
2.506200000000000117e+01 3.002199999999999847e+01 8.662500000000000000e+01 -5.501600999999999964e+00 -2.666269963066956183e-01
2.506700000000000017e+01 3.372899999999999920e+01 7.056900000000000261e+01 3.334502000000000077e+00 1.005494739108740987e-01
2.507400000000000162e+01 3.728600000000000136e+01 8.340200000000000102e+01 -8.730710999999999444e+00 -3.078782961502586346e-01
2.507999999999999829e+01 1.816900000000000048e+01 7.097499999999999432e+01 -2.327876999999999974e+00 -3.397691233402250210e-01
2.508399999999999963e+01 3.011499999999999844e+01 8.201600000000000534e+01 4.126953999999999900e-01 -2.655048994949904539e-01
2.508699999999999974e+01 2.907600000000000051e+01 5.345300000000000296e+01 1.709372000000000114e+01 -1.677621756229296657e-01
2.508800000000000097e+01 1.943599999999999994e+01 7.124599999999999511e+01 5.545898000000000216e-01 -3.398563971050751475e-01
2.509700000000000131e+01 4.373400000000000176e+01 9.549299999999999500e+01 -4.390297000000000338e+00 -3.069485958512859214e-01
2.510999999999999943e+01 2.065299999999999869e+01 5.310099999999999909e+01 6.664616999999999791e+00 -6.701133464331573975e-02
2.511199999999999832e+01 2.436499999999999844e+01 5.027400000000000091e+01 7.837530000000000108e+00 -1.624849219122274924e-01
2.511499999999999844e+01 3.435000000000000142e+01 5.742900000000000205e+01 -4.033096999999999710e+00 -9.178727275725327706e-02
2.511599999999999966e+01 3.425099999999999767e+01 5.994899999999999807e+01 -4.594610999999999734e+01 -9.600381306728481001e-02
