7.893600000000000705e+01 5.696600000000000108e+01 5.500399999999999778e+01 -7.503295999999999744e+00 -2.803577075712926359e-01
7.893800000000000239e+01 4.079999999999999716e+01 6.085499999999999687e+01 -5.460693000000000019e+00 -1.621659918351892743e-02
7.894100000000000250e+01 4.764000000000000057e+01 3.882399999999999807e+01 -1.129615000000000080e+01 -2.479996207113103757e-01
7.894199999999999307e+01 6.570799999999999841e+01 5.979399999999999693e+01 2.310106000000000037e+01 -2.781996228092825652e-01
7.894899999999999807e+01 3.710300000000000153e+01 3.571300000000000097e+01 -7.778329000000000271e+00 -8.189059329805140064e-02
7.894899999999999807e+01 6.489300000000000068e+01 1.898799999999999955e+01 -8.696526000000000423e+00 1.298348878732131506e-01
7.895000000000000284e+01 4.203600000000000136e+01 5.202799999999999869e+01 -1.364527000000000001e+01 -3.767973136416467861e-02
7.895300000000000296e+01 4.952100000000000080e+01 4.568500000000000227e+01 -1.997475000000000023e+01 2.434953123380489970e-02
7.895699999999999363e+01 5.355799999999999983e+01 2.706299999999999883e+01 1.120810000000000084e+00 1.456702336739357506e-01
7.895900000000000318e+01 4.908500000000000085e+01 5.807600000000000051e+01 -7.594553999999999583e+00 1.621490203943644695e-02
7.896099999999999852e+01 5.303300000000000125e+01 3.093700000000000117e+01 4.511281000000000319e+01 -1.100629917844853367e-01
7.896299999999999386e+01 6.945699999999999363e+01 2.313100000000000023e+01 2.044324999999999903e+01 -6.583544036221808740e-03
7.896299999999999386e+01 4.524300000000000210e+01 5.328699999999999903e+01 2.949555000000000149e+01 1.623611205558084594e-02
7.896299999999999386e+01 5.829200000000000159e+01 5.562800000000000011e+01 5.317918999999999841e+00 -2.798215300929107752e-01
7.896699999999999875e+01 5.207399999999999807e+01 2.707000000000000028e+01 -7.582889999999999908e-01 1.447023446253589973e-01
7.896800000000000352e+01 6.358700000000000330e+01 1.823100000000000165e+01 -6.332066000000000194e+00 1.287656722471717807e-01
7.896999999999999886e+01 3.687800000000000011e+01 3.660399999999999920e+01 -3.964903000000000066e+00 -5.527812296309993212e-02
7.897199999999999420e+01 4.367199999999999704e+01 6.036299999999999955e+01 -8.900368000000000279e+00 -1.147756769957236633e-02
7.898799999999999955e+01 7.144100000000000250e+01 5.276100000000000279e+01 -1.023048999999999964e+01 3.462825050546961686e-03
7.898799999999999955e+01 4.067499999999999716e+01 5.694599999999999795e+01 1.086975000000000025e+00 -1.687247235960034203e-02
7.898799999999999955e+01 7.034399999999999409e+01 4.303999999999999915e+01 -7.408808000000000060e-01 -2.814296753786227866e-03
7.898799999999999955e+01 7.034399999999999409e+01 4.530599999999999739e+01 2.166243999999999836e+00 -6.964130532593983038e-04
7.898900000000000432e+01 4.810900000000000176e+01 4.257200000000000273e+01 -2.070971000000000117e+01 2.116138864786570872e-02
7.898900000000000432e+01 7.180100000000000193e+01 5.453399999999999892e+01 -1.768819999999999837e+01 3.744313710113611991e-03
7.898900000000000432e+01 5.508299999999999841e+01 2.211299999999999955e+01 8.838447999999999638e+00 1.374973538100624226e-01
7.899299999999999500e+01 5.397699999999999676e+01 5.781199999999999761e+01 9.090344999999999231e+00 -2.789329154669179522e-01
7.899500000000000455e+01 4.795199999999999818e+01 5.883400000000000318e+01 -1.081813000000000002e+01 1.272745579405707220e-02
7.900300000000000011e+01 6.756100000000000705e+01 5.034000000000000341e+01 9.515022999999999342e+00 4.034669917057560375e-03
7.900499999999999545e+01 4.077600000000000335e+01 5.581499999999999773e+01 1.431926999999999950e+01 -1.629256931563950045e-02
7.901800000000000068e+01 6.109599999999999653e+01 2.118700000000000117e+01 5.915970999999999869e+00 1.283102819540652417e-01
7.901900000000000546e+01 7.003199999999999648e+01 3.194000000000000128e+01 3.452865000000000073e+00 -1.405530726570565839e-02
7.903499999999999659e+01 6.894199999999999307e+01 3.366100000000000136e+01 1.180120999999999931e+01 -1.297456161909592287e-02
7.903600000000000136e+01 7.093500000000000227e+01 5.591199999999999903e+01 -1.243108999999999931e+01 4.433753825414193071e-03
7.903700000000000614e+01 7.114199999999999591e+01 3.717000000000000171e+01 6.604479999999999684e+00 -8.616425367494243842e-03
7.903700000000000614e+01 7.135099999999999909e+01 3.790599999999999881e+01 4.888236000000000026e+00 -7.846012147147593888e-03
7.903700000000000614e+01 5.073700000000000188e+01 2.510699999999999932e+01 -2.302210000000000090e+00 1.377443102324871493e-01
7.904600000000000648e+01 6.948699999999999477e+01 2.732900000000000063e+01 1.290030999999999928e+01 -2.833433289884684791e-01
7.905500000000000682e+01 6.889900000000000091e+01 3.269800000000000040e+01 1.270913000000000004e+01 -1.393114142955708713e-02
7.905500000000000682e+01 6.937699999999999534e+01 2.025199999999999889e+01 4.131009999999999849e+00 -1.012254152159683049e-02
7.906100000000000705e+01 4.591499999999999915e+01 5.087299999999999756e+01 -2.289853000000000094e+01 2.534988791119999196e-02
7.906199999999999761e+01 6.249199999999999733e+01 5.817999999999999972e+01 1.139276000000000089e+01 -2.785327649348020018e-01
7.907299999999999329e+01 7.101000000000000512e+01 5.829899999999999949e+01 5.595163999999999582e+00 4.477039125140473003e-03
7.907500000000000284e+01 5.814999999999999858e+01 2.238800000000000168e+01 6.782690999999999804e+00 1.409349620297847827e-01
7.907800000000000296e+01 6.085999999999999943e+01 5.723100000000000165e+01 1.681543000000000010e+00 -2.788825916065068022e-01
7.907800000000000296e+01 6.343599999999999994e+01 5.804399999999999693e+01 2.258576000000000050e+01 -2.785807062847719395e-01
7.908599999999999852e+01 7.034199999999999875e+01 4.815599999999999881e+01 8.166840000000000543e+00 1.697218658893641374e-03
7.909499999999999886e+01 3.121699999999999875e+01 4.997800000000000153e+01 7.660973000000000255e+00 -1.159431830757228915e-01
7.909699999999999420e+01 4.433200000000000074e+01 3.599600000000000222e+01 -2.245692000000000021e+01 -7.155445806260256336e-02
7.909699999999999420e+01 4.442399999999999949e+01 5.326599999999999824e+01 5.414394999999999669e+01 -3.067621428743135328e-02
7.909799999999999898e+01 4.981099999999999994e+01 4.519400000000000261e+01 -1.545332999999999934e+01 2.271525296534721711e-02
7.909799999999999898e+01 7.164199999999999591e+01 4.240299999999999869e+01 1.415589999999999904e+00 -3.415869934795608739e-03
7.909799999999999898e+01 4.019100000000000250e+01 3.380700000000000216e+01 -4.892433999999999727e+00 2.072366252579623258e-01
7.910200000000000387e+01 5.662899999999999778e+01 2.210000000000000142e+01 1.234206999999999965e+01 1.392180922682967337e-01
7.910500000000000398e+01 4.658899999999999864e+01 4.250200000000000244e+01 -2.798868999999999829e+01 2.408475970794260804e-02
7.911199999999999477e+01 3.515299999999999869e+01 5.491700000000000159e+01 -2.289347999999999939e+00 2.150138173866553704e-01
7.911199999999999477e+01 3.667300000000000182e+01 5.491700000000000159e+01 -1.283941000000000088e+01 2.101073244603222645e-01
7.911299999999999955e+01 3.386299999999999955e+01 5.026100000000000279e+01 -8.271872999999999365e+00 2.220194504620565112e-02
7.911299999999999955e+01 3.505400000000000205e+01 5.092499999999999716e+01 4.522948000000000413e+00 3.089431661511503682e-02
7.911299999999999955e+01 3.505400000000000205e+01 5.239699999999999847e+01 1.738187999999999889e+01 3.345796772228569471e-02
7.911299999999999955e+01 3.526299999999999812e+01 5.166100000000000136e+01 9.257320999999999245e+00 3.315072268909007025e-02
7.911400000000000432e+01 5.445799999999999841e+01 5.699099999999999966e+01 -3.522292999999999807e+01 -2.793341756198247650e-01
7.911499999999999488e+01 7.185899999999999466e+01 5.353000000000000114e+01 5.920294999999999863e-01 3.628542853601378175e-03
7.911899999999999977e+01 6.649299999999999500e+01 1.998300000000000054e+01 9.104003999999999763e+00 -1.326881449532265056e-01
7.912300000000000466e+01 7.205599999999999739e+01 3.879699999999999704e+01 3.857788999999999646e+01 -6.821180748206999434e-03
7.912300000000000466e+01 7.233199999999999363e+01 4.218900000000000006e+01 -1.071677999999999997e+01 -3.656068354059043100e-03
7.912300000000000466e+01 7.328100000000000591e+01 3.964200000000000301e+01 7.248980999999999675e+00 -5.991493554644161841e-03
7.912300000000000466e+01 7.328100000000000591e+01 4.124000000000000199e+01 -4.760799999999999699e+01 -4.584706004175815100e-03
7.912300000000000466e+01 7.350799999999999557e+01 4.044100000000000250e+01 -1.210332000000000008e+01 -5.295006124961825281e-03
7.912300000000000466e+01 2.993400000000000105e+01 4.941599999999999682e+01 7.301700000000000301e+00 1.965232067684222761e-01
7.912600000000000477e+01 4.407600000000000051e+01 3.527799999999999869e+01 -1.083281999999999989e+01 -7.611652949367639365e-02
7.912800000000000011e+01 5.110000000000000142e+01 3.564099999999999824e+01 -5.355267000000000444e+00 -2.478058676462067123e-01
7.912800000000000011e+01 4.647099999999999653e+01 3.833200000000000074e+01 -3.060381000000000018e+00 -3.499999999999999778e-01
7.913700000000000045e+01 4.767900000000000205e+01 4.695000000000000284e+01 -2.092455999999999960e+01 3.142854504992848019e-02
7.913899999999999579e+01 5.970000000000000284e+01 2.272599999999999909e+01 1.711981999999999893e+00 1.424936597993998744e-01
7.913899999999999579e+01 6.089099999999999824e+01 2.206200000000000117e+01 2.109259999999999913e+00 -1.364719884189858901e-01
7.914199999999999591e+01 6.811499999999999488e+01 1.992399999999999949e+01 9.214952000000000254e+00 -1.312135417626134060e-01
7.914799999999999613e+01 5.078000000000000114e+01 2.620799999999999841e+01 -8.825741000000000280e-01 1.411391090298325102e-01
7.915600000000000591e+01 2.979100000000000037e+01 4.663900000000000290e+01 1.079528000000000043e+00 9.745058730796650470e-02
7.915699999999999648e+01 5.404999999999999716e+01 2.724200000000000088e+01 2.269607999999999848e+00 1.465210002985693483e-01
7.915699999999999648e+01 5.404999999999999716e+01 3.045599999999999952e+01 1.160242000000000040e+01 -1.104910068992356331e-01
7.915699999999999648e+01 4.077100000000000080e+01 3.357300000000000040e+01 -3.093347000000000069e+00 2.010617447528924018e-01
7.915999999999999659e+01 7.251300000000000523e+01 5.959499999999999886e+01 -6.103155000000000108e+00 3.741148518042541719e-03
7.915999999999999659e+01 7.251300000000000523e+01 6.055299999999999727e+01 1.383051000000000030e+00 3.615891050806514795e-03
7.916100000000000136e+01 6.826000000000000512e+01 2.463800000000000168e+01 5.427671999999999741e+01 -5.092130073344550319e-03
7.916400000000000148e+01 3.925500000000000256e+01 3.375500000000000256e+01 -1.102732999999999919e+01 2.169871726222462327e-01
7.916500000000000625e+01 6.520799999999999841e+01 5.887800000000000011e+01 7.668764000000000181e+01 -2.783572392100793769e-01
7.918200000000000216e+01 4.632999999999999829e+01 4.653399999999999892e+01 -1.603860999999999848e+01 3.445909564100825551e-02
7.918600000000000705e+01 7.182200000000000273e+01 3.142800000000000082e+01 -1.773823000000000150e+01 -1.361363320267379093e-02
7.918600000000000705e+01 7.287199999999999989e+01 3.142800000000000082e+01 -2.026626999999999867e+01 -1.322157551580903714e-02
7.918899999999999295e+01 4.379800000000000182e+01 4.916100000000000136e+01 -1.891086999999999918e+01 2.282763985018155389e-02
7.919400000000000261e+01 3.354699999999999704e+01 3.728999999999999915e+01 -7.793788000000000160e+00 -3.657728048969849932e-01
7.919899999999999807e+01 6.935500000000000398e+01 5.183800000000000097e+01 3.850897999999999932e+00 4.382088231146153562e-03
7.920000000000000284e+01 7.125900000000000034e+01 6.139300000000000068e+01 -3.953441999999999723e+01 4.054105840860076568e-03
7.920099999999999341e+01 7.032800000000000296e+01 3.157900000000000063e+01 2.093365000000000087e-01 -1.413996597772792553e-02
7.920099999999999341e+01 5.268999999999999773e+01 3.203099999999999881e+01 3.058648999999999951e-01 -1.048055277788458861e-01
7.920099999999999341e+01 5.268999999999999773e+01 3.289600000000000080e+01 -4.003847000000000378e+00 -2.446413632972772589e-01
7.920199999999999818e+01 7.023999999999999488e+01 2.183599999999999852e+01 1.282612999999999914e+01 -7.420300006219994471e-03
7.920300000000000296e+01 4.537199999999999989e+01 3.703999999999999915e+01 -4.010584999999999845e+00 -6.432901702143296874e-02
7.920399999999999352e+01 4.263300000000000267e+01 4.997200000000000131e+01 1.000873999999999953e+01 -2.989146183688206129e-02
7.921500000000000341e+01 4.400399999999999778e+01 3.451800000000000068e+01 -1.167674000000000056e+01 1.858131326855729792e-01
7.921500000000000341e+01 7.284399999999999409e+01 2.817899999999999849e+01 -1.838868000000000080e+01 -1.569817941543825285e-02
7.921599999999999397e+01 3.519899999999999807e+01 3.748199999999999932e+01 -6.301142999999999716e+00 -3.658242434005084531e-01
7.921599999999999397e+01 7.003100000000000591e+01 2.269800000000000040e+01 1.178054999999999986e+01 -6.477410750683673495e-03
7.921699999999999875e+01 4.901200000000000045e+01 4.264099999999999824e+01 -1.860151000000000110e+01 1.928897980938656248e-02
7.921699999999999875e+01 4.246900000000000119e+01 5.272800000000000153e+01 -7.703165000000000262e+00 -3.720882532122331970e-02
7.922100000000000364e+01 4.908899999999999864e+01 4.638499999999999801e+01 -2.114333999999999847e+01 2.660035994415587204e-02
7.922499999999999432e+01 3.773599999999999710e+01 3.385300000000000153e+01 -3.922798999999999925e+00 -9.936684945304760652e-02
7.923000000000000398e+01 6.902400000000000091e+01 2.383099999999999952e+01 3.472310000000000230e+01 -5.643415791179464541e-03
7.923199999999999932e+01 7.132599999999999341e+01 5.866199999999999903e+01 8.520890999999999882e-02 4.473916084461472195e-03
7.923399999999999466e+01 5.227700000000000102e+01 5.902700000000000102e+01 7.621898000000000195e+01 -2.782722495341195534e-01
7.923499999999999943e+01 4.302400000000000091e+01 3.198300000000000054e+01 -3.025652000000000008e+00 1.749449609487785384e-01
7.923499999999999943e+01 7.001000000000000512e+01 6.126599999999999824e+01 2.744406999999999996e+01 -2.780687177862827264e-01
7.923699999999999477e+01 4.574600000000000222e+01 6.025000000000000000e+01 9.928217999999999321e+00 -3.577641259406762891e-02
7.924099999999999966e+01 5.278000000000000114e+01 5.854200000000000159e+01 -8.799860999999999933e+00 -2.785013196796836676e-01
7.924699999999999989e+01 3.039499999999999957e+01 4.424600000000000222e+01 3.156915000000000138e+00 -8.619149581879040345e-02
7.925000000000000000e+01 3.892600000000000193e+01 5.437700000000000244e+01 7.629717000000000304e+00 -2.135752360885670442e-02
7.925000000000000000e+01 7.123799999999999955e+01 2.731599999999999895e+01 2.023477000000000103e+01 -2.830915346389218934e-01
7.925300000000000011e+01 5.014500000000000313e+01 4.339900000000000091e+01 -1.310537000000000063e+01 1.852478182890471628e-02
7.925300000000000011e+01 5.014500000000000313e+01 4.426500000000000057e+01 -1.480123999999999995e+01 2.014377981449995414e-02
7.926000000000000512e+01 5.285799999999999699e+01 2.700499999999999901e+01 2.475647000000000020e+01 1.453649951069881374e-01
7.926099999999999568e+01 4.583700000000000330e+01 4.606000000000000227e+01 -1.539583000000000013e+01 3.488826198063119804e-02
7.926200000000000045e+01 4.838499999999999801e+01 5.813400000000000034e+01 -8.774936999999999543e+00 1.490366104004232917e-02
7.926200000000000045e+01 4.978499999999999659e+01 5.813400000000000034e+01 -1.450555999999999957e+00 -2.788626326380622689e-01
7.926600000000000534e+01 4.594299999999999784e+01 5.322899999999999920e+01 2.022804999999999964e+01 1.916040230633649782e-02
7.926699999999999591e+01 5.435099999999999909e+01 2.218299999999999983e+01 7.752036999999999622e+00 1.368773820880410663e-01
7.926999999999999602e+01 6.799399999999999977e+01 4.877499999999999858e+01 -1.613153999999999977e+00 3.207364775532580738e-03
7.926999999999999602e+01 6.799399999999999977e+01 5.103999999999999915e+01 1.100664000000000087e+01 4.697147244274718983e-03
7.927200000000000557e+01 5.117600000000000193e+01 5.914099999999999824e+01 9.165478000000000236e+00 -2.782359172196758879e-01
7.927400000000000091e+01 4.425399999999999778e+01 3.280599999999999739e+01 -9.372707000000000122e+00 1.761957402221653035e-01
7.927400000000000091e+01 4.425399999999999778e+01 3.374600000000000222e+01 -1.636149999999999949e+01 1.813654658776870099e-01
7.928000000000000114e+01 4.982200000000000273e+01 3.694500000000000028e+01 -1.816162999999999972e+00 -2.486906702442494566e-01
7.928100000000000591e+01 3.208700000000000330e+01 4.982300000000000040e+01 6.605729000000000184e+00 5.781841824498460194e-03
7.928199999999999648e+01 6.941800000000000637e+01 3.445799999999999841e+01 8.505288000000000181e+00 -1.178171997604514007e-02
7.928400000000000603e+01 5.286899999999999977e+01 2.304200000000000159e+01 8.132333000000000478e-01 1.363785143780850695e-01
7.928499999999999659e+01 2.998900000000000077e+01 4.578000000000000114e+01 1.140073999999999949e-01 1.036867301365909932e-01
7.928499999999999659e+01 6.033299999999999841e+01 5.649900000000000233e+01 2.977964000000000055e+00 -2.791471731298992287e-01
7.928700000000000614e+01 4.554999999999999716e+01 5.028199999999999648e+01 -2.250355000000000061e+01 2.649488953157036475e-02
7.928700000000000614e+01 7.336499999999999488e+01 3.064300000000000068e+01 -5.132104000000000354e+01 -1.363051274281463013e-02
7.928799999999999670e+01 4.157900000000000063e+01 6.136399999999999721e+01 1.038439000000000050e+02 -1.516254957131057610e-02
7.928799999999999670e+01 4.253699999999999903e+01 6.136399999999999721e+01 -5.831642999999999688e+01 -1.362273920210884358e-02
7.928900000000000148e+01 6.996399999999999864e+01 2.109100000000000108e+01 1.101745000000000019e+01 -8.435113251355652597e-03
7.929000000000000625e+01 3.064099999999999824e+01 4.332200000000000273e+01 1.333164999999999933e+00 -6.084737245887385931e-02
7.929699999999999704e+01 6.282699999999999818e+01 1.829400000000000048e+01 -1.354084000000000121e-01 1.287814697101820616e-01
7.929699999999999704e+01 6.434699999999999420e+01 1.829400000000000048e+01 -3.424698999999999938e+00 1.297515717465666518e-01
7.929999999999999716e+01 5.308299999999999841e+01 5.784199999999999875e+01 -1.984224000000000032e+01 -2.788536208410131723e-01
7.930200000000000671e+01 4.722200000000000131e+01 5.956799999999999784e+01 -4.261579000000000228e+00 -3.209529755772400073e-02
7.930599999999999739e+01 3.155999999999999872e+01 3.754599999999999937e+01 -2.847811000000000092e+00 -2.438846115952406080e-01
7.932200000000000273e+01 6.933199999999999363e+01 3.199800000000000111e+01 5.304236999999999647e+00 -1.421220005632909365e-02
7.932500000000000284e+01 5.131600000000000250e+01 2.690500000000000114e+01 4.873042000000000229e+01 1.439861542106773418e-01
7.932899999999999352e+01 4.036599999999999966e+01 5.507900000000000063e+01 4.809588999999999892e+00 -1.762364322767186881e-02
7.932999999999999829e+01 5.121099999999999852e+01 2.433999999999999986e+01 -1.107026999999999983e+00 1.367479116771224412e-01
7.933199999999999363e+01 5.914200000000000301e+01 5.569899999999999807e+01 4.208815999999999669e+00 -2.795951277586245509e-01
7.933400000000000318e+01 4.036299999999999955e+01 5.748299999999999699e+01 -2.047498000000000096e-01 -1.818100321532601510e-02
7.933400000000000318e+01 4.036299999999999955e+01 5.994299999999999784e+01 -7.474035999999999902e+00 -1.767089911005568018e-02
7.933499999999999375e+01 6.806399999999999295e+01 2.527100000000000080e+01 3.937485999999999819e+01 -4.056972456480912800e-03
7.933499999999999375e+01 6.816899999999999693e+01 2.607100000000000151e+01 1.996189999999999998e+01 -2.833224079705511933e-01
7.934099999999999397e+01 4.619299999999999784e+01 4.279699999999999704e+01 -3.307800000000000296e+01 2.561236592178660690e-02
7.934199999999999875e+01 3.093900000000000006e+01 4.233299999999999841e+01 1.236655000000000060e+00 -3.528997686775137838e-02
7.935399999999999920e+01 3.980499999999999972e+01 5.468900000000000006e+01 -2.210322000000000120e+00 -1.914369643435048784e-02
7.935699999999999932e+01 6.949399999999999977e+01 4.812700000000000244e+01 6.236739000000000033e+00 2.325644709300152442e-03
7.935800000000000409e+01 6.155599999999999739e+01 5.797899999999999920e+01 1.612557000000000018e+00 -2.785119064625038998e-01
7.935899999999999466e+01 4.287500000000000000e+01 6.048100000000000165e+01 -1.081212999999999980e+01 -1.309782965267304068e-02
7.935899999999999466e+01 3.123000000000000043e+01 3.838900000000000290e+01 -8.353611000000000786e+00 -2.630283854110767594e-01
7.935899999999999466e+01 7.236599999999999966e+01 4.610600000000000165e+01 6.886574999999999669e+00 -1.778603701078054951e-04
7.935899999999999466e+01 7.236599999999999966e+01 4.765599999999999881e+01 7.359017000000000053e+01 9.151476849647901266e-04
7.935899999999999466e+01 5.263300000000000267e+01 3.131200000000000117e+01 -2.051019000000000037e-01 -1.077176216809548059e-01
7.936899999999999977e+01 5.766599999999999682e+01 5.527100000000000080e+01 1.243656999999999968e+01 -2.799752379816182191e-01
7.937699999999999534e+01 3.281199999999999761e+01 3.726100000000000279e+01 -6.620009999999999728e+00 -3.657712654122676210e-01
7.937900000000000489e+01 7.027200000000000557e+01 5.689800000000000324e+01 -1.230916999999999994e+01 5.234056010873071492e-03
7.937900000000000489e+01 7.027200000000000557e+01 5.776299999999999812e+01 6.713078999999999574e+00 5.218517975840072584e-03
7.938100000000000023e+01 5.247099999999999653e+01 3.479999999999999716e+01 -5.417981000000000158e+00 -2.489054534275462749e-01
7.938100000000000023e+01 5.267999999999999972e+01 3.406400000000000006e+01 -4.062918999999999947e+00 -2.474994049114568884e-01
7.939700000000000557e+01 4.863000000000000256e+01 3.829699999999999704e+01 6.525450000000000417e-01 -2.496526499635175755e-01
7.940000000000000568e+01 4.372399999999999665e+01 5.320700000000000074e+01 2.251096000000000075e+01 -3.290206293067900190e-02
7.940300000000000580e+01 3.638700000000000045e+01 3.700000000000000000e+01 -4.816328000000000387e+00 -3.653556337177185087e-01
7.941100000000000136e+01 4.585600000000000165e+01 4.339500000000000313e+01 -4.479059000000000168e+01 2.801718319945446442e-02
7.941599999999999682e+01 3.737299999999999756e+01 5.485799999999999699e+01 -9.317567000000000377e+00 2.081743569424006901e-01
7.941700000000000159e+01 5.614600000000000080e+01 5.528199999999999648e+01 1.764000000000000012e+00 -2.801503304446527065e-01
7.942000000000000171e+01 6.626600000000000534e+01 6.040699999999999648e+01 1.203866999999999976e+01 -2.779805359191722669e-01
7.942000000000000171e+01 6.771200000000000330e+01 6.121300000000000097e+01 1.890129999999999910e+01 -2.779045047414412384e-01
7.942100000000000648e+01 6.964400000000000546e+01 4.417300000000000182e+01 -5.865368000000000137e+00 -1.138683709787381140e-03
7.942100000000000648e+01 6.985299999999999443e+01 4.343699999999999761e+01 -2.979262999999999995e+00 -1.906388571519529148e-03
7.942300000000000182e+01 4.404500000000000171e+01 5.967199999999999704e+01 2.652210999999999874e+00 -1.420089237781127778e-01
7.942400000000000659e+01 7.270199999999999818e+01 4.688100000000000023e+01 2.977672000000000097e+01 3.314960892186312067e-04
7.943200000000000216e+01 4.717099999999999937e+01 3.839000000000000057e+01 -8.208038000000000167e+00 -2.458270302947736519e-01
7.943800000000000239e+01 6.729900000000000659e+01 1.996300000000000097e+01 7.876303000000000054e+00 -1.315564657908316060e-01
7.944199999999999307e+01 6.991899999999999693e+01 2.782000000000000028e+01 1.471878000000000064e+01 -2.833282917604878492e-01
7.944499999999999318e+01 6.574099999999999966e+01 1.992999999999999972e+01 9.316832000000000447e-01 -1.330992789676940236e-01
7.944599999999999795e+01 4.121099999999999852e+01 6.065599999999999881e+01 -5.982120000000000104e+00 -1.607674082450077230e-02
7.944799999999999329e+01 2.940899999999999892e+01 4.751599999999999824e+01 -3.540515000000000190e-01 1.907024874591029540e-01
7.944799999999999329e+01 2.940899999999999892e+01 4.856600000000000250e+01 -3.427664000000000266e-01 1.899234652293832482e-01
7.945600000000000307e+01 5.010900000000000176e+01 3.638199999999999790e+01 -3.323202000000000211e+00 -2.479234651651479882e-01
7.945699999999999363e+01 5.586999999999999744e+01 2.211899999999999977e+01 7.672907000000000366e+00 1.386774521426199225e-01
7.946299999999999386e+01 7.140999999999999659e+01 4.770900000000000318e+01 2.993113999999999919e+01 1.438197406079808451e-03
7.946399999999999864e+01 7.088400000000000034e+01 4.606199999999999761e+01 8.674030000000000129e+00 3.630524130775239478e-04
7.946800000000000352e+01 4.127499999999999858e+01 3.275900000000000034e+01 -3.237416000000000071e+00 1.928425153389294044e-01
7.947299999999999898e+01 3.017899999999999849e+01 4.493399999999999750e+01 6.065545000000000186e+00 1.099255018676618817e-01
7.947499999999999432e+01 6.386899999999999977e+01 5.853499999999999659e+01 1.672109000000000023e+01 -2.783358208301286441e-01
7.947700000000000387e+01 7.006000000000000227e+01 5.247299999999999898e+01 2.524192999999999909e+00 4.666501160165435584e-03
7.948499999999999943e+01 7.349500000000000455e+01 2.905999999999999872e+01 -1.070866000000000007e+01 -1.470243557089875516e-02
7.948499999999999943e+01 7.349500000000000455e+01 3.001800000000000068e+01 -2.642464999999999975e+01 -1.398469391912435592e-02
7.948499999999999943e+01 6.893000000000000682e+01 1.995799999999999841e+01 7.087372000000000227e+00 -1.042263162740522837e-02
7.949200000000000443e+01 3.078399999999999892e+01 4.948700000000000188e+01 4.110877000000000336e+00 -1.267838577565669200e-01
7.949200000000000443e+01 4.309799999999999898e+01 4.921900000000000119e+01 -4.008001999999999754e+01 -2.533364064321224143e-02
7.949200000000000443e+01 4.449799999999999756e+01 4.921900000000000119e+01 -9.207095000000000695e+00 2.645620153267691510e-02
7.950000000000000000e+01 4.901599999999999824e+01 3.043100000000000094e+01 -4.728286999999999907e+00 1.560198370448284688e-01
7.950600000000000023e+01 7.146800000000000352e+01 5.548100000000000165e+01 -2.029178999999999888e+01 4.658584493317786263e-03
7.950600000000000023e+01 7.169499999999999318e+01 5.468200000000000216e+01 -2.974217000000000155e+01 4.416879564499083186e-03
7.951200000000000045e+01 5.166499999999999915e+01 2.394600000000000151e+01 -8.735829999999999984e-01 1.366819734106933804e-01
7.951999999999999602e+01 5.499399999999999977e+01 5.647699999999999676e+01 -1.922655999999999921e+01 -2.794641341914476662e-01
7.951999999999999602e+01 4.971200000000000330e+01 4.269899999999999807e+01 -7.233187000000000033e+00 1.769387219835918262e-02
7.952800000000000580e+01 3.124500000000000099e+01 4.062800000000000011e+01 1.315928000000000075e+01 6.352803657111141811e-02
7.952800000000000580e+01 4.540500000000000114e+01 4.449499999999999744e+01 -3.606307999999999936e+01 3.227368333954833135e-02
7.952800000000000580e+01 4.540500000000000114e+01 4.535999999999999943e+01 -2.119776999999999845e+01 3.463790632585095342e-02
7.953000000000000114e+01 5.924099999999999966e+01 2.292000000000000171e+01 4.434504999999999697e+00 -1.369597853685836086e-01
7.953100000000000591e+01 3.811399999999999721e+01 5.468299999999999983e+01 1.985085000000000122e+01 7.472432095305220345e-02
7.953499999999999659e+01 6.589600000000000080e+01 5.958400000000000318e+01 4.098375000000000057e+01 -2.781208572196730011e-01
7.953799999999999670e+01 4.728900000000000148e+01 4.223499999999999943e+01 -2.003577999999999903e+01 2.160888048044033727e-02
7.954600000000000648e+01 3.456300000000000239e+01 5.052900000000000347e+01 2.986331999999999987e+00 2.954866605033395349e-02
7.954800000000000182e+01 4.303099999999999881e+01 5.952400000000000091e+01 9.504711999999999605e+00 -1.281755909306906381e-02
7.954900000000000659e+01 7.081300000000000239e+01 4.762299999999999756e+01 1.683417000000000030e+01 1.707191405062640378e-03
7.955400000000000205e+01 4.511699999999999733e+01 4.958200000000000074e+01 -3.419132999999999978e+00 2.791186651947833927e-02
7.956000000000000227e+01 5.063000000000000256e+01 5.836299999999999955e+01 -4.960087999999999830e+00 -2.785690486774413666e-01
7.956100000000000705e+01 3.968800000000000239e+01 3.326400000000000290e+01 -4.082012999999999892e+00 2.129020842077044562e-01
7.956399999999999295e+01 4.226400000000000290e+01 3.204599999999999937e+01 -7.482497999999999649e+00 1.806123180290857277e-01
7.956399999999999295e+01 4.378399999999999892e+01 3.204599999999999937e+01 -1.835608999999999824e+01 1.739650041140846093e-01
7.956499999999999773e+01 7.156100000000000705e+01 5.384799999999999898e+01 -1.562856999999999985e+01 4.385708184221561931e-03
7.957099999999999795e+01 4.112100000000000222e+01 5.660199999999999676e+01 -1.680280000000000107e-01 -1.652467285248069087e-02
7.957200000000000273e+01 6.039999999999999858e+01 2.245899999999999963e+01 7.085936999999999930e-01 -1.361747868301503295e-01
7.957299999999999329e+01 4.934799999999999898e+01 3.771200000000000330e+01 3.466689999999999827e+00 1.580364751438263771e-02
7.957599999999999341e+01 4.589999999999999858e+01 3.772200000000000131e+01 5.121595000000000120e+00 -3.499999999999999778e-01
7.957699999999999818e+01 4.710499999999999687e+01 4.667300000000000182e+01 -2.090769999999999840e+01 3.282722733856173469e-02
7.957699999999999818e+01 4.850500000000000256e+01 4.667300000000000182e+01 -2.105303999999999931e+01 2.870089484565007190e-02
7.957899999999999352e+01 7.110899999999999466e+01 5.320199999999999818e+01 -9.874805000000000277e+00 4.478274169600216653e-03
7.958100000000000307e+01 3.138299999999999912e+01 3.974799999999999756e+01 -5.100622999999999685e+00 7.193295441564936943e-02
7.958100000000000307e+01 6.922799999999999443e+01 6.118099999999999739e+01 1.790324999999999989e+01 -2.779731420236049022e-01
7.958199999999999363e+01 3.439300000000000068e+01 5.368699999999999761e+01 -3.521665000000000045e+00 3.520857542540771490e-02
7.958199999999999363e+01 3.461999999999999744e+01 5.288799999999999812e+01 1.563082000000000082e+00 3.467758456883555940e-02
7.958199999999999363e+01 3.461999999999999744e+01 5.448599999999999710e+01 -3.284631000000000078e+00 3.744516289256351327e-02
7.958199999999999363e+01 3.591299999999999670e+01 5.520700000000000074e+01 -4.647375000000000256e+01 2.139012733816099132e-01
7.958299999999999841e+01 4.032600000000000051e+01 3.299199999999999733e+01 -2.558346999999999927e+00 2.040104877238455017e-01
7.958400000000000318e+01 4.205799999999999983e+01 6.058899999999999864e+01 -1.266000999999999976e+01 -1.471520799522344283e-02
7.959000000000000341e+01 5.335000000000000142e+01 2.697500000000000142e+01 8.972516000000000602e+00 1.458971037069561605e-01
7.959000000000000341e+01 5.454099999999999682e+01 2.763899999999999935e+01 -9.294812999999999548e-01 -1.196571885290854675e-01
7.959000000000000341e+01 5.454099999999999682e+01 3.005900000000000105e+01 1.440244000000000035e+01 -1.105314283370170403e-01
7.959000000000000341e+01 5.475000000000000000e+01 2.837500000000000000e+01 -4.886864000000000097e+00 -1.166251006443931731e-01
7.959000000000000341e+01 5.475000000000000000e+01 2.932300000000000040e+01 -2.221039999999999903e+00 -1.131036496519004925e-01
7.959300000000000352e+01 7.274800000000000466e+01 3.921099999999999852e+01 5.648455000000000226e+00 -6.032922861848801117e-03
7.959300000000000352e+01 7.274800000000000466e+01 4.167099999999999937e+01 -4.830830999999999875e+01 -3.756228037169568983e-03
7.959600000000000364e+01 5.864800000000000324e+01 2.284900000000000020e+01 7.472379000000000104e+00 -1.376745662996751995e-01
7.959699999999999420e+01 6.450799999999999557e+01 5.861099999999999710e+01 4.043393999999999977e+01 -2.783011733659315756e-01
7.960299999999999443e+01 7.136199999999999477e+01 3.092399999999999949e+01 -1.251221999999999923e+01 -1.403846164721755420e-02
7.960800000000000409e+01 4.822899999999999920e+01 4.243200000000000216e+01 -1.755291000000000068e+01 2.000369386683128678e-02
7.961499999999999488e+01 6.319299999999999784e+01 5.872500000000000142e+01 1.070606000000000080e+01 -2.782228149386283267e-01
7.961700000000000443e+01 4.210900000000000176e+01 5.042199999999999704e+01 2.590089000000000041e+01 -3.316018170031980600e-02
7.961700000000000443e+01 7.092799999999999727e+01 3.577499999999999858e+01 1.256811000000000078e+01 -9.662377744648365310e-03
7.961700000000000443e+01 7.118200000000000216e+01 3.666899999999999693e+01 2.183526000000000167e+01 -8.694073719788066035e-03
7.962399999999999523e+01 3.989300000000000068e+01 5.824300000000000210e+01 -3.477463999999999889e+00 -1.958513989314417461e-02
7.962399999999999523e+01 3.989300000000000068e+01 5.918299999999999983e+01 -7.786802999999999919e+00 -1.923575617975637267e-02
7.962399999999999523e+01 7.224099999999999966e+01 3.091000000000000014e+01 -1.813588000000000022e+01 -1.367818437088392548e-02
7.962399999999999523e+01 7.228199999999999648e+01 2.816799999999999926e+01 2.177351999999999954e+00 -1.580155818424191019e-02
7.962900000000000489e+01 4.081799999999999784e+01 5.730199999999999960e+01 -4.930833999999999939e+00 -1.752496052320047168e-02
7.963500000000000512e+01 5.984199999999999875e+01 5.575699999999999790e+01 4.965646999999999700e+00 -2.794181886604976128e-01
7.963899999999999579e+01 7.173799999999999955e+01 5.929899999999999949e+01 8.362420999999999882e-01 4.635368836677909200e-03
7.963899999999999579e+01 7.173799999999999955e+01 6.084899999999999665e+01 1.143194000000000017e+02 4.386519888663847552e-03
7.964100000000000534e+01 6.784000000000000341e+01 3.366599999999999682e+01 1.103332999999999942e+01 -1.322338752019198982e-02
7.964600000000000080e+01 7.070399999999999352e+01 5.846300000000000097e+01 1.587476000000000020e+01 5.260736259418929278e-03
7.964900000000000091e+01 3.449900000000000233e+01 3.721500000000000341e+01 -7.137946999999999598e+00 -3.659919702589434221e-01
7.964900000000000091e+01 3.589900000000000091e+01 3.721500000000000341e+01 -5.066745000000000054e+00 -3.653886761165603403e-01
7.965000000000000568e+01 4.176899999999999835e+01 5.159599999999999653e+01 -1.577855999999999925e+00 -3.800228472589308598e-02
7.965000000000000568e+01 4.197800000000000153e+01 5.233200000000000074e+01 -9.431615000000000748e+00 -3.867643071411772104e-02
7.965000000000000568e+01 4.316899999999999693e+01 5.299600000000000222e+01 1.656249000000000082e+00 -3.460395634760737860e-02
7.965200000000000102e+01 6.852700000000000102e+01 6.127000000000000313e+01 1.748517999999999972e+01 -2.778992643863168466e-01
7.965300000000000580e+01 4.957999999999999829e+01 4.598899999999999721e+01 -2.137895999999999930e+01 2.444228896291412295e-02
7.965500000000000114e+01 7.188700000000000045e+01 4.688100000000000023e+01 6.387129999999999797e+01 8.778743119213092616e-04
7.965999999999999659e+01 6.879399999999999693e+01 4.818500000000000227e+01 2.919837999999999933e+00 3.040341913798671504e-03
7.967000000000000171e+01 3.682000000000000028e+01 3.629999999999999716e+01 -4.626663999999999888e+00 -3.651835890111206906e-01
7.967499999999999716e+01 5.360900000000000176e+01 5.732300000000000040e+01 -2.510772000000000048e+01 -2.789873118896512016e-01
7.967799999999999727e+01 3.165500000000000114e+01 4.933299999999999841e+01 4.060798000000000130e+00 -1.182660931997937814e-01
7.968300000000000693e+01 6.155100000000000193e+01 1.965099999999999980e+01 1.566114000000000006e+00 1.291105348354458227e-01
7.968399999999999750e+01 6.215299999999999869e+01 5.864300000000000068e+01 3.784835000000000171e+00 -2.782000881566248363e-01
7.968600000000000705e+01 5.742399999999999949e+01 2.264499999999999957e+01 1.150319999999999965e+01 1.272273340259635344e-01
7.968699999999999761e+01 5.189000000000000057e+01 3.528499999999999659e+01 -5.540008000000000266e+00 -2.493328945433834209e-01
7.968800000000000239e+01 7.226800000000000068e+01 4.204599999999999937e+01 -9.091729000000000838e+00 -3.270626922977688637e-03
7.969499999999999318e+01 3.697599999999999909e+01 3.508299999999999841e+01 -1.004790000000000028e+01 -7.265152705958760615e-02
7.969499999999999318e+01 3.720300000000000296e+01 3.428399999999999892e+01 -4.543441999999999759e+00 -8.375443397911203069e-02
7.969499999999999318e+01 3.849600000000000222e+01 3.356300000000000239e+01 -3.078094000000000108e+00 2.320406647962428015e-01
7.969499999999999318e+01 4.789399999999999835e+01 5.853099999999999881e+01 -1.636720000000000041e+01 1.340203158749475251e-02
7.969499999999999318e+01 4.908500000000000085e+01 5.786699999999999733e+01 -9.193122000000000682e+00 -2.788947667212097192e-01
7.969599999999999795e+01 7.078499999999999659e+01 6.095400000000000063e+01 1.165443999999999924e+01 4.867832871709477927e-03
7.969899999999999807e+01 4.664300000000000068e+01 5.209599999999999653e+01 8.965265999999999735e+00 2.546417945369252103e-02
7.969899999999999807e+01 3.281099999999999994e+01 5.012899999999999778e+01 2.292597000000000218e+00 1.565743446128134778e-02
7.970000000000000284e+01 4.792999999999999972e+01 3.835499999999999687e+01 -4.596987000000000378e+00 -2.484605897636582572e-01
7.970300000000000296e+01 6.729399999999999693e+01 4.990800000000000125e+01 6.029139999999999944e+00 4.972328718943635345e-03
7.970300000000000296e+01 6.750300000000000011e+01 4.917199999999999704e+01 -2.166776000000000035e+00 4.354726604947315935e-03
7.970300000000000296e+01 6.750300000000000011e+01 5.064399999999999835e+01 5.210626999999999676e+00 5.362820383476393782e-03
7.970399999999999352e+01 7.207399999999999807e+01 6.007399999999999807e+01 1.074594000000000023e+02 4.424946920186452123e-03
7.972400000000000375e+01 6.872899999999999920e+01 5.148100000000000165e+01 7.846559000000000061e+00 5.271210579972622143e-03
7.972700000000000387e+01 4.821699999999999875e+01 3.043100000000000094e+01 -3.443439000000000139e+00 1.568698591501776485e-01
7.972700000000000387e+01 4.981499999999999773e+01 3.043100000000000094e+01 -4.944759999999999600e+00 -1.153210477046517218e-01
7.972799999999999443e+01 4.477600000000000335e+01 3.655899999999999750e+01 -1.875978999999999886e+01 -6.232867950103032628e-02
7.973000000000000398e+01 6.990399999999999636e+01 3.482900000000000063e+01 1.592324999999999946e+01 -1.090382811349576916e-02
7.973099999999999454e+01 7.071299999999999386e+01 2.791199999999999903e+01 2.339417999999999864e+01 -1.672130471265950713e-02
7.973099999999999454e+01 7.176300000000000523e+01 2.791199999999999903e+01 2.889875999999999934e+01 -1.619053595354256678e-02
7.973199999999999932e+01 5.238300000000000267e+01 5.810900000000000176e+01 -1.631481000000000137e+01 -2.785638711162199410e-01
7.973399999999999466e+01 5.209100000000000108e+01 2.729799999999999827e+01 6.222761000000000209e+00 1.461249776223140784e-01
7.973399999999999466e+01 5.234199999999999875e+01 2.349200000000000088e+01 5.363878999999999869e-02 1.368933575584092566e-01
7.973399999999999466e+01 7.079200000000000159e+01 4.281900000000000261e+01 1.606560999999999950e+01 -2.297931254437412564e-03
7.973799999999999955e+01 4.636800000000000210e+01 5.126700000000000301e+01 -5.058442999999999579e+00 2.732638418797459640e-02
7.974099999999999966e+01 6.845199999999999818e+01 2.689699999999999847e+01 2.476769000000000176e+01 -2.833893578883529552e-01
7.974800000000000466e+01 5.091899999999999693e+01 3.555199999999999960e+01 -6.908863000000000198e+00 -2.478872455528494390e-01
7.974899999999999523e+01 6.132600000000000051e+01 2.044200000000000017e+01 1.131592999999999982e+01 1.294538118446255937e-01
7.975100000000000477e+01 3.937199999999999989e+01 5.419800000000000040e+01 -6.669400000000000439e+00 -2.120098360756648634e-02
7.975499999999999545e+01 6.884099999999999397e+01 3.239500000000000313e+01 7.840758000000000116e+00 -1.387315899854457170e-02
7.975700000000000500e+01 4.108700000000000330e+01 6.006300000000000239e+01 -2.516292999999999935e+01 -1.676767896556292936e-02
7.976200000000000045e+01 4.489600000000000080e+01 5.992499999999999716e+01 1.237196999999999925e+01 -1.398347085211952556e-01
7.976200000000000045e+01 4.659599999999999653e+01 5.992499999999999716e+01 7.925578999999999930e+00 -3.356758210227954453e-02
7.976399999999999579e+01 6.957899999999999352e+01 4.496300000000000097e+01 -3.168858999999999870e+00 6.590106413145049402e-05
7.976699999999999591e+01 6.229399999999999693e+01 1.872500000000000142e+01 8.636985000000000356e-01 1.293574030849254375e-01
7.976699999999999591e+01 6.358700000000000330e+01 1.800400000000000134e+01 -1.228859999999999952e-01 1.298850409238027082e-01
7.976699999999999591e+01 6.487999999999999545e+01 1.872500000000000142e+01 -2.314949999999999974e+01 1.308927470530140413e-01
7.977100000000000080e+01 5.066599999999999682e+01 2.647800000000000153e+01 -4.335890000000000022e-01 1.425482124899897785e-01
7.977700000000000102e+01 6.925000000000000000e+01 4.370199999999999818e+01 -5.865368000000000137e+00 -1.154526391966108128e-03
7.977800000000000580e+01 5.357500000000000284e+01 2.234499999999999886e+01 1.903883999999999910e+00 1.364746479749653907e-01
7.978199999999999648e+01 6.995799999999999841e+01 3.164099999999999824e+01 3.285630999999999968e+00 -1.397905843457394014e-02
7.978400000000000603e+01 3.047400000000000020e+01 4.384799999999999898e+01 1.050005000000000077e+00 -7.653523991544744498e-02
7.979000000000000625e+01 4.854599999999999937e+01 3.119099999999999895e+01 -3.514949000000000101e+00 1.599643600853193626e-01
7.979000000000000625e+01 4.948599999999999710e+01 3.119099999999999895e+01 -5.071321000000000190e+00 -1.108714016342981223e-01
7.979800000000000182e+01 4.986999999999999744e+01 4.549799999999999756e+01 -2.082553000000000054e+01 2.266495493356922991e-02
7.980400000000000205e+01 5.054099999999999682e+01 2.565099999999999980e+01 -6.715465999999999935e-01 1.398744206899156794e-01
7.980400000000000205e+01 5.077199999999999847e+01 2.483599999999999852e+01 -2.554332000000000047e+00 1.378481934475035142e-01
7.980700000000000216e+01 4.917199999999999704e+01 2.910900000000000176e+01 -1.129456000000000016e+00 1.511238076606198910e-01
7.981100000000000705e+01 7.081999999999999318e+01 5.605499999999999972e+01 -2.030846000000000018e+01 5.428335499087158164e-03
7.981199999999999761e+01 7.110999999999999943e+01 3.749699999999999989e+01 9.181825999999999155e+00 -7.719405550143112853e-03
7.981300000000000239e+01 3.499600000000000222e+01 5.122899999999999920e+01 9.461069000000000173e+00 3.472728981706529883e-02
7.981300000000000239e+01 3.499600000000000222e+01 5.209400000000000119e+01 2.623056000000000054e+00 3.620185445213696535e-02
7.981900000000000261e+01 4.108700000000000330e+01 5.531099999999999994e+01 5.836426999999999587e+00 -1.641656747308224348e-02
7.982500000000000284e+01 6.105400000000000205e+01 2.164300000000000068e+01 3.809248000000000189e+00 -1.361061251886248602e-01
7.982699999999999818e+01 6.834199999999999875e+01 4.843599999999999994e+01 4.884854999999999947e+00 3.651813515430905703e-03
7.982999999999999829e+01 4.597299999999999898e+01 5.067999999999999972e+01 -5.217216999999999771e+00 2.822789238673702530e-02
7.983199999999999363e+01 6.845199999999999818e+01 3.304800000000000182e+01 1.132699000000000034e+01 -1.339378864904815745e-02
7.983299999999999841e+01 4.442399999999999949e+01 5.347500000000000142e+01 1.604198999999999842e+01 -3.044048078963824261e-02
7.983400000000000318e+01 5.994100000000000250e+01 2.286100000000000065e+01 4.219993000000000216e-01 -1.359539229444821917e-01
7.983499999999999375e+01 6.955400000000000205e+01 4.300200000000000244e+01 2.594100000000000072e+00 -1.868218114540069752e-03
7.983799999999999386e+01 7.001900000000000546e+01 4.583100000000000307e+01 3.060714999999999963e-01 8.616365692188160050e-04
7.983799999999999386e+01 7.001900000000000546e+01 4.753099999999999881e+01 1.058633000000000024e+01 2.300367238432412045e-03
7.984000000000000341e+01 6.900700000000000500e+01 2.769300000000000139e+01 9.078122000000000469e+00 -2.834229134848452736e-01
7.984900000000000375e+01 3.386299999999999955e+01 5.046999999999999886e+01 5.868745999999999796e+00 2.636512343810159045e-02
7.984999999999999432e+01 5.684599999999999653e+01 5.501500000000000057e+01 9.199099000000000359e+00 -2.800942422764172157e-01
7.984999999999999432e+01 6.710399999999999920e+01 3.366599999999999682e+01 1.385580999999999996e+01 -1.356506488335079176e-02
7.985099999999999909e+01 4.162500000000000000e+01 5.988900000000000290e+01 -1.461791000000000018e+01 -1.585289069731396841e-02
7.985299999999999443e+01 5.864399999999999835e+01 5.523799999999999955e+01 8.275396999999999892e+00 -2.797320842697822441e-01
7.986499999999999488e+01 6.866500000000000625e+01 3.389900000000000091e+01 5.261419000000000068e+00 -1.236511677571231448e-02
7.986599999999999966e+01 4.647099999999999653e+01 3.800699999999999790e+01 -5.162766000000000410e+00 -2.422850763115030615e-01
7.987500000000000000e+01 5.014099999999999824e+01 4.466499999999999915e+01 -1.861625000000000085e+01 2.030305303524405913e-02
7.987800000000000011e+01 6.525000000000000000e+01 1.953399999999999892e+01 -1.922652000000000072e+01 -1.334647201921439486e-01
7.987999999999999545e+01 5.283299999999999841e+01 3.104599999999999937e+01 5.837647999999999726e+00 -1.073134933183800543e-01
7.988100000000000023e+01 4.780499999999999972e+01 4.673100000000000165e+01 -2.060857999999999990e+01 3.095023841413702820e-02
7.988299999999999557e+01 7.321800000000000352e+01 3.997099999999999653e+01 -1.374873000000000012e+01 -5.113030131141061731e-03
7.988299999999999557e+01 7.321800000000000352e+01 4.091100000000000136e+01 -2.808802999999999983e+01 -4.254991871583816906e-03
7.988400000000000034e+01 6.082300000000000040e+01 5.694599999999999795e+01 4.178295999999999566e+00 -2.787532917144365241e-01
7.988400000000000034e+01 6.103199999999999648e+01 5.768200000000000216e+01 2.354744000000000170e+00 -2.784582860461412568e-01
7.988599999999999568e+01 7.068899999999999295e+01 3.099500000000000099e+01 3.684488000000000207e-01 -1.415222510236816521e-02
7.989300000000000068e+01 3.207099999999999795e+01 3.750900000000000034e+01 -2.685592000000000201e+00 -3.661001469043685397e-01
7.989900000000000091e+01 5.794800000000000040e+01 2.278999999999999915e+01 4.801115000000000244e+00 -1.382905815436662189e-01
7.990099999999999625e+01 5.274799999999999756e+01 3.320000000000000284e+01 -3.729316999999999993e+00 -2.460919003312636022e-01
7.990099999999999625e+01 5.295700000000000074e+01 3.246399999999999864e+01 3.624035999999999813e+00 -2.448619517015411251e-01
7.990300000000000580e+01 4.650800000000000267e+01 4.600900000000000034e+01 -2.064978999999999942e+01 3.338885255148940634e-02
7.990399999999999636e+01 4.527199999999999847e+01 5.358700000000000330e+01 1.657557999999999865e+01 1.668649251616422663e-02
7.990399999999999636e+01 4.646200000000000330e+01 5.292300000000000182e+01 1.174710999999999927e+01 2.280971043446676505e-02
7.990800000000000125e+01 6.740699999999999648e+01 3.296600000000000108e+01 2.591187000000000040e+01 -1.408578578051987787e-02
7.990800000000000125e+01 6.740699999999999648e+01 3.436599999999999966e+01 -1.366435000000000066e+01 -1.254456823936490883e-02
7.990800000000000125e+01 6.827299999999999613e+01 3.436599999999999966e+01 1.034227999999999953e-01 -1.204204007478313146e-02
7.990900000000000603e+01 7.038800000000000523e+01 4.668099999999999739e+01 8.227318999999999605e+00 1.564676485473751348e-03
7.991400000000000148e+01 7.053300000000000125e+01 5.298899999999999721e+01 -7.352765999999999469e-01 5.151688778910349167e-03
7.991599999999999682e+01 7.116899999999999693e+01 3.816400000000000148e+01 4.238526000000000238e+00 -6.937664408866081253e-03
7.991899999999999693e+01 5.554200000000000159e+01 5.583200000000000074e+01 -3.149014000000000024e+01 -2.796873350012180071e-01
7.992000000000000171e+01 6.890000000000000568e+01 2.411400000000000077e+01 4.565050000000000097e+01 -4.531077854008605695e-03
7.992199999999999704e+01 5.511699999999999733e+01 2.240700000000000003e+01 5.125148000000000259e+00 1.248732514647936387e-01
7.992499999999999716e+01 4.379800000000000182e+01 4.895199999999999818e+01 -2.415435000000000088e+01 2.562344202194762749e-02
