4.228199999999999648e+01 2.086599999999999966e+01 -2.195799999999999841e+01 2.396536000000000044e+01 -1.678097750046935593e-02
4.228699999999999903e+01 5.077000000000000313e+01 -1.309200000000000053e+01 2.476669000000000054e+01 -3.809656935427302438e-01
4.228900000000000148e+01 4.807999999999999829e+01 -1.331300000000000061e+01 1.342452999999999861e+02 -3.806366406769172150e-01
4.228900000000000148e+01 4.947999999999999687e+01 -1.331300000000000061e+01 8.707000999999999991e+00 -3.808253788012466723e-01
4.229299999999999926e+01 1.788500000000000156e+01 -2.785699999999999932e+01 -2.335824999999999985e-01 -1.534295962490061227e-01
4.229299999999999926e+01 1.943499999999999872e+01 -2.785699999999999932e+01 7.479315999999999853e+00 -1.578089194291431574e-01
4.229399999999999693e+01 5.290999999999999659e+01 -1.329100000000000037e+01 2.260811999999999955e+01 -3.812141055995910688e-01
4.229599999999999937e+01 4.461599999999999966e+01 -1.095400000000000063e+01 -2.141797000000000040e+01 -3.796077424548277013e-01
4.230799999999999983e+01 1.739600000000000080e+01 -1.717599999999999838e+01 -8.682279000000000524e-01 2.010937554491913359e-01
4.230799999999999983e+01 1.739600000000000080e+01 -1.623600000000000065e+01 -2.963512999999999842e+00 2.137688694686532553e-01
4.231799999999999784e+01 4.670900000000000318e+01 -1.258000000000000007e+01 3.085210999999999970e+01 -3.803232248483927602e-01
4.231900000000000261e+01 1.940800000000000125e+01 -1.351399999999999935e+01 5.515139999999999709e+00 3.729874523120874780e-02
4.232200000000000273e+01 3.359300000000000352e+01 -1.072300000000000075e+01 -1.306410999999999945e+01 -4.203366259445295294e-01
4.232200000000000273e+01 3.359300000000000352e+01 -9.783300000000000551e+00 -2.080726999999999904e+01 -4.190234754199391176e-01
4.232200000000000273e+01 2.743100000000000094e+01 -9.551500000000000767e+00 3.175226999999999933e+01 -3.887001979393402973e-01
4.233700000000000330e+01 4.175500000000000256e+01 -1.641700000000000159e+01 -8.696823000000000192e+00 -3.959566636229254200e-01
4.234400000000000119e+01 3.012800000000000011e+01 -3.122800000000000153e+01 -2.460034999999999972e+00 -9.100859851814913082e-02
4.234899999999999665e+01 5.123400000000000176e+01 -2.724099999999999966e+01 -3.824786000000000019e+00 -3.967306035947891774e-01
4.234899999999999665e+01 5.123400000000000176e+01 -2.630099999999999838e+01 -8.839024000000000214e+00 -3.966375776866559177e-01
4.235499999999999687e+01 4.214200000000000301e+01 -3.110500000000000043e+01 -2.160722999999999949e-01 -1.880195498568601187e-01
4.235499999999999687e+01 2.285099999999999909e+01 -2.794600000000000151e+01 -6.443491999999999997e+00 -8.047317122349846585e-02
4.235600000000000165e+01 5.267199999999999704e+01 -1.483099999999999952e+01 -5.375472999999999502e-01 -3.812894954204083531e-01
4.235600000000000165e+01 5.267199999999999704e+01 -1.396599999999999930e+01 1.108502999999999972e+01 -3.812311903408712732e-01
4.235699999999999932e+01 4.210799999999999699e+01 -1.024900000000000055e+01 -5.820642999999999745e+01 -3.786640842732202916e-01
4.236200000000000188e+01 2.868499999999999872e+01 -1.039100000000000001e+01 1.628756999999999877e+01 -3.891066871267013783e-01
4.236500000000000199e+01 2.861599999999999966e+01 -3.189900000000000091e+01 2.364212000000000202e+00 -8.854068402941092653e-02
4.237299999999999756e+01 4.564600000000000080e+01 -2.869900000000000162e+01 -3.290297999999999945e+00 -2.053766089603260014e-01
4.237700000000000244e+01 4.960999999999999943e+01 -2.277700000000000102e+01 4.100859999999999950e+00 -3.963453603039696072e-01
4.237800000000000011e+01 3.489200000000000301e+01 -2.975000000000000000e+01 8.472601999999999911e-02 -2.068777155136850010e-01
4.237899999999999778e+01 3.828900000000000148e+01 -9.626500000000000057e+00 -3.121638000000000090e+01 -3.766621826251198568e-01
4.238199999999999790e+01 5.175300000000000011e+01 -1.954299999999999926e+01 6.107889000000000124e+00 -3.956808867753832670e-01
4.238199999999999790e+01 2.545799999999999841e+01 -1.693799999999999883e+01 2.663082000000000171e+00 -2.727357881295208175e-01
4.238600000000000279e+01 3.697899999999999920e+01 -3.829599999999999937e+01 1.404092999999999947e+01 -9.293694555892698106e-02
4.238600000000000279e+01 3.802900000000000347e+01 -3.829599999999999937e+01 2.822909999999999897e+01 -9.351752438853158655e-02
4.239000000000000057e+01 3.017599999999999838e+01 -1.951899999999999835e+01 1.365491000000000010e+00 -1.689579418113698328e-01
4.239200000000000301e+01 4.835099999999999909e+01 -2.944300000000000139e+01 -3.359332000000000207e+00 -2.043603266476653746e-01
4.239200000000000301e+01 3.782200000000000273e+01 -3.588700000000000045e+01 -3.916170000000000151e+00 -2.018320192133956914e-01
4.239200000000000301e+01 3.782200000000000273e+01 -3.494700000000000273e+01 -9.346581000000000472e+00 -2.029965285206443149e-01
4.239200000000000301e+01 2.582700000000000173e+01 -2.795299999999999940e+01 -2.550001000000000073e-01 -8.818725323593126775e-02
4.239500000000000313e+01 4.114300000000000068e+01 -1.614300000000000068e+01 -1.132573999999999970e+01 -3.959728513077314105e-01
4.240200000000000102e+01 4.141400000000000148e+01 -1.490099999999999980e+01 -9.497009999999999508e+00 -3.953789628194576133e-01
4.240400000000000347e+01 3.248700000000000188e+01 -2.921000000000000085e+01 -6.883209999999999607e-01 -2.028307239703563414e-01
4.240899999999999892e+01 4.327300000000000324e+01 -3.013299999999999912e+01 2.314885999999999910e+01 -2.079633369016937738e-01
4.241100000000000136e+01 3.051800000000000068e+01 -2.031599999999999895e+01 -3.019010999999999778e-01 -1.700680623383890311e-01
4.241499999999999915e+01 2.344600000000000151e+01 -1.127299999999999969e+01 3.051407000000000203e+00 -2.667388776446688592e-01
4.241499999999999915e+01 3.819599999999999795e+01 -4.424699999999999989e+01 8.086916000000000437e+00 -9.225263772725436628e-02
4.243699999999999761e+01 3.142500000000000071e+01 -1.871300000000000097e+01 -6.718575999999999715e-02 -1.687622710143004134e-01
4.244899999999999807e+01 3.313600000000000279e+01 -1.727199999999999847e+01 -1.610414999999999930e+00 -2.048636147990776646e-01
4.245300000000000296e+01 5.209400000000000119e+01 -1.292800000000000082e+01 8.644268999999999536e+00 -3.810994980330350002e-01
4.245499999999999829e+01 3.694200000000000017e+01 -4.340699999999999648e+01 5.688096999999999737e-01 -9.173011851808586525e-02
4.245499999999999829e+01 3.945000000000000284e+01 -4.340699999999999648e+01 6.204519000000000339e+00 -9.296401547791655062e-02
4.245499999999999829e+01 3.482300000000000040e+01 -8.903000000000000469e+00 -2.533483000000000018e+01 -4.164426061845136751e-01
4.246099999999999852e+01 2.381599999999999895e+01 -1.080100000000000016e+01 2.087165999999999855e+00 -2.611747869003498979e-01
4.246099999999999852e+01 2.526200000000000045e+01 -9.994999999999999218e+00 9.614841000000000193e+00 -3.912200233372415958e-01
4.246200000000000330e+01 3.813900000000000290e+01 -3.653699999999999903e+01 -2.624476000000000031e+00 -1.983761971647989564e-01
4.246399999999999864e+01 2.509199999999999875e+01 -1.794000000000000128e+01 1.031109999999999971e+01 -2.756801598789750396e-01
4.246399999999999864e+01 2.530099999999999838e+01 -1.867599999999999838e+01 2.865778999999999854e+01 -2.762610458082215281e-01
4.246399999999999864e+01 2.649200000000000088e+01 -1.933999999999999986e+01 9.526766999999999541e+01 -2.745495120400370803e-01
4.246999999999999886e+01 3.965999999999999659e+01 -1.003100000000000058e+01 1.290952000000000055e+01 -3.775745599208978343e-01
4.247200000000000131e+01 2.152799999999999869e+01 -2.599200000000000088e+01 -7.172108999999999845e+00 -1.656078319959478906e-01
4.247200000000000131e+01 2.152799999999999869e+01 -2.499599999999999866e+01 -3.503263000000000016e+00 9.438468709064997894e-03
4.247399999999999665e+01 3.707900000000000063e+01 -9.748599999999999710e+00 -6.689712000000000103e+00 -3.761426525973362578e-01
4.247399999999999665e+01 3.366199999999999903e+01 -2.900199999999999889e+01 4.180803000000000297e-02 -2.059710137030351385e-01
4.247500000000000142e+01 4.034899999999999665e+01 -3.597999999999999687e+01 -7.640482999999999691e+00 -2.050020877141917608e-01
4.247599999999999909e+01 2.672899999999999920e+01 -1.605799999999999983e+01 3.329470999999999847e+00 -1.560201035116182133e-01
4.247699999999999676e+01 5.079699999999999704e+01 -2.102899999999999991e+01 8.146602000000000032e+01 -3.959730785942593423e-01
4.247699999999999676e+01 5.079699999999999704e+01 -1.962900000000000134e+01 3.342849999999999966e+01 -3.957370777285154628e-01
4.247999999999999687e+01 4.824499999999999744e+01 -1.852599999999999980e+01 3.862635000000000041e+00 -3.956896642593157321e-01
4.248100000000000165e+01 2.144900000000000162e+01 -2.435200000000000031e+01 6.362510000000000110e-01 4.614364359247321266e-03
4.248199999999999932e+01 5.346399999999999864e+01 -1.782400000000000162e+01 1.126152000000000086e+01 -3.815505707862042462e-01
4.248199999999999932e+01 5.346399999999999864e+01 -1.686599999999999966e+01 -1.009578999999999915e+01 -3.814861031060940988e-01
4.248899999999999721e+01 4.125099999999999767e+01 -1.560200000000000031e+01 -1.206912999999999947e+01 -3.957022121366292611e-01
4.248899999999999721e+01 4.995000000000000284e+01 -1.814600000000000080e+01 1.337288000000000032e+01 -3.955004423830901228e-01
4.249099999999999966e+01 3.635199999999999676e+01 -3.070299999999999940e+01 -3.230210000000000026e-01 -2.074185046565490409e-01
4.249499999999999744e+01 2.189499999999999957e+01 -2.547400000000000020e+01 -1.001263999999999932e+01 1.122977501980933907e-02
4.249900000000000233e+01 4.919800000000000040e+01 -2.458200000000000074e+01 -5.487791999999999781e+00 -3.966163071894359682e-01
4.249900000000000233e+01 4.919800000000000040e+01 -2.371600000000000108e+01 7.483230999999999911e-02 -3.965040588553331857e-01
4.250000000000000000e+01 3.903099999999999881e+01 -3.678799999999999670e+01 -2.182576000000000072e+00 -2.024200894196185874e-01
4.250399999999999778e+01 3.651200000000000045e+01 -3.910300000000000153e+01 1.241666999999999987e+01 -9.238220571417686544e-02
4.251599999999999824e+01 2.630499999999999972e+01 -3.233400000000000318e+01 -2.551747999999999905e+00 -1.661092405677935813e-01
4.251599999999999824e+01 2.783999999999999986e+01 -3.189799999999999969e+01 -3.600694999999999979e+00 -8.730040409421077618e-02
4.252199999999999847e+01 3.687299999999999756e+01 -3.068599999999999994e+01 -1.265648000000000106e+00 -2.082684435894598673e-01
4.252400000000000091e+01 3.473499999999999943e+01 -1.186400000000000077e+01 -2.708245999999999931e+00 -1.679098646726462918e-01
4.252400000000000091e+01 3.801899999999999835e+01 -3.236099999999999710e+01 -1.223958000000000013e+01 -2.069953446961462773e-01
4.252700000000000102e+01 3.461699999999999733e+01 -1.453999999999999915e+01 5.505776000000000003e+00 -1.876824893541887695e-01
4.253499999999999659e+01 5.049399999999999977e+01 -2.032900000000000063e+01 5.410833999999999833e+01 -3.958718940078299608e-01
4.253900000000000148e+01 4.942099999999999937e+01 -1.817099999999999937e+01 1.043408999999999942e+01 -3.955286431958138782e-01
4.255299999999999727e+01 2.808599999999999852e+01 -1.940599999999999881e+01 2.099286000000000030e+01 -1.666752805747242216e-01
4.255799999999999983e+01 3.800600000000000023e+01 -3.144399999999999906e+01 -2.806551999999999936e+00 -2.085224944815642356e-01
4.255799999999999983e+01 3.052199999999999847e+01 -1.878800000000000026e+01 -1.552923999999999971e+01 -1.677606468748438773e-01
4.255899999999999750e+01 5.055100000000000193e+01 -2.191799999999999926e+01 3.408239999999999981e+01 -3.961219181346737339e-01
4.256000000000000227e+01 4.247500000000000142e+01 -3.471399999999999864e+01 1.920577000000000112e+01 -2.088207259341017807e-01
4.256000000000000227e+01 2.327499999999999858e+01 -2.410699999999999932e+01 -1.018363000000000085e+01 -2.079127292949139831e-03
4.256099999999999994e+01 1.637900000000000134e+01 -1.993799999999999883e+01 5.935737999999999737e+00 2.851632458098330991e-01
4.256300000000000239e+01 2.923100000000000165e+01 -1.442999999999999972e+01 -2.416425999999999874e+01 -1.540256692049759291e-01
4.256300000000000239e+01 2.923100000000000165e+01 -1.349000000000000021e+01 -3.951977999999999724e+01 -1.496902288480825294e-01
4.256700000000000017e+01 5.071000000000000085e+01 -2.819999999999999929e+01 -3.807850999999999875e+00 -2.023268158311271880e-01
4.256700000000000017e+01 2.503200000000000003e+01 -2.909799999999999898e+01 2.748826999999999909e+00 -8.466045118707823947e-02
4.257000000000000028e+01 3.193199999999999861e+01 -1.835399999999999920e+01 -5.925512000000000334e+00 -1.683628686682237252e-01
4.257500000000000284e+01 2.491900000000000048e+01 -2.998000000000000043e+01 -1.572057000000000038e+01 -1.659114381009945127e-01
4.257699999999999818e+01 3.986200000000000188e+01 -2.977100000000000080e+01 7.224433000000000105e-01 -1.887775868666854429e-01
4.258100000000000307e+01 1.751500000000000057e+01 -2.532300000000000040e+01 1.157433999999999941e+01 -1.606518548753874120e-01
4.258400000000000318e+01 2.466100000000000136e+01 -3.081400000000000006e+01 -5.615160999999999625e+00 -1.652745364946088258e-01
4.258599999999999852e+01 2.255699999999999861e+01 -2.185000000000000142e+01 7.734252999999999822e+00 2.786170640966383338e-01
4.258800000000000097e+01 5.226400000000000290e+01 -1.873699999999999832e+01 7.463452000000000197e+00 -3.955035072046979017e-01
4.258899999999999864e+01 1.740599999999999881e+01 -2.708200000000000074e+01 3.193258000000000152e+01 -1.554221226824761826e-01
4.258899999999999864e+01 1.740599999999999881e+01 -2.612399999999999878e+01 8.750318000000000040e+01 -1.576996140944026403e-01
4.259899999999999665e+01 1.776699999999999946e+01 -1.541600000000000037e+01 -8.306413999999999742e-01 2.393413086445145832e-01
4.260099999999999909e+01 2.509100000000000108e+01 -2.795299999999999940e+01 -4.521175999999999640e+00 -8.641830106240815101e-02
4.260099999999999909e+01 2.656400000000000006e+01 -2.795299999999999940e+01 -1.086980999999999931e+01 -8.936167516504402164e-02
4.260199999999999676e+01 2.800100000000000122e+01 -1.525300000000000011e+01 -3.677000000000000046e+00 -1.544237157851346964e-01
4.261500000000000199e+01 2.263400000000000034e+01 -2.529200000000000159e+01 -1.829524999999999935e+01 6.920468336348020548e-03
4.261699999999999733e+01 2.139000000000000057e+01 -1.439100000000000001e+01 3.830133000000000010e+01 -2.192199777967105551e-02
4.261699999999999733e+01 2.258099999999999952e+01 -1.372700000000000031e+01 1.933487999999999829e+01 -1.973871371188574142e-01
4.261699999999999733e+01 2.278999999999999915e+01 -1.299099999999999966e+01 1.264994000000000085e+01 -1.929796640780743200e-01
4.261699999999999733e+01 2.304400000000000048e+01 -1.209699999999999953e+01 5.373314999999999841e+00 -2.750335650451803948e-01
4.262199999999999989e+01 4.600900000000000034e+01 -1.252200000000000024e+01 2.598603999999999914e+00 -3.801737243910001118e-01
4.262599999999999767e+01 1.863599999999999923e+01 -1.449900000000000055e+01 -8.515707999999999611e-01 -8.268757346436812761e-02
4.262899999999999778e+01 1.866000000000000014e+01 -2.792200000000000060e+01 -4.899224999999999830e-01 -1.579522036814830221e-01
4.263900000000000290e+01 5.076400000000000290e+01 -2.554100000000000037e+01 -1.996797000000000111e+01 -3.965724945071575358e-01
4.264000000000000057e+01 4.260399999999999920e+01 -3.375600000000000023e+01 2.907051000000000052e+00 -1.883268060259954690e-01
4.264000000000000057e+01 1.608399999999999963e+01 -2.062900000000000134e+01 1.980612000000000039e+00 -6.723882451606455479e-02
4.264500000000000313e+01 2.238100000000000023e+01 -2.718599999999999994e+01 -1.165508999999999951e+01 -1.656837878764774175e-01
4.265800000000000125e+01 2.665599999999999881e+01 -9.615999999999999659e+00 2.005879999999999885e-01 -3.886769801075198316e-01
4.265800000000000125e+01 2.820599999999999952e+01 -9.615999999999999659e+00 6.820159999999999556e+00 -3.874761616960331057e-01
4.265999999999999659e+01 2.539499999999999957e+01 -2.865299999999999869e+01 -1.728776000000000090e+00 -8.599585075633353615e-02
4.265999999999999659e+01 2.539499999999999957e+01 -2.725300000000000011e+01 -6.391778999999999655e+00 -8.819055860260423263e-02
4.265999999999999659e+01 2.626000000000000156e+01 -2.865299999999999869e+01 -8.525705000000000311e+00 -8.776234607321961589e-02
4.265999999999999659e+01 2.626000000000000156e+01 -2.725300000000000011e+01 -7.690259000000000178e+00 -8.985683769331184734e-02
4.265999999999999659e+01 4.027199999999999847e+01 -2.925600000000000023e+01 2.869614999999999805e-01 -1.884322019840113660e-01
4.266100000000000136e+01 4.140800000000000125e+01 -1.019100000000000072e+01 -1.435009999999999941e+01 -3.783624488125842400e-01
4.267099999999999937e+01 3.985499999999999687e+01 -4.257699999999999818e+01 1.185574999999999962e-01 -9.324950774248379204e-02
4.267199999999999704e+01 3.864200000000000301e+01 -3.885499999999999687e+01 5.669639000000000095e+01 -9.357655659534486192e-02
4.267699999999999960e+01 3.655700000000000216e+01 -4.018299999999999983e+01 6.554451000000000249e+00 -9.207351259876267457e-02
4.267999999999999972e+01 4.735399999999999920e+01 -1.846600000000000108e+01 3.726926999999999879e+00 -3.957249187910093502e-01
4.268099999999999739e+01 2.079200000000000159e+01 -2.499599999999999866e+01 9.393622999999999834e+00 1.140904389681650019e-02
4.268399999999999750e+01 2.361100000000000065e+01 -2.800900000000000034e+01 -2.034541000000000111e+01 -1.663274337773643086e-01
4.268900000000000006e+01 2.077899999999999991e+01 -2.605199999999999960e+01 8.462448999999999444e+00 -1.655799282263852867e-01
4.270199999999999818e+01 2.462000000000000099e+01 -2.823199999999999932e+01 -1.248580999999999941e+00 -1.671791016981080680e-01
4.271099999999999852e+01 1.655699999999999861e+01 -2.204100000000000037e+01 5.571582000000000257e+00 -2.227675954984182152e-02
4.271200000000000330e+01 2.075799999999999912e+01 -2.439600000000000080e+01 -3.900539000000000089e-02 6.157995912357622052e-03
4.272099999999999653e+01 4.759100000000000108e+01 -2.937999999999999901e+01 -3.342490000000000183e+00 -2.044568022201735391e-01
4.272099999999999653e+01 4.911099999999999710e+01 -2.937999999999999901e+01 -6.570829999999999949e+00 -2.037180316768364141e-01
4.272200000000000131e+01 4.878000000000000114e+01 -1.358000000000000007e+01 1.118983000000000061e+01 -3.807434423657558575e-01
4.272200000000000131e+01 4.630100000000000193e+01 -2.877599999999999980e+01 -3.692222000000000115e+00 -2.047345134399781164e-01
4.272399999999999665e+01 3.659300000000000352e+01 -4.169700000000000273e+01 5.395468000000000153e+00 -9.175509178198817950e-02
4.272399999999999665e+01 3.671099999999999852e+01 -4.254399999999999693e+01 -6.010671000000000416e-03 -9.167054048305621483e-02
4.272399999999999665e+01 3.671099999999999852e+01 -4.085000000000000142e+01 5.260205000000000020e+00 -9.199603887340922215e-02
4.272399999999999665e+01 3.987500000000000000e+01 -4.085000000000000142e+01 1.982640999999999920e+01 -9.362161574099919781e-02
4.272399999999999665e+01 3.999300000000000210e+01 -4.169700000000000273e+01 2.821114000000000033e+01 -9.348101262832196612e-02
4.272699999999999676e+01 4.748400000000000176e+01 -1.297300000000000075e+01 5.381609999999999872e+01 -3.804840910665293618e-01
4.273299999999999699e+01 2.376500000000000057e+01 -2.344900000000000162e+01 -2.528325999999999851e+00 -7.648721780707336271e-03
4.273299999999999699e+01 2.376500000000000057e+01 -2.258399999999999963e+01 3.547731999999999886e+00 2.797308321434490153e-01
4.273799999999999955e+01 3.058999999999999986e+01 -3.041100000000000136e+01 -8.379261000000000070e-01 -9.196741308026265549e-02
4.273799999999999955e+01 4.765699999999999648e+01 -1.916600000000000037e+01 9.110117999999999938e+00 -3.958461373340188549e-01
4.273799999999999955e+01 4.765699999999999648e+01 -1.776599999999999824e+01 4.845506999999999564e+00 -3.955287255332001761e-01
4.273799999999999955e+01 4.852300000000000324e+01 -1.776599999999999824e+01 5.037475999999999843e+00 -3.954705770001160081e-01
4.274399999999999977e+01 2.232100000000000151e+01 -2.624699999999999989e+01 -1.496448000000000000e+01 -1.673580853067836993e-01
4.274900000000000233e+01 1.988500000000000156e+01 -2.715299999999999869e+01 -1.895764999999999922e+00 -1.624562286905265052e-01
4.275099999999999767e+01 3.742099999999999937e+01 -4.418200000000000216e+01 1.455672000000000077e+00 -9.179774044118972631e-02
4.275099999999999767e+01 3.897099999999999653e+01 -4.418200000000000216e+01 2.984588000000000108e+01 -9.254961202815735477e-02
4.275399999999999778e+01 1.622899999999999920e+01 -2.121999999999999886e+01 1.822691000000000061e+00 -4.876975814549359967e-02
4.275500000000000256e+01 4.093399999999999750e+01 -3.555199999999999960e+01 9.205575999999999759e-01 -2.060474303856849598e-01
4.275600000000000023e+01 4.883200000000000074e+01 -1.928699999999999903e+01 2.147209000000000145e+01 -3.957725634687746519e-01
4.275600000000000023e+01 5.038300000000000267e+01 -1.884600000000000009e+01 1.874072999999999922e+01 -3.955886399702326361e-01
4.275600000000000023e+01 5.038300000000000267e+01 -1.744600000000000151e+01 2.155208999999999975e+01 -3.953103393269206123e-01
4.276500000000000057e+01 4.375699999999999790e+01 -1.072400000000000020e+01 -3.981269000000000347e+01 -3.792973821887678509e-01
4.276500000000000057e+01 4.504999999999999716e+01 -1.144500000000000028e+01 -1.012415000000000020e+02 -3.797800441639868074e-01
4.277300000000000324e+01 4.017999999999999972e+01 -1.013899999999999935e+01 5.962907999999999653e+00 -3.778355828385351334e-01
4.277499999999999858e+01 5.080799999999999983e+01 -1.812900000000000134e+01 1.619271000000000171e+01 -3.954293048463478066e-01
4.277700000000000102e+01 2.000100000000000122e+01 -2.137000000000000099e+01 2.092433000000000121e+01 2.830120034458364353e-01
4.277700000000000102e+01 3.436200000000000188e+01 -2.905999999999999872e+01 5.027118999999999893e-01 -2.069959385759342907e-01
4.278300000000000125e+01 1.748300000000000054e+01 -2.277499999999999858e+01 1.010453000000000046e+01 -5.880112746164447776e-03
4.278600000000000136e+01 3.912599999999999767e+01 -2.977100000000000080e+01 1.793578999999999868e-01 -1.891426813381912875e-01
4.278600000000000136e+01 4.059799999999999898e+01 -2.977100000000000080e+01 -3.877028999999999836e+00 -1.883799542249162129e-01
4.279200000000000159e+01 3.435300000000000153e+01 -9.493000000000000327e+00 -3.287304999999999922e+01 -4.174096479484605271e-01
4.279200000000000159e+01 3.529299999999999926e+01 -9.493000000000000327e+00 -9.212308000000000163e+01 -4.168672843122555038e-01
4.279699999999999704e+01 5.004599999999999937e+01 -1.338599999999999923e+01 1.062457999999999991e+01 -3.808826566745713293e-01
4.279899999999999949e+01 2.099500000000000099e+01 -2.130699999999999861e+01 1.575740000000000052e+01 2.795189600387831264e-01
4.279999999999999716e+01 3.968800000000000239e+01 -4.011899999999999977e+01 6.762485999999999997e+00 -9.369809773942973374e-02
4.280599999999999739e+01 4.898799999999999955e+01 -1.747100000000000009e+01 1.017257000000000033e+01 -3.953700263784168389e-01
4.280599999999999739e+01 4.089200000000000301e+01 -3.034100000000000108e+01 8.487477000000000216e-03 -1.883689505549931975e-01
4.280700000000000216e+01 1.960099999999999909e+01 -2.221799999999999997e+01 5.424933000000000050e+01 -1.721878064094601452e-02
4.281499999999999773e+01 4.382999999999999829e+01 -2.931599999999999895e+01 2.379216999999999871e+01 -2.066526831319041302e-01
4.282300000000000040e+01 3.632800000000000296e+01 -9.720200000000000173e+00 -2.536215999999999937e+01 -3.757448830716467736e-01
4.282500000000000284e+01 3.757300000000000040e+01 -3.074399999999999977e+01 -4.134914000000000200e+00 -2.089708323533108758e-01
4.282500000000000284e+01 4.148899999999999721e+01 -3.059799999999999898e+01 -1.058000000000000007e+01 -1.881500727188173960e-01
4.283299999999999841e+01 2.882400000000000162e+01 -1.947800000000000153e+01 8.166850999999999416e+00 -1.666300686239766404e-01
4.284199999999999875e+01 5.036299999999999955e+01 -2.248900000000000077e+01 1.794274000000000058e+01 -3.961955042636406410e-01
4.284400000000000119e+01 3.905599999999999739e+01 -9.800100000000000477e+00 -2.514247000000000121e+00 -3.771371048627301659e-01
4.284499999999999886e+01 3.942999999999999972e+01 -3.047100000000000009e+01 -4.089724000000000359e+00 -1.891137264001001017e-01
4.284499999999999886e+01 3.942999999999999972e+01 -2.907100000000000151e+01 5.743178999999999590e+00 -1.888135994522476269e-01
4.284499999999999886e+01 4.029500000000000171e+01 -3.047100000000000009e+01 9.260272000000000503e+00 -1.886805409960707891e-01
4.284799999999999898e+01 4.257699999999999818e+01 -1.068299999999999983e+01 -6.487503999999999849e+01 -3.789232386879713421e-01
4.284899999999999665e+01 4.250800000000000267e+01 -3.026699999999999946e+01 2.969800000000000217e+00 -2.082180460720892690e-01
4.285499999999999687e+01 3.402400000000000091e+01 -1.025300000000000011e+01 -3.847596000000000060e+01 -4.187370770932241082e-01
4.285799999999999699e+01 3.175400000000000134e+01 -2.948999999999999844e+01 -5.501598999999999684e+00 -2.775214230851342223e-01
4.286200000000000188e+01 3.858200000000000074e+01 -3.617699999999999960e+01 -2.596208000000000027e+01 -2.023184653095292107e-01
4.286200000000000188e+01 3.952199999999999847e+01 -3.617699999999999960e+01 -3.712241000000000213e+01 -2.035570303513297430e-01
4.286800000000000210e+01 2.598999999999999844e+01 -1.646999999999999886e+01 5.543505999999999823e+00 -2.696596679860517320e-01
4.286800000000000210e+01 3.428699999999999903e+01 -1.107099999999999973e+01 -6.126282999999999923e+00 -4.194924951073299435e-01
4.286899999999999977e+01 4.100800000000000267e+01 -2.925600000000000023e+01 4.422524999999999928e-01 -2.088085622625540927e-01
4.287899999999999778e+01 2.658500000000000085e+01 -2.681599999999999895e+01 -1.260194000000000081e+01 -9.091741593028097868e-02
4.289000000000000057e+01 5.170199999999999818e+01 -1.344400000000000084e+01 1.353899999999999970e+01 -3.810769375198009290e-01
4.289000000000000057e+01 2.946600000000000108e+01 -3.157400000000000162e+01 1.157560999999999929e+01 -8.959533157140037174e-02
4.289200000000000301e+01 3.390800000000000125e+01 -1.551699999999999946e+01 -4.012553999999999732e+00 -1.933768676531673614e-01
4.289600000000000080e+01 5.000000000000000000e+01 -2.328999999999999915e+01 4.586668000000000411e+00 -3.963347884159433843e-01
4.289699999999999847e+01 2.579200000000000159e+01 -1.907300000000000040e+01 3.791832000000000136e+01 -2.752889731275543483e-01
4.290400000000000347e+01 4.488700000000000045e+01 -2.850700000000000145e+01 -9.948956000000000799e+00 -2.052522973111751692e-01
4.290599999999999881e+01 2.730099999999999838e+01 -1.531099999999999994e+01 3.769810000000000105e+00 -1.521518329342413933e-01
4.291100000000000136e+01 2.596999999999999886e+01 -2.683200000000000074e+01 -7.463646999999999920e+00 -8.979141933212916871e-02
4.291899999999999693e+01 3.529200000000000159e+01 -1.401600000000000001e+01 4.332624000000000031e+00 -1.818225240286989175e-01
4.291899999999999693e+01 3.529200000000000159e+01 -1.254400000000000048e+01 3.698173000000000155e-01 -1.717241659407232890e-01
4.291899999999999693e+01 3.550200000000000244e+01 -1.327999999999999936e+01 1.512523999999999980e+00 -1.768025131588094601e-01
4.292499999999999716e+01 3.825300000000000011e+01 -3.541700000000000159e+01 -1.730429000000000173e+01 -2.027251712041939213e-01
4.292799999999999727e+01 3.984000000000000341e+01 -2.855600000000000094e+01 2.563959999999999795e+00 -2.093663211467575169e-01
4.292799999999999727e+01 4.070499999999999829e+01 -2.855600000000000094e+01 3.381415000000000060e+00 -2.085511505698818824e-01
4.292999999999999972e+01 1.984499999999999886e+01 -2.307999999999999829e+01 1.130216000000000065e+02 -6.810517268273816663e-03
4.293200000000000216e+01 4.989800000000000324e+01 -2.484900000000000020e+01 -1.506096999999999930e+01 -3.965432539044298488e-01
4.293399999999999750e+01 3.552300000000000324e+01 -3.026000000000000156e+01 -1.128698999999999897e+00 -2.064793104996790751e-01
4.294200000000000017e+01 3.114499999999999957e+01 -3.015800000000000125e+01 -1.415739000000000081e+00 -9.263152792448300921e-02
4.294500000000000028e+01 2.969500000000000028e+01 -1.898499999999999943e+01 7.326120999999999883e-01 -1.662729273507159156e-01
4.294899999999999807e+01 3.739800000000000324e+01 -3.874000000000000199e+01 1.492863000000000007e+01 -9.286485970904903575e-02
4.296000000000000085e+01 3.852100000000000080e+01 -3.465800000000000125e+01 -1.026736000000000004e+01 -2.040417278691101788e-01
4.296099999999999852e+01 5.268900000000000006e+01 -1.812000000000000099e+01 2.256015999999999977e+01 -3.815084206954676427e-01
4.297099999999999653e+01 3.354500000000000171e+01 -1.625900000000000034e+01 -4.837884999999999991e+00 -1.975888868075534321e-01
4.298299999999999699e+01 5.131000000000000227e+01 -2.056800000000000139e+01 3.846224999999999739e+01 -3.958200846885426838e-01
4.298599999999999710e+01 2.554500000000000171e+01 -3.204399999999999693e+01 -6.171755000000000102e+00 -1.665139838269965311e-01
4.298599999999999710e+01 2.706500000000000128e+01 -3.204399999999999693e+01 -1.073919000000000068e+01 -1.676362388130328840e-01
4.298599999999999710e+01 2.441199999999999903e+01 -1.032000000000000028e+01 1.474371999999999971e+01 -3.907248745351850627e-01
4.298899999999999721e+01 3.099200000000000088e+01 -1.825499999999999901e+01 -6.440660000000000274e+00 -1.662037355774719227e-01
4.299000000000000199e+01 4.959400000000000119e+01 -2.414900000000000091e+01 -5.487791999999999781e+00 -3.964778049167658747e-01
4.299399999999999977e+01 3.493800000000000239e+01 -1.177599999999999980e+01 -2.708245999999999931e+00 -1.655009776175592195e-01
4.299499999999999744e+01 4.249900000000000233e+01 -3.327199999999999847e+01 8.549345000000000638e+00 -1.882564506291132533e-01
4.300200000000000244e+01 4.790599999999999881e+01 -1.325600000000000023e+01 1.254317999999999955e+01 -3.805723180490077073e-01
4.300200000000000244e+01 1.923600000000000065e+01 -1.394999999999999929e+01 4.030350999999999573e+00 -5.940614609055886591e-02
4.301200000000000045e+01 2.514999999999999858e+01 -2.687600000000000122e+01 -9.659810000000000230e+00 -1.697709080684329241e-01
4.301800000000000068e+01 3.988600000000000279e+01 -3.547599999999999909e+01 -1.142775999999999925e+01 -2.047616350047741507e-01
4.302600000000000335e+01 5.302499999999999858e+01 -1.734499999999999886e+01 5.019302999999999848e+00 -3.814723367266837917e-01
4.303300000000000125e+01 2.847100000000000009e+01 -1.472000000000000064e+01 -5.247171999999999947e+00 -1.516979940018740591e-01
4.304500000000000171e+01 2.047299999999999898e+01 -1.401600000000000001e+01 2.433332000000000050e+01 -3.869918084167157935e-02
4.304599999999999937e+01 3.247200000000000131e+01 -1.759799999999999898e+01 -3.699809000000000125e+00 -1.665869032183006360e-01
4.304999999999999716e+01 2.208999999999999986e+01 -1.412400000000000055e+01 3.264444999999999908e+01 -4.647661987262052471e-03
4.304999999999999716e+01 1.705000000000000071e+01 -2.207499999999999929e+01 2.583523000000000014e+00 -2.468278554112941781e-02
4.305100000000000193e+01 2.367099999999999937e+01 -2.453900000000000148e+01 -7.936768999999999963e+00 -1.850551944709250690e-03
4.305400000000000205e+01 4.551800000000000068e+01 -1.212500000000000000e+01 -4.950415999999999883e+01 -3.799907183583449144e-01
4.305499999999999972e+01 4.208299999999999841e+01 -3.227300000000000324e+01 1.995699000000000112e+01 -1.882303200954947575e-01
4.305599999999999739e+01 2.344500000000000028e+01 -2.525600000000000023e+01 -2.404362000000000066e+01 2.781946763853252336e-03
4.306099999999999994e+01 2.542999999999999972e+01 -9.925700000000000855e+00 1.843496000000000024e+01 -3.892808238255405229e-01
4.306099999999999994e+01 5.275399999999999778e+01 -1.657799999999999940e+01 8.863049000000000177e+00 -3.813970693190343875e-01
4.306400000000000006e+01 1.729599999999999937e+01 -1.841400000000000148e+01 1.035811999999999983e-01 2.567322066990415097e-01
4.306499999999999773e+01 4.989099999999999824e+01 -2.891199999999999903e+01 -1.015321999999999925e+01 -2.028166659151916240e-01
4.306700000000000017e+01 2.203200000000000003e+01 -2.125400000000000134e+01 6.237354999999999983e+00 2.773654574838286258e-01
4.306799999999999784e+01 2.554500000000000171e+01 -2.942699999999999960e+01 -1.298621999999999943e+01 -1.680030294663846235e-01
4.306799999999999784e+01 1.818100000000000094e+01 -2.737800000000000011e+01 2.792167000000000066e+00 -1.609292834027592212e-01
4.306799999999999784e+01 1.913899999999999935e+01 -2.737800000000000011e+01 -3.279049000000000103e+00 -1.627439976393194321e-01
4.306799999999999784e+01 1.710600000000000165e+01 -1.670599999999999952e+01 -1.344695999999999891e+00 2.036859330377162325e-01
4.306799999999999784e+01 1.733299999999999841e+01 -1.590700000000000003e+01 -1.005738999999999983e+01 2.219724027481552731e-01
4.306799999999999784e+01 1.828200000000000003e+01 -1.495800000000000018e+01 -8.984248000000000234e-01 -7.711229887811410499e-02
4.307099999999999795e+01 1.990200000000000102e+01 -2.634400000000000119e+01 -2.880977000000000121e+00 -1.660335398784925365e-01
4.307200000000000273e+01 5.172200000000000131e+01 -1.815399999999999991e+01 1.184984000000000037e+01 -3.814463154506301246e-01
4.307399999999999807e+01 4.045900000000000318e+01 -3.104100000000000037e+01 -4.244473000000000162e+00 -1.886939871385152623e-01
4.307399999999999807e+01 4.132500000000000284e+01 -2.964099999999999824e+01 5.002332000000000001e+00 -2.085668246682095828e-01
4.307500000000000284e+01 4.674199999999999733e+01 -1.280199999999999960e+01 8.562846000000000402e+00 -3.803249371804267587e-01
4.307800000000000296e+01 2.735600000000000165e+01 -2.755399999999999849e+01 -8.850450000000000372e+00 -9.080874164363500478e-02
4.308299999999999841e+01 1.723400000000000176e+01 -1.753099999999999881e+01 -4.996295000000000042e-01 2.413199739173654823e-01
4.308500000000000085e+01 4.162500000000000000e+01 -3.503900000000000148e+01 1.309266000000000041e+01 -2.072616965259656552e-01
4.308800000000000097e+01 2.050499999999999901e+01 -2.055600000000000094e+01 1.177806999999999960e+01 2.761860025410042274e-01
4.308800000000000097e+01 2.732100000000000151e+01 -2.681599999999999895e+01 -1.063462999999999958e+01 -9.185135975091285321e-02
4.309100000000000108e+01 5.223100000000000165e+01 -1.437700000000000067e+01 7.404685999999999879e+00 -3.811923514716328842e-01
4.309199999999999875e+01 4.105599999999999739e+01 -3.129799999999999827e+01 4.329876999999999754e+00 -1.884705880265516720e-01
4.309300000000000352e+01 3.921399999999999864e+01 -3.935199999999999676e+01 6.552110000000000412e+01 -2.773209459590740833e-01
4.309599999999999653e+01 2.880000000000000071e+01 -1.396000000000000085e+01 -2.825580000000000069e+01 -1.488930484651827535e-01
4.309899999999999665e+01 5.137899999999999778e+01 -1.897299999999999898e+01 1.140923000000000087e+01 -3.955331207123986004e-01
4.310099999999999909e+01 1.693599999999999994e+01 -1.928699999999999903e+01 7.924055000000000071e+00 2.731999769357061902e-01
4.310900000000000176e+01 5.034799999999999898e+01 -2.502299999999999969e+01 -2.066392000000000095e+01 -3.965091658749227976e-01
4.310900000000000176e+01 5.129699999999999704e+01 -2.757000000000000028e+01 -2.002762999999999849e+01 -3.966993952623131814e-01
4.310900000000000176e+01 5.129699999999999704e+01 -2.597200000000000131e+01 -3.176640000000000086e+01 -3.965382523094854172e-01
4.310900000000000176e+01 5.152400000000000091e+01 -2.677100000000000080e+01 -4.604672999999999661e+01 -3.966034870769742371e-01
4.310999999999999943e+01 2.392099999999999937e+01 -2.376699999999999946e+01 -1.235092000000000034e+01 -7.076499216771258045e-03
4.311099999999999710e+01 2.340700000000000003e+01 -2.185900000000000176e+01 8.271285000000000664e+00 2.779263519456319775e-01
4.311299999999999955e+01 2.858500000000000085e+01 -1.228500000000000014e+01 -1.358910000000000018e+01 -3.897542427048865110e-01
4.311299999999999955e+01 2.698600000000000065e+01 -2.460500000000000043e+01 -3.055242999999999931e+00 -1.748818232375833406e-02
4.311399999999999721e+01 5.120400000000000063e+01 -2.157499999999999929e+01 1.839528999999999925e+01 -3.959739451748113259e-01
4.311399999999999721e+01 2.700600000000000023e+01 -2.832000000000000028e+01 -1.284856999999999916e+00 -8.915759246729580700e-02
4.311500000000000199e+01 2.726000000000000156e+01 -1.907300000000000040e+01 7.068089999999999407e+01 -1.637668714932649927e-01
4.311500000000000199e+01 2.314099999999999824e+01 -2.747599999999999909e+01 -9.871461999999999293e+00 -1.679131439041398333e-01
4.311500000000000199e+01 2.314099999999999824e+01 -2.595599999999999952e+01 -2.135990999999999929e+01 -1.699859549543886739e-01
4.311500000000000199e+01 2.408099999999999952e+01 -2.747599999999999909e+01 -1.995685999999999893e+01 -1.686905026438495769e-01
4.311500000000000199e+01 3.828900000000000148e+01 -9.835599999999999454e+00 1.976016999999999912e+00 -3.767781700364844499e-01
4.311500000000000199e+01 2.350499999999999901e+01 -1.157600000000000051e+01 5.433858999999999995e+00 -2.716266452323282676e-01
4.312700000000000244e+01 1.773100000000000165e+01 -2.487500000000000000e+01 3.921730999999999856e+00 -1.686885565867426995e-01
4.312700000000000244e+01 1.773100000000000165e+01 -2.391700000000000159e+01 1.803799000000000063e+01 1.078065175814069306e-02
4.312700000000000244e+01 2.023900000000000077e+01 -2.391700000000000159e+01 1.635437000000000030e+00 6.872086247196636114e-04
4.313100000000000023e+01 2.853200000000000003e+01 -1.320100000000000051e+01 -2.299128999999999934e+01 -1.439695960575140543e-01
4.313199999999999790e+01 5.138300000000000267e+01 -1.737800000000000011e+01 4.619259999999999877e+01 -3.813566773489344697e-01
4.313300000000000267e+01 1.784499999999999886e+01 -2.660300000000000153e+01 7.265385999999999456e+01 -1.626257067421541247e-01
4.313499999999999801e+01 5.085600000000000165e+01 -1.345599999999999952e+01 1.670617999999999981e+01 -3.809741529641399449e-01
4.313499999999999801e+01 4.809000000000000341e+01 -1.727499999999999858e+01 9.545215999999999923e+00 -3.953342250134116997e-01
4.313700000000000045e+01 2.743100000000000094e+01 -9.320000000000000284e+00 -1.582318000000000069e+01 -3.863121701389622964e-01
4.313700000000000045e+01 2.875000000000000000e+01 -1.005499999999999972e+01 -8.109797000000000367e+00 -3.871435806174100547e-01
4.313700000000000045e+01 2.898100000000000165e+01 -1.086999999999999922e+01 -5.559330000000000105e+00 -3.881956969139433999e-01
4.314200000000000301e+01 2.027100000000000080e+01 -2.549399999999999977e+01 1.233187999999999995e+01 -1.688887375828315718e-01
4.314600000000000080e+01 2.701800000000000068e+01 -2.611599999999999966e+01 -1.201207999999999920e+01 -9.249557503884284215e-02
4.315100000000000335e+01 4.187700000000000244e+01 -1.062500000000000000e+01 -3.017996000000000123e+01 -3.786596318873641231e-01
4.315200000000000102e+01 4.105199999999999960e+01 -1.019500000000000028e+01 -6.533939000000000163e+00 -3.782017978964570259e-01
4.315200000000000102e+01 3.905199999999999960e+01 -3.541700000000000159e+01 -1.707361999999999824e+01 -2.036948067439605659e-01
4.315299999999999869e+01 4.839900000000000091e+01 -1.977700000000000102e+01 3.690641000000000105e+01 -3.958600458471291939e-01
4.315299999999999869e+01 4.995000000000000284e+01 -1.933699999999999974e+01 4.350775000000000148e+01 -3.956664100902379522e-01
4.315299999999999869e+01 4.995000000000000284e+01 -1.695499999999999829e+01 1.885277999999999921e+01 -3.812080926181343754e-01
4.315400000000000347e+01 2.756800000000000139e+01 -1.479499999999999993e+01 -4.653291000000000288e+00 -1.494618500293037611e-01
4.315800000000000125e+01 4.376800000000000068e+01 -2.795200000000000173e+01 -1.278756999999999922e+00 -2.053422469918605997e-01
4.316100000000000136e+01 3.826200000000000045e+01 -3.000199999999999889e+01 -3.575110000000000010e+00 -1.747009969396911278e-01
4.316400000000000148e+01 2.535900000000000176e+01 -1.837300000000000111e+01 2.196931000000000012e+01 -2.750062166158039334e-01
4.316400000000000148e+01 2.535900000000000176e+01 -1.750700000000000145e+01 8.267490000000000450e+00 -2.735009004864128457e-01
4.317000000000000171e+01 2.885600000000000165e+01 -1.169699999999999918e+01 -1.929646999999999935e+01 -3.890771743996000454e-01
4.317099999999999937e+01 3.009900000000000020e+01 -3.080799999999999983e+01 2.021526999999999852e+00 -9.081379978767978312e-02
4.317099999999999937e+01 4.695700000000000074e+01 -1.889799999999999969e+01 5.660378999999999827e+00 -3.957979911595623790e-01
4.317099999999999937e+01 4.695700000000000074e+01 -1.803300000000000125e+01 6.453585999999999601e+00 -3.955937229712533920e-01
4.317199999999999704e+01 4.564600000000000080e+01 -2.847200000000000131e+01 -1.213829999999999920e+01 -2.045100134244012546e-01
4.317600000000000193e+01 4.190899999999999892e+01 -2.975300000000000011e+01 3.104408999999999974e+00 -2.080579139623088269e-01
4.317799999999999727e+01 2.281200000000000117e+01 -2.671600000000000108e+01 -7.274530000000000385e+00 -1.688697203110413048e-01
4.317900000000000205e+01 2.553699999999999903e+01 -2.613200000000000145e+01 -8.406290999999999514e+00 -1.712493593538456926e-01
4.318900000000000006e+01 5.132699999999999818e+01 -1.997800000000000153e+01 2.155012999999999934e+01 -3.957027336384483229e-01
4.319100000000000250e+01 4.700099999999999767e+01 -2.904299999999999926e+01 -4.236647999999999747e+00 -2.041611994353503545e-01
4.319100000000000250e+01 4.835099999999999909e+01 -2.967000000000000171e+01 -3.330944999999999823e+00 -2.039330490257906803e-01
4.319100000000000250e+01 1.798699999999999832e+01 -2.565099999999999980e+01 3.539088000000000278e+01 -1.664464913556056302e-01
4.319100000000000250e+01 1.798699999999999832e+01 -2.314099999999999824e+01 3.586175999999999675e+01 -4.243693189936699819e-03
4.319299999999999784e+01 3.481300000000000239e+01 -1.021899999999999942e+01 -2.027068999999999832e+01 -4.178105912944838352e-01
4.319899999999999807e+01 5.231600000000000250e+01 -1.536700000000000088e+01 1.788159999999999883e+01 -3.812689291354153243e-01
4.320000000000000284e+01 2.649200000000000088e+01 -1.913100000000000023e+01 5.427181999999999817e+01 -2.737229217117492786e-01
4.320300000000000296e+01 4.942099999999999937e+01 -1.936199999999999832e+01 4.743838999999999828e+01 -3.956987231708361530e-01
4.320300000000000296e+01 4.942099999999999937e+01 -1.698000000000000043e+01 1.642524999999999835e+01 -3.811663378963354165e-01
4.320300000000000296e+01 4.942099999999999937e+01 -1.346599999999999930e+01 6.298230000000000217e+00 -3.807966351488921153e-01
4.320300000000000296e+01 3.496000000000000085e+01 -1.081700000000000017e+01 -1.220252999999999943e+01 -4.184232835186406652e-01
4.320600000000000307e+01 2.148699999999999832e+01 -2.045499999999999829e+01 1.289648000000000039e+01 2.738311242272829515e-01
4.320600000000000307e+01 3.572999999999999687e+01 -1.018500000000000050e+01 -2.036226999999999876e+01 -4.172611131294511333e-01
4.321000000000000085e+01 3.366199999999999903e+01 -2.879200000000000159e+01 -2.299173999999999940e-01 -2.057161874816274272e-01
4.321900000000000119e+01 3.856499999999999773e+01 -2.930199999999999960e+01 -4.617415999999999743e-01 -1.746054065749794715e-01
4.322999999999999687e+01 3.664600000000000080e+01 -4.292799999999999727e+01 -1.740304000000000073e+00 -1.704970466722660893e-01
4.322999999999999687e+01 3.687700000000000244e+01 -4.374300000000000210e+01 3.251536999999999900e-01 -1.705315119205966234e-01
4.322999999999999687e+01 3.819599999999999795e+01 -4.447800000000000153e+01 2.063385999999999942e+00 -9.203321344861883913e-02
4.322999999999999687e+01 3.951500000000000057e+01 -4.374300000000000210e+01 6.823216999999999643e+00 -9.275943217899701443e-02
4.322999999999999687e+01 3.974600000000000222e+01 -4.292799999999999727e+01 -8.297069000000000472e+00 -9.300374773338490608e-02
4.323499999999999943e+01 4.451700000000000301e+01 -1.101399999999999935e+01 -1.195082000000000022e+02 -3.795457156241779373e-01
4.323899999999999721e+01 3.891100000000000136e+01 -3.422999999999999687e+01 -7.878506999999999927e+00 -2.049813953151888857e-01
4.324099999999999966e+01 3.986200000000000188e+01 -3.096099999999999852e+01 -1.829538000000000153e+01 -1.748446676275607625e-01
4.325000000000000000e+01 3.842000000000000171e+01 -3.282099999999999795e+01 -1.857641000000000098e+00 -2.063330142414369628e-01
4.325600000000000023e+01 3.965999999999999659e+01 -2.798799999999999955e+01 5.610210999999999615e+00 -2.087578208359711363e-01
4.325600000000000023e+01 4.052600000000000335e+01 -2.798799999999999955e+01 2.033827000000000051e+00 -2.079306885542611116e-01
4.325699999999999790e+01 5.221000000000000085e+01 -1.734499999999999886e+01 3.690023000000000053e+01 -3.814091786196757150e-01
4.325900000000000034e+01 2.861599999999999966e+01 -3.164499999999999957e+01 7.757840999999999987e+00 -1.691912888674075022e-01
4.325900000000000034e+01 4.294800000000000040e+01 -2.960800000000000054e+01 1.307047000000000025e+01 -2.070831734641610244e-01
4.325999999999999801e+01 5.058899999999999864e+01 -1.703099999999999881e+01 1.635603000000000051e+01 -3.812622943517168794e-01
4.326200000000000045e+01 3.708400000000000318e+01 -9.990199999999999747e+00 -1.087566999999999950e+01 -3.763421724739728913e-01
4.326400000000000290e+01 3.861800000000000210e+01 -3.090599999999999881e+01 -9.224947999999999482e+00 -2.097773454956987360e-01
4.327600000000000335e+01 2.507499999999999929e+01 -3.128399999999999892e+01 -5.927685000000000315e+00 -1.670802567176190301e-01
4.327600000000000335e+01 2.507499999999999929e+01 -3.034400000000000119e+01 -1.491182000000000052e+01 -1.675708809694074486e-01
4.328300000000000125e+01 2.442699999999999960e+01 -2.674500000000000099e+01 -2.284765000000000157e+01 -1.702855632786518802e-01
4.329599999999999937e+01 4.299799999999999756e+01 -1.091600000000000037e+01 -3.586390999999999707e+01 -3.790986303708351879e-01
4.329699999999999704e+01 3.942300000000000182e+01 -9.917600000000000193e+00 -2.503479000000000010e+00 -3.773697924751726052e-01
4.329800000000000182e+01 2.762600000000000122e+01 -1.427100000000000080e+01 -1.354609999999999914e+01 -1.465054506623587605e-01
4.330299999999999727e+01 3.831700000000000017e+01 -3.187900000000000134e+01 -7.541743000000000308e+00 -2.076578334956482585e-01
4.330700000000000216e+01 2.885500000000000043e+01 -1.904799999999999827e+01 2.960846000000000089e+00 -1.646645968254903669e-01
4.331000000000000227e+01 3.755899999999999750e+01 -3.904800000000000182e+01 3.695161000000000229e+01 -9.276114192462717178e-02
4.331099999999999994e+01 2.388700000000000045e+01 -1.116999999999999993e+01 8.233579000000000647e+00 -2.679665094593155494e-01
4.331499999999999773e+01 2.630499999999999972e+01 -3.210699999999999932e+01 -1.128602000000000061e+01 -1.677172054134122847e-01
4.331799999999999784e+01 3.023199999999999932e+01 -1.831800000000000139e+01 -6.050946999999999854e+00 -1.646569092780128529e-01
4.332300000000000040e+01 2.772200000000000131e+01 -2.460500000000000043e+01 -3.264018999999999782e+00 -2.802032079989001945e-01
4.332399999999999807e+01 3.642300000000000182e+01 -3.033500000000000085e+01 -2.158233000000000068e+00 -2.075508972036381738e-01
4.332800000000000296e+01 3.244599999999999795e+01 -2.907600000000000051e+01 -2.255765999999999849e+01 -2.773617834347404387e-01
4.332999999999999829e+01 4.331700000000000017e+01 -2.875799999999999912e+01 1.916713999999999984e+01 -2.061376261359754714e-01
4.333400000000000318e+01 5.084799999999999898e+01 -2.239699999999999847e+01 1.848401000000000138e+01 -3.961017390385880299e-01
4.333500000000000085e+01 5.188400000000000034e+01 -1.651099999999999923e+01 1.325533000000000072e+02 -3.813168853197820840e-01
4.333800000000000097e+01 2.680999999999999872e+01 -1.570800000000000018e+01 7.623588999999999949e+00 -1.517870588873368454e-01
4.333800000000000097e+01 2.972599999999999909e+01 -3.120899999999999963e+01 5.621356999999999715e+00 -1.700405327756679408e-01
