1.606299999999999883e+01 4.615200000000000102e+01 2.451000000000000156e+01 -1.575603000000000087e+00 -2.607658006935775763e-01
1.606400000000000006e+01 7.752100000000000080e+01 2.586100000000000065e+01 3.968916000000000111e+00 -2.557710473905462356e-01
1.606500000000000128e+01 7.235899999999999466e+01 1.273399999999999999e+01 1.844622000000000028e+01 -2.553618365173341842e-01
1.606500000000000128e+01 7.235899999999999466e+01 1.369200000000000017e+01 1.087176000000000009e+01 -2.553266502716897146e-01
1.606500000000000128e+01 7.486700000000000443e+01 1.273399999999999999e+01 1.097642000000000024e+02 -2.551841754151341068e-01
1.606500000000000128e+01 7.486700000000000443e+01 1.369200000000000017e+01 3.541624999999999801e+01 -2.551496792517829459e-01
1.606700000000000017e+01 3.011199999999999832e+01 2.544699999999999918e+01 -1.739989000000000008e+00 7.701613424617126565e-03
1.606800000000000139e+01 7.378700000000000614e+01 2.675300000000000011e+01 5.319879000000000246e+01 -3.838021312395018536e-01
1.606800000000000139e+01 7.794899999999999807e+01 2.675300000000000011e+01 8.420389000000000124e+00 -2.558610607980297269e-01
1.606899999999999906e+01 3.096300000000000097e+01 3.778499999999999659e+01 -7.613920000000000243e+00 -1.904691985091997997e-01
1.606899999999999906e+01 7.639300000000000068e+01 2.667999999999999972e+01 1.326604000000000028e+01 -2.556732424382661129e-01
1.606899999999999906e+01 3.298400000000000176e+01 1.853000000000000114e+01 -7.998893999999999949e+00 9.431874636342553117e-03
1.607000000000000028e+01 6.822499999999999432e+01 1.719699999999999918e+01 -2.193233999999999995e+01 -2.556032596927114708e-01
1.607000000000000028e+01 6.916500000000000625e+01 1.719699999999999918e+01 -1.990795999999999921e+01 -2.554967738953836665e-01
1.607400000000000162e+01 8.259999999999999432e+01 3.415299999999999869e+01 -2.228838999999999970e+01 -2.896015190878172829e-01
1.607400000000000162e+01 8.389300000000000068e+01 3.343200000000000216e+01 -3.235517000000000110e+01 -2.896673325281275968e-01
1.607400000000000162e+01 8.412000000000000455e+01 3.263300000000000267e+01 -4.537604999999999933e+01 -2.897533623318980789e-01
1.607499999999999929e+01 1.475799999999999912e+01 2.155999999999999872e+01 -3.337991000000000241e+01 -1.326659449508534871e-01
1.607499999999999929e+01 3.250200000000000244e+01 4.127000000000000313e+01 -1.999565999999999955e+00 -1.348585081681221154e-01
1.607700000000000173e+01 6.651200000000000045e+01 1.832499999999999929e+01 4.929834999999999745e+00 -2.557877604087059886e-01
1.607799999999999940e+01 6.818600000000000705e+01 3.510300000000000153e+01 -2.398058000000000134e-01 -3.734158924111742328e-01
1.607900000000000063e+01 7.138599999999999568e+01 1.671799999999999997e+01 1.468275000000000041e+01 -2.553015865966821729e-01
1.607999999999999829e+01 7.439300000000000068e+01 3.888100000000000023e+01 -6.316320000000000334e+01 -3.735933773046491435e-01
1.608099999999999952e+01 6.587099999999999511e+01 1.821099999999999852e+01 7.576648999999999745e+00 -2.558869049074063429e-01
1.608200000000000074e+01 8.348699999999999477e+01 2.510099999999999909e+01 -1.176266999999999996e+01 -2.563092937306638008e-01
1.608399999999999963e+01 7.285599999999999454e+01 3.584499999999999886e+01 -6.192881999999999998e+00 -3.734356382812592523e-01
1.608599999999999852e+01 4.414099999999999824e+01 2.994999999999999929e+01 9.656546000000000163e+01 -2.479700267381947376e-01
1.608599999999999852e+01 4.500600000000000023e+01 2.994999999999999929e+01 5.880861999999999767e+01 -2.480684746195893631e-01
1.608599999999999852e+01 7.837099999999999511e+01 2.728399999999999892e+01 1.125969000000000086e+01 -2.559290214984716316e-01
1.608899999999999864e+01 6.025099999999999767e+01 2.303800000000000026e+01 -2.259177999999999997e+01 -2.568998430680689560e-01
1.608999999999999986e+01 4.862199999999999989e+01 2.352799999999999869e+01 -2.565690000000000026e+00 -2.597868146843048676e-01
1.609400000000000119e+01 6.417900000000000205e+01 2.224200000000000088e+01 1.274047000000000018e+01 -2.560358864617381935e-01
1.609400000000000119e+01 6.557899999999999352e+01 2.224200000000000088e+01 -1.166834000000000060e+01 -2.557984130758221286e-01
1.609499999999999886e+01 4.894200000000000017e+01 1.873499999999999943e+01 -4.525892000000000337e+01 -2.591618862365930864e-01
1.609499999999999886e+01 2.219399999999999906e+01 1.934499999999999886e+01 -4.665684999999999860e+00 -6.109496430789268691e-03
1.609600000000000009e+01 5.270199999999999818e+01 1.974200000000000088e+01 5.063041000000000125e+00 -2.585329349290608203e-01
1.610000000000000142e+01 4.338799999999999812e+01 2.490599999999999881e+01 5.532484000000000179e+00 -1.596723205231516951e-01
1.610000000000000142e+01 1.946799999999999997e+01 2.306599999999999895e+01 1.072330000000000005e+01 1.940795312360655764e-02
1.610099999999999909e+01 7.008899999999999864e+01 1.744000000000000128e+01 8.348663000000000167e+00 -2.554030988880419129e-01
1.610399999999999920e+01 8.440300000000000580e+01 2.335000000000000142e+01 -1.439902000000000015e+01 -2.563101348289699155e-01
1.610399999999999920e+01 4.491199999999999903e+01 3.829899999999999949e+01 -4.831599999999999895e+00 -1.567192940697585690e-01
1.610500000000000043e+01 2.792699999999999960e+01 1.810200000000000031e+01 -2.907329999999999970e+00 -2.421805840817637875e-02
1.610500000000000043e+01 7.361299999999999955e+01 1.189400000000000013e+01 1.151665999999999990e+01 -2.553093523399032061e-01
1.610999999999999943e+01 6.372299999999999898e+01 3.418200000000000216e+01 -3.522658999999999985e+00 -3.733676642203814233e-01
1.611799999999999855e+01 7.606100000000000705e+01 1.861899999999999977e+01 1.526788000000000034e+00 -2.552697235938469200e-01
1.611899999999999977e+01 3.112699999999999889e+01 3.929899999999999949e+01 -5.974129999999999718e+00 -1.665879237281543690e-01
1.612099999999999866e+01 4.943699999999999761e+01 3.768800000000000239e+01 -9.720083000000000695e+00 -1.564518284707752949e-01
1.612300000000000111e+01 5.433800000000000097e+01 3.645000000000000284e+01 -1.239718000000000098e+00 -1.892355391909154583e-01
1.612300000000000111e+01 5.573799999999999955e+01 3.645000000000000284e+01 -2.362553000000000125e+00 -1.888484648470503680e-01
1.612699999999999889e+01 7.409000000000000341e+01 2.745299999999999940e+01 8.123689999999999856e+00 -3.837701711876633781e-01
1.612699999999999889e+01 7.495600000000000307e+01 2.745299999999999940e+01 -2.035175999999999874e+00 -2.555127614919362466e-01
1.612699999999999889e+01 7.678000000000000114e+01 2.745299999999999940e+01 2.721963999999999828e+00 -2.557476591685447498e-01
1.612699999999999889e+01 7.764600000000000080e+01 2.745299999999999940e+01 6.805746000000000073e+00 -2.558490401183887153e-01
1.612900000000000134e+01 7.261499999999999488e+01 1.446799999999999997e+01 2.268046000000000006e+01 -2.552970068047240026e-01
1.612900000000000134e+01 7.461100000000000421e+01 1.446799999999999997e+01 2.552713999999999928e+01 -2.551555191809299350e-01
1.613100000000000023e+01 7.478799999999999670e+01 1.811700000000000088e+01 5.524172000000000082e+00 -2.550705868652771713e-01
1.613100000000000023e+01 6.093900000000000006e+01 3.594500000000000028e+01 -6.200719999999999565e+00 -3.735828067747347658e-01
1.613200000000000145e+01 5.992199999999999704e+01 2.221699999999999875e+01 -8.022636999999999574e+00 -2.570401409945692883e-01
1.613400000000000034e+01 6.108899999999999864e+01 2.043799999999999883e+01 4.244378000000000206e+00 -2.567768040875083591e-01
1.613899999999999935e+01 3.350800000000000267e+01 4.414900000000000091e+01 -5.950118999999999936e+00 -3.733659222079313555e-02
1.613899999999999935e+01 3.350800000000000267e+01 4.519899999999999807e+01 -7.170944999999999681e-01 -4.417517204020614263e-02
1.614000000000000057e+01 5.966199999999999903e+01 3.755100000000000193e+01 -2.301864000000000132e+01 -3.738013579041254419e-01
1.614000000000000057e+01 1.321599999999999930e+01 1.895200000000000173e+01 -3.934280000000000221e+00 -1.033737091065510399e-01
1.614000000000000057e+01 6.484900000000000375e+01 2.660200000000000031e+01 2.977898999999999852e+00 -2.557959750108220742e-01
1.614000000000000057e+01 8.379099999999999682e+01 2.440099999999999980e+01 -1.519225999999999921e+01 -2.562969863821955574e-01
1.614399999999999835e+01 4.383800000000000097e+01 3.064999999999999858e+01 2.782727999999999824e+01 -2.470042155536135708e-01
1.614399999999999835e+01 4.531000000000000227e+01 3.064999999999999858e+01 8.240410999999999930e+00 -2.473018423982747405e-01
1.614499999999999957e+01 6.518200000000000216e+01 3.408899999999999864e+01 -9.930225000000000080e+00 -3.733561020073664638e-01
1.614499999999999957e+01 6.992000000000000171e+01 3.514500000000000313e+01 9.122892000000000223e+00 -3.734133388921930807e-01
1.614999999999999858e+01 7.280500000000000682e+01 1.756800000000000139e+01 1.243861000000000061e+01 -2.551785967303860647e-01
1.615399999999999991e+01 2.651599999999999824e+01 1.730999999999999872e+01 -2.850667000000000062e+00 -1.853175516447770621e-02
1.615599999999999881e+01 3.951100000000000279e+01 2.437099999999999866e+01 7.462222999999999828e+00 -1.583072582641367465e-01
1.616400000000000148e+01 7.726800000000000068e+01 1.853000000000000114e+01 -2.217312000000000172e+00 -2.554148033127524586e-01
1.616499999999999915e+01 5.982200000000000273e+01 1.989000000000000057e+01 8.461396999999999835e+00 -2.571445026357236374e-01
1.616700000000000159e+01 8.255100000000000193e+01 3.000000000000000000e+01 -6.677880000000000038e+00 -2.900918698695094666e-01
1.616799999999999926e+01 7.413500000000000512e+01 1.653900000000000148e+01 1.865315999999999974e+01 -2.551250310405775990e-01
1.616900000000000048e+01 4.112599999999999767e+01 2.524099999999999966e+01 3.459391000000000105e+00 -1.583819313862873668e-01
1.617200000000000060e+01 3.152400000000000091e+01 1.886100000000000065e+01 -5.238940000000000374e+00 4.324515512805294018e-03
1.617299999999999827e+01 7.314700000000000557e+01 3.787599999999999767e+01 -2.287406000000000006e+01 -3.735579638737289709e-01
1.617299999999999827e+01 1.164499999999999957e+01 2.537800000000000011e+01 -4.403997000000000384e+00 -1.520020284367670504e-01
1.618299999999999983e+01 3.488300000000000267e+01 4.611999999999999744e+01 -7.671305000000000263e+00 -4.671564829179649520e-02
1.618400000000000105e+01 3.631799999999999784e+01 4.532600000000000051e+01 -9.018947999999999965e+00 -1.333842772108736474e-01
1.619000000000000128e+01 7.818099999999999739e+01 3.449699999999999989e+01 -9.670795999999999992e+01 -2.895407766034068242e-01
1.619200000000000017e+01 1.224799999999999933e+01 2.071799999999999997e+01 -4.205116000000000298e+00 -1.069873730273203510e-01
1.619200000000000017e+01 1.510299999999999976e+01 1.822500000000000142e+01 -2.971229000000000120e+00 -1.131363945974225016e-01
1.619800000000000040e+01 5.996600000000000108e+01 3.685099999999999909e+01 -8.203722000000000847e+00 -3.737169437276124384e-01
1.619900000000000162e+01 7.297199999999999420e+01 3.678099999999999881e+01 -5.750272999999999968e+00 -3.734974068113328660e-01
1.619900000000000162e+01 7.611799999999999500e+01 3.767499999999999716e+01 -1.502130000000000010e+01 -3.735173049675047374e-01
1.619900000000000162e+01 7.637199999999999989e+01 3.678099999999999881e+01 1.255091000000000001e+01 -3.734696836270089970e-01
1.619900000000000162e+01 2.970899999999999963e+01 3.691299999999999670e+01 -7.303886000000000323e+00 -2.126651330131290041e-01
1.620200000000000173e+01 7.585699999999999932e+01 2.300799999999999912e+01 8.739136000000000237e+00 -2.554046909327021275e-01
1.620799999999999841e+01 7.397299999999999898e+01 1.826800000000000068e+01 4.493286999999999587e+00 -2.550887772543264376e-01
1.620899999999999963e+01 3.016300000000000026e+01 2.773000000000000043e+01 -4.661055000000000170e+00 2.214465361783280600e-02
1.621000000000000085e+01 3.601899999999999835e+01 3.315299999999999869e+01 -2.851024999999999920e+01 -1.608847035533864933e-01
1.621000000000000085e+01 3.601899999999999835e+01 3.541899999999999693e+01 -1.549837999999999916e+01 -1.695789343498817214e-01
1.621000000000000085e+01 3.741899999999999693e+01 3.315299999999999869e+01 -9.617343999999999227e+00 -1.593309290782043419e-01
1.621000000000000085e+01 3.741899999999999693e+01 3.541899999999999693e+01 -8.478141000000000149e-01 -1.658902487880019871e-01
1.621099999999999852e+01 7.307599999999999341e+01 1.825799999999999912e+01 6.575230999999999604e+00 -2.551532927515950955e-01
1.621499999999999986e+01 8.140099999999999625e+01 2.818100000000000094e+01 8.046239999999999171e+00 -2.562402319079429835e-01
1.621600000000000108e+01 3.369299999999999784e+01 4.305400000000000205e+01 -7.736419999999999852e+00 -1.287243059659564093e-01
1.622100000000000009e+01 5.894100000000000250e+01 2.286899999999999977e+01 -1.912140999999999980e-01 -2.573720077404159090e-01
1.622100000000000009e+01 5.928600000000000136e+01 2.365200000000000102e+01 -6.352954000000000434e+00 -2.572410640730374842e-01
1.622100000000000009e+01 6.075800000000000267e+01 2.365200000000000102e+01 -2.099183000000000021e+01 -2.568139955687737119e-01
1.622299999999999898e+01 6.012500000000000000e+01 2.058999999999999986e+01 1.077858999999999945e+01 -2.570734027908864183e-01
1.622899999999999920e+01 7.372499999999999432e+01 2.405399999999999849e+01 1.865236000000000161e+01 -2.551389830761705557e-01
1.623000000000000043e+01 3.806799999999999784e+01 4.410699999999999932e+01 -6.510181000000000218e+00 -1.406218213799938221e-01
1.623199999999999932e+01 6.216799999999999926e+01 3.516299999999999670e+01 5.150278000000000134e+00 -3.734911217170504560e-01
1.623199999999999932e+01 8.384300000000000352e+01 3.164900000000000091e+01 -1.617621000000000109e+01 -2.898728049485541636e-01
1.623699999999999832e+01 1.771399999999999864e+01 2.080900000000000105e+01 -1.220876999999999990e+00 6.564578328226103147e-03
1.623900000000000077e+01 3.864200000000000301e+01 2.280199999999999960e+01 3.201518999999999782e+00 -1.594606556799274544e-01
1.623900000000000077e+01 3.864200000000000301e+01 2.366799999999999926e+01 4.336081000000000074e+00 -1.585130713500461086e-01
1.623900000000000077e+01 7.271599999999999397e+01 1.568900000000000006e+01 1.500603000000000087e+01 -2.552780206979688993e-01
1.623900000000000077e+01 7.450400000000000489e+01 1.568900000000000006e+01 7.568421999999999983e+00 -2.551500755189097247e-01
1.623900000000000077e+01 4.277700000000000102e+01 3.802100000000000080e+01 -2.824574999999999725e-01 -1.584608747581720822e-01
1.623999999999999844e+01 6.287500000000000000e+01 2.321699999999999875e+01 1.638034999999999997e+01 -2.563304679878675163e-01
1.623999999999999844e+01 6.287500000000000000e+01 2.408200000000000074e+01 8.296597999999999473e+00 -2.563024624770148252e-01
1.624399999999999977e+01 4.038799999999999812e+01 3.781300000000000239e+01 5.222951000000000121e+00 -1.608879369413740157e-01
1.624399999999999977e+01 7.466500000000000625e+01 2.304799999999999827e+01 -1.090182999999999902e+00 -2.552306541200335399e-01
1.624500000000000099e+01 6.531999999999999318e+01 1.704200000000000159e+01 2.284969999999999946e+00 -2.560780771571388725e-01
1.624500000000000099e+01 6.531999999999999318e+01 1.865399999999999991e+01 4.925661999999999985e+00 -2.560250201657869318e-01
1.624599999999999866e+01 4.053600000000000136e+01 4.406400000000000006e+01 -1.660269999999999868e+01 -1.456064694305650442e-01
1.624699999999999989e+01 8.106000000000000227e+01 3.336899999999999977e+01 -3.131951000000000107e+01 -2.897240270179310406e-01
1.624899999999999878e+01 6.344800000000000040e+01 1.983399999999999963e+01 7.285108000000000139e+00 -2.563243315793354293e-01
1.625000000000000000e+01 6.587000000000000455e+01 1.896199999999999974e+01 1.906117999999999979e+00 -2.559298130863720266e-01
1.625100000000000122e+01 5.877100000000000080e+01 1.851500000000000057e+01 7.087266999999999761e+00 -2.575261514636041360e-01
1.625799999999999912e+01 5.705499999999999972e+01 3.833800000000000097e+01 -1.680359999999999943e+01 -3.741590840327605472e-01
1.625799999999999912e+01 1.657000000000000028e+01 1.933299999999999841e+01 4.500706000000000273e+01 -1.104666183691967313e-01
1.626500000000000057e+01 2.941799999999999926e+01 1.832799999999999940e+01 -1.124455000000000027e+01 -4.700072463236702920e-03
1.626800000000000068e+01 4.978799999999999670e+01 2.323499999999999943e+01 1.995883000000000074e+00 -2.594340059516642150e-01
1.627299999999999969e+01 1.806899999999999906e+01 2.286899999999999977e+01 -2.742764999999999898e+00 8.034650327076821308e-03
1.627299999999999969e+01 8.170399999999999352e+01 2.748100000000000165e+01 -3.837438999999999822e+01 -2.562270301225290092e-01
1.627400000000000091e+01 6.431300000000000239e+01 2.148100000000000165e+01 6.027951999999999977e+00 -2.561182444561851956e-01
1.627499999999999858e+01 7.241400000000000148e+01 1.657100000000000151e+01 8.201465000000000671e+00 -2.552818892135836348e-01
1.627899999999999991e+01 5.924399999999999977e+01 2.216900000000000048e+01 8.442792000000000741e+00 -2.573256122334286466e-01
1.627899999999999991e+01 5.958899999999999864e+01 2.435200000000000031e+01 -6.614520999999999873e+00 -2.571596238311659177e-01
1.627899999999999991e+01 6.045499999999999829e+01 2.435200000000000031e+01 -7.150432999999999595e+00 -2.569065114235317138e-01
1.628000000000000114e+01 4.152100000000000080e+01 3.705499999999999972e+01 1.987618000000000151e+01 -1.608240792376647854e-01
1.628099999999999881e+01 7.157200000000000273e+01 3.519500000000000028e+01 -1.923471999999999937e+01 -3.734165729970166381e-01
1.628300000000000125e+01 8.161499999999999488e+01 2.988500000000000156e+01 -1.407391999999999932e+01 -2.563197170557542370e-01
1.628900000000000148e+01 2.606400000000000006e+01 2.471199999999999974e+01 1.136792999999999942e+01 -6.972589298681461378e-02
1.629299999999999926e+01 1.274099999999999966e+01 2.156800000000000139e+01 -5.160351999999999606e+00 -1.140293625201293654e-01
1.629400000000000048e+01 7.679800000000000182e+01 2.376899999999999835e+01 -1.068471000000000082e+01 -2.555441448300587171e-01
1.629500000000000171e+01 7.910699999999999932e+01 2.728399999999999892e+01 7.615198999999999607e+00 -2.559685285986575964e-01
1.629799999999999827e+01 7.662300000000000466e+01 3.530199999999999960e+01 -5.898073000000000121e+00 -2.891982232639339623e-01
1.629799999999999827e+01 6.098700000000000188e+01 2.303800000000000026e+01 4.072246999999999950e+00 -2.568126566609746364e-01
1.629899999999999949e+01 8.099200000000000443e+01 2.890700000000000003e+01 -4.612093999999999916e+00 -2.562211181215743871e-01
1.630600000000000094e+01 3.053200000000000003e+01 1.873600000000000065e+01 -9.934551000000000798e+00 -3.324931655473492694e-04
1.630699999999999861e+01 6.375099999999999767e+01 2.053399999999999892e+01 1.224230000000000018e+01 -2.562693313007263773e-01
1.630900000000000105e+01 7.305400000000000205e+01 1.487899999999999956e+01 2.836947999999999936e+01 -2.553009454349058904e-01
1.630900000000000105e+01 7.416599999999999682e+01 1.487899999999999956e+01 2.924464000000000041e+01 -2.552203002786964103e-01
1.630900000000000105e+01 3.078500000000000014e+01 4.062899999999999778e+01 -6.170702999999999605e+00 -1.436191090602791376e-01
1.630999999999999872e+01 1.654500000000000171e+01 2.399200000000000088e+01 -1.035435000000000016e+01 -2.899438138292501771e-02
1.631099999999999994e+01 2.901300000000000168e+01 3.148799999999999955e+01 -1.181273000000000017e+01 2.030735632621307740e-01
1.631099999999999994e+01 4.068200000000000216e+01 3.997299999999999898e+01 -2.390665999999999869e+01 -1.557331948602234672e-01
1.631200000000000117e+01 5.603900000000000148e+01 1.855099999999999838e+01 4.641504000000000296e+00 -2.580110533720020860e-01
1.631299999999999883e+01 7.398799999999999955e+01 2.331400000000000006e+01 -4.864643000000000161e-01 -2.551276251540768869e-01
1.631599999999999895e+01 1.779400000000000048e+01 2.027899999999999991e+01 1.905060000000000087e-03 7.555108406228801081e-03
1.631599999999999895e+01 4.722800000000000153e+01 3.755700000000000216e+01 -9.854910999999999532e+00 -1.573750642011968182e-01
1.631599999999999895e+01 8.296599999999999397e+01 3.069999999999999929e+01 -1.181452999999999953e+01 -2.900028931027118784e-01
1.631899999999999906e+01 7.314199999999999591e+01 1.656099999999999994e+01 1.698789000000000016e+01 -2.552387123501730359e-01
1.632000000000000028e+01 6.348599999999999710e+01 2.229500000000000171e+01 1.555968999999999980e+01 -2.562716826504302103e-01
1.632100000000000151e+01 4.183100000000000307e+01 2.510399999999999920e+01 -2.342106999999999939e+00 -1.587261609716576205e-01
1.632300000000000040e+01 1.407199999999999918e+01 2.199200000000000088e+01 -2.486807999999999907e+01 -1.225909551344216003e-01
1.632300000000000040e+01 3.788400000000000034e+01 1.877899999999999991e+01 -1.278114000000000061e+01 -1.628014520578499325e-01
1.632300000000000040e+01 3.917699999999999960e+01 1.950000000000000000e+01 -1.870392000000000010e+01 -1.623211201739168108e-01
1.632600000000000051e+01 6.719599999999999795e+01 1.855399999999999849e+01 -1.251422000000000034e+00 -2.557817311763017076e-01
1.632600000000000051e+01 6.874599999999999511e+01 3.555599999999999739e+01 7.266163000000000483e-02 -3.734643610234653077e-01
1.632999999999999829e+01 2.454599999999999937e+01 2.404200000000000159e+01 -2.529570000000000007e+01 -6.204110000673761227e-02
1.633099999999999952e+01 2.304500000000000171e+01 2.360800000000000054e+01 -2.312034999999999840e+01 -3.467895078887707483e-02
1.633399999999999963e+01 3.745900000000000318e+01 4.427900000000000347e+01 -2.126551999999999865e+01 -1.388957054097244015e-01
1.633899999999999864e+01 5.244299999999999784e+01 3.668800000000000239e+01 1.155340999999999951e+00 -1.906467970838433001e-01
1.633999999999999986e+01 6.777400000000000091e+01 3.539600000000000080e+01 5.049807999999999630e+00 -3.734621796552990980e-01
1.634600000000000009e+01 6.513899999999999579e+01 1.980199999999999960e+01 5.762959000000000387e+00 -2.560593800434143863e-01
1.634600000000000009e+01 6.345000000000000284e+01 1.699800000000000111e+01 3.838267999999999791e+00 -2.564514405615161974e-01
1.634600000000000009e+01 6.450000000000000000e+01 1.699800000000000111e+01 3.379443999999999892e+00 -2.562580402220208109e-01
1.634900000000000020e+01 6.067099999999999937e+01 2.227700000000000102e+01 3.140401000000000220e+00 -2.569454027707818722e-01
1.634900000000000020e+01 2.160000000000000142e+01 2.295499999999999829e+01 -5.217868000000000173e+00 -9.140735408479370647e-03
1.635000000000000142e+01 6.731499999999999773e+01 3.475099999999999767e+01 -7.753940999999999750e-01 -3.734171016329166370e-01
1.635200000000000031e+01 2.817800000000000082e+01 2.435000000000000142e+01 -1.192844000000000015e+01 -2.872999914360632734e-02
1.635300000000000153e+01 4.457399999999999807e+01 3.064999999999999858e+01 3.324658999999999764e+01 -2.469343257660739366e-01
1.635300000000000153e+01 7.793800000000000239e+01 2.798400000000000176e+01 6.304547000000000345e+00 -2.558647462807979722e-01
1.635300000000000153e+01 7.880400000000000205e+01 2.658399999999999963e+01 4.408453999999999873e+00 -2.558943223743230244e-01
1.635300000000000153e+01 7.880400000000000205e+01 2.798400000000000176e+01 1.047760000000000069e+01 -2.559585011063664206e-01
1.635399999999999920e+01 6.500199999999999534e+01 1.802899999999999991e+01 6.879389999999999894e+00 -2.561428938223727636e-01
1.635600000000000165e+01 7.692600000000000193e+01 3.460199999999999676e+01 -1.182273999999999958e+01 -2.892734796488149462e-01
1.635699999999999932e+01 2.957000000000000028e+01 2.503200000000000003e+01 -2.512322999999999951e+01 -6.074290783492624496e-03
1.635999999999999943e+01 7.977200000000000557e+01 3.248700000000000188e+01 -2.383104000000000156e+01 -2.898330589927685108e-01
1.635999999999999943e+01 6.685699999999999932e+01 3.410600000000000165e+01 -6.131037000000000070e+00 -3.733698742772087464e-01
1.636100000000000065e+01 4.438700000000000045e+01 2.489999999999999858e+01 4.411819999999999631e+00 -2.615703605595135484e-01
1.636899999999999977e+01 7.863800000000000523e+01 3.349199999999999733e+01 -2.388426000000000116e+01 -2.896110111663844355e-01
1.636899999999999977e+01 4.037899999999999778e+01 3.927300000000000324e+01 -2.336867000000000161e+01 -1.578523784421597964e-01
1.637099999999999866e+01 4.207699999999999818e+01 4.098400000000000176e+01 -1.641266999999999854e+01 -1.538876190047119286e-01
1.637399999999999878e+01 6.200800000000000267e+01 2.024299999999999855e+01 4.663210000000000299e+00 -2.566791126900260234e-01
1.637699999999999889e+01 3.950000000000000000e+01 2.110300000000000153e+01 -1.511627000000000010e+01 -1.611170099065090677e-01
1.637999999999999901e+01 3.115399999999999991e+01 4.147899999999999920e+01 -6.257401999999999909e+00 -1.313350522317559554e-01
1.638100000000000023e+01 2.719800000000000040e+01 2.451699999999999946e+01 -1.499849999999999994e+01 -4.794908072164956458e-02
1.638400000000000034e+01 6.689199999999999591e+01 1.925400000000000134e+01 2.335202000000000111e-01 -2.558226327171430059e-01
1.639499999999999957e+01 4.019299999999999784e+01 3.870799999999999841e+01 -3.776736999999999966e+01 -1.596715080057365954e-01
1.639499999999999957e+01 5.341100000000000136e+01 3.652100000000000080e+01 5.273662999999999990e+00 -1.902864493457328554e-01
1.639499999999999957e+01 6.483299999999999841e+01 2.053900000000000148e+01 3.945920999999999790e+00 -2.561089151440188449e-01
1.639499999999999957e+01 7.312099999999999511e+01 2.476099999999999923e+01 9.538432000000000244e+00 -3.838640679022542468e-01
1.639499999999999957e+01 7.312099999999999511e+01 2.562600000000000122e+01 1.389936999999999934e+01 -3.838258718973018846e-01
1.639600000000000080e+01 1.598900000000000077e+01 2.110399999999999920e+01 -6.558538999999999675e+00 -1.244420286337189208e-01
1.639900000000000091e+01 7.361299999999999955e+01 1.476399999999999935e+01 4.006419000000000352e+01 -2.552888216800898724e-01
1.639999999999999858e+01 6.455200000000000671e+01 1.891199999999999903e+01 1.628303999999999974e+01 -2.562122691625577930e-01
1.639999999999999858e+01 5.949000000000000199e+01 2.151699999999999946e+01 1.454655999999999949e+01 -2.573311185839998183e-01
1.639999999999999858e+01 6.035499999999999687e+01 2.151699999999999946e+01 1.227242000000000033e+01 -2.570789858012078599e-01
1.640099999999999980e+01 7.586799999999999500e+01 2.744399999999999906e+01 -2.436993000000000187e+00 -2.555793190159936223e-01
1.640399999999999991e+01 1.876800000000000068e+01 2.300700000000000145e+01 8.497194999999999609e+00 1.925802810280592692e-02
1.640800000000000125e+01 8.300400000000000489e+01 2.476000000000000156e+01 -2.481917999999999935e+01 -2.562051450702286792e-01
1.640800000000000125e+01 7.332500000000000284e+01 2.651200000000000045e+01 3.839363000000000170e+01 -3.837871571082621669e-01
1.641100000000000136e+01 6.668099999999999739e+01 2.561499999999999844e+01 4.513055999999999734e+00 -2.556595415641768065e-01
1.641100000000000136e+01 6.702599999999999625e+01 2.483200000000000074e+01 9.053088000000000246e-01 -2.556343736394789956e-01
1.641300000000000026e+01 6.442300000000000182e+01 3.412400000000000233e+01 -8.703742000000000090e+00 -3.733888085245616328e-01
1.641300000000000026e+01 6.594100000000000250e+01 3.412400000000000233e+01 -1.467360000000000042e+01 -3.733803545257077805e-01
1.641700000000000159e+01 6.308100000000000307e+01 1.784799999999999898e+01 3.999503999999999948e+00 -2.565318136645303726e-01
1.641900000000000048e+01 4.390400000000000347e+01 3.920000000000000284e+01 -1.235182000000000002e+01 -1.574936509580826538e-01
1.642200000000000060e+01 7.230899999999999750e+01 1.824800000000000111e+01 4.447802000000000255e+00 -2.552785453145199335e-01
1.642299999999999827e+01 6.633899999999999864e+01 2.230499999999999972e+01 -2.151087000000000060e+01 -2.558186523121465106e-01
1.642599999999999838e+01 2.772299999999999898e+01 2.945400000000000063e+01 -3.731685000000000141e+00 1.590237177287166792e-01
1.642599999999999838e+01 2.772299999999999898e+01 3.050400000000000134e+01 5.195202000000000098e+00 1.604596281761111742e-01
1.642699999999999960e+01 1.075099999999999945e+01 2.537800000000000011e+01 -4.257829000000000086e+00 -1.280417463676699619e-01
1.642699999999999960e+01 1.253899999999999970e+01 2.537800000000000011e+01 -4.799239000000000033e+00 -1.760402089318735819e-01
1.644300000000000139e+01 6.554900000000000659e+01 2.654400000000000048e+01 1.273230000000000084e+00 -2.558188968100628680e-01
1.644500000000000028e+01 4.782500000000000284e+01 2.371499999999999986e+01 2.428961000000000037e-01 -2.600506126234155557e-01
1.644999999999999929e+01 4.257500000000000284e+01 2.495299999999999940e+01 -8.445087999999999484e-01 -1.590739535036569396e-01
1.645899999999999963e+01 6.747199999999999420e+01 2.392899999999999849e+01 1.706093000000000082e+00 -2.556207261854792634e-01
1.645899999999999963e+01 3.915299999999999869e+01 2.198199999999999932e+01 -2.038802000000000092e+01 -1.602104895898901482e-01
1.645899999999999963e+01 7.413299999999999557e+01 2.789999999999999858e+01 2.505271000000000026e+00 -3.837304253015630939e-01
1.645899999999999963e+01 7.499899999999999523e+01 2.789999999999999858e+01 -2.328050000000000175e+00 -3.837398138067058539e-01
1.646000000000000085e+01 8.315999999999999659e+01 2.561199999999999832e+01 -4.589535000000000053e+01 -2.562428439020507098e-01
1.646000000000000085e+01 7.664900000000000091e+01 2.301699999999999946e+01 -1.481936999999999927e+01 -2.554611531888478226e-01
1.646199999999999974e+01 3.480299999999999727e+01 1.968900000000000006e+01 -9.075487000000000748e+00 1.440723041570547702e-02
1.646199999999999974e+01 3.620300000000000296e+01 1.968900000000000006e+01 -3.233157999999999976e+00 -1.619156778819241804e-01
1.646399999999999864e+01 5.491499999999999915e+01 1.971399999999999864e+01 4.322865000000000180e+00 -2.582201740216457653e-01
1.646399999999999864e+01 2.054700000000000060e+01 1.933399999999999963e+01 2.418568999999999927e-02 3.306746584602130975e-04
1.646600000000000108e+01 6.959699999999999420e+01 1.768799999999999883e+01 9.801605999999999597e+00 -2.555696704461018487e-01
1.646600000000000108e+01 8.330800000000000693e+01 2.405999999999999872e+01 -2.109148000000000067e+01 -2.561941858856566778e-01
1.646900000000000119e+01 2.509499999999999886e+01 1.697500000000000142e+01 -2.132079000000000057e+00 -1.515485154904044895e-02
1.647100000000000009e+01 6.324900000000000233e+01 2.494699999999999918e+01 1.930118999999999918e+00 -2.563080629565522295e-01
1.647100000000000009e+01 8.068600000000000705e+01 1.893100000000000094e+01 -2.179889999999999883e+00 -2.557628108919930421e-01
1.647100000000000009e+01 8.216200000000000614e+01 1.824899999999999878e+01 -3.335195000000000132e+00 -2.558824789874752925e-01
1.647100000000000009e+01 8.360800000000000409e+01 1.905499999999999972e+01 -3.207349999999999923e+00 -2.560378353598639634e-01
1.647200000000000131e+01 3.293500000000000227e+01 4.176100000000000279e+01 -1.132075999999999993e+01 -1.348440284779111875e-01
1.647200000000000131e+01 4.649900000000000233e+01 2.433899999999999864e+01 -2.025866000000000167e+00 -2.605819845838617810e-01
1.647299999999999898e+01 4.042600000000000193e+01 2.518299999999999983e+01 1.710333000000000103e+00 -1.577656702413431922e-01
1.647700000000000031e+01 8.216700000000000159e+01 3.084900000000000020e+01 -1.707666000000000039e+01 -2.900100199572522297e-01
1.647899999999999920e+01 1.764799999999999969e+01 2.329200000000000159e+01 -5.386095000000000077e+00 -3.029605996935694039e-03
1.647899999999999920e+01 4.199199999999999733e+01 4.197399999999999665e+01 -9.113559000000000410e+00 -1.518329233072315820e-01
1.648000000000000043e+01 7.261199999999999477e+01 1.894800000000000040e+01 -5.077472000000000207e+00 -2.552488556302415779e-01
1.648000000000000043e+01 7.347700000000000387e+01 1.894800000000000040e+01 -4.862568999999999697e+00 -2.551823258402534100e-01
1.648300000000000054e+01 6.357699999999999818e+01 2.148100000000000165e+01 2.923109999999999875e+00 -2.563542745118824739e-01
1.648300000000000054e+01 6.504900000000000659e+01 2.148100000000000165e+01 -2.919437999999999978e+00 -2.560791723708711887e-01
1.648300000000000054e+01 8.064199999999999591e+01 2.814600000000000080e+01 4.669018000000000335e+00 -2.561243390604751036e-01
1.648300000000000054e+01 3.066900000000000048e+01 3.968299999999999983e+01 -5.946539999999999715e+00 -1.672123378504223046e-01
1.648400000000000176e+01 6.865300000000000580e+01 1.788899999999999935e+01 -1.265193999999999974e+01 -2.556767913433942718e-01
1.648799999999999955e+01 5.113700000000000045e+01 3.764300000000000068e+01 2.426472000000000051e+01 -1.571268055487125281e-01
1.648799999999999955e+01 7.650000000000000000e+01 1.856200000000000117e+01 -1.680852999999999930e+00 -2.552603615655740787e-01
1.649200000000000088e+01 6.346300000000000097e+01 1.868900000000000006e+01 9.883896999999999267e+00 -2.564641308873647496e-01
1.649200000000000088e+01 7.802800000000000580e+01 1.870899999999999963e+01 -6.406365000000000087e+00 -2.554577225348780845e-01
1.649299999999999855e+01 7.931799999999999784e+01 1.931299999999999883e+01 -5.179470000000000240e+00 -2.556279739253796146e-01
1.649299999999999855e+01 7.360999999999999943e+01 1.568900000000000006e+01 2.533013000000000048e+01 -2.552841311933070623e-01
1.649500000000000099e+01 7.631100000000000705e+01 3.622099999999999653e+01 1.033357999999999954e+01 -3.734576873435504485e-01
1.649599999999999866e+01 4.545199999999999818e+01 2.477700000000000102e+01 7.844382999999999662e+00 -2.610527363826786740e-01
1.649699999999999989e+01 1.701699999999999946e+01 2.317899999999999849e+01 -6.316131000000000384e+00 -1.411080123029103198e-02
1.649800000000000111e+01 1.111999999999999922e+01 2.452799999999999869e+01 -4.212062000000000417e+00 -1.354537043770728255e-01
1.649800000000000111e+01 1.111999999999999922e+01 2.622800000000000153e+01 -4.704905000000000115e+00 -1.405770494852204566e-01
1.649800000000000111e+01 1.216999999999999993e+01 2.452799999999999869e+01 -4.412329999999999863e+00 -1.583883103396644954e-01
1.649800000000000111e+01 1.216999999999999993e+01 2.622800000000000153e+01 -4.675523000000000096e+00 -1.763519225947082769e-01
1.650000000000000000e+01 7.177800000000000580e+01 1.740200000000000102e+01 1.237162000000000006e+01 -2.553765852741850528e-01
1.650100000000000122e+01 4.534499999999999886e+01 3.780799999999999983e+01 -6.166272000000000197e+00 -1.584131159359982166e-01
1.650300000000000011e+01 7.753400000000000603e+01 2.376899999999999835e+01 8.555787999999999727e-01 -2.555966335819809254e-01
1.650400000000000134e+01 1.814699999999999847e+01 2.150900000000000034e+01 -2.711149999999999949e+00 9.620261415861995624e-03
1.650400000000000134e+01 1.814699999999999847e+01 2.237500000000000000e+01 -3.271201000000000025e+00 8.493409018480320080e-03
1.650900000000000034e+01 8.048199999999999932e+01 3.236200000000000188e+01 -3.228856999999999999e+01 -2.898685053845516113e-01
1.651300000000000168e+01 2.371999999999999886e+01 1.789600000000000080e+01 -1.315949999999999953e+00 -1.291673534846115093e-02
1.651300000000000168e+01 8.471599999999999397e+01 2.128699999999999903e+01 -3.004189999999999827e+01 -2.561983899736898218e-01
1.651300000000000168e+01 8.471599999999999397e+01 2.222700000000000031e+01 -4.987216000000000093e+01 -2.562315370428993599e-01
1.651399999999999935e+01 7.922700000000000387e+01 3.266899999999999693e+01 -1.653272000000000119e+01 -2.896986784338783094e-01
1.651699999999999946e+01 6.630299999999999727e+01 1.966199999999999903e+01 -1.389837999999999951e+01 -2.559480407079670061e-01
1.652299999999999969e+01 2.736599999999999966e+01 1.738100000000000023e+01 -4.279762999999999762e-01 -2.238446834978999322e-02
1.652299999999999969e+01 4.102600000000000335e+01 4.333899999999999864e+01 -1.741291000000000011e+01 -1.480726538680248172e-01
1.652299999999999969e+01 7.721299999999999386e+01 2.794399999999999906e+01 -3.412140000000000173e-01 -2.557475121346243774e-01
1.652400000000000091e+01 2.918400000000000105e+01 3.501299999999999812e+01 -3.407458999999999794e+00 3.959390534627027503e-02
1.652400000000000091e+01 2.918400000000000105e+01 3.606300000000000239e+01 -4.834545999999999566e+00 -2.288991300495328840e-01
1.652799999999999869e+01 7.522100000000000364e+01 1.860800000000000054e+01 8.387556999999999263e+00 -2.550889849028818990e-01
1.652799999999999869e+01 2.289399999999999835e+01 1.907700000000000173e+01 -3.241230999999999973e+00 -1.218292174976344858e-02
1.653699999999999903e+01 4.421200000000000330e+01 3.856600000000000250e+01 -9.604402000000000328e+00 -1.580708352157970675e-01
1.653699999999999903e+01 3.222500000000000142e+01 1.870400000000000063e+01 -7.867434000000000260e+00 5.234600884290840049e-03
1.653699999999999903e+01 1.574600000000000044e+01 2.399200000000000088e+01 -5.676129000000000424e+00 -4.514179756810935557e-02
1.653699999999999903e+01 1.734400000000000119e+01 2.399200000000000088e+01 -8.556630000000000180e+00 -1.447053657590765229e-02
1.653999999999999915e+01 1.701399999999999935e+01 2.075100000000000122e+01 -2.101878000000000135e+00 -2.847579268242686132e-03
1.654200000000000159e+01 8.094499999999999318e+01 2.744600000000000151e+01 -2.468803000000000125e+01 -2.561120903158610185e-01
1.654400000000000048e+01 8.184000000000000341e+01 3.386299999999999955e+01 -5.210567000000000348e+01 -2.896608061222621378e-01
1.654400000000000048e+01 8.335999999999999943e+01 3.386299999999999955e+01 -5.577499999999999858e+01 -2.896397949435840502e-01
1.654400000000000048e+01 7.313400000000000034e+01 1.243800000000000061e+01 1.667650000000000077e+01 -2.554461244221463145e-01
1.654400000000000048e+01 7.313400000000000034e+01 1.398799999999999955e+01 8.437326000000000192e+01 -2.553929474602329996e-01
1.654400000000000048e+01 7.409199999999999875e+01 1.243800000000000061e+01 2.156763000000000119e+01 -2.553740083552322737e-01
1.654400000000000048e+01 7.409199999999999875e+01 1.398799999999999955e+01 1.574807999999999879e+02 -2.553210374570000774e-01
1.654599999999999937e+01 6.757699999999999818e+01 2.324099999999999966e+01 2.417860000000000120e+00 -2.556626560322507458e-01
1.654799999999999827e+01 2.868400000000000105e+01 1.814799999999999969e+01 -5.071659999999999613e+00 -8.815932584434818531e-03
1.654799999999999827e+01 5.658500000000000085e+01 3.757800000000000296e+01 -1.149022000000000077e+01 -1.898872582138209641e-01
1.655099999999999838e+01 6.337800000000000011e+01 2.590500000000000114e+01 4.076551000000000258e+00 -2.562895351726970916e-01
1.655199999999999960e+01 3.994400000000000261e+01 2.486199999999999832e+01 3.235764000000000085e+00 -1.577000332993145071e-01
1.655399999999999849e+01 3.352600000000000335e+01 1.894600000000000151e+01 -1.477565000000000062e+01 9.590400343184752111e-03
1.655399999999999849e+01 4.873700000000000188e+01 3.742099999999999937e+01 -1.375685000000000002e+01 -1.577597168751652956e-01
1.655600000000000094e+01 5.503799999999999670e+01 3.618200000000000216e+01 -2.228117999999999821e+00 -1.899396642400957291e-01
1.655900000000000105e+01 7.339000000000000057e+01 2.718599999999999994e+01 1.906876000000000104e+01 -3.837478378197332618e-01
1.656099999999999994e+01 1.595299999999999940e+01 1.829599999999999937e+01 4.419368000000000407e+00 -1.124257068828911493e-01
1.656200000000000117e+01 7.723099999999999454e+01 2.306899999999999906e+01 -1.426767000000000074e+01 -2.555184958624592828e-01
1.656500000000000128e+01 7.694299999999999784e+01 3.403199999999999648e+01 -1.223329999999999984e+01 -2.892409155923633124e-01
1.656500000000000128e+01 7.780899999999999750e+01 3.403199999999999648e+01 -3.287004000000000303e+01 -2.893871738700409257e-01
1.656500000000000128e+01 1.259900000000000020e+01 1.932499999999999929e+01 -4.473122000000000043e+00 -1.064112213926046574e-01
1.656599999999999895e+01 7.035399999999999920e+01 1.775199999999999889e+01 1.601288999999999874e+01 -2.555214316843983924e-01
1.656700000000000017e+01 1.408399999999999963e+01 1.841400000000000148e+01 -3.823929000000000133e+00 -7.101596557688849912e-03
1.656700000000000017e+01 6.280100000000000193e+01 3.452199999999999847e+01 1.808594000000000035e+00 -3.734553374448902896e-01
1.657300000000000040e+01 3.450000000000000000e+01 4.299699999999999989e+01 -2.136507999999999896e+01 -1.338190236476358430e-01
1.657600000000000051e+01 5.929599999999999937e+01 1.936499999999999844e+01 2.348265999999999920e+01 -2.575233081876920904e-01
1.657700000000000173e+01 7.832500000000000284e+01 2.616600000000000037e+01 3.211520999999999848e+00 -2.557822060618256121e-01
1.657700000000000173e+01 2.928399999999999892e+01 3.410999999999999943e+01 -3.449768000000000168e+00 3.966760666719587602e-02
1.657900000000000063e+01 6.042300000000000182e+01 3.635099999999999909e+01 -4.316076999999999941e+00 -3.736929289343010052e-01
1.658099999999999952e+01 3.328499999999999659e+01 4.237899999999999778e+01 -1.036788999999999916e+01 -1.322413231349935103e-01
1.658200000000000074e+01 8.409799999999999898e+01 1.953999999999999915e+01 -1.063714999999999966e+00 -2.560786703184737001e-01
1.658299999999999841e+01 4.297800000000000153e+01 3.942999999999999972e+01 -2.256484999999999985e+01 -1.575178793797045729e-01
1.658399999999999963e+01 5.891499999999999915e+01 3.793200000000000216e+01 -3.606743000000000166e+01 -3.739484837041371357e-01
1.658599999999999852e+01 3.045299999999999940e+01 3.707999999999999829e+01 -6.394587999999999717e+00 -2.192193278213561136e-01
1.658699999999999974e+01 4.200800000000000267e+01 4.020600000000000307e+01 -2.138350000000000151e+01 -1.559391361323658187e-01
1.658699999999999974e+01 5.781499999999999773e+01 3.840100000000000335e+01 -3.867560999999999893e+01 -1.898807158522152483e-01
1.659299999999999997e+01 5.082600000000000051e+01 2.216499999999999915e+01 3.435642999999999780e+00 -2.591014141097675028e-01
1.659299999999999997e+01 5.103499999999999659e+01 2.142899999999999849e+01 7.394871000000000194e+00 -2.589962056512048472e-01
1.659299999999999997e+01 6.207300000000000040e+01 2.334900000000000020e+01 1.211322000000000010e+01 -2.566814275831575398e-01
1.659600000000000009e+01 2.008699999999999974e+01 2.351099999999999923e+01 1.284850999999999921e+01 8.641411413645432027e-03
1.659900000000000020e+01 7.542400000000000659e+01 2.251699999999999946e+01 1.710931000000000068e+01 -2.552480924710348598e-01
1.660000000000000142e+01 1.521000000000000085e+01 2.183200000000000074e+01 -1.732539999999999836e+01 -2.298967410023864538e-02
1.660000000000000142e+01 1.607499999999999929e+01 2.323199999999999932e+01 -5.616062999999999583e+00 -3.100957979818903462e-02
1.660000000000000142e+01 1.607499999999999929e+01 2.475199999999999889e+01 -5.929691000000000045e+00 -5.178673697071001225e-02
1.660000000000000142e+01 1.701500000000000057e+01 2.475199999999999889e+01 -8.813624000000000791e+00 -3.091272809558196985e-02
1.660099999999999909e+01 1.908399999999999963e+01 1.986499999999999844e+01 1.074049000000000031e+00 8.378295813144543899e-03
1.660300000000000153e+01 3.941299999999999670e+01 2.029400000000000048e+01 -2.034281000000000006e+01 -1.615235176921132332e-01
1.660600000000000165e+01 5.797399999999999665e+01 1.832799999999999940e+01 5.934302999999999884e+00 -2.578144559124915247e-01
1.660699999999999932e+01 5.602000000000000313e+01 3.639000000000000057e+01 -6.268194000000000266e+00 -1.898071289598875222e-01
1.660900000000000176e+01 7.279800000000000182e+01 1.321299999999999919e+01 2.454242999999999952e+01 -2.554646836025265544e-01
1.660900000000000176e+01 7.442799999999999727e+01 1.321299999999999919e+01 7.797995000000000232e+01 -2.553410494513418394e-01
1.660900000000000176e+01 8.213800000000000523e+01 2.689199999999999946e+01 -8.977843000000000018e+01 -2.561841911708601094e-01
1.662000000000000099e+01 6.055799999999999983e+01 2.108099999999999952e+01 1.021878000000000064e+01 -2.571466231161397831e-01
1.662099999999999866e+01 5.185199999999999676e+01 2.006700000000000017e+01 1.765865000000000018e+00 -2.587276228517007004e-01
1.662699999999999889e+01 7.369499999999999318e+01 3.834799999999999898e+01 -2.900673000000000101e+01 -3.736052470489495958e-01
1.662999999999999901e+01 6.341799999999999926e+01 2.091300000000000026e+01 8.408428999999999487e-01 -2.564707072171720781e-01
1.663100000000000023e+01 5.926599999999999824e+01 3.711800000000000210e+01 -5.157267000000000223e+01 -3.738244017135640695e-01
1.663100000000000023e+01 2.942500000000000071e+01 3.222099999999999653e+01 -5.113952000000000275e+00 8.393087826728976020e-02
1.663100000000000023e+01 3.419599999999999795e+01 4.229699999999999704e+01 -1.936248000000000147e+01 -1.365357978992811916e-01
1.663200000000000145e+01 7.227200000000000557e+01 3.564800000000000324e+01 -8.173707999999999529e+00 -3.734631211149646579e-01
1.663700000000000045e+01 8.344299999999999784e+01 3.133599999999999852e+01 -1.701212999999999909e+01 -2.899267301845160905e-01
1.664199999999999946e+01 3.065399999999999991e+01 2.586100000000000065e+01 1.460554999999999914e+01 7.604205346816747361e-03
1.664199999999999946e+01 3.086299999999999955e+01 2.659700000000000131e+01 7.151011999999999702e+00 1.393641565236724070e-02
1.664300000000000068e+01 3.531900000000000261e+01 3.428600000000000136e+01 -3.600303000000000253e+01 -1.716539367739776112e-01
1.664300000000000068e+01 3.552799999999999869e+01 3.354999999999999716e+01 -4.975077999999999889e+01 -1.675051956478671999e-01
1.664300000000000068e+01 3.552799999999999869e+01 3.502199999999999847e+01 -1.985470000000000113e+01 -1.740854150817387758e-01
1.664300000000000068e+01 3.671900000000000119e+01 3.288600000000000279e+01 -2.393248000000000175e+01 -1.623590912014732379e-01
1.664300000000000068e+01 3.671900000000000119e+01 3.568599999999999994e+01 1.310080999999999918e+01 -1.718595416252552410e-01
1.664300000000000068e+01 3.790999999999999659e+01 3.354999999999999716e+01 -1.261280000000000001e+01 -1.627705390020211529e-01
1.664300000000000068e+01 3.790999999999999659e+01 3.502199999999999847e+01 8.306818000000000257e-01 -1.667848384818643170e-01
1.664300000000000068e+01 3.811899999999999977e+01 3.428600000000000136e+01 -3.757559999999999789e+00 -1.644584476371397375e-01
1.665200000000000102e+01 5.351200000000000045e+01 1.992599999999999838e+01 3.191679000000000155e+00 -2.584424701674127300e-01
1.665299999999999869e+01 1.738500000000000156e+01 1.995599999999999952e+01 2.928884000000000043e+00 2.232935079477205327e-03
1.665599999999999881e+01 5.942499999999999716e+01 2.032300000000000040e+01 1.548887000000000036e+01 -2.575104549996629077e-01
1.666199999999999903e+01 3.876800000000000068e+01 4.384000000000000341e+01 1.100128999999999913e+00 -1.435526143902103868e-01
1.666400000000000148e+01 3.435799999999999699e+01 4.552400000000000091e+01 -7.504640000000000200e+00 -4.220527718558422792e-02
1.666400000000000148e+01 3.540800000000000125e+01 4.552400000000000091e+01 -6.871089999999999698e+00 -4.183958007814879421e-02
1.666799999999999926e+01 4.133500000000000085e+01 3.936200000000000188e+01 -1.636317999999999984e+01 -1.580837451966737583e-01
1.667099999999999937e+01 6.397500000000000142e+01 1.784799999999999898e+01 8.915822999999999610e+00 -2.564648588693276832e-01
1.667500000000000071e+01 8.437699999999999534e+01 2.023100000000000165e+01 -3.199807999999999986e+00 -2.561112401054556620e-01
1.667500000000000071e+01 2.949299999999999855e+01 3.329099999999999682e+01 -3.149426000000000059e+00 5.895550734513499425e-02
1.667599999999999838e+01 6.002199999999999847e+01 2.484299999999999997e+01 -7.627805000000000391e+00 -2.572334726636632540e-01
1.667699999999999960e+01 4.108800000000000097e+01 3.754599999999999937e+01 5.774617000000000111e+00 -1.612243063099004503e-01
1.667699999999999960e+01 4.195300000000000296e+01 3.754599999999999937e+01 -1.771312999999999915e+00 -1.604647473392163681e-01
1.669200000000000017e+01 2.222800000000000153e+01 2.339399999999999835e+01 -1.225605999999999973e+01 -2.453922660970504072e-02
1.669699999999999918e+01 6.918699999999999761e+01 3.548599999999999710e+01 2.431803999999999988e+01 -3.734835450635027310e-01
1.670200000000000173e+01 3.423499999999999943e+01 4.378300000000000125e+01 -9.285564000000000817e+00 -1.302455655256000988e-01
