1.380300000000000011e+02 5.350399999999999778e+01 3.336299999999999955e+01 6.372040000000000148e+00 -1.868573063738992457e-01
1.380300000000000011e+02 5.350399999999999778e+01 3.587100000000000222e+01 2.454862999999999928e+01 -1.881289667460125936e-01
1.380300000000000011e+02 3.936999999999999833e+00 8.871999999999999886e+00 -4.848842999999999570e+00 -2.624243138077716475e-01
1.380300000000000011e+02 4.163999999999999702e+00 8.072900000000000631e+00 -4.480331999999999759e+00 -2.622574481719678885e-01
1.380300000000000011e+02 4.163999999999999702e+00 9.671099999999999142e+00 -1.438222000000000023e+01 -2.625815265001384402e-01
1.380300000000000011e+02 5.389400000000000190e+00 1.051600000000000001e+01 -2.288549000000000078e+01 -2.627433985283539331e-01
1.380300000000000011e+02 2.406500000000000128e+01 1.404599999999999937e+01 9.205871000000000137e+00 -4.842030357478385727e-02
1.380300000000000011e+02 2.406500000000000128e+01 1.544599999999999973e+01 -6.000999000000000194e+00 -4.756540338769671417e-02
1.380300000000000011e+02 2.499599999999999866e+01 1.404599999999999937e+01 4.982817000000000007e+01 -4.569846779347841448e-02
1.380399999999999920e+02 4.825200000000000244e+01 1.477299999999999969e+01 8.041724000000000316e+00 -2.662865283902686730e-01
1.380399999999999920e+02 3.241199999999999903e+01 1.092099999999999937e+01 -1.707785000000000153e+01 -4.577989941591607825e-02
1.380399999999999920e+02 1.987800000000000011e+00 3.170499999999999829e+01 -7.625375999999999976e+01 3.695236269547046842e-02
1.380399999999999920e+02 4.899300000000000210e+01 3.580199999999999960e+01 5.345976000000000283e+01 8.328954024365929631e-02
1.380399999999999920e+02 5.147999999999999687e+01 2.042699999999999960e+01 -6.590517000000000181e+00 -1.564010716110550425e-01
1.380399999999999920e+02 4.298199999999999932e+01 1.383999999999999986e+01 2.552774000000000143e+01 -7.606177400260270838e-02
1.380399999999999920e+02 4.536699999999999733e+01 2.291000000000000014e+01 -1.957970999999999906e+00 -1.001423392390927425e-01
1.380399999999999920e+02 2.186599999999999966e+01 4.060199999999999676e+01 1.960283000000000087e+01 1.775350548239787163e-01
1.380500000000000114e+02 4.652499999999999858e+01 1.404700000000000060e+01 2.864251000000000147e+01 -4.425231841929827548e-02
1.380500000000000114e+02 2.433299999999999841e+01 2.411299999999999955e+01 4.839629999999999654e+00 1.298376593700012183e-01
1.380500000000000114e+02 2.971000000000000085e+01 9.589999999999999858e+00 -8.271577000000000623e+00 1.216115479795051996e-01
1.380500000000000114e+02 1.963599999999999923e+01 3.105000000000000071e+01 1.695536999999999850e+01 1.296614468231661599e-01
1.380500000000000114e+02 6.485599999999999810e+00 3.292600000000000193e+01 -6.058025999999999911e+00 1.279567880624261911e-01
1.380500000000000114e+02 7.444099999999999717e+00 3.388499999999999801e+01 8.497169999999999845e+01 1.281069965789870257e-01
1.380600000000000023e+02 5.281300000000000239e+01 1.866199999999999903e+01 -5.628540000000000099e+00 -2.585126963820499890e-01
1.380600000000000023e+02 1.737099999999999866e+01 1.272799999999999976e+01 6.011095000000000077e+00 -4.395088619937567026e-02
1.380600000000000023e+02 5.079500000000000171e+01 9.384900000000000020e+00 1.308069000000000059e+01 -2.480447423007293428e-01
1.380600000000000023e+02 1.236800000000000033e+01 2.461899999999999977e+01 6.020576000000000150e+00 3.644613779028291894e-02
1.380600000000000023e+02 5.140500000000000114e+01 9.266600000000000392e+00 1.513972000000000051e+01 -2.497959386606499188e-01
1.380600000000000023e+02 2.855600000000000094e+01 1.383799999999999919e+01 -1.396307999999999971e+01 -4.875743282059168127e-02
1.380600000000000023e+02 2.544900000000000162e+00 2.677100000000000080e+01 -9.667768000000000583e+00 -1.730800309256813885e-01
1.380600000000000023e+02 2.754000000000000004e+00 2.750700000000000145e+01 -6.394226999999999883e+00 -1.733142391200236387e-01
1.380600000000000023e+02 1.399699999999999989e+01 3.773599999999999710e+01 1.750099000000000160e+01 1.291155554006899187e-01
1.380600000000000023e+02 9.336999999999999744e+00 7.058300000000000018e+00 -1.895737000000000094e+01 -8.075729847822794849e-03
1.380600000000000023e+02 4.998899999999999721e+01 3.677499999999999858e+01 -1.909504000000000090e+01 9.699008118380879340e-02
1.380699999999999932e+02 4.989000000000000057e+01 5.958800000000000097e+00 7.766703999999999830e+00 -2.457340705771813294e-01
1.380699999999999932e+02 2.990299999999999869e+01 1.076999999999999957e+01 -4.592914000000000385e+00 1.201211744894504357e-01
1.380699999999999932e+02 5.204599999999999937e+01 3.283599999999999852e+01 1.198827999999999960e+01 -1.863749384431579725e-01
1.380699999999999932e+02 3.265500000000000114e+01 1.452699999999999925e+01 -1.552421000000000006e+01 -5.836407924631757671e-02
1.380699999999999932e+02 4.310699999999999932e+01 1.093200000000000038e+01 3.039968999999999966e+01 -7.344160559464822657e-02
1.380699999999999932e+02 1.832000000000000028e+01 4.271200000000000330e+01 2.502871999999999986e+01 1.767982226804855339e-01
1.380699999999999932e+02 4.044800000000000040e+01 1.018999999999999950e+01 3.435502999999999929e+01 1.940829819064877892e-01
1.380699999999999932e+02 6.506000000000000227e+00 6.924000000000000377e+00 -3.754665000000000141e+00 -2.619262813648154387e-01
1.380699999999999932e+02 1.561299999999999955e+01 -5.876900000000000013e+00 -1.146580999999999939e+01 -1.032852745345843315e-01
1.380699999999999932e+02 3.938499999999999801e+01 -8.381099999999999994e+00 1.392627000000000059e+00 -1.266328302173189146e-01
1.380699999999999932e+02 3.923700000000000188e+01 3.489900000000000091e+01 1.870816000000000034e+00 1.804418015709939871e-01
1.380699999999999932e+02 4.691799999999999926e+01 4.336899999999999977e+00 3.791999999999999815e+00 -1.071611531115785818e-02
1.380800000000000125e+02 2.722800000000000153e+01 1.308000000000000007e+01 1.879225999999999885e+01 -4.557671838018584332e-02
1.380800000000000125e+02 2.409799999999999898e+01 2.533999999999999808e+00 1.128176000000000023e+01 -1.046467272088359851e-01
1.380800000000000125e+02 4.548100000000000165e+01 9.887099999999999778e-01 -2.046779000000000082e+01 -1.829957558991248887e-02
1.380800000000000125e+02 1.773499999999999943e+01 4.336500000000000199e+01 1.359867999999999988e+01 1.765961546416466854e-01
1.380800000000000125e+02 5.180299999999999727e+01 3.653600000000000136e+01 3.431273000000000017e+00 9.198344958992041298e-02
1.380800000000000125e+02 1.159200000000000053e+01 4.050999999999999801e+01 -9.279737000000000080e+01 1.289225242673104621e-01
1.380800000000000125e+02 3.091900000000000048e+01 1.085500000000000043e+01 -9.405962000000000600e+00 -4.373676919771780219e-02
1.380900000000000034e+02 4.539200000000000301e+01 1.480599999999999916e+01 2.011860000000000070e+01 -5.484229458941421859e-02
1.380900000000000034e+02 4.539200000000000301e+01 1.567099999999999937e+01 1.564474000000000053e+01 -5.367840293270194352e-02
1.380900000000000034e+02 1.109699999999999953e+01 1.814099999999999824e+01 3.986434000000000033e+00 -4.856219026715916098e-02
1.380900000000000034e+02 1.531799999999999962e+01 3.960300000000000153e+01 2.174301000000000172e+01 1.293995798837739020e-01
1.380900000000000034e+02 1.117800000000000082e+01 -4.144000000000000128e+00 -1.044874000000000080e+01 -1.015554356703463057e-01
1.380900000000000034e+02 1.730999999999999872e+01 1.610699999999999932e+01 1.849388000000000076e+01 -4.818272723208045366e-02
1.380900000000000034e+02 7.708899999999999864e+00 2.540500000000000114e+01 -9.496190999999999605e+00 -1.733208378570793573e-01
1.380900000000000034e+02 5.158299999999999841e+01 1.948499999999999943e+01 -6.656509999999999927e+00 -1.318980482966451706e-01
1.380900000000000034e+02 5.404299999999999926e+01 1.948499999999999943e+01 -1.120045999999999964e+01 -2.591320559039834714e-01
1.380999999999999943e+02 2.487000000000000099e+01 4.357800000000000296e+01 2.292234000000000105e+00 1.760227970472983960e-01
1.380999999999999943e+02 4.966199999999999903e+01 8.626599999999999824e+00 1.056492000000000075e+01 -2.466391436020548000e-01
1.380999999999999943e+02 2.900100000000000122e+01 2.188699999999999868e+00 4.872551999999999772e+00 -1.106874000388936574e-01
1.380999999999999943e+02 2.900100000000000122e+01 3.239300000000000068e+00 3.388885999999999843e+00 -1.349212893054031227e-02
1.380999999999999943e+02 1.164100000000000001e+01 1.992800000000000082e+01 -5.354751000000000261e+00 -5.028987773256343718e-02
1.380999999999999943e+02 3.243999999999999773e+01 2.078800000000000026e+01 6.356264000000000358e-01 1.330298175584055387e-01
1.380999999999999943e+02 3.264900000000000091e+01 2.152400000000000091e+01 2.436282999999999976e+00 1.336644216638195881e-01
1.380999999999999943e+02 7.766700000000000159e+00 -2.861800000000000122e+00 4.395122999999999891e+00 -1.006999098132519838e-01
1.381100000000000136e+02 3.790899999999999892e+01 -8.809100000000000819e+00 4.281526000000000387e+00 -1.262183056480018772e-01
1.381100000000000136e+02 4.839399999999999835e+01 3.908900000000000041e+00 3.003354999999999997e+00 -1.001986320706844394e-03
1.381100000000000136e+02 1.878600000000000136e+01 3.472299999999999898e+01 4.465767000000000309e+01 1.297938916318293889e-01
1.381100000000000136e+02 4.015500000000000114e+01 4.595900000000000318e+01 -4.307517999999999958e+00 1.708430505865642934e-01
1.381100000000000136e+02 4.160099999999999909e+01 4.515299999999999869e+01 -6.254487000000000130e+00 1.704884045964645822e-01
1.381100000000000136e+02 4.993399999999999750e+01 2.406500000000000128e+01 -7.465971999999999831e+00 -1.842277268142806512e-01
1.381200000000000045e+02 3.217000000000000171e+01 1.967599999999999838e+01 -1.167599999999999971e+00 1.321058724041496435e-01
1.381200000000000045e+02 1.206499999999999950e+01 2.531899999999999906e+01 3.768070999999999948e+00 3.644990558627981408e-02
1.381200000000000045e+02 3.632900000000000063e+01 4.093800000000000239e+01 -3.612582000000000182e+00 1.749635874162037974e-01
1.381200000000000045e+02 3.632900000000000063e+01 4.187800000000000011e+01 -6.168301999999999730e+00 1.743282242448794261e-01
1.381200000000000045e+02 4.952700000000000102e+01 7.376100000000000101e+00 1.218204000000000065e+01 -1.018017515080473084e-01
1.381200000000000045e+02 4.973599999999999710e+01 6.640100000000000335e+00 8.191928000000000765e+00 -2.560239175920333565e-01
1.381200000000000045e+02 1.516499999999999915e+01 3.843599999999999994e+01 3.697491999999999734e+01 1.293335494666713881e-01
1.381200000000000045e+02 1.479199999999999982e+01 1.530199999999999960e+01 1.269811999999999941e+01 -4.657674151314131206e-02
1.381299999999999955e+02 4.007999999999999829e+01 2.975799999999999912e+01 1.286300999999999917e+00 1.925359674764399454e-01
1.381299999999999955e+02 3.504500000000000171e+01 2.267699999999999960e+01 1.129505999999999899e+00 1.371452621472014355e-01
1.381299999999999955e+02 2.085099999999999909e+01 3.598299999999999699e+01 1.863552000000000097e+00 1.303362889431615157e-01
1.381299999999999955e+02 2.039300000000000068e+01 4.028399999999999892e+01 1.942423000000000144e+01 1.777262169377505086e-01
1.381299999999999955e+02 1.844200000000000017e+01 1.448399999999999999e+01 6.696314000000000100e+00 -4.649492625340515689e-02
1.381299999999999955e+02 1.844200000000000017e+01 1.534900000000000020e+01 1.128935000000000066e+01 -4.765449289903360419e-02
1.381299999999999955e+02 2.392800000000000082e+01 8.733599999999999142e+00 -8.136371999999999716e+00 -5.808755798652734739e-03
1.381299999999999955e+02 6.665300000000000225e+00 2.572299999999999898e+01 -1.310853999999999964e+01 -1.732819595880407126e-01
1.381299999999999955e+02 2.537199999999999989e+01 1.012299999999999933e+01 -9.094416000000000722e+00 -4.158631493780030192e-02
1.381299999999999955e+02 2.659700000000000131e+01 1.096799999999999997e+01 -1.611269000000000062e+01 -4.388201256252700910e-02
1.381299999999999955e+02 2.682400000000000162e+01 1.176699999999999946e+01 -3.616185999999999723e+01 -4.581612549588641448e-02
1.381299999999999955e+02 8.690599999999999881e+00 2.537999999999999901e+01 -3.916234000000000215e+00 -5.008861897301281063e-02
1.381299999999999955e+02 2.154799999999999827e+01 -6.070299999999999585e+00 -1.990240999999999927e+00 -1.063702321564647529e-01
1.381399999999999864e+02 9.881399999999999295e+00 -3.413800000000000168e+00 -3.193953999999999960e-01 -1.011450207011362207e-01
1.381399999999999864e+02 1.283000000000000007e+01 1.446299999999999919e+01 -3.228913000000000011e+01 -4.546359516823044594e-02
1.381399999999999864e+02 2.981700000000000017e+01 -1.486099999999999921e-01 1.617208000000000112e+01 -1.131896892945228467e-01
1.381399999999999864e+02 3.800900000000000034e+01 3.736500000000000199e+01 1.514001000000000097e-01 1.775907001457301404e-01
1.381399999999999864e+02 1.274300000000000033e+01 3.949199999999999733e+01 -4.758261000000000251e+01 1.290344102382159075e-01
1.381399999999999864e+02 1.874200000000000088e+01 3.092699999999999960e+01 8.389051000000000258e+00 1.294674889811213703e-01
1.381399999999999864e+02 3.078600000000000136e+01 6.719999999999999751e+00 -2.725071999999999939e+00 1.229451779051600607e-01
1.381399999999999864e+02 1.323600000000000065e+01 1.357099999999999973e+01 -2.691029999999999944e+01 -4.462764099793847805e-02
1.381399999999999864e+02 5.310099999999999909e+01 1.281600000000000072e+01 3.618822999999999723e+01 -2.539740951877763053e-01
1.381500000000000057e+02 3.086799999999999855e+01 -6.228600000000000136e+00 -2.827544000000000057e+00 -1.162037948451407343e-01
1.381500000000000057e+02 3.935999999999999943e+01 3.398700000000000188e+01 1.195782999999999952e+01 1.820972854779037142e-01
1.381500000000000057e+02 3.959100000000000108e+01 3.317199999999999704e+01 3.345644000000000062e+00 1.836427231380425851e-01
1.381500000000000057e+02 2.715299999999999869e+01 1.457199999999999918e+01 5.179386000000000045e+00 -4.890227115493290394e-02
1.381500000000000057e+02 4.976899999999999835e+01 4.829699999999999882e+00 6.226903000000000077e+00 -2.470999081676117926e-01
1.381500000000000057e+02 4.403099999999999881e+01 3.607099999999999795e+01 7.925615000000000521e+01 1.756210449082261649e-01
1.381500000000000057e+02 4.403099999999999881e+01 3.693599999999999994e+01 5.389312999999999931e+01 1.745037742323191643e-01
1.381599999999999966e+02 2.587899999999999867e+00 2.923400000000000176e+01 -1.356619000000000064e+01 3.697457239943922197e-02
1.381599999999999966e+02 2.797000000000000153e+00 2.849800000000000111e+01 -6.124620000000000175e+00 3.698306217519510553e-02
1.381599999999999966e+02 3.834599999999999653e+01 3.631600000000000250e+01 -2.848650000000000126e+00 1.787844516867790057e-01
1.381599999999999966e+02 2.504200000000000159e+01 3.757500000000000284e+01 -4.917051999999999978e+00 1.791878594688433579e-01
1.381599999999999966e+02 1.767599999999999838e+01 -5.646799999999999820e+00 -5.438460999999999990e-01 -1.040906629010404927e-01
1.381599999999999966e+02 2.354500000000000171e+01 -2.833499999999999908e+00 8.904523999999999773e-02 -1.067099799490229123e-01
1.381699999999999875e+02 2.635300000000000153e+01 4.116400000000000148e+01 8.821016999999999442e+00 1.770511725774149281e-01
1.381699999999999875e+02 5.532600000000000406e+00 2.496499999999999986e+01 -1.787678999999999974e+01 -1.728789319667682622e-01
1.381699999999999875e+02 4.124699999999999989e+01 -5.893900000000000361e+00 -6.219850000000000101e+00 -1.281037449918962234e-01
1.381699999999999875e+02 4.876500000000000057e+01 2.336499999999999844e+01 -1.322381000000000029e+01 -1.851208072905563551e-01
1.381699999999999875e+02 3.277600000000000335e+01 2.244300000000000139e+01 4.054320999999999842e+00 1.343289671543224373e-01
1.381699999999999875e+02 4.639699999999999847e+01 2.267399999999999949e+01 -6.851779999999999760e+00 -9.027201052837689754e-02
1.381699999999999875e+02 4.791499999999999915e+01 2.267399999999999949e+01 -7.200902000000000136e+00 -1.656976333141825242e-01
1.381800000000000068e+02 2.588400000000000034e+01 3.778600000000000136e+01 -9.212438000000000571e+00 1.790778779851651126e-01
1.381800000000000068e+02 1.481900000000000084e+01 3.788199999999999790e+01 3.687841000000000236e+01 1.292634202691278489e-01
1.381800000000000068e+02 1.506600000000000072e+01 4.033599999999999852e+01 1.705764999999999887e+01 1.293989734556120208e-01
1.381800000000000068e+02 7.985800000000000232e+00 3.362999999999999989e+00 3.962752000000000052e+00 -9.600980281772444197e-03
1.381800000000000068e+02 3.196000000000000085e+01 1.873199999999999932e+01 -6.483636999999999873e+00 1.313635621002825493e-01
1.381800000000000068e+02 4.515500000000000114e+01 4.132500000000000284e+01 3.847849000000000075e+01 1.702885684697019175e-01
1.381800000000000068e+02 4.489500000000000313e+01 1.801099999999999923e+01 2.576352999999999938e+01 -5.633727269417972833e-02
1.381800000000000068e+02 4.396000000000000085e+01 4.654200000000000337e+00 -3.105243999999999893e+00 -1.308001726300460077e-01
1.381800000000000068e+02 2.336199999999999832e+01 2.950100000000000122e+01 4.467410000000000103e+00 1.305536809657012465e-01
1.381800000000000068e+02 4.402100000000000080e+01 1.435200000000000031e+00 2.541167000000000176e+00 -2.294817595087004711e-02
1.381899999999999977e+02 5.113400000000000034e+01 3.135999999999999943e+01 -1.753487000000000151e+01 -6.902245727867843683e-02
1.381899999999999977e+02 5.216299999999999670e+01 2.908399999999999963e+01 -1.267899000000000065e+01 -1.734536417191005486e-01
1.381999999999999886e+02 3.542699999999999960e+01 2.759100000000000108e+01 7.208687000000000289e+00 1.387342003403338742e-01
1.381999999999999886e+02 2.943499999999999872e+01 -8.689299999999999802e-01 1.081423000000000023e+01 -1.129013309574471019e-01
1.381999999999999886e+02 1.078299999999999947e+01 2.573699999999999832e+01 7.811153000000000013e+00 3.654996723234127387e-02
1.381999999999999886e+02 4.145000000000000284e+01 1.043900000000000006e+01 1.972917999999999950e+01 1.967040380439819269e-01
1.381999999999999886e+02 2.812600000000000122e+01 1.468599999999999994e+01 -1.523489999999999966e+01 -5.042535749063185163e-02
1.382100000000000080e+02 3.860399999999999920e+01 4.555199999999999960e+01 -1.682025000000000148e+01 1.716754765971794938e-01
1.382100000000000080e+02 3.792399999999999949e+01 1.061899999999999977e+01 2.512243000000000137e+01 -5.670477331156785483e-02
1.382100000000000080e+02 4.926899999999999835e+00 1.477500000000000036e+01 3.402515000000000178e+00 -4.555189116969957791e-02
1.382100000000000080e+02 5.136000000000000121e+00 1.403899999999999970e+01 2.622510000000000119e+00 -4.507286758393092008e-02
1.382100000000000080e+02 5.389899999999999913e+00 1.314499999999999957e+01 -1.482537999999999911e-01 -4.448528375158602999e-02
1.382100000000000080e+02 3.060600000000000165e+01 -5.461000000000000298e+00 -2.928646999999999778e+00 -1.157987965066937797e-01
1.382199999999999989e+02 3.029100000000000037e+01 4.222999999999999865e+00 2.550262999999999991e+01 1.604331442797924945e-01
1.382199999999999989e+02 4.723400000000000176e+01 -4.080499999999999794e+00 7.682910999999999824e+00 2.267753196597430999e-03
1.382199999999999989e+02 5.552199999999999847e+01 2.660800000000000054e+01 -2.055189000000000021e+01 -1.718227101227667863e-01
1.382199999999999989e+02 4.950699999999999790e+01 1.525300000000000011e+01 3.372708000000000084e+01 -2.594604640795009631e-01
1.382199999999999989e+02 4.192799999999999727e+01 4.260000000000000142e+01 9.222849000000000075e+00 1.714562743201876460e-01
1.382199999999999989e+02 1.925499999999999901e+01 4.114699999999999847e+01 1.205302999999999969e+01 1.774076658078896362e-01
1.382199999999999989e+02 4.571399999999999864e+01 1.630300000000000082e+01 -6.832043999999999784e+00 -4.834618471343611612e-02
1.382199999999999989e+02 5.366599999999999682e+01 1.017500000000000071e+01 2.586039999999999850e+01 -2.574654485798396619e-01
1.382199999999999989e+02 5.366599999999999682e+01 1.122499999999999964e+01 3.671511000000000280e+01 -2.574631654986963003e-01
1.382199999999999989e+02 4.452799999999999869e+01 3.515999999999999659e+01 1.660468999999999937e+02 1.766794149647138157e-01
1.382199999999999989e+02 4.485600000000000165e+01 3.441499999999999915e+01 4.701236000000000104e+01 1.776642038148537606e-01
1.382299999999999898e+02 4.419400000000000261e+01 4.086699999999999733e+01 3.528314999999999912e+01 1.711519237609475108e-01
1.382299999999999898e+02 3.188100000000000023e+01 1.766300000000000026e+01 -1.209692000000000078e+01 1.306232183450364015e-01
1.382299999999999898e+02 1.783299999999999841e+01 3.187399999999999878e+01 4.520139999999999958e+01 1.293917492145181536e-01
1.382299999999999898e+02 4.510799999999999699e+01 4.864399999999999835e+00 -6.680658000000000207e+00 1.288793568289006430e-01
1.382400000000000091e+02 5.554599999999999937e+01 2.407900000000000063e+01 -8.731353000000000364e+00 -2.860394723900871461e-01
1.382400000000000091e+02 1.335099999999999953e+00 3.098199999999999932e+01 -1.877339999999999876e+01 3.697938409627014866e-02
1.382400000000000091e+02 3.163899999999999935e+01 1.571000000000000085e+01 -1.538583999999999996e+01 -5.977760884741117886e-02
1.382400000000000091e+02 1.846499999999999986e+01 3.386200000000000188e+01 9.098404000000000380e+00 1.296911727373716849e-01
1.382400000000000091e+02 1.003800000000000026e+01 3.527300000000000324e+01 5.666924999999999990e+00 1.284874411720798582e-01
1.382400000000000091e+02 2.667299999999999827e+01 1.372899999999999920e+01 2.210098999999999947e+01 -4.668138506911097274e-02
1.382400000000000091e+02 3.758400000000000318e+01 4.513100000000000023e+01 -1.403866999999999976e+01 1.722544577349200412e-01
1.382400000000000091e+02 2.348900000000000077e+01 2.775600000000000023e+01 6.337047000000000097e+00 1.303586994136871624e-01
1.382400000000000091e+02 2.337500000000000000e+01 7.019000000000000128e+00 6.621126000000000289e+00 -7.119728773527849060e-03
1.382500000000000000e+02 1.132600000000000051e+01 1.889799999999999969e+01 2.997148000000000145e+00 -4.937310334406492390e-02
1.382500000000000000e+02 3.844800000000000040e+01 1.408300000000000018e+01 4.186392999999999809e+00 2.086929247049604808e-01
1.382500000000000000e+02 1.302999999999999936e+01 1.535500000000000043e+01 -2.698873000000000033e+01 -4.642926280574827952e-02
1.382500000000000000e+02 1.389499999999999957e+01 1.535500000000000043e+01 2.543576999999999977e+00 -4.656565799309565767e-02
1.382500000000000000e+02 3.679200000000000159e+01 2.894999999999999929e+01 -2.794490999999999836e+00 1.401449240498739979e-01
1.382500000000000000e+02 1.342399999999999949e+01 -4.336400000000000254e+00 3.585475999999999885e+00 -1.022150122562013042e-01
1.382500000000000000e+02 2.413299999999999912e+01 3.736399999999999721e+01 1.655938000000000088e+01 1.793220977166518348e-01
1.382500000000000000e+02 2.239600000000000080e+01 3.073900000000000077e+01 -4.322610000000000241e+01 1.304098138041831501e-01
1.382500000000000000e+02 2.360999999999999943e+01 7.800799999999999734e+00 6.576445999999999792e+00 -6.579003412461564837e-03
1.382500000000000000e+02 2.373100000000000165e+01 2.865099999999999980e+01 8.914709000000000216e+00 1.305824633054071815e-01
1.382500000000000000e+02 3.348700000000000188e+01 1.196799999999999997e+01 -1.628912000000000049e+01 -5.151735849028186293e-02
1.382599999999999909e+02 5.040800000000000125e+01 2.329700000000000060e+01 -7.183056999999999803e+00 -1.786800243967772706e-01
1.382599999999999909e+02 2.856599999999999895e+01 -4.543999999999999595e+00 3.940573000000000103e+00 -1.128020406658933189e-01
1.382599999999999909e+02 5.076100000000000279e+01 1.441300000000000026e+01 4.015959999999999752e+01 -2.418513011666792445e-01
1.382599999999999909e+02 3.282200000000000273e+01 -8.310900000000000176e+00 -4.318415999999999921e-01 -1.189177512556854471e-01
1.382599999999999909e+02 2.477599999999999980e+01 2.232199999999999918e+01 5.943221000000000309e+00 1.295816413586612093e-01
1.382599999999999909e+02 3.153699999999999903e+01 1.684799999999999898e+01 -1.195470000000000077e+01 -6.286455250316264065e-02
1.382599999999999909e+02 5.229099999999999682e+01 9.253899999999999793e+00 7.072523000000000337e+00 -2.527888172364499697e-01
1.382700000000000102e+02 4.622600000000000264e+00 1.580700000000000038e+01 1.119749000000000017e+01 -4.624182626689955083e-02
1.382700000000000102e+02 2.562999999999999901e+01 1.358600000000000030e+01 1.940255000000000152e+01 -4.555393253238555068e-02
1.382700000000000102e+02 9.591499999999999915e+00 2.553600000000000136e+01 -1.430396999999999919e+00 3.664777020396133012e-02
1.382700000000000102e+02 5.653399999999999892e+01 2.497100000000000009e+01 -1.497244000000000064e+01 -2.880467990552012525e-01
1.382700000000000102e+02 1.215099999999999980e+01 2.067500000000000071e+01 -3.301673000000000080e+00 -5.121609534458672341e-02
1.382700000000000102e+02 1.235999999999999943e+01 2.141100000000000136e+01 -2.603610000000000202e+00 -5.194750068601626525e-02
1.382700000000000102e+02 2.736899999999999977e+01 3.886699999999999733e+01 -2.649607000000000046e+00 1.783845713980909964e-01
1.382700000000000102e+02 2.736899999999999977e+01 3.991700000000000159e+01 -2.226608000000000143e+00 1.777197752362121019e-01
1.382800000000000011e+02 5.181700000000000017e+01 2.945700000000000074e+01 -2.293815000000000026e+01 -1.892082310176709248e-01
1.382800000000000011e+02 4.614999999999999858e+01 3.361899999999999977e+01 3.241447000000000145e+01 1.779856181182717934e-01
1.382800000000000011e+02 4.734100000000000108e+01 3.428300000000000125e+01 8.738066999999999140e+00 8.447410420390602526e-02
1.382800000000000011e+02 1.790200000000000102e+01 3.285999999999999943e+01 2.362819000000000003e+01 1.295035940491139903e-01
1.382800000000000011e+02 1.534000000000000030e+00 2.501699999999999946e+01 -7.578333999999999904e+00 -5.131188533234113530e-02
1.382800000000000011e+02 1.760999999999999899e+00 2.421799999999999997e+01 -5.193243999999999971e+00 -5.093335147015252279e-02
1.382800000000000011e+02 1.760999999999999899e+00 2.581599999999999895e+01 -7.137497999999999898e+00 -5.177329953757268260e-02
1.382800000000000011e+02 3.053999999999999826e+00 2.349699999999999989e+01 -6.538217000000000390e+00 -5.077977833238145333e-02
1.382800000000000011e+02 2.413700000000000045e+01 1.641499999999999915e+01 -3.824758000000000102e+00 -4.956532412876663712e-02
1.382800000000000011e+02 4.286900000000000155e+00 3.217399999999999949e+01 -5.089818000000000353e+01 3.682070961456549579e-02
1.382899999999999920e+02 1.517900000000000027e+01 1.604599999999999937e+01 1.875805000000000078e+01 -4.760614076931404814e-02
1.382899999999999920e+02 2.116600000000000037e+01 3.156200000000000117e+01 -2.624193999999999960e+01 1.301514026436144944e-01
1.382899999999999920e+02 1.961100000000000065e+01 -6.065900000000000070e+00 -2.679075000000000095e+00 -1.052817733467194261e-01
1.382899999999999920e+02 2.275600000000000023e+01 4.274099999999999966e+01 3.679889999999999883e+00 1.766475789934555118e-01
1.383000000000000114e+02 2.326899999999999835e+01 5.953299999999999592e+00 1.171982000000000079e+00 -7.982938838607999202e-03
1.383000000000000114e+02 3.414999999999999858e+01 -9.073000000000000398e+00 -6.988372000000000028e+00 -1.206192063532577630e-01
1.383000000000000114e+02 1.099000000000000021e+01 3.619100000000000250e+01 2.274227000000000132e+01 1.286637114629438083e-01
1.383000000000000114e+02 1.099000000000000021e+01 3.766299999999999670e+01 -8.501530000000000697e+00 1.287470467558908815e-01
1.383000000000000114e+02 1.119899999999999984e+01 3.692699999999999960e+01 -3.155219000000000218e-01 1.287321077101355737e-01
1.383000000000000114e+02 3.725500000000000256e+01 4.437100000000000222e+01 -2.196529999999999916e+01 1.727508775888523807e-01
1.383100000000000023e+02 4.702100000000000080e+01 -4.525699999999999612e+00 6.474750000000000227e-01 1.489146781593040725e-03
1.383100000000000023e+02 3.059000000000000163e+00 3.191400000000000148e+01 -7.374260999999999910e+01 3.688185664599351321e-02
1.383100000000000023e+02 4.098400000000000176e+01 1.426900000000000013e+01 1.217375999999999969e+01 -8.536015471752453343e-02
1.383100000000000023e+02 4.942499999999999716e+01 3.650200000000000244e+01 -5.536184999999999690e+00 8.338982987318005469e-02
1.383100000000000023e+02 2.501699999999999946e+01 2.315399999999999991e+01 4.178021000000000207e+00 1.299160618112926435e-01
1.383100000000000023e+02 3.378999999999999915e+01 1.266799999999999926e+01 -1.295115999999999978e+01 -5.478273473156367729e-02
1.383100000000000023e+02 8.674099999999999255e+00 3.938400000000000123e+00 4.062651999999999930e+00 -9.367028699033712325e-03
1.383100000000000023e+02 5.337700000000000244e+01 1.201900000000000013e+01 3.457526000000000010e+01 -2.560591695937088907e-01
1.383100000000000023e+02 5.071099999999999852e+01 2.259700000000000131e+01 -6.344153000000000375e+00 -1.736870656397886403e-01
1.383199999999999932e+02 5.682600000000000051e+01 2.599800000000000111e+01 -2.246527999999999992e+01 -1.671447367816431273e-01
1.383199999999999932e+02 4.403999999999999915e+00 2.412399999999999878e+01 -2.278881000000000157e+01 -5.144563294301154194e-02
1.383199999999999932e+02 4.642000000000000348e+00 1.103299999999999947e+00 9.573748000000000147e+00 -2.609254017016994776e-01
1.383199999999999932e+02 6.918199999999999683e+00 3.362599999999999767e+01 2.177985999999999933e+01 1.280760163883142844e-01
1.383199999999999932e+02 4.641899999999999693e+01 4.642199999999999882e+00 1.043102000000000057e-01 1.327813768019053819e-01
1.383300000000000125e+02 2.551899999999999835e+01 3.708599999999999852e+01 -5.597604999999999720e+00 1.795924841755856538e-01
1.383300000000000125e+02 2.330199999999999960e+01 1.411999999999999922e+01 6.148743999999999765e+00 -4.840730363962925109e-02
1.383300000000000125e+02 5.212100000000000222e+01 1.277299999999999969e+01 3.478144000000000347e+01 -2.494565611760138635e-01
1.383400000000000034e+02 3.171199999999999974e+01 1.086299999999999955e+01 -8.907647000000000759e+00 -4.519158574675460893e-02
1.383400000000000034e+02 2.378500000000000014e+01 3.757000000000000117e+00 1.283558999999999983e+01 -9.959585844302714513e-03
1.383499999999999943e+02 4.248499999999999943e+01 -5.270900000000000141e+00 -2.913607999999999976e+00 -1.269295491910045481e-01
1.383499999999999943e+02 2.977199999999999847e+01 -5.519899999999999807e+00 6.857391000000000458e-01 -1.146734185169434594e-01
1.383499999999999943e+02 4.582500000000000284e+01 1.410599999999999987e+01 1.502424000000000071e+01 -5.026688684279810582e-02
1.383499999999999943e+02 4.722500000000000142e+01 1.410599999999999987e+01 1.569311000000000078e+01 -2.705401122277684700e-01
1.383499999999999943e+02 2.363299999999999912e+01 2.417099999999999937e+01 -1.939114999999999922e+00 1.297263157675663803e-01
1.383499999999999943e+02 3.988499999999999801e+01 1.434999999999999964e+01 1.158344999999999914e+01 2.103889008427473895e-01
1.383600000000000136e+02 2.282100000000000151e+01 3.650500000000000256e+01 3.529220000000000024e+00 1.309087526217766473e-01
1.383600000000000136e+02 3.360099999999999909e+01 1.360299999999999976e+01 -1.294913000000000025e+01 -5.779116148938127223e-02
1.383600000000000136e+02 3.496600000000000108e+01 2.674099999999999966e+01 5.018790000000000084e+00 1.382193312320791623e-01
1.383600000000000136e+02 3.716100000000000136e+01 4.346900000000000119e+01 -1.671708999999999889e+01 1.732711788690006471e-01
1.383700000000000045e+02 4.716599999999999682e+01 -1.091399999999999926e+00 1.269172999999999973e+01 -1.843170463354383819e-03
1.383700000000000045e+02 1.463400000000000034e+01 4.122200000000000131e+01 6.455246999999999957e+00 1.293875557432044854e-01
1.383700000000000045e+02 4.039800000000000324e+01 -7.375700000000000145e+00 1.428406999999999982e+01 -1.265947599829346237e-01
1.383799999999999955e+02 8.446099999999999497e+00 1.747299999999999898e+01 3.051407999999999987e+01 -4.771711519577718358e-02
1.383799999999999955e+02 9.637000000000000455e+00 1.680900000000000105e+01 1.086669000000000018e+01 -4.734522745118501658e-02
1.383799999999999955e+02 1.082799999999999940e+01 1.747299999999999898e+01 3.489933999999999870e+00 -4.809086944183505602e-02
1.383799999999999955e+02 4.143900000000000006e+01 4.169200000000000017e+01 1.549643000000000015e+01 1.723566796917822830e-01
1.383799999999999955e+02 4.950099999999999767e+01 2.336499999999999844e+01 -6.839521000000000406e+00 -1.820931198091734760e-01
1.383799999999999955e+02 2.535099999999999909e+01 4.278799999999999670e+01 -1.068168999999999969e+01 1.764351117342733422e-01
1.383899999999999864e+02 5.205299999999999727e+01 1.872500000000000142e+01 -5.901010000000000311e+00 -2.577082761973578107e-01
1.383899999999999864e+02 5.357300000000000040e+01 1.872500000000000142e+01 -6.914949000000000012e+00 -2.613735217042431058e-01
1.383899999999999864e+02 2.227899999999999991e+01 2.597299999999999898e+01 -6.543699000000000154e+00 1.297094547095587469e-01
1.383899999999999864e+02 2.248799999999999955e+01 2.523699999999999832e+01 -6.702398999999999774e+00 1.296262967961493429e-01
1.383899999999999864e+02 2.248799999999999955e+01 2.670899999999999963e+01 -1.989414000000000016e+00 1.299048692873065736e-01
1.383899999999999864e+02 7.355999999999999872e+00 7.130700000000000038e+00 -3.221621000000000068e-01 -2.619443714115165522e-01
1.383899999999999864e+02 1.187800000000000011e+01 -4.202300000000000146e+00 -4.971911999999999665e+00 -1.018746384123306453e-01
1.384000000000000057e+02 1.884499999999999886e+01 4.186200000000000188e+01 1.849940000000000140e+01 1.771945172386770462e-01
1.384000000000000057e+02 1.801000000000000156e+01 1.604899999999999949e+01 1.454537999999999975e+01 -4.864361632656963308e-02
1.384000000000000057e+02 2.269900000000000162e+01 4.178799999999999670e+01 3.601191000000000031e+00 1.771030888872648368e-01
1.384000000000000057e+02 2.364499999999999957e+01 -3.693999999999999950e+00 -1.327391000000000076e+01 -1.073062815132396902e-01
1.384000000000000057e+02 1.768000000000000016e+00 3.008699999999999974e+01 -8.263899999999999579e+00 3.697029454186927244e-02
1.384000000000000057e+02 3.552100000000000080e+01 2.488800000000000168e+01 -1.830902999999999947e+00 1.387730226108576381e-01
1.384000000000000057e+02 2.842500000000000071e+01 -2.069599999999999884e+00 1.052053000000000083e+01 -1.119820757367147868e-01
1.384000000000000057e+02 4.076200000000000045e+01 -6.562999999999999723e+00 3.110608999999999824e+01 -1.272963204959279837e-01
1.384000000000000057e+02 3.715599999999999881e+01 2.965099999999999980e+01 -7.896859000000000073e+00 1.918427780800646687e-01
1.384000000000000057e+02 3.809599999999999653e+01 2.965099999999999980e+01 -1.297425999999999924e+01 1.923237795390648763e-01
1.384099999999999966e+02 4.646800000000000352e+01 -4.917300000000000004e+00 6.626331000000000415e+00 -1.227109394454806374e-03
1.384099999999999966e+02 5.066700000000000159e+01 3.671399999999999864e+01 -2.013575000000000159e+01 9.867568512720591156e-02
1.384099999999999966e+02 6.448699999999999655e+00 2.168000000000000149e+00 3.315708000000000055e+01 -1.024216473679054676e-02
1.384099999999999966e+02 4.751100000000000279e+01 3.843500000000000227e+01 5.435793000000000319e+00 8.061161571756637889e-02
1.384099999999999966e+02 3.943900000000000006e+01 1.040900000000000070e+01 1.685050999999999988e+01 -6.023308142165967327e-02
1.384099999999999966e+02 3.670000000000000284e+01 4.011800000000000210e+01 -4.297447000000000017e+00 1.756819215302553028e-01
1.384099999999999966e+02 1.405100000000000016e+01 1.268900000000000006e+01 -1.478126999999999969e+00 -4.400086539721399792e-02
1.384099999999999966e+02 4.596999999999999886e+01 3.786800000000000210e+01 1.904458999999999946e+01 8.016666259456638188e-02
1.384099999999999966e+02 4.596999999999999886e+01 4.126800000000000068e+01 2.634976999999999947e+01 7.857630961868850017e-02
1.384099999999999966e+02 4.741599999999999682e+01 4.046200000000000330e+01 1.983346999999999838e+01 7.946624864801490884e-02
1.384099999999999966e+02 4.767000000000000171e+01 3.956799999999999784e+01 1.808329000000000164e+01 8.001886500523128221e-02
1.384099999999999966e+02 4.159499999999999886e+01 3.944899999999999807e+01 3.637532999999999817e+01 1.739138444260130700e-01
1.384099999999999966e+02 4.246000000000000085e+01 3.944899999999999807e+01 3.056306000000000012e+01 1.734031776868706909e-01
1.384199999999999875e+02 5.159599999999999653e+01 3.212599999999999767e+01 8.010659999999999670e+00 -1.758919667535472353e-01
1.384199999999999875e+02 1.112199999999999989e+01 3.992000000000000171e+01 -5.305803999999999832e+01 1.288842325026792746e-01
1.384199999999999875e+02 1.206199999999999939e+01 3.992000000000000171e+01 -7.480343000000000586e+01 1.290001968645650143e-01
1.384300000000000068e+02 2.471699999999999875e+01 2.142999999999999972e+01 1.370828999999999986e+01 1.293663767572192647e-01
1.384300000000000068e+02 7.672900000000000276e+00 2.844700000000000006e+00 1.522189000000000014e+01 -9.904448658957487259e-03
1.384300000000000068e+02 3.952799999999999869e+01 2.971300000000000097e+01 -1.201435000000000031e+00 1.927127465638926174e-01
1.384300000000000068e+02 1.036400000000000077e+01 6.238000000000000433e+00 7.521012999999999948e+00 -8.363667963208953546e-03
1.384300000000000068e+02 2.401000000000000156e+01 4.363300000000000267e+01 6.234543000000000035e+01 1.762200073750668228e-01
1.384300000000000068e+02 2.333999999999999986e+01 4.685399999999999565e+00 8.031335000000000335e+00 -9.131703277829130924e-03
1.384300000000000068e+02 2.155099999999999838e+01 3.604099999999999682e+01 1.295231000000000021e+00 1.305712173925615283e-01
1.384300000000000068e+02 7.911699999999999733e+00 3.422599999999999909e+01 3.377868000000000137e+01 1.282220244734556258e-01
1.384300000000000068e+02 1.812600000000000122e+01 1.361599999999999966e+01 7.264975999999999878e+00 -4.556011588459441680e-02
1.384300000000000068e+02 2.687999999999999901e+01 3.795900000000000318e+01 -4.244739000000000040e+00 1.790813773633458672e-01
1.384300000000000068e+02 1.519100000000000072e+01 1.191799999999999926e+01 2.013843999999999923e+01 -4.325311624011191070e-02
1.384300000000000068e+02 2.450300000000000011e+01 9.281299999999999883e+00 -9.196403999999999357e+00 -5.835999600376461788e-03
1.384300000000000068e+02 3.177100000000000080e+01 -6.809300000000000352e+00 -4.235171999999999826e-01 -1.176315311980760114e-01
1.384399999999999977e+02 5.965300000000000047e+00 2.566499999999999915e+01 -1.845572999999999908e+01 -1.732017060478382442e-01
1.384399999999999977e+02 4.082300000000000040e+01 3.055600000000000094e+01 6.165790000000000326e+00 1.902828948752149363e-01
1.384399999999999977e+02 4.113499999999999801e+01 4.099199999999999733e+01 3.811872999999999934e+01 1.730208079653946518e-01
1.384399999999999977e+02 8.576999999999999957e+00 -2.792100000000000026e+00 6.138442999999999650e+00 -1.009392981114784760e-01
1.384399999999999977e+02 2.466499999999999915e+01 1.720100000000000051e+01 -1.200215000000000032e+00 -5.161514965831994622e-02
1.384399999999999977e+02 5.143099999999999739e+01 1.381400000000000006e+01 3.358375000000000199e+01 -2.457125389580527841e-01
1.384499999999999886e+02 4.971999999999999886e+01 9.085300000000000153e+00 7.711218999999999824e+00 -2.467920935623490186e-01
1.384499999999999886e+02 2.456599999999999895e+01 2.043700000000000117e+01 6.614199000000000161e+00 -5.686297276584754978e-02
1.384499999999999886e+02 3.871699999999999875e+01 3.549600000000000222e+01 3.757945999999999787e-01 1.801033717548509439e-01
1.384499999999999886e+02 5.633700000000000152e+00 6.979700000000000237e+00 -3.349511999999999823e+00 -2.619902054384918300e-01
1.384499999999999886e+02 4.388400000000000034e+01 -5.753000000000000114e+00 -3.507705999999999880e-01 -1.302524432257332401e-02
1.384499999999999886e+02 4.543399999999999750e+01 -5.753000000000000114e+00 5.415740000000000265e+01 -5.694471708073127469e-03
1.384499999999999886e+02 3.771600000000000108e+01 1.331199999999999939e+01 -1.697165000000000035e+01 -6.932079753232271713e-02
1.384600000000000080e+02 3.109499999999999886e+01 1.615399999999999991e+01 -9.864720000000000155e+00 -5.991776856542690988e-02
1.384600000000000080e+02 5.652999999999999581e+00 1.912800000000000011e+01 2.661503000000000085e+01 -4.857601609324087300e-02
1.384600000000000080e+02 7.203000000000000291e+00 1.912800000000000011e+01 6.561721000000000004e+01 -4.880262206347366766e-02
1.384600000000000080e+02 4.774099999999999966e+01 3.505499999999999972e+01 3.645931000000000033e-01 8.413413822104050255e-02
1.384600000000000080e+02 2.467099999999999937e+01 1.348499999999999943e+01 -2.126797999999999883e-02 -4.834285713352696329e-02
1.384600000000000080e+02 2.329400000000000048e+01 -5.400100000000000122e+00 -9.882051999999999836e+00 -1.076523934950453648e-01
1.384699999999999989e+02 2.336499999999999844e+01 1.517900000000000027e+01 -8.473698000000000619e+00 -4.699620286919160145e-02
1.384699999999999989e+02 8.258699999999999264e+00 2.596999999999999886e+01 -1.247639000000000031e+01 3.671514860380935275e-02
1.384699999999999989e+02 9.124000000000000554e+00 2.596999999999999886e+01 -5.612415000000000376e+00 3.665139337776148615e-02
1.384699999999999989e+02 3.756799999999999784e+01 3.818599999999999994e+01 -6.862867000000000273e-01 1.771757239996800681e-01
1.384699999999999989e+02 2.414799999999999969e+01 1.896799999999999997e+01 4.959257000000000026e+00 -5.402652277363553107e-02
1.384699999999999989e+02 2.435699999999999932e+01 1.823199999999999932e+01 -9.396314999999999529e-01 -5.306478892871734077e-02
1.384699999999999989e+02 2.435699999999999932e+01 1.970400000000000063e+01 4.301852000000000231e+00 -5.545801826532320566e-02
1.384799999999999898e+02 4.836599999999999966e+01 -2.962000000000000188e+00 7.916150000000000020e+00 8.965049168855578066e-03
1.384799999999999898e+02 4.836599999999999966e+01 -2.004000000000000004e+00 1.338444999999999929e+01 8.148045058762799775e-03
1.384799999999999898e+02 3.705899999999999750e+01 -8.738300000000000622e+00 -1.068238999999999939e+00 -1.249834047528002590e-01
1.384799999999999898e+02 3.875900000000000034e+01 -8.738300000000000622e+00 1.024915000000000020e+00 -1.261280086426362079e-01
1.384799999999999898e+02 2.235699999999999932e+01 4.099799999999999756e+01 9.265178999999999832e+00 1.775017855915039522e-01
1.384799999999999898e+02 4.754399999999999693e+01 3.979699999999999793e+00 -1.911613000000000007e+00 -7.514027186605246392e-03
1.384799999999999898e+02 4.924399999999999977e+01 3.979699999999999793e+00 2.889448999999999934e+00 -2.477682246955199563e-01
1.384799999999999898e+02 2.637399999999999878e+01 3.705299999999999727e+01 -5.364824999999999733e+00 1.797174053965310825e-01
1.384799999999999898e+02 9.248499999999999943e+00 3.512500000000000000e+01 1.090190999999999910e+00 1.284232120011070122e-01
1.384799999999999898e+02 5.093099999999999739e+01 9.771399999999999864e+00 1.384946000000000055e+01 -2.487514561270185998e-01
1.384799999999999898e+02 3.539200000000000301e+01 -8.598599999999999355e+00 -2.174558000000000035e+01 -1.226077790748929947e-01
1.384799999999999898e+02 3.044500000000000028e+01 1.134500000000000064e+01 -6.582314000000000220e+00 -4.521896718945363214e-02
1.384799999999999898e+02 1.603900000000000148e+01 1.637300000000000111e+01 1.451758000000000060e+01 -4.837176536241585834e-02
1.384799999999999898e+02 1.079299999999999926e+01 3.915999999999999659e+01 -1.761148000000000025e+01 1.288196115082488602e-01
1.384799999999999898e+02 3.601299999999999812e+01 2.847500000000000142e+01 1.829434999999999922e+00 1.393514408588402143e-01
1.384900000000000091e+02 1.968799999999999883e+01 4.044700000000000273e+01 1.156661000000000072e+01 1.777751262274081812e-01
1.384900000000000091e+02 1.006099999999999994e+01 6.937999999999999723e+00 -1.123567000000000071e+01 -8.185055086945326047e-03
1.384900000000000091e+02 4.495400000000000063e+01 2.238599999999999923e+01 7.014496000000000286e+00 -9.793988109401030595e-02
1.385000000000000000e+02 5.521600000000000108e+01 2.353500000000000014e+01 5.329220000000000290e+00 -2.834045297530568552e-01
1.385000000000000000e+02 5.224999999999999645e+00 -2.765299999999999869e+00 -2.495977000000000057e-01 -1.006241192560529685e-01
1.385000000000000000e+02 3.720400000000000063e+01 3.899900000000000233e+01 3.490761000000000003e+00 1.765391786153445719e-01
1.385000000000000000e+02 4.240699999999999648e+01 1.066399999999999970e+01 1.763495999999999952e+01 -7.473272264782616914e-02
1.385000000000000000e+02 4.359799999999999898e+01 1.132799999999999940e+01 1.711137000000000086e+01 -6.886514926016977511e-02
1.385000000000000000e+02 4.380700000000000216e+01 1.206400000000000006e+01 1.338978000000000002e+01 -6.763661595895131828e-02
1.385000000000000000e+02 4.697000000000000064e+00 7.642299999999999649e+00 -9.741794000000000509e+00 -2.621650028434316382e-01
1.385000000000000000e+02 4.697000000000000064e+00 1.010200000000000031e+01 -3.926767999999999859e+01 -2.626706979295276856e-01
1.385000000000000000e+02 3.013599999999999923e+01 -6.221000000000000085e+00 5.508935999999999833e-01 -1.153217127594220182e-01
1.385099999999999909e+02 5.002400000000000091e+01 9.785299999999999443e+00 1.413543999999999912e+01 -2.466550081301096820e-01
1.385099999999999909e+02 3.207200000000000273e+01 1.500999999999999979e+01 -1.520035000000000025e+01 -5.889096448907268216e-02
1.385099999999999909e+02 5.880300000000000082e+00 1.091300000000000026e+01 -1.583716000000000079e+01 -2.628338291709603203e-01
1.385099999999999909e+02 5.272899999999999920e+01 3.616700000000000159e+01 -1.355292000000000030e+01 -1.876598378376610754e-01
1.385099999999999909e+02 5.280400000000000205e+01 3.294400000000000261e+01 -3.268736999999999782e+00 -1.859085954519003603e-01
1.385099999999999909e+02 5.404800000000000182e+01 3.380199999999999960e+01 1.006295000000000073e+01 -1.865624438071030178e-01
1.385099999999999909e+02 5.404800000000000182e+01 3.543200000000000216e+01 -2.908815999999999846e+00 -1.874841468574347247e-01
1.385099999999999909e+02 5.427900000000000347e+01 3.461699999999999733e+01 -1.495176000000000061e+00 -1.870872851710840279e-01
1.385099999999999909e+02 2.771900000000000119e+01 1.347700000000000031e+01 -1.117357999999999962e-01 -4.749353321995501698e-02
1.385099999999999909e+02 4.072299999999999898e+01 3.213100000000000023e+01 1.517098000000000013e+01 1.860328955021495756e-01
1.385099999999999909e+02 4.093200000000000216e+01 3.139499999999999957e+01 1.947256000000000142e+01 1.878976932105205777e-01
1.385099999999999909e+02 2.339799999999999969e+01 1.401399999999999979e+00 1.344772999999999996e+01 -1.050289918803100769e-01
1.385099999999999909e+02 2.339799999999999969e+01 2.266599999999999948e+00 1.165565999999999924e+01 -1.046230394892141841e-01
1.385099999999999909e+02 1.409800000000000075e+01 4.286800000000000210e+01 5.073501000000000261e-01 1.769230665398018043e-01
1.385099999999999909e+02 1.435200000000000031e+01 4.376200000000000045e+01 1.357563000000000031e+01 1.766615122508126690e-01
1.385099999999999909e+02 1.579800000000000004e+01 4.456799999999999784e+01 1.238852999999999938e+01 1.763971078240061385e-01
1.385099999999999909e+02 1.724399999999999977e+01 4.376200000000000045e+01 4.520828999999999809e+01 1.766029000257159365e-01
1.385099999999999909e+02 7.907700000000000173e+00 2.795700000000000074e+01 -1.633736999999999995e+01 3.668541787437215596e-02
1.385099999999999909e+02 2.297299999999999898e+01 1.373700000000000010e+01 2.712385000000000090e+01 -4.773729172178139968e-02
1.385200000000000102e+02 1.424799999999999933e+01 -5.874900000000000233e+00 -1.312037000000000064e-01 -1.030766478537750580e-01
1.385200000000000102e+02 1.385699999999999932e+01 -5.036400000000000432e+00 2.259335000000000163e-02 -1.027016136402479907e-01
1.385200000000000102e+02 1.698000000000000043e+01 -5.672600000000000087e+00 1.003493000000000024e-01 -1.040107441324050752e-01
1.385200000000000102e+02 1.837999999999999901e+01 -5.672600000000000087e+00 -2.354846000000000217e+00 -1.046483904639369245e-01
1.385200000000000102e+02 1.369400000000000084e+01 3.770900000000000318e+01 2.059624000000000166e+01 1.291363927610647833e-01
