8.169700000000000273e+01 6.371800000000000352e+01 1.099799999999999933e+01 -2.147715000000000174e+01 -1.564673313974366264e-01
8.169700000000000273e+01 6.371800000000000352e+01 1.193800000000000061e+01 -4.597319999999999851e+01 -1.568903082294200169e-01
8.170699999999999363e+01 4.524199999999999733e+01 7.032700000000000173e+00 1.139905000000000079e+01 9.923586091241959339e-02
8.170999999999999375e+01 4.500500000000000256e+01 2.142099999999999937e+01 -2.840094000000000118e+00 9.927166463979261724e-02
8.172299999999999898e+01 5.515800000000000125e+01 4.550799999999999734e+00 2.083744999999999958e+00 -1.495707605584814803e-01
8.173000000000000398e+01 4.665200000000000102e+01 2.178099999999999881e+01 -1.371509000000000000e+01 1.001734089809924316e-01
8.173000000000000398e+01 4.357099999999999795e+01 2.140800000000000125e+01 2.587493999999999961e+00 9.853977707003665210e-02
8.174099999999999966e+01 6.032200000000000273e+01 7.634000000000000341e+00 1.320032999999999923e+01 -1.454302982465490168e-01
8.174299999999999500e+01 3.960499999999999687e+01 1.423399999999999999e+01 1.622412999999999883e+01 9.446190030501452894e-02
8.174599999999999511e+01 5.271999999999999886e+01 2.415299999999999869e+01 -1.120659000000000027e+01 1.034040398321688092e-01
8.174699999999999989e+01 4.011200000000000188e+01 2.047400000000000020e+01 3.599812000000000012e+00 9.880902035462536814e-02
8.174800000000000466e+01 4.405100000000000193e+01 3.219000000000000195e-01 -3.191213999999999995e-01 8.224585078157650719e-02
8.175499999999999545e+01 5.935699999999999932e+01 6.685200000000000031e+00 2.303014999999999901e+01 -1.459692097543582312e-01
8.176399999999999579e+01 5.908299999999999841e+01 4.836599999999999788e+00 -1.132432999999999979e+01 -1.452159955709135808e-01
8.177299999999999613e+01 4.902499999999999858e+01 5.772000000000000242e+00 1.646911000000000058e+01 -1.548273519015018196e-01
8.177299999999999613e+01 5.021600000000000108e+01 6.435900000000000176e+00 2.935137000000000107e+00 -1.548035543895916188e-01
8.178799999999999670e+01 4.104099999999999682e+01 2.220299999999999940e+01 2.204542000000000002e+01 9.881959733658754463e-02
8.179000000000000625e+01 4.713100000000000023e+01 1.385000000000000009e+00 -4.561674000000000007e+00 -1.646003043067596761e-01
8.179300000000000637e+01 4.269599999999999795e+01 2.214600000000000080e+01 -8.391559000000000879e+00 9.817012404889458033e-02
8.181100000000000705e+01 4.635600000000000165e+01 2.566900000000000048e+01 7.051199000000000439e+00 9.995919193856342422e-02
8.181399999999999295e+01 4.063900000000000290e+01 3.340599999999999881e+01 -1.107088000000000072e+01 9.826349788286867226e-02
8.181499999999999773e+01 4.515699999999999648e+01 8.023300000000000765e+00 1.049995999999999974e+01 9.955425803664544326e-02
8.181600000000000250e+01 5.186999999999999744e+01 1.713400000000000034e+01 -2.362121000000000137e+01 1.043038566814676604e-01
8.182099999999999795e+01 4.083100000000000307e+01 3.010999999999999943e+01 -1.282048999999999994e+00 9.803031065722203619e-02
8.182099999999999795e+01 4.083100000000000307e+01 3.097599999999999909e+01 -1.136435000000000084e+00 9.810631149446398525e-02
8.183299999999999841e+01 4.947399999999999665e+01 2.821199999999999974e+01 -1.327089999999999925e+01 1.013418834224237425e-01
8.183400000000000318e+01 4.303000000000000114e+01 1.245200000000000085e+00 -2.957949999999999857e+00 8.297526784488869211e-02
8.183499999999999375e+01 4.312899999999999778e+01 3.764699999999999935e+00 -2.529550000000000054e+01 9.234800932868966750e-02
8.183899999999999864e+01 6.275699999999999790e+01 9.841699999999999449e+00 -8.011637000000000342e+00 -1.440799785759921403e-01
8.184099999999999397e+01 5.570799999999999841e+01 3.188599999999999923e+01 3.302099000000000117e+00 1.036857767735599040e-01
8.184199999999999875e+01 6.122599999999999909e+01 8.130800000000000693e+00 -1.084554000000000018e+00 -1.447463988998439477e-01
8.184799999999999898e+01 4.699199999999999733e+01 1.990299999999999958e+00 -3.121182999999999819e+00 -1.658253863376930037e-01
8.185399999999999920e+01 3.936800000000000210e+01 3.259300000000000352e+01 -2.441336000000000173e+00 9.785328293474680750e-02
8.185599999999999454e+01 4.548700000000000188e+01 -2.329499999999999904e-01 -2.369447000000000081e-01 8.790802510156797700e-02
8.186700000000000443e+01 5.072800000000000153e+01 2.639300000000000068e+01 -1.220949000000000062e+01 1.020790869141402213e-01
8.186899999999999977e+01 4.704299999999999926e+01 7.836699999999999777e-01 -2.889009999999999856e+00 -1.629673046729999963e-01
8.187199999999999989e+01 5.010799999999999699e+01 2.403200000000000003e+01 -1.983345999999999876e+01 1.019848305813010753e-01
8.187199999999999989e+01 5.097399999999999665e+01 2.403200000000000003e+01 -7.224776999999999560e+00 1.024650401996364951e-01
8.187300000000000466e+01 4.224900000000000233e+01 1.014799999999999969e+01 -2.678256999999999888e+00 9.557007898862582285e-02
8.187300000000000466e+01 4.680100000000000193e+01 2.685099999999999820e+00 7.473353999999999608e+00 9.983400860915780939e-02
8.187300000000000466e+01 4.700999999999999801e+01 3.421100000000000030e+00 1.591942000000000057e+01 1.006908820253262782e-01
8.187600000000000477e+01 5.031700000000000017e+01 1.855600000000000094e+01 -2.936978999999999829e+01 1.028780377979982424e-01
8.187600000000000477e+01 5.052600000000000335e+01 1.782000000000000028e+01 -1.781197999999999837e+01 1.031655787800387358e-01
8.187600000000000477e+01 5.052600000000000335e+01 1.929200000000000159e+01 -1.882929000000000030e+01 1.028922095603969356e-01
8.187600000000000477e+01 5.085099999999999909e+01 2.002899999999999991e+01 -5.440028999999999826e+01 1.029823037754868942e-01
8.187900000000000489e+01 4.088499999999999801e+01 2.935000000000000142e+01 -1.237598999999999894e+00 9.799711098704824708e-02
8.188500000000000512e+01 5.642999999999999972e+01 1.417500000000000071e+01 -1.079639000000000060e+01 1.088515630685915336e-01
8.189000000000000057e+01 5.026299999999999812e+01 2.552599999999999980e+01 -1.674155000000000015e+01 1.019264935856673271e-01
8.189300000000000068e+01 5.137400000000000233e+01 2.476699999999999946e+01 -2.654799999999999827e+00 1.025969812608057835e-01
8.190099999999999625e+01 4.489900000000000091e+01 8.755900000000000460e+00 2.062577000000000105e+00 9.941909313027144646e-02
8.190300000000000580e+01 5.783200000000000074e+01 1.331700000000000017e+01 -2.829746000000000095e+00 -1.496667080834102326e-01
8.190600000000000591e+01 4.783899999999999864e+01 3.049299999999999855e+01 -5.160519999999999996e+00 1.005898825762918669e-01
8.190800000000000125e+01 4.402100000000000080e+01 2.743100000000000094e+01 1.452807000000000126e-01 9.900447396918839182e-02
8.191200000000000614e+01 4.347899999999999920e+01 9.324999999999999289e+00 -4.259623999999999633e+00 9.716917700359145593e-02
8.191700000000000159e+01 3.969700000000000273e+01 3.183299999999999841e+01 -3.022176999999999780e-01 9.788306844429277287e-02
8.191700000000000159e+01 3.969700000000000273e+01 3.335300000000000153e+01 -1.423429999999999973e+00 9.802926348450120841e-02
8.192900000000000205e+01 5.427400000000000091e+01 2.994800000000000040e+01 6.961895999999999640e-01 1.033519832300003882e-01
8.192900000000000205e+01 5.427400000000000091e+01 3.284000000000000341e+01 9.206701000000000690e+00 1.030225845476216984e-01
8.193000000000000682e+01 5.849799999999999756e+01 4.055699999999999861e+00 -1.148572000000000060e+01 -1.453608567375735128e-01
8.193099999999999739e+01 4.980499999999999972e+01 2.473199999999999932e+01 -1.881746000000000052e+01 1.017662043125110022e-01
8.193899999999999295e+01 4.025500000000000256e+01 1.656200000000000117e+01 2.297291999999999845e+01 9.681197967457347286e-02
8.194299999999999784e+01 4.016700000000000159e+01 1.375999999999999979e+01 4.218090000000000117e+01 9.483880880617023834e-02
8.194299999999999784e+01 4.637899999999999778e+01 3.105000000000000071e+01 7.220348000000000432e+00 1.000327519794106668e-01
8.194799999999999329e+01 6.250000000000000000e+01 9.255100000000000549e+00 -5.164210999999999885e+00 -1.440519729079670908e-01
8.194799999999999329e+01 5.517999999999999972e+01 1.516099999999999959e+01 9.486845000000000694e-02 1.074843620815049833e-01
8.195799999999999841e+01 4.533899999999999864e+01 2.630499999999999972e+01 6.264727999999999852e+00 9.953922167768559925e-02
8.196299999999999386e+01 5.270300000000000296e+01 6.066600000000000215e+00 5.414826999999999835e+00 -1.528182092435190209e-01
8.196599999999999397e+01 5.066799999999999926e+01 2.733200000000000074e+01 -1.829256000000000171e+01 1.019851670027478729e-01
8.197199999999999420e+01 4.218900000000000006e+01 1.108699999999999974e+01 -3.558104000000000156e+00 9.607876272301024700e-02
8.197299999999999898e+01 4.913000000000000256e+01 2.856299999999999883e+01 -4.238335000000000186e+00 1.011982532193404644e-01
8.197400000000000375e+01 4.092099999999999937e+01 1.791300000000000026e+01 1.577136000000000093e+00 9.837760145173025939e-02
8.197400000000000375e+01 4.092099999999999937e+01 1.877799999999999869e+01 2.188239999999999963e+00 9.880776738181516750e-02
8.197499999999999432e+01 4.757200000000000273e+01 2.268700000000000117e+01 -1.399133999999999922e+01 1.007134064105690008e-01
8.197499999999999432e+01 4.778099999999999881e+01 2.342299999999999827e+01 -2.098853000000000080e+01 1.007865684771017262e-01
8.197799999999999443e+01 4.218699999999999761e+01 2.834400000000000119e+01 -2.079028000000000098e+00 9.838465012329045134e-02
8.199399999999999977e+01 4.509400000000000119e+01 3.325300000000000011e+01 3.203128000000000242e+01 9.964938075694387831e-02
8.199399999999999977e+01 5.927199999999999847e+01 1.313899999999999935e+01 -5.168492999999999782e+00 -1.483119256804788511e-01
8.200600000000000023e+01 4.438100000000000023e+01 9.268000000000000682e+00 -5.134522999999999726e+00 9.869547118893114146e-02
8.200700000000000500e+01 5.923499999999999943e+01 5.756999999999999673e+00 -7.877895000000000314e-01 -1.455581077546716506e-01
8.201300000000000523e+01 5.604500000000000171e+01 4.376900000000000013e+00 1.429076999999999931e+00 -1.483255301251846514e-01
8.201399999999999579e+01 4.021600000000000108e+01 2.126599999999999824e+01 6.290004999999999846e+00 9.915376131070435806e-02
8.201399999999999579e+01 4.054399999999999693e+01 1.977400000000000091e+01 1.757565999999999962e+00 9.883232664358845843e-02
8.201600000000000534e+01 4.145499999999999829e+01 1.278200000000000003e+01 1.213803000000000054e+01 9.604161637092925585e-02
8.202200000000000557e+01 5.978900000000000148e+01 7.385200000000000209e+00 2.261318999999999946e+01 -1.458232168873968837e-01
8.202400000000000091e+01 4.757699999999999818e+01 2.494999999999999929e+01 -2.643619999999999859e+00 1.006233514223438819e-01
8.202400000000000091e+01 4.778600000000000136e+01 2.421399999999999864e+01 -1.369979999999999976e+01 1.007613970859425889e-01
8.203000000000000114e+01 4.188600000000000279e+01 1.178700000000000081e+01 5.068445999999999785e+00 9.603388390965982013e-02
8.203199999999999648e+01 4.882699999999999818e+01 2.926300000000000168e+01 -2.846921000000000035e+00 1.010507982274894412e-01
8.203300000000000125e+01 5.287100000000000222e+01 3.251700000000000301e+01 5.789943000000000062e+00 1.025210935799658885e-01
8.203799999999999670e+01 4.371900000000000119e+01 3.417399999999999949e+01 9.900850000000000151e+00 9.926397885545261424e-02
8.203900000000000148e+01 5.241100000000000136e+01 2.477599999999999980e+01 8.435548000000000712e+00 1.031802258298087221e-01
8.204000000000000625e+01 4.526700000000000301e+01 9.080000000000000071e+00 1.000811000000000028e+01 -1.539858364957682191e-01
8.204099999999999682e+01 5.829500000000000171e+01 1.301699999999999946e+01 2.331393999999999966e+00 -1.491524957096828918e-01
8.207399999999999807e+01 4.522299999999999898e+01 3.229500000000000171e+01 1.840534999999999854e+01 9.967553046221404311e-02
8.208400000000000318e+01 5.110999999999999943e+01 6.117600000000000371e+00 3.541239000000000026e+00 -1.542547758053897933e-01
8.209099999999999397e+01 6.044299999999999784e+01 1.435699999999999932e+01 -8.478218999999999284e+00 -1.475178805690092465e-01
8.209099999999999397e+01 6.196300000000000097e+01 1.435699999999999932e+01 -6.553345000000000198e+01 -1.462586715961022299e-01
8.209199999999999875e+01 4.556400000000000006e+01 5.506000000000000227e+00 7.151902999999999899e+00 9.865754650986770236e-02
8.209199999999999875e+01 5.655400000000000205e+01 3.162900000000000134e+01 -1.551304000000000016e+00 1.040800835005688124e-01
8.209600000000000364e+01 5.359899999999999665e+01 1.660000000000000142e+01 1.114786999999999972e+00 1.057851431908781448e-01
8.210399999999999920e+01 4.538600000000000279e+01 4.805399999999999672e+00 8.316373999999999711e+00 9.785289708107640372e-02
8.210999999999999943e+01 5.453600000000000136e+01 2.320899999999999963e+01 -3.555452999999999975e+01 1.046582964354684508e-01
8.211499999999999488e+01 4.581199999999999761e+01 2.168299999999999983e+01 -9.726938000000000528e+00 9.983532423047687676e-02
8.211599999999999966e+01 5.115400000000000347e+01 2.562000000000000099e+01 -3.277143999999999835e+00 1.024198376902541591e-01
8.212500000000000000e+01 4.265899999999999892e+01 2.065300000000000136e+00 -1.318918000000000035e+01 8.262177947349028106e-02
8.212500000000000000e+01 4.265899999999999892e+01 3.004700000000000149e+00 -2.045438000000000045e+01 8.071951694442258685e-02
8.213599999999999568e+01 4.325099999999999767e+01 2.149299999999999855e+01 -6.766129000000000282e+00 9.853574861723214673e-02
8.214000000000000057e+01 5.054099999999999682e+01 2.473199999999999932e+01 -7.371069000000000315e+00 1.021998592030008562e-01
8.214199999999999591e+01 5.024699999999999989e+01 2.817200000000000060e+01 -8.119709000000000287e+00 1.017564588503093725e-01
8.214900000000000091e+01 5.315299999999999869e+01 2.084900000000000020e+01 3.616946000000000083e+01 1.043570033184783447e-01
8.214900000000000091e+01 5.444599999999999795e+01 2.157000000000000028e+01 1.244583999999999913e+00 1.049904804462113705e-01
8.214900000000000091e+01 5.467300000000000182e+01 2.236899999999999977e+01 -9.083074999999999122e+00 1.049332889736989960e-01
8.215399999999999636e+01 4.467699999999999960e+01 -3.532899999999999929e-02 7.578250999999999737e-02 8.501378324270356113e-02
8.215399999999999636e+01 4.637700000000000244e+01 -3.532899999999999929e-02 -5.076899999999999746e-01 9.006915455512556901e-02
8.215699999999999648e+01 4.886399999999999721e+01 5.296000000000000263e+00 9.163088999999999373e+00 -1.545296401923592078e-01
8.215699999999999648e+01 5.293599999999999994e+01 2.959499999999999886e+01 1.147275999999999962e+00 1.028391632388028915e-01
8.215800000000000125e+01 5.525399999999999778e+01 3.265800000000000125e+01 7.693337999999999788e+00 1.034439177440533708e-01
8.215900000000000603e+01 4.334899999999999665e+01 2.768900000000000006e+01 -1.556821000000000010e+00 9.882384039266808862e-02
8.216299999999999670e+01 4.427100000000000080e+01 2.114000000000000057e+01 4.495625000000000426e+00 9.904736033454655808e-02
8.216899999999999693e+01 5.459899999999999665e+01 5.041500000000000092e+00 2.830166000000000182e+00 -1.502275405271855102e-01
8.216899999999999693e+01 4.135499999999999687e+01 2.858999999999999986e+01 -1.684846000000000066e+00 9.817038323131058175e-02
8.218099999999999739e+01 4.385999999999999943e+01 3.932599999999999874e+00 -6.501819000000000415e+01 9.393750535325763595e-02
8.218699999999999761e+01 2.915399999999999991e+01 2.719800000000000040e+01 2.392959000000000058e-02 -2.929123763845119521e-01
8.220099999999999341e+01 5.156099999999999994e+01 3.051599999999999824e+01 6.226364000000000232e+00 1.021725950963664475e-01
8.220099999999999341e+01 5.156099999999999994e+01 3.156599999999999895e+01 7.795930000000000248e+00 1.020977875617086195e-01
8.220499999999999829e+01 4.951599999999999824e+01 6.168599999999999639e+00 9.325008000000000408e+00 -1.545177857293265622e-01
8.220600000000000307e+01 4.488000000000000256e+01 9.824299999999999145e+00 -5.586880999999999986e+00 9.973534558812351125e-02
8.220799999999999841e+01 5.151400000000000290e+01 2.057499999999999929e+01 -1.685224000000000055e+00 1.033769794846476769e-01
8.221899999999999409e+01 4.338300000000000267e+01 1.147499999999999964e+00 -2.079628000000000032e+00 8.291422044430589444e-02
8.221999999999999886e+01 4.054999999999999716e+01 2.180600000000000094e+01 3.472180000000000177e+01 9.932293917619090806e-02
8.222400000000000375e+01 4.062400000000000233e+01 1.755799999999999983e+01 8.548303999999999903e-01 9.771010164654631014e-02
8.222599999999999909e+01 4.192099999999999937e+01 2.256500000000000128e+01 1.181726999999999972e+00 9.841326636750999390e-02
8.223000000000000398e+01 4.239999999999999858e+01 3.367000000000000171e+01 3.027911000000000019e+00 9.887924587183928582e-02
8.224500000000000455e+01 4.162700000000000244e+01 3.355499999999999972e+01 -3.356704000000000132e+00 9.865069351896030292e-02
8.224899999999999523e+01 4.600300000000000011e+01 9.080000000000000071e+00 1.530217000000000027e+01 -1.539942887901198654e-01
8.225400000000000489e+01 4.013100000000000023e+01 3.124299999999999855e+01 -2.532216000000000022e+00 9.803573101871487783e-02
8.226099999999999568e+01 5.612100000000000222e+01 3.079400000000000048e+01 -2.406721000000000110e+00 1.040456095483780208e-01
8.228199999999999648e+01 4.536699999999999733e+01 1.177699999999999925e+01 5.892790999999999890e+00 -1.534196590030043883e-01
8.229300000000000637e+01 4.843200000000000216e+01 4.698599999999999888e+00 2.266706999999999894e+01 -1.543770505762206979e-01
8.229500000000000171e+01 6.334199999999999875e+01 1.068800000000000061e+01 -1.408283999999999914e+01 -1.573012793227584194e-01
8.229800000000000182e+01 5.342399999999999949e+01 3.276899999999999835e+01 -2.395230000000000192e+00 1.027467485428095184e-01
8.229800000000000182e+01 5.512400000000000233e+01 3.001899999999999835e+01 -4.619477999999999973e+00 1.037476241206564398e-01
8.229999999999999716e+01 2.944800000000000040e+01 2.848600000000000065e+01 -5.121533999999999587e+00 -2.927800038680905548e-01
8.230299999999999727e+01 4.572299999999999898e+01 7.557999999999999829e+00 1.951913000000000054e+01 9.995574278489613440e-02
8.230599999999999739e+01 4.750099999999999767e+01 3.817699999999999871e+00 3.065782000000000096e+01 -1.541977979257183606e-01
8.230700000000000216e+01 4.570000000000000284e+01 9.779999999999999361e+00 3.570147000000000048e+01 -1.538159955091141229e-01
8.230899999999999750e+01 5.101700000000000301e+01 1.742299999999999827e+01 -1.614853000000000094e+01 1.036848545865435289e-01
8.231199999999999761e+01 4.043399999999999750e+01 3.054299999999999926e+01 -3.963067000000000117e+00 9.807787513159910153e-02
8.231900000000000261e+01 5.735300000000000153e+01 3.162900000000000134e+01 -6.103218000000000032e+00 1.044105217183290968e-01
8.232299999999999329e+01 5.151500000000000057e+01 6.308600000000000207e+00 6.310664000000000051e+00 -1.537571564669500401e-01
8.232800000000000296e+01 4.844700000000000273e+01 3.012699999999999889e+01 -1.938785999999999987e+01 1.009255017451043263e-01
8.233299999999999841e+01 4.559899999999999665e+01 6.627399999999999736e+00 6.045994999999999564e+00 9.918504672248344700e-02
8.233899999999999864e+01 2.965800000000000125e+01 2.801300000000000168e+01 -3.767157000000000089e+00 -2.929422271721265902e-01
8.234000000000000341e+01 4.600800000000000267e+01 8.363699999999999690e+00 1.435336000000000034e+01 -1.540192258067348829e-01
8.234300000000000352e+01 4.300900000000000034e+01 9.858000000000000540e+00 -6.286664000000000030e+00 9.643237668166879106e-02
8.234300000000000352e+01 4.394899999999999807e+01 9.858000000000000540e+00 -9.501376999999999740e+00 9.805389214017871946e-02
8.234600000000000364e+01 6.192600000000000193e+01 8.513700000000000045e+00 -5.561578000000000355e-01 -1.442315107839589050e-01
8.234799999999999898e+01 4.016700000000000159e+01 3.388600000000000279e+01 -1.566846999999999923e+01 9.830044525698430902e-02
8.234999999999999432e+01 5.582300000000000040e+01 1.509900000000000020e+01 5.249398000000000231e+00 1.079697747250932122e-01
8.235500000000000398e+01 2.820200000000000173e+01 2.722200000000000131e+01 -3.137849999999999806e+00 -2.926600231919390671e-01
8.235500000000000398e+01 4.703099999999999881e+01 2.223300000000000054e+01 -2.041666000000000025e+01 1.005468851670734409e-01
8.235599999999999454e+01 5.338499999999999801e+01 5.631000000000000227e+00 1.958465999999999951e+01 -1.516698993669337026e-01
8.237099999999999511e+01 4.495300000000000296e+01 4.105400000000000382e+00 -3.940945999999999838e+00 9.629982571356295040e-02
8.237300000000000466e+01 2.862199999999999989e+01 2.812900000000000134e+01 -1.106235999999999997e+00 -2.926220032167786700e-01
8.237500000000000000e+01 3.938300000000000267e+01 2.057300000000000040e+01 1.661526999999999976e+00 9.781128363454344443e-02
8.237600000000000477e+01 4.707900000000000063e+01 3.078300000000000125e+01 -2.686158000000000001e+01 1.003873936007039641e-01
8.238200000000000500e+01 5.118599999999999994e+01 2.686199999999999832e+01 -1.475188999999999950e+01 1.023510695181229641e-01
8.238200000000000500e+01 5.702400000000000091e+01 3.086899999999999977e+01 -5.960537999999999670e-01 1.044084644274826668e-01
8.238200000000000500e+01 5.702400000000000091e+01 3.238900000000000290e+01 -1.421033000000000079e+01 1.041734211758919004e-01
8.238700000000000045e+01 3.893699999999999761e+01 3.212299999999999756e+01 -1.133137000000000061e+00 9.782576418385872941e-02
8.238700000000000045e+01 3.893699999999999761e+01 3.306300000000000239e+01 -1.166895999999999933e+00 9.791693083785388274e-02
8.239600000000000080e+01 5.195100000000000051e+01 2.540200000000000102e+01 4.589246000000000159e+00 1.029047678520577380e-01
8.239700000000000557e+01 2.831099999999999994e+01 2.922500000000000142e+01 -1.386670999999999987e+00 -2.923497100847954888e-01
8.239900000000000091e+01 5.213300000000000267e+01 2.945899999999999963e+01 3.539744999999999919e+00 1.025362629163932005e-01
8.240600000000000591e+01 4.267999999999999972e+01 1.061800000000000033e+01 -5.549871999999999694e+00 9.634647556097213073e-02
8.241100000000000136e+01 4.288700000000000045e+01 2.807700000000000173e+01 -2.547191999999999901e+00 9.874099557305553165e-02
8.241100000000000136e+01 6.303300000000000125e+01 1.010500000000000043e+01 -4.584287999999999919e+00 -1.439401517397792263e-01
8.241100000000000136e+01 6.349600000000000222e+01 1.173499999999999943e+01 -1.237936000000000014e+01 -1.573791014762446205e-01
8.241299999999999670e+01 5.327600000000000335e+01 2.454500000000000171e+01 -5.150661999999999630e+00 1.037347986715912301e-01
8.242000000000000171e+01 6.120300000000000296e+01 1.441999999999999993e+01 -4.454207000000000249e+01 -1.468411763161058814e-01
8.242300000000000182e+01 5.754099999999999682e+01 4.166999999999999815e+00 5.608317999999999914e-01 -1.464026165948457969e-01
8.242400000000000659e+01 4.463400000000000034e+01 2.687999999999999901e+01 5.580376000000000225e+00 9.937736089506149506e-02
8.242700000000000671e+01 5.754399999999999693e+01 1.347100000000000009e+01 8.650287000000000504e+00 -1.497525656564639429e-01
8.242700000000000671e+01 5.991700000000000159e+01 1.343999999999999950e+01 -1.137030000000000030e+01 -1.477016701662772769e-01
8.243600000000000705e+01 6.259100000000000108e+01 1.355799999999999983e+01 -1.441391999999999918e+01 -1.455032533487772839e-01
8.243600000000000705e+01 2.830900000000000105e+01 3.072700000000000031e+01 1.332454000000000027e+00 -2.921321229989606305e-01
8.243800000000000239e+01 5.872699999999999676e+01 1.252599999999999980e+01 1.887688999999999950e+01 -1.485431666574104637e-01
8.243800000000000239e+01 6.037599999999999767e+01 7.921599999999999753e+00 1.177820000000000000e+01 -1.454289349851850266e-01
8.244100000000000250e+01 3.004799999999999827e+01 2.719800000000000040e+01 1.730771000000000059e+00 -1.488889127377302987e-02
8.244199999999999307e+01 5.200300000000000011e+01 6.469899999999999984e+00 1.008104999999999940e+01 -1.532749022995246735e-01
8.244299999999999784e+01 3.966299999999999670e+01 1.453700000000000081e+01 8.667638999999999427e+00 9.449740818894590555e-02
8.244299999999999784e+01 3.966299999999999670e+01 1.562500000000000000e+01 4.632848999999999995e-01 9.524629016581040442e-02
8.244400000000000261e+01 2.896900000000000119e+01 2.926099999999999923e+01 -3.409348000000000045e+00 -2.925423963500798363e-01
8.244700000000000273e+01 3.984400000000000119e+01 2.004100000000000037e+01 2.019185999999999925e+00 9.800520803234402667e-02
8.245099999999999341e+01 5.280199999999999960e+01 1.678699999999999903e+01 5.284315000000000317e+00 1.051644000759998504e-01
8.245499999999999829e+01 5.908899999999999864e+01 6.252600000000000158e+00 8.244441000000000130e+00 -1.459093588115694951e-01
8.245499999999999829e+01 5.929800000000000182e+01 6.988599999999999923e+00 1.971467000000000169e+01 -1.460637464278672915e-01
8.245499999999999829e+01 4.300000000000000000e+01 1.766000000000000014e+00 -1.464177000000000062e+00 8.293034187475170627e-02
8.245699999999999363e+01 5.106400000000000006e+01 2.776399999999999935e+01 -8.098568999999999463e+00 1.022205621668062364e-01
8.245999999999999375e+01 5.905700000000000216e+01 5.192700000000000315e+00 -8.448968000000000034e-01 -1.453663857311888186e-01
8.246099999999999852e+01 4.578999999999999915e+01 2.588899999999999935e+01 1.842858000000000107e+00 9.987299605489416421e-02
8.246200000000000330e+01 5.595400000000000063e+01 3.260000000000000142e+01 -2.966784999999999783e+00 1.037469721125304778e-01
8.246299999999999386e+01 4.258599999999999852e+01 1.151999999999999957e+01 -4.874357999999999969e+00 9.675103364705624209e-02
8.246399999999999864e+01 4.052400000000000091e+01 1.834600000000000009e+01 3.533495999999999859e-01 9.789917675334246228e-02
8.246899999999999409e+01 5.000099999999999767e+01 2.872599999999999909e+01 -6.186405999999999850e+00 1.016696290830796101e-01
8.247299999999999898e+01 5.945600000000000307e+01 2.372700000000000031e+01 6.432347000000000037e+00 1.071417398042656954e-01
8.247400000000000375e+01 4.531300000000000239e+01 1.052399999999999913e+01 1.484115000000000073e+01 -1.535440088602165187e-01
8.248000000000000398e+01 4.585300000000000153e+01 3.122599999999999909e+01 1.491212999999999944e+01 9.995657089327218692e-02
8.248199999999999932e+01 5.095700000000000074e+01 2.866799999999999926e+01 3.988710000000000200e+00 1.020996224571449063e-01
8.249099999999999966e+01 3.844700000000000273e+01 2.057300000000000040e+01 7.818156000000000549e-01 9.763800335609894299e-02
8.250199999999999534e+01 5.422500000000000142e+01 1.624299999999999855e+01 5.366982999999999615e-01 1.063779716741991566e-01
8.250499999999999545e+01 4.014800000000000324e+01 1.934100000000000108e+01 7.793932999999999556e-01 9.796281795912081813e-02
8.250600000000000023e+01 5.406199999999999761e+01 2.412099999999999866e+01 -1.878508000000000067e+01 1.042462874330869066e-01
8.250900000000000034e+01 5.021600000000000108e+01 6.226899999999999658e+00 -2.992666999999999966e+00 -1.542836888210806223e-01
8.251099999999999568e+01 4.429500000000000171e+01 1.058900000000000041e+01 -1.550163000000000046e+01 9.894487540806330694e-02
8.251200000000000045e+01 2.862900000000000134e+01 2.634799999999999898e+01 -5.535417000000000254e-01 -2.930150220610588385e-01
8.251200000000000045e+01 2.967899999999999849e+01 2.634799999999999898e+01 -7.632390000000000008e-02 -1.498294863648955144e-02
8.251399999999999579e+01 3.983500000000000085e+01 2.172299999999999898e+01 8.401517000000000124e+00 9.875119081682259825e-02
8.252299999999999613e+01 4.095000000000000284e+01 1.366900000000000048e+01 1.699297999999999931e+01 9.565584198564462681e-02
8.252599999999999625e+01 2.754500000000000171e+01 2.914199999999999946e+01 7.682326000000000432e-01 -2.921799157059564167e-01
8.252599999999999625e+01 5.208599999999999852e+01 3.241599999999999682e+01 1.210702000000000034e+01 1.022914077455611831e-01
8.252800000000000580e+01 5.116899999999999693e+01 2.942599999999999838e+01 3.256966999999999945e+00 1.021404334175172179e-01
8.253000000000000114e+01 5.518200000000000216e+01 4.355699999999999683e+00 2.450077999999999978e+00 -1.490495467005816255e-01
8.253100000000000591e+01 3.026300000000000168e+01 2.848600000000000065e+01 -1.580677000000000110e+00 -2.595108641981943021e-01
8.253400000000000603e+01 4.310000000000000142e+01 3.372899999999999920e+01 1.416559999999999953e+01 9.915576420327562590e-02
8.253400000000000603e+01 4.433800000000000097e+01 3.372899999999999920e+01 1.792124000000000095e+01 9.953532436077426604e-02
8.254900000000000659e+01 2.881500000000000128e+01 3.003999999999999915e+01 4.264319999999999916e-02 -2.923997202823347408e-01
8.254900000000000659e+01 4.493399999999999750e+01 1.107699999999999996e+01 -3.426823999999999870e+00 -1.533459394622576633e-01
8.254900000000000659e+01 4.493399999999999750e+01 1.247700000000000031e+01 2.091494000000000142e+01 -1.530759577550801498e-01
8.254900000000000659e+01 4.579999999999999716e+01 1.107699999999999996e+01 2.408160000000000167e+01 -1.534855491304254471e-01
8.254900000000000659e+01 4.579999999999999716e+01 1.247700000000000031e+01 1.058207999999999949e+01 -1.532037397169954129e-01
8.255100000000000193e+01 5.684700000000000131e+01 4.182699999999999640e+00 1.995397000000000087e+00 -1.471363637242592559e-01
8.255200000000000671e+01 4.147599999999999909e+01 2.242899999999999849e+01 1.181726999999999972e+00 9.877186574806427755e-02
8.255400000000000205e+01 5.250300000000000011e+01 2.910399999999999920e+01 3.539744999999999919e+00 1.027560419288510440e-01
8.256000000000000227e+01 4.620799999999999841e+01 1.184900000000000020e+01 1.533470999999999940e+01 -1.533838712783953395e-01
8.256399999999999295e+01 4.205400000000000205e+01 1.228299999999999947e+01 9.611484000000000805e+00 9.635851312623791576e-02
8.256399999999999295e+01 4.734300000000000352e+01 1.411000000000000032e+00 -2.598160000000000025e+00 -1.638848194715263606e-01
8.256900000000000261e+01 4.275999999999999801e+01 2.189000000000000057e+01 -9.485443999999999320e+00 9.847372072552815214e-02
8.256900000000000261e+01 4.395100000000000051e+01 2.122599999999999909e+01 9.412036999999999765e+00 9.902906784930018413e-02
8.257299999999999329e+01 4.706900000000000261e+01 2.252400000000000180e+00 -1.848934000000000077e+00 -1.655198079021053537e-01
8.257299999999999329e+01 4.706900000000000261e+01 3.117700000000000138e+00 1.667429999999999879e+01 9.998437369529969421e-02
8.257599999999999341e+01 5.058400000000000318e+01 1.812300000000000111e+01 -1.680959999999999965e+01 1.032847024712349737e-01
8.257699999999999818e+01 4.632699999999999818e+01 8.746000000000000441e+00 2.866422000000000025e+01 -1.538872963475363398e-01
8.257999999999999829e+01 5.736899999999999977e+01 2.500700000000000145e+01 2.703939999999999788e+00 1.057670911284276649e-01
8.258100000000000307e+01 2.775499999999999901e+01 3.003500000000000014e+01 1.024051999999999962e+00 -2.921189369740505581e-01
8.258299999999999841e+01 2.731299999999999883e+01 2.832700000000000173e+01 -6.259741000000000610e-02 -2.922590042902903362e-01
8.258400000000000318e+01 3.932399999999999807e+01 3.129599999999999937e+01 -3.836860000000000270e-01 9.789980933123718088e-02
8.258899999999999864e+01 5.058599999999999852e+01 1.907100000000000151e+01 -2.011514000000000024e+01 1.031129491371656215e-01
8.259399999999999409e+01 4.703600000000000136e+01 3.747400000000000175e-01 -1.363145000000000051e+00 9.078752353835996269e-02
8.259600000000000364e+01 4.497099999999999653e+01 2.140800000000000125e+01 -4.955649000000000193e+00 9.955334901420523352e-02
8.259600000000000364e+01 2.992699999999999960e+01 2.926099999999999923e+01 2.259521999999999919e-01 -2.928500154122338772e-01
8.259799999999999898e+01 5.862899999999999778e+01 2.369399999999999906e+01 2.495178999999999814e+00 1.067450327500135271e-01
8.260099999999999909e+01 5.272399999999999665e+01 3.271099999999999852e+01 9.584983000000000253e-01 1.025228884408679875e-01
8.260200000000000387e+01 5.079699999999999704e+01 1.989000000000000057e+01 -5.037935000000000230e+01 1.031091504193276664e-01
8.260599999999999454e+01 4.628099999999999881e+01 2.211700000000000088e+01 -1.428734999999999999e+01 1.002220454048428494e-01
8.260699999999999932e+01 4.768099999999999739e+01 2.363299999999999912e+01 -4.233170000000000321e+00 1.008850493569366097e-01
8.260699999999999932e+01 5.250800000000000267e+01 2.071099999999999852e+01 -1.070655999999999969e-01 1.040386465038328073e-01
8.261299999999999955e+01 2.780900000000000105e+01 2.800400000000000134e+01 -6.379388999999999754e-01 -2.924684907482862917e-01
8.261299999999999955e+01 5.149799999999999756e+01 2.642200000000000060e+01 -2.128591000000000122e+00 1.025878478843259278e-01
8.261499999999999488e+01 3.837299999999999756e+01 1.982900000000000063e+01 9.220536999999999761e-01 9.755430335554138299e-02
8.262099999999999511e+01 5.396600000000000108e+01 2.103600000000000136e+01 9.447452999999999435e+00 1.048682138135406949e-01
8.262600000000000477e+01 5.081499999999999773e+01 6.250300000000000189e+00 -4.762818999999999803e-01 -1.540964363520148095e-01
8.262800000000000011e+01 4.415899999999999892e+01 1.167300000000000004e+01 2.272135000000000105e+01 9.923102652344091557e-02
8.263200000000000500e+01 5.900000000000000000e+01 2.453999999999999915e+01 5.184489000000000125e+00 1.066820995525636223e-01
8.263299999999999557e+01 4.347899999999999920e+01 1.061800000000000033e+01 -1.926427999999999940e+01 9.754022881638421683e-02
8.263899999999999579e+01 4.019599999999999795e+01 1.686499999999999844e+01 2.403814999999999813e+00 9.661437302279680950e-02
8.263899999999999579e+01 4.082200000000000273e+01 2.902100000000000080e+01 -1.479254999999999987e+00 9.816111099488745995e-02
8.263899999999999579e+01 4.211500000000000199e+01 2.830000000000000071e+01 -2.225398999999999905e+00 9.854118404908610018e-02
8.264100000000000534e+01 3.990800000000000125e+01 3.084499999999999886e+01 -8.654020999999999519e-01 9.803648600604351893e-02
8.264300000000000068e+01 3.895100000000000051e+01 1.975799999999999912e+01 7.698015000000000274e-01 9.683073171493850051e-02
8.264499999999999602e+01 5.099799999999999756e+01 3.114699999999999847e+01 5.640600000000000058e+00 1.019670823742267196e-01
8.265200000000000102e+01 6.314099999999999824e+01 1.255000000000000071e+01 5.843777999999999473e-01 -1.584998510314170050e-01
8.265699999999999648e+01 3.992399999999999949e+01 1.869000000000000128e+01 1.544337000000000071e-01 9.731160404354645410e-02
8.266100000000000136e+01 4.349499999999999744e+01 1.151800000000000068e+01 -1.414825000000000088e+01 9.808061728195989482e-02
8.266200000000000614e+01 4.332600000000000051e+01 3.378099999999999881e+00 -3.038420999999999950e+01 7.939182321561166766e-02
8.266500000000000625e+01 4.397699999999999676e+01 5.985700000000000465e-01 -4.201149000000000133e-01 8.332016989044808974e-02
8.267100000000000648e+01 4.711599999999999966e+01 2.529200000000000159e+01 -5.903728000000000309e-01 1.005489402574628877e-01
8.267700000000000671e+01 3.940699999999999648e+01 3.382300000000000040e+01 -3.264085999999999821e+00 9.817351480022153132e-02
8.267700000000000671e+01 4.092699999999999960e+01 3.382300000000000040e+01 -1.098051000000000066e+01 9.857181737186963832e-02
8.267900000000000205e+01 4.552700000000000102e+01 -3.599999999999999867e-01 -1.054076000000000013e+00 8.887081445973818439e-02
8.268600000000000705e+01 4.446300000000000097e+01 1.237299999999999933e+01 2.846289000000000158e+01 -1.529545018970662473e-01
8.268999999999999773e+01 4.982800000000000296e+01 2.941199999999999903e+01 -3.219133999999999940e+00 1.015947206590829960e-01
8.268999999999999773e+01 2.741499999999999915e+01 3.072700000000000031e+01 1.529754999999999976e+00 -2.919593893880127466e-01
8.268999999999999773e+01 2.920299999999999940e+01 3.072700000000000031e+01 1.613569999999999949e+00 -2.924331221986957163e-01
8.269199999999999307e+01 5.116400000000000148e+01 3.008299999999999841e+01 2.010578999999999894e+00 1.021145936692988282e-01
8.270399999999999352e+01 6.027100000000000080e+01 2.372700000000000031e+01 3.660546000000000078e+00 1.075214363303030191e-01
8.271200000000000330e+01 5.427400000000000091e+01 2.960300000000000153e+01 -3.408585000000000087e-01 1.034864677354161017e-01
8.271399999999999864e+01 3.941199999999999903e+01 1.934100000000000108e+01 6.831610000000000182e-01 9.707234844865106349e-02
8.271500000000000341e+01 4.022800000000000153e+01 1.798999999999999844e+01 3.876476999999999840e-01 9.725729431697151262e-02
8.271500000000000341e+01 4.299600000000000222e+01 2.571400000000000130e+00 -7.260701000000000072e+00 8.173406568685012696e-02
8.271800000000000352e+01 5.824900000000000233e+01 2.505999999999999872e+01 2.638490000000000002e+00 1.061838207869874456e-01
8.272299999999999898e+01 5.181700000000000017e+01 2.855799999999999983e+01 5.438931000000000182e+00 1.025315387907233394e-01
8.272400000000000375e+01 5.277199999999999847e+01 2.535900000000000176e+01 9.211062000000000083e+00 1.033813334578797677e-01
8.273099999999999454e+01 3.891199999999999903e+01 2.153099999999999881e+01 -1.432142999999999944e+00 9.766712193132123798e-02
8.273300000000000409e+01 4.378900000000000148e+01 3.386399999999999721e+01 1.379293999999999976e+01 9.941226445121928434e-02
8.274099999999999966e+01 5.802700000000000102e+01 1.258399999999999963e+01 3.477519999999999811e+01 -1.490763120880921888e-01
8.274099999999999966e+01 5.942699999999999960e+01 1.258399999999999963e+01 2.706901999999999830e+01 -1.478565864173781719e-01
8.274099999999999966e+01 4.637899999999999778e+01 3.093900000000000006e+01 -1.163768999999999920e+01 1.002002976478479634e-01
8.274500000000000455e+01 3.755299999999999727e+01 2.057300000000000040e+01 -2.253556999999999810e+00 9.866074181210564287e-02
8.274500000000000455e+01 5.270300000000000296e+01 6.411599999999999966e+00 9.815348000000000184e+00 -1.523830642287855031e-01
8.275000000000000000e+01 4.916499999999999915e+01 2.982999999999999829e+01 -1.260491000000000028e+01 1.013088178433575459e-01
8.275000000000000000e+01 2.699399999999999977e+01 2.703800000000000026e+01 -2.003516999999999992e+00 -2.924342955312581593e-01
8.275400000000000489e+01 5.783700000000000330e+01 2.413500000000000156e+01 1.050778999999999996e+01 1.062290142151049999e-01
8.275799999999999557e+01 3.775699999999999790e+01 1.968700000000000117e+01 3.073147999999999991e-01 9.826118674622011384e-02
8.276000000000000512e+01 5.538300000000000267e+01 1.575799999999999912e+01 -2.039670000000000094e+00 1.073805476760609084e-01
8.276099999999999568e+01 2.778399999999999892e+01 3.157700000000000173e+01 4.095434000000000019e+00 -2.919626751041696222e-01
8.276399999999999579e+01 3.878799999999999670e+01 1.912900000000000134e+01 -2.061845999999999957e-01 9.685913940451763848e-02
8.276699999999999591e+01 2.675700000000000145e+01 2.751699999999999946e+01 -2.605801000000000034e+00 -2.922821591775058292e-01
8.276900000000000546e+01 5.897699999999999676e+01 2.295200000000000173e+01 1.613316999999999979e+01 1.071386163005314252e-01
8.276900000000000546e+01 5.993500000000000227e+01 2.295200000000000173e+01 1.510692000000000057e+01 1.076076298243453522e-01
8.276900000000000546e+01 5.993500000000000227e+01 2.450199999999999889e+01 4.021043999999999841e+01 1.071280340970650613e-01
8.276999999999999602e+01 5.687500000000000000e+01 2.587699999999999889e+01 6.230372000000000021e+00 1.053308939290702878e-01
8.277400000000000091e+01 5.848400000000000176e+01 4.283900000000000041e+00 3.051159999999999872e+00 -1.453975336020707221e-01
8.277400000000000091e+01 4.495600000000000307e+01 3.272800000000000153e+01 1.881290999999999869e+01 9.974601703584502765e-02
8.278600000000000136e+01 4.706300000000000239e+01 8.746000000000000441e+00 2.516960999999999871e+01 -1.538530980784600100e-01
8.278700000000000614e+01 5.192000000000000171e+01 1.714099999999999824e+01 -5.935558999999999585e+00 1.044697551716471384e-01
8.278900000000000148e+01 5.408500000000000085e+01 5.211999999999999744e+00 4.596299000000000134e+00 -1.505037889799690221e-01
8.279200000000000159e+01 5.654099999999999682e+01 3.034799999999999898e+01 -7.945913000000000004e-01 1.043302469894896445e-01
8.279399999999999693e+01 4.611999999999999744e+01 7.125399999999999956e+00 1.031508000000000003e+01 -1.538378384714957359e-01
8.280200000000000671e+01 5.154599999999999937e+01 2.780499999999999972e+01 4.101046000000000191e+00 1.024951130414179234e-01
8.280400000000000205e+01 4.425300000000000011e+01 3.838000000000000078e+00 -1.324117000000000033e+01 9.439238830006783931e-02
8.280400000000000205e+01 4.544400000000000261e+01 4.501999999999999780e+00 6.290060999999999680e+00 9.727374746123243487e-02
8.280400000000000205e+01 4.565299999999999869e+01 5.238000000000000433e+00 3.205803999999999832e+01 9.812860427046399270e-02
8.280500000000000682e+01 5.715899999999999892e+01 1.381900000000000084e+01 1.255395999999999956e+00 -1.499812791105007426e-01
8.280500000000000682e+01 5.492499999999999716e+01 1.618499999999999872e+01 7.223646999999999707e-01 1.069043011468542026e-01
8.281300000000000239e+01 5.655400000000000205e+01 3.292199999999999704e+01 -2.380925999999999831e+01 1.039587636722694858e-01
8.281600000000000250e+01 3.792199999999999704e+01 2.142299999999999827e+01 -1.374862000000000029e+00 9.835680248269507153e-02
8.281600000000000250e+01 2.957000000000000028e+01 3.008399999999999963e+01 -1.606058999999999903e+00 -2.926638420273209307e-01
8.281799999999999784e+01 4.657200000000000273e+01 9.531200000000000117e+00 2.064927000000000135e+01 -1.536857954128802439e-01
8.282299999999999329e+01 5.427400000000000091e+01 3.309400000000000119e+01 -3.321165999999999840e+00 1.030969761887985114e-01
8.283400000000000318e+01 5.647500000000000142e+01 2.500700000000000145e+01 5.436704999999999899e+00 1.053369047773324435e-01
8.283700000000000330e+01 2.641900000000000048e+01 2.832700000000000173e+01 6.300814000000000137e-01 -2.920694380610240337e-01
8.283700000000000330e+01 4.704800000000000182e+01 1.191999999999999993e+01 1.866131999999999991e+01 -1.533162349237840172e-01
8.283799999999999386e+01 4.658200000000000074e+01 7.988500000000000156e+00 1.557362000000000002e+01 -1.538326351728076247e-01
8.283899999999999864e+01 5.330899999999999750e+01 2.906700000000000017e+01 3.582762999999999920e+00 1.031516786701751620e-01
8.284300000000000352e+01 4.526400000000000290e+01 3.180699999999999861e+01 1.422696000000000005e+01 9.983812745417297574e-02
8.284600000000000364e+01 4.783899999999999864e+01 3.049299999999999855e+01 -1.713451999999999842e+01 1.007773495942351494e-01
8.285099999999999909e+01 6.073299999999999699e+01 1.388700000000000045e+01 -2.871243000000000123e+01 -1.470293155240520455e-01
8.285099999999999909e+01 6.167300000000000182e+01 1.388700000000000045e+01 -3.757363000000000142e+01 -1.462736728266710584e-01
8.285200000000000387e+01 5.498499999999999943e+01 2.965200000000000102e+01 -3.357809000000000044e+00 1.037969858056503325e-01
8.285200000000000387e+01 5.778399999999999892e+01 3.115899999999999892e+01 -8.854799999999999116e+00 1.046909885652775596e-01
8.285200000000000387e+01 5.778399999999999892e+01 3.209899999999999665e+01 -2.536236999999999853e+01 1.045364538562101597e-01
8.287000000000000455e+01 5.518699999999999761e+01 2.634299999999999997e+01 2.834807000000000077e+00 1.044321699720642815e-01
8.287099999999999511e+01 6.107600000000000051e+01 8.189000000000000057e+00 2.409530000000000172e+00 -1.448393692990354586e-01
8.287099999999999511e+01 6.252199999999999847e+01 8.995300000000000296e+00 -1.479970999999999925e+00 -1.439004833464320454e-01
8.287399999999999523e+01 2.887300000000000111e+01 3.173600000000000065e+01 8.315872999999999848e+00 -2.922465061690279198e-01
8.287500000000000000e+01 5.667300000000000182e+01 1.477399999999999913e+01 3.971703000000000205e+00 1.086568908169540937e-01
8.287900000000000489e+01 5.983700000000000330e+01 7.455099999999999838e+00 1.103467000000000020e+01 -1.456790175127312958e-01
8.289000000000000057e+01 4.400500000000000256e+01 1.229700000000000060e+01 1.062781999999999982e+01 9.915118741820928838e-02
8.289400000000000546e+01 2.738500000000000156e+01 2.630000000000000071e+01 -1.190760000000000041e+00 -2.927387350014542533e-01
8.289499999999999602e+01 4.674499999999999744e+01 1.122000000000000064e+01 2.520752999999999844e+01 -1.533949822563385745e-01
8.289499999999999602e+01 4.674499999999999744e+01 1.261999999999999922e+01 1.470757000000000048e+01 -1.531123453536273327e-01
8.290200000000000102e+01 5.267699999999999960e+01 2.832999999999999829e+01 6.587195999999999607e+00 1.029669086714994075e-01
8.290200000000000102e+01 3.790800000000000125e+01 1.907600000000000051e+01 -8.359352999999999922e-02 9.793293283412007888e-02
8.290500000000000114e+01 5.684400000000000119e+01 2.415700000000000003e+01 7.647821000000000424e+00 1.057286137002153292e-01
8.290500000000000114e+01 5.789399999999999835e+01 2.585699999999999932e+01 9.736962999999999369e+00 1.058215687479007600e-01
8.290500000000000114e+01 4.325399999999999778e+01 2.770599999999999952e+01 -1.406609999999999916e+00 9.899354810076307909e-02
8.290500000000000114e+01 4.444500000000000028e+01 2.704200000000000159e+01 1.952131999999999978e+00 9.943313563085061368e-02
8.290500000000000114e+01 4.066199999999999903e+01 2.221099999999999852e+01 2.776908000000000154e+00 9.932933848478245342e-02
8.290600000000000591e+01 4.601299999999999812e+01 1.025699999999999967e+01 1.971314999999999884e+01 -1.534630709640638635e-01
8.290800000000000125e+01 2.678800000000000026e+01 2.917699999999999960e+01 1.511811000000000016e+00 -2.920647239383544203e-01
8.290900000000000603e+01 4.034000000000000341e+01 3.014499999999999957e+01 -1.444253000000000009e+00 9.817355682880803125e-02
8.291100000000000136e+01 4.438700000000000045e+01 1.307499999999999929e+01 1.697909999999999897e+01 -1.526998741674392424e-01
8.291599999999999682e+01 5.355499999999999972e+01 1.649899999999999878e+01 4.352903999999999662e+00 1.058257600272460852e-01
8.291700000000000159e+01 5.509199999999999875e+01 3.308299999999999841e+01 -1.855472999999999928e+00 1.034104080201214415e-01
8.291700000000000159e+01 4.506300000000000239e+01 1.322899999999999920e+01 2.164158000000000115e+01 -1.527700532270228062e-01
8.291700000000000159e+01 4.592799999999999727e+01 1.322899999999999920e+01 2.281465999999999994e+01 -1.528826114122697477e-01
8.291899999999999693e+01 5.444700000000000273e+01 2.180600000000000094e+01 -4.113075000000000259e+00 1.049971266749647469e-01
8.292400000000000659e+01 4.997599999999999909e+01 5.823299999999999699e+00 6.449728000000000128e-01 -1.540080368733169058e-01
8.292600000000000193e+01 4.892199999999999704e+01 5.102599999999999802e+00 1.315994000000000064e+01 -1.539848767189659906e-01
8.292799999999999727e+01 4.299699999999999989e+01 1.221799999999999997e+01 1.166114999999999924e+01 9.756432712489890302e-02
8.293500000000000227e+01 4.552100000000000080e+01 2.205399999999999849e+01 -7.651082999999999856e+00 9.992840106030959069e-02
8.293800000000000239e+01 4.754899999999999949e+01 2.459199999999999875e+01 -3.821022999999999836e+00 1.008510506461656464e-01
8.293999999999999773e+01 4.524600000000000222e+01 2.632799999999999940e+01 7.030535999999999675e+00 9.976337611370436620e-02
8.295000000000000284e+01 4.568299999999999983e+01 6.154700000000000060e+00 5.682316999999999751e+01 9.860533382046857143e-02
8.295600000000000307e+01 4.025000000000000000e+01 1.393599999999999994e+01 4.319543000000000355e+00 9.468787152156508957e-02
8.296599999999999397e+01 2.709100000000000108e+01 2.987699999999999889e+01 1.445468999999999893e+00 -2.920617643211740333e-01
8.296599999999999397e+01 4.239999999999999858e+01 3.346099999999999852e+01 4.364639000000000379e+00 9.902518726643165514e-02
8.296899999999999409e+01 4.637100000000000222e+01 2.549699999999999989e+01 1.082191000000000081e+01 1.002717299034968645e-01
8.297700000000000387e+01 5.022800000000000153e+01 3.016499999999999915e+01 3.417867000000000127e-02 1.017680083767440458e-01
8.298099999999999454e+01 4.153799999999999670e+01 1.317099999999999937e+01 8.506907999999999248e+00 9.597188652546141674e-02
