5.750099999999999767e+01 8.374200000000000443e+01 1.000499999999999972e+02 -1.751856000000000080e+01 -7.649608878432112569e-02
5.750699999999999790e+01 8.092499999999999716e+01 9.929500000000000171e+01 -4.652468999999999966e+00 -7.653003039516718953e-02
5.750699999999999790e+01 8.179000000000000625e+01 9.929500000000000171e+01 -8.960815000000000197e+00 -7.650874488911878213e-02
5.751200000000000045e+01 5.157800000000000296e+01 9.916800000000000637e+01 -1.835823999999999856e+01 2.147489464779414950e-02
5.751299999999999812e+01 8.292100000000000648e+01 1.076200000000000045e+02 -6.383238999999999663e+00 -7.668320920398162543e-02
5.751299999999999812e+01 8.292100000000000648e+01 1.103700000000000045e+02 -1.008075000000000010e+01 -7.671055809501843570e-02
5.751400000000000290e+01 5.295600000000000307e+01 1.219200000000000017e+02 -4.333078999999999681e+00 9.131133809406111190e-02
5.751500000000000057e+01 7.614400000000000546e+01 1.209300000000000068e+02 -1.275581000000000031e+01 1.000169534608470190e-01
5.752000000000000313e+01 7.761499999999999488e+01 8.864700000000000557e+01 -1.054570000000000007e+01 -6.583944721669801603e-02
5.752100000000000080e+01 8.069299999999999784e+01 9.409999999999999432e+01 -1.827206999999999937e+01 1.755863923695119566e-02
5.752300000000000324e+01 7.300900000000000034e+01 8.918800000000000239e+01 -1.521597000000000044e+01 -6.650180824652164591e-02
5.752300000000000324e+01 8.198199999999999932e+01 1.056599999999999966e+02 -1.678385000000000016e+00 -7.666748561237715642e-02
5.752300000000000324e+01 8.198199999999999932e+01 1.065300000000000011e+02 -7.560942999999999969e-01 -7.667744168697326890e-02
5.752600000000000335e+01 7.492000000000000171e+01 1.042800000000000011e+02 2.588125000000000142e+01 1.670822760793798725e-02
5.752799999999999869e+01 7.198300000000000409e+01 1.226599999999999966e+02 -7.967179999999999929e+00 9.805258369655496520e-02
5.752900000000000347e+01 6.766200000000000614e+01 7.984000000000000341e+01 3.868793000000000148e+00 -6.690122565411750488e-02
5.752900000000000347e+01 6.921200000000000330e+01 7.984000000000000341e+01 2.497124000000000166e+01 -6.675230925850364483e-02
5.753199999999999648e+01 7.476699999999999591e+01 9.834499999999999886e+01 -4.269691000000000258e+01 1.360443308274511022e-02
5.753900000000000148e+01 7.381100000000000705e+01 1.204200000000000017e+02 6.876050000000000217e+00 9.952699338358420023e-02
5.754399999999999693e+01 7.770799999999999841e+01 1.205400000000000063e+02 -2.000592999999999932e+01 1.005505888919991653e-01
5.754599999999999937e+01 6.492700000000000671e+01 8.040600000000000591e+01 -1.314716999999999913e+01 2.355425370648221023e-02
5.754899999999999949e+01 7.199200000000000443e+01 1.325399999999999920e+02 -1.395509000000000022e+01 9.487460524804434969e-02
5.755199999999999960e+01 5.047899999999999920e+01 9.965200000000000102e+01 -1.406490999999999936e+01 2.164875014027328737e-02
5.755499999999999972e+01 7.654000000000000625e+01 9.791299999999999670e+01 -5.149291999999999980e+00 1.132719901851586379e-02
5.755799999999999983e+01 5.433100000000000307e+01 1.228400000000000034e+02 8.772669999999999746e+00 9.160685612619731688e-02
5.756000000000000227e+01 6.956300000000000239e+01 1.082500000000000000e+02 2.443158000000000030e+01 -7.664577171680324319e-02
5.756000000000000227e+01 7.918800000000000239e+01 9.962199999999999989e+01 1.444464000000000026e-01 -7.658847693831469239e-02
5.756700000000000017e+01 8.119700000000000273e+01 9.065399999999999636e+01 -6.008054999999999701e+00 -6.555610894909891240e-02
5.756799999999999784e+01 7.363400000000000034e+01 9.910399999999999920e+01 -4.612839000000000245e-01 1.295393036214690166e-02
5.756799999999999784e+01 7.363400000000000034e+01 9.996899999999999409e+01 -5.418361000000000011e-02 1.307477421458527224e-02
5.757099999999999795e+01 4.611500000000000199e+01 9.334000000000000341e+01 -6.697670999999999708e+00 1.101314450122616445e-01
5.757600000000000051e+01 5.583700000000000330e+01 1.229399999999999977e+02 2.703739999999999810e+00 9.204358658015178440e-02
5.758100000000000307e+01 6.971899999999999409e+01 1.275000000000000000e+02 -1.587245999999999935e+00 9.568870590648453911e-02
5.758200000000000074e+01 4.624499999999999744e+01 9.227599999999999625e+01 -6.827021000000000228e+00 1.102968215417535758e-01
5.758700000000000330e+01 7.096899999999999409e+01 8.558100000000000307e+01 -1.699997000000000114e+01 -6.668337962582542022e-02
5.759100000000000108e+01 8.154399999999999693e+01 9.403100000000000591e+01 -4.000377000000000294e+01 -6.550477910859266173e-02
5.759300000000000352e+01 7.170799999999999841e+01 1.179399999999999977e+02 9.322357999999999478e-01 9.969047217433808783e-02
5.759599999999999653e+01 7.959999999999999432e+01 9.869700000000000273e+01 -5.657078000000000106e-02 -7.653737872415508625e-02
5.759599999999999653e+01 5.413600000000000279e+01 1.122099999999999937e+02 6.118979999999999642e+00 8.945404763830237804e-02
5.759599999999999653e+01 7.357899999999999352e+01 1.196099999999999994e+02 2.413396999999999792e+00 9.975634317692587405e-02
5.759599999999999653e+01 7.505100000000000193e+01 1.196099999999999994e+02 -3.524169000000000107e+00 1.002289558719196838e-01
5.759899999999999665e+01 5.606900000000000261e+01 8.330700000000000216e+01 -3.938244000000000078e+00 -6.149700601758937429e-02
5.760300000000000153e+01 7.068000000000000682e+01 8.371899999999999409e+01 7.549662999999999791e+00 -6.667599702650345295e-02
5.760399999999999920e+01 6.910699999999999932e+01 1.255000000000000000e+02 -5.296490000000000364e+00 9.609897765451710927e-02
5.760399999999999920e+01 7.161499999999999488e+01 1.245499999999999972e+02 8.585443999999999676e+01 9.724469850382939928e-02
5.760699999999999932e+01 7.168800000000000239e+01 1.318499999999999943e+02 3.419710999999999723e-01 9.499011456081254967e-02
5.761699999999999733e+01 4.692900000000000205e+01 1.072999999999999972e+02 -9.404358000000000217e+00 1.806579398946117077e-01
5.761899999999999977e+01 7.345600000000000307e+01 1.318700000000000045e+02 -1.146326999999999963e+01 9.539978927956155319e-02
5.761899999999999977e+01 5.539600000000000080e+01 8.308199999999999363e+01 2.020361999999999991e+00 -6.136326582539096408e-02
5.762299999999999756e+01 6.630800000000000693e+01 1.242699999999999960e+02 4.208127000000000173e+00 9.546732213404289513e-02
5.763199999999999790e+01 4.720300000000000296e+01 9.595499999999999829e+01 -1.397387999999999941e+01 1.097988738706425493e-01
5.763199999999999790e+01 4.872299999999999898e+01 9.595499999999999829e+01 -3.838412000000000290e+01 1.098848538560894400e-01
5.763300000000000267e+01 7.231699999999999307e+01 1.317800000000000011e+02 -1.059359000000000073e+01 9.516141905532383982e-02
5.763499999999999801e+01 5.535399999999999920e+01 1.114000000000000057e+02 -5.735204000000000413e+00 8.995548897008268097e-02
5.763600000000000279e+01 5.656199999999999761e+01 1.258799999999999955e+02 -9.751545000000000130e+00 9.189002300795381939e-02
5.764300000000000068e+01 7.146500000000000341e+01 8.527599999999999625e+01 -1.700938000000000017e+01 -6.661514148193004026e-02
5.764399999999999835e+01 7.287000000000000455e+01 1.262099999999999937e+02 2.651026000000000077e-02 9.704629751271567906e-02
5.764500000000000313e+01 7.353799999999999670e+01 1.064000000000000057e+02 -2.115097000000000094e+01 1.824017096244136618e-02
5.764699999999999847e+01 6.190500000000000114e+01 1.259500000000000028e+02 3.847736999999999963e+00 9.352515089801941017e-02
5.765400000000000347e+01 5.443900000000000006e+01 1.129099999999999966e+02 9.794463000000000363e+00 8.934823152631679588e-02
5.765500000000000114e+01 7.474699999999999989e+01 1.189099999999999966e+02 -9.657014000000000209e+00 1.004003191845161680e-01
5.765500000000000114e+01 5.445600000000000307e+01 1.113499999999999943e+02 1.967783999999999978e+01 8.975465218283673607e-02
5.766100000000000136e+01 6.090200000000000102e+01 1.289900000000000091e+02 -1.374933000000000050e+01 9.267218359876358558e-02
5.766100000000000136e+01 6.336200000000000188e+01 1.280500000000000114e+02 -3.588186000000000320e+01 9.357100473768584226e-02
5.766100000000000136e+01 6.336200000000000188e+01 1.289900000000000091e+02 -4.993533999999999651e+01 9.338315266000221659e-02
5.766499999999999915e+01 7.358899999999999864e+01 1.325399999999999920e+02 -2.451319000000000159e+01 9.524368516707650001e-02
5.766799999999999926e+01 7.135899999999999466e+01 1.237699999999999960e+02 3.077268000000000114e+01 9.743093874900432549e-02
5.766899999999999693e+01 5.167699999999999960e+01 1.120799999999999983e+02 4.266117000000000381e+00 8.897295379987388286e-02
5.767000000000000171e+01 8.120799999999999841e+01 1.038100000000000023e+02 -6.111403000000000141e+00 -7.665012623038243433e-02
5.767000000000000171e+01 8.395799999999999841e+01 1.038100000000000023e+02 -1.216633000000000031e+01 -7.663194935548869879e-02
5.767099999999999937e+01 7.427200000000000557e+01 1.325699999999999932e+02 -1.186536999999999953e+00 9.538333683446800770e-02
5.767600000000000193e+01 5.781600000000000250e+01 1.267199999999999989e+02 4.906204000000000320e+01 9.214061705428569504e-02
5.767699999999999960e+01 4.737599999999999767e+01 9.115000000000000568e+01 -7.492272999999999961e+00 1.105477814549500615e-01
5.767999999999999972e+01 7.173799999999999955e+01 1.254599999999999937e+02 7.163399000000000072e+00 9.696647645568713669e-02
5.767999999999999972e+01 7.039000000000000057e+01 1.149599999999999937e+02 2.573946999999999985e+00 1.001039229507678235e-01
5.768099999999999739e+01 4.692300000000000182e+01 1.055000000000000000e+02 -6.854388000000000147e+00 1.029910315596797334e-02
5.768599999999999994e+01 5.935900000000000176e+01 1.265499999999999972e+02 -1.095018999999999920e+01 9.261997554403578192e-02
5.768599999999999994e+01 6.554200000000000159e+01 8.027899999999999636e+01 -6.129808999999999841e+00 2.384726497421773075e-02
5.768699999999999761e+01 7.876699999999999591e+01 1.194399999999999977e+02 -2.083495999999999881e+01 1.011838959606514710e-01
5.768800000000000239e+01 7.982999999999999829e+01 1.063100000000000023e+02 1.593704999999999927e+01 -7.668848158514138258e-02
5.769200000000000017e+01 6.701500000000000057e+01 8.026099999999999568e+01 -3.835980999999999863e+00 -6.696537713449543516e-02
5.769299999999999784e+01 8.039600000000000080e+01 1.102300000000000040e+02 5.012189999999999701e-01 -7.672381345520619400e-02
5.769500000000000028e+01 4.647599999999999909e+01 1.079599999999999937e+02 -1.672840000000000060e+01 1.806270091271882372e-01
5.769899999999999807e+01 6.895600000000000307e+01 1.249300000000000068e+02 -1.496590999999999894e-01 9.622512255705459316e-02
5.770000000000000284e+01 5.314300000000000068e+01 1.121700000000000017e+02 -7.113197000000000436e+00 8.925841987006880029e-02
5.770000000000000284e+01 6.213199999999999790e+01 1.298100000000000023e+02 -4.413956000000000301e+01 9.288438728921834253e-02
5.770100000000000051e+01 7.808299999999999841e+01 1.250600000000000023e+02 -5.224220000000000530e-01 9.875433322670960912e-02
5.770300000000000296e+01 5.666199999999999903e+01 1.247500000000000000e+02 -3.786128999999999856e+00 9.207869596755788311e-02
5.770499999999999829e+01 7.675100000000000477e+01 9.480200000000000671e+01 -4.473093000000000075e+01 1.312144525091783753e-02
5.770600000000000307e+01 6.220799999999999841e+01 1.252500000000000000e+02 8.606804000000000343e+00 9.377510463552768405e-02
5.770600000000000307e+01 8.092600000000000193e+01 1.032099999999999937e+02 -1.907547000000000104e+00 -7.664464233824518080e-02
5.770700000000000074e+01 7.864300000000000068e+01 1.251899999999999977e+02 -4.852183000000000135e+00 9.880958067258802102e-02
5.770700000000000074e+01 7.957899999999999352e+01 1.251899999999999977e+02 -3.742249000000000159e+00 9.897310635404397983e-02
5.770700000000000074e+01 8.051500000000000057e+01 1.251899999999999977e+02 -4.495578000000000074e+00 9.911745599058843781e-02
5.770700000000000074e+01 4.814900000000000091e+01 1.122099999999999937e+02 -1.803329000000000093e+01 8.831174040161907102e-02
5.770799999999999841e+01 7.025000000000000000e+01 8.450100000000000477e+01 2.994291000000000036e+00 -6.673989651106593257e-02
5.771000000000000085e+01 7.887099999999999511e+01 1.065199999999999960e+02 -4.775405000000000122e+00 -7.669696276300017046e-02
5.771399999999999864e+01 6.322899999999999920e+01 1.253599999999999994e+02 -3.125623000000000040e+00 9.410328665733799780e-02
5.771399999999999864e+01 7.873099999999999454e+01 1.100499999999999972e+02 -3.049345000000000194e+00 -7.672984652420516971e-02
5.771800000000000352e+01 7.887900000000000489e+01 1.323300000000000125e+02 -5.498986000000000374e+00 9.632560874954254615e-02
5.771900000000000119e+01 7.404800000000000182e+01 1.263100000000000023e+02 8.997982999999999620e+00 9.733453693129354156e-02
5.771999999999999886e+01 6.311200000000000188e+01 1.272800000000000011e+02 -9.156921000000000532e+00 9.365792862350216796e-02
5.772200000000000131e+01 7.025400000000000489e+01 8.162500000000000000e+01 8.616970000000000240e+00 -6.667687090430257646e-02
5.772200000000000131e+01 7.050799999999999557e+01 8.251900000000000546e+01 9.346170000000000755e+00 -6.666736372512149789e-02
5.772299999999999898e+01 4.971000000000000085e+01 1.123400000000000034e+02 -4.489097999999999900e+01 8.855221314765200635e-02
5.773299999999999699e+01 7.641599999999999682e+01 9.572299999999999898e+01 -1.711204000000000036e+01 1.231180539779555203e-02
5.773299999999999699e+01 7.641599999999999682e+01 9.662999999999999545e+01 -2.361632000000000176e+01 1.185499545690389331e-02
5.773400000000000176e+01 7.871999999999999886e+01 9.875000000000000000e+01 1.366630999999999929e+01 -7.656263329479542912e-02
5.773599999999999710e+01 6.186500000000000199e+01 1.264699999999999989e+02 1.587937000000000098e-01 9.342333792814241922e-02
5.774000000000000199e+01 7.833400000000000318e+01 9.384399999999999409e+01 -1.371574999999999989e+01 1.522406877780024294e-02
5.774199999999999733e+01 7.241100000000000136e+01 1.070000000000000000e+02 -1.870761999999999858e+01 -7.667808220648524020e-02
5.774300000000000210e+01 6.082600000000000051e+01 1.279899999999999949e+02 -1.089267000000000074e+01 9.283007010713843765e-02
5.774399999999999977e+01 8.045699999999999363e+01 1.000100000000000051e+02 -4.871571999999999569e+00 -7.657422262151239445e-02
5.774499999999999744e+01 5.057099999999999795e+01 1.094899999999999949e+02 -1.938586000000000098e+01 1.818409386430925589e-01
5.774499999999999744e+01 5.383299999999999841e+01 1.086200000000000045e+02 -1.501664000000000065e+01 1.827334638177997295e-01
5.774499999999999744e+01 5.383299999999999841e+01 1.094899999999999949e+02 -1.237709000000000081e+01 9.008075153228052578e-02
5.774600000000000222e+01 4.691700000000000159e+01 1.064300000000000068e+02 -8.175871000000000777e+00 1.805706438822564652e-01
5.774600000000000222e+01 7.922599999999999909e+01 1.184800000000000040e+02 -6.297391000000000183e+00 1.016380631237019661e-01
5.774699999999999989e+01 8.126800000000000068e+01 1.329499999999999886e+02 -2.938389000000000095e+01 9.648333942179451728e-02
5.774799999999999756e+01 7.307500000000000284e+01 1.204200000000000017e+02 8.142633000000000010e+00 9.924289197527964845e-02
5.775000000000000000e+01 8.408700000000000330e+01 1.028599999999999994e+02 2.656286999999999843e+00 -7.661020339514962307e-02
5.775099999999999767e+01 7.213500000000000512e+01 1.187600000000000051e+02 1.071704000000000079e+01 9.952618669650824257e-02
5.775099999999999767e+01 7.075900000000000034e+01 1.158100000000000023e+02 6.207238999999999862e+01 9.998491767398637320e-02
5.775200000000000244e+01 5.970300000000000296e+01 8.226099999999999568e+01 -6.846851000000000020e+00 -6.070061535627128968e-02
5.775600000000000023e+01 6.055499999999999972e+01 1.272099999999999937e+02 -7.628535000000000288e+00 9.288386993261689428e-02
5.775600000000000023e+01 7.479999999999999716e+01 1.165499999999999972e+02 -1.439424999999999955e+01 1.012945893772377592e-01
5.775600000000000023e+01 7.609300000000000352e+01 1.158299999999999983e+02 -6.203901000000000110e+00 1.019532781457618276e-01
5.775900000000000034e+01 7.750400000000000489e+01 1.161099999999999994e+02 -6.691410000000000302e+00 1.022114935843810579e-01
5.776500000000000057e+01 5.268500000000000227e+01 1.102999999999999972e+02 -1.178753999999999991e+01 8.961577447236243610e-02
5.776500000000000057e+01 6.940000000000000568e+01 1.148499999999999943e+02 -1.367213999999999929e+00 9.964806382110026617e-02
5.777100000000000080e+01 5.676100000000000279e+01 1.237199999999999989e+02 1.072005000000000052e+01 9.226029902236879132e-02
5.777600000000000335e+01 7.279099999999999682e+01 1.325399999999999920e+02 -3.430490000000000350e+01 9.507233638969095346e-02
5.777700000000000102e+01 5.183800000000000097e+01 8.345399999999999352e+01 -4.707172999999999913e-02 -6.156150716136399303e-02
5.778099999999999881e+01 6.964100000000000534e+01 1.311800000000000068e+02 -4.748740999999999879e+00 9.466408256935826548e-02
5.778099999999999881e+01 7.088299999999999557e+01 1.167399999999999949e+02 3.896944999999999992e-01 9.972499282720506675e-02
5.778300000000000125e+01 7.627500000000000568e+01 1.256800000000000068e+02 -2.843306000000000111e+00 9.811844678321166024e-02
5.778300000000000125e+01 8.275400000000000489e+01 9.171500000000000341e+01 -1.599793999999999983e+01 -6.559575919043672543e-02
5.778300000000000125e+01 8.275400000000000489e+01 9.331300000000000239e+01 -6.174155999999999977e+01 -6.556667752772957214e-02
5.778300000000000125e+01 8.298099999999999454e+01 9.251399999999999579e+01 -7.490594000000000108e+01 -6.558874774331982516e-02
5.778600000000000136e+01 8.249800000000000466e+01 1.311899999999999977e+02 -2.750212000000000145e+01 9.719085799188389996e-02
5.778600000000000136e+01 8.249800000000000466e+01 1.321299999999999955e+02 -3.097684999999999889e+01 9.688864911873361352e-02
5.778799999999999670e+01 7.710399999999999920e+01 1.209899999999999949e+02 -2.668231000000000108e+01 1.001718196028081181e-01
5.778799999999999670e+01 6.083599999999999852e+01 8.150300000000000011e+01 -1.869210999999999956e+01 -6.011781862140355009e-02
5.778999999999999915e+01 7.446200000000000330e+01 1.173400000000000034e+02 -7.268016000000000254e+00 1.008783372687677565e-01
5.778999999999999915e+01 8.241400000000000148e+01 1.072300000000000040e+02 -3.482547999999999977e+00 -7.668078545004017310e-02
5.779200000000000159e+01 5.600399999999999778e+01 1.145199999999999960e+02 -3.108067000000000135e+00 9.326380284398363973e-02
5.779299999999999926e+01 5.357600000000000051e+01 1.112900000000000063e+02 -7.849955999999999712e+00 8.958037714845339117e-02
5.779399999999999693e+01 6.216799999999999926e+01 1.271700000000000017e+02 -1.710116999999999976e+01 9.339271358859799199e-02
5.779599999999999937e+01 7.023300000000000409e+01 8.558100000000000307e+01 8.423812000000000522e-01 -6.676437375389110418e-02
5.779599999999999937e+01 7.118200000000000216e+01 8.653000000000000114e+01 -4.704935000000000089e-01 -6.667340682680344965e-02
5.779699999999999704e+01 6.765800000000000125e+01 1.101599999999999966e+02 8.759119999999999351e+00 9.985560878077669178e-02
5.779800000000000182e+01 5.171800000000000352e+01 1.103400000000000034e+02 -9.868453000000000586e+00 8.939645977349204575e-02
5.779999999999999716e+01 7.943099999999999739e+01 9.381499999999999773e+01 -2.263742000000000143e+00 1.633294588784393181e-02
5.780899999999999750e+01 7.537699999999999534e+01 1.334199999999999875e+02 1.058728999999999942e+01 9.537762791046075495e-02
5.781199999999999761e+01 8.259300000000000352e+01 1.047800000000000011e+02 -6.924917999999999907e+00 -7.665189826116286520e-02
5.781199999999999761e+01 7.437699999999999534e+01 1.048799999999999955e+02 2.675893999999999906e+01 1.707537758383786616e-02
5.781199999999999761e+01 7.437699999999999534e+01 1.057500000000000000e+02 7.305947999999999887e+00 1.780766257722925239e-02
5.781400000000000006e+01 6.949800000000000466e+01 1.284000000000000057e+02 -1.853339000000000070e+00 9.537253244623102033e-02
5.781700000000000017e+01 5.613600000000000279e+01 1.117399999999999949e+02 -1.602665000000000006e+01 9.366479812386732662e-02
5.781900000000000261e+01 6.489400000000000546e+01 1.252099999999999937e+02 2.766826000000000008e+00 9.472848107730855172e-02
5.782500000000000284e+01 4.551899999999999835e+01 1.033499999999999943e+02 -1.962766999999999840e+01 9.480329937229451179e-03
5.782800000000000296e+01 5.236299999999999955e+01 1.137600000000000051e+02 7.889454999999999885e+00 8.873637028342816480e-02
5.782800000000000296e+01 5.487100000000000222e+01 1.137600000000000051e+02 4.507851999999999748e+00 9.292295592016258654e-02
5.782800000000000296e+01 5.713600000000000279e+01 1.137600000000000051e+02 -1.064653000000000027e+01 9.383555644973004539e-02
5.782999999999999829e+01 8.412600000000000477e+01 1.011400000000000006e+02 -3.864077999999999946e+01 -7.653697956203542319e-02
5.783100000000000307e+01 5.892900000000000205e+01 8.342799999999999727e+01 -3.532490000000000130e+00 -6.153406141379792749e-02
5.783100000000000307e+01 5.208700000000000330e+01 9.831600000000000250e+01 -1.658805999999999869e+01 2.125565463085848233e-02
5.783400000000000318e+01 8.180599999999999739e+01 1.247900000000000063e+02 -1.177679999999999971e+01 9.942407763672474197e-02
5.783400000000000318e+01 8.274599999999999511e+01 1.247900000000000063e+02 -2.018327000000000027e+01 9.952212294829167194e-02
5.783500000000000085e+01 7.406699999999999307e+01 9.840399999999999636e+01 -1.007995999999999981e+01 1.318006927018866570e-02
5.783599999999999852e+01 8.093800000000000239e+01 1.064500000000000028e+02 8.437856999999999275e+00 -7.668175873345497995e-02
5.783800000000000097e+01 8.344599999999999795e+01 1.084699999999999989e+02 3.106016999999999939e+01 -7.668678267474123011e-02
5.783800000000000097e+01 8.344599999999999795e+01 1.095199999999999960e+02 -1.300666999999999973e+01 -7.669708968617164335e-02
5.783899999999999864e+01 4.525600000000000023e+01 1.024699999999999989e+02 -8.773217999999999961e+00 9.170869739336520721e-03
5.784100000000000108e+01 6.760399999999999920e+01 1.239300000000000068e+02 7.267698000000000214e+00 9.604866874206360872e-02
5.784799999999999898e+01 4.674300000000000210e+01 1.046400000000000006e+02 -1.012261999999999951e+01 9.973987632132984976e-03
5.785199999999999676e+01 7.373399999999999466e+01 1.006099999999999994e+02 -1.725495000000000001e+00 9.993758936561580181e-03
5.785399999999999920e+01 4.724600000000000222e+01 1.114200000000000017e+02 -3.416680000000000206e+01 8.834023437229812648e-02
5.785399999999999920e+01 7.053700000000000614e+01 8.628100000000000591e+01 -4.178387999999999991e+00 -6.674351403925019022e-02
5.785600000000000165e+01 7.684000000000000341e+01 8.858199999999999363e+01 -1.271585999999999927e+01 -6.595699026001825005e-02
5.785699999999999932e+01 7.104699999999999704e+01 1.076299999999999955e+02 5.382215999999999667e+01 -7.666252495221444196e-02
5.785900000000000176e+01 6.800100000000000477e+01 1.139899999999999949e+02 1.080691999999999986e+01 9.917386554075839633e-02
5.785999999999999943e+01 5.349699999999999989e+01 1.072300000000000040e+02 -2.674708000000000041e+01 1.147605108258644216e-02
5.787299999999999756e+01 4.559400000000000119e+01 1.016800000000000068e+02 -9.610590000000000188e+00 8.894929625933457179e-03
5.787299999999999756e+01 4.654299999999999926e+01 1.007399999999999949e+02 -7.808561000000000085e+00 8.545973192091924076e-03
5.787599999999999767e+01 7.454300000000000637e+01 1.319099999999999966e+02 -5.319619999999999571e+00 9.563827562324810072e-02
5.787599999999999767e+01 5.304899999999999949e+01 1.112300000000000040e+02 -8.133321000000000467e+00 8.948590880910210765e-02
5.787700000000000244e+01 7.125400000000000489e+01 8.706900000000000261e+01 1.450193999999999939e+01 -6.667463155177939804e-02
5.787899999999999778e+01 7.869499999999999318e+01 1.072399999999999949e+02 -8.865624999999999645e+00 -7.670443933056349251e-02
5.788000000000000256e+01 7.500799999999999557e+01 1.325699999999999932e+02 8.517308999999999131e+00 9.554575180586466487e-02
5.788100000000000023e+01 5.225900000000000034e+01 1.147199999999999989e+02 -8.171941999999999595e+00 8.850149789530174782e-02
5.788199999999999790e+01 8.207099999999999795e+01 1.104500000000000028e+02 6.410898999999999681e+00 -7.671391952961419125e-02
5.788300000000000267e+01 5.224900000000000233e+01 9.652100000000000080e+01 -1.524079000000000050e+01 2.088803035723150320e-02
5.788300000000000267e+01 5.237299999999999756e+01 9.742799999999999727e+01 -3.075992000000000104e+01 2.100376737470124183e-02
5.788600000000000279e+01 7.388800000000000523e+01 1.311699999999999875e+02 -7.693798000000000137e+00 9.571103498022157097e-02
5.788900000000000290e+01 4.981300000000000239e+01 9.517799999999999727e+01 -3.701568000000000325e+01 1.100956817637173124e-01
5.788900000000000290e+01 5.121300000000000097e+01 9.517799999999999727e+01 -1.929013000000000133e+01 1.101968262778538349e-01
5.789200000000000301e+01 5.261899999999999977e+01 1.129800000000000040e+02 -2.397495000000000154e+00 8.897837286383167288e-02
5.789300000000000068e+01 5.043500000000000227e+01 1.084000000000000057e+02 -1.139414999999999978e+01 1.816922872720739268e-01
5.789300000000000068e+01 5.064399999999999835e+01 1.076700000000000017e+02 -1.051619999999999955e+01 1.816667595941156843e-01
5.789399999999999835e+01 6.903700000000000614e+01 1.089200000000000017e+02 4.581763000000000119e+01 -7.663970493888161428e-02
5.789500000000000313e+01 7.531799999999999784e+01 1.259800000000000040e+02 2.252723000000000031e+00 9.776997663472879185e-02
5.789699999999999847e+01 8.307500000000000284e+01 1.255499999999999972e+02 -4.042450999999999794e+01 9.925163310861315202e-02
5.789999999999999858e+01 7.188400000000000034e+01 1.310800000000000125e+02 2.848157000000000050e+00 9.526528380408866292e-02
5.789999999999999858e+01 7.279099999999999682e+01 1.310800000000000125e+02 -3.811840999999999813e+00 9.548379625179385932e-02
5.790299999999999869e+01 8.135699999999999932e+01 9.978600000000000136e+01 -1.054824999999999946e+01 -7.654328599905534103e-02
5.790599999999999881e+01 4.839900000000000091e+01 9.856499999999999773e+01 -8.979369000000000156e+00 2.147000559522217050e-02
5.790899999999999892e+01 7.250300000000000011e+01 1.194599999999999937e+02 1.511966999999999928e+01 9.937409215484954705e-02
5.791599999999999682e+01 5.739399999999999835e+01 1.125900000000000034e+02 -1.888018999999999892e+01 9.411535817823085681e-02
5.791899999999999693e+01 4.803199999999999648e+01 8.395999999999999375e+01 -1.216944999999999943e+01 1.115540723290016772e-01
5.791899999999999693e+01 4.825900000000000034e+01 8.316100000000000136e+01 -7.063004000000000282e+00 1.116657024357114586e-01
5.791899999999999693e+01 4.955199999999999960e+01 8.243999999999999773e+01 -1.041743999999999915e+01 -6.098505875912825502e-02
5.791899999999999693e+01 5.193800000000000239e+01 1.159599999999999937e+02 -1.308435000000000059e+01 9.170273638790808757e-02
5.791899999999999693e+01 5.193800000000000239e+01 1.169000000000000057e+02 -2.813175999999999988e+01 9.161078304543586459e-02
5.791899999999999693e+01 7.344199999999999307e+01 8.967900000000000205e+01 -2.496396000000000015e+01 -6.644795836096008268e-02
5.792000000000000171e+01 7.158199999999999363e+01 8.789000000000000057e+01 4.431011000000000166e+01 -6.665139603918285305e-02
5.792099999999999937e+01 5.374900000000000233e+01 1.080499999999999972e+02 -1.528806999999999938e+01 1.826348440753146063e-01
5.792199999999999704e+01 7.768099999999999739e+01 1.325300000000000011e+02 -2.754198999999999842e+00 9.606568806719130438e-02
5.793699999999999761e+01 7.872899999999999920e+01 1.167600000000000051e+02 -6.470618000000000203e-01 1.021545553473901941e-01
5.794200000000000017e+01 5.399099999999999966e+01 1.105999999999999943e+02 -4.747944999999999638e+00 8.986150862423028518e-02
5.794200000000000017e+01 5.485600000000000165e+01 1.105999999999999943e+02 -7.887787000000000548e-01 9.006928637447356167e-02
5.794400000000000261e+01 6.737800000000000011e+01 1.110400000000000063e+02 5.894423999999999886e+00 9.950550362564884732e-02
5.794400000000000261e+01 6.758700000000000330e+01 1.117699999999999960e+02 1.223085999999999984e+01 9.946876473803176189e-02
5.794400000000000261e+01 6.784099999999999397e+01 1.126700000000000017e+02 1.763611999999999824e+01 9.940158810390879729e-02
5.794400000000000261e+01 7.091200000000000614e+01 1.236599999999999966e+02 6.572910000000000252e+01 9.730450688180575236e-02
5.794599999999999795e+01 7.137699999999999534e+01 1.312400000000000091e+02 5.097668999999999784e+00 9.509945311210263319e-02
5.795400000000000063e+01 7.812099999999999511e+01 8.944700000000000273e+01 4.739209000000000316e+01 -6.579392390193099238e-02
5.795400000000000063e+01 8.316899999999999693e+01 1.264500000000000028e+02 -2.536868000000000123e+01 9.891470427889755002e-02
5.795499999999999829e+01 7.230899999999999750e+01 8.892100000000000648e+01 -1.457911999999999964e+01 -6.658096633664802033e-02
5.795900000000000318e+01 4.845199999999999818e+01 9.626699999999999591e+01 -3.838412000000000290e+01 1.098336812868577483e-01
5.796000000000000085e+01 7.637000000000000455e+01 1.334399999999999977e+02 1.532032999999999978e+00 9.556665461240418380e-02
5.796099999999999852e+01 7.223099999999999454e+01 1.219800000000000040e+02 -2.342961000000000027e+01 9.834291085779234276e-02
5.796300000000000097e+01 5.653000000000000114e+01 1.231500000000000057e+02 5.532168000000000418e+00 9.230215202606127656e-02
5.796600000000000108e+01 7.929699999999999704e+01 9.024699999999999989e+01 1.318502000000000063e+00 -6.564409295936567135e-02
5.796699999999999875e+01 6.852299999999999613e+01 1.242300000000000040e+02 4.448259000000000185e+00 9.629129104904690650e-02
5.796699999999999875e+01 5.361699999999999733e+01 1.128700000000000045e+02 -4.020894000000000190e+00 8.921839952571679333e-02
5.796999999999999886e+01 6.390100000000000335e+01 1.252300000000000040e+02 -6.374376999999999960e+00 9.439197642276300759e-02
5.797500000000000142e+01 8.405400000000000205e+01 1.023199999999999932e+02 -6.430113000000000412e+00 -7.658874726708232716e-02
5.797599999999999909e+01 7.819899999999999807e+01 1.201400000000000006e+02 -3.545203999999999667e+01 1.007102794778586691e-01
5.798199999999999932e+01 7.124899999999999523e+01 1.229399999999999977e+02 -5.423564999999999969e+00 9.766481721371549074e-02
5.798499999999999943e+01 4.977900000000000347e+01 9.938400000000000034e+01 -5.373466999999999771e+00 2.164228292642517149e-02
5.798499999999999943e+01 5.117900000000000205e+01 9.938400000000000034e+01 -1.829215999999999909e+01 2.160331895495716178e-02
5.798599999999999710e+01 5.358200000000000074e+01 8.306300000000000239e+01 -2.370159999999999823e+00 -6.138177063644000009e-02
5.798599999999999710e+01 5.457200000000000273e+01 8.306300000000000239e+01 8.389332999999999929e-01 -6.138485850882102746e-02
5.798799999999999955e+01 6.173700000000000188e+01 8.070999999999999375e+01 -6.836863000000000135e+00 -5.954832178694311612e-02
5.799099999999999966e+01 5.523100000000000165e+01 1.144699999999999989e+02 -1.965608999999999895e+01 9.300391115568032441e-02
5.799399999999999977e+01 5.220199999999999818e+01 1.112300000000000040e+02 1.062565999999999988e+01 8.931570383433724836e-02
5.799600000000000222e+01 6.383100000000000307e+01 8.031900000000000261e+01 -7.589061000000000057e+00 -5.906422759288735419e-02
5.799600000000000222e+01 6.631499999999999773e+01 8.031900000000000261e+01 -6.088359999999999772e+00 2.415409906262344641e-02
5.799699999999999989e+01 7.717400000000000659e+01 9.404399999999999693e+01 -2.305311000000000021e+01 1.389012971405334182e-02
5.800000000000000000e+01 5.214999999999999858e+01 1.065600000000000023e+02 -3.049246000000000123e+01 1.104918303620896179e-02
5.800300000000000011e+01 7.415900000000000603e+01 1.018599999999999994e+02 5.998584000000000138e-01 1.444061618905838340e-02
5.800800000000000267e+01 6.843699999999999761e+01 7.954399999999999693e+01 4.943215000000000109e-02 -6.680779398738766195e-02
5.800800000000000267e+01 6.975600000000000023e+01 8.027899999999999636e+01 9.117181000000000424e+00 -6.669527201005767680e-02
5.800900000000000034e+01 5.796900000000000119e+01 8.372499999999999432e+01 -5.718157999999999852e+00 -6.177247392263265219e-02
5.800999999999999801e+01 8.307399999999999807e+01 1.291899999999999977e+02 -6.392015999999999920e+00 9.791658835073506484e-02
5.801400000000000290e+01 7.922199999999999420e+01 1.176500000000000057e+02 -2.771405999999999814e+00 1.018749699498674166e-01
5.801700000000000301e+01 7.452299999999999613e+01 1.027900000000000063e+02 4.400752999999999915e+00 -7.668171933948331187e-02
5.802100000000000080e+01 4.697099999999999653e+01 9.954900000000000659e+01 6.844033999999999951e-01 2.176657513942444749e-02
5.802100000000000080e+01 5.622699999999999676e+01 1.224500000000000028e+02 2.475045999999999857e+00 9.231290578664963498e-02
5.802799999999999869e+01 7.492300000000000182e+01 8.916100000000000136e+01 -6.825381000000000142e+00 -6.623481404517647664e-02
5.803099999999999881e+01 5.676899999999999835e+01 8.357399999999999807e+01 -5.800370000000000026e+00 -6.169275162817281638e-02
5.803199999999999648e+01 5.098299999999999699e+01 1.102999999999999972e+02 -1.734897000000000133e+01 8.927548056442505264e-02
5.803699999999999903e+01 5.721600000000000108e+01 1.119800000000000040e+02 -2.089228999999999914e+01 9.413083425947324501e-02
5.803900000000000148e+01 7.820600000000000307e+01 1.081500000000000057e+02 -8.319501999999999731e-01 -7.671522316837067756e-02
5.803900000000000148e+01 7.820600000000000307e+01 1.092000000000000028e+02 3.573991999999999725e-01 -7.672490816447133377e-02
5.803900000000000148e+01 5.380599999999999739e+01 1.222399999999999949e+02 1.150846999999999981e-01 9.162257828411503324e-02
5.803900000000000148e+01 5.485600000000000165e+01 1.222399999999999949e+02 2.808014000000000010e+00 9.192545302208809943e-02
5.803900000000000148e+01 5.572200000000000131e+01 1.222399999999999949e+02 1.290367000000000042e+00 9.218700858186174019e-02
5.805199999999999960e+01 6.114200000000000301e+01 1.264000000000000057e+02 -8.398823000000000150e+00 9.325129276064482442e-02
5.805499999999999972e+01 6.292399999999999949e+01 1.246800000000000068e+02 3.238824999999999843e+00 9.418356526159576969e-02
5.805499999999999972e+01 6.040299999999999869e+01 8.220300000000000296e+01 -7.034926999999999708e+00 -6.065472923220279616e-02
5.805599999999999739e+01 6.700799999999999557e+01 1.240000000000000000e+02 1.327415000000000056e+01 9.581704889421514826e-02
5.806099999999999994e+01 6.139999999999999858e+01 1.256099999999999994e+02 -1.018288000000000082e+01 9.348158229489675342e-02
5.806600000000000250e+01 4.931300000000000239e+01 9.561799999999999500e+01 -6.643259000000000469e+01 1.099962054815511320e-01
5.806799999999999784e+01 4.644100000000000250e+01 9.452400000000000091e+01 -8.123523000000000494e+00 1.099931382893074155e-01
5.807000000000000028e+01 7.110899999999999466e+01 1.176200000000000045e+02 6.173943000000000403e+00 9.946106974223181685e-02
5.807300000000000040e+01 7.668800000000000239e+01 1.325500000000000114e+02 -5.345461000000000240e+00 9.588430915434711932e-02
5.807600000000000051e+01 8.050799999999999557e+01 1.328899999999999864e+02 -2.322682000000000002e+01 9.640055312723122549e-02
5.807600000000000051e+01 8.202800000000000580e+01 1.328899999999999864e+02 -3.807115999999999900e+01 9.659603019134935242e-02
5.807999999999999829e+01 7.746699999999999875e+01 9.328700000000000614e+01 -2.056496999999999886e+01 1.452810930444549745e-02
5.807999999999999829e+01 7.833199999999999363e+01 9.328700000000000614e+01 -1.015588999999999942e+01 1.539571396298637304e-02
5.808299999999999841e+01 7.958100000000000307e+01 1.101200000000000045e+02 -2.162497000000000114e+00 -7.672454493603846071e-02
5.808500000000000085e+01 7.922700000000000387e+01 1.256500000000000057e+02 -8.996143000000000001e+00 9.869129832082210174e-02
5.808700000000000330e+01 6.188100000000000023e+01 1.247999999999999972e+02 1.684835999999999956e+01 9.380284646080597200e-02
5.808700000000000330e+01 7.544700000000000273e+01 1.191700000000000017e+02 -1.581391999999999953e+01 1.003986042011065782e-01
5.809100000000000108e+01 4.621800000000000352e+01 9.356699999999999307e+01 -5.998548000000000435e+00 1.101214338933229203e-01
5.809799999999999898e+01 7.125100000000000477e+01 1.250799999999999983e+02 6.316531000000000340e+00 9.693155995768172606e-02
5.809799999999999898e+01 5.936200000000000188e+01 8.272799999999999443e+01 -5.351784999999999570e+00 -6.107010723833726507e-02
5.809899999999999665e+01 5.432399999999999807e+01 1.100400000000000063e+02 -7.162486000000000352e+00 9.009313469544995290e-02
5.810199999999999676e+01 4.667000000000000171e+01 9.552400000000000091e+01 -1.545609999999999928e+01 1.098579230402096929e-01
5.810600000000000165e+01 6.911599999999999966e+01 1.292800000000000011e+02 1.454452999999999996e-01 9.503876848269174338e-02
5.810600000000000165e+01 6.911599999999999966e+01 1.303300000000000125e+02 -1.898428000000000004e+00 9.476586836888005461e-02
5.810699999999999932e+01 7.162999999999999545e+01 1.258400000000000034e+02 2.472900999999999794e+00 9.679653549612468599e-02
5.810799999999999699e+01 4.653300000000000125e+01 1.068700000000000045e+02 -8.392405999999999366e+00 1.805594036186225493e-01
5.810799999999999699e+01 6.995600000000000307e+01 1.157500000000000000e+02 1.069050999999999974e+01 9.956249619390830641e-02
5.810999999999999943e+01 5.126599999999999824e+01 1.112300000000000040e+02 -1.526905000000000001e+01 8.913581790554861439e-02
5.810999999999999943e+01 4.795799999999999841e+01 8.917000000000000171e+01 8.742152000000000811e+00 1.108854269924330477e-01
5.810999999999999943e+01 4.807600000000000051e+01 9.001699999999999591e+01 -2.177337000000000078e+00 1.107757516935956171e-01
5.811500000000000199e+01 5.733700000000000330e+01 1.261800000000000068e+02 -1.694335999999999842e+01 9.215695755114797216e-02
5.812100000000000222e+01 6.974500000000000455e+01 1.267300000000000040e+02 -3.042050999999999839e+00 9.594313801483103643e-02
5.812199999999999989e+01 4.700099999999999767e+01 9.179999999999999716e+01 -8.146822000000000230e+00 1.104324318022392448e-01
5.812599999999999767e+01 6.843399999999999750e+01 1.146899999999999977e+02 -6.981004999999999683e+00 9.915200532512911946e-02
5.813000000000000256e+01 8.037399999999999523e+01 9.019499999999999318e+01 -5.976162000000000418e+00 -6.556811125430633824e-02
5.813100000000000023e+01 6.166199999999999903e+01 1.292800000000000011e+02 -2.605756999999999834e+01 9.290791850213013514e-02
5.813100000000000023e+01 6.260199999999999676e+01 1.277600000000000051e+02 -1.504519999999999946e+01 9.345764011951483707e-02
5.813100000000000023e+01 6.260199999999999676e+01 1.292800000000000011e+02 -3.239504999999999768e+01 9.317215259478253686e-02
5.813400000000000034e+01 7.590200000000000102e+01 1.325699999999999932e+02 4.748529999999999696e+00 9.573163411522336852e-02
5.813499999999999801e+01 7.553199999999999648e+01 9.785999999999999943e+01 -7.447356999999999516e+01 1.409120277262424469e-02
5.813600000000000279e+01 4.810600000000000165e+01 8.827400000000000091e+01 -6.031818999999999598e+00 1.110221359507036765e-01
5.813900000000000290e+01 7.276399999999999579e+01 1.264899999999999949e+02 -5.568391000000000091e+00 9.690782293440042272e-02
5.814000000000000057e+01 4.647899999999999920e+01 9.256399999999999295e+01 -5.730997999999999593e+00 1.102853988501672350e-01
5.814099999999999824e+01 5.858299999999999841e+01 1.265499999999999972e+02 -2.152714000000000016e+00 9.246622733814953421e-02
5.814099999999999824e+01 7.884600000000000364e+01 9.366599999999999682e+01 -8.326976999999999407e+00 1.571449821581263548e-02
5.814399999999999835e+01 6.436899999999999977e+01 1.243599999999999994e+02 1.915482000000000085e+01 9.477510367051715512e-02
5.814500000000000313e+01 5.560499999999999687e+01 1.108799999999999955e+02 -1.239799999999999969e+01 9.019661721249530584e-02
5.814600000000000080e+01 4.574600000000000222e+01 1.082699999999999960e+02 -1.045748999999999995e+01 1.805266362076969333e-01
5.814800000000000324e+01 6.954600000000000648e+01 1.250199999999999960e+02 -6.577130999999999617e+00 9.639965666271496647e-02
5.814999999999999858e+01 7.159499999999999886e+01 1.070999999999999943e+02 -1.315091000000000010e+00 -7.666958865646088250e-02
5.814999999999999858e+01 7.049099999999999966e+01 1.312500000000000000e+02 1.221762999999999977e+01 9.488909455998384423e-02
5.815200000000000102e+01 7.474800000000000466e+01 1.260400000000000063e+02 3.390285999999999689e+01 9.758996775262177015e-02
5.815400000000000347e+01 7.028000000000000114e+01 1.165100000000000051e+02 -1.033948000000000089e+00 9.945962202007975483e-02
5.815599999999999881e+01 4.659199999999999875e+01 1.108900000000000006e+02 -3.053069999999999951e+01 8.837481713717057485e-02
5.816199999999999903e+01 7.439100000000000534e+01 1.039599999999999937e+02 2.416674000000000078e+01 1.624568278572495819e-02
5.816499999999999915e+01 6.910599999999999454e+01 9.555899999999999750e+01 3.889053000000000093e+00 2.140817590303962722e-02
5.816499999999999915e+01 8.060500000000000398e+01 1.013700000000000045e+02 -2.160304999999999964e+01 -7.662349869305702665e-02
5.816700000000000159e+01 5.579200000000000159e+01 8.329300000000000637e+01 -4.448311000000000348e+00 -6.153372089638876885e-02
5.816700000000000159e+01 8.362099999999999511e+01 1.032000000000000028e+02 -7.041327999999999476e-02 -7.662589500762750916e-02
5.817300000000000182e+01 5.336599999999999966e+01 1.214800000000000040e+02 1.049592000000000080e+00 9.160765859687583501e-02
5.817499999999999716e+01 5.305899999999999750e+01 1.180000000000000000e+02 -1.586447000000000074e+01 9.188986040151080059e-02
5.817499999999999716e+01 5.305899999999999750e+01 1.188700000000000045e+02 -1.007856999999999914e+01 9.179717316787347481e-02
5.817600000000000193e+01 4.805700000000000216e+01 8.515999999999999659e+01 -1.293402999999999992e+01 1.114132014598192139e-01
5.817699999999999960e+01 6.507299999999999329e+01 7.984499999999999886e+01 -1.125742999999999938e+01 2.378714345757503359e-02
5.817699999999999960e+01 4.890899999999999892e+01 1.125000000000000000e+02 -2.909967999999999932e+01 8.844164903883676432e-02
5.818299999999999983e+01 6.981699999999999307e+01 1.257900000000000063e+02 -1.137925000000000075e+00 9.625063827774790748e-02
5.818299999999999983e+01 8.029000000000000625e+01 9.383199999999999363e+01 -1.524985999999999953e+00 1.702474647351181342e-02
5.818399999999999750e+01 7.143500000000000227e+01 1.184899999999999949e+02 -6.206057000000000379e-01 9.927010782573830738e-02
5.818399999999999750e+01 7.667100000000000648e+01 1.205000000000000000e+02 -2.075920999999999950e+01 1.001766118699927988e-01
5.818599999999999994e+01 4.607900000000000063e+01 1.075300000000000011e+02 -1.192641000000000062e+01 1.805316342107997074e-01
5.818800000000000239e+01 7.201500000000000057e+01 8.859000000000000341e+01 4.557888000000000162e+00 -6.660619615318237596e-02
5.819200000000000017e+01 5.051299999999999812e+01 9.512000000000000455e+01 -1.517148000000000074e+01 1.101660815670128385e-01
5.819400000000000261e+01 6.133299999999999841e+01 1.285200000000000102e+02 -1.434706000000000081e+01 9.295425355317737948e-02
5.819400000000000261e+01 6.293099999999999739e+01 1.285200000000000102e+02 -3.245358999999999838e+01 9.341762244176329832e-02
5.819400000000000261e+01 8.072700000000000387e+01 1.021899999999999977e+02 -1.597751000000000055e+01 -7.663240808891705336e-02
5.819500000000000028e+01 8.205800000000000693e+01 1.041400000000000006e+02 -1.098504999999999932e+01 -7.664663055319805018e-02
5.819500000000000028e+01 8.310800000000000409e+01 1.041400000000000006e+02 -7.570714999999999861e+00 -7.663995941459650352e-02
5.819800000000000040e+01 5.489699999999999847e+01 1.150100000000000051e+02 -9.789711999999999748e+00 9.285066005298477088e-02
5.820199999999999818e+01 6.539799999999999613e+01 1.245100000000000051e+02 3.322620000000000129e+00 9.510921471178906961e-02
5.820300000000000296e+01 5.530199999999999960e+01 1.101800000000000068e+02 -9.529306999999999306e+00 9.030648848267525119e-02
5.820499999999999829e+01 4.791700000000000159e+01 9.073000000000000398e+01 -7.234873999999999583e+00 1.106602900295496072e-01
5.820499999999999829e+01 8.202200000000000557e+01 9.114799999999999613e+01 -1.438749999999999929e+01 -6.559991078558632949e-02
5.820600000000000307e+01 6.924299999999999500e+01 1.243199999999999932e+02 2.952675000000000161e+00 9.651399924099879346e-02
5.821099999999999852e+01 5.665200000000000102e+01 1.146599999999999966e+02 -6.749690000000000190e+00 9.356994149488649659e-02
5.821099999999999852e+01 7.352899999999999636e+01 1.306100000000000136e+02 -7.074440000000000062e+00 9.580350934943153429e-02
5.821300000000000097e+01 8.349299999999999500e+01 1.005100000000000051e+02 -2.530237999999999943e+01 -7.652669849506167632e-02
5.821399999999999864e+01 7.022400000000000375e+01 1.078499999999999943e+02 1.107593999999999994e+02 -7.665431912704251394e-02
5.821600000000000108e+01 6.160000000000000142e+01 1.276299999999999955e+02 -1.649697000000000102e+01 9.319188527108800135e-02
5.821600000000000108e+01 5.285699999999999932e+01 1.195699999999999932e+02 -3.392951000000000050e+00 9.167219777577388651e-02
5.821600000000000108e+01 5.285699999999999932e+01 1.206200000000000045e+02 -9.189450999999999592e-01 9.156338529348127808e-02
5.821699999999999875e+01 7.994799999999999329e+01 1.066899999999999977e+02 6.362042999999999449e-01 -7.668848737432482077e-02
5.821800000000000352e+01 5.181600000000000250e+01 9.582099999999999795e+01 -1.531084000000000067e+01 2.089123824714296876e-02
5.821900000000000119e+01 4.810399999999999920e+01 8.656000000000000227e+01 -2.098448000000000135e+01 1.112459405033248555e-01
5.822200000000000131e+01 6.012700000000000244e+01 1.267199999999999989e+02 -1.819244000000000128e+01 9.290878642653054020e-02
5.822299999999999898e+01 7.274200000000000443e+01 8.962099999999999511e+01 -9.964503999999999806e+00 -6.653495000184535269e-02
5.822299999999999898e+01 7.414199999999999591e+01 8.962099999999999511e+01 -1.104904999999999937e+01 -6.634972105571350365e-02
5.822299999999999898e+01 8.192300000000000182e+01 1.068299999999999983e+02 -1.744161999999999990e+00 -7.667733972332238523e-02
5.822399999999999665e+01 8.073900000000000432e+01 1.005400000000000063e+02 -1.721365000000000123e+01 -7.659123371990814166e-02
5.822399999999999665e+01 4.616299999999999670e+01 1.100199999999999960e+02 -2.263149999999999906e+01 1.807824041597951847e-01
5.822599999999999909e+01 7.533299999999999841e+01 1.161200000000000045e+02 -1.206494999999999962e+01 1.014582428590187629e-01
5.822599999999999909e+01 7.685299999999999443e+01 1.161200000000000045e+02 -1.905567999999999884e+01 1.018759676448031115e-01
5.822699999999999676e+01 8.212500000000000000e+01 9.975400000000000489e+01 -1.127229999999999954e+01 -7.652583614503054299e-02
5.822800000000000153e+01 6.956300000000000239e+01 1.082500000000000000e+02 1.704879000000000033e+01 -7.664707626803350660e-02
5.822800000000000153e+01 7.171500000000000341e+01 1.222300000000000040e+02 -2.701831999999999923e+01 9.805090262509473520e-02
5.823199999999999932e+01 4.580700000000000216e+01 1.092900000000000063e+02 -1.057822999999999958e+01 1.806393302898661735e-01
5.823199999999999932e+01 5.690200000000000102e+01 1.254399999999999977e+02 -8.894847000000000392e+00 9.215311284424032578e-02
5.823400000000000176e+01 7.267100000000000648e+01 1.210699999999999932e+02 -1.745989000000000146e+01 9.878700091089281932e-02
5.823499999999999943e+01 8.228600000000000136e+01 1.255199999999999960e+02 -1.742858999999999980e+01 9.914155627695091233e-02
5.823599999999999710e+01 7.478000000000000114e+01 1.314099999999999966e+02 -2.847526999999999830e+01 9.584522850074181366e-02
5.823700000000000188e+01 4.652000000000000313e+01 1.060000000000000000e+02 -5.648590999999999696e+00 1.046114789109637601e-02
5.823799999999999955e+01 4.826100000000000279e+01 8.734799999999999898e+01 -1.404508000000000045e+01 1.111595761445643149e-01
