1.696399999999999864e+01 1.745499999999999829e+01 -3.668999999999999773e+01 1.615251999999999910e+00 -2.614269576585282473e-01
1.696600000000000108e+01 2.736700000000000088e+01 -2.659700000000000131e+01 1.252599999999999980e+01 -2.607579559620953891e-01
1.696699999999999875e+01 3.492300000000000182e+01 3.510600000000000165e+00 1.163077999999999967e+01 -3.641129290182442690e-01
1.696799999999999997e+01 3.053000000000000114e+01 -1.757799999999999940e+01 -3.854306999999999928e+00 -2.460507123059587631e-01
1.696799999999999997e+01 2.894900000000000162e+01 -3.425200000000000244e+01 -3.632983999999999991e+00 -2.470563032226377742e-01
1.696900000000000119e+01 3.519200000000000017e+01 8.540300000000000225e+00 -3.117840999999999863e+00 -3.643522470364803922e-01
1.697299999999999898e+01 3.450500000000000256e+01 -3.137000000000000099e+01 -9.236636000000000735e+00 -2.459291129704289924e-01
1.697299999999999898e+01 3.158800000000000097e+01 -1.771499999999999986e+01 9.098254999999999981e+00 -2.457416425083593092e-01
1.697299999999999898e+01 4.802299999999999791e+00 5.896200000000000330e+00 1.032857000000000046e-02 -1.682054135546262597e-01
1.697400000000000020e+01 2.293700000000000117e+01 6.624900000000000233e-01 6.187437000000000076e+00 -2.621290751708287847e-01
1.697500000000000142e+01 5.073000000000000398e+00 -1.730499999999999972e+01 -3.229950000000000099e+00 -1.673130615404734844e-01
1.697500000000000142e+01 6.544999999999999929e+00 -1.730499999999999972e+01 4.953199999999999825e+00 -1.673672080926277284e-01
1.697800000000000153e+01 1.467399999999999949e+01 -3.295700000000000074e+01 -6.691677999999999793e-01 -1.673063046207459159e-01
1.698199999999999932e+01 2.729899999999999949e+01 -3.396399999999999864e+01 -5.433124000000000287e+00 -2.607859647580751394e-01
1.698300000000000054e+01 -2.295700000000000074e+00 -1.904500000000000171e+01 8.349216999999999445e+00 -1.670332601646004611e-01
1.698799999999999955e+01 1.947500000000000142e+01 3.024500000000000099e+01 -5.297767999999999589e+00 -1.462043409031115460e-01
1.698799999999999955e+01 1.980300000000000082e+01 3.098999999999999844e+01 6.418992000000000253e+00 -1.430957119424925428e-01
1.698799999999999955e+01 2.112199999999999989e+01 3.172500000000000142e+01 3.244677999999999685e+01 -2.453443563605028077e-01
1.698799999999999955e+01 2.244099999999999895e+01 3.098999999999999844e+01 -1.475896999999999970e+01 -2.308071418718952716e-01
1.698900000000000077e+01 1.882100000000000151e+01 -3.446000000000000174e+00 -4.921692000000000178e+01 -2.632621953807981474e-01
1.698999999999999844e+01 3.765500000000000114e+01 -1.286899999999999977e+01 2.948395999999999972e+01 -3.637399432755331619e-01
1.699099999999999966e+01 1.688500000000000156e+01 -3.522899999999999920e+01 9.602893999999999153e+00 -2.614892077498257583e-01
1.699200000000000088e+01 1.997599999999999909e+01 -1.289400000000000013e+01 2.811483000000000132e+01 -2.622874217054441681e-01
1.699299999999999855e+01 3.020700000000000074e+01 2.612800000000000011e+01 3.644165000000000099e+00 -3.657430489993321876e-01
1.699299999999999855e+01 2.139999999999999858e+01 5.282499999999999751e+00 2.866366999999999887e+00 -3.090578940306325934e-02
1.699399999999999977e+01 9.700699999999999434e+00 -3.287100000000000222e+01 3.810671000000000141e+00 -1.672101799277905254e-01
1.699500000000000099e+01 1.764300000000000068e+01 4.180100000000000371e+00 7.035597000000000101e+00 -2.647734378469370764e-01
1.699699999999999989e+01 4.048599999999999710e+01 -7.378599999999999604e+00 3.371910999999999881e+00 -3.638999035917226399e-01
1.699699999999999989e+01 1.707600000000000051e+01 2.908299999999999841e+01 -2.395267000000000124e+01 8.118026448035968456e-02
1.699699999999999989e+01 4.139700000000000379e+00 -2.269900000000000162e+01 -3.187549000000000188e+00 -1.672022085739771624e-01
1.699800000000000111e+01 -3.581999999999999851e+00 2.721399999999999864e+01 -3.495347000000000204e+00 1.127162269183024923e-01
1.699800000000000111e+01 -3.581999999999999851e+00 2.876399999999999935e+01 6.175345999999999691e+01 -3.652315402194446746e-03
1.699800000000000111e+01 3.908899999999999864e+01 -4.779200000000000337e+00 -4.956477000000000288e+01 -3.639385637820253816e-01
1.699899999999999878e+01 -4.203999999999999737e+00 1.653399999999999892e+01 1.686072000000000060e+01 1.166566883910067076e-01
1.700199999999999889e+01 2.181700000000000017e+01 2.932199999999999918e+00 3.905832000000000193e+01 -3.114457000761585229e-02
1.700799999999999912e+01 2.456099999999999994e+01 -8.514400000000000190e+00 -3.112445999999999913e+01 -2.613559364057050916e-01
1.700900000000000034e+01 3.045499999999999829e+01 -1.609100000000000108e+01 -1.427161000000000080e+01 -2.459684385506391568e-01
1.701300000000000168e+01 3.214500000000000313e+01 -2.681800000000000139e+01 8.825165999999999844e-01 -2.461813859727388643e-01
1.701500000000000057e+01 3.564900000000000091e+01 1.730600000000000094e+01 4.822174000000000404e+00 -3.646619697898368373e-01
1.701500000000000057e+01 -2.229000000000000092e+00 -1.631400000000000006e+01 7.071652000000000271e+01 -1.670603458832500277e-01
1.701599999999999824e+01 3.556799999999999784e+01 -3.363700000000000045e+01 1.818703999999999965e+01 -2.458545214324824868e-01
1.701699999999999946e+01 5.305799999999999628e+00 -2.092000000000000171e+01 -5.226106999999999836e+00 -1.672663836853463259e-01
1.701999999999999957e+01 2.577400000000000091e+01 -1.211999999999999922e+01 1.272287000000000035e+02 -2.610099580687691434e-01
1.702400000000000091e+01 1.396000000000000085e+01 -1.313799999999999990e+01 -3.568620000000000125e-01 -1.677804310478550331e-01
1.702400000000000091e+01 2.706400000000000006e+01 -2.589699999999999847e+01 9.682420000000000471e+00 -2.608102995573245986e-01
1.703000000000000114e+01 1.780499999999999972e+01 5.590499999999999581e+00 -8.039007999999999710e-01 -2.651021892434315963e-01
1.703000000000000114e+01 1.867099999999999937e+01 5.590499999999999581e+00 -1.066473999999999922e+00 -3.335183234141912006e-02
1.703300000000000125e+01 8.704000000000000625e+00 -3.076999999999999957e+01 2.158024000000000164e+00 -1.672189695459994074e-01
1.703300000000000125e+01 8.957900000000000418e+00 -3.166400000000000148e+01 2.527889000000000053e+00 -1.672132164819894462e-01
1.703300000000000125e+01 3.029799999999999827e+01 -1.947700000000000031e+01 -5.091873999999999789e+00 -2.462481565579207887e-01
1.703399999999999892e+01 5.376400000000000290e+00 -1.660500000000000043e+01 -1.158047999999999966e+00 -1.673469419524890589e-01
1.703399999999999892e+01 6.241600000000000037e+00 -1.660500000000000043e+01 6.540831999999999979e+00 -1.673797427832096341e-01
1.703399999999999892e+01 5.272300000000000431e+00 -2.194099999999999895e+01 -2.311974999999999980e+01 -1.672519772442772334e-01
1.703500000000000014e+01 4.255899999999999572e+00 -1.794200000000000017e+01 -2.347955999999999932e+00 -1.672814808066356018e-01
1.703500000000000014e+01 5.121100000000000207e+00 -1.794200000000000017e+01 1.900360000000000049e+00 -1.673126244192686962e-01
1.703800000000000026e+01 3.017699999999999960e+01 -3.499199999999999733e+01 -9.819415999999999700e-01 -2.468532047457797085e-01
1.703800000000000026e+01 3.162300000000000111e+01 -3.579800000000000182e+01 -6.377730000000000343e-01 -2.466211225025004838e-01
1.703900000000000148e+01 -1.939000000000000057e+00 1.459500000000000064e+01 -3.602295999999999943e+00 1.175528077120710224e-01
1.703900000000000148e+01 2.349500000000000099e+01 -1.712199999999999989e+01 -5.075286000000000186e+00 -2.615441459869766172e-01
1.704100000000000037e+01 1.089300000000000068e+01 4.710700000000000109e+00 -8.023187000000000069e+00 -1.688748659631700844e-01
1.704200000000000159e+01 1.122100000000000009e+01 5.420499999999999652e+00 -3.732775000000000176e+00 -1.690091022786930075e-01
1.704299999999999926e+01 3.999699999999999811e+00 -2.644200000000000017e+01 -1.301336999999999966e+00 -1.671586485470721306e-01
1.704599999999999937e+01 1.684799999999999898e+01 -1.269299999999999962e+01 1.573171999999999926e+01 -2.625726382775445122e-01
1.704799999999999827e+01 1.116000000000000014e+01 5.932000000000000384e+00 -3.314170999999999978e+00 -1.690795504607973121e-01
1.705000000000000071e+01 3.424499999999999744e+01 2.128900000000000148e+01 5.645689999999999875e-01 -3.648790256688059785e-01
1.705000000000000071e+01 3.159400000000000119e+01 -2.032400000000000162e+01 -2.889116999999999891e+01 -2.459406757039417912e-01
1.705199999999999960e+01 3.420100000000000051e+01 2.190099999999999980e+01 -4.531855000000000189e-01 -3.648950326278528888e-01
1.705300000000000082e+01 2.099299999999999855e+01 -2.728899999999999881e+00 -2.754319999999999879e+00 -3.268362964394584680e-02
1.705399999999999849e+01 1.742800000000000082e+01 -3.452900000000000347e+01 1.051394999999999946e+01 -2.614942181644289709e-01
1.705399999999999849e+01 1.742800000000000082e+01 -3.366299999999999670e+01 2.757899999999999796e+00 -2.615197136081677809e-01
1.705499999999999972e+01 -2.629199999999999982e+00 2.886899999999999977e+01 1.140578000000000003e+02 -7.348111056173703762e-03
1.705499999999999972e+01 -3.483000000000000096e+00 -1.811199999999999832e+01 2.696218000000000004e+00 -1.670096809027483142e-01
1.705499999999999972e+01 -3.483000000000000096e+00 -1.715399999999999991e+01 2.706658000000000008e+00 -1.670154665555616535e-01
1.705699999999999861e+01 3.194699999999999918e+01 2.648000000000000043e+01 3.440780000000000172e+01 -3.653116321210481132e-01
1.705900000000000105e+01 5.553799999999999848e+00 2.866900000000000048e+01 -8.313860000000000028e+00 5.181729841598536673e-04
1.706299999999999883e+01 -3.917899999999999938e+00 2.798900000000000077e+01 1.434838000000000058e+00 -3.838260960332685792e-03
1.706299999999999883e+01 2.279500000000000171e+01 3.022200000000000131e+01 2.429943999999999882e+00 -2.286348619722110287e-01
1.706400000000000006e+01 2.256299999999999883e+01 -1.973199999999999932e+01 5.424529999999999852e+00 -2.616902918430948910e-01
1.706400000000000006e+01 2.396300000000000097e+01 -1.973199999999999932e+01 4.522871999999999559e+00 -2.614055169602166329e-01
1.707000000000000028e+01 -2.168699999999999850e+00 1.380499999999999972e+01 -5.212670000000000359e-01 1.174729338449289617e-01
1.707300000000000040e+01 1.620899999999999963e+01 -3.286899999999999977e+01 -1.992729999999999890e+00 -2.615918058968839666e-01
1.707400000000000162e+01 2.610200000000000031e+01 -3.483700000000000330e+01 -3.176415000000000077e+01 -2.609414575949827730e-01
1.707400000000000162e+01 3.383899999999999864e+01 2.356200000000000117e+01 -1.845301999999999998e+00 -3.649569230448866941e-01
1.707499999999999929e+01 1.364400000000000013e+01 -1.389799999999999969e+01 -7.704544000000000281e+00 -1.677485769993635745e-01
1.708099999999999952e+01 6.568999999999999950e+00 -1.780000000000000071e+01 7.163287000000000404e+00 -1.673744989113423454e-01
1.708599999999999852e+01 8.842200000000000060e+00 -2.989000000000000057e+01 3.337705000000000144e+00 -1.672389440943969074e-01
1.708599999999999852e+01 3.527300000000000324e+01 2.741499999999999826e+00 -1.083211999999999975e+01 -3.640949782511791466e-01
1.708699999999999974e+01 2.388800000000000168e+01 -3.133999999999999897e+00 1.083907999999999987e+02 -2.616543603301565435e-01
1.708800000000000097e+01 4.576999999999999957e+00 2.707999999999999829e+01 -9.954311000000000575e+00 1.224947987382451198e-01
1.708800000000000097e+01 4.576999999999999957e+00 2.982999999999999829e+01 -3.087569999999999926e+00 1.193118012523827209e-01
1.708899999999999864e+01 1.750199999999999889e+01 4.890500000000000291e+00 -3.157791000000000015e+00 -2.650133295935403477e-01
1.708899999999999864e+01 1.985999999999999943e+01 -1.105399999999999938e+00 -1.826136999999999944e+01 -3.314403767405837281e-02
1.708899999999999864e+01 3.308699999999999974e+00 -2.523100000000000165e+01 -1.153624999999999901e+00 -1.671589907279059650e-01
1.708899999999999864e+01 2.530699999999999861e+01 -2.015299999999999869e+01 -4.797247999999999735e+00 -2.611350223175415985e-01
1.708999999999999986e+01 3.068000000000000060e+00 -2.285099999999999909e+01 2.783573999999999771e-01 -1.671801025275278518e-01
1.709499999999999886e+01 2.305900000000000105e+01 2.976599999999999824e+01 1.272195999999999927e+01 -2.275258959493630662e-01
1.709499999999999886e+01 3.984400000000000119e+01 -9.785800000000000054e+00 3.565842000000000178e-01 -3.638372404524711223e-01
1.709700000000000131e+01 1.096700000000000053e+01 2.181299999999999795e+00 -3.153764999999999930e+00 -1.686117930244428187e-01
1.710399999999999920e+01 1.279199999999999982e+01 2.541100000000000136e+01 -3.798877000000000237e+01 -1.872553939303936710e-01
1.710600000000000165e+01 -1.332999999999999963e+00 8.422000000000000597e+00 -6.519861999999999602e-01 -1.675769922452932104e-01
1.710900000000000176e+01 3.410699999999999932e+01 2.280300000000000082e+01 -9.146193999999999713e-01 -3.649032468155510300e-01
1.710999999999999943e+01 3.020100000000000051e+01 -1.682400000000000162e+01 -5.117392999999999859e+00 -2.461127513695161306e-01
1.711199999999999832e+01 2.655099999999999838e+01 -3.733899999999999864e+01 -1.737797000000000125e+01 -2.608819090787849460e-01
1.711199999999999832e+01 2.794099999999999895e+01 -2.690700000000000003e+01 1.746604999999999963e+00 -2.471381103525168987e-01
1.711199999999999832e+01 2.884799999999999898e+01 -2.690700000000000003e+01 -3.143416999999999906e+00 -2.469309772627127642e-01
1.711899999999999977e+01 1.975900000000000034e+01 -1.998699999999999921e+00 -2.577524999999999977e+01 -2.633369848492672638e-01
1.711899999999999977e+01 2.408999999999999986e+01 1.535700000000000065e+00 3.618724999999999881e+01 -2.615739031254095126e-01
1.712000000000000099e+01 2.551800000000000068e+01 -8.945199999999999818e+00 -1.398380000000000045e+01 -2.610794248627698044e-01
1.712199999999999989e+01 2.619800000000000040e+01 2.822299999999999898e+01 -2.935729999999999862e+01 -2.227308840909632826e-01
1.712199999999999989e+01 -8.983799999999999564e-01 -2.135099999999999909e+01 7.943598999999999855e+00 -1.670789616988423432e-01
1.712600000000000122e+01 1.935300000000000020e+00 -2.122700000000000031e+01 1.666301999999999950e+01 -1.671695585447504073e-01
1.712600000000000122e+01 1.935300000000000020e+00 -2.017699999999999960e+01 8.085556999999999661e+00 -1.671823471473414535e-01
1.712600000000000122e+01 1.935300000000000020e+00 -1.931099999999999994e+01 7.500760999999999790e+00 -1.671933511094426950e-01
1.712699999999999889e+01 1.958599999999999852e+01 -4.781100000000000350e+00 -1.069453999999999994e+01 -2.630361387836184228e-01
1.712800000000000011e+01 1.014100000000000001e+01 -3.363600000000000279e+01 5.937071000000000431e+00 -1.672219183069303394e-01
1.712999999999999901e+01 2.657999999999999829e+01 -3.849799999999999756e+01 -7.634324000000000332e+00 -2.608761874337111597e-01
1.712999999999999901e+01 2.582799999999999940e+01 -3.568800000000000239e+01 -5.113821000000000083e+01 -2.609755592031272053e-01
1.713200000000000145e+01 8.461700000000000443e+00 2.544200000000000017e+01 -1.746845000000000070e+01 -1.800771348694720775e-01
1.713200000000000145e+01 1.006400000000000006e+01 2.544200000000000017e+01 -2.202421999999999969e+01 -1.841970668956772195e-01
1.713200000000000145e+01 3.435499999999999687e+01 1.979500000000000171e+01 -1.291430000000000078e+01 -3.648153495017967818e-01
1.713700000000000045e+01 -2.151800000000000157e+00 1.538199999999999967e+01 -6.105334000000000039e+00 1.175003783453774930e-01
1.713899999999999935e+01 8.862399999999999167e+00 -2.899200000000000088e+01 9.597797999999999163e+00 -1.672573273489353918e-01
1.713899999999999935e+01 -2.536999999999999922e+00 1.619500000000000028e+01 2.271332999999999824e+00 1.173386619497232275e-01
1.713899999999999935e+01 2.946199999999999974e+01 -2.749399999999999977e+01 -4.242036999999999836e+00 -2.468108999893650624e-01
1.713899999999999935e+01 3.032799999999999940e+01 -2.749399999999999977e+01 -1.868357000000000046e+00 -2.466190980678807931e-01
1.713899999999999935e+01 6.265600000000000058e+00 -1.850000000000000000e+01 1.092969000000000079e+01 -1.673585134611534353e-01
1.714000000000000057e+01 -2.922299999999999898e+00 1.700799999999999912e+01 9.864494000000000318e-01 1.171453952793420489e-01
1.714399999999999835e+01 3.483899999999999864e+01 4.960600000000000342e+00 1.148836000000000013e+01 -3.641832966604909849e-01
1.714399999999999835e+01 3.521800000000000352e+01 -2.235099999999999865e-01 -1.604550000000000054e+01 -3.639830193447410878e-01
1.714499999999999957e+01 2.505399999999999849e+01 -3.134100000000000108e+01 -1.639245000000000019e+01 -2.611061512322554456e-01
1.714499999999999957e+01 1.845599999999999952e+01 -2.745999999999999996e+00 -3.757231000000000165e+01 -2.634397526039039539e-01
1.714600000000000080e+01 -1.997999999999999998e+00 8.667699999999999960e+00 -8.886389000000000093e-01 -1.675159264783644963e-01
1.714699999999999847e+01 2.364799999999999969e+01 2.904700000000000060e+01 4.161219000000000001e+00 -2.365192336525825945e-01
1.715200000000000102e+01 2.512699999999999889e+01 -2.920900000000000052e+00 3.933250000000000135e+00 -2.474101669953193972e-01
1.715399999999999991e+01 2.038700000000000045e+01 5.517400000000000304e+00 7.724149000000000154e-01 -3.173477520754593162e-02
1.715800000000000125e+01 3.068599999999999994e+01 2.593799999999999883e+01 4.833453000000000443e+00 -3.655393846915725997e-01
1.715800000000000125e+01 2.484799999999999898e+01 2.885000000000000142e+01 -2.975422999999999973e+01 -2.285984103811942725e-01
1.715899999999999892e+01 -4.229999999999999871e-01 2.883200000000000074e+01 6.321882999999999697e+00 1.127579065405427128e-01
1.716000000000000014e+01 -3.354900000000000104e-01 -1.694399999999999906e+01 1.254241999999999990e+01 -1.671465078208799748e-01
1.716000000000000014e+01 1.064500000000000002e+00 -1.694399999999999906e+01 7.426395000000000302e+00 -1.671984691927729805e-01
1.716100000000000136e+01 3.522899999999999920e+01 1.199000000000000021e+01 -1.696631000000000000e+01 -3.645206229709104795e-01
1.716499999999999915e+01 3.576500000000000057e+01 -3.027699999999999836e+00 -7.067528000000000254e+00 -3.639124181318664220e-01
1.716499999999999915e+01 1.376399999999999935e+01 2.837300000000000111e+01 6.697986000000000217e+00 8.532670703723357897e-02
1.716600000000000037e+01 1.509800000000000075e+01 2.894399999999999906e+01 -6.406640999999999586e+00 -8.106272046146577315e-02
1.716799999999999926e+01 1.988700000000000045e+01 -1.233299999999999952e-01 -2.726426000000000016e+01 -3.300346037863979842e-02
1.716799999999999926e+01 2.402299999999999969e+01 -1.702100000000000080e+01 1.140308000000000099e+00 -2.614481724174592125e-01
1.717000000000000171e+01 3.548700000000000188e+01 1.278299999999999947e+01 -4.866852999999999874e+00 -3.645399539692872337e-01
1.717000000000000171e+01 5.600000000000000533e-01 -2.214799999999999969e+01 5.343012000000000317e-01 -1.671225166437953769e-01
1.717000000000000171e+01 1.233699999999999974e+01 1.275900000000000034e+00 1.138041000000000053e-01 -1.686661859392181162e-01
1.717000000000000171e+01 1.381300000000000061e+01 5.939999999999999725e-01 -1.141761999999999944e+00 -1.687097695834558486e-01
1.717200000000000060e+01 1.190800000000000081e+00 7.295700000000000074e+00 -1.386131000000000002e+00 -1.679076397663648579e-01
1.717299999999999827e+01 3.335300000000000153e+01 -2.664099999999999824e+01 -4.347317999999999927e+01 -2.459170663974891424e-01
1.717299999999999827e+01 3.443699999999999761e+01 -2.969600000000000151e+01 -3.360669999999999824e+00 -2.458648760754377771e-01
1.717299999999999827e+01 3.464600000000000080e+01 -2.896000000000000085e+01 -2.208946999999999861e+01 -2.457817774342322681e-01
1.717299999999999827e+01 3.464600000000000080e+01 -2.736199999999999832e+01 -4.020156999999999670e+01 -2.456845010706070753e-01
1.717299999999999827e+01 3.487299999999999756e+01 -2.816100000000000136e+01 -1.119107999999999947e+01 -2.456878187771621425e-01
1.717599999999999838e+01 1.162500000000000000e+01 -1.452899999999999991e+01 1.647853000000000012e+00 -1.676672072535819735e-01
1.717699999999999960e+01 2.006200000000000117e+01 -2.698700000000000099e+00 -1.335965999999999987e+01 -3.318587578292407636e-02
1.717699999999999960e+01 2.092800000000000082e+01 -5.651299999999999990e+00 -5.664704999999999657e+00 -3.305848952970151522e-02
1.717699999999999960e+01 -2.786300000000000221e+00 2.619500000000000028e+01 3.613480000000000025e-01 1.141726805927313348e-01
1.717800000000000082e+01 6.913999999999999702e+00 -1.164899999999999913e+01 2.378320000000000078e+01 -1.675588815920757702e-01
1.717800000000000082e+01 1.831800000000000139e+01 2.860900000000000176e+01 -2.706884000000000157e+01 7.904624462853444833e-02
1.718100000000000094e+01 1.032900000000000063e+01 -1.392200000000000060e+01 1.745244999999999891e+02 -1.676370805402269681e-01
1.718199999999999861e+01 8.964100000000000179e+00 7.846899999999999764e+00 -4.079684999999999562e+00 -1.691551232490585421e-01
1.718299999999999983e+01 3.865699999999999648e+01 -4.366399999999999615e+00 -1.854512000000000072e+01 -3.639443954196887043e-01
1.718299999999999983e+01 2.231899999999999906e+01 -1.159500000000000064e+01 -1.601446999999999932e+01 -2.620109009246475718e-01
1.718700000000000117e+01 3.412199999999999989e+01 -1.407699999999999996e+01 -6.508619999999999628e+00 -2.445912020006753840e-01
1.718700000000000117e+01 3.703000000000000114e+01 -3.991899999999999782e+00 -1.105052000000000056e+01 -3.639179638624961965e-01
1.718700000000000117e+01 3.789500000000000313e+01 -3.991899999999999782e+00 -2.040295000000000059e+01 -3.639380912863148243e-01
1.718799999999999883e+01 3.918500000000000227e+01 -1.066600000000000037e+01 -4.591460999999999792e+00 -3.638095875586523364e-01
1.719099999999999895e+01 2.267399999999999860e+00 -1.861700000000000088e+01 2.666075000000000195e+00 -1.672236406860460600e-01
1.719500000000000028e+01 2.122599999999999820e+00 7.080099999999999838e+00 1.186536999999999953e+00 -1.680372604371873080e-01
1.719500000000000028e+01 2.826899999999999835e+01 2.600300000000000011e+01 7.101435999999999638e+00 -3.660202707834021574e-01
1.719600000000000151e+01 1.708399999999999963e+01 -1.346300000000000052e+00 1.696299000000000001e-01 -2.638556456452256227e-01
1.719699999999999918e+01 5.420799999999999841e+00 -1.235399999999999920e+01 1.341668000000000083e+00 -1.674733985007419435e-01
1.719800000000000040e+01 1.955699999999999861e+01 -3.446000000000000174e+00 -1.367318000000000033e+01 -2.632072543534442755e-01
1.720100000000000051e+01 2.602400000000000091e+01 2.201999999999999957e+00 1.793528999999999929e+00 -2.462974360281446895e-01
1.720299999999999940e+01 2.267899999999999849e+01 -1.732400000000000162e+01 -9.930737999999999843e+00 -2.617491277518391168e-01
1.720400000000000063e+01 6.375000000000000000e+00 6.506499999999999950e+00 -1.042569999999999997e+00 -1.686015502555489043e-01
1.720499999999999829e+01 1.242800000000000082e+01 -3.486299999999999955e+01 3.169003000000000014e+00 -1.672570529141891860e-01
1.720799999999999841e+01 2.019600000000000151e+01 6.496100000000000207e-01 -1.025371999999999950e+01 -3.269333913051869489e-02
1.721000000000000085e+01 1.034299999999999997e+01 7.519700000000000273e+00 -7.050675000000000026e+00 -1.693189048910476724e-01
1.721099999999999852e+01 2.862000000000000099e+01 -1.669000000000000128e+01 -1.217599000000000053e+01 -2.466196835193474879e-01
1.721099999999999852e+01 1.904700000000000060e+01 5.116100000000000314e+00 2.100566000000000155e+00 -3.301558817131956813e-02
1.721199999999999974e+01 3.448400000000000176e+01 1.883699999999999974e+01 5.342393000000000391e+00 -3.647636523639752881e-01
1.721399999999999864e+01 -3.447999999999999954e+00 2.339699999999999847e+01 -2.908780000000000143e+00 1.155070650356885553e-01
1.721399999999999864e+01 1.945100000000000051e+01 2.936700000000000088e+01 -8.492000000000000881e+00 -1.459273398432107682e-01
1.721799999999999997e+01 1.646099999999999897e+00 -2.202100000000000080e+01 2.842522999999999911e+00 -1.671632791185768130e-01
1.722400000000000020e+01 3.153300000000000125e+01 -1.497100000000000009e+01 -9.861314000000000135e+00 -2.455406535126870293e-01
1.723300000000000054e+01 3.422500000000000142e+01 2.034499999999999886e+01 9.746496999999999744e+00 -3.648202199307769567e-01
1.723400000000000176e+01 8.515800000000000480e+00 -2.839699999999999847e+01 5.860262999999999778e+00 -1.672677351042489435e-01
1.723699999999999832e+01 1.123700000000000010e+01 -3.453199999999999648e+01 5.425017000000000422e+00 -1.672416838591379296e-01
1.723699999999999832e+01 4.687199999999999811e+00 2.471300000000000097e+01 -1.158028000000000013e+01 2.536671400190969230e-03
1.723900000000000077e+01 3.370000000000000107e+00 -1.795499999999999829e+01 -2.068943000000000032e-01 -1.672802167399065065e-01
1.723999999999999844e+01 1.935100000000000042e+00 -1.585699999999999932e+01 3.772432999999999925e+00 -1.672603573254469733e-01
1.723999999999999844e+01 1.345599999999999952e+01 -3.352100000000000080e+01 1.014390999999999998e+01 -1.672985506426726832e-01
1.724099999999999966e+01 2.850000000000000000e+01 -3.405499999999999972e+01 -5.608357999999999954e+00 -2.606601485020610953e-01
1.724500000000000099e+01 2.231200000000000117e+01 -3.232499999999999929e+00 2.783228999999999953e+00 -2.623679355467266605e-01
1.724599999999999866e+01 3.673299999999999788e+00 -2.593199999999999861e+01 -5.015740000000000087e+00 -1.671788815397055039e-01
1.724800000000000111e+01 2.757700000000000173e+01 -2.606700000000000017e+01 7.794632000000000005e+00 -2.607553228315869775e-01
1.724800000000000111e+01 2.129000000000000004e+00 -2.287900000000000134e+01 -4.479450999999999850e-01 -1.671716794538489204e-01
1.725400000000000134e+01 1.856599999999999895e+01 3.858499999999999819e+00 7.344568999999999903e+00 -3.355406324464663831e-02
1.726500000000000057e+01 1.549000000000000021e+01 3.964199999999999946e-01 1.988391000000000020e+00 -1.688396052737121400e-01
1.726500000000000057e+01 -1.591700000000000059e-01 7.843600000000000350e+00 -1.684401999999999955e+00 -1.677960708222524244e-01
1.726599999999999824e+01 6.018299999999999983e+00 -2.005600000000000094e+01 2.605609999999999982e+00 -1.673388865632592926e-01
1.726599999999999824e+01 6.018299999999999983e+00 -1.919099999999999895e+01 3.512609999999999899e-01 -1.673552606181029911e-01
1.726699999999999946e+01 3.589399999999999835e+01 -3.529599999999999937e+01 1.058747999999999934e+01 -2.458928302644700636e-01
1.726800000000000068e+01 1.936899999999999977e+01 -2.612499999999999822e+00 -1.885744000000000042e+01 -2.633538924931507763e-01
1.726999999999999957e+01 1.874399999999999977e+01 4.416100000000000136e+00 2.332343999999999973e+00 -3.334854536487992516e-02
1.727199999999999847e+01 -2.571099999999999941e+00 1.298099999999999987e+01 7.167875999999999692e-01 1.173738633730309483e-01
1.727400000000000091e+01 1.273600000000000065e+01 -1.444400000000000084e+01 -4.754760000000000097e+00 -1.677297782702833473e-01
1.727400000000000091e+01 3.534899999999999665e+01 -1.406000000000000050e+01 8.391610000000000458e-01 -2.442102263831648357e-01
1.727700000000000102e+01 3.088800000000000168e+01 -1.539100000000000001e+01 -6.170975000000000321e+00 -2.457962400322609153e-01
1.727899999999999991e+01 3.815899999999999892e+01 -3.560599999999999987e+00 -3.294719000000000175e+00 -3.639581601345053818e-01
1.728500000000000014e+01 2.659900000000000020e+01 -3.402300000000000324e+01 -1.943969999999999843e+01 -2.609020725349416314e-01
1.728500000000000014e+01 2.799899999999999878e+01 -3.402300000000000324e+01 -6.528071999999999875e+00 -2.607265814345190447e-01
1.728500000000000014e+01 2.442000000000000171e+01 -3.141900000000000048e+01 -2.240125000000000099e+01 -2.612062656104846003e-01
1.728900000000000148e+01 2.368299999999999983e+01 -1.189199999999999946e+01 -2.809981000000000151e+01 -2.616410274667991809e-01
1.729100000000000037e+01 3.304200000000000159e+01 -1.434299999999999997e+01 -7.402658999999999878e+00 -2.449847566028263979e-01
1.729200000000000159e+01 -1.780299999999999994e+00 -1.982999999999999829e+01 6.207510000000000083e+00 -1.670866919927205818e-01
1.729299999999999926e+01 7.347100000000000186e+00 -2.769699999999999918e+01 -4.483070999999999806e+00 -1.672557383842798173e-01
1.729299999999999926e+01 8.212400000000000588e+00 -2.769699999999999918e+01 3.251034999999999897e+00 -1.672771114585213104e-01
1.729400000000000048e+01 3.571699999999999875e+01 6.639700000000000379e+00 3.243468999999999935e-01 -3.642832356483344247e-01
1.729400000000000048e+01 3.571699999999999875e+01 7.690299999999999692e+00 1.600566999999999851e+01 -3.643222212181151942e-01
1.729599999999999937e+01 2.067599999999999838e+01 -1.283600000000000030e+01 4.514584000000000152e+00 -2.622750118112401330e-01
1.729799999999999827e+01 1.823799999999999955e+01 4.890500000000000291e+00 4.436823999999999657e+00 -2.649200031866622007e-01
1.730099999999999838e+01 4.839699999999999669e+00 -2.264099999999999824e+01 -8.063625000000000043e+00 -1.672629492777893134e-01
1.730099999999999838e+01 3.387700000000000244e+01 2.414900000000000091e+01 -7.481466000000000172e+00 -3.648758258632326390e-01
1.730199999999999960e+01 1.074000000000000066e+00 3.110099999999999909e+01 -2.364230999999999838e+01 1.087353291842465819e-01
1.730199999999999960e+01 2.593999999999999861e+00 3.110099999999999909e+01 -2.717631000000000085e+01 1.101064742250685846e-01
1.730399999999999849e+01 3.131700000000000017e+01 -2.677700000000000102e+01 1.010354999999999892e+00 -2.463818184452695736e-01
1.730499999999999972e+01 7.821299999999999919e+00 2.598400000000000176e+01 -7.259551000000000087e+00 -1.776403703045958127e-01
1.730600000000000094e+01 5.261400000000000077e+00 6.177599999999999980e+00 -1.247347999999999901e+00 -1.684626061166658861e-01
1.730799999999999983e+01 1.912600000000000122e+01 -1.311100000000000065e+01 4.893809000000000253e+01 -2.623929421019165487e-01
1.730999999999999872e+01 2.129100000000000037e+01 -4.012700000000000244e+01 -9.917030999999999485e-01 -2.612379829394971820e-01
1.730999999999999872e+01 3.284499999999999975e+00 -1.500000000000000000e+01 6.532486999999999711e+00 -1.673412699630614786e-01
1.731099999999999994e+01 3.991999999999999993e+00 5.965900000000000425e+00 3.057573000000000096e+00 -1.682704441606874268e-01
1.731400000000000006e+01 3.477199999999999847e+01 1.823300000000000054e+01 6.863016000000000005e+00 -3.647057689683920745e-01
1.731500000000000128e+01 -2.307100000000000151e+00 2.425499999999999901e+01 2.599562999999999846e+00 1.158454108555183326e-01
1.731500000000000128e+01 2.726999999999999957e+01 -1.720599999999999952e+01 -1.109521999999999942e+01 -2.470872669739219984e-01
1.731899999999999906e+01 4.362899999999999778e+00 -1.342900000000000027e+01 1.742599000000000009e+00 -1.674221312354436109e-01
1.732100000000000151e+01 6.745599999999999596e+00 7.068599999999999994e+00 -8.081890000000000462e-01 -1.687865868678609105e-01
1.732100000000000151e+01 1.699500000000000099e+01 -3.296300000000000097e+01 -1.579287000000000107e+00 -2.615775691271272074e-01
1.732100000000000151e+01 2.606500000000000128e+01 -3.655199999999999960e+01 -2.259540000000000148e+01 -2.609594909045320210e-01
1.732199999999999918e+01 6.911699999999999733e+00 2.493799999999999883e+01 -1.563588000000000022e+01 -1.751150239413389875e-01
1.732400000000000162e+01 3.500300000000000011e+01 4.059300000000000352e+00 4.637749999999999595e+00 -3.641512142904976268e-01
1.732600000000000051e+01 2.237000000000000099e+01 -8.112099999999999866e+00 -1.126146999999999920e+01 -2.621572030724690916e-01
1.733299999999999841e+01 2.199899999999999878e+01 4.460300000000000153e+00 5.131255000000000344e+00 -3.055452131585561018e-02
1.734499999999999886e+01 2.572299999999999898e+01 -3.185200000000000031e+01 -1.945865999999999829e+01 -2.610316516978636314e-01
1.734600000000000009e+01 1.885500000000000043e+01 3.065300000000000136e+00 1.490935999999999950e+01 -3.337178799817172581e-02
1.735099999999999909e+01 -3.004000000000000004e+00 -1.888700000000000045e+01 3.405747999999999998e+00 -1.670621897796192301e-01
1.735099999999999909e+01 -3.004000000000000004e+00 -1.637900000000000134e+01 1.620136000000000109e+01 -1.670828383501284375e-01
1.735099999999999909e+01 -1.453999999999999959e+00 -1.637900000000000134e+01 1.479319000000000131e+02 -1.671405256743035694e-01
1.735699999999999932e+01 2.537800000000000011e+01 -1.688500000000000156e+01 -4.256643000000000399e+00 -2.611754142826672731e-01
1.735800000000000054e+01 -3.325000000000000178e+00 1.064199999999999946e+01 3.355999000000000176e+00 -1.687607150156980873e-01
1.735800000000000054e+01 -3.071099999999999941e+00 9.748300000000000409e+00 5.161580000000000334e-02 -1.683522648870439120e-01
1.735800000000000054e+01 -3.071099999999999941e+00 1.153599999999999959e+01 6.239569000000000365e-01 -1.689912238553144819e-01
1.735800000000000054e+01 -2.862000000000000099e+00 1.227200000000000024e+01 1.886597999999999997e+00 1.172909971741332713e-01
1.736299999999999955e+01 2.439400000000000013e+00 -1.798499999999999943e+01 4.110092999999999996e+00 -1.672647450062265950e-01
1.736299999999999955e+01 3.953000000000000114e+01 -5.542600000000000193e+00 -4.634273999999999916e+01 -3.639341535271407579e-01
1.736499999999999844e+01 8.591900000000000759e+00 1.104800000000000004e+01 -2.062068999999999974e+01 -1.698404674024364125e-01
1.736799999999999855e+01 4.525000000000000355e+00 -2.729200000000000159e+01 -2.658824000000000076e+00 -1.671982803790340866e-01
1.737199999999999989e+01 2.700000000000000000e+01 2.726999999999999957e+01 1.908884999999999943e+00 -3.662717958273227770e-01
1.737300000000000111e+01 3.855100000000000193e+01 -1.150600000000000023e+01 -4.609289000000000414e+00 -3.637854547277869499e-01
1.737600000000000122e+01 4.005600000000000271e+00 -1.423199999999999932e+01 3.777385000000000215e+00 -1.673986498129687306e-01
1.737800000000000011e+01 5.177999999999999936e+00 -2.808999999999999986e+01 -5.511658000000000390e-01 -1.672058299527723890e-01
1.737999999999999901e+01 7.593099999999999739e+00 -1.654799999999999827e+01 -1.201130999999999993e+01 -1.674880628533107207e-01
1.738100000000000023e+01 1.923699999999999832e+01 2.307599999999999874e+00 3.435097999999999985e+00 -3.314716668790985976e-02
1.738100000000000023e+01 2.042800000000000082e+01 1.643599999999999950e+00 -1.396335000000000015e+01 -3.235858887174229009e-02
1.738200000000000145e+01 2.620200000000000173e+01 -2.378699999999999815e+00 -1.077402000000000015e+01 -2.467428022894588846e-01
1.738200000000000145e+01 3.407800000000000296e+01 -3.692499999999999716e+01 7.944596999999999909e-01 -2.462640307809398355e-01
1.738200000000000145e+01 3.552400000000000091e+01 -3.611899999999999977e+01 1.922879000000000005e+01 -2.459966771788205386e-01
1.738299999999999912e+01 1.734700000000000131e+01 -1.308399999999999963e+01 2.667144000000000048e+01 -2.625528992350204538e-01
1.738599999999999923e+01 5.171299999999999564e+00 1.194699999999999918e+01 4.916191000000000422e+00 -1.692856227185434437e-01
1.738599999999999923e+01 1.012299999999999933e+01 1.251200000000000045e+01 -5.515344999999999942e+00 -1.705925823172444733e-01
1.738599999999999923e+01 2.452199999999999847e+01 2.235700000000000021e+00 1.557868000000000031e+01 -2.475609879076300646e-01
1.738599999999999923e+01 6.197300000000000253e+00 2.461199999999999832e+01 -1.479491999999999940e+01 -1.733649446163042507e-01
1.738800000000000168e+01 1.723900000000000077e+01 -3.587899999999999778e+01 9.831280999999999493e-01 -2.614857017741089029e-01
1.739000000000000057e+01 2.977499999999999858e+01 2.563700000000000045e+01 6.120307000000000386e+00 -3.655926372797896340e-01
1.739099999999999824e+01 -3.173099999999999810e+00 2.798900000000000077e+01 3.117527000000000115e+01 1.124745453250477756e-01
1.739099999999999824e+01 1.794399999999999906e+01 -3.903999999999999915e+01 -1.304912999999999990e+00 -2.613779585161260521e-01
1.739099999999999824e+01 1.821300000000000097e+01 -3.998599999999999710e+01 -1.107831000000000010e+00 -2.613462806795722737e-01
1.739099999999999824e+01 1.974399999999999977e+01 -4.084000000000000341e+01 9.859002999999999517e+00 -2.612780203249888689e-01
1.739199999999999946e+01 9.086800000000000210e+00 -1.299399999999999977e+01 2.677507999999999910e+01 -1.676549494248980587e-01
1.739300000000000068e+01 -1.968800000000000106e+00 2.844099999999999895e+01 1.778423000000000087e+01 1.125788552231137551e-01
1.739699999999999847e+01 1.815500000000000114e+01 -3.782200000000000273e+01 -1.350791999999999993e+00 -2.614021161996729070e-01
1.739699999999999847e+01 7.618500000000000050e+00 8.168499999999999872e+00 8.219526999999999362e+00 -1.691236808278541726e-01
1.739699999999999847e+01 1.536400000000000077e+01 -3.279800000000000182e+01 -4.139116999999999713e+00 -1.673606534775661792e-01
1.739999999999999858e+01 2.529200000000000159e+01 -3.974300000000000210e+01 -8.645051000000000263e-01 -2.610313323418276266e-01
1.740200000000000102e+01 3.449199999999999733e+01 9.673000000000000043e+00 3.054218999999999795e+00 -3.644345967305014922e-01
1.740200000000000102e+01 3.470100000000000051e+01 8.936899999999999622e+00 5.602631000000000139e-01 -3.643969403573713572e-01
1.740200000000000102e+01 3.513600000000000279e+01 -1.709000000000000075e+00 -2.691354000000000113e+01 -3.639392824641390911e-01
1.740299999999999869e+01 3.690800000000000125e+01 -1.351399999999999935e+01 1.524599000000000082e+01 -2.436619395378668007e-01
1.740399999999999991e+01 3.111799999999999855e+01 -1.976800000000000068e+01 -1.772285000000000110e+01 -2.460640955932924534e-01
1.740399999999999991e+01 3.111799999999999855e+01 -1.824800000000000111e+01 -1.372480000000000011e+01 -2.459599089181858655e-01
1.740399999999999991e+01 3.205799999999999983e+01 -1.976800000000000068e+01 -2.679100999999999999e+01 -2.458021427845228923e-01
1.740399999999999991e+01 3.205799999999999983e+01 -1.824800000000000111e+01 -7.604144999999999932e+00 -2.456840045254787552e-01
1.740599999999999881e+01 -3.564099999999999824e+00 1.748000000000000043e+01 -4.789201000000000263e+00 1.169203804044663120e-01
1.740599999999999881e+01 1.483699999999999974e+01 -1.284600000000000009e+01 3.875585000000000058e+00 -1.678973516208686623e-01
1.740599999999999881e+01 1.588700000000000045e+01 -1.284600000000000009e+01 1.440296999999999983e+01 -1.679360201526536311e-01
1.740700000000000003e+01 1.209200000000000053e+01 2.535300000000000153e+01 -4.642450999999999794e+01 -1.875547264626712951e-01
1.740700000000000003e+01 1.186400000000000077e+01 -3.496600000000000108e+01 2.516354999999999897e+00 -1.672627305435447631e-01
1.741100000000000136e+01 2.964900000000000091e+01 -3.431000000000000227e+01 -2.955899000000000054e+00 -2.469525153544790963e-01
1.741199999999999903e+01 2.462099999999999866e+01 -3.204099999999999682e+01 -2.162130000000000152e+01 -2.611847640105449675e-01
1.741199999999999903e+01 2.462099999999999866e+01 -3.064099999999999824e+01 -1.741085999999999956e+01 -2.612000990078616747e-01
1.741199999999999903e+01 2.548699999999999832e+01 -3.064099999999999824e+01 -1.715165000000000006e+01 -2.610789247779469746e-01
1.741300000000000026e+01 2.630600000000000094e+01 -2.431500000000000128e+01 -4.751962999999999937e+00 -2.609823720846877193e-01
1.741300000000000026e+01 2.651500000000000057e+01 -2.505099999999999838e+01 1.461190000000000033e+01 -2.609462691445841864e-01
1.741300000000000026e+01 2.651500000000000057e+01 -2.357900000000000063e+01 -7.819497000000000142e+00 -2.609468058882892794e-01
1.741300000000000026e+01 2.245799999999999841e+01 1.205999999999999961e+00 8.133361000000000729e+00 -3.103290605035266547e-02
1.741300000000000026e+01 2.341600000000000037e+01 1.205999999999999961e+00 3.416834999999999667e+01 -2.620525681749563685e-01
1.741300000000000026e+01 5.102299999999999613e+00 2.792999999999999972e+01 -5.979301000000000421e+00 1.456396626969999348e-03
1.741300000000000026e+01 5.102299999999999613e+00 2.898000000000000043e+01 -7.535045000000000215e+00 -1.705171930086912119e-03
1.741499999999999915e+01 2.591400000000000148e+01 -3.931700000000000017e+01 -7.315399000000000207e+00 -2.609683887978437866e-01
1.741600000000000037e+01 3.838000000000000256e+01 -1.653000000000000025e+00 1.742894000000000077e+01 -3.640247849608254094e-01
1.742000000000000171e+01 2.561599999999999966e+01 2.891600000000000037e+01 -3.774956999999999852e+01 -2.257781673108791298e-01
1.742999999999999972e+01 5.809000000000000163e+00 -1.611400000000000077e+01 2.641614999999999824e+00 -1.674383814861790387e-01
1.743100000000000094e+01 -2.882000000000000117e+00 2.694699999999999918e+01 8.722370000000000401e-01 1.136822320365187683e-01
1.743199999999999861e+01 3.533200000000000074e+01 -2.327700000000000102e+00 -1.156001000000000012e+01 -3.639269419960787233e-01
1.743199999999999861e+01 1.390499999999999936e+01 -3.289099999999999824e+01 4.056682999999999595e+00 -1.673344852116808723e-01
1.743299999999999983e+01 4.024399999999999977e+01 -8.880300000000000082e+00 -2.311298999999999992e+00 -3.638689064778106164e-01
1.743299999999999983e+01 4.024399999999999977e+01 -7.829699999999999882e+00 8.686703000000000063e-01 -3.638925125480592659e-01
1.743499999999999872e+01 3.258500000000000085e+01 -2.657499999999999929e+01 -5.411569000000000074e+00 -2.460989089051837109e-01
1.743499999999999872e+01 9.161699999999999733e+00 2.538400000000000034e+01 -1.453933999999999926e+01 -1.810347036738628179e-01
1.743499999999999872e+01 1.096599999999999930e+01 2.538400000000000034e+01 -3.742412999999999812e+01 -1.860406996783445233e-01
1.743599999999999994e+01 1.836700000000000088e+01 -2.253000000000000114e+00 -1.129659000000000013e+01 -2.635908698029300612e-01
1.743799999999999883e+01 1.357600000000000051e+01 2.789399999999999835e+01 -1.670590999999999937e+00 -2.251798696357374951e-01
1.744000000000000128e+01 1.830000000000000071e+01 -1.297899999999999920e+01 1.387238000000000113e+02 -2.624913812968361349e-01
1.744099999999999895e+01 2.386100000000000065e+01 -8.246999999999999886e+00 -3.310967000000000127e+01 -2.616881034432834152e-01
1.744600000000000151e+01 3.982300000000000040e+01 -6.299999999999999822e+00 -3.521304999999999907e+00 -3.639218980793310632e-01
1.744600000000000151e+01 1.331499999999999950e+01 2.613500000000000156e+01 -2.876708999999999961e+01 -1.916817459295123982e-01
1.744600000000000151e+01 1.352399999999999913e+01 2.687099999999999866e+01 -1.285161000000000087e+01 8.141321203956627950e-02
1.744800000000000040e+01 2.962099999999999866e+01 -2.677599999999999980e+01 -8.214178000000000424e+00 -2.467729032971476832e-01
1.744800000000000040e+01 2.480700000000000127e+00 -2.400300000000000011e+01 -2.241817000000000171e+00 -1.671929823161217854e-01
1.744900000000000162e+01 2.642699999999999960e+01 2.781400000000000006e+01 -4.838553000000000281e+01 -2.244756628264732434e-01
1.745299999999999940e+01 3.232300000000000040e+01 -3.594700000000000273e+01 7.004589999999999428e-02 -2.465262061288431283e-01
1.745299999999999940e+01 2.626500000000000057e+01 -1.172300000000000075e+01 3.110001000000000104e+01 -2.472746938805177874e-01
1.745299999999999940e+01 2.647400000000000020e+01 -1.098700000000000010e+01 6.575555999999999734e+00 -2.471603313103916122e-01
1.745799999999999841e+01 3.647200000000000131e+01 1.496799999999999997e+01 9.506638999999999839e+00 -3.644981472188467131e-01
1.746199999999999974e+01 3.639699999999999847e+01 1.409399999999999942e+01 8.926429000000000613e+00 -3.644866797997450836e-01
1.746399999999999864e+01 3.645100000000000007e-01 -1.700300000000000011e+01 1.716602999999999923e+01 -1.672183720884935776e-01
1.746499999999999986e+01 2.218599999999999994e+01 -3.996200000000000330e+01 -1.132187999999999972e+00 -2.612208615768496500e-01
1.746499999999999986e+01 2.381599999999999895e+01 -4.042499999999999716e+01 5.401726999999999501e-01 -2.611568312839480099e-01
1.746600000000000108e+01 2.634400000000000119e+01 -1.716300000000000026e+01 -6.268438999999999872e+00 -2.609778583069965463e-01
1.746600000000000108e+01 4.676400000000000112e+00 -1.687199999999999989e+01 7.980389999999999873e+00 -1.673838934176910820e-01
1.746699999999999875e+01 2.034700000000000131e+01 3.142899999999999849e+01 7.232312000000000296e+00 -1.391001962893544386e-01
1.746699999999999875e+01 2.189699999999999847e+01 3.142899999999999849e+01 -5.064307999999999765e+01 -2.389402899888214693e-01
1.746699999999999875e+01 3.078900000000000148e+01 -1.900799999999999912e+01 -9.790212000000000359e+00 -2.461136350166796272e-01
1.746699999999999875e+01 3.238700000000000045e+01 -1.900799999999999912e+01 -2.478779000000000110e+01 -2.456567267436625401e-01
1.747100000000000009e+01 3.146699999999999875e+01 2.597899999999999920e+01 3.207374000000000080e+01 -3.652148832074618712e-01
1.747100000000000009e+01 3.241499999999999915e+01 2.597899999999999920e+01 1.230555999999999983e+02 -3.650238244228700135e-01
1.747299999999999898e+01 7.350699999999999790e+00 -1.699699999999999989e+01 -6.070846999999999660e+00 -1.674826125821461953e-01
1.747500000000000142e+01 3.832699999999999996e+00 2.999699999999999989e+01 -6.309972000000000136e+00 1.174782060713271264e-01
1.747800000000000153e+01 2.212199999999999989e+01 1.981000000000000094e+00 4.882811999999999841e+01 -3.107202748485874896e-02
1.748199999999999932e+01 1.901800000000000068e+01 2.866700000000000159e+01 -1.651579999999999870e+01 -1.501993615269018867e-01
1.748300000000000054e+01 2.597299999999999898e+01 -3.124599999999999866e+01 -1.777943000000000140e+01 -2.610150566605994316e-01
1.748799999999999955e+01 1.754500000000000171e+01 2.864900000000000091e+01 -5.067067000000000121e+01 8.205201076443835451e-02
1.749500000000000099e+01 2.368400000000000105e+01 -3.141900000000000048e+01 -2.303138999999999825e+01 -2.613280965205456718e-01
1.749699999999999989e+01 2.186299999999999955e+01 -1.860000000000000142e+01 -5.790381000000000000e+00 -2.618937034842629408e-01
1.749699999999999989e+01 2.207199999999999918e+01 -1.933599999999999852e+01 7.864357000000000042e+00 -2.618460875732878113e-01
1.749699999999999989e+01 2.326300000000000168e+01 -2.000000000000000000e+01 2.685096000000000060e+01 -2.616061042765688294e-01
1.750000000000000000e+01 2.998600000000000065e+01 -1.652499999999999858e+01 -5.322655000000000136e+00 -2.461964428203696209e-01
1.750100000000000122e+01 2.831500000000000128e+01 -2.602199999999999847e+01 -4.396532999999999802e+00 -2.470575407887962149e-01
1.750100000000000122e+01 3.495000000000000284e+01 -3.264399999999999835e+01 8.640969000000000122e+00 -2.459397407978983208e-01
1.750300000000000011e+01 2.624099999999999966e+01 -1.016399999999999970e+01 -2.634489999999999998e+00 -2.472307204924578949e-01
1.750400000000000134e+01 3.661599999999999966e+01 -3.280899999999999928e+00 9.978419999999999845e+00 -3.639344937393677037e-01
1.750400000000000134e+01 3.748100000000000165e+01 -3.280899999999999928e+00 1.499390999999999918e+00 -3.639553843852702530e-01
1.750499999999999901e+01 -4.266000000000000014e+00 1.912300000000000111e+01 -9.480831999999999482e+00 1.164434681323915088e-01
1.750600000000000023e+01 2.409700000000000131e+01 1.963899999999999979e+00 3.593034000000000106e+01 -2.617211479873709501e-01
1.750600000000000023e+01 3.584400000000000031e+00 1.041600000000000037e+01 -5.288924999999999699e+01 -1.687897954520024835e-01
1.751000000000000156e+01 -3.927000000000000046e+00 2.079899999999999949e+01 7.819192000000000364e-01 1.162570077185240552e-01
1.751000000000000156e+01 -3.927000000000000046e+00 2.166400000000000148e+01 4.513517000000000223e+00 1.160237077263613914e-01
1.751000000000000156e+01 -3.927000000000000046e+00 2.262199999999999989e+01 -1.107191999999999954e+00 1.157064361201688152e-01
1.751500000000000057e+01 9.675399999999999778e+00 7.806799999999999962e+00 -4.624266999999999683e+00 -1.694525543204418727e-01
1.752199999999999847e+01 2.641199999999999903e+01 -2.142099999999999937e+01 -5.556400000000000228e-01 -2.609798284048496231e-01
1.752299999999999969e+01 3.488900000000000112e+00 2.627899999999999991e+01 -1.462481000000000009e+01 1.212406775957435012e-01
1.752899999999999991e+01 1.618599999999999994e+01 2.890599999999999881e+01 -1.095884999999999998e+01 8.532782539329833438e-02
