2.195400000000000063e+01 1.082399999999999984e+01 6.516700000000000159e+00 2.648676000000000030e+00 -7.649123309678512728e-02
2.195599999999999952e+01 2.366900000000000048e+01 1.928099999999999881e+01 9.806016999999999939e+01 2.109646224192374131e-01
2.196399999999999864e+01 3.635499999999999687e+01 1.368399999999999928e+01 1.877283999999999864e+01 -2.758687299085619826e-01
2.197599999999999909e+01 3.811399999999999721e+01 2.870500000000000274e-01 -7.184421999999999642e+00 -3.499999999999999778e-01
2.198400000000000176e+01 2.860900000000000176e+01 1.671099999999999852e+01 2.121679999999999922e+01 -1.597540293910374443e-01
2.199299999999999855e+01 1.515799999999999947e+01 1.582199999999999918e+01 -6.086185999999999652e+00 -7.649103229819809169e-02
2.199399999999999977e+01 1.509999999999999964e+01 6.789399999999999602e-02 4.509538000000000046e+00 -7.999999999999998779e-02
2.199500000000000099e+01 1.648000000000000043e+01 -6.224399999999999933e-01 -2.032332000000000027e-01 -1.691310096928587137e-01
2.199800000000000111e+01 3.488199999999999790e+01 1.495400000000000063e+01 3.326780999999999722e+01 -2.824398566065538518e-01
2.200300000000000011e+01 1.573199999999999932e+01 1.530899999999999928e+01 -5.737716999999999956e+00 -7.656694070595146395e-02
2.200700000000000145e+01 2.851500000000000057e+01 1.144500000000000028e+01 1.489886000000000088e+01 -1.705094360769243422e-01
2.201000000000000156e+01 1.062299999999999933e+01 1.479299999999999926e+01 -3.928472000000000186e+00 -7.616305904225627310e-02
2.201000000000000156e+01 1.206900000000000084e+01 1.559900000000000020e+01 -5.218511999999999595e+00 -7.618391368735985547e-02
2.201899999999999835e+01 2.717599999999999838e+01 2.018599999999999994e+01 4.164502999999999844e+00 -7.915023917774745288e-03
2.204299999999999926e+01 1.538199999999999967e+01 1.691300000000000026e+01 -5.948752999999999957e+00 -7.648051987441953359e-02
2.204599999999999937e+01 2.730499999999999972e+01 4.976700000000000124e+00 1.496964999999999968e+01 -2.740724068011466952e-01
2.206200000000000117e+01 4.115800000000000125e+01 1.372400000000000020e+01 1.176435999999999993e+01 -2.377307213319158063e-01
2.208200000000000074e+01 4.129299999999999926e+01 1.270500000000000007e+01 1.078492999999999924e+01 -2.380355653809544392e-01
2.208299999999999841e+01 4.143299999999999983e+01 3.471900000000000208e+00 -2.889163999999999888e+01 -2.724831520680250363e-01
2.208800000000000097e+01 3.229299999999999926e+01 -2.876700000000000035e+00 -1.421349999999999980e+01 -2.745307150544398223e-01
2.208800000000000097e+01 3.381300000000000239e+01 -2.876700000000000035e+00 -1.802242000000000033e+01 -2.746168201384304730e-01
2.210300000000000153e+01 1.776500000000000057e+01 -1.452099999999999946e+00 2.325315000000000021e-01 -1.675170029072149125e-01
2.210900000000000176e+01 2.141799999999999926e+01 1.860999999999999943e+01 3.823259999999999881e+00 -1.081107502441358559e-01
2.211100000000000065e+01 4.035000000000000142e+01 1.100900000000000034e+01 1.955351999999999890e+01 -2.699718096005517820e-01
2.211400000000000077e+01 1.816000000000000014e+01 2.149299999999999855e+01 -7.814676000000000400e+00 9.008995500663807832e-03
2.211400000000000077e+01 1.985999999999999943e+01 2.149299999999999855e+01 -1.174259999999999948e+01 -1.169700397689786148e-01
2.211899999999999977e+01 1.633999999999999986e+01 1.413499999999999979e+01 -1.238873000000000069e+01 -1.702508825514540691e-01
2.212399999999999878e+01 2.566000000000000014e+01 1.975799999999999912e+01 7.716592000000000340e+00 -1.204499105429116153e-02
2.212999999999999901e+01 1.716300000000000026e+01 2.091100000000000136e+01 -1.297561999999999927e+01 -1.773119534011075582e-01
2.214099999999999824e+01 2.829400000000000048e+01 1.610600000000000165e+01 3.675782999999999845e+01 -1.635873165180687649e-01
2.214399999999999835e+01 2.799399999999999977e+01 -8.813900000000000068e-01 -1.739950000000000108e+00 -2.743285789573021716e-01
2.214699999999999847e+01 2.748799999999999955e+01 -1.265199999999999936e-01 -3.901289999999999925e+00 -2.742917443983867720e-01
2.216300000000000026e+01 1.641900000000000048e+01 2.003600000000000136e+01 -1.137068999999999974e+01 -1.792980245715311283e-01
2.216300000000000026e+01 1.682600000000000051e+01 -1.352999999999999980e+00 6.862424000000000301e-01 -1.685839709133929998e-01
2.216499999999999915e+01 4.196300000000000097e+01 5.450999999999999623e+00 -9.433913999999999689e+00 -2.399583171837099960e-01
2.217500000000000071e+01 1.099900000000000055e+01 3.818000000000000060e+00 4.753831999999999880e+01 -7.652893897669080236e-02
2.217699999999999960e+01 2.346600000000000108e+01 8.576099999999999834e-01 -9.180566999999999922e+00 -1.810672644058608227e-01
2.217999999999999972e+01 1.598099999999999987e+01 1.932199999999999918e+01 -1.410341999999999985e+01 -7.649379577384947393e-02
2.218599999999999994e+01 3.061599999999999966e+01 1.181799999999999962e+01 2.668637000000000015e+01 -2.766127792669049734e-01
2.218599999999999994e+01 1.121299999999999919e+01 5.505300000000000082e+00 1.269656999999999947e+01 -7.651143089527215335e-02
2.218900000000000006e+01 2.779899999999999949e+01 8.476000000000000867e+00 1.870259000000000071e+01 -1.750320270846419946e-01
2.219300000000000139e+01 9.887700000000000600e+00 1.256199999999999939e+01 -3.294547000000000114e+00 -7.627038418672228703e-02
2.219300000000000139e+01 9.887700000000000600e+00 1.361200000000000010e+01 -3.747666999999999859e+00 -7.620948991740296441e-02
2.219500000000000028e+01 2.803500000000000014e+01 1.470700000000000074e+01 9.735741000000000156e+01 -1.670699322938538067e-01
2.219500000000000028e+01 2.824399999999999977e+01 1.397100000000000009e+01 3.396249999999999858e+01 -1.675822239020709759e-01
2.219500000000000028e+01 2.824399999999999977e+01 1.544299999999999962e+01 6.206644000000000005e+01 -1.651461815514436438e-01
2.219699999999999918e+01 2.832400000000000162e+01 -1.688099999999999934e+00 -1.280882000000000076e+00 -2.743990367959427412e-01
2.220299999999999940e+01 4.200600000000000023e+01 3.768299999999999983e+00 -1.233996999999999922e+01 -2.723012941937563158e-01
2.220499999999999829e+01 4.053099999999999881e+01 3.396799999999999820e+00 -1.854761999999999844e+01 -2.729564806396951870e-01
2.220599999999999952e+01 2.786899999999999977e+01 2.056200000000000117e+01 4.354137999999999842e+00 -1.268225497349678363e-02
2.220700000000000074e+01 2.635800000000000054e+01 2.863999999999999879e-01 -5.816337999999999786e-01 -2.743024825638072373e-01
2.221799999999999997e+01 4.252600000000000335e+01 4.436600000000000321e+00 -1.293694999999999951e+01 -2.409139953299005710e-01
2.221999999999999886e+01 3.134900000000000020e+01 2.027099999999999902e+00 -9.226292000000000826e+00 -2.744819938612469423e-01
2.223000000000000043e+01 3.885199999999999676e+01 1.467500000000000071e+01 2.317410999999999888e+01 -2.701659508591647829e-01
2.223000000000000043e+01 3.978300000000000125e+01 1.467500000000000071e+01 1.570269000000000048e+01 -2.683601538713692447e-01
2.224299999999999855e+01 2.666000000000000014e+01 9.303900000000000503e+00 1.691853000000000051e+01 -1.758060773593686510e-01
2.225300000000000011e+01 1.660000000000000142e+01 1.513000000000000078e+01 -9.807012999999999536e+00 -1.700171533673273117e-01
2.225700000000000145e+01 2.548499999999999943e+01 8.365800000000000125e+00 1.510689999999999955e+01 -1.777445828060578159e-01
2.226000000000000156e+01 1.472499999999999964e+01 1.512199999999999989e+01 -6.049998999999999683e+01 -7.644565661684704638e-02
2.227199999999999847e+01 3.924000000000000199e+01 2.474200000000000177e+00 -7.895229999999999748e+00 -2.737383475643697106e-01
2.228300000000000125e+01 1.589799999999999969e+01 1.837500000000000000e+01 -1.627824999999999989e+01 -7.648954007610743455e-02
2.229100000000000037e+01 2.885900000000000176e+01 2.045400000000000063e+01 5.889769999999999728e-01 -1.245915711468953760e-02
2.229100000000000037e+01 3.243699999999999761e+01 1.625999999999999890e+00 -1.754399999999999959e+00 -2.746263079949183838e-01
2.229200000000000159e+01 3.205899999999999750e+01 1.530300000000000082e+01 1.470335999999999999e+01 -2.859328608363141400e-01
2.229200000000000159e+01 2.536799999999999855e+01 3.940000000000000169e-01 -6.377933000000000074e-01 -1.803745583356776427e-01
2.229200000000000159e+01 2.444399999999999906e+01 1.934600000000000009e+01 5.910506999999999778e+01 2.108244501231633095e-01
2.229299999999999926e+01 2.425300000000000011e+01 6.570899999999999519e-01 -7.602788999999999797e-01 -1.808011953396534144e-01
2.229899999999999949e+01 2.311400000000000077e+01 1.862800000000000011e+01 3.188607000000000014e+01 2.067289894786577820e-01
2.230399999999999849e+01 1.058600000000000030e+01 9.600300000000000722e+00 -3.222623000000000015e-01 -7.640726258234752100e-02
2.230399999999999849e+01 2.310300000000000153e+01 -7.204900000000000193e-02 -5.754921999999999649e+00 -1.814298338662361232e-01
2.230799999999999983e+01 1.143999999999999950e+01 4.437700000000000422e+00 2.455917000000000030e+02 -7.652814544019201359e-02
2.230999999999999872e+01 4.021099999999999852e+01 1.028800000000000026e+01 1.578733000000000075e+01 -2.709332594468801259e-01
2.230999999999999872e+01 4.042000000000000171e+01 9.551999999999999602e+00 1.286103999999999914e+01 -2.711131301984311404e-01
2.230999999999999872e+01 4.142699999999999960e+01 8.544700000000000628e+00 1.606240999999999985e+01 -2.709289931835913157e-01
2.230999999999999872e+01 4.168099999999999739e+01 7.650999999999999801e+00 2.612419999999999742e-01 -2.391696855829485158e-01
2.231700000000000017e+01 1.377200000000000024e+01 1.522700000000000031e+01 -6.534591999999999956e+00 -7.634132299033545566e-02
2.232799999999999940e+01 2.998999999999999844e+01 -2.692000000000000171e+00 -2.370334000000000052e-01 -2.745578715736340381e-01
2.232799999999999940e+01 1.707600000000000051e+01 1.413499999999999979e+01 -3.080317000000000149e+01 -1.685270486612688023e-01
2.233200000000000074e+01 1.428999999999999915e+01 -1.817999999999999955e-03 3.751107000000000191e+00 -8.000000000000000167e-02
2.233399999999999963e+01 2.181299999999999883e+01 -1.125000000000000000e+00 -7.784737000000000462e-01 -1.820850087232417369e-01
2.233999999999999986e+01 1.558399999999999963e+01 1.419200000000000017e+01 -9.977472999999999814e+00 -7.654604025169776949e-02
2.234100000000000108e+01 3.411800000000000210e+01 1.503700000000000081e+01 4.831586999999999676e+01 -2.851342702887764702e-01
2.235300000000000153e+01 3.704500000000000171e+01 -7.119999999999999662e-01 2.466311000000000035e+02 -3.499999999999999778e-01
2.235800000000000054e+01 2.564499999999999957e+01 5.400800000000000267e+00 3.536225000000000307e+01 -1.787960529940847976e-01
2.235900000000000176e+01 2.947299999999999898e+01 1.694200000000000017e+01 7.891352000000000366e+00 -1.590784677848237072e-01
2.235900000000000176e+01 2.947299999999999898e+01 1.957999999999999829e+01 3.379302000000000139e-01 3.130137236621848007e-02
2.236100000000000065e+01 3.678699999999999903e+01 1.417500000000000071e+01 1.878618000000000166e+01 -2.767388560028406497e-01
2.236199999999999832e+01 1.088899999999999935e+01 1.030000000000000071e+01 -2.134202999999999850e+00 -7.639352139406237197e-02
2.236599999999999966e+01 1.563400000000000034e+01 -3.627099999999999769e-01 5.147053000000000322e-01 -1.703010233530609929e-01
2.237800000000000011e+01 4.156000000000000227e+01 6.765500000000000291e+00 8.318761999999999546e-01 -2.716856591070852533e-01
2.237800000000000011e+01 3.428300000000000125e+01 -2.116699999999999804e+00 -7.186620999999999704e+00 -2.748040516881593009e-01
2.238599999999999923e+01 1.590799999999999947e+01 1.343500000000000050e+01 -3.442219000000000051e+01 -1.697002476308916985e-01
2.238599999999999923e+01 1.677299999999999969e+01 1.343500000000000050e+01 -3.872997000000000156e+01 -1.685718413496759549e-01
2.239099999999999824e+01 2.535000000000000142e+01 1.939799999999999969e+01 2.404701999999999895e+00 -7.168384451790428720e-03
2.239099999999999824e+01 3.543599999999999994e+01 1.453299999999999947e+01 1.954395999999999844e+01 -2.822216298133640167e-01
2.239900000000000091e+01 3.759799999999999898e+01 1.500099999999999945e+01 1.696946000000000154e+01 -2.746598421250108779e-01
2.241000000000000014e+01 3.609199999999999875e+01 -8.171300000000000230e-01 1.170874000000000059e+01 -3.499999999999999778e-01
2.241199999999999903e+01 2.511400000000000077e+01 6.843499999999999694e+00 2.795896000000000114e+01 -1.788180370738774727e-01
2.241199999999999903e+01 2.511400000000000077e+01 7.708800000000000097e+00 1.328514000000000017e+01 -1.785618402879628475e-01
2.241199999999999903e+01 2.523199999999999932e+01 5.996400000000000396e+00 3.464350999999999914e+01 -1.789719467825284516e-01
2.241300000000000026e+01 1.853800000000000026e+01 -1.411599999999999966e+00 -5.861037000000000052e-01 -1.667825374591015986e-01
2.241700000000000159e+01 3.305299999999999727e+01 -2.939999999999999947e+00 -1.021776000000000018e+01 -2.747559884592390977e-01
2.241799999999999926e+01 1.509299999999999997e+01 1.441399999999999970e+01 -2.083408999999999978e+01 -7.649290561752927764e-02
2.242299999999999827e+01 1.954700000000000060e+01 -1.147999999999999909e+00 6.199952999999999825e+00 -1.656612289513592073e-01
2.242800000000000082e+01 2.635999999999999943e+01 1.981599999999999895e+01 5.173061999999999827e+00 -7.584714774494018610e-03
2.242899999999999849e+01 1.095899999999999963e+01 1.608999999999999986e+00 4.168523000000000422e+00 -7.654740077945301757e-02
2.242899999999999849e+01 1.121299999999999919e+01 7.152600000000000069e-01 6.377471999999999586e-01 -7.655884834764101199e-02
2.242899999999999849e+01 1.265900000000000070e+01 -9.099999999999999756e-02 7.201878999999999920e+00 -7.658573176453178921e-02
2.242999999999999972e+01 3.061299999999999955e+01 2.027099999999999902e+00 -8.549943999999999988e+00 -2.746125925661739298e-01
2.244000000000000128e+01 2.781500000000000128e+01 1.257799999999999940e+01 2.600866999999999862e+01 -1.714691934857970890e-01
2.244000000000000128e+01 2.802400000000000091e+01 1.184200000000000053e+01 1.913432999999999851e+01 -1.719054302125978262e-01
2.244000000000000128e+01 2.802400000000000091e+01 1.331400000000000006e+01 3.068045000000000044e+01 -1.701032385408761949e-01
2.244000000000000128e+01 2.921499999999999986e+01 1.117800000000000082e+01 1.062313999999999936e+01 -2.762473726617363790e-01
2.244399999999999906e+01 3.243500000000000227e+01 2.455700000000000216e+00 -4.578955999999999804e+00 -2.747892128361205666e-01
2.244500000000000028e+01 4.176599999999999824e+01 5.990999999999999659e+00 4.508859000000000172e+00 -2.719421477316830704e-01
2.245299999999999940e+01 4.064000000000000057e+01 1.164400000000000013e+01 2.462353999999999843e+01 -2.701680868425906934e-01
2.245299999999999940e+01 3.104899999999999949e+01 1.251800000000000068e+01 2.425003999999999849e+01 -2.785920680087812795e-01
2.245299999999999940e+01 3.104899999999999949e+01 1.421299999999999919e+01 1.615809000000000140e+01 -2.817306078617122789e-01
2.245400000000000063e+01 1.077999999999999936e+01 6.205300000000000260e+00 3.317003000000000146e+00 -7.648583907338371568e-02
2.246000000000000085e+01 1.631700000000000017e+01 1.652799999999999869e+01 -6.547582000000000235e+00 -1.707907739119120527e-01
2.246199999999999974e+01 1.017600000000000016e+01 6.564700000000000202e+00 1.326613000000000042e+00 -7.646571234601272360e-02
2.246699999999999875e+01 1.029899999999999949e+01 1.167399999999999949e+01 -3.595393000000000061e+00 -7.631784352303214169e-02
2.247200000000000131e+01 9.275700000000000500e+00 7.598700000000000010e+00 -3.092966999999999800e-01 -7.642374129876391975e-02
2.247200000000000131e+01 9.275700000000000500e+00 8.649300000000000210e+00 -2.362131000000000203e+00 -7.639641314831124852e-02
2.247800000000000153e+01 1.058399999999999963e+01 1.094500000000000028e+01 -5.183919000000000388e+00 -7.635711426058078288e-02
2.248199999999999932e+01 2.918400000000000105e+01 -2.297299999999999898e+00 -1.364554999999999962e+00 -2.746067958118645902e-01
2.248199999999999932e+01 1.109699999999999953e+01 2.488799999999999901e+00 1.230766999999999989e+01 -7.654056495191394194e-02
2.248799999999999955e+01 3.091700000000000159e+01 2.727100000000000080e+00 -3.672467999999999844e+00 -2.747090720191952551e-01
2.248799999999999955e+01 3.178200000000000003e+01 2.727100000000000080e+00 -1.639696000000000042e+00 -2.747837946161708622e-01
2.250000000000000000e+01 3.317300000000000182e+01 1.625999999999999890e+00 -7.835384999999999600e+00 -2.748686405890298778e-01
2.250300000000000011e+01 3.084900000000000020e+01 -2.470299999999999940e+00 -1.863855999999999957e+00 -2.746862063494587280e-01
2.250799999999999912e+01 3.983100000000000307e+01 3.338499999999999801e+00 -1.038588999999999984e+01 -2.735354342145200346e-01
2.251200000000000045e+01 1.592300000000000004e+01 1.705999999999999872e+01 -3.053504000000000218e+00 -1.720806764777159659e-01
2.251999999999999957e+01 2.823000000000000043e+01 6.045300000000000118e+00 8.565528000000000475e+00 -2.747385831409932533e-01
2.251999999999999957e+01 3.159299999999999997e+01 -2.609300000000000175e+00 -3.401781999999999861e+00 -2.747326336158202875e-01
2.252299999999999969e+01 3.189300000000000068e+01 1.126500000000000057e+00 3.082873000000000019e+01 -2.747643079918372089e-01
2.252799999999999869e+01 1.734199999999999875e+01 1.520500000000000007e+01 -5.818634999999999557e+00 -1.676783296353678010e-01
2.252799999999999869e+01 3.602900000000000347e+01 1.432499999999999929e+01 1.490544000000000047e+01 -2.803297757899831932e-01
2.253000000000000114e+01 3.866499999999999915e+01 1.573600000000000110e+00 -9.118503999999999721e+00 -3.499999999999999778e-01
2.253099999999999881e+01 1.696499999999999986e+01 1.600100000000000122e+01 -4.829112000000000293e+00 -1.686424307375912202e-01
2.253099999999999881e+01 1.028800000000000026e+01 1.451800000000000068e+01 -6.223239000000000409e+00 -7.614596180240501555e-02
2.253500000000000014e+01 1.121899999999999942e+01 1.527399999999999913e+01 -4.682096999999999731e+00 -7.612566259020837889e-02
2.253500000000000014e+01 3.464600000000000080e+01 -1.415999999999999925e+00 -4.079462000000000366e+00 -2.749300014362004996e-01
2.254100000000000037e+01 2.092699999999999960e+01 1.900700000000000145e+01 -8.156216000000000577e+00 -1.049891456272578349e-01
2.254599999999999937e+01 2.735999999999999943e+01 9.245599999999999596e+00 1.622754000000000119e+01 -1.754609190925233153e-01
2.255799999999999983e+01 3.286999999999999744e+01 9.260000000000000453e-01 1.209748999999999963e+00 -2.748632168399275377e-01
2.255900000000000105e+01 3.139300000000000068e+01 1.516699999999999982e+01 1.195515999999999934e+01 -2.857786352226069360e-01
2.256400000000000006e+01 2.696799999999999997e+01 4.329100000000000392e+00 9.291677999999999216e+00 -2.745935758269858473e-01
2.257400000000000162e+01 2.899399999999999977e+01 1.637300000000000111e+01 1.805803999999999832e+01 -1.636059173075462558e-01
2.257700000000000173e+01 2.729400000000000048e+01 -6.140200000000000102e-01 -5.994857999999999798e+00 -2.745797468938464547e-01
2.258099999999999952e+01 2.457400000000000162e+01 3.015200000000000102e-01 -2.068966999999999778e+00 -1.808730148186938058e-01
2.258699999999999974e+01 4.030799999999999983e+01 1.404899999999999949e+01 1.939518999999999949e+01 -2.695023279091586788e-01
2.258800000000000097e+01 3.098199999999999932e+01 1.166400000000000103e+00 -9.444069000000000491e-01 -2.747520287824791740e-01
2.258999999999999986e+01 2.071399999999999864e+01 1.993100000000000094e+01 -1.866153999999999868e+01 -1.100903895530246784e-01
2.259299999999999997e+01 1.292600000000000016e+01 1.537400000000000055e+01 -1.091769999999999996e+01 -7.623537630972587742e-02
2.259400000000000119e+01 2.980000000000000071e+01 1.897899999999999920e+01 -2.685439000000000132e+00 4.825904398830986597e-02
2.259400000000000119e+01 1.729599999999999937e+01 -1.885999999999999899e+00 -1.544478000000000018e+00 -1.681010467069144476e-01
2.260000000000000142e+01 2.810099999999999909e+01 5.087399999999999700e+00 1.312331999999999965e+01 -2.747409299514368963e-01
2.260999999999999943e+01 2.085200000000000031e+01 -1.163000000000000034e+00 -3.591786000000000145e-01 -1.825622515908993937e-01
2.261599999999999966e+01 1.234699999999999953e+01 4.290700000000000180e+00 8.534216999999999587e+01 -7.654360901767960634e-02
2.262000000000000099e+01 1.748499999999999943e+01 2.121999999999999886e+01 -1.364234000000000080e+01 -1.677325591337109623e-01
2.262699999999999889e+01 3.928499999999999659e+01 1.418399999999999928e+01 1.786657999999999902e+01 -2.712680627008113854e-01
2.262900000000000134e+01 2.846499999999999986e+01 1.562299999999999933e+01 7.247383999999999560e+01 -1.668484964375930579e-01
2.263299999999999912e+01 1.606599999999999895e+01 -1.062699999999999978e+00 2.778298000000000156e-01 -1.696582571840390685e-01
2.263400000000000034e+01 2.999399999999999977e+01 1.736700000000000088e+01 4.454907000000000394e+00 -1.601557830111671743e-01
2.263599999999999923e+01 2.226599999999999824e+01 1.835200000000000031e+01 5.610375999999999586e+00 -1.088368844390879414e-01
2.263899999999999935e+01 1.901000000000000156e+01 2.181800000000000139e+01 -1.577508000000000088e+01 -9.409096211157715051e-02
2.263899999999999935e+01 2.045599999999999952e+01 2.101200000000000045e+01 -7.615339999999999776e+00 -1.178823540500796019e-01
2.264900000000000091e+01 2.682400000000000162e+01 -2.323399999999999910e-01 -4.199607000000000312e+00 -2.746111463473995262e-01
2.264900000000000091e+01 3.287199999999999989e+01 1.534999999999999964e+01 2.640449999999999875e+01 -2.883758414446108143e-01
2.265299999999999869e+01 3.317099999999999937e+01 2.455700000000000216e+00 -5.008475999999999928e+00 -2.750539807308726159e-01
2.266300000000000026e+01 3.815200000000000102e+01 1.494299999999999962e+01 1.812005999999999872e+01 -2.741985286742952832e-01
2.266300000000000026e+01 2.257300000000000040e+01 -1.061700000000000088e+00 -1.931678999999999924e+00 -1.819198689185169693e-01
2.267099999999999937e+01 2.834900000000000020e+01 8.043300000000000338e+00 1.895656999999999925e+01 -2.752935277672196035e-01
2.267099999999999937e+01 2.855799999999999983e+01 7.307299999999999685e+00 1.792118999999999929e+01 -2.751669647196550161e-01
2.267399999999999949e+01 1.204299999999999926e+01 3.590700000000000003e+00 7.181010999999999456e+01 -7.654382340541393548e-02
2.267399999999999949e+01 1.204299999999999926e+01 4.990700000000000358e+00 3.896818999999999988e+01 -7.652804884755955162e-02
2.267599999999999838e+01 3.838199999999999790e+01 7.196700000000000319e-01 -7.204877999999999894e+00 -3.500000000000000333e-01
2.270499999999999829e+01 2.962500000000000000e+01 1.651699999999999946e+01 1.217501000000000033e+01 -1.624552713877005228e-01
2.271099999999999852e+01 3.200200000000000244e+01 3.155699999999999950e+00 4.979883000000000060e+00 -2.750514995461474932e-01
2.271099999999999852e+01 3.286800000000000210e+01 3.155699999999999950e+00 -4.526379999999999626e+00 -2.751407352364315662e-01
2.271300000000000097e+01 3.539200000000000301e+01 -8.754100000000000215e-01 5.276496000000000519e-01 -3.500000000000000333e-01
2.271600000000000108e+01 4.194100000000000250e+01 4.020699999999999719e+00 -1.040433999999999948e+01 -2.727091479215020819e-01
2.273400000000000176e+01 2.765700000000000003e+01 -1.314699999999999980e+00 -1.711174999999999891e+00 -2.746938582124883732e-01
2.274299999999999855e+01 4.091100000000000136e+01 9.155400000000000205e+00 2.118034000000000106e+01 -2.716979871342324326e-01
2.275300000000000011e+01 2.593100000000000094e+01 9.298099999999999810e+00 1.497878000000000043e+01 -1.775428264029844105e-01
2.277199999999999847e+01 2.833399999999999963e+01 2.105000000000000071e+01 3.420955000000000190e+00 -2.499625588744149376e-02
2.277299999999999969e+01 2.589300000000000068e+01 -2.021100000000000119e-01 -9.010373999999999883e-01 -2.746743598499020722e-01
2.277400000000000091e+01 3.481799999999999784e+01 1.476999999999999957e+01 2.410798000000000130e+01 -2.851410731838112111e-01
2.278800000000000026e+01 2.491799999999999926e+01 1.890700000000000003e+01 5.536226000000000091e+00 -8.274984524224357485e-02
2.279200000000000159e+01 1.815200000000000102e+01 1.510999999999999943e+01 -3.370103000000000293e+01 -1.698875377379044094e-01
2.279700000000000060e+01 9.801000000000000156e+00 6.748700000000000365e+00 1.447557999999999900e+00 -7.644772876065611400e-02
2.279700000000000060e+01 9.801000000000000156e+00 9.499299999999999855e+00 -2.844162999999999997e+00 -7.637617101713034540e-02
2.281599999999999895e+01 2.970899999999999963e+01 2.012900000000000134e+01 -9.797911999999999733e-01 1.671008031755102236e-02
2.281800000000000139e+01 4.121300000000000097e+01 3.877600000000000158e+00 -9.454392999999999603e+00 -2.731163478128759703e-01
2.281899999999999906e+01 1.520800000000000018e+01 1.370199999999999996e+01 -1.603282000000000096e+01 -1.738310818768715182e-01
2.282000000000000028e+01 2.687600000000000122e+01 2.025300000000000011e+01 4.944873000000000296e+00 -1.562880574390598104e-02
2.283200000000000074e+01 1.784199999999999875e+01 1.433699999999999974e+01 -5.613907999999999987e+01 -1.700882775703498051e-01
2.284799999999999898e+01 3.352300000000000324e+01 -2.407000000000000028e+00 -5.071240000000000236e+01 -2.750280845822045128e-01
2.285000000000000142e+01 4.249199999999999733e+01 4.888499999999999623e+00 -8.647481000000000861e+00 -2.408165654133812006e-01
2.285000000000000142e+01 1.784799999999999898e+01 1.581000000000000050e+01 1.493225999999999942e+01 -7.961821357628295903e-02
2.285000000000000142e+01 3.081700000000000017e+01 1.290399999999999991e+01 2.425003999999999849e+01 -2.804670703247184593e-01
2.285000000000000142e+01 3.081700000000000017e+01 1.376999999999999957e+01 1.862397999999999954e+01 -2.822027289560243846e-01
2.285099999999999909e+01 1.439300000000000068e+01 1.468099999999999916e+01 -2.609506999999999977e+01 -1.770598711035686612e-01
2.286100000000000065e+01 2.853300000000000125e+01 1.374000000000000021e+01 3.170098000000000127e+01 -1.700215832571367325e-01
2.286299999999999955e+01 1.636100000000000065e+01 2.033899999999999864e+01 -1.255358000000000018e+01 -1.723113933908170803e-01
2.286400000000000077e+01 4.117999999999999972e+01 1.225200000000000067e+01 1.336203000000000074e+01 -2.704064716708739491e-01
2.286700000000000088e+01 2.626800000000000068e+01 4.387400000000000411e+00 8.090673999999999921e+00 -1.791426030236057398e-01
2.286700000000000088e+01 2.766799999999999926e+01 4.387400000000000411e+00 1.108655000000000079e+01 -2.749445598272936553e-01
2.286899999999999977e+01 3.353199999999999648e+01 2.061599999999999877e+00 3.772216999999999931e+00 -2.752508458593317942e-01
2.287000000000000099e+01 3.774300000000000210e+01 -1.411499999999999977e-01 -2.144388000000000183e+00 -3.499999999999999778e-01
2.287199999999999989e+01 3.656600000000000250e+01 -2.969999999999999862e-01 1.497424999999999962e+01 -3.499999999999999778e-01
2.287300000000000111e+01 2.851500000000000057e+01 1.144500000000000028e+01 1.841528999999999883e+01 -1.726921993626679419e-01
2.287300000000000111e+01 2.991499999999999915e+01 1.144500000000000028e+01 1.899512999999999963e+01 -2.779888714872972844e-01
2.287699999999999889e+01 4.096300000000000097e+01 1.329199999999999982e+01 1.879644000000000048e+01 -2.701296969026906747e-01
2.288400000000000034e+01 3.134900000000000020e+01 3.217999999999999972e+00 6.011585000000000401e-01 -2.751649118967654517e-01
2.288599999999999923e+01 1.127100000000000080e+01 5.808699999999999974e+00 2.529415000000000191e+00 -7.649557115658593698e-02
2.288800000000000168e+01 1.498499999999999943e+01 -3.016499999999999737e-01 5.406168000000000085e+00 -7.999999999999998779e-02
2.289000000000000057e+01 1.206900000000000084e+01 1.546100000000000030e+01 -1.084737999999999936e+01 -7.614372000491667625e-02
2.289499999999999957e+01 2.830199999999999960e+01 1.427399999999999913e+01 3.474589000000000283e+01 -1.701904402580266262e-01
2.289499999999999957e+01 2.830199999999999960e+01 1.514000000000000057e+01 5.201561999999999841e+01 -1.694759076465667536e-01
2.290800000000000125e+01 3.258400000000000318e+01 -2.506099999999999994e+00 -3.299335000000000129e+00 -2.750059832595750930e-01
2.291000000000000014e+01 4.137700000000000244e+01 8.944000000000000838e+00 2.400731999999999999e+01 -2.717447634745910889e-01
2.291100000000000136e+01 3.385199999999999676e+01 -1.647000000000000020e+00 -2.099578999999999951e+01 -2.751031555887633595e-01
2.291300000000000026e+01 1.672800000000000153e+01 2.113700000000000045e+01 -1.322977000000000025e+01 -1.697533511659743977e-01
2.291900000000000048e+01 3.392799999999999727e+01 -8.801600000000000534e-01 -2.483969000000000094e+01 -2.751392755148983071e-01
2.292000000000000171e+01 3.021699999999999875e+01 1.594400000000000039e+00 -9.306653999999999982e+00 -2.749853265995539919e-01
2.292000000000000171e+01 3.021699999999999875e+01 2.459700000000000220e+00 -5.562015999999999849e+00 -2.750367580659122124e-01
2.292099999999999937e+01 2.312900000000000134e+01 -5.795200000000000351e-01 -1.835093000000000174e+01 -1.817597252411037867e-01
2.292299999999999827e+01 1.653600000000000136e+01 -1.822699999999999987e+00 -2.196858000000000199e+00 -1.690193093531263402e-01
2.292299999999999827e+01 1.805600000000000094e+01 -1.822699999999999987e+00 -8.951335000000000264e+00 -1.674305454014861638e-01
2.292699999999999960e+01 1.648499999999999943e+01 1.289000000000000057e+01 -2.646503999999999834e+01 -1.674338224670742503e-01
2.292999999999999972e+01 3.858500000000000085e+01 1.424300000000000033e+01 2.443862999999999985e+01 -2.741010412372500982e-01
2.294099999999999895e+01 3.934000000000000341e+01 2.941899999999999959e+00 -1.112994999999999912e+01 -2.741902083696803327e-01
2.294300000000000139e+01 1.959100000000000108e+01 -1.175599999999999978e+00 1.924290999999999974e+00 -2.605319277495568575e-01
2.294399999999999906e+01 3.065200000000000102e+01 1.464499999999999957e+01 1.149169000000000018e+01 -2.846710975118624809e-01
2.295400000000000063e+01 1.180899999999999928e+01 2.336699999999999888e-01 3.717548999999999992e+00 -1.726954495537242895e-01
2.295499999999999829e+01 3.243699999999999761e+01 4.350899999999999768e-01 -9.177739000000000757e+00 -2.751137078369840783e-01
2.297400000000000020e+01 2.141799999999999926e+01 1.860999999999999943e+01 -6.743242999999999654e+00 -1.034248416551589722e-01
2.298300000000000054e+01 1.595599999999999952e+01 1.954400000000000048e+01 -7.855997000000000341e+00 -1.721017320971036102e-01
2.298499999999999943e+01 1.346899999999999942e+01 9.318200000000000094e-02 4.613915000000000433e+00 -1.717764671528723142e-01
2.299099999999999966e+01 3.357000000000000028e+01 1.193400000000000016e+00 -3.780781000000000169e+00 -2.752828967699906260e-01
2.300300000000000011e+01 1.632000000000000028e+01 1.749299999999999855e+01 -4.442825000000000024e+00 -1.685245284420247014e-01
2.300300000000000011e+01 3.475000000000000000e+01 -6.594200000000000061e-01 1.877672000000000008e+00 -2.752666565912400554e-01
2.300700000000000145e+01 3.825300000000000011e+01 2.840199999999999947e-01 -1.020659999999999989e+01 -3.500000000000000333e-01
2.300700000000000145e+01 3.003399999999999892e+01 -2.621999999999999886e+00 -8.577304000000000039e-01 -2.749366383286122595e-01
2.301000000000000156e+01 4.047800000000000153e+01 9.855399999999999494e+00 2.777311999999999870e+01 -2.722783565692368235e-01
2.301000000000000156e+01 4.047800000000000153e+01 1.072100000000000009e+01 3.064487000000000094e+01 -2.720142669350636977e-01
2.301000000000000156e+01 4.182999999999999829e+01 8.065500000000000114e+00 1.151741999999999955e+01 -2.719318956242031127e-01
2.301800000000000068e+01 3.045799999999999841e+01 1.225200000000000067e+01 1.989911999999999992e+01 -2.797204954682836475e-01
2.302100000000000080e+01 3.094900000000000162e+01 1.558200000000000074e+01 1.157282999999999973e+01 -2.890235379872768684e-01
2.302400000000000091e+01 2.812699999999999889e+01 -2.074699999999999989e+00 -1.137491999999999948e+00 -2.748792483579699519e-01
2.303300000000000125e+01 1.617800000000000082e+01 1.862900000000000134e+01 -3.687583000000000055e+00 -1.695192840346561314e-01
2.304299999999999926e+01 9.563000000000000611e+00 1.308699999999999974e+01 -6.836523999999999823e+00 -7.620239477676805928e-02
2.304299999999999926e+01 9.816900000000000404e+00 1.219299999999999962e+01 -3.938295999999999797e+00 -7.625999826650912972e-02
2.304299999999999926e+01 9.816900000000000404e+00 1.398099999999999987e+01 -8.349467000000000638e+00 -7.615139345916409341e-02
2.304599999999999937e+01 3.914000000000000057e+01 2.083699999999999886e+00 -1.220090000000000074e+01 -2.744480065264578994e-01
2.304799999999999827e+01 1.165799999999999947e+01 2.998499999999999943e+00 2.560153999999999996e+01 -1.734273332224650077e-01
2.306200000000000117e+01 2.916499999999999915e+01 1.589100000000000001e+01 3.061579000000000050e+01 -1.672641980795203376e-01
2.306200000000000117e+01 3.003099999999999881e+01 1.589100000000000001e+01 1.543854999999999933e+01 -1.651595381551058950e-01
2.307100000000000151e+01 1.161100000000000065e+01 5.481600000000000250e+00 7.431352999999999653e+00 -1.743292603727256973e-01
2.308099999999999952e+01 2.924299999999999855e+01 2.105699999999999861e+01 -1.806966000000000072e+00 -1.860307997792398915e-01
2.308399999999999963e+01 3.147899999999999920e+01 5.148500000000000298e-01 -1.168889000000000067e+01 -2.751449425968014451e-01
2.308599999999999852e+01 1.564000000000000057e+01 1.300200000000000067e+01 -2.120859000000000094e+01 -1.718553433989965518e-01
2.309100000000000108e+01 2.421799999999999997e+01 1.896499999999999986e+01 1.741506000000000043e+01 2.106116799019726593e-01
2.309100000000000108e+01 2.561799999999999855e+01 1.896499999999999986e+01 2.368158999999999903e+00 6.084740568486936285e-04
2.309100000000000108e+01 3.656900000000000261e+01 1.496599999999999930e+01 1.033343999999999951e+01 -2.821688266951477564e-01
2.309799999999999898e+01 3.209199999999999875e+01 1.507199999999999918e+01 2.199446000000000012e+01 -2.887385550387245314e-01
2.310000000000000142e+01 3.019300000000000139e+01 1.910800000000000054e+01 -2.058762000000000203e+00 -1.652809739840993553e-01
2.310699999999999932e+01 1.274300000000000033e+01 3.858099999999999863e+00 2.658637999999999835e+01 -1.728908279885835175e-01
2.310699999999999932e+01 1.274300000000000033e+01 4.723300000000000054e+00 1.653969999999999985e+01 -1.731322960994292059e-01
2.310800000000000054e+01 3.243500000000000227e+01 3.646599999999999842e+00 4.663738999999999635e+00 -2.755607021469047568e-01
2.311199999999999832e+01 2.484700000000000131e+01 7.276099999999999568e+00 1.473121000000000080e+01 -1.797087298173692671e-01
2.311199999999999832e+01 2.505600000000000094e+01 8.012199999999999989e+00 1.126309999999999967e+01 -1.793798937003885929e-01
2.311799999999999855e+01 1.482600000000000051e+01 1.398099999999999987e+01 3.820561999999999792e+00 -1.744221066929938779e-01
2.312699999999999889e+01 1.807499999999999929e+01 2.166000000000000014e+01 -9.024309999999999832e+00 -7.396329909489979260e-02
2.312800000000000011e+01 3.319200000000000017e+01 -8.801600000000000534e-01 -4.681031000000000120e+01 -2.752249374633027879e-01
2.312900000000000134e+01 1.090799999999999947e+01 1.497199999999999953e+01 -5.635907999999999696e+00 -7.610989672941496920e-02
2.313100000000000023e+01 4.046399999999999864e+01 3.586100000000000065e+00 -8.167206000000000188e+00 -2.737669995630465092e-01
2.313299999999999912e+01 2.181299999999999883e+01 -1.352000000000000091e+00 -1.038047000000000075e+01 -1.824206810109677557e-01
2.313500000000000156e+01 3.759799999999999898e+01 1.521000000000000085e+01 1.008554999999999957e+01 -2.786980616673445654e-01
2.314000000000000057e+01 2.808200000000000074e+01 1.214499999999999957e+01 2.165028999999999826e+01 -1.734682605322859783e-01
2.314000000000000057e+01 2.808200000000000074e+01 1.301099999999999923e+01 2.714342999999999861e+01 -1.727902747096909664e-01
2.314099999999999824e+01 2.748400000000000176e+01 2.097899999999999920e+01 2.164601000000000042e+01 8.456654720837981920e-02
2.314199999999999946e+01 2.504299999999999926e+01 -1.313300000000000023e-01 -1.961886999999999937e+00 -1.810382983252779854e-01
2.314499999999999957e+01 4.182500000000000284e+01 6.294400000000000439e+00 -2.567232999999999876e+00 -2.726172195737941450e-01
2.314499999999999957e+01 4.182500000000000284e+01 7.159699999999999953e+00 7.380486999999999576e+00 -2.723870925145789323e-01
2.314900000000000091e+01 3.561099999999999710e+01 1.500099999999999945e+01 1.223100999999999949e+01 -2.858338908488826657e-01
2.315200000000000102e+01 3.391100000000000136e+01 1.505499999999999972e+01 2.338915000000000077e+01 -2.886069044780472104e-01
2.315299999999999869e+01 4.069800000000000040e+01 1.134099999999999930e+01 3.255078999999999922e+01 -2.719254529482754146e-01
2.316400000000000148e+01 1.985999999999999943e+01 2.149299999999999855e+01 -8.457910999999999291e+00 -1.049680703096976392e-01
2.316499999999999915e+01 3.059299999999999997e+01 1.689999999999999858e+01 7.005283999999999622e+00 -1.646441582297423767e-01
2.316799999999999926e+01 2.706800000000000139e+01 -9.793300000000000338e-01 -1.466636999999999968e+00 -2.749404265831563166e-01
2.317599999999999838e+01 3.586599999999999966e+01 -3.552799999999999847e-01 3.064633999999999858e+00 -3.499999999999999778e-01
2.317599999999999838e+01 2.921499999999999986e+01 1.138700000000000045e+01 1.956718000000000046e+01 -1.726203558913934066e-01
2.317899999999999849e+01 2.568199999999999861e+01 4.940699999999999648e+00 1.515601000000000020e+01 -1.796165128104930120e-01
2.318599999999999994e+01 2.782199999999999918e+01 8.901500000000000412e+00 1.458098999999999990e+01 -1.762152479440357300e-01
2.318599999999999994e+01 3.436099999999999710e+01 -1.801599999999999868e-01 2.726465999999999834e+00 -2.753911198813107086e-01
2.318799999999999883e+01 3.064900000000000091e+01 3.159699999999999953e+00 -3.262846999999999831e+00 -2.753892186103102935e-01
2.320299999999999940e+01 4.209799999999999898e+01 5.798899999999999721e+00 -5.036205999999999960e+00 -2.726821154879875420e-01
2.321799999999999997e+01 1.366799999999999926e+01 1.503100000000000058e+01 -1.979560000000000031e+01 -1.788853290546185415e-01
2.322599999999999909e+01 3.902799999999999869e+01 1.059299999999999908e+00 -1.362215999999999916e+01 -2.747043124526287738e-01
2.322700000000000031e+01 3.023499999999999943e+01 1.960399999999999920e+01 -1.240172000000000052e+00 -1.719869753010190849e-01
2.322800000000000153e+01 2.328900000000000148e+01 1.878099999999999881e+01 1.692715000000000103e+01 2.109173398261295351e-01
2.322899999999999920e+01 1.547700000000000031e+01 -7.127900000000000347e-01 -1.254914000000000085e+00 -1.706313676054373174e-01
2.323000000000000043e+01 3.047500000000000142e+01 1.789199999999999946e+01 -1.423847000000000085e+00 -1.664619916552112777e-01
2.323300000000000054e+01 2.605199999999999960e+01 1.931899999999999906e+01 3.718261000000000038e+00 -2.370952367353576333e-03
2.323600000000000065e+01 3.311500000000000199e+01 -1.647000000000000020e+00 -4.727011999999999858e+01 -2.752547001485080580e-01
2.323799999999999955e+01 3.184700000000000131e+01 -2.549199999999999910e+00 -3.270265000000000200e+00 -2.751529011912426936e-01
2.323999999999999844e+01 3.006400000000000006e+01 1.541699999999999982e+01 1.525032999999999994e+01 -1.668488348696851309e-01
2.324099999999999966e+01 2.098499999999999943e+01 1.930999999999999872e+01 -1.189184000000000019e+01 -1.025805071966403165e-01
2.325199999999999889e+01 2.659299999999999997e+01 -6.053800000000000292e-01 -1.967206000000000010e+00 -2.749847095239107420e-01
2.325300000000000011e+01 4.197299999999999898e+01 4.147499999999999964e+00 -6.356659999999999755e+00 -2.731498375118560085e-01
2.325700000000000145e+01 3.344299999999999784e+01 -9.539000000000000257e-02 -1.763824999999999932e+01 -2.753764788593989765e-01
2.325799999999999912e+01 3.313700000000000045e+01 4.933799999999999852e-01 -7.943971999999999589e+00 -2.753977753892190572e-01
2.327899999999999991e+01 1.128400000000000070e+01 1.083700000000000108e+00 1.322769000000000084e+00 -1.730163848688583694e-01
2.327899999999999991e+01 1.128400000000000070e+01 2.134300000000000086e+00 8.835744000000000042e+00 -1.732864202000552745e-01
2.328300000000000125e+01 3.011700000000000088e+01 1.403700000000000081e+01 1.130969999999999942e+01 -1.686602333336534865e-01
2.330000000000000071e+01 2.696799999999999997e+01 4.120000000000000107e+00 1.029285999999999923e+01 -1.791672377427562801e-01
2.330000000000000071e+01 2.815899999999999892e+01 4.783999999999999808e+00 1.169139000000000017e+01 -2.754880136692624548e-01
2.330099999999999838e+01 1.860099999999999909e+01 1.462700000000000067e+01 -4.595347999999999900e+01 -1.694017702884583199e-01
2.332100000000000151e+01 1.742699999999999960e+01 1.640500000000000114e+01 -2.796035999999999966e+00 -7.589950245542921581e-02
2.332199999999999918e+01 8.951000000000000512e+00 8.124000000000000554e+00 -1.995535999999999976e+00 -7.638708001774510703e-02
2.332199999999999918e+01 9.204900000000000304e+00 7.230299999999999727e+00 -5.379610000000000225e-01 -7.641530501980137169e-02
2.332199999999999918e+01 9.204900000000000304e+00 9.017699999999999605e+00 -3.389059000000000044e+00 -7.636589962689853406e-02
2.332199999999999918e+01 1.021199999999999974e+01 1.002500000000000036e+01 -4.064293000000000156e+00 -7.635710243779050832e-02
2.332300000000000040e+01 1.265900000000000070e+01 1.628900000000000070e-01 7.068410000000000082e+00 -1.720713772135371578e-01
2.332799999999999940e+01 2.900199999999999889e+01 1.400699999999999967e+01 2.163150999999999868e+01 -1.707729286845467709e-01
2.332799999999999940e+01 2.900199999999999889e+01 1.540700000000000003e+01 3.294547000000000025e+01 -1.697880194828093603e-01
2.332999999999999829e+01 2.496600000000000108e+01 6.465200000000000280e+00 3.789560000000000173e+01 -1.799627989155374863e-01
2.332999999999999829e+01 2.517500000000000071e+01 5.729199999999999626e+00 3.015219000000000094e+01 -1.799310731321530910e-01
2.333699999999999974e+01 3.001300000000000168e+01 2.010300000000000153e+01 -5.825891000000000375e+00 -1.787179145038504113e-01
2.334100000000000108e+01 3.042000000000000171e+01 1.333699999999999974e+01 1.256713000000000058e+01 -2.826679116542115122e-01
2.334100000000000108e+01 1.826800000000000068e+01 1.391600000000000037e+01 -4.769071000000000282e+01 -1.695894321465070409e-01
2.334799999999999898e+01 4.187299999999999756e+01 8.470100000000000406e+00 1.683981999999999957e+01 -2.722688244020458059e-01
2.335500000000000043e+01 1.287500000000000000e+01 1.517300000000000004e+01 -1.486307000000000045e+01 -1.811641642220621073e-01
2.335600000000000165e+01 2.807900000000000063e+01 8.148400000000000531e+00 1.734466000000000108e+01 -1.766770585969646423e-01
2.335999999999999943e+01 3.392900000000000205e+01 1.629000000000000004e+00 3.199689999999999923e+00 -2.756606216539577714e-01
2.336299999999999955e+01 3.809400000000000119e+01 1.463899999999999935e+01 1.752704999999999913e+01 -2.774952383179372650e-01
2.337399999999999878e+01 1.231099999999999994e+01 3.158100000000000129e+00 1.641348999999999947e+01 -1.728558671446199790e-01
2.337399999999999878e+01 1.231099999999999994e+01 5.423300000000000232e+00 6.710715999999999681e+00 -1.735217584294436455e-01
2.337399999999999878e+01 1.732900000000000063e+01 1.289400000000000013e+01 -1.986599999999999966e+01 -1.696512300225453962e-01
2.337800000000000011e+01 1.072799999999999976e+01 6.226700000000000124e+00 7.362353999999999843e-01 -1.751591115506791474e-01
2.338599999999999923e+01 2.869900000000000162e+01 1.470700000000000074e+01 2.520803000000000083e+01 -1.712563361369489334e-01
2.338599999999999923e+01 3.017099999999999937e+01 1.470700000000000074e+01 7.643221999999999738e+00 -1.683184654268198854e-01
2.338700000000000045e+01 3.077899999999999991e+01 5.731399999999999828e-01 -2.125725999999999871e+01 -2.753259499905855168e-01
2.339300000000000068e+01 2.541199999999999903e+01 8.954000000000000625e+00 1.288293999999999961e+01 -1.792125247055876558e-01
2.339300000000000068e+01 2.660300000000000153e+01 9.618000000000000327e+00 1.450365000000000038e+01 -1.776060219602786372e-01
2.339300000000000068e+01 1.600300000000000011e+01 -1.392099999999999893e+00 -4.561505999999999617e+00 -1.698728783773166828e-01
2.339300000000000068e+01 1.729599999999999937e+01 -2.112999999999999989e+00 -9.465495999999999910e-01 -1.683297763315673989e-01
2.339300000000000068e+01 1.864600000000000080e+01 -1.486199999999999966e+00 -3.945291000000000103e+00 -1.670298034619640548e-01
2.339499999999999957e+01 1.662999999999999901e+01 1.702400000000000091e+01 -4.830548000000000286e+00 -1.653283639593975396e-01
2.339999999999999858e+01 3.518299999999999983e+01 -1.685099999999999931e-01 4.624204999999999899e+01 -2.756049182786922680e-01
2.341100000000000136e+01 2.841700000000000159e+01 5.725999999999999979e+00 1.059370000000000012e+01 -2.758151939526463092e-01
2.341100000000000136e+01 3.173499999999999943e+01 3.588299999999999823e+00 2.016204999999999803e+00 -2.757846059697038332e-01
2.341400000000000148e+01 1.725400000000000134e+01 2.159600000000000009e+01 -1.776482999999999990e+01 -5.809078474273884213e-02
2.341600000000000037e+01 1.591399999999999970e+01 1.982100000000000151e+01 -8.982953000000000188e+00 -1.682078800444850586e-01
2.342399999999999949e+01 4.111099999999999710e+01 1.163400000000000034e+01 5.911851999999999663e+01 -2.720613923475595497e-01
2.344399999999999906e+01 3.999900000000000233e+01 1.360599999999999987e+01 1.180131000000000085e+01 -2.731171567777115339e-01
2.344600000000000151e+01 2.751899999999999835e+01 -1.708800000000000097e+00 -1.512124999999999941e+00 -2.751050402376573056e-01
2.344600000000000151e+01 2.837800000000000011e+01 7.572000000000000064e+00 1.589366000000000057e+01 -1.768858175128570354e-01
2.344800000000000040e+01 1.875400000000000134e+01 1.561800000000000033e+01 -2.197132999999999825e+01 -8.054884071435772230e-02
2.345299999999999940e+01 1.602400000000000091e+01 2.077299999999999969e+01 -1.475808999999999926e+01 -1.676324836821640463e-01
2.346300000000000097e+01 3.986899999999999977e+01 3.399000000000000021e+00 -5.105388999999999733e+00 -2.743515828242825139e-01
2.346499999999999986e+01 2.064999999999999858e+01 -1.284000000000000030e+00 2.181535999999999920e+00 -1.829717257860485335e-01
2.346499999999999986e+01 3.387199999999999989e+01 6.761700000000000488e-01 2.512201000000000128e+00 -2.756291652412304893e-01
2.346699999999999875e+01 3.277300000000000324e+01 1.521599999999999930e+01 2.674383999999999872e+01 -2.908564720024372496e-01
2.346799999999999997e+01 2.241400000000000148e+01 1.857000000000000028e+01 -6.140655999999999892e+00 -1.064978243677874997e-01
2.346799999999999997e+01 2.818900000000000006e+01 2.131200000000000117e+01 1.385820999999999970e+01 8.589149125781728178e-02
2.348499999999999943e+01 2.046799999999999997e+01 2.076699999999999946e+01 -1.118088000000000015e+01 -1.051191335823799256e-01
2.348600000000000065e+01 3.747800000000000153e+01 -1.200000000000000025e-02 -1.597072999999999965e+00 -3.499999999999999778e-01
2.349399999999999977e+01 2.888700000000000045e+01 -2.365000000000000213e+00 -1.001008999999999993e+01 -2.751657729427839372e-01
2.350100000000000122e+01 4.087500000000000000e+01 1.028800000000000026e+01 2.860996000000000095e+01 -2.727680039228101427e-01
2.351000000000000156e+01 3.481799999999999784e+01 1.497899999999999920e+01 1.451169999999999938e+01 -2.883264573877189485e-01
2.351599999999999824e+01 3.855799999999999983e+01 2.992900000000000005e-01 -1.654966999999999899e+01 -2.751167652841395861e-01
2.351899999999999835e+01 1.169200000000000017e+01 1.501500000000000057e+01 -4.240355000000000096e+00 -1.834082887807532147e-01
2.352199999999999847e+01 2.867500000000000071e+01 6.668000000000000149e+00 1.453829999999999956e+01 -2.762350329848166086e-01
2.352299999999999969e+01 3.270400000000000063e+01 -2.383499999999999855e-02 -2.436456000000000088e+01 -2.755148639105106101e-01
2.352400000000000091e+01 2.491799999999999926e+01 1.869800000000000040e+01 4.132001999999999953e+00 -8.722950597149689567e-02
