3.250699999999999790e+01 1.854400000000000048e+01 3.244899999999999807e+01 -3.672229000000000187e+00 4.022954906902909827e-02
3.251100000000000279e+01 5.991799999999999571e+00 1.313400000000000034e+01 6.062998000000000332e+00 1.318779946532747105e-01
3.251299999999999812e+01 8.603300000000000836e+00 3.520000000000000284e+01 1.535641000000000034e+01 3.840434434995844415e-02
3.251899999999999835e+01 1.218599999999999994e+01 2.829100000000000037e+01 1.235472000000000037e+01 9.198841721031039698e-03
3.252000000000000313e+01 1.885699999999999932e+01 2.523799999999999955e+01 6.492816999999999616e-01 7.031317109699677763e-03
3.252499999999999858e+01 8.440500000000000114e+00 2.822500000000000142e+01 -2.902830999999999939e+00 7.274554032628574238e-03
3.253000000000000114e+01 1.001500000000000057e+01 3.345400000000000063e+01 -1.050738999999999912e+01 3.845509176467069856e-02
3.253699999999999903e+01 5.804999999999999716e+00 3.122899999999999920e+01 3.270807000000000020e+00 1.063834474050081094e-02
3.254200000000000159e+01 9.922800000000000509e+00 2.479599999999999937e+01 1.200872000000000028e+01 1.477415300605501580e-01
3.254200000000000159e+01 1.218800000000000061e+01 2.479599999999999937e+01 2.657500999999999891e+00 4.060381128074492044e-03
3.254500000000000171e+01 4.753999999999999559e+00 9.928000000000000824e+00 1.013259000000000043e+01 1.292118830262770079e-01
3.254800000000000182e+01 8.985400000000000276e+00 3.444299999999999784e+01 1.348612999999999928e+01 3.831621273725189375e-02
3.254899999999999949e+01 8.831200000000000827e+00 3.056299999999999883e+01 -2.648824999999999985e+00 1.146145619202159661e-02
3.255400000000000205e+01 8.995699999999999363e+00 2.732499999999999929e+01 -3.890670000000000073e+00 6.173526700561992459e-03
3.255599999999999739e+01 2.520199999999999996e+00 2.051899999999999835e+01 2.813531999999999922e+00 1.360358499848696445e-01
3.256900000000000261e+01 2.301800000000000068e+01 3.022599999999999909e+01 -1.612030000000000074e+00 -2.370272843725284573e-01
3.257500000000000284e+01 9.304000000000000270e+00 1.466200000000000081e+01 6.559865000000000279e+00 1.352335552673148977e-01
3.258800000000000097e+01 2.474099999999999966e+01 2.907900000000000063e+01 -7.384904999999999831e+00 -2.369810473331222800e-01
3.259499999999999886e+01 1.528700000000000081e+01 2.034299999999999997e+01 -2.901697000000000060e+01 1.449991698014720387e-01
3.260900000000000176e+01 3.191699999999999982e+00 1.700400000000000134e+01 1.267357999999999940e+01 1.331403885165257928e-01
3.262100000000000222e+01 7.618999999999999773e+00 1.364499999999999957e+01 8.153722000000000136e+00 1.333777194687589818e-01
3.264399999999999835e+01 3.364700000000000024e+00 1.597499999999999964e+01 1.053688999999999965e+01 1.324294822072103472e-01
3.264999999999999858e+01 3.673399999999999999e+00 1.850499999999999901e+01 1.691796999999999995e+00 1.349175341701190911e-01
3.264999999999999858e+01 3.673399999999999999e+00 1.937099999999999866e+01 2.953742000000000090e+00 1.357942437091806398e-01
3.265100000000000335e+01 2.441199999999999903e+01 2.831899999999999906e+01 -7.676014999999999588e+00 -2.368735006220366035e-01
3.265100000000000335e+01 2.441199999999999903e+01 2.983899999999999864e+01 -8.358897000000000688e+00 -2.370626556905436610e-01
3.265400000000000347e+01 2.036299999999999955e+01 2.517000000000000171e+01 4.313149000000000011e-01 7.374168995060870029e-03
3.266100000000000136e+01 7.500799999999999912e+00 3.114600000000000080e+01 1.570098999999999911e+00 3.622821880594979949e-02
3.266799999999999926e+01 1.689399999999999835e+01 2.456899999999999906e+01 9.319357000000000113e+00 5.635603211492272793e-03
3.267799999999999727e+01 5.579299999999999926e+00 2.391400000000000148e+01 7.236473000000000155e+00 1.429844043962778533e-01
3.268099999999999739e+01 9.631899999999999906e+00 2.948900000000000077e+01 -7.664507000000000403e+00 1.005055137788221642e-02
3.268900000000000006e+01 1.805000000000000071e+01 2.536499999999999844e+01 2.520169999999999799e+00 7.039440702377127920e-03
3.269100000000000250e+01 2.023300000000000054e+01 3.193499999999999872e+01 -2.390158999999999878e+01 -2.370993796446119184e-01
3.269599999999999795e+01 1.147400000000000020e+01 3.310600000000000165e+01 -4.355044999999999789e+01 3.884387786568598011e-02
3.270000000000000284e+01 1.973400000000000176e+01 3.188700000000000045e+01 -2.390158999999999878e+01 -2.370577165552880672e-01
3.271699999999999875e+01 4.489499999999999602e+00 2.384700000000000131e+01 6.801209000000000060e+00 1.419855467813122274e-01
3.272299999999999898e+01 8.441599999999999326e+00 3.122800000000000153e+01 -9.094969999999999999e-01 3.671758376175971589e-02
3.273799999999999955e+01 6.498000000000000220e+00 3.728099999999999881e+01 1.290197000000000038e+01 3.758146960358060840e-02
3.274199999999999733e+01 1.567600000000000016e+01 2.341000000000000014e+01 -2.054812999999999779e+00 3.794666009744240062e-03
3.274399999999999977e+01 5.132600000000000051e+00 3.547399999999999665e+01 4.932108999999999632e+00 3.613007582513674820e-02
3.275600000000000023e+01 1.438899999999999935e+01 3.297599999999999909e+01 -2.236052000000000106e+01 3.968039948900155267e-02
3.275600000000000023e+01 6.251999999999999780e+00 2.560699999999999932e+01 2.700136000000000092e+00 1.461795119236746210e-01
3.275600000000000023e+01 6.505899999999999572e+00 2.650100000000000122e+01 2.334369999999999834e+00 1.478527154053127513e-01
3.275600000000000023e+01 9.398099999999999454e+00 2.650100000000000122e+01 5.711686000000000263e+00 5.255625754084151773e-03
3.275699999999999790e+01 2.635099999999999998e+00 2.378000000000000114e+01 1.274314999999999998e+01 1.403103381057658194e-01
3.276100000000000279e+01 1.277699999999999925e+01 2.527599999999999980e+01 -5.299146999999999608e+00 5.079860485593277672e-03
3.276100000000000279e+01 1.277699999999999925e+01 2.614099999999999824e+01 2.206668000000000074e+00 6.288295109859629375e-03
3.277799999999999869e+01 5.243999999999999773e+00 3.644100000000000250e+01 5.310678000000000232e+00 3.644339683174045025e-02
3.278600000000000136e+01 1.143599999999999994e+01 1.294299999999999962e+01 7.356622999999999912e+00 1.353207777848179638e-01
3.278600000000000136e+01 5.353100000000000414e+00 3.468200000000000216e+01 9.847219000000000833e+00 3.604613320797706022e-02
3.280100000000000193e+01 8.159599999999999298e+00 3.613799999999999812e+01 1.112900999999999918e+01 3.829070170981309362e-02
3.280100000000000193e+01 4.070700000000000429e+00 1.318999999999999950e+01 2.869924000000000142e+00 1.309804127726620637e-01
3.280100000000000193e+01 5.121299999999999741e+00 1.318999999999999950e+01 5.670391999999999655e+00 1.316329745545676833e-01
3.280899999999999750e+01 1.035500000000000043e+01 2.409600000000000009e+01 2.677053000000000083e+01 1.471307002951597331e-01
3.280899999999999750e+01 1.175500000000000078e+01 2.409600000000000009e+01 3.818233000000000210e+00 3.105731424392284366e-03
3.281799999999999784e+01 5.380700000000000038e+00 3.394899999999999807e+01 7.599128000000000327e+00 3.583761036930444704e-02
3.282699999999999818e+01 7.837100000000000399e+00 2.742299999999999827e+01 5.579457000000000166e-02 5.853878756780162701e-03
3.282900000000000063e+01 1.032499999999999929e+01 2.942800000000000082e+01 -1.233942000000000094e+00 1.033869046262670191e-02
3.283500000000000085e+01 2.192999999999999972e+01 2.560000000000000142e+01 4.816800999999999888e+00 8.302829672031403901e-03
3.284400000000000119e+01 1.320100000000000051e+01 1.282499999999999929e+01 8.459808999999999912e+00 1.363010065761965373e-01
3.284599999999999653e+01 1.769300000000000139e+01 3.270199999999999818e+01 2.438925999999999927e+00 4.008095100007152273e-02
3.286200000000000188e+01 5.279700000000000060e+00 3.207900000000000063e+01 3.831325999999999787e+00 3.518593658641765154e-02
3.286200000000000188e+01 5.279700000000000060e+00 3.312899999999999778e+01 4.172741000000000255e+00 3.550796974723431643e-02
3.287199999999999989e+01 3.702300000000000146e+00 1.403999999999999915e+01 7.183902999999999928e+00 1.314014260870255968e-01
3.287700000000000244e+01 1.603300000000000125e+01 3.284300000000000352e+01 -9.281965000000000354e-02 3.989772233860822831e-02
3.287800000000000011e+01 1.000399999999999956e+01 1.460299999999999976e+01 7.526890999999999998e+00 1.358704152732309600e-01
3.290299999999999869e+01 1.897599999999999909e+01 3.195799999999999841e+01 -1.276065999999999967e+01 3.983957878763814964e-02
3.290599999999999881e+01 6.655000000000000249e+00 3.115800000000000125e+01 4.412219999999999587e+00 3.567528929322905107e-02
3.290800000000000125e+01 1.443599999999999994e+01 1.894900000000000162e+01 -1.387133000000000038e+01 1.430053139714431709e-01
3.292099999999999937e+01 8.778000000000000469e+00 3.216700000000000159e+01 -7.040011999999999937e+00 3.715477847742772871e-02
3.292199999999999704e+01 1.530799999999999983e+01 2.160500000000000043e+01 1.471743000000000023e+00 1.663749534394342753e-03
3.295700000000000074e+01 1.966300000000000026e+01 2.522800000000000153e+01 4.209554999999999936e+00 7.391121450430029709e-03
3.295900000000000318e+01 1.264000000000000057e+01 2.755600000000000094e+01 4.692919999999999980e+00 8.406568460423761296e-03
3.295900000000000318e+01 1.284900000000000020e+01 2.682000000000000028e+01 7.487744000000000177e+00 7.390573071341284550e-03
3.296399999999999864e+01 1.071499999999999986e+01 3.307099999999999795e+01 -3.134090000000000131e+01 3.837434300814165922e-02
3.296600000000000108e+01 9.899599999999999511e+00 3.036299999999999955e+01 1.225255999999999901e+00 1.177358468693640373e-02
3.296800000000000352e+01 8.324999999999999289e+00 2.758099999999999952e+01 1.649598999999999926e-01 6.425461372406554746e-03
3.296900000000000119e+01 8.393000000000000682e+00 1.452399999999999913e+01 6.863927000000000334e+00 1.348580299994732445e-01
3.299000000000000199e+01 6.769000000000000128e+00 1.357399999999999984e+01 5.500175999999999732e+00 1.331047901413529577e-01
3.299199999999999733e+01 1.352899999999999991e+01 3.305899999999999750e+01 -9.272112999999999161e+00 3.935044095285285259e-02
3.299399999999999977e+01 9.720700000000000784e+00 3.333500000000000085e+01 -5.147502000000000244e+00 3.801815481064538954e-02
3.301700000000000301e+01 2.398999999999999844e+01 2.771099999999999852e+01 1.151931999999999956e+00 1.130216545708744892e-02
3.302400000000000091e+01 9.425200000000000244e+00 3.130900000000000105e+01 -3.476732999999999851e+00 3.708344202673208301e-02
3.302600000000000335e+01 3.221900000000000208e+00 1.734100000000000108e+01 7.873413000000000217e-01 1.338622310692503536e-01
3.302700000000000102e+01 2.066700000000000159e+01 3.134600000000000009e+01 -3.475516999999999967e+01 -2.370623079814046519e-01
3.303399999999999892e+01 3.369299999999999962e+00 1.828500000000000014e+01 -1.885645999999999933e+00 1.348482325133954496e-01
3.303499999999999659e+01 3.270900000000000141e+00 1.981800000000000139e+01 4.763506999999999714e+00 1.363228858547560207e-01
3.303499999999999659e+01 3.479999999999999982e+00 1.908200000000000074e+01 1.034356999999999971e+00 1.357162132627791340e-01
3.305899999999999750e+01 1.406600000000000072e+01 1.621099999999999852e+01 -1.531666000000000061e+01 1.399544974001590558e-01
3.306799999999999784e+01 1.420800000000000018e+01 1.514600000000000080e+01 -7.030305000000000248e+00 1.390249683139244685e-01
3.307000000000000028e+01 1.098300000000000054e+01 2.930900000000000105e+01 9.325196999999999292e+00 1.052194696844566991e-02
3.307099999999999795e+01 8.043200000000000571e+00 3.207600000000000051e+01 1.458965000000000067e+00 3.667940625995464582e-02
3.307399999999999807e+01 5.722999999999999865e+00 3.721600000000000108e+01 2.977049999999999841e+01 3.682100673609946251e-02
3.307399999999999807e+01 7.272999999999999687e+00 3.721600000000000108e+01 1.657548999999999921e+02 3.788595669154150303e-02
3.307399999999999807e+01 1.941000000000000059e+00 2.105799999999999983e+01 2.445129999999999804e+00 1.366778740222366340e-01
3.307399999999999807e+01 1.941000000000000059e+00 2.298799999999999955e+01 6.335407000000000011e+00 1.389670144138682450e-01
3.307999999999999829e+01 3.450000000000000178e+00 2.382600000000000051e+01 2.882473000000000063e+00 1.413603324280273965e-01
3.307999999999999829e+01 1.386299999999999955e+01 1.703000000000000114e+01 -7.087647999999999726e+00 1.406756216039946605e-01
3.308200000000000074e+01 2.394200000000000017e+01 3.037199999999999989e+01 -9.156497999999999138e+00 -2.371299339215175439e-01
3.308599999999999852e+01 1.761799999999999855e+01 2.487500000000000000e+01 3.162838999999999956e+01 6.434490983680847889e-03
3.308599999999999852e+01 1.848300000000000054e+01 2.487500000000000000e+01 2.272899999999999920e+01 6.683224352964400525e-03
3.309300000000000352e+01 9.312900000000000844e+00 1.533300000000000018e+01 8.217247999999999664e+00 1.362356625358830953e-01
3.309400000000000119e+01 3.247700000000000031e+00 1.671199999999999974e+01 5.870032000000000139e+00 1.333952832307473413e-01
3.310399999999999920e+01 1.634300000000000086e+00 2.202299999999999969e+01 3.905173000000000005e+00 1.375655224710920776e-01
3.311099999999999710e+01 6.279300000000000104e+00 2.418100000000000094e+01 7.756935999999999609e+00 1.442771642569330992e-01
3.311099999999999710e+01 1.205300000000000082e+01 2.838899999999999935e+01 1.363190999999999953e+01 9.511994069926870896e-03
3.312100000000000222e+01 2.517200000000000060e+01 2.860900000000000176e+01 -2.588893999999999807e+00 -2.369772225080385153e-01
3.312100000000000222e+01 2.517200000000000060e+01 2.954899999999999949e+01 -1.019116000000000000e+01 -2.370922198043403095e-01
3.313000000000000256e+01 9.513999999999999346e+00 3.216700000000000159e+01 -9.215899000000000285e+00 3.740631178677041035e-02
3.313499999999999801e+01 1.235299999999999976e+01 2.453000000000000114e+01 6.849801000000000251e+00 4.103203672025965837e-03
3.313900000000000290e+01 1.398000000000000043e+01 1.818799999999999883e+01 -6.247219000000000300e+00 1.420180860182654325e-01
3.314000000000000057e+01 8.487099999999999866e+00 1.522199999999999953e+01 3.521187999999999985e+00 1.356469489337557288e-01
3.314300000000000068e+01 5.073400000000000354e+00 2.338100000000000023e+01 7.039880000000000138e+00 1.421742172378359093e-01
3.315100000000000335e+01 1.397799999999999976e+01 1.429199999999999982e+01 2.928955000000000197e+00 1.381796950464735940e-01
3.315999999999999659e+01 3.765600000000000058e+00 1.555300000000000082e+01 1.016976000000000013e+01 1.328488706002454167e-01
3.315999999999999659e+01 2.245499999999999829e+01 2.644999999999999929e+01 1.064893999999999963e+01 9.554298746106954995e-03
3.317399999999999949e+01 1.566799999999999926e+01 3.257500000000000284e+01 2.301311000000000107e+00 3.955287850339893330e-02
3.318800000000000239e+01 8.345399999999999707e+00 3.286699999999999733e+01 5.793544999999999945e+00 3.706628794037870878e-02
3.319299999999999784e+01 1.631400000000000006e+01 2.394300000000000139e+01 1.026559999999999917e+01 4.892632173291412527e-03
3.319800000000000040e+01 5.554000000000000270e+00 1.368099999999999916e+01 5.315469000000000221e+00 1.326041954468097084e-01
3.321000000000000085e+01 4.261700000000000266e+00 1.372300000000000075e+01 2.296584000000000181e+00 1.318397457751997737e-01
3.321500000000000341e+01 1.684299999999999997e+01 3.277300000000000324e+01 5.944802999999999615e-01 3.980412761061229848e-02
3.324199999999999733e+01 9.864499999999999602e+00 2.449200000000000088e+01 1.462270000000000003e+01 1.476127724062541169e-01
3.324199999999999733e+01 1.105499999999999972e+01 2.382799999999999940e+01 2.004568000000000083e+01 1.474589458361567629e-01
3.324600000000000222e+01 2.119500000000000028e+01 2.515899999999999892e+01 3.369070999999999927e+00 7.746785680790619147e-03
3.326200000000000045e+01 9.143599999999999284e+00 3.305299999999999727e+01 -5.594003999999999976e+00 3.749757425422667323e-02
3.326400000000000290e+01 1.825400000000000134e+01 3.198100000000000165e+01 -7.596097999999999573e+00 3.961111546451047405e-02
3.327499999999999858e+01 1.539199999999999946e+01 2.247899999999999920e+01 2.335738999999999876e+01 2.866493081507391020e-03
3.328099999999999881e+01 7.102000000000000313e+00 2.698199999999999932e+01 2.093259999999999899e+00 1.494524536403902815e-01
3.328099999999999881e+01 8.801999999999999602e+00 2.698199999999999932e+01 2.310250000000000081e-01 5.932312243814491515e-03
3.330199999999999960e+01 1.004899999999999949e+01 1.533300000000000018e+01 9.721750000000000114e+00 1.368624772231718800e-01
3.331099999999999994e+01 1.083999999999999986e+01 1.342399999999999949e+01 5.554594999999999949e+00 1.357380710745780261e-01
3.331099999999999994e+01 1.228599999999999959e+01 1.261800000000000033e+01 5.488146999999999665e+00 1.359457312509529947e-01
3.331099999999999994e+01 1.373199999999999932e+01 1.342399999999999949e+01 7.259038999999999575e+00 1.374084815893879263e-01
3.331300000000000239e+01 2.218100000000000094e+01 3.052299999999999969e+01 -6.554615000000000080e+00 -2.370602101415307250e-01
3.331799999999999784e+01 1.255400000000000027e+01 3.290899999999999892e+01 -5.723898000000000152e+00 3.880494894002230882e-02
3.335399999999999920e+01 1.923000000000000043e+01 2.473699999999999832e+01 4.880952999999999875e+00 6.811178878872508821e-03
3.335399999999999920e+01 2.009600000000000009e+01 2.473699999999999832e+01 2.290204999999999824e+00 7.024401269340919789e-03
3.335600000000000165e+01 1.990700000000000003e+01 3.140899999999999892e+01 -4.236692000000000036e+01 3.943185304491043930e-02
3.336099999999999710e+01 8.880200000000000315e+00 1.603300000000000125e+01 1.161477999999999966e+01 1.367993278527037115e-01
3.336099999999999710e+01 9.745499999999999829e+00 1.603300000000000125e+01 1.298288999999999938e+01 1.373540947254166533e-01
3.336299999999999955e+01 8.674099999999999255e+00 3.556900000000000261e+01 2.182358999999999938e+01 3.806527426926194224e-02
3.336299999999999955e+01 8.928000000000000824e+00 3.467499999999999716e+01 2.281921000000000177e+01 3.790683891912469822e-02
3.336800000000000210e+01 1.048300000000000054e+01 1.422700000000000031e+01 4.509063000000000265e+00 1.362226929807363873e-01
3.338100000000000023e+01 1.076399999999999935e+01 2.992200000000000060e+01 1.373518999999999934e+01 1.153040560351424951e-02
3.338700000000000045e+01 6.129699999999999704e+00 3.175400000000000134e+01 4.123802999999999663e+00 3.539184823868346541e-02
3.338700000000000045e+01 7.180299999999999905e+00 3.175400000000000134e+01 3.490469000000000044e+00 3.597461080978821280e-02
3.339500000000000313e+01 1.024499999999999922e+01 3.253799999999999670e+01 -4.834653999999999741e+01 3.774150116818868889e-02
3.340899999999999892e+01 2.138500000000000156e+01 3.083999999999999986e+01 -1.192885000000000062e+01 -2.370601352811478879e-01
3.341100000000000136e+01 2.470200000000000173e+01 2.784900000000000020e+01 -2.075649999999999995e+00 -2.368792577893309992e-01
3.341100000000000136e+01 2.470200000000000173e+01 3.030900000000000105e+01 -4.768810000000000215e+00 -2.371796640440270443e-01
3.342000000000000171e+01 1.851000000000000156e+01 3.143900000000000006e+01 -1.131287999999999982e+01 3.933316593527281385e-02
3.342000000000000171e+01 1.937600000000000122e+01 3.143900000000000006e+01 -3.090616999999999948e+01 3.939045758090811700e-02
3.342699999999999960e+01 2.288800000000000168e+01 2.714999999999999858e+01 1.365676999999999985e+01 1.056647490809038172e-02
3.342900000000000205e+01 1.092399999999999949e+01 3.277300000000000324e+01 -7.131655999999999551e+01 3.809552775052586077e-02
3.343599999999999994e+01 5.868699999999999584e+00 2.344600000000000151e+01 1.042685999999999957e+01 1.431336146674077048e-01
3.343800000000000239e+01 1.444800000000000040e+01 1.896499999999999986e+01 -1.000484999999999935e+01 1.433420122711672184e-01
3.344299999999999784e+01 2.064699999999999847e+01 2.457499999999999929e+01 1.981900999999999913e+00 6.986290350657111022e-03
3.344800000000000040e+01 1.709700000000000131e+01 2.407000000000000028e+01 5.479930999999999663e+00 5.417072703323914939e-03
3.345799999999999841e+01 9.915900000000000603e+00 3.177799999999999869e+01 -2.761480999999999852e+01 3.728063349486016725e-02
3.346099999999999852e+01 1.292600000000000016e+01 2.655600000000000094e+01 7.593093999999999788e+00 7.248682913272559356e-03
3.346399999999999864e+01 9.555899999999999395e+00 2.520100000000000051e+01 5.860380000000000145e+00 1.485906580055616488e-01
3.347099999999999653e+01 7.294299999999999784e+00 1.416999999999999993e+01 1.596416999999999931e+01 1.342930472664022046e-01
3.347399999999999665e+01 5.795899999999999608e+00 3.272800000000000153e+01 6.987163999999999930e+00 3.546201686445066281e-02
3.347699999999999676e+01 1.496799999999999997e+01 3.263300000000000267e+01 -1.252450999999999981e+00 3.926662571720528072e-02
3.347699999999999676e+01 1.636799999999999855e+01 3.263300000000000267e+01 1.710887000000000047e+00 3.953175125450179156e-02
3.347899999999999920e+01 1.561299999999999955e+01 2.314099999999999824e+01 1.555389000000000088e+01 3.818095415994903537e-03
3.348799999999999955e+01 5.636899999999999800e+00 3.353499999999999659e+01 5.776299999999999990e+00 3.559502256202412562e-02
3.349199999999999733e+01 1.438899999999999935e+01 3.276700000000000301e+01 -2.875322999999999851e+00 3.917798808887600071e-02
3.350500000000000256e+01 1.805000000000000071e+01 2.417500000000000071e+01 3.284044999999999703e+01 5.856590106428249086e-03
3.351400000000000290e+01 2.600000000000000089e+00 2.064799999999999969e+01 2.239364999999999828e+00 1.371482969028480770e-01
3.351400000000000290e+01 2.600000000000000089e+00 2.339799999999999969e+01 5.903292999999999680e+00 1.404333789505721186e-01
3.351400000000000290e+01 4.299999999999999822e+00 2.339799999999999969e+01 8.568472999999999118e+00 1.418478930485133627e-01
3.352300000000000324e+01 2.086799999999999855e+01 2.194200000000000017e+01 5.315705999999999598e+00 4.097725633761756595e-03
3.353000000000000114e+01 1.160899999999999999e+01 2.895200000000000173e+01 1.165944000000000003e+01 1.035214936807783183e-02
3.354200000000000159e+01 7.662700000000000067e+00 1.501999999999999957e+01 3.325111000000000150e+00 1.352735383082927789e-01
3.355299999999999727e+01 4.948000000000000398e+00 3.596200000000000330e+01 1.563369999999999926e+01 3.573825511975872032e-02
3.355299999999999727e+01 5.179499999999999993e+00 3.514699999999999847e+01 4.118967999999999741e+00 3.570259567459557748e-02
3.355299999999999727e+01 5.179499999999999993e+00 3.677700000000000102e+01 5.929931999999999981e+00 3.608222317376615085e-02
3.355299999999999727e+01 5.388600000000000279e+00 3.441100000000000136e+01 8.414498999999999285e+00 3.565106187075665206e-02
3.355299999999999727e+01 6.498000000000000220e+00 3.751200000000000045e+01 2.933951000000000064e+01 3.715898956549531368e-02
3.355299999999999727e+01 7.816499999999999559e+00 3.677700000000000102e+01 1.312462999999999909e+02 3.781717348468406625e-02
3.355400000000000205e+01 7.567400000000000126e+00 3.249799999999999756e+01 5.154230000000000089e+00 3.636008662647261663e-02
3.355799999999999983e+01 1.684299999999999997e+01 2.969699999999999918e+01 -9.057480999999999227e+00 1.322912557763734030e-02
3.356300000000000239e+01 3.681599999999999984e+00 1.622200000000000131e+01 2.309846999999999984e+00 1.337089352885145188e-01
3.356400000000000006e+01 1.157799999999999940e+01 3.287500000000000000e+01 -7.779565999999999981e+00 3.831555230781241717e-02
3.356700000000000017e+01 1.305300000000000082e+01 2.566300000000000026e+01 5.116559999999999775e+00 6.102955347054898026e-03
3.357099999999999795e+01 1.025799999999999912e+01 3.082100000000000151e+01 -6.227724999999999511e-01 3.700712613424298608e-02
3.357600000000000051e+01 1.281000000000000050e+01 2.749200000000000088e+01 7.716268000000000349e+00 8.607091631589559172e-03
3.360000000000000142e+01 6.284600000000000186e+00 1.413400000000000034e+01 5.261027000000000342e+00 1.337431522703988740e-01
3.360000000000000142e+01 7.966099999999999959e+00 1.572000000000000064e+01 5.649181999999999704e+00 1.361171562549474967e-01
3.360499999999999687e+01 4.744699999999999918e+00 1.426999999999999957e+01 3.026759999999999895e+00 1.328894525330297782e-01
3.360600000000000165e+01 6.576699999999999768e+00 2.613200000000000145e+01 2.968417999999999779e+00 1.478009263499522885e-01
3.360600000000000165e+01 9.327299999999999258e+00 2.613200000000000145e+01 3.087091000000000030e+00 5.142313952436252181e-03
3.360999999999999943e+01 1.956700000000000017e+01 2.274599999999999866e+01 3.385372999999999966e+00 4.660698759998952237e-03
3.361599999999999966e+01 2.288100000000000023e+01 3.046499999999999986e+01 -4.373566000000000287e+00 -2.371108347614563905e-01
3.362100000000000222e+01 1.966300000000000026e+01 2.403699999999999903e+01 8.661464999999999748e+00 6.173749638076070356e-03
3.362299999999999756e+01 1.530700000000000038e+01 2.010200000000000031e+01 -4.607904999999999696e+00 1.452614963004618120e-01
3.362299999999999756e+01 1.544299999999999962e+01 2.184299999999999997e+01 3.452696000000000254e+01 2.353524917983532572e-03
3.362299999999999756e+01 1.556099999999999994e+01 2.099599999999999866e+01 1.076880000000000059e+01 1.489358288458110134e-03
3.364000000000000057e+01 1.752799999999999869e+01 2.978999999999999915e+01 -6.021609999999999907e+00 3.845463540051335255e-02
3.364999999999999858e+01 7.951999999999999957e+00 2.705300000000000082e+01 3.249369000000000174e+00 5.788938998831893480e-03
3.364999999999999858e+01 1.278599999999999959e+01 2.808500000000000085e+01 1.029414000000000051e+01 9.512269674665983082e-03
3.366100000000000136e+01 1.998799999999999955e+01 2.188899999999999935e+01 3.128661999999999832e+00 3.865033507843727064e-03
3.366100000000000136e+01 1.335800000000000054e+01 1.744900000000000162e+01 -5.862942000000000320e+00 1.411834142287866634e-01
3.366100000000000136e+01 1.336899999999999977e+01 3.287500000000000000e+01 2.964965999999999990e+00 3.885463997320827423e-02
3.367000000000000171e+01 1.051399999999999935e+01 1.527599999999999980e+01 6.655540000000000234e+00 1.373717329689005118e-01
3.367499999999999716e+01 2.036400000000000077e+01 2.275700000000000145e+01 4.366899000000000086e+00 4.910589514170352922e-03
3.367600000000000193e+01 4.376299999999999635e+00 1.511999999999999922e+01 6.969211999999999740e+00 1.333699584324446186e-01
3.368999999999999773e+01 5.735299999999999621e+00 1.416200000000000081e+01 5.350648999999999766e+00 1.334988390142416437e-01
3.369500000000000028e+01 1.331000000000000050e+01 1.653500000000000014e+01 -1.083351000000000042e+01 1.402460094484539455e-01
3.369599999999999795e+01 1.736799999999999855e+01 3.217699999999999960e+01 -5.416528000000000453e-01 3.937248871327556771e-02
3.371399999999999864e+01 6.492499999999999716e+00 2.514199999999999946e+01 3.329454000000000136e+00 1.462669633277546011e-01
3.371600000000000108e+01 1.173000000000000043e+01 2.409600000000000009e+01 7.205658999999999814e+00 3.596302567701200291e-03
3.373400000000000176e+01 1.284500000000000064e+01 2.486799999999999855e+01 8.553689000000000320e+00 5.043083106384802297e-03
3.374300000000000210e+01 2.176999999999999957e+01 2.608899999999999864e+01 1.501507999999999932e+01 9.150400340342344091e-03
3.374600000000000222e+01 1.363199999999999967e+01 1.576200000000000045e+01 -1.074906999999999968e+01 1.397131609597405677e-01
3.375699999999999790e+01 9.312900000000000844e+00 1.652400000000000091e+01 1.107666000000000039e+01 1.378382173964633195e-01
3.376200000000000045e+01 1.906299999999999883e+01 2.356099999999999994e+01 7.570788000000000295e+00 5.512834700283151222e-03
3.376200000000000045e+01 2.007100000000000151e+01 2.356099999999999994e+01 4.805907999999999625e+00 5.774959056278191824e-03
3.376700000000000301e+01 1.610699999999999932e+01 2.969699999999999918e+01 -1.044209000000000032e+01 1.308667663345837798e-02
3.377700000000000102e+01 2.176200000000000045e+01 2.194200000000000017e+01 5.049908000000000285e+00 4.424010253640734205e-03
3.378099999999999881e+01 2.128300000000000125e+01 2.497400000000000020e+01 7.170141000000000098e+00 7.711514055381915242e-03
3.378900000000000148e+01 1.842599999999999838e+01 2.346099999999999852e+01 9.007450000000000401e+00 5.230373432128339155e-03
3.379299999999999926e+01 8.039300000000000779e+00 1.623400000000000176e+01 9.178947000000000855e+00 1.367788937081668155e-01
3.379399999999999693e+01 3.079000000000000181e+00 1.781500000000000128e+01 1.291082999999999981e+00 1.349052891493487394e-01
3.379399999999999693e+01 3.306000000000000050e+00 1.701599999999999824e+01 -2.048348000000000113e-01 1.343448651829039775e-01
3.379599999999999937e+01 6.769000000000000128e+00 1.501999999999999957e+01 3.788990000000000080e+00 1.349144890210114967e-01
3.380899999999999750e+01 3.206999999999999851e+00 1.864000000000000057e+01 -7.503549999999999720e+00 1.357877610207744723e-01
3.381000000000000227e+01 1.060299999999999976e+01 2.387699999999999889e+01 1.647547000000000139e+01 1.475145021191837380e-01
3.381099999999999994e+01 6.546700000000000408e+00 2.461400000000000077e+01 5.163635000000000197e+00 1.455877236792816887e-01
3.381199999999999761e+01 6.117099999999999760e+00 1.511999999999999922e+01 1.129534999999999911e+01 1.345969062459708154e-01
3.381700000000000017e+01 1.894300000000000139e+01 3.094800000000000040e+01 -2.504064999999999941e+01 3.897845666829449773e-02
3.382500000000000284e+01 1.641000000000000014e+01 2.899699999999999989e+01 -3.254737999999999687e+01 1.209586543347798346e-02
3.382500000000000284e+01 1.641000000000000014e+01 3.039699999999999847e+01 5.256192000000000419e+00 3.845673018126469223e-02
3.382500000000000284e+01 1.727599999999999980e+01 2.899699999999999989e+01 -1.343387000000000064e+01 1.229954476703524167e-02
3.382800000000000296e+01 6.655000000000000249e+00 3.248899999999999721e+01 7.838656000000000290e+00 3.574153971939600383e-02
3.383599999999999852e+01 1.143599999999999994e+01 1.294299999999999962e+01 5.196062999999999654e+00 1.360846896927260241e-01
3.383599999999999852e+01 1.313599999999999923e+01 1.294299999999999962e+01 6.558321000000000289e+00 1.370372316533451373e-01
3.383899999999999864e+01 2.074699999999999989e+00 2.149800000000000111e+01 2.872571000000000208e+00 1.379832335401886823e-01
3.383899999999999864e+01 2.074699999999999989e+00 2.254799999999999827e+01 8.214332999999999885e+00 1.392146810957310410e-01
3.384100000000000108e+01 2.044900000000000162e+01 3.099299999999999855e+01 -4.786887999999999721e+01 -2.370478064594933598e-01
3.384599999999999653e+01 9.470299999999999940e+00 2.463500000000000156e+01 9.869842000000000226e+00 1.478573398207089495e-01
3.384799999999999898e+01 2.034299999999999997e+01 2.109199999999999875e+01 3.142704999999999860e+00 3.216533344560102391e-03
3.384799999999999898e+01 2.139300000000000068e+01 2.109199999999999875e+01 3.494013999999999953e+00 3.494181615714889947e-03
3.384799999999999898e+01 2.139300000000000068e+01 2.279200000000000159e+01 5.337873000000000090e+00 5.267565013427627160e-03
3.384899999999999665e+01 1.826399999999999935e+01 2.978999999999999915e+01 -1.951118999999999915e+01 3.844530933381623550e-02
3.385499999999999687e+01 1.108399999999999963e+01 2.980199999999999960e+01 6.874259999999999593e+00 1.158480712784619102e-02
3.386099999999999710e+01 1.269100000000000072e+01 1.710300000000000153e+01 -5.852191999999999616e+00 1.405608055950134105e-01
3.386399999999999721e+01 1.382799999999999940e+01 1.821399999999999864e+01 -6.113987999999999978e+00 1.423952461023842431e-01
3.386399999999999721e+01 1.867299999999999827e+01 2.274599999999999866e+01 2.519874999999999865e+00 4.516881348219421548e-03
3.387800000000000011e+01 1.751699999999999946e+01 2.355799999999999983e+01 6.587119000000000391e+00 5.113845920466507378e-03
3.388100000000000023e+01 2.394200000000000017e+01 2.755900000000000105e+01 -4.396875000000000089e-01 1.127187921746173466e-02
3.388100000000000023e+01 2.394200000000000017e+01 3.059900000000000020e+01 -1.634843000000000046e+01 -2.372009563744129079e-01
3.388100000000000023e+01 2.523499999999999943e+01 2.828000000000000114e+01 -7.321250999999999731e-01 -2.369823322960951939e-01
3.388100000000000023e+01 2.523499999999999943e+01 2.987800000000000011e+01 -1.583327000000000062e+01 -2.371743970227601639e-01
3.388100000000000023e+01 2.546199999999999974e+01 2.907900000000000063e+01 -2.703997999999999990e+01 -2.370877005809901017e-01
3.388300000000000267e+01 3.450000000000000178e+00 2.346900000000000119e+01 -1.191386000000000056e+00 1.415312053014624594e-01
3.388300000000000267e+01 1.772299999999999898e+01 3.137999999999999901e+01 -5.497492000000000267e+00 3.900400339141877476e-02
3.388600000000000279e+01 1.046100000000000030e+01 3.164099999999999824e+01 -1.119797999999999938e+01 3.725473627603424764e-02
3.388799999999999812e+01 8.077999999999999403e+00 3.329999999999999716e+01 1.288804000000000016e+01 3.673785747126247919e-02
3.390200000000000102e+01 1.022300000000000075e+01 1.654599999999999937e+01 1.654588999999999999e+01 1.385378630349470286e-01
3.390599999999999881e+01 2.108999999999999986e+01 2.349200000000000088e+01 4.031660999999999717e+00 5.992307173516302557e-03
3.390699999999999648e+01 1.796000000000000085e+01 2.908999999999999986e+01 -1.274061000000000021e+01 1.259352316882101849e-02
3.390699999999999648e+01 1.796000000000000085e+01 3.048999999999999844e+01 -8.875460000000000349e+00 3.866643435515684790e-02
3.390800000000000125e+01 1.163899999999999935e+01 1.746699999999999875e+01 1.513096999999999959e+01 1.403333006727413290e-01
3.390999999999999659e+01 1.566799999999999926e+01 3.236599999999999966e+01 1.793238000000000054e-01 3.906895316466912904e-02
3.391100000000000136e+01 1.496400000000000041e+01 1.940200000000000102e+01 -3.752409000000000106e+00 1.443945090554080435e-01
3.391199999999999903e+01 1.610399999999999920e+01 2.353800000000000026e+01 8.555090999999999113e+00 4.657527637295853090e-03
3.391700000000000159e+01 1.235299999999999976e+01 2.878500000000000014e+01 4.029784000000000077e+01 1.049755506294541146e-02
3.392099999999999937e+01 8.221099999999999852e+00 3.607699999999999818e+01 2.373111000000000104e+01 3.764153877763658923e-02
3.392799999999999727e+01 4.272700000000000387e+00 1.599600000000000044e+01 8.955458000000000141e+00 1.342333688939519321e-01
3.392900000000000205e+01 4.599000000000000199e+00 2.029899999999999949e+01 6.766966000000000037e+00 1.386281367937048092e-01
3.392999999999999972e+01 5.269999999999999574e+00 1.511999999999999922e+01 5.623304000000000080e+00 1.341586220574472743e-01
3.393500000000000227e+01 1.904200000000000159e+01 2.189600000000000080e+01 1.082082999999999906e+00 3.725270808002024373e-03
3.393999999999999773e+01 5.466999999999999638e+00 2.245100000000000051e+01 1.374349999999999916e+01 1.418643325889151208e-01
3.394200000000000017e+01 1.198199999999999932e+01 1.665200000000000102e+01 -3.553123999999999727e-01 1.397410024420881469e-01
3.394200000000000017e+01 1.286800000000000033e+01 1.645100000000000051e+01 -1.570222000000000051e+01 1.400645717534430013e-01
3.394500000000000028e+01 7.183500000000000441e+00 1.572000000000000064e+01 3.417323999999999806e+00 1.358912843206054322e-01
3.394899999999999807e+01 3.688099999999999934e+00 1.984700000000000131e+01 2.493198000000000025e+00 1.374839714699422899e-01
3.395400000000000063e+01 6.635500000000000398e+00 2.364499999999999957e+01 1.067525000000000013e+01 1.443702675810536462e-01
3.400099999999999767e+01 1.317200000000000060e+01 1.575099999999999945e+01 -1.712366999999999972e+00 1.396037383685140854e-01
3.400600000000000023e+01 2.206599999999999895e+01 3.056700000000000017e+01 -6.959312999999999860e+00 -2.370983809024347910e-01
3.400699999999999790e+01 3.384700000000000042e+00 2.054700000000000060e+01 2.179330999999999907e+00 1.380651257854225711e-01
3.401100000000000279e+01 2.220200000000000173e+01 2.678900000000000148e+01 6.079187000000000118e+00 1.015497302959851057e-02
3.401700000000000301e+01 6.284699999999999953e+00 3.326400000000000290e+01 5.437469000000000108e+00 3.568188369530998078e-02
3.403199999999999648e+01 5.722999999999999865e+00 3.721600000000000108e+01 1.666229999999999833e+01 3.630621216940652790e-02
3.403199999999999648e+01 7.272999999999999687e+00 3.721600000000000108e+01 6.083088000000000051e+01 3.731277699482934279e-02
3.403999999999999915e+01 6.376900000000000013e+00 2.291199999999999903e+01 9.112937999999999761e+00 1.432356074795869127e-01
3.405899999999999750e+01 1.662600000000000122e+01 3.225600000000000023e+01 2.480919999999999792e+00 3.911103612498099263e-02
3.406000000000000227e+01 1.113499999999999979e+01 1.665200000000000102e+01 1.367277999999999949e+01 1.393105747697738761e-01
3.406199999999999761e+01 1.240499999999999936e+01 2.415599999999999881e+01 1.341750000000000043e+01 4.124334125217218004e-03
3.406900000000000261e+01 4.785300000000000331e+00 2.254599999999999937e+01 1.515171999999999919e+01 1.415519261476018698e-01
3.407900000000000063e+01 5.684499999999999886e+00 1.582000000000000028e+01 8.680249999999999133e+00 1.351265163924703083e-01
3.409100000000000108e+01 1.442600000000000016e+01 3.284000000000000341e+01 -3.931506999999999863e+00 3.888602215426723713e-02
3.410600000000000165e+01 1.977499999999999858e+01 3.110300000000000153e+01 -2.728125000000000000e+01 3.895139942238605435e-02
3.410799999999999699e+01 5.600500000000000256e+00 3.466100000000000136e+01 5.380840000000000067e+00 3.560537203097230430e-02
3.411299999999999955e+01 9.903000000000000469e+00 2.393499999999999872e+01 6.314053000000000360e+00 1.472723771886610966e-01
3.411699999999999733e+01 1.090300000000000047e+01 1.746699999999999875e+01 1.497190999999999939e+01 1.400210534930856621e-01
3.412400000000000233e+01 1.693400000000000105e+01 3.132700000000000173e+01 5.993661999999999601e+00 3.876341987305885473e-02
3.412800000000000011e+01 1.312400000000000055e+01 1.780300000000000082e+01 -1.452136000000000093e+00 1.417057777479416580e-01
3.413100000000000023e+01 7.426700000000000301e+00 2.645700000000000074e+01 4.005069999999999908e+00 1.492673154480450848e-01
3.413100000000000023e+01 8.477299999999999613e+00 2.645700000000000074e+01 2.350467999999999780e+00 5.444016544902416030e-03
3.413700000000000045e+01 7.224400000000000155e+00 1.619999999999999929e+01 7.070676999999999879e+00 1.364937110685155996e-01
3.413799999999999812e+01 3.862999999999999989e+00 2.029899999999999949e+01 2.614282000000000217e+00 1.382582863820688568e-01
3.413799999999999812e+01 5.334999999999999964e+00 2.029899999999999949e+01 1.548429999999999929e+01 1.393354069646430271e-01
3.414900000000000091e+01 6.203000000000000291e+00 2.245100000000000051e+01 1.084168999999999983e+01 1.425770512413097324e-01
3.416100000000000136e+01 1.091099999999999959e+01 1.379299999999999926e+01 3.953225999999999907e+00 1.366905931495333015e-01
3.416100000000000136e+01 1.091099999999999959e+01 1.484299999999999997e+01 1.132959999999999923e+01 1.375762659800382759e-01
3.416100000000000136e+01 1.366099999999999959e+01 1.379299999999999926e+01 1.247147999999999968e+01 1.382321550386627074e-01
3.416100000000000136e+01 1.366099999999999959e+01 1.484299999999999997e+01 9.204736999999999725e+00 1.391440607120148221e-01
3.416499999999999915e+01 1.255400000000000027e+01 3.302700000000000102e+01 5.537609999999999921e+00 3.838733800737310908e-02
3.417600000000000193e+01 1.120599999999999952e+01 1.816700000000000159e+01 8.822115000000000151e+00 1.409766997727787685e-01
3.417600000000000193e+01 1.207099999999999973e+01 1.816700000000000159e+01 4.086735000000000007e+00 1.415023694339123950e-01
3.417900000000000205e+01 1.567200000000000060e+01 2.283800000000000097e+01 1.389399000000000051e+01 3.819580665471826453e-03
3.418999999999999773e+01 8.471899999999999764e+00 1.672500000000000142e+01 7.871203999999999645e+00 1.378155821344460297e-01
3.419700000000000273e+01 4.166400000000000325e+00 1.959900000000000020e+01 -6.184267000000000181e+00 1.377780462057816013e-01
3.419700000000000273e+01 5.031600000000000072e+00 1.603099999999999881e+01 4.653920000000000279e+00 1.349840746233685884e-01
3.419700000000000273e+01 5.031600000000000072e+00 1.959900000000000020e+01 -1.411879000000000062e+01 1.383972696083403398e-01
3.419700000000000273e+01 5.031600000000000072e+00 2.099899999999999878e+01 6.852848999999999968e+00 1.399581711749550983e-01
3.420199999999999818e+01 7.058300000000000018e+00 2.560699999999999932e+01 2.714242000000000044e+00 1.476944810271426378e-01
3.420199999999999818e+01 8.845700000000000784e+00 2.560699999999999932e+01 1.722429999999999906e+00 4.507839355980003751e-03
3.420499999999999829e+01 1.228599999999999959e+01 1.287199999999999989e+01 5.603291999999999717e+00 1.367589119734211600e-01
3.420700000000000074e+01 5.034399999999999764e+00 2.175100000000000122e+01 6.343871000000000038e+00 1.408609195591428165e-01
3.420700000000000074e+01 5.899600000000000399e+00 2.175100000000000122e+01 1.753845000000000098e+01 1.415104208468092040e-01
3.420900000000000318e+01 1.241499999999999915e+01 1.595199999999999996e+01 -2.349041999999999852e+00 1.394933030311063804e-01
3.421300000000000097e+01 5.852699999999999569e+00 3.414999999999999858e+01 1.272738999999999976e+01 3.558387192177496494e-02
3.421300000000000097e+01 8.603300000000000836e+00 3.414999999999999858e+01 1.020753999999999984e+01 3.711399358550401817e-02
3.421300000000000097e+01 8.603300000000000836e+00 3.520000000000000284e+01 3.436475000000000080e+01 3.743084751201324750e-02
3.421399999999999864e+01 2.177400000000000091e+01 2.310500000000000043e+01 1.458182000000000045e+01 5.825335879497531288e-03
3.421500000000000341e+01 1.680399999999999849e+01 2.359600000000000009e+01 1.148507999999999996e+01 5.080895716606826165e-03
3.422200000000000131e+01 1.947800000000000153e+01 2.132300000000000040e+01 3.560684000000000182e+00 3.374512279476991981e-03
3.423199999999999932e+01 1.435599999999999987e+01 1.867599999999999838e+01 -1.977985000000000104e+00 1.434085433984381430e-01
3.425000000000000000e+01 1.104499999999999993e+01 3.229200000000000159e+01 -5.298693000000000097e+00 3.754487528361125093e-02
3.425800000000000267e+01 1.571000000000000085e+01 3.012999999999999901e+01 -3.084782000000000135e+00 3.802774370865314585e-02
3.426400000000000290e+01 3.838999999999999968e+00 1.658500000000000085e+01 -4.276979000000000197e-01 1.347396515199880129e-01
3.426599999999999824e+01 1.784900000000000020e+01 2.294800000000000040e+01 6.913044000000000189e+00 4.672619516892467448e-03
3.427100000000000080e+01 1.101200000000000045e+01 3.041499999999999915e+01 4.826019999999999754e+00 3.683734451494618395e-02
3.428000000000000114e+01 1.073799999999999955e+01 3.139799999999999969e+01 -1.154516000000000098e+00 3.709090733026711162e-02
3.428000000000000114e+01 4.070899999999999963e+00 2.108599999999999852e+01 2.395071000000000172e+00 1.394086960949074694e-01
3.429099999999999682e+01 1.127800000000000047e+01 1.571499999999999986e+01 1.277494000000000085e+01 1.386630444923282746e-01
3.429800000000000182e+01 9.789899999999999380e+00 1.703699999999999903e+01 1.274346000000000068e+01 1.390245312005325695e-01
3.430400000000000205e+01 1.752799999999999869e+01 2.859900000000000020e+01 -1.709092000000000056e+01 1.185451891017622571e-02
3.432500000000000284e+01 1.571000000000000085e+01 2.906299999999999883e+01 -2.725824000000000069e+01 1.210411567429219362e-02
3.432800000000000296e+01 5.243999999999999773e+00 3.548299999999999699e+01 4.510240999999999723e+00 3.547356215928526568e-02
3.432800000000000296e+01 5.243999999999999773e+00 3.644100000000000250e+01 8.054489999999999483e+00 3.567744818882125080e-02
3.432800000000000296e+01 7.751999999999999780e+00 3.644100000000000250e+01 3.210567999999999955e+01 3.723981353106494557e-02
3.432900000000000063e+01 2.086799999999999855e+01 2.049599999999999866e+01 6.855615000000000236e+00 2.973246649810410477e-03
3.433299999999999841e+01 1.309999999999999964e+01 2.702400000000000091e+01 7.206955999999999918e+00 8.302303698493732065e-03
3.433599999999999852e+01 1.686100000000000065e+01 2.833399999999999963e+01 -2.735891000000000162e+01 1.132737441660257305e-02
3.434000000000000341e+01 1.866000000000000014e+01 2.935699999999999932e+01 -2.386778999999999940e+01 3.810199393807795626e-02
3.434000000000000341e+01 1.866000000000000014e+01 3.022299999999999898e+01 -2.528492999999999924e+01 3.843418381673947143e-02
3.434199999999999875e+01 7.194300000000000139e+00 3.314399999999999835e+01 9.868973000000000440e+00 3.601278524581910667e-02
3.434199999999999875e+01 1.496799999999999997e+01 3.263300000000000267e+01 -7.152911999999999715e+00 3.879709136422069410e-02
3.434499999999999886e+01 1.111800000000000033e+01 2.371000000000000085e+01 6.694427000000000127e+00 3.198661350670158054e-03
3.435000000000000142e+01 1.284399999999999942e+01 2.838899999999999935e+01 2.090369000000000099e+01 1.019413394994601527e-02
3.435000000000000142e+01 1.305300000000000082e+01 2.765299999999999869e+01 7.755435000000000301e+00 9.188278356550259179e-03
3.435099999999999909e+01 2.470200000000000173e+01 2.784900000000000020e+01 -1.295997000000000021e+01 -2.369303920370247063e-01
3.435099999999999909e+01 2.470200000000000173e+01 3.030900000000000105e+01 -2.002862999999999971e+01 -2.372243673206682057e-01
3.435900000000000176e+01 1.366699999999999982e+01 3.287500000000000000e+01 7.028167999999999971e+00 3.855806341618036454e-02
3.436399999999999721e+01 2.924700000000000077e+00 2.117299999999999827e+01 1.811290999999999984e+00 1.387159235083049724e-01
3.436399999999999721e+01 2.924700000000000077e+00 2.287300000000000111e+01 1.002563999999999922e+01 1.407244884017453679e-01
3.436399999999999721e+01 3.975299999999999834e+00 2.287300000000000111e+01 -4.926202000000000081e-01 1.415533199568557721e-01
3.436800000000000210e+01 6.498000000000000220e+00 3.728099999999999881e+01 2.089868999999999843e+01 3.665034037490916968e-02
3.436999999999999744e+01 8.926600000000000534e+00 2.491100000000000136e+01 4.786453999999999986e+00 1.481351821409534475e-01
3.437299999999999756e+01 2.224299999999999855e+01 2.141700000000000159e+01 7.780903999999999598e+00 4.233325320780793009e-03
3.437299999999999756e+01 2.224299999999999855e+01 2.246699999999999875e+01 1.374457999999999913e+01 5.303129326831627910e-03
3.437800000000000011e+01 5.408299999999999663e+00 1.650499999999999901e+01 4.793595999999999968e+00 1.357877147163096265e-01
3.437800000000000011e+01 6.273600000000000065e+00 1.650499999999999901e+01 9.640230000000000743e+00 1.363468886694286231e-01
3.439000000000000057e+01 1.315499999999999936e+01 2.607300000000000040e+01 4.130512999999999657e+00 7.034292128394369070e-03
3.441299999999999670e+01 2.128800000000000026e+01 3.073199999999999932e+01 -2.405998999999999910e+01 -2.370969074905128482e-01
3.441599999999999682e+01 1.180499999999999972e+01 2.938400000000000034e+01 3.040814999999999912e+01 1.133652315210426607e-02
3.443500000000000227e+01 2.556299999999999795e+00 2.202299999999999969e+01 6.738787000000000305e+00 1.394688558210123719e-01
3.443500000000000227e+01 4.343700000000000117e+00 2.202299999999999969e+01 2.485177000000000191e+00 1.408393091612040182e-01
3.444200000000000017e+01 7.201299999999999812e+00 2.410999999999999943e+01 6.982407000000000252e+00 1.457494942001441030e-01
3.444899999999999807e+01 1.601300000000000168e+01 2.816100000000000136e+01 -7.039172000000000651e+01 1.088636848393293409e-02
3.445600000000000307e+01 7.951999999999999957e+00 2.560699999999999932e+01 2.089977999999999891e+00 1.485045812788815534e-01
3.446000000000000085e+01 1.819200000000000017e+01 2.222100000000000009e+01 2.045904000000000167e+00 4.053150288403731608e-03
3.447299999999999898e+01 1.523600000000000065e+01 2.152100000000000080e+01 3.845770999999999873e+01 2.364208024052179540e-03
3.447899999999999920e+01 7.485999999999999766e+00 2.330399999999999849e+01 1.190290000000000070e+01 1.448718831489712033e-01
3.448100000000000165e+01 2.134100000000000108e+01 2.380499999999999972e+01 7.957802000000000042e+00 6.594563523820057109e-03
3.449300000000000210e+01 5.512400000000000411e+00 2.132300000000000040e+01 1.117486000000000068e+01 1.409159249962565197e-01
