1.882900000000000063e+01 4.479999999999999716e+01 1.437899999999999956e+01 1.045499000000000045e+01 -3.499999999999999778e-01
1.884100000000000108e+01 7.757099999999999795e+01 1.513599999999999923e+01 -3.684808000000000305e+01 -9.435038070747980149e-03
1.885200000000000031e+01 6.870900000000000318e+01 2.638400000000000034e+01 5.880442000000000391e+00 -2.480193715507481023e-01
1.885399999999999920e+01 8.776699999999999591e+01 1.206900000000000084e+01 -4.520157999999999987e+01 -1.585688780067701434e-02
1.885399999999999920e+01 8.776699999999999591e+01 1.300900000000000034e+01 -1.170187999999999988e+02 -1.435498954721111699e-02
1.885999999999999943e+01 5.518900000000000006e+01 3.559599999999999986e-01 -2.825369999999999937e+00 -2.555512913661733831e-01
1.886100000000000065e+01 7.256999999999999318e+01 1.973499999999999943e+01 7.521644000000000219e+00 -1.917638915025070834e-01
1.886599999999999966e+01 5.271399999999999864e+01 -7.119900000000000118e-01 4.113794999999999646e+00 -2.555546364060885534e-01
1.886799999999999855e+01 7.067400000000000659e+01 2.022100000000000009e+01 2.305921999999999983e+01 -1.910540156054955918e-01
1.887300000000000111e+01 7.470699999999999363e+01 1.437899999999999956e+01 -5.834443000000000268e+00 -1.207990622229987952e-02
1.887300000000000111e+01 5.114600000000000080e+01 -9.599800000000000555e-01 -8.888204999999999245e+00 -2.554031841681585480e-01
1.887699999999999889e+01 5.143399999999999750e+01 1.514600000000000080e+01 1.024323000000000050e+01 -3.500000000000000333e-01
1.887800000000000011e+01 8.203499999999999659e+01 1.258000000000000007e+01 1.885305000000000009e+00 -1.580874168429923649e-02
1.888200000000000145e+01 7.964499999999999602e+01 -4.243500000000000050e+00 4.971801000000000137e+00 -8.664954757868711249e-03
1.888599999999999923e+01 7.982899999999999352e+01 -9.098800000000000221e-01 1.390654999999999930e+01 -1.156946715632676051e-02
1.888800000000000168e+01 8.290699999999999648e+01 1.984699999999999909e+00 2.324586000000000041e+00 8.112992202840953182e-02
1.889199999999999946e+01 8.759999999999999432e+01 1.035500000000000043e+01 -1.808975999999999829e+01 -1.835507343882566977e-02
1.889300000000000068e+01 8.653700000000000614e+01 1.383200000000000074e+01 -4.284170000000000300e+01 -1.288093667665384835e-02
1.889300000000000068e+01 7.072700000000000387e+01 -5.171400000000000219e+00 -1.636730999999999936e+00 -8.504816544692185565e-03
1.889999999999999858e+01 5.993699999999999761e+01 -2.937899999999999956e-01 9.556360000000000410e-01 -2.564325430114793858e-01
1.890299999999999869e+01 4.411899999999999977e+01 1.053400000000000070e+01 6.365611999999999604e+00 -3.500000000000000888e-01
1.890700000000000003e+01 7.599299999999999500e+01 1.521199999999999974e+01 -1.761101999999999990e+01 -8.807280930061191920e-03
1.890899999999999892e+01 7.357500000000000284e+01 1.513700000000000045e+01 1.255857999999999919e+01 -9.068698238139015488e-03
1.891300000000000026e+01 8.751699999999999591e+01 1.129700000000000060e+01 -2.239781999999999940e+01 -1.696003310542405079e-02
1.891600000000000037e+01 5.130400000000000205e+01 2.111199999999999832e+01 -7.409735999999999656e+00 -1.204839030080240014e-01
1.892200000000000060e+01 7.377899999999999636e+01 1.688800000000000168e+01 1.368599000000000032e+01 -1.945710097888843637e-01
1.892200000000000060e+01 5.414000000000000057e+01 2.189199999999999946e+01 -1.161508999999999903e+00 1.271851738224149542e-01
1.892500000000000071e+01 6.328199999999999648e+01 -3.914000000000000146e+00 1.211473000000000022e+00 -5.869446399565884237e-03
1.892500000000000071e+01 6.468200000000000216e+01 -3.914000000000000146e+00 -1.781295000000000073e+00 -8.205799093215339693e-03
1.893400000000000105e+01 7.353400000000000603e+01 1.604200000000000159e+01 1.628059000000000012e+01 -4.966587363633258659e-03
1.893499999999999872e+01 5.113100000000000023e+01 1.584600000000000009e+01 -3.936123999999999734e-01 -3.499999999999999778e-01
1.894999999999999929e+01 6.751500000000000057e+01 2.140200000000000102e+01 2.246296999999999855e+01 -2.852787220920559585e-01
1.894999999999999929e+01 6.771999999999999886e+01 2.690700000000000003e+01 3.950670000000000126e+00 -2.445942429282634001e-01
1.895100000000000051e+01 6.967000000000000171e+01 -5.059999999999999609e+00 -2.078167999999999793e+00 -8.686973882154561816e-03
1.895200000000000173e+01 7.390300000000000580e+01 1.781899999999999906e+01 2.402802000000000149e+01 -1.937051045291029450e-01
1.895400000000000063e+01 4.617799999999999727e+01 1.450099999999999945e+01 3.285495000000000232e+01 -3.499999999999999778e-01
1.895899999999999963e+01 4.871099999999999852e+01 1.060999999999999943e+01 1.002060999999999957e+01 -3.499999999999999778e-01
1.895899999999999963e+01 4.990200000000000102e+01 9.946099999999999497e+00 1.250774999999999970e+01 -3.499999999999999778e-01
1.896399999999999864e+01 5.267199999999999704e+01 2.176800000000000068e+01 -2.335683999999999827e+01 1.361412542596599773e-01
1.896900000000000119e+01 6.907699999999999818e+01 1.993700000000000117e+01 3.046563000000000088e+01 -1.915008341359128452e-01
1.896900000000000119e+01 6.907699999999999818e+01 2.133699999999999974e+01 1.997165000000000035e+01 -2.839878003374558535e-01
1.897100000000000009e+01 8.525300000000000011e+01 1.308099999999999952e+01 -8.049361000000000432e-01 -1.414136027097876412e-02
1.898699999999999832e+01 5.991499999999999915e+01 1.284100000000000019e+00 7.585632999999999626e+00 -2.558914814860387965e-01
1.899200000000000088e+01 8.080899999999999750e+01 1.111699999999999910e+00 5.576556000000000068e+00 8.078579341406555425e-02
1.899200000000000088e+01 6.481600000000000250e+01 2.773600000000000065e+01 8.427948999999999913e+00 -2.746119541902590777e-01
1.899599999999999866e+01 8.507899999999999352e+01 6.354000000000000092e+00 -1.528645000000000032e+01 -2.421000739587958472e-02
1.900700000000000145e+01 8.434099999999999397e+01 1.291900000000000048e+01 -5.772846000000000366e+00 -1.444407908287281307e-02
1.901200000000000045e+01 4.354500000000000171e+01 1.485899999999999999e+01 3.504145000000000176e-01 -3.500000000000000333e-01
1.901300000000000168e+01 4.861399999999999721e+01 5.450700000000000323e+00 1.438119999999999976e+01 -3.499999999999999778e-01
1.901399999999999935e+01 4.743999999999999773e+01 4.092899999999999872e-01 -1.213227999999999973e+01 -3.499999999999999778e-01
1.901399999999999935e+01 4.743999999999999773e+01 1.348700000000000010e+00 -1.936699000000000126e+01 -3.499999999999999778e-01
1.901500000000000057e+01 7.629300000000000637e+01 -7.629699999999999704e+00 -4.332470999999999961e-01 -6.413740812207605231e-03
1.901500000000000057e+01 7.773900000000000432e+01 -8.435999999999999943e+00 -1.326777000000000095e+00 -5.841336103993322558e-03
1.901899999999999835e+01 6.712800000000000011e+01 1.932100000000000151e+01 4.182075999999999993e+01 -2.863549085226704816e-01
1.901899999999999835e+01 6.712800000000000011e+01 2.072100000000000009e+01 2.274771000000000143e+01 -2.860940529068214389e-01
1.901899999999999835e+01 6.799299999999999500e+01 1.932100000000000151e+01 3.563920000000000243e+01 -2.858772946810969051e-01
1.902700000000000102e+01 6.937999999999999545e+01 2.063700000000000045e+01 1.872300999999999860e+01 -1.900833752026772627e-01
1.902899999999999991e+01 6.630200000000000671e+01 -4.868000000000000327e+00 -1.183629999999999960e+00 -8.963902791954060645e-03
1.903399999999999892e+01 6.611499999999999488e+01 2.865500000000000114e+01 6.994875000000000398e+00 -2.372826226534299754e-01
1.903699999999999903e+01 7.003700000000000614e+01 2.565700000000000003e+01 6.714443000000000161e+00 -2.511648589682804467e-01
1.903800000000000026e+01 5.420400000000000063e+01 -3.959500000000000242e-01 -1.678431999999999924e+00 -2.555301169920516924e-01
1.904299999999999926e+01 4.655799999999999983e+01 1.062100000000000044e+01 5.403433999999999848e+00 -3.499999999999999778e-01
1.904500000000000171e+01 6.021800000000000352e+01 5.840899999999999981e-01 3.571344999999999992e+00 -2.561133768806381772e-01
1.904799999999999827e+01 6.736899999999999977e+01 -4.314499999999999780e+00 -1.816847000000000101e+00 -9.560242765773397863e-03
1.904799999999999827e+01 6.823399999999999466e+01 -4.314499999999999780e+00 -1.831315000000000026e+00 -9.549593196156672820e-03
1.905000000000000071e+01 8.050600000000000023e+01 4.117299999999999849e-01 3.617754999999999654e+01 8.077711380738653024e-02
1.905199999999999960e+01 4.229099999999999682e+01 1.401900000000000013e+01 4.085132999999999903e+00 -3.499999999999999778e-01
1.905300000000000082e+01 5.936299999999999955e+01 -4.001999999999999780e+00 -3.695180000000000131e-01 -2.570966231026971527e-01
1.905300000000000082e+01 5.009899999999999665e+01 1.403599999999999959e+01 8.729751999999999512e+00 -3.499999999999999778e-01
1.906899999999999906e+01 5.112700000000000244e+01 1.398000000000000043e+01 7.333861000000000274e+01 -3.499999999999999778e-01
1.907700000000000173e+01 6.682500000000000284e+01 2.002100000000000080e+01 4.027503000000000100e+01 -2.865134256852411854e-01
1.907700000000000173e+01 6.829699999999999704e+01 2.002100000000000080e+01 2.201050000000000040e+01 -2.856274331650599518e-01
1.908200000000000074e+01 5.928799999999999670e+01 -1.295099999999999918e+00 -1.648872000000000115e-01 -2.564881824304899860e-01
1.908500000000000085e+01 4.897999999999999687e+01 -1.955999999999999961e+00 4.269919000000000153e+01 -3.499999999999999778e-01
1.908500000000000085e+01 4.993800000000000239e+01 -1.955999999999999961e+00 -6.351707000000000214e+00 -2.554400790532367349e-01
1.908500000000000085e+01 8.002299999999999613e+01 -7.724099999999999966e+00 -4.938737999999999739e-01 -6.283440870100333309e-03
1.908800000000000097e+01 5.904599999999999937e+01 2.657700000000000173e+01 4.861545999999999701e+00 -3.046147421881634232e-01
1.910200000000000031e+01 5.927700000000000102e+01 -2.993700000000000028e+00 -1.025732000000000088e+00 -2.568641516037040717e-01
1.910600000000000165e+01 6.706499999999999773e+01 -5.014499999999999957e+00 -1.607833000000000068e+00 -8.884941361718218245e-03
1.912000000000000099e+01 6.075399999999999778e+01 -5.047600000000000087e+00 2.758640999999999899e+00 -1.529603707576514260e-01
1.912399999999999878e+01 5.973199999999999932e+01 -4.852000000000000313e+00 8.871742999999999713e-01 -2.572290844027338430e-01
1.912399999999999878e+01 4.782099999999999795e+01 1.414499999999999957e+01 1.120162000000000013e+01 -3.499999999999999778e-01
1.912600000000000122e+01 4.184700000000000131e+01 1.316200000000000081e+01 1.096425999999999945e+01 -3.499999999999999778e-01
1.912699999999999889e+01 5.046000000000000085e+01 1.908099999999999952e+01 2.483559000000000072e+00 -8.840602019126206357e-02
1.912800000000000011e+01 8.310699999999999932e+01 1.235200000000000031e+01 -1.021124999999999972e+01 -1.542438574588091658e-02
1.912900000000000134e+01 8.139799999999999613e+01 -6.803300000000000125e+00 4.880771000000000193e+00 -6.839989260715810364e-03
1.912900000000000134e+01 8.139799999999999613e+01 -5.752699999999999925e+00 -2.722860999999999976e+00 -7.543115601831480894e-03
1.914499999999999957e+01 5.940299999999999869e+01 2.737999999999999901e+01 2.859036000000000133e+00 -3.073535511078382965e-01
1.914900000000000091e+01 5.061099999999999710e+01 2.007400000000000162e+01 2.006985999999999937e+00 -9.674466449154167647e-02
1.914999999999999858e+01 4.864399999999999835e+01 -1.181000000000000050e+00 1.178087999999999980e+01 -3.499999999999999778e-01
1.915500000000000114e+01 5.849699999999999989e+01 1.528499999999999970e+00 1.580888000000000027e+01 -2.554312858859258961e-01
1.915500000000000114e+01 5.936200000000000188e+01 1.528499999999999970e+00 1.807673000000000130e+01 -2.555836578867188846e-01
1.915800000000000125e+01 5.614999999999999858e+01 2.555799999999999983e+01 8.510379999999999612e+00 -8.351591511652831090e-02
1.916000000000000014e+01 8.803300000000000125e+01 7.195299999999999585e+00 -1.791837999999999909e+01 -2.169638509302512092e-02
1.916000000000000014e+01 8.803300000000000125e+01 9.654700000000000060e+00 -2.226082999999999856e+01 -1.868831959547771412e-02
1.916400000000000148e+01 7.187000000000000455e+01 1.979299999999999926e+01 5.813946999999999754e+00 -1.912267929910371200e-01
1.916600000000000037e+01 7.031199999999999761e+01 2.473799999999999955e+01 -5.540510000000000268e+00 -2.508484768681179533e-01
1.916900000000000048e+01 7.218000000000000682e+01 -5.745099999999999874e+00 2.826753000000000071e+00 -8.148894371358178859e-03
1.917000000000000171e+01 7.681100000000000705e+01 1.519899999999999984e+01 -2.095942000000000149e+01 -7.905898023732574678e-03
1.917699999999999960e+01 7.400700000000000500e+01 1.443699999999999939e+01 7.685709000000000124e+00 -1.064172085690348254e-02
1.917800000000000082e+01 6.671699999999999875e+01 -5.567999999999999616e+00 5.713025000000000020e+00 -8.396092782353325318e-03
1.917899999999999849e+01 7.545399999999999352e+01 1.446299999999999919e+01 -1.603472000000000008e+01 -1.043013524920711164e-02
1.917999999999999972e+01 5.952400000000000091e+01 -2.179899999999999949e+00 -1.095898000000000039e+01 -2.566618236779439899e-01
1.918100000000000094e+01 5.933899999999999864e+01 5.299999999999999850e-02 2.147962000000000060e+01 -2.560490503165355203e-01
1.918199999999999861e+01 7.387099999999999511e+01 -5.599300000000000388e+00 8.542728000000000321e+00 -8.211604156745837615e-03
1.918199999999999861e+01 7.527100000000000080e+01 -5.599300000000000388e+00 4.810235999999999734e+00 -8.133444998713037707e-03
1.918299999999999983e+01 4.567499999999999716e+01 1.070599999999999952e+01 6.435551000000000244e+00 -3.499999999999999778e-01
1.918400000000000105e+01 4.732999999999999829e+01 1.058099999999999952e+01 5.435033999999999921e+00 -3.500000000000000333e-01
1.918400000000000105e+01 7.021999999999999886e+01 2.306500000000000128e+01 3.709553999999999974e+01 -2.816514031440769394e-01
1.919000000000000128e+01 5.457200000000000273e+01 2.259199999999999875e+01 8.098205999999999349e+00 1.293689509189831499e-01
1.920100000000000051e+01 5.812800000000000011e+01 7.701200000000000268e-01 2.620349000000000039e+00 -2.556114429640475305e-01
1.920599999999999952e+01 4.186899999999999977e+01 1.047600000000000087e+01 2.362442000000000153e+00 -3.499999999999999778e-01
1.920599999999999952e+01 4.341899999999999693e+01 1.047600000000000087e+01 5.377911000000000108e+00 -3.499999999999999778e-01
1.921300000000000097e+01 8.343200000000000216e+01 2.834700000000000220e+00 1.059703999999999979e+01 8.130360466622738036e-02
1.921399999999999864e+01 8.601000000000000512e+01 6.998599999999999710e+00 -7.045633999999999730e+00 -2.261461967758967781e-02
1.921699999999999875e+01 6.794799999999999329e+01 2.070200000000000173e+01 2.565345999999999904e+01 -2.857782530443911395e-01
1.921799999999999997e+01 6.728700000000000614e+01 2.760699999999999932e+01 1.005610000000000070e+01 -2.431440516935625684e-01
1.921999999999999886e+01 6.697199999999999420e+01 2.864999999999999858e+01 1.754429999999999978e+01 -2.429193237783264236e-01
1.921999999999999886e+01 4.907399999999999807e+01 6.185100000000000264e+00 3.425577999999999790e+00 -3.499999999999999778e-01
1.921999999999999886e+01 4.940200000000000102e+01 6.929899999999999949e+00 1.757282000000000011e+00 -3.499999999999999778e-01
1.922100000000000009e+01 8.651399999999999579e+01 7.096899999999999764e+00 -5.979610000000000092e+00 -2.227958890187645841e-02
1.922100000000000009e+01 6.213900000000000290e+01 2.872100000000000009e+01 7.579214999999999591e+00 -2.829052809401612634e-01
1.922200000000000131e+01 5.675099999999999767e+01 2.559299999999999997e+01 3.692788999999999877e+00 -6.632212769954268228e-02
1.922500000000000142e+01 5.553000000000000114e+01 5.520500000000000407e-01 -4.999185999999999908e+00 -2.552279215087245867e-01
1.922500000000000142e+01 5.672099999999999653e+01 1.215999999999999970e+00 3.548720000000000346e-02 -2.551715249084187676e-01
1.922599999999999909e+01 5.343999999999999773e+01 2.183399999999999963e+01 -1.814726999999999979e+00 1.246488620756841248e-01
1.922800000000000153e+01 8.044100000000000250e+01 1.392300000000000004e+01 -6.198261999999999716e+01 -1.180093382980972050e-02
1.922899999999999920e+01 6.398199999999999932e+01 -3.855700000000000127e+00 2.763869000000000131e+00 -6.681114147609341566e-03
1.922899999999999920e+01 5.468299999999999983e+01 2.372500000000000142e+01 5.222840999999999845e+00 1.244453161886009129e-01
1.922899999999999920e+01 5.502799999999999869e+01 2.450700000000000145e+01 2.099238999999999855e+00 -9.239575251667828115e-02
1.923300000000000054e+01 8.383199999999999363e+01 4.335499999999999687e+00 8.322601999999999833e+00 8.140880535579084198e-02
1.923400000000000176e+01 6.686799999999999500e+01 -6.751900000000000013e+00 4.809372000000000091e-01 -7.355392084840937754e-03
1.923400000000000176e+01 5.821200000000000330e+01 2.560099999999999909e+01 7.351251999999999676e+00 -3.016564671996006461e-02
1.923600000000000065e+01 6.864400000000000546e+01 2.063700000000000045e+01 2.373814000000000135e+01 -2.852283389905239663e-01
1.924299999999999855e+01 5.030599999999999739e+01 -1.247700000000000031e+00 -5.476072000000000273e+00 -3.500000000000000333e-01
1.924899999999999878e+01 5.566799999999999926e+01 2.544999999999999929e+01 8.510379999999999612e+00 -9.861567636847742846e-02
1.926500000000000057e+01 8.670300000000000296e+01 1.107900000000000063e+01 -9.196595999999999549e+00 -1.672960572493944337e-02
1.927499999999999858e+01 8.216299999999999670e+01 1.818400000000000016e+00 1.240752999999999950e+01 8.108866636232282821e-02
1.927700000000000102e+01 6.811599999999999966e+01 2.685399999999999920e+01 5.897153999999999563e+00 -2.460444103313233488e-01
1.928600000000000136e+01 6.756100000000000705e+01 2.002100000000000080e+01 3.226894000000000062e+01 -2.862964354430653224e-01
1.928600000000000136e+01 6.361500000000000199e+01 2.803900000000000148e+01 1.062978999999999985e+01 -2.783610095894933356e-01
1.928900000000000148e+01 7.892199999999999704e+01 1.402100000000000080e+01 -3.887521999999999878e+01 -1.135484899850415855e-02
1.929299999999999926e+01 8.356100000000000705e+01 3.792600000000000193e+00 1.083245999999999931e+01 8.135871908582112400e-02
1.929599999999999937e+01 5.025699999999999790e+01 1.825100000000000122e+01 -3.150370000000000115e+00 -8.237688733783840589e-02
1.929599999999999937e+01 6.411599999999999966e+01 2.779400000000000048e+01 7.649058000000000135e+00 -2.777154549589477828e-01
1.929599999999999937e+01 6.551600000000000534e+01 2.779400000000000048e+01 1.297208000000000006e+01 -2.744106576230330719e-01
1.930399999999999849e+01 6.885599999999999454e+01 -4.841899999999999871e+00 -3.897641000000000133e+00 -9.203211429165190569e-03
1.930600000000000094e+01 5.184599999999999653e+01 -6.925999999999999934e-01 2.938683000000000156e+00 -2.550547072547914018e-01
1.930600000000000094e+01 5.999699999999999989e+01 -5.501900000000000013e+00 2.579022999999999732e-01 -2.572491010222963115e-01
1.930999999999999872e+01 6.789600000000000080e+01 -4.928200000000000358e+00 -2.088270000000000071e+00 -9.135551139833400502e-03
1.931200000000000117e+01 6.759699999999999420e+01 -5.625000000000000000e+00 1.393998999999999988e+00 -8.456568043693407644e-03
1.931500000000000128e+01 5.477900000000000347e+01 -1.294399999999999995e-01 -6.709336999999999662e+00 -2.552985409842090658e-01
1.932400000000000162e+01 8.606699999999999307e+01 1.329899999999999949e+01 -1.883307999999999893e+01 -1.291137745721147000e-02
1.932400000000000162e+01 8.700700000000000500e+01 1.037899999999999956e+01 -8.650166000000000466e+00 -1.760391861333888280e-02
1.932400000000000162e+01 8.700700000000000500e+01 1.177899999999999991e+01 -3.744384999999999764e+01 -1.545926397024343160e-02
1.932400000000000162e+01 8.700700000000000500e+01 1.329899999999999949e+01 -5.778443999999999647e+01 -1.291585658465547667e-02
1.932999999999999829e+01 6.722100000000000364e+01 -6.382900000000000240e+00 1.385866000000000042e+00 -7.766459558132421219e-03
1.933399999999999963e+01 5.347299999999999898e+01 -8.859900000000000553e-01 -1.134414000000000033e+00 -2.553654446323784244e-01
1.933800000000000097e+01 8.140900000000000603e+01 1.293699999999999939e+01 -1.027647999999999939e+01 -1.383278846515867411e-02
1.934199999999999875e+01 7.309499999999999886e+01 1.913899999999999935e+01 2.004492000000000118e+01 -1.918558476580534966e-01
1.934799999999999898e+01 4.277000000000000313e+01 1.479400000000000048e+01 5.983486000000000082e+00 -3.499999999999999223e-01
1.934799999999999898e+01 4.432000000000000028e+01 1.479400000000000048e+01 8.214665999999999357e+00 -3.499999999999999778e-01
1.935000000000000142e+01 6.780400000000000205e+01 -6.636999999999999567e+00 1.060694000000000026e+00 -7.562638710512046766e-03
1.935399999999999920e+01 7.006900000000000261e+01 2.231899999999999906e+01 -2.741931999999999903e+01 -2.827457224448658435e-01
1.936499999999999844e+01 4.822399999999999665e+01 3.510699999999999932e+00 3.395582000000000100e+00 -3.499999999999999778e-01
1.936499999999999844e+01 4.822399999999999665e+01 4.561300000000000132e+00 6.702403000000000333e+00 -3.499999999999999778e-01
1.936599999999999966e+01 7.936700000000000443e+01 -1.823499999999999899e+00 4.404238000000000142e+01 -1.110945684486824500e-02
1.936700000000000088e+01 5.183100000000000307e+01 1.557799999999999940e+01 1.198371999999999993e+01 -3.499999999999999778e-01
1.936899999999999977e+01 6.174799999999999756e+01 -5.133099999999999774e+00 9.310938999999999410e+00 -1.532499867724378406e-01
1.937399999999999878e+01 6.551999999999999602e+01 -4.868000000000000327e+00 -5.491350000000000398e-01 -8.829877369851931931e-03
1.937600000000000122e+01 4.549000000000000199e+01 1.447700000000000031e+01 2.134278000000000119e+01 -3.499999999999999778e-01
1.938100000000000023e+01 4.945900000000000318e+01 -1.181000000000000050e+00 -5.771683999999999592e+00 -3.500000000000000333e-01
1.938200000000000145e+01 7.014000000000000057e+01 -5.592999999999999972e+00 -6.135208000000000439e+00 -8.513653394148229178e-03
1.938400000000000034e+01 5.061099999999999710e+01 1.660800000000000054e+01 -1.372484999999999955e+00 -8.334677886637600897e-02
1.938700000000000045e+01 8.733599999999999852e+01 1.253899999999999970e+01 -3.570270000000000010e+01 -1.406885688543573279e-02
1.939199999999999946e+01 4.941100000000000136e+01 1.034299999999999997e+01 5.849438000000000137e+00 -3.499999999999999778e-01
1.939499999999999957e+01 8.269199999999999307e+01 1.219299999999999962e+01 -6.100296000000000163e+00 -1.512476402596550987e-02
1.940700000000000003e+01 5.028499999999999659e+01 1.729200000000000159e+01 -6.772295999999999871e+00 -8.095867414593860278e-02
1.941000000000000014e+01 4.872500000000000142e+01 1.410299999999999976e+01 8.965215999999999852e+00 -3.499999999999999778e-01
1.941300000000000026e+01 7.338200000000000500e+01 1.732100000000000151e+01 1.684249000000000152e+01 -1.936779737810763458e-01
1.941700000000000159e+01 8.390099999999999625e+01 1.225999999999999979e+01 -1.184689999999999976e+01 -1.477714853102244340e-02
1.942000000000000171e+01 5.855499999999999972e+01 9.357000000000000733e-03 4.454100999999999644e+00 -2.557718544787841997e-01
1.942200000000000060e+01 7.031799999999999784e+01 2.081200000000000117e+01 8.213896999999999338e+00 -1.890671330621266633e-01
1.942200000000000060e+01 5.892999999999999972e+01 8.284500000000000197e-01 2.455188000000000059e+01 -2.555522452491395535e-01
1.942899999999999849e+01 8.458799999999999386e+01 5.957399999999999807e+00 -7.230153999999999748e+00 -2.401661437479227917e-02
1.943199999999999861e+01 6.582299999999999329e+01 -5.567999999999999616e+00 9.712140000000000217e-01 -8.590044398449413893e-03
1.943400000000000105e+01 5.191199999999999903e+01 2.147800000000000153e+01 -1.125778999999999996e+01 1.615010391563822256e-01
1.943499999999999872e+01 5.182900000000000063e+01 1.448000000000000043e+01 3.566792000000000229e+01 -3.499999999999999778e-01
1.943700000000000117e+01 8.117300000000000182e+01 1.040000000000000036e+00 1.484684000000000026e+01 8.096898089950456401e-02
1.944099999999999895e+01 4.850800000000000267e+01 2.528200000000000003e+00 -4.002844999999999764e+00 -3.499999999999999778e-01
1.944600000000000151e+01 4.978300000000000125e+01 7.729000000000000092e+00 6.729464000000000112e+00 -3.500000000000000333e-01
1.944999999999999929e+01 8.850300000000000011e+01 7.955300000000000260e+00 -1.978528000000000020e+01 -2.015292730285728889e-02
1.944999999999999929e+01 8.850300000000000011e+01 8.894700000000000273e+00 -4.059541999999999717e+01 -1.901422478264896271e-02
1.944999999999999929e+01 7.309699999999999420e+01 1.565000000000000036e+01 5.608514999999999695e+00 -1.950759253262157322e-01
1.944999999999999929e+01 7.309699999999999420e+01 1.651500000000000057e+01 7.090521999999999991e+00 -1.943854204002588015e-01
1.945100000000000051e+01 7.006100000000000705e+01 2.153000000000000114e+01 -2.083008999999999844e+01 -2.836313274835167153e-01
1.945400000000000063e+01 8.087300000000000466e+01 -7.653299999999999770e+00 3.461875999999999842e-01 -6.531601510578616439e-03
1.945400000000000063e+01 8.087300000000000466e+01 -4.902700000000000280e+00 2.483776000000000039e-01 -8.404180710179896471e-03
1.945400000000000063e+01 4.490800000000000125e+01 1.074099999999999966e+01 6.930015000000000036e+00 -3.499999999999999778e-01
1.945400000000000063e+01 6.907999999999999829e+01 -5.739499999999999602e+00 -3.444361000000000228e-01 -8.453610983696683429e-03
1.946199999999999974e+01 8.430599999999999739e+01 5.102100000000000080e+00 3.274271999999999849e+00 -2.501619190290554212e-02
1.947500000000000142e+01 7.964700000000000557e+01 -4.065699999999999648e+00 7.105692000000000341e+00 -9.199677852393091729e-03
1.947899999999999920e+01 4.702799999999999869e+01 1.417600000000000016e+01 1.741201999999999828e+01 -3.500000000000000333e-01
1.948400000000000176e+01 4.820000000000000284e+01 1.189999999999999947e-01 -6.405593999999999788e+00 -3.499999999999999778e-01
1.948400000000000176e+01 4.820000000000000284e+01 1.639000000000000012e+00 -3.542383000000000237e+01 -3.499999999999999778e-01
1.948699999999999832e+01 4.803000000000000114e+01 1.052299999999999969e+01 6.100535999999999959e+00 -3.499999999999999223e-01
1.948699999999999832e+01 5.101100000000000279e+01 2.098000000000000043e+01 -2.122797999999999907e-01 -1.082978960823636483e-01
1.948900000000000077e+01 8.727299999999999613e+01 7.131999999999999673e+00 -5.882947999999999844e+00 -2.144899064300993113e-02
1.949200000000000088e+01 8.572100000000000364e+01 1.256799999999999962e+01 -2.087942999999999927e+01 -1.387913946727734917e-02
1.950199999999999889e+01 6.729999999999999716e+01 -7.451900000000000190e+00 8.269275999999999849e-01 -6.984082773521459522e-03
1.950199999999999889e+01 4.139000000000000057e+01 1.125099999999999945e+01 3.785896000000000150e+00 -3.499999999999999778e-01
1.950199999999999889e+01 4.139000000000000057e+01 1.220899999999999963e+01 2.270754000000000161e+01 -3.499999999999999778e-01
1.950300000000000011e+01 6.619199999999999307e+01 -6.418000000000000149e+00 2.029326999999999881e+00 -7.858410282116971846e-03
1.951300000000000168e+01 8.486700000000000443e+01 1.237400000000000055e+01 -7.431233999999999895e+00 -1.424200224225759780e-02
1.951300000000000168e+01 5.069100000000000250e+01 1.343699999999999939e+01 5.605312999999999768e+00 -3.499999999999999778e-01
1.951699999999999946e+01 8.531000000000000227e+01 6.940299999999999692e+00 -1.084639999999999915e+01 -2.237505826894032462e-02
1.952299999999999969e+01 7.135899999999999466e+01 2.010600000000000165e+01 1.158397000000000077e+01 -1.902007379464723258e-01
1.952299999999999969e+01 8.639100000000000534e+01 1.056400000000000006e+01 1.900403999999999982e+01 -1.705276149121139756e-02
1.952400000000000091e+01 5.882600000000000051e+01 -4.513700000000000045e+00 -4.497094999999999843e-01 -2.568680944525496002e-01
1.952599999999999980e+01 6.729000000000000625e+01 -8.092000000000000526e+00 8.636412999999999451e-01 -6.488026407955466320e-03
1.953000000000000114e+01 4.988000000000000256e+01 8.397999999999999687e+00 6.388087999999999766e+00 -3.499999999999999778e-01
1.953800000000000026e+01 5.751200000000000045e+01 2.554200000000000159e+01 5.142235999999999585e+00 -5.056837574832061255e-02
1.953999999999999915e+01 7.688899999999999579e+01 -8.111299999999999955e+00 -7.095565999999999818e-01 -6.434994483891051664e-03
1.954200000000000159e+01 4.264399999999999835e+01 1.041099999999999959e+01 4.865164000000000044e+00 -3.500000000000000333e-01
1.954400000000000048e+01 5.884400000000000119e+01 -8.804600000000000204e-01 7.112684000000000228e-01 -2.559987946302013651e-01
1.954700000000000060e+01 4.787100000000000222e+01 8.790000000000000036e-01 -9.474320000000000519e+00 -3.499999999999999778e-01
1.954799999999999827e+01 7.907599999999999341e+01 -2.670999999999999819e+00 4.015346000000000259e+01 -1.050762973579918644e-02
1.954799999999999827e+01 7.928499999999999659e+01 -3.407000000000000028e+00 1.244068000000000040e+01 -9.837822109548652674e-03
1.955099999999999838e+01 7.302100000000000080e+01 -5.670099999999999696e+00 3.357912999999999926e+00 -8.466465218119369196e-03
1.955399999999999849e+01 7.857800000000000296e+01 -8.240800000000000125e+00 -9.817460000000000075e-01 -6.310589099530898409e-03
1.955699999999999861e+01 5.917099999999999937e+01 -5.320500000000000007e+00 -1.323717000000000088e-01 -2.570218010448638291e-01
1.955699999999999861e+01 7.968099999999999739e+01 1.398600000000000065e+01 -8.623940000000000339e+01 -1.061432133448989359e-02
1.957100000000000151e+01 6.842400000000000659e+01 -5.541900000000000048e+00 -1.054086999999999996e+00 -8.738016739525577420e-03
1.958099999999999952e+01 6.345300000000000296e+01 -4.204799999999999649e+00 2.710602000000000178e+00 -5.385888851263055839e-03
1.958099999999999952e+01 6.485299999999999443e+01 -4.204799999999999649e+00 -1.437978999999999896e+00 -7.642708107312745289e-03
1.958200000000000074e+01 8.669400000000000261e+01 9.863899999999999224e+00 -2.295039999999999836e+01 -1.790870293570574062e-02
1.960399999999999920e+01 6.869799999999999329e+01 -6.636999999999999567e+00 8.162321999999999633e+00 -7.766985575761141576e-03
1.960500000000000043e+01 4.910300000000000153e+01 4.386500000000000121e-02 -4.033090999999999759e+00 -3.499999999999999778e-01
1.960600000000000165e+01 6.754600000000000648e+01 2.821900000000000119e+01 2.354898999999999987e+01 -2.452011061722681462e-01
1.960600000000000165e+01 6.907899999999999352e+01 2.569300000000000139e+01 1.527122999999999919e+01 -2.788026037307919092e-01
1.960900000000000176e+01 7.470699999999999363e+01 1.416900000000000048e+01 -3.818337000000000092e+00 -9.792274192695049270e-03
1.961400000000000077e+01 8.653700000000000614e+01 1.253899999999999970e+01 -1.772965999999999909e+01 -1.363450191350008833e-02
1.961499999999999844e+01 7.457099999999999795e+01 -5.331999999999999851e+00 3.402864000000000111e+00 -8.716061130227038128e-03
1.961499999999999844e+01 7.576200000000000045e+01 -5.995899999999999785e+00 7.547281000000000128e-01 -8.088985749884109594e-03
1.963500000000000156e+01 5.139800000000000324e+01 1.627799999999999869e+01 3.749725999999999893e+00 -8.857132408701350046e-02
1.963899999999999935e+01 8.042499999999999716e+01 -5.670399999999999885e-01 1.941206999999999994e+01 8.095881348115921416e-02
1.964000000000000057e+01 5.073899999999999721e+01 -7.567700000000000538e-01 -2.689115999999999729e-01 -3.499999999999999778e-01
1.964799999999999969e+01 4.989200000000000301e+01 -4.809999999999999831e-01 -4.764114000000000182e+00 -3.500000000000000333e-01
1.964900000000000091e+01 5.888199999999999790e+01 -3.476700000000000124e+00 -1.498995000000000077e+00 -2.565900062991991470e-01
1.964999999999999858e+01 7.089900000000000091e+01 -5.628099999999999881e+00 -1.144843999999999973e+00 -8.664793720915598546e-03
1.965099999999999980e+01 5.267600000000000193e+01 -9.326799999999999535e-01 -7.958355000000000290e-02 -2.550146583604643302e-01
1.965299999999999869e+01 4.885000000000000142e+01 5.670700000000000074e+00 6.861464999999999925e+00 -3.499999999999999778e-01
1.965500000000000114e+01 6.638299999999999557e+01 -7.139700000000000379e+00 2.152499999999999858e+00 -7.350147332958319353e-03
1.965700000000000003e+01 5.602100000000000080e+01 9.486499999999999932e-01 -3.698535000000000128e+00 -2.547978962155891258e-01
1.965700000000000003e+01 5.742099999999999937e+01 9.486499999999999932e-01 9.170391000000000403e+00 -2.550609396475330692e-01
1.965899999999999892e+01 4.984300000000000352e+01 9.642699999999999605e+00 -5.774892999999999610e+00 -3.499999999999999778e-01
1.966100000000000136e+01 7.634199999999999875e+01 1.476500000000000057e+01 -2.498191999999999879e+01 -7.541071410432795274e-03
1.966300000000000026e+01 8.610500000000000398e+01 1.169400000000000084e+01 -6.954501999999999740e+00 -1.499622553443196761e-02
1.966300000000000026e+01 5.423299999999999699e+01 -8.227100000000000524e-01 -1.776937999999999906e+00 -2.552080777515630672e-01
1.966600000000000037e+01 5.893399999999999750e+01 2.637199999999999989e+01 8.612315999999999860e+00 -2.346444182179307364e-02
1.967000000000000171e+01 5.999900000000000233e+01 2.786100000000000065e+01 1.518740999999999897e+00 -3.103867604331256302e-01
1.967099999999999937e+01 7.733700000000000330e+01 1.474000000000000021e+01 -3.528050999999999959e+01 -7.734920188224384159e-03
1.967299999999999827e+01 6.111200000000000188e+01 -5.558300000000000018e+00 4.336448999999999998e+00 -1.528848087834083769e-01
1.967599999999999838e+01 8.070999999999999375e+01 2.386199999999999988e-01 1.359089999999999954e+01 8.097799980268534370e-02
1.968499999999999872e+01 7.236799999999999500e+01 1.933299999999999841e+01 1.069203000000000081e+01 -1.911390497402507271e-01
1.969000000000000128e+01 6.832200000000000273e+01 -8.011799999999999145e+00 5.974321999999999910e+00 -6.696362187472290270e-03
1.969200000000000017e+01 6.843000000000000682e+01 -9.101000000000000867e+00 9.420832999999999569e-01 -5.883295922832399230e-03
1.969600000000000151e+01 4.871099999999999852e+01 1.040099999999999980e+01 1.618772000000000100e+00 -3.499999999999999778e-01
1.969900000000000162e+01 8.199200000000000443e+01 1.225200000000000067e+01 -2.855071999999999832e+00 -1.430355318222989100e-02
1.970200000000000173e+01 5.142399999999999949e+01 1.338499999999999979e+01 2.448434999999999917e+01 -3.499999999999999778e-01
1.971399999999999864e+01 6.982200000000000273e+01 2.423699999999999832e+01 -6.213026000000000160e+00 -2.809637402815916563e-01
1.972500000000000142e+01 4.389900000000000091e+01 1.089100000000000001e+01 4.082829000000000264e+00 -3.499999999999999778e-01
1.972800000000000153e+01 6.481600000000000250e+01 2.752599999999999980e+01 2.651914000000000016e+01 -2.788309568531646132e-01
1.972800000000000153e+01 6.600700000000000500e+01 2.819000000000000128e+01 2.325311999999999912e+01 -2.739024220759752604e-01
1.973000000000000043e+01 5.619299999999999784e+01 2.604599999999999937e+01 4.628459999999999575e+00 -1.027211888259407652e-01
1.973799999999999955e+01 6.259799999999999898e+01 -5.062299999999999578e+00 3.063455000000000084e+01 -3.880520057707159513e-03
1.973999999999999844e+01 7.994899999999999807e+01 -1.225500000000000034e+00 1.572934000000000054e+01 -1.177585744651008653e-02
1.974200000000000088e+01 4.617000000000000171e+01 1.128800000000000026e+01 2.756657000000000135e+00 -3.499999999999999778e-01
1.974599999999999866e+01 6.128900000000000148e+01 2.839600000000000080e+01 -6.329234000000000249e-01 -2.969619234017059628e-01
1.974599999999999866e+01 6.298899999999999721e+01 2.839600000000000080e+01 7.667295000000000194e+00 -2.828066690659022386e-01
1.974699999999999989e+01 7.920799999999999841e+01 -8.035399999999999210e+00 -1.911739000000000077e+00 -6.545605387384596970e-03
1.974699999999999989e+01 5.947200000000000131e+01 -6.237000000000000099e+00 -1.780982000000000065e+00 -2.570907134667738680e-01
1.974699999999999989e+01 6.052199999999999847e+01 -6.237000000000000099e+00 -2.568328999999999862e+00 -1.528097911451704871e-01
1.975199999999999889e+01 5.466700000000000159e+01 2.413200000000000145e+01 3.933799000000000046e+00 -9.799489864704376274e-02
1.976099999999999923e+01 8.274099999999999966e+01 1.184699999999999953e+01 -1.382033000000000023e+01 -1.488629182245539487e-02
1.976300000000000168e+01 5.267199999999999704e+01 2.154100000000000037e+01 -1.384434000000000076e+01 1.479878214651796919e-01
1.976399999999999935e+01 6.765600000000000591e+01 -9.056800000000000850e+00 4.057229999999999670e+00 -5.954272507238895021e-03
1.976800000000000068e+01 4.847999999999999687e+01 4.847999999999999865e+00 2.964841999999999977e+00 -3.499999999999999778e-01
1.976999999999999957e+01 4.995300000000000296e+01 1.338400000000000034e+01 6.984416000000000402e+00 -3.499999999999999778e-01
1.977400000000000091e+01 5.481799999999999784e+01 2.512500000000000000e+01 2.382998999999999867e+00 -1.209974605784791962e-01
1.977799999999999869e+01 6.970699999999999363e+01 -6.083899999999999864e+00 -7.861871000000000276e-01 -8.379667531655830837e-03
1.978000000000000114e+01 6.639600000000000080e+01 -8.092000000000000526e+00 1.603614000000000095e+00 -6.667524814052243343e-03
1.978200000000000003e+01 7.329500000000000171e+01 1.793700000000000117e+01 -1.272993999999999959e+00 -1.926539594441796510e-01
1.979400000000000048e+01 4.689699999999999847e+01 1.109699999999999953e+01 5.999011000000000315e+00 -3.499999999999999778e-01
1.979799999999999827e+01 8.270900000000000318e+01 2.465399999999999814e+00 9.026540000000000674e+00 8.131295782088107660e-02
1.980499999999999972e+01 6.969100000000000250e+01 -8.609999999999999432e+00 -2.125955999999999957e+00 -6.343826937648741962e-03
1.980699999999999861e+01 5.529200000000000159e+01 2.726700000000000235e-01 -2.223012000000000210e+00 -2.548342636711832254e-01
1.980999999999999872e+01 6.927700000000000102e+01 -9.101000000000000867e+00 -1.185950999999999977e+00 -5.987072200349569800e-03
1.981400000000000006e+01 5.846999999999999886e+01 -5.632399999999999629e+00 -6.675687000000000149e-01 -2.568787327069623205e-01
1.982700000000000173e+01 4.222599999999999909e+01 1.435500000000000043e+01 2.032901999999999987e+01 -3.499999999999999778e-01
1.982700000000000173e+01 4.354500000000000171e+01 1.508999999999999986e+01 2.064503000000000199e+00 -3.499999999999999778e-01
1.982799999999999940e+01 5.025600000000000023e+01 1.268399999999999928e+01 -3.250345999999999957e+00 -3.499999999999999778e-01
1.982799999999999940e+01 5.112100000000000222e+01 1.268399999999999928e+01 -1.985127000000000086e+00 -3.500000000000000333e-01
1.982900000000000063e+01 7.345999999999999375e+01 1.486899999999999977e+01 9.604378000000000526e+00 -1.951948271548240021e-01
1.983599999999999852e+01 4.793999999999999773e+01 1.115199999999999925e+01 1.245537000000000027e+01 -3.499999999999999223e-01
1.983699999999999974e+01 6.940399999999999636e+01 -6.783900000000000041e+00 5.827824999999999811e+00 -7.816436176860539625e-03
1.983699999999999974e+01 6.945199999999999818e+01 2.508999999999999986e+01 1.234277999999999942e+01 -2.800440784826430107e-01
1.983999999999999986e+01 4.893200000000000216e+01 1.646600000000000064e+00 -1.785525000000000162e+01 -3.499999999999999778e-01
1.984799999999999898e+01 4.617799999999999727e+01 1.424699999999999989e+01 2.091320999999999941e+01 -3.499999999999999778e-01
1.984799999999999898e+01 6.528499999999999659e+01 -4.904799999999999827e+00 -2.366585000000000161e+00 -7.921615176702164959e-03
1.985099999999999909e+01 6.676500000000000057e+01 -8.942000000000000171e+00 2.325762999999999803e+00 -6.083770371110137909e-03
1.985800000000000054e+01 8.449699999999999989e+01 1.152500000000000036e+01 -1.725085999999999942e+01 -1.504324091544024730e-02
1.985800000000000054e+01 5.440200000000000102e+01 2.270299999999999940e+01 6.906170999999999616e+00 1.168337701498995962e-01
1.985800000000000054e+01 5.461099999999999710e+01 2.343900000000000006e+01 6.953050000000000175e+00 -8.651462533392521859e-02
1.986499999999999844e+01 4.188499999999999801e+01 1.355199999999999960e+01 5.667453000000000074e+00 -3.499999999999999778e-01
1.986499999999999844e+01 7.636400000000000432e+01 -7.261300000000000310e+00 5.540576000000000390e-01 -7.267273109217149522e-03
1.986599999999999966e+01 4.904399999999999693e+01 2.164899999999999824e+00 -7.800067000000000306e+00 -3.499999999999999778e-01
1.986799999999999855e+01 4.491599999999999682e+01 1.445400000000000063e+01 7.850401999999999703e+01 -3.499999999999999778e-01
1.986899999999999977e+01 8.166400000000000148e+01 1.436600000000000099e+00 1.516607999999999912e+01 8.115437687247642473e-02
1.987199999999999989e+01 4.860799999999999699e+01 8.790000000000000036e-01 -2.138601999999999848e+01 -3.499999999999999778e-01
1.987600000000000122e+01 6.787399999999999523e+01 -9.911300000000000665e+00 -1.333963000000000010e+00 -5.446620344333135029e-03
1.987999999999999901e+01 5.925600000000000023e+01 -2.612499999999999822e+00 -2.087753000000000192e+00 -2.562898723421094260e-01
1.987999999999999901e+01 5.925600000000000023e+01 -1.747200000000000086e+00 -1.413852000000000109e+00 -2.560692301465833376e-01
1.988400000000000034e+01 6.415300000000000580e+01 -4.146499999999999631e+00 5.827630000000000088e+00 -6.173956549811748622e-03
1.988500000000000156e+01 6.531499999999999773e+01 -6.126199999999999868e+00 -1.264062999999999937e+00 -7.797033083619642549e-03
1.989099999999999824e+01 4.925000000000000000e+01 1.350699999999999967e+01 1.860228000000000037e+01 -3.499999999999999778e-01
1.989900000000000091e+01 6.820999999999999375e+01 -1.036899999999999977e+01 -1.671351999999999949e+00 -5.168949870219175305e-03
1.990200000000000102e+01 4.187199999999999989e+01 1.262800000000000011e+01 1.867626999999999882e+01 -3.499999999999999778e-01
1.990500000000000114e+01 5.856300000000000239e+01 -4.238100000000000200e+00 -5.733810000000000295e-01 -2.565691442678729728e-01
1.990899999999999892e+01 7.773900000000000432e+01 -8.182100000000000151e+00 6.452676999999999996e-01 -6.608411503408911578e-03
1.991300000000000026e+01 8.550100000000000477e+01 1.091600000000000037e+01 1.064835000000000065e+01 -1.583476404068405799e-02
1.991499999999999915e+01 8.298199999999999932e+01 3.294200000000000017e+00 1.112360999999999933e+01 8.139794230881390591e-02
1.991900000000000048e+01 8.320399999999999352e+01 4.166699999999999626e+00 1.201160999999999923e+01 -2.560836168220974665e-02
1.992000000000000171e+01 8.774299999999999500e+01 7.665000000000000036e+00 -1.177215999999999951e+01 -1.988890106310579192e-02
1.992000000000000171e+01 8.774299999999999500e+01 9.185000000000000497e+00 -4.179831000000000074e+01 -1.796701882728097763e-02
1.992500000000000071e+01 5.785399999999999920e+01 2.486500000000000099e-01 3.208340000000000192e+00 -2.552036267986364515e-01
1.994800000000000040e+01 7.782699999999999818e+01 1.401500000000000057e+01 -4.426221000000000316e+01 -9.161216866957628754e-03
1.994800000000000040e+01 4.890899999999999892e+01 3.150100000000000122e+00 4.089006999999999614e+00 -3.500000000000000333e-01
1.994900000000000162e+01 6.921200000000000330e+01 -7.834500000000000242e+00 3.366334000000000160e+00 -7.040046785926626187e-03
1.994999999999999929e+01 8.481900000000000261e+01 6.543700000000000294e+00 -1.370974999999999966e+01 -2.218834501483026717e-02
1.996099999999999852e+01 5.672099999999999653e+01 1.006899999999999906e+00 2.065920999999999896e+00 -2.546660574113561171e-01
1.997200000000000131e+01 7.607800000000000296e+01 -6.515900000000000247e+00 5.571262000000000159e-01 -7.908336855587439623e-03
1.997200000000000131e+01 4.524699999999999989e+01 1.132499999999999929e+01 1.976630000000000109e+00 -3.499999999999999778e-01
1.997400000000000020e+01 7.358100000000000307e+01 -5.323400000000000354e+00 8.895488000000000284e+00 -9.041755259096567396e-03
1.997700000000000031e+01 6.817400000000000659e+01 2.715800000000000125e+01 6.866946000000000438e+00 -2.463801658956331908e-01
1.997899999999999920e+01 8.002299999999999613e+01 -7.977999999999999758e+00 -2.047534999999999883e+00 -6.694277929165372461e-03
1.997899999999999920e+01 8.013800000000000523e+01 -4.462299999999999933e+00 1.423160999999999987e+01 -9.144888227756704444e-03
1.997899999999999920e+01 8.146899999999999409e+01 -7.171700000000000408e+00 -5.866972999999999772e-01 -7.126387996752647953e-03
1.997899999999999920e+01 8.146899999999999409e+01 -5.384299999999999642e+00 1.486367000000000105e-01 -8.320600017707751109e-03
1.997899999999999920e+01 8.172299999999999898e+01 -6.277999999999999581e+00 -6.494212000000000096e+00 -7.687836523559156074e-03
1.997899999999999920e+01 8.602100000000000080e+01 8.750099999999999767e+00 -7.138917000000000179e+00 -1.886377541426688398e-02
1.998000000000000043e+01 8.680400000000000205e+01 7.565900000000000070e+00 -1.041187000000000040e+01 -2.018195981063653638e-02
1.998100000000000165e+01 4.216499999999999915e+01 1.095500000000000007e+01 1.165027000000000035e+00 -3.499999999999999778e-01
1.998300000000000054e+01 8.807200000000000273e+01 8.425000000000000711e+00 -4.996524000000000143e+01 -1.875701377251866656e-02
1.998400000000000176e+01 8.587000000000000455e+01 1.006600000000000072e+01 1.466442999999999941e+01 -1.697254836689264870e-02
1.998699999999999832e+01 4.936699999999999733e+01 6.658900000000000041e+00 -1.392826000000000064e-01 -3.499999999999999778e-01
1.999099999999999966e+01 4.858100000000000307e+01 3.970699999999999896e+00 1.248902999999999963e+01 -3.499999999999999778e-01
1.999500000000000099e+01 5.947399999999999665e+01 2.701099999999999923e+01 2.782957000000000125e+00 -2.958082850358399914e-03
1.999899999999999878e+01 5.028600000000000136e+01 1.954899999999999949e+01 7.838345999999999592e+00 -8.397550628749310409e-02
1.999899999999999878e+01 5.053999999999999915e+01 2.044300000000000139e+01 5.549927000000000277e+00 -9.213222460010787873e-02
2.000199999999999889e+01 7.221500000000000341e+01 -5.498300000000000409e+00 1.034448000000000079e+01 -8.984753938102028187e-03
2.000900000000000034e+01 4.825800000000000267e+01 1.357199999999999918e+01 1.655342999999999876e+01 -3.499999999999999778e-01
2.001000000000000156e+01 8.613200000000000500e+01 8.245100000000000762e+00 -1.160702000000000034e+01 -1.945693955897594488e-02
2.001699999999999946e+01 6.895499999999999829e+01 -9.951000000000000512e+00 -1.310686000000000018e+00 -5.548728104913636106e-03
2.002899999999999991e+01 6.807500000000000284e+01 2.806400000000000006e+01 1.132906999999999975e+01 -2.473133591526315844e-01
2.003600000000000136e+01 7.050600000000000023e+01 -8.609999999999999432e+00 -1.130109000000000030e+00 -6.519257155915217025e-03
2.003699999999999903e+01 6.678600000000000136e+01 2.894399999999999906e+01 2.441331999999999880e+01 -2.421724739848540031e-01
2.003800000000000026e+01 4.311800000000000210e+01 1.084999999999999964e+01 -4.549155999999999755e-01 -3.499999999999999778e-01
2.003900000000000148e+01 6.858799999999999386e+01 2.608999999999999986e+01 6.638730999999999938e+00 -2.790302754732695290e-01
2.004200000000000159e+01 7.282800000000000296e+01 1.870599999999999952e+01 2.491023000000000209e+00 -1.914920826162131440e-01
2.004200000000000159e+01 8.617300000000000182e+01 9.365999999999999659e+00 -1.363279999999999959e+01 -1.783148573191240330e-02
2.004599999999999937e+01 4.182900000000000063e+01 1.173000000000000043e+01 2.800813000000000130e+01 -3.499999999999999778e-01
2.004799999999999827e+01 7.527100000000000080e+01 -5.599300000000000388e+00 3.503544000000000214e+00 -8.741841246074209815e-03
2.004799999999999827e+01 7.921200000000000330e+01 1.355199999999999960e+01 -5.586155000000000115e+01 -1.027715891622690142e-02
2.004799999999999827e+01 8.015000000000000568e+01 1.355199999999999960e+01 -6.554913999999999419e+01 -1.033325149177731495e-02
2.005199999999999960e+01 5.042399999999999949e+01 1.866900000000000048e+01 3.622409000000000212e+00 -8.294687292882593765e-02
2.005199999999999960e+01 7.090900000000000603e+01 2.047400000000000020e+01 -8.496855999999999298e+00 -1.887597646974824572e-01
2.005300000000000082e+01 5.815500000000000114e+01 -4.259800000000000253e-01 9.910242999999999691e-01 -2.553997067474237936e-01
