3.532600000000000051e+01 4.726300000000000168e+00 2.037399999999999878e+01 -1.459145000000000003e+01 -2.849728163222428057e-01
3.533299999999999841e+01 -2.102199999999999847e+01 3.745999999999999996e+00 1.392971000000000070e-01 -2.315700491608427836e-01
3.533700000000000330e+01 -1.576099999999999923e+01 1.444999999999999929e+01 -6.568914000000000364e+00 2.167408513660825931e-01
3.533800000000000097e+01 -2.468799999999999883e+01 1.382799999999999940e+01 -3.088190000000000102e-01 -8.398571157323682368e-02
3.533899999999999864e+01 3.418000000000000149e+00 1.217900000000000027e+01 -1.430928999999999895e+00 -8.158263257576227334e-02
3.533899999999999864e+01 3.418000000000000149e+00 1.357900000000000063e+01 -1.627490999999999843e+01 -1.587132579663967646e-01
3.533899999999999864e+01 4.283299999999999663e+00 1.357900000000000063e+01 -2.097653999999999996e+01 -1.745479603621151454e-01
3.533899999999999864e+01 5.222699999999999676e+00 1.357900000000000063e+01 -2.994532999999999845e+01 -1.924550784961645555e-01
3.534400000000000119e+01 -1.363499999999999979e+01 4.089000000000000057e+01 3.686780999999999864e+00 -3.800721738220640411e-01
3.534599999999999653e+01 5.865000000000000213e+00 2.412300000000000111e+01 -2.233846999999999916e+00 -2.196961709313946243e-01
3.535199999999999676e+01 -1.114300000000000068e+00 2.350799999999999912e+01 -2.229228000000000165e+01 3.799999999999999489e-01
3.535199999999999676e+01 -1.114300000000000068e+00 2.437300000000000111e+01 -2.068684999999999974e+01 3.800000000000000044e-01
3.535300000000000153e+01 -8.591499999999999915e+00 4.017099999999999937e+01 1.164212999999999987e+01 -3.773747100115981690e-01
3.535799999999999699e+01 -1.635699999999999932e+01 4.066799999999999926e+01 3.193087999999999926e+00 -1.622275439818976206e-01
3.535799999999999699e+01 -1.488100000000000023e+01 4.135000000000000142e+01 2.896923999999999921e+01 -1.194348211492727990e-01
3.536299999999999955e+01 -2.295499999999999829e+01 4.911100000000000243e+00 4.323373000000000133e+00 -2.302033121566940677e-01
3.536699999999999733e+01 -1.678200000000000003e+01 3.367999999999999972e+01 8.067928000000000210e+00 3.989864821302321202e-02
3.536999999999999744e+01 8.450300000000000367e+00 2.735600000000000165e+01 6.466694000000000386e+00 -2.130640113809647018e-01
3.536999999999999744e+01 3.004000000000000004e+00 3.499600000000000222e+01 3.344851999999999936e+00 -2.484238601776128097e-01
3.537199999999999989e+01 4.796899999999999942e+00 3.482900000000000063e+01 -1.225060000000000038e+01 -3.676775546271437989e-01
3.538499999999999801e+01 -2.042800000000000171e+00 3.869400000000000261e+01 -1.749379000000000062e+01 -3.061276576994043097e-01
3.538799999999999812e+01 -2.246900000000000119e+00 2.275000000000000000e+01 -2.137826000000000093e+01 3.800000000000000044e-01
3.538799999999999812e+01 -2.246900000000000119e+00 2.513200000000000145e+01 -1.610150000000000148e+01 3.800000000000000044e-01
3.539500000000000313e+01 -5.925900000000000389e+00 2.137600000000000122e+01 -6.487640999999999991e+00 1.136764489248546645e-01
3.539500000000000313e+01 -5.060599999999999987e+00 2.137600000000000122e+01 -8.626841000000000648e+00 1.238939280171336144e-01
3.539999999999999858e+01 3.939999999999999947e+00 3.497299999999999898e+01 -1.715438999999999936e+01 -3.663144414034401053e-01
3.540200000000000102e+01 5.552100000000000257e+00 1.433900000000000041e+01 -4.633066999999999780e+01 -2.198609786655541520e-01
3.540500000000000114e+01 -2.161599999999999966e+01 4.035999999999999588e+00 2.145096999999999809e+00 -2.361838801575852909e-01
3.541199999999999903e+01 -3.780499999999999972e+00 1.787199999999999900e+00 -4.113312999999999775e+00 -2.808479994096456100e-01
3.541299999999999670e+01 -1.815600000000000103e+00 4.958000000000000185e+00 -3.829959000000000113e+00 1.673588780299144554e-02
3.541499999999999915e+01 -2.039099999999999824e+01 2.825000000000000000e+01 -1.471060000000000034e+00 -4.908289916665638936e-02
3.541799999999999926e+01 1.032599999999999962e+00 2.117500000000000071e+01 -4.564365999999999701e+01 -7.889643062999820988e-02
3.541799999999999926e+01 1.032599999999999962e+00 2.257499999999999929e+01 -3.122242999999999924e+01 2.361801573522071818e-01
3.542099999999999937e+01 5.217999999999999972e+00 1.121899999999999942e+01 1.203541000000000061e+01 1.581794127853085041e-01
3.542300000000000182e+01 -2.640200000000000102e+01 1.652299999999999969e+01 -1.633418999999999954e+00 1.783036438084970726e-02
3.542300000000000182e+01 -2.500199999999999889e+01 1.652299999999999969e+01 1.160453000000000046e+01 2.763766112802481384e-02
3.542699999999999960e+01 -1.658299999999999841e+01 1.262000000000000011e+00 1.278110000000000079e+00 -3.466206154993545230e-01
3.542999999999999972e+01 -3.252600000000000158e+00 2.297700000000000031e+01 -1.682200999999999880e+01 3.800000000000000044e-01
3.543500000000000227e+01 -2.409600000000000186e+00 3.949199999999999733e+01 -1.045693999999999946e+01 -3.070698005291138677e-01
3.543699999999999761e+01 -2.786299999999999955e+01 1.974800000000000111e+01 -1.300351999999999997e+01 -1.289034133981512009e-01
3.543699999999999761e+01 5.283900000000000041e+00 1.509800000000000075e+01 -4.225759999999999650e+01 -2.349106845739265259e-01
3.543800000000000239e+01 7.415000000000000036e+00 2.471499999999999986e+01 8.255504999999999649e-01 -2.150411916227062681e-01
3.544500000000000028e+01 -3.404999999999999805e+00 3.951700000000000301e+01 -7.242942000000000213e+00 -3.067942828036895331e-01
3.544700000000000273e+01 1.835499999999999909e-01 2.119999999999999929e+01 -3.895407000000000153e+01 -1.136383079244469574e-01
3.545300000000000296e+01 -6.229300000000000281e+00 2.207600000000000051e+01 -4.695361000000000118e+00 7.172512908229680684e-02
3.545300000000000296e+01 -4.757200000000000095e+00 2.207600000000000051e+01 -8.689261999999999375e+00 3.919532455686030592e-01
3.546999999999999886e+01 -1.508999999999999986e+01 1.970299999999999940e+00 2.584544999999999870e+00 -3.339266240568192212e-01
3.547500000000000142e+01 -5.014899999999999913e-01 5.932500000000000107e+00 -3.406223999999999918e+00 -1.926583813324965200e-01
3.547599999999999909e+01 1.336000000000000076e+00 2.187500000000000000e+01 -3.809552000000000049e+01 2.336311142523488926e-01
3.548299999999999699e+01 -6.721700000000000230e+00 3.945199999999999818e+01 -1.392295000000000060e-01 -2.845774650414054086e-01
3.548299999999999699e+01 -5.110299999999999621e+00 3.945199999999999818e+01 -5.157581000000000415e+00 -3.029776181880461938e-01
3.549099999999999966e+01 -3.267300000000000093e+00 2.475499999999999901e+01 -9.109294000000000224e+00 3.800000000000000044e-01
3.549199999999999733e+01 -2.705199999999999960e+01 2.303900000000000148e+01 -3.278020000000000156e+00 -1.379150420306018143e-01
3.549199999999999733e+01 -2.705199999999999960e+01 2.549899999999999878e+01 -4.271611999999999654e+01 -1.483730449477105862e-01
3.549199999999999733e+01 -1.561700000000000088e+01 3.401500000000000057e+01 3.708431000000000033e+00 -5.439889283926095144e-03
3.549199999999999733e+01 -1.561700000000000088e+01 3.541499999999999915e+01 -4.130071000000000048e+00 -1.096028385388242710e-01
3.549300000000000210e+01 6.297500000000000320e+00 3.185099999999999909e+01 -1.121716999999999942e+01 -3.386379397327982099e-01
3.549900000000000233e+01 6.621699999999999697e+00 7.126100000000000101e+00 -8.151334999999999553e+00 -8.954356658413911707e-02
3.550099999999999767e+01 -2.009799999999999898e+01 3.172800000000000153e+01 -1.230367000000000033e+01 -1.774061293336122447e-01
3.550099999999999767e+01 -2.677400000000000091e+01 2.041700000000000159e+01 1.194988999999999990e+01 -1.254652635578834552e-01
3.550300000000000011e+01 -2.106899999999999906e+01 3.076200000000000045e+01 -3.018864000000000214e+00 -1.701936483883307871e-01
3.550500000000000256e+01 -4.138499999999999623e+00 2.317299999999999827e+01 -1.321345999999999954e+01 3.934994200257830865e-01
3.550600000000000023e+01 -1.231600000000000072e+01 2.891199999999999992e+00 2.029610999999999876e+01 2.337632841744970713e-01
3.550999999999999801e+01 -7.446700000000000541e-01 2.129799999999999827e+01 -3.359326999999999686e+01 1.701702253604876203e-01
3.550999999999999801e+01 -7.446700000000000541e-01 2.269800000000000040e+01 -2.749388000000000076e+01 1.913863346698445322e-01
3.550999999999999801e+01 1.205800000000000066e-01 2.269800000000000040e+01 -3.023570000000000135e+01 2.121304874218306602e-01
3.553600000000000136e+01 -2.035699999999999932e+01 3.548000000000000043e+00 5.801782000000000217e+00 -2.227758775877736463e-01
3.554200000000000159e+01 -2.933800000000000097e+01 1.678900000000000148e+01 -1.467880000000000074e+00 1.145408976633458809e-01
3.554200000000000159e+01 -2.933800000000000097e+01 1.929700000000000060e+01 -5.846476000000000006e+00 -1.362030500164212177e-01
3.554200000000000159e+01 5.644099999999999895e+00 1.067099999999999937e+01 3.154195000000000082e+00 1.531224757099151068e-01
3.554299999999999926e+01 -1.244899999999999896e+00 3.656199999999999761e+01 1.008544000000000018e+01 -2.891229607277705504e-01
3.554599999999999937e+01 -2.044600000000000151e+01 2.931299999999999883e+01 2.411545999999999967e+00 -5.156697327837674039e-02
3.554599999999999937e+01 -1.649699999999999989e+01 1.444999999999999929e+01 -9.036903999999999826e+00 2.133264081110327059e-01
3.554599999999999937e+01 -1.502500000000000036e+01 1.444999999999999929e+01 -5.871170000000000222e+00 2.296642621821771146e-01
3.554699999999999704e+01 -2.417500000000000071e+01 8.278800000000000381e+00 -1.330715000000000003e+01 -3.739223160048443795e-02
3.554699999999999704e+01 -2.090800000000000214e+00 4.028999999999999915e+00 -4.607620999999999967e+00 -9.934733763222999836e-02
3.554800000000000182e+01 -2.407600000000000051e+01 5.759299999999999642e+00 -1.759465999999999974e+00 -2.479500123408764564e-02
3.554899999999999949e+01 -3.570699999999999985e+00 2.405499999999999972e+01 -1.111204999999999998e+01 3.800000000000000044e-01
3.554999999999999716e+01 -1.531400000000000006e+01 3.471500000000000341e+01 -1.350162000000000084e+00 -1.813569726461688666e-02
3.555100000000000193e+01 9.775300000000000100e-01 3.529200000000000159e+01 1.359212999999999916e+01 -2.463305155620124087e-01
3.555199999999999960e+01 6.474000000000000199e+00 9.666999999999999815e+00 1.588369999999999926e+01 -9.112455081196849105e-02
3.556000000000000227e+01 -1.347600000000000087e+01 2.990800000000000125e+00 3.693960999999999828e+00 -6.634597271338337106e-03
3.556000000000000227e+01 -1.055599999999999916e+01 2.943000000000000060e+00 2.333467999999999876e+00 -1.056441555870793608e-01
3.556000000000000227e+01 -9.365099999999999980e+00 2.278999999999999915e+00 2.422343000000000135e+00 -1.190247991858101456e-01
3.556099999999999994e+01 5.945999999999999730e+00 3.355700000000000216e+01 -1.262383999999999951e+01 -2.750314028376208420e-01
3.556799999999999784e+01 -1.048100000000000032e+00 2.199800000000000111e+01 -2.682823000000000135e+01 1.759348342967694823e-01
3.557000000000000028e+01 -5.017699999999999605e+00 -1.284100000000000019e+00 4.156252000000000280e+00 -2.476292452834211733e-01
3.557200000000000273e+01 -1.922400000000000020e+01 2.789699999999999847e+00 1.203586999999999918e+01 -2.062760680902304689e-01
3.557699999999999818e+01 -2.729599999999999937e+01 1.994300000000000139e+01 1.640926999999999936e+01 -1.251788240783869577e-01
3.557800000000000296e+01 -8.036500000000000199e+00 -1.869699999999999918e+00 -1.573711000000000138e-01 -1.547121586677909291e-02
3.557800000000000296e+01 -1.785500000000000043e+01 3.698700000000000188e+01 -4.428257999999999583e+00 1.161176335474405075e-03
3.559700000000000131e+01 -1.165399999999999991e+01 4.082699999999999818e+01 -1.001260000000000083e+01 -3.747713822679830109e-01
3.560399999999999920e+01 -1.619399999999999906e+01 1.375000000000000000e+01 -6.333117999999999803e+00 6.566186723757835852e-02
3.560399999999999920e+01 -1.619399999999999906e+01 1.515000000000000036e+01 -5.994708000000000148e+00 1.955823457759077733e-01
3.560399999999999920e+01 -1.532900000000000063e+01 1.375000000000000000e+01 -1.433084999999999987e+01 5.958931207583893080e-02
3.560399999999999920e+01 -1.532900000000000063e+01 1.515000000000000036e+01 -4.132393000000000427e+00 2.120605158459271666e-01
3.560699999999999932e+01 -7.856200000000000294e+00 -2.944500000000000117e+00 -3.499077000000000215e+00 -3.661760471211958912e-01
3.561299999999999955e+01 -5.051099999999999923e+00 -3.492999999999999994e-01 5.017600999999999978e+00 -2.505445134360188564e-01
3.561299999999999955e+01 5.432400000000000340e+00 2.255699999999999861e+01 -4.051965000000000039e+00 -2.246530211085216444e-01
3.561299999999999955e+01 5.432400000000000340e+00 2.342299999999999827e+01 -9.443524000000000029e+00 -2.255609400129342801e-01
3.561399999999999721e+01 -2.098699999999999832e+01 2.567599999999999838e+01 -1.521302999999999983e+01 -2.591334016676079544e-01
3.561699999999999733e+01 6.809899999999999842e+00 8.891999999999999460e+00 9.976528999999999314e+01 -9.095301658785140408e-02
3.561800000000000210e+01 -1.780099999999999838e+01 3.986200000000000188e+01 -3.118047999999999931e+01 3.356070359508654677e-02
3.562700000000000244e+01 -4.806300000000000239e+00 4.027899999999999814e-01 1.920922000000000018e+00 -2.586165961149635706e-01
3.562899999999999778e+01 -2.431700000000000017e+01 1.206799999999999962e+01 5.195020999999999667e-01 -1.003825534455362600e-01
3.562899999999999778e+01 4.753000000000000114e+00 1.433900000000000041e+01 -2.193207999999999913e+01 -2.017058754479935379e-01
3.563400000000000034e+01 -1.795499999999999829e+01 1.773400000000000087e+00 1.992005999999999943e+00 -1.914745783062133944e-01
3.563499999999999801e+01 -4.060699999999999865e-01 3.621500000000000341e+01 8.309848999999999819e+00 -2.863709036051602097e-01
3.563799999999999812e+01 2.568699999999999872e-01 5.910899999999999821e+00 -4.139909000000000283e+00 -1.813992733296567184e-01
3.564099999999999824e+01 -2.284900000000000020e+01 2.567399999999999949e+01 -2.650828000000000184e+00 -1.303825213048639686e-01
3.564699999999999847e+01 2.804399999999999782e+00 6.307299999999999685e+00 -3.146805000000000074e+00 -3.034775023810126204e-01
3.565200000000000102e+01 6.538899999999999935e+00 8.125299999999999301e+00 2.565543999999999869e+01 -9.087808184616141816e-02
3.565599999999999881e+01 -1.935000000000000142e+01 3.195700000000000074e+01 -4.620284999999999975e+00 -1.882205463921528266e-01
3.566199999999999903e+01 -5.493199999999999861e+00 2.207600000000000051e+01 -5.234586000000000183e+00 3.900707493016087324e-01
3.566499999999999915e+01 6.152300000000000324e+00 3.267799999999999727e+01 -2.399640000000000128e+01 -3.305214227404897898e-01
3.566599999999999682e+01 5.796999999999999709e+00 5.753000000000000114e+00 2.934889999999999999e-01 -9.436647818180837755e-02
3.566599999999999682e+01 4.246500000000000163e+00 5.601399999999999935e+00 1.607150999999999996e+01 -2.881726638564502396e-01
3.566799999999999926e+01 -7.405499999999999972e+00 -3.796899999999999942e+00 -2.905412000000000106e+00 -3.656123152769839013e-01
3.566799999999999926e+01 -6.086999999999999744e+00 -4.532000000000000028e+00 1.153844000000000092e+00 -3.647540632683933248e-01
3.566799999999999926e+01 -4.768500000000000405e+00 -3.796899999999999942e+00 2.535937000000000108e+00 -2.524273832128048900e-01
3.566799999999999926e+01 -4.768500000000000405e+00 -2.167100000000000026e+00 -1.102496999999999971e+01 -2.505272239169760162e-01
3.566799999999999926e+01 -4.536999999999999922e+00 -2.982000000000000206e+00 -1.286567999999999934e+01 -2.522602080948557202e-01
3.567799999999999727e+01 -2.571799999999999997e+01 2.723900000000000077e+01 -1.259853999999999985e+01 -1.738906343925089928e-02
3.567799999999999727e+01 -2.419800000000000040e+01 2.723900000000000077e+01 -3.220203000000000060e+01 -2.282821198593729672e-01
3.567900000000000205e+01 -4.213099999999999845e+00 1.087199999999999944e+00 -3.318337999999999788e+00 -2.734810434931136958e-01
3.568299999999999983e+01 -7.958700000000000330e+00 -1.313900000000000068e+00 6.551764000000000365e+00 -1.815384071505516880e-02
3.568299999999999983e+01 -7.958700000000000330e+00 -3.180700000000000194e-01 7.328935999999999673e+00 -2.986847332201050115e-02
3.568500000000000227e+01 5.999999999999999778e-01 2.187500000000000000e+01 -3.323454000000000264e+01 2.151355123474300579e-01
3.568599999999999994e+01 5.408299999999999663e+00 2.156299999999999883e+01 -3.645887000000000100e+00 -2.994264997348665136e-01
3.569100000000000250e+01 -1.662999999999999901e+01 3.640999999999999659e+01 -4.835696999999999690e+00 -9.712603579153455957e-02
3.570100000000000051e+01 -2.215700000000000003e+00 2.896599999999999842e+00 -2.203982999999999914e-01 -7.957218283655061175e-02
3.570300000000000296e+01 -8.326299999999999812e+00 5.447300000000000475e-01 4.979795000000000194e+00 -8.482032998724600703e-02
3.571099999999999852e+01 4.480699999999999683e+00 1.950300000000000011e+01 -1.635780000000000012e+00 -2.747614671131940467e-01
3.571099999999999852e+01 4.689700000000000202e+00 1.876699999999999946e+01 3.425049000000000010e+00 -1.683969559507668967e-01
3.571600000000000108e+01 5.486399999999999721e+00 1.712999999999999901e+01 -1.454050999999999982e+00 -2.041332280874865734e-01
3.571600000000000108e+01 5.486399999999999721e+00 1.787600000000000122e+01 -2.002184000000000186e+00 -1.940006065433576843e-01
3.572399999999999665e+01 -1.628600000000000136e+01 3.419500000000000028e+01 3.047550000000000203e+00 -1.845476292920962200e-02
3.572699999999999676e+01 -1.783599999999999852e+01 3.253600000000000136e+01 2.600687999999999889e+01 -1.979092268718820324e-01
3.573400000000000176e+01 7.237899999999999778e+00 3.016799999999999926e+01 -2.647720000000000073e+00 -3.109520403480511841e-01
3.573400000000000176e+01 8.245100000000000762e+00 2.916100000000000136e+01 6.190150000000000041e+00 -3.135829036608976939e-01
3.573400000000000176e+01 8.499000000000000554e+00 2.826699999999999946e+01 6.655424000000000007e+00 -3.148018111927075036e-01
3.573499999999999943e+01 -9.162399999999999878e+00 4.016899999999999693e+01 -3.572522000000000197e+00 -3.761988976455531430e-01
3.573499999999999943e+01 3.850699999999999790e+00 1.168800000000000061e+01 -1.820912000000000086e+00 -1.001965080930325297e-01
3.573700000000000188e+01 -1.630600000000000094e+01 3.565299999999999869e+01 -4.888272999999999868e+00 -1.047522313716325038e-01
3.574199999999999733e+01 1.833800000000000097e+00 6.187599999999999767e+00 -9.359975999999999630e+00 2.531861404730562093e-02
3.574900000000000233e+01 -8.649800000000000821e+00 1.302200000000000024e+00 1.131386999999999965e+01 -1.068154090369608927e-01
3.575300000000000011e+01 3.846000000000000085e+00 1.427100000000000080e+01 -1.988992000000000004e+01 -1.800586188911246777e-01
3.575500000000000256e+01 -4.177999999999999936e+00 3.947699999999999676e+01 -1.095865000000000045e+01 -3.018310949144619171e-01
3.575900000000000034e+01 8.023400000000000531e+00 2.544099999999999895e+01 1.279649000000000036e+00 -2.164592722516743284e-01
3.576599999999999824e+01 -1.956700000000000017e+01 3.517100000000000115e+00 2.595014000000000109e+01 -2.115988516904662720e-01
3.577100000000000080e+01 2.717999999999999972e+00 1.244599999999999973e+01 -1.204733000000000054e+01 -1.139418704862592141e-01
3.577100000000000080e+01 2.717999999999999972e+00 1.331199999999999939e+01 -1.642410999999999888e+01 -9.731595420553153242e-02
3.577400000000000091e+01 -2.298600000000000065e+01 5.369600000000000151e+00 1.129988999999999910e+00 -2.253384169262955261e-01
3.577700000000000102e+01 -3.120499999999999940e-01 2.199800000000000111e+01 -2.753810999999999964e+01 1.929993419449668457e-01
3.578099999999999881e+01 4.793999999999999595e+00 1.516900000000000048e+01 -2.126565000000000083e+01 -2.204504143646887349e-01
3.578199999999999648e+01 -2.752199999999999847e+01 2.379899999999999949e+01 -3.049926000000000137e+00 -1.394554437331350094e-01
3.578199999999999648e+01 -2.752199999999999847e+01 2.473900000000000077e+01 -1.254204000000000008e+01 -1.435010614219393021e-01
3.578300000000000125e+01 -1.598300000000000054e+01 3.489500000000000313e+01 -1.076338000000000017e+00 6.102347971462132679e-04
3.578499999999999659e+01 -2.679600000000000204e+00 2.324099999999999966e+01 -2.246562000000000126e+01 3.800000000000000044e-01
3.578499999999999659e+01 -2.679600000000000204e+00 2.464099999999999824e+01 -1.308521999999999963e+01 3.800000000000000044e-01
3.578499999999999659e+01 -1.814300000000000024e+00 2.324099999999999966e+01 -2.156971000000000060e+01 1.738405356969684457e-01
3.578499999999999659e+01 -1.814300000000000024e+00 2.464099999999999824e+01 -1.729823999999999984e+01 1.843245172530794118e-01
3.578499999999999659e+01 -7.891499999999999737e+00 3.990299999999999869e+01 4.054514000000000173e+00 -3.801634987033092328e-01
3.579200000000000159e+01 -2.725199999999999889e+01 1.645200000000000173e+01 9.688059999999999450e-01 6.582688822342079582e-03
3.579999999999999716e+01 1.530399999999999983e+00 5.487599999999999589e+00 -6.092272000000000354e+00 -1.655873421223270081e-01
3.580100000000000193e+01 -1.270100000000000051e+01 4.086299999999999955e+01 -8.280803999999999832e+00 -3.768083893789805350e-01
3.580700000000000216e+01 -1.441999999999999993e+01 2.905800000000000161e+00 4.657631000000000299e+00 -3.271249199584114753e-01
3.580899999999999750e+01 -2.418199999999999861e+01 1.572000000000000064e+01 1.001870000000000083e+01 -4.717101434579467484e-03
3.581400000000000006e+01 4.790000000000000036e+00 3.455700000000000216e+01 -8.826200000000000045e+00 -3.673666924227962371e-01
3.581400000000000006e+01 -1.075300000000000011e+01 4.073199999999999932e+01 -7.012278000000000233e+00 -3.732204898232861501e-01
3.581499999999999773e+01 -2.205600000000000094e+01 4.695000000000000284e+00 6.057091999999999921e+00 -2.336572303341543644e-01
3.581700000000000017e+01 -2.400799999999999912e+01 1.134699999999999953e+01 2.172137999999999991e+01 -9.106036883546804461e-02
3.582500000000000284e+01 -2.866600000000000037e+00 1.860300000000000065e+00 9.943589999999999929e-01 -2.975483271258180240e-01
3.582500000000000284e+01 6.670700000000000074e+00 2.454799999999999827e+01 2.169443999999999928e+00 -2.217837448679755019e-01
3.583800000000000097e+01 -2.981700000000000017e+01 1.756400000000000006e+01 -1.562405000000000044e+00 -1.398534230278680734e-01
3.583800000000000097e+01 -2.981700000000000017e+01 1.852199999999999847e+01 -2.301088000000000022e+00 -1.380443515080302386e-01
3.583800000000000097e+01 -2.454599999999999937e+01 6.519300000000000317e+00 -1.794054000000000038e+00 -2.577220194067186138e-02
3.583800000000000097e+01 -2.454599999999999937e+01 7.458700000000000330e+00 -3.849359999999999893e+00 -2.901580224785037590e-02
3.584300000000000352e+01 -2.983000000000000096e+00 2.394099999999999895e+01 -1.335726999999999975e+01 3.800000000000000044e-01
3.584300000000000352e+01 -1.510899999999999910e+00 2.394099999999999895e+01 -1.808831999999999951e+01 1.847768398550083679e-01
3.584499999999999886e+01 -1.136200000000000010e+01 2.905699999999999950e+00 4.009369999999999656e+00 -9.737495809717146289e-02
3.584599999999999653e+01 3.383599999999999941e+00 5.660300000000000331e+00 3.415881999999999863e+00 -2.963957419374497748e-01
3.584700000000000131e+01 -2.098799999999999955e+01 3.026599999999999824e+01 -1.793975000000000097e+00 -5.331423366681231624e-02
3.585199999999999676e+01 -9.573000000000000398e+00 4.044700000000000273e+01 -5.311894999999999811e+00 -3.748736483101586803e-01
3.585600000000000165e+01 -2.570200000000000173e+01 1.678999999999999915e+01 1.237951999999999941e+01 -1.837893564704208213e-02
3.585600000000000165e+01 -2.451099999999999923e+01 1.465399999999999991e+01 -1.320794000000000135e-01 -4.617630556822839571e-02
3.585699999999999932e+01 -2.602499999999999858e+01 2.221900000000000119e+01 -4.453011000000000053e+00 -1.311494521438176797e-01
3.586200000000000188e+01 -1.406600000000000072e+01 4.119800000000000040e+01 3.558453999999999784e+00 -1.087215936177547693e-01
3.586599999999999966e+01 1.792000000000000037e+00 4.719999999999999751e+00 -3.511515000000000164e+00 -1.639103583645800388e-01
3.586800000000000210e+01 -2.448499999999999943e+01 1.642000000000000171e+01 1.187109000000000059e+01 2.380269585055645037e-02
3.587100000000000222e+01 -9.341199999999999504e-01 5.441600000000000215e+00 -3.523267000000000149e+00 -1.946254732472334492e-01
3.587800000000000011e+01 -2.856299999999999883e+01 1.672400000000000020e+01 -1.052707000000000015e+01 -4.449046311339896476e-02
3.587800000000000011e+01 -2.856299999999999883e+01 1.936199999999999832e+01 -4.553569999999999851e+01 -1.307728178654705420e-01
3.588100000000000023e+01 -2.055399999999999849e+01 2.637600000000000122e+01 -3.277200000000000113e+00 -2.712025298175435584e-01
3.588300000000000267e+01 -1.573099999999999987e+01 4.102499999999999858e+01 2.914470000000000027e+01 -1.488520001144333083e-01
3.589600000000000080e+01 4.320400000000000240e+00 1.503899999999999970e+01 -2.213727000000000089e+01 -2.062354914862742361e-01
3.589800000000000324e+01 3.134300000000000086e+00 3.466499999999999915e+01 1.037504000000000026e+01 -2.486778907100566927e-01
3.590699999999999648e+01 -1.816000000000000014e+01 3.736500000000000199e+01 -4.907630000000000159e+00 -1.245108982462247299e-02
3.590800000000000125e+01 -1.827100000000000080e+01 3.910199999999999676e+01 -2.079328999999999894e+01 5.245856078308184720e-03
3.590999999999999659e+01 -1.742299999999999827e+01 3.639200000000000301e+01 -4.052490999999999843e+00 -1.214628057784112453e-02
3.591299999999999670e+01 5.738199999999999967e+00 9.667500000000000426e+00 3.200677000000000216e+00 -1.026824892738406464e-01
3.591499999999999915e+01 -2.632799999999999940e+01 2.291900000000000048e+01 -1.948391000000000162e+01 -1.327152969324223997e-01
3.591599999999999682e+01 -7.421700000000000408e+00 3.971999999999999886e+01 5.730491999999999919e+00 -2.417307735189671569e-01
3.592199999999999704e+01 -2.388500000000000156e+01 8.913000000000000256e+00 3.382545000000000135e-01 -2.532406477472945450e-02
3.592199999999999704e+01 -2.367599999999999838e+01 9.648999999999999133e+00 6.589380000000000237e+00 -2.780445897562012700e-02
3.592399999999999949e+01 -2.656099999999999994e+01 2.589499999999999957e+01 -2.433022000000000062e+01 -1.473756778915481513e-01
3.592699999999999960e+01 6.788199999999999790e+00 3.138200000000000145e+01 -8.088029000000000579e+00 -3.459044341965121228e-01
3.592999999999999972e+01 -2.378500000000000014e+01 1.044999999999999929e+01 1.670633000000000123e+01 -3.749576664094683709e-02
3.593099999999999739e+01 -2.191799999999999926e+01 2.561700000000000088e+01 -2.019359000000000126e+00 -2.389015597941736568e-01
3.593299999999999983e+01 -2.058899999999999864e+01 3.133200000000000074e+01 -1.371018999999999988e+00 -1.818034193335046900e-01
3.593399999999999750e+01 -5.916000000000000369e+00 3.962400000000000233e+01 -9.208328000000000069e-01 -2.918077622012464345e-01
3.593599999999999994e+01 -2.935999999999999943e+00 3.995100000000000051e+01 -6.446441000000000088e+00 -3.023723515026622843e-01
3.593599999999999994e+01 4.080300000000000038e-01 3.589399999999999835e+01 1.302011000000000074e+01 -2.774276986966930370e-01
3.594400000000000261e+01 -7.537600000000000300e+00 5.401200000000000445e-01 8.588511999999999702e+00 -5.764258017078813939e-02
3.594500000000000028e+01 6.065100000000000158e+00 8.891999999999999460e+00 1.035917000000000066e+01 -9.864390271238436536e-02
3.594500000000000028e+01 -1.838100000000000023e+01 3.814999999999999858e+01 -3.758620000000000072e+00 -8.699825303001382237e-03
3.595199999999999818e+01 -1.743299999999999983e+01 1.586699999999999999e+00 -1.606103000000000114e-01 -1.852802526427503316e-01
3.595199999999999818e+01 -1.573300000000000054e+01 1.586699999999999999e+00 1.683300999999999936e+00 -3.408022512062235942e-01
3.596200000000000330e+01 6.275999999999999801e+00 6.527999999999999581e+00 5.047775999999999819e+00 -9.606866209277262203e-02
3.596500000000000341e+01 -1.394899999999999984e+01 3.897499999999999964e+00 1.282543000000000077e+01 -3.189213977405712386e-02
3.596500000000000341e+01 -1.308399999999999963e+01 3.897499999999999964e+00 2.209328999999999965e+01 -3.437241407762297446e-02
3.596800000000000352e+01 -2.618799999999999883e+01 2.647899999999999920e+01 -2.915716000000000108e+01 -1.490368326643320418e-01
3.596800000000000352e+01 -2.372800000000000153e+01 2.647899999999999920e+01 -8.382348000000000354e+01 -1.266888395459835892e-01
3.597099999999999653e+01 6.431400000000000006e+00 3.310199999999999676e+01 -1.421034000000000042e+01 -3.287226161260935475e-01
3.597500000000000142e+01 -1.706299999999999928e+00 3.732300000000000040e+01 -7.701419999999999710e+00 -2.899703658338920187e-01
3.597500000000000142e+01 -1.706299999999999928e+00 3.818800000000000239e+01 -1.310364000000000040e+01 -2.961128593046408186e-01
3.597500000000000142e+01 -1.706299999999999928e+00 3.912800000000000011e+01 -1.712642999999999915e+01 -3.001819319355693572e-01
3.597999999999999687e+01 -1.390800000000000036e+00 5.161699999999999733e+00 -7.519222000000000072e+00 2.648880512563425715e-02
3.598199999999999932e+01 -2.059499999999999886e+01 2.716199999999999903e+01 -1.600964999999999971e+00 -1.612441735294727896e-01
3.598400000000000176e+01 6.694099999999999717e+00 3.228399999999999892e+01 -6.686969000000000385e+00 -3.361714063466869629e-01
3.599000000000000199e+01 -7.861100000000000421e+00 1.297600000000000087e+00 2.524529000000000067e+01 4.806097319348791308e-02
3.599300000000000210e+01 -9.855999999999999872e+00 2.675600000000000200e+00 1.193837999999999955e+00 -1.393164727711928008e-01
3.600099999999999767e+01 -1.576099999999999923e+01 1.325900000000000034e+01 -5.346429999999999794e+00 8.079474820863295770e-02
3.600099999999999767e+01 -1.576099999999999923e+01 1.564100000000000001e+01 -3.995424000000000198e-01 2.030916786899470972e-01
3.600200000000000244e+01 2.369099999999999984e+00 3.472599999999999909e+01 2.045525999999999911e+01 -2.488489070513061618e-01
3.600500000000000256e+01 -1.713800000000000168e+01 3.564099999999999824e+01 -3.994648000000000199e+00 -1.177842486306620168e-01
3.600699999999999790e+01 5.199099999999999611e+00 1.682700000000000173e+01 3.368780999999999803e+00 -1.775139217110097145e-01
3.600699999999999790e+01 -2.495799999999999841e+01 2.730199999999999960e+01 -3.193437000000000126e+01 -2.282057037552682743e-01
3.600900000000000034e+01 2.266399999999999970e+00 5.487599999999999589e+00 -3.320656000000000052e+00 -1.578483543313917714e-01
3.601100000000000279e+01 5.839599999999999902e+00 2.349399999999999977e+01 -5.516338000000000186e+00 -2.277415901115368846e-01
3.602199999999999847e+01 4.258499999999999730e+00 1.128299999999999947e+01 -6.518563000000000551e-01 -1.130465957697456975e-01
3.602499999999999858e+01 -2.062900000000000134e+01 2.805799999999999983e+01 -6.159623999999999655e-02 -1.726514246537922959e-01
3.602600000000000335e+01 6.019899999999999807e+00 8.261699999999999378e+00 2.492491000000000057e+01 -9.893179766692448973e-02
3.603499999999999659e+01 6.894900000000000473e-01 5.419999999999999929e+00 -3.386238000000000081e+00 -1.715676571293738017e-01
3.603600000000000136e+01 -2.084299999999999997e+01 2.887999999999999901e+01 -1.378381000000000078e+00 -5.085594322830758879e-02
3.603699999999999903e+01 -1.689399999999999835e+01 1.401699999999999946e+01 -8.646423000000000414e+00 7.572865473171831729e-02
3.603699999999999903e+01 -1.689399999999999835e+01 1.488199999999999967e+01 -9.036903999999999826e+00 2.340305529230116144e-01
3.603699999999999903e+01 -1.462899999999999956e+01 1.401699999999999946e+01 -1.329585999999999935e+01 2.543771900577590506e-01
3.603699999999999903e+01 -1.462899999999999956e+01 1.488199999999999967e+01 -5.871170000000000222e+00 2.351248369090197521e-01
3.603900000000000148e+01 3.150700000000000056e+00 1.174600000000000044e+01 -6.454447000000000045e+00 -1.324406037304491079e-01
3.603900000000000148e+01 3.150700000000000056e+00 1.401200000000000045e+01 -1.504945000000000022e+01 -9.208233438128120285e-02
3.604399999999999693e+01 -1.001600000000000001e+01 4.065299999999999869e+01 -3.351633999999999780e+00 -3.736879108142435735e-01
3.604699999999999704e+01 -8.339100000000000179e+00 2.149000000000000021e+00 3.154483000000000104e+01 -1.607662009333707676e-01
3.605199999999999960e+01 -2.246900000000000119e+00 2.394099999999999895e+01 -1.659790999999999883e+01 1.687748444712825202e-01
3.606499999999999773e+01 -1.683800000000000097e+01 3.486200000000000188e+01 -3.008875999999999884e+00 -1.343853501443773857e-01
3.606600000000000250e+01 -2.597700000000000031e+01 2.154100000000000037e+01 2.972182999999999797e+00 -1.268390672455591839e-01
3.607200000000000273e+01 -2.338399999999999923e-01 5.441900000000000404e+00 -3.067454999999999821e+00 -1.832765117831999802e-01
3.607399999999999807e+01 5.093099999999999739e+00 2.070599999999999952e+01 -4.567762000000000100e+00 -2.913680488929835111e-01
3.609300000000000352e+01 9.928900000000000503e-01 4.719999999999999751e+00 -5.337271000000000321e+00 -1.684933205514207999e-01
3.609499999999999886e+01 -2.623400000000000176e+01 2.082300000000000040e+01 4.897490000000000343e+00 -1.229019861375637152e-01
3.609700000000000131e+01 -1.837399999999999878e+01 2.464999999999999858e+00 2.791387999999999980e+00 -1.914015703541554203e-01
3.609799999999999898e+01 -2.497800000000000153e+01 1.335800000000000054e+01 -5.540220000000000145e-01 -8.619756344171897178e-02
3.609799999999999898e+01 -2.475100000000000122e+01 1.255899999999999928e+01 -6.207435000000000036e-01 -8.746441958081749291e-02
3.609799999999999898e+01 -2.475100000000000122e+01 1.415700000000000003e+01 -7.002340000000000231e+00 -6.101818347061346154e-02
3.610199999999999676e+01 -2.216499999999999915e+01 5.326699999999999768e+00 8.905743000000000409e-01 -2.289272646583687398e-01
3.610799999999999699e+01 -2.072599999999999909e+01 4.224999999999999645e+00 2.511063000000000045e+00 -2.238763142634197789e-01
3.611399999999999721e+01 -3.878000000000000114e+00 1.220599999999999907e+00 -3.148693999999999882e+00 -2.877123738601549685e-01
3.612100000000000222e+01 4.950599999999999667e+00 1.078599999999999959e+01 1.217037999999999974e-02 -3.971989718981330623e-03
3.612100000000000222e+01 -2.636599999999999966e+01 1.664799999999999969e+01 8.276028999999999414e+00 -2.461566885783983416e-02
3.612400000000000233e+01 -1.859299999999999997e+01 3.224600000000000222e+01 4.158910999999999802e+00 -2.058023673656243502e-01
3.614399999999999835e+01 -7.437700000000000422e+00 -8.159999999999999476e-01 5.990333999999999826e+00 -2.950171438187752446e-02
3.614399999999999835e+01 -5.650299999999999656e+00 -8.159999999999999476e-01 1.346847999999999956e+01 -2.537231649267655542e-01
3.614699999999999847e+01 -6.862000000000000099e+00 -4.235999999999999766e+00 2.809219000000000133e+00 -2.522117437014380070e-01
3.614699999999999847e+01 -5.312000000000000277e+00 -4.235999999999999766e+00 2.251577999999999946e+01 -2.549441763459917576e-01
3.615599999999999881e+01 -9.040000000000000258e-01 3.667499999999999716e+01 2.081170000000000186e+00 -2.836874625298059227e-01
3.615599999999999881e+01 1.322300000000000031e+00 3.959999999999999964e+00 -7.841255000000000308e+00 -1.665264200326075361e-01
3.615599999999999881e+01 2.261699999999999822e+00 3.959999999999999964e+00 -1.385192999999999941e+01 -1.601957950991491908e-01
3.615899999999999892e+01 -2.555399999999999849e+01 2.209799999999999898e+01 2.586296000000000150e-01 -1.291701609691117691e-01
3.616400000000000148e+01 -1.692599999999999838e+01 3.392300000000000182e+01 3.015639999999999876e+00 2.959660478048175419e-02
3.616799999999999926e+01 -8.462400000000000588e+00 3.990200000000000102e+01 -3.358905000000000030e+01 -3.789826717035882364e-01
3.617799999999999727e+01 -5.240400000000000169e+00 7.879800000000000137e-01 -7.010354999999999670e+00 -2.702932700821683021e-01
3.618099999999999739e+01 -2.786299999999999955e+01 1.942000000000000171e+01 -2.973355000000000192e+00 -1.256480108576353560e-01
3.618299999999999983e+01 3.939999999999999947e+00 3.462800000000000011e+01 -2.667904000000000053e+00 -2.495928873212030774e-01
3.618500000000000227e+01 8.348100000000000520e+00 2.595799999999999841e+01 1.380784000000000011e+00 -2.188133707230802139e-01
3.618500000000000227e+01 8.483999999999999986e+00 2.769900000000000162e+01 8.592492000000000019e+00 -2.183145931808207207e-01
3.618500000000000227e+01 8.602000000000000313e+00 2.685200000000000031e+01 4.193176000000000236e+00 -2.181053397366476965e-01
3.619200000000000017e+01 -1.819099999999999939e+00 2.463999999999999968e+00 -6.746615000000000251e+00 -7.852699582213877594e-02
3.619299999999999784e+01 5.360699999999999577e+00 3.409599999999999653e+01 -1.028397000000000006e+01 -2.718519323049909397e-01
3.619800000000000040e+01 -1.226900000000000013e+01 4.135399999999999920e+01 3.535814999999999930e+00 -3.749181189009496151e-01
3.620400000000000063e+01 -1.131300000000000061e+01 4.128900000000000148e+01 2.978275000000000006e+00 -3.734499745219880262e-01
3.621300000000000097e+01 -5.268200000000000216e+00 -1.598300000000000054e+00 2.985432000000000130e+01 -2.551218747973099665e-01
3.621399999999999864e+01 -7.100299999999999834e+00 -5.726000000000000187e-03 5.376470000000000304e+00 9.974742192948439501e-02
3.622099999999999653e+01 -1.715700000000000003e+01 3.315200000000000102e+01 1.274060000000000059e+01 -1.716787508492520209e-01
3.622500000000000142e+01 -1.859499999999999931e+00 1.782499999999999973e+00 -2.327217999999999787e+00 -3.050214712260096439e-01
3.622599999999999909e+01 -1.882199999999999918e+01 3.320500000000000007e+00 1.104757999999999996e+01 -1.952581146374291754e-01
3.623100000000000165e+01 -1.981400000000000006e+01 4.149099999999999788e+00 3.500627000000000066e+01 -2.103465781896848019e-01
3.623499999999999943e+01 -2.329599999999999937e+01 2.577899999999999991e+01 -9.070541999999999661e+00 -1.184595447644098687e-01
3.623599999999999710e+01 1.604000000000000092e+00 3.499600000000000222e+01 1.208178999999999981e+01 -2.475984509488254326e-01
3.624600000000000222e+01 -1.325000000000000000e+01 4.140999999999999659e+01 -2.071598999999999968e+00 -3.768508197642276292e-01
3.624699999999999989e+01 -1.823499999999999899e+00 3.596400000000000041e+00 -3.275535000000000085e+00 -9.769007139119181837e-02
3.624699999999999989e+01 -1.823499999999999899e+00 4.461700000000000443e+00 -3.121011999999999897e+00 2.430404200358938019e-02
3.625200000000000244e+01 -2.676200000000000045e+01 2.350900000000000034e+01 -1.254027999999999921e+01 -1.334058040619365282e-01
3.625600000000000023e+01 -2.160200000000000031e+01 5.430100000000000371e+00 2.231139999999999901e+00 -2.282906307167459070e-01
3.625699999999999790e+01 -6.915300000000000225e+00 1.018000000000000016e+00 3.256307000000000063e+00 6.840043943818366334e-02
3.625800000000000267e+01 6.179800000000000182e+00 2.415200000000000102e+01 -7.447251999999999761e+00 -2.286616573907093442e-01
3.625900000000000034e+01 7.649000000000000021e+00 2.964199999999999946e+01 3.513166999999999818e-01 -3.124880607422039769e-01
3.626400000000000290e+01 -2.491799999999999926e+01 1.691100000000000136e+01 1.508558000000000021e+01 9.221229656205150171e-02
3.626500000000000057e+01 -3.696000000000000174e+00 3.988799999999999812e+01 -4.565438000000000329e+01 -2.983761534091154410e-01
3.626500000000000057e+01 -2.176000000000000156e+00 3.988799999999999812e+01 -5.594368000000000052e+01 -2.996275191516973302e-01
3.627199999999999847e+01 -6.726300000000000168e+00 3.969400000000000261e+01 7.236640999999999657e+00 -2.826738225451662645e-01
3.627199999999999847e+01 -5.105699999999999683e+00 3.969400000000000261e+01 -5.248108000000000217e+00 -2.955585722833600770e-01
3.627700000000000102e+01 -1.520800000000000018e+01 2.436700000000000088e+00 5.517591999999999608e+00 -3.384909555817792182e-01
3.627900000000000347e+01 -2.107400000000000162e+01 4.966700000000000337e+00 4.296316000000000024e+00 -2.288213522172862502e-01
3.628199999999999648e+01 -1.232799999999999940e+01 3.437300000000000022e+00 2.288155999999999857e+00 1.973806900872640546e-01
3.628300000000000125e+01 -6.908400000000000096e-01 5.219899999999999984e+00 -3.885470000000000201e+00 -1.878051987487117935e-01
3.629599999999999937e+01 -1.055599999999999916e+01 2.733900000000000219e+00 4.154108000000000106e-02 -1.329172043858447838e-01
3.629999999999999716e+01 -2.378500000000000014e+01 1.142800000000000082e+01 9.664951999999999543e+00 -7.032577329254631471e-02
3.630299999999999727e+01 7.183500000000000441e+00 2.508899999999999864e+01 1.362224000000000101e+00 -2.240161772125336126e-01
3.630400000000000205e+01 -1.646099999999999852e+01 1.331700000000000017e+01 -3.515464000000000144e+00 -9.728720521913179764e-02
3.630400000000000205e+01 -1.646099999999999852e+01 1.558200000000000074e+01 -7.014624000000000414e-01 2.106436200778534218e-01
3.630400000000000205e+01 -1.506099999999999994e+01 1.331700000000000017e+01 -1.270644000000000062e+01 8.484166726821905369e-02
3.630400000000000205e+01 -1.506099999999999994e+01 1.558200000000000074e+01 3.304901999999999784e+00 2.126654671491381987e-01
3.630700000000000216e+01 5.029700000000000060e+00 1.832900000000000063e+01 1.065351000000000070e+01 -1.654447361086295309e-01
3.630799999999999983e+01 -2.378600000000000136e+01 6.229000000000000092e+00 -7.907640999999999920e+00 -7.720986537178525615e-03
3.631099999999999994e+01 -1.907999999999999829e+01 4.091400000000000148e+00 2.006418999999999997e+01 -1.976922356061134589e-01
3.631499999999999773e+01 -7.218700000000000117e+00 1.718099999999999961e+00 -3.039115000000000011e-01 2.763636250308744088e-02
3.631499999999999773e+01 -2.709100000000000108e+01 2.426899999999999835e+01 -1.185258999999999929e+01 -1.374142413083172809e-01
3.631700000000000017e+01 -2.904200000000000159e+01 1.726800000000000068e+01 -6.182590000000000252e+00 -1.366830785946244187e-01
3.631700000000000017e+01 -2.904200000000000159e+01 1.881800000000000139e+01 -1.765422999999999831e+01 -1.327110236732308435e-01
3.632099999999999795e+01 -1.658299999999999841e+01 1.515900000000000025e+00 2.064824000000000215e+00 -3.487250796862545466e-01
3.632399999999999807e+01 -1.685300000000000153e+01 4.009499999999999886e+01 1.063612000000000002e+00 2.484233154628943258e-02
3.633100000000000307e+01 -5.898600000000000065e+00 9.100200000000000511e-01 -4.790993000000000279e+00 7.957580697894831023e-02
3.634199999999999875e+01 5.459900000000000198e+00 9.085900000000000531e+00 6.277543999999999791e+00 -1.141707860758002513e-01
3.634700000000000131e+01 -1.185399999999999920e+01 4.205400000000000205e+01 2.157045999999999797e+00 -3.739689047091541152e-01
3.636299999999999955e+01 -7.656399999999999650e+00 2.315999999999999837e+00 2.473064000000000096e-01 1.014979699586102679e-01
3.636599999999999966e+01 -2.661499999999999844e+01 2.535300000000000153e+01 -2.194164999999999921e+01 -1.420132861898082965e-01
3.636800000000000210e+01 -2.355099999999999838e+01 8.974999999999999645e+00 2.429431000000000118e+00 -3.012680826859906284e-03
3.637100000000000222e+01 -2.411499999999999844e+01 6.988999999999999879e+00 -6.781304000000000443e+00 -1.039323490739243842e-02
3.637599999999999767e+01 -2.794000000000000128e+01 1.705199999999999960e+01 -2.131562999999999874e+00 -3.908980731123508356e-02
3.637700000000000244e+01 -1.479100000000000037e+01 4.124399999999999977e+01 1.668255999999999872e+01 -1.278022876675883046e-01
3.638199999999999790e+01 -2.937800000000000011e+01 1.804299999999999926e+01 -4.882117000000000040e+00 -1.356903823769290696e-01
3.639000000000000057e+01 -1.785999999999999943e+01 3.961200000000000188e+01 -1.223025999999999947e+01 -3.603151667912389642e-03
3.639200000000000301e+01 -1.935000000000000142e+01 3.216599999999999682e+01 5.975973999999999897e+00 -2.096951875895179673e-01
3.639699999999999847e+01 -1.464899999999999913e+01 3.630100000000000104e+00 9.075627000000000777e+00 -3.330654456568159505e-01
3.639800000000000324e+01 -6.543999999999999595e+00 -8.159999999999999476e-01 1.498968999999999951e+01 1.076341788573539626e-01
3.640200000000000102e+01 4.246500000000000163e+00 5.392299999999999649e+00 -2.469994999999999941e+00 -2.883559383218095573e-01
3.640400000000000347e+01 5.341599999999999682e+00 1.009999999999999964e+01 1.292197999999999958e+00 -1.255877961910850382e-01
3.640899999999999892e+01 -1.601099999999999923e+01 4.075600000000000023e+01 6.836661999999999573e+00 -1.699659858509322830e-01
3.641100000000000136e+01 -2.007600000000000051e+01 3.187300000000000111e+01 5.118632999999999988e+00 -1.916449051079193167e-01
3.641100000000000136e+01 4.748000000000000220e+00 1.907100000000000151e+01 1.845821000000000112e+01 -2.706818571504381321e-01
3.641100000000000136e+01 4.748000000000000220e+00 1.993599999999999994e+01 2.861895000000000167e+01 -2.820389289499251606e-01
3.641599999999999682e+01 5.428099999999999703e+00 1.750300000000000011e+01 5.142630999999999730e+00 -1.626406962630252973e-01
3.641700000000000159e+01 -3.177999999999999936e+00 1.278899999999999926e+00 7.284442000000000347e-03 -2.989279672199908200e-01
3.642000000000000171e+01 -2.427899999999999991e+01 1.209500000000000064e+01 -1.555787999999999893e-01 -7.441373013846788731e-02
3.643399999999999750e+01 4.225200000000000067e+00 1.553700000000000081e+01 1.777740000000000098e+00 -1.435205805695850545e-01
3.643800000000000239e+01 -2.542800000000000082e+01 2.676899999999999835e+01 -2.011852000000000018e+01 -1.358700371225071701e-01
3.643800000000000239e+01 -2.448799999999999955e+01 2.676899999999999835e+01 -6.542614000000000374e+01 -2.208801962890298287e-01
3.643900000000000006e+01 -2.367200000000000060e+01 1.529800000000000004e+01 -3.194541000000000075e+00 -2.054926085093852425e-02
3.643900000000000006e+01 -2.367200000000000060e+01 1.616400000000000148e+01 2.326883000000000123e+01 7.179846549583565607e-02
3.644100000000000250e+01 -1.044800000000000040e+01 4.114399999999999835e+01 1.591450000000000031e+00 -2.582891168218641176e-01
3.644299999999999784e+01 5.953899999999999970e+00 3.367000000000000171e+01 -2.670731999999999928e+01 -2.783013305308631447e-01
3.644299999999999784e+01 -7.341000000000000192e+00 -3.460999999999999854e+00 -1.964976999999999974e+00 -2.526349640625955018e-01
3.644299999999999784e+01 -7.341000000000000192e+00 -2.503000000000000114e+00 -1.344932999999999979e+01 -2.925449051297663444e-02
3.644299999999999784e+01 -4.833000000000000185e+00 -3.460999999999999854e+00 4.165562999999999683e+00 -2.581163193884853935e-01
3.644299999999999784e+01 -4.833000000000000185e+00 -2.503000000000000114e+00 -1.007516999999999996e+01 -2.587232270149193436e-01
3.644700000000000273e+01 -2.349800000000000111e+01 9.931400000000000006e+00 1.854650000000000176e+01 -6.443858343863799638e-03
3.645400000000000063e+01 -1.353800000000000026e+01 4.523799999999999599e+00 4.444777000000000200e+00 -1.278423604640456790e-01
3.645400000000000063e+01 -8.926199999999999690e+00 2.733900000000000219e+00 6.576581000000000232e-01 -1.913262193021320334e-01
3.645900000000000318e+01 -2.039999999999999869e-01 3.661699999999999733e+01 1.143237000000000059e+01 -2.839287209336111562e-01
3.645900000000000318e+01 -2.262500000000000000e+01 5.953000000000000291e+00 -1.481170000000000098e+00 -2.143705716264973637e-01
3.646900000000000119e+01 1.987800000000000122e-01 4.950999999999999623e+00 -3.902716999999999992e+00 -1.733043854789152460e-01
3.647099999999999653e+01 2.450699999999999878e+00 1.287899999999999956e+01 -1.260087000000000046e+01 -1.469524516781249290e-01
3.647099999999999653e+01 2.659800000000000164e+00 1.214300000000000068e+01 1.031306000000000012e+01 -1.619499752219649147e-01
3.647099999999999653e+01 3.850699999999999790e+00 1.147899999999999920e+01 -5.104797999999999725e+00 -1.442039476964210587e-01
3.647299999999999898e+01 -2.134499999999999886e+01 2.980600000000000094e+01 -1.865618999999999916e+00 -5.257078363882580069e-02
3.647299999999999898e+01 -2.134499999999999886e+01 3.085600000000000165e+01 -1.916927000000000048e+00 -1.804962467556953942e-01
3.648299999999999699e+01 -6.086999999999999744e+00 -4.300500000000000433e+00 2.217882000000000176e+01 -2.556551445252011612e-01
