6.640099999999999625e+01 1.599499999999999922e+01 1.780199999999999960e+01 -5.398892000000000024e+00 -2.154210956807704191e-01
6.640099999999999625e+01 1.608599999999999852e+01 1.938500000000000156e+01 6.797077999999999953e+00 -2.163990211647434381e-01
6.640099999999999625e+01 1.620400000000000063e+01 1.853800000000000026e+01 6.296998999999999791e-01 -2.158479924428166608e-01
6.640600000000000591e+01 8.020500000000000185e+00 2.689499999999999957e+01 6.398359000000000130e+00 -2.155284522708996175e-01
6.640600000000000591e+01 8.885699999999999932e+00 2.689499999999999957e+01 1.032083000000000084e+01 -2.152245485847964768e-01
6.640900000000000603e+01 3.967699999999999783e+00 1.677400000000000091e+01 -2.579164000000000012e+00 -2.160602989914449101e-01
6.640900000000000603e+01 2.256500000000000128e+01 2.066600000000000037e+01 -5.199145999999999823e+00 -3.009176476824984015e-01
6.641299999999999670e+01 2.166499999999999915e+01 2.202899999999999991e+01 1.194060999999999950e+01 -2.982247670291020003e-01
6.641700000000000159e+01 2.100600000000000023e+01 2.255000000000000071e+01 1.996601000000000070e+01 -2.972311169212637494e-01
6.641700000000000159e+01 2.187099999999999866e+01 2.255000000000000071e+01 4.886199999999999655e+00 -2.971650595128312311e-01
6.641800000000000637e+01 3.821899999999999853e+00 1.573700000000000010e+01 -3.047696999999999878e+00 -2.158000618667956783e-01
6.641899999999999693e+01 2.256400000000000006e+01 1.503200000000000003e+01 -1.570144999999999902e+00 -2.999267796810640707e-01
6.643000000000000682e+01 1.797800000000000153e+01 2.312800000000000011e+01 3.374741000000000213e+00 -2.140921966671798793e-01
6.643500000000000227e+01 4.195199999999999818e+00 1.431199999999999939e+01 -3.014320000000000110e+00 -2.154197650811062181e-01
6.644700000000000273e+01 5.679299999999999571e+00 2.671699999999999875e+01 9.994960000000000511e-01 -2.162932063509103442e-01
6.644799999999999329e+01 6.507699999999999818e+00 1.856299999999999883e+01 2.387105000000000032e+00 -2.165819686516262388e-01
6.645199999999999818e+01 7.661599999999999966e+00 2.765200000000000102e+01 2.483452000000000215e+00 -2.150681904533829625e-01
6.645300000000000296e+01 4.068699999999999761e+00 1.490399999999999991e+01 -3.025520000000000209e+00 -2.155850850079662762e-01
6.646399999999999864e+01 7.423700000000000188e+00 2.220100000000000051e+01 8.417643999999999238e+00 -2.175388180061480770e-01
6.646800000000000352e+01 1.017600000000000016e+01 1.886299999999999955e+01 1.403486000000000011e+01 -2.167094297319626661e-01
6.646800000000000352e+01 1.017600000000000016e+01 1.972899999999999920e+01 1.163020000000000032e+01 -2.170158094568866436e-01
6.646800000000000352e+01 1.017600000000000016e+01 2.077899999999999991e+01 2.623230999999999824e+01 -2.173556397057425094e-01
6.646899999999999409e+01 1.360899999999999999e+01 2.468400000000000105e+01 1.962785000000000002e+00 -2.152937739802955053e-01
6.647599999999999909e+01 2.070299999999999940e+01 2.325000000000000000e+01 6.364332000000000100e+00 -2.959805768386203906e-01
6.648600000000000421e+01 9.775900000000000034e+00 2.190200000000000102e+01 3.433939000000000163e+01 -2.176574583252255946e-01
6.648900000000000432e+01 1.880999999999999872e+01 1.281099999999999994e+01 5.124818000000000318e+00 -2.101916463426385939e-01
6.649399999999999977e+01 5.040000000000000036e+00 1.254700000000000060e+01 -2.258661000000000030e+00 -2.148846019864260326e-01
6.649399999999999977e+01 6.740000000000000213e+00 1.254700000000000060e+01 1.286298000000000030e+01 -2.147080703715781580e-01
6.649899999999999523e+01 1.347600000000000087e+01 2.265800000000000125e+01 1.287748999999999988e+01 -2.180586442099438360e-01
6.651800000000000068e+01 6.047699999999999854e+00 2.586700000000000088e+01 3.762577999999999978e+00 -2.168559820135325111e-01
6.651800000000000068e+01 6.047699999999999854e+00 2.756700000000000017e+01 3.302468000000000070e-01 -2.156374276196041939e-01
6.651800000000000068e+01 1.478200000000000003e+01 2.448699999999999832e+01 -1.241639999999999944e+01 -2.147930358463245037e-01
6.652700000000000102e+01 2.357999999999999829e+01 1.627899999999999991e+01 1.845488000000000017e+00 -3.015366014533312766e-01
6.652700000000000102e+01 2.357999999999999829e+01 1.732900000000000063e+01 4.154722999999999722e+00 -3.022259426934927329e-01
6.654000000000000625e+01 1.214199999999999946e+01 2.342099999999999937e+01 1.579602000000000039e+01 -2.176226263849892484e-01
6.654399999999999693e+01 1.007900000000000063e+01 2.260200000000000031e+01 3.853038999999999703e+01 -2.178739708602912550e-01
6.655200000000000671e+01 2.209100000000000108e+01 1.989799999999999969e+01 1.028275999999999968e+01 -3.016340473876911177e-01
6.655200000000000671e+01 2.209100000000000108e+01 2.143400000000000105e+01 2.539747999999999895e+00 -2.995660900628438483e-01
6.655400000000000205e+01 1.042200000000000060e+01 1.801000000000000156e+01 5.451165999999999912e+01 -2.164040594313845212e-01
6.655700000000000216e+01 1.601200000000000045e+01 2.366400000000000148e+01 -5.820884000000000391e+00 -2.151137444508605667e-01
6.655700000000000216e+01 1.827700000000000102e+01 2.366400000000000148e+01 -1.029427000000000092e+00 -2.128020755030306521e-01
6.655700000000000216e+01 1.827700000000000102e+01 2.452899999999999991e+01 -1.159011999999999931e+00 -2.116049419861004421e-01
6.657999999999999829e+01 1.398099999999999987e+01 9.654600000000000293e+00 1.109010999999999969e+00 -2.115554213346968471e-01
6.658799999999999386e+01 1.465300000000000047e+01 1.652100000000000080e+01 -4.729884000000000199e+00 -2.150405575216653431e-01
6.658899999999999864e+01 2.199200000000000088e+01 1.436700000000000088e+01 -2.041812999999999878e+00 -2.991800076954210241e-01
6.659300000000000352e+01 1.714399999999999835e+01 2.290500000000000114e+01 1.370438999999999963e+00 -2.154777542282261538e-01
6.659499999999999886e+01 2.048600000000000065e+01 1.353899999999999970e+01 -5.777622999999999509e-01 -2.976904643277564211e-01
6.659799999999999898e+01 6.983699999999999797e+00 2.143599999999999994e+01 7.784828000000000081e+00 -2.173745186065680346e-01
6.660099999999999909e+01 2.309600000000000009e+01 1.990700000000000003e+01 5.011670000000000291e-01 -3.022349832885404819e-01
6.660099999999999909e+01 2.309600000000000009e+01 2.142500000000000071e+01 -1.661416999999999922e+00 -2.995715738960015861e-01
6.660500000000000398e+01 1.141200000000000081e+01 1.167099999999999937e+01 -1.821071000000000106e+00 -2.134414867668409932e-01
6.661100000000000421e+01 1.693400000000000105e+01 1.164499999999999957e+01 4.655569999999999986e+00 -2.108079721783206184e-01
6.662199999999999989e+01 2.240099999999999980e+01 2.202899999999999991e+01 9.458269999999999733e-01 -2.983761354254257925e-01
6.662500000000000000e+01 1.554199999999999982e+01 2.102599999999999980e+01 2.959226999999999830e+00 -2.174617285053112303e-01
6.663599999999999568e+01 2.336400000000000077e+01 2.066600000000000037e+01 -5.815133999999999581e+00 -3.012486330610001373e-01
6.663700000000000045e+01 1.947200000000000131e+01 2.601200000000000045e+01 -2.261229000000000156e+00 -2.088346429945357186e-01
6.663700000000000045e+01 8.452600000000000335e+00 2.216600000000000037e+01 1.753870999999999825e+01 -2.176718821534189829e-01
6.664600000000000080e+01 7.337699999999999889e+00 1.296299999999999919e+01 1.451093999999999973e+01 -2.147976386208849675e-01
6.664600000000000080e+01 8.737700000000000244e+00 1.296299999999999919e+01 -2.168502000000000152e+00 -2.145951601048225188e-01
6.664799999999999613e+01 1.271599999999999930e+01 2.634199999999999875e+01 1.050342999999999982e+01 -2.139396094612444066e-01
6.665000000000000568e+01 1.221100000000000030e+01 1.587599999999999945e+01 9.072786999999999935e+00 -2.152629083214821770e-01
6.665999999999999659e+01 1.111200000000000010e+01 2.795499999999999829e+01 7.973644000000000176e+00 -2.132841375935911610e-01
6.666500000000000625e+01 6.562999999999999723e+00 1.960800000000000054e+01 -1.402866999999999997e+01 -2.169205223156912277e-01
6.667100000000000648e+01 2.076200000000000045e+01 2.419300000000000139e+01 -1.321504999999999930e+00 -2.943017503657591183e-01
6.667100000000000648e+01 1.247799999999999976e+01 1.056400000000000006e+01 1.065960999999999936e+00 -2.126025196304802412e-01
6.667100000000000648e+01 1.536999999999999922e+01 1.056400000000000006e+01 7.521246999999999794e+00 -2.112184204556341593e-01
6.668899999999999295e+01 8.520500000000000185e+00 2.333599999999999852e+01 3.275533000000000072e+01 -2.179401075268991295e-01
6.668899999999999295e+01 8.520500000000000185e+00 2.420100000000000051e+01 2.884259000000000128e+01 -2.178358655958518852e-01
6.669100000000000250e+01 1.238799999999999990e+01 2.716300000000000026e+01 5.804730000000000167e+00 -2.132696579287384486e-01
6.669299999999999784e+01 8.485799999999999343e+00 2.764799999999999969e+01 5.182878999999999792e+00 -2.148597132204345395e-01
6.669400000000000261e+01 6.685399999999999565e+00 2.042399999999999949e+01 -9.956239000000000061e+00 -2.171415572877923306e-01
6.669599999999999795e+01 7.272999999999999687e+00 2.521300000000000097e+01 7.453397999999999968e+00 -2.172088815950514729e-01
6.671699999999999875e+01 9.050399999999999778e+00 2.263700000000000045e+01 3.482538000000000267e+01 -2.178565418319289848e-01
6.673399999999999466e+01 4.493000000000000327e+00 1.762399999999999878e+01 5.777510999999999619e+00 -2.163471870343315617e-01
6.673399999999999466e+01 1.082699999999999996e+01 1.723300000000000054e+01 1.665897999999999968e+01 -2.161129368132253536e-01
6.673600000000000421e+01 1.317600000000000016e+01 2.538400000000000034e+01 7.643550000000000288e+00 -2.148336809511847689e-01
6.673600000000000421e+01 1.404800000000000004e+01 2.187199999999999989e+01 5.589904999999999902e+00 -2.179262868383427532e-01
6.674800000000000466e+01 1.135200000000000031e+01 2.342399999999999949e+01 2.325505000000000067e+01 -2.180103857373358323e-01
6.675100000000000477e+01 1.328299999999999947e+01 9.391500000000000625e+00 -2.197301000000000115e-02 -2.117878250325370693e-01
6.675799999999999557e+01 2.320599999999999952e+01 1.819399999999999906e+01 6.274066000000000365e+00 -3.027417530411194990e-01
6.676999999999999602e+01 1.824200000000000088e+01 2.513200000000000145e+01 -1.067539999999999933e+00 -2.110662206829834187e-01
6.676999999999999602e+01 2.070200000000000173e+01 2.513200000000000145e+01 -9.725547999999999860e+00 -2.084514855605449912e-01
6.677100000000000080e+01 1.191000000000000014e+01 2.795499999999999829e+01 8.757355999999999474e-01 -2.128115090409243848e-01
6.677200000000000557e+01 1.430899999999999928e+01 2.462500000000000000e+01 -2.365018000000000065e+00 -2.151055957694036069e-01
6.678700000000000614e+01 5.408999999999999808e+00 2.559799999999999898e+01 2.485921000000000103e-01 -1.396407873803939825e-01
6.681199999999999761e+01 1.032300000000000040e+01 2.791799999999999926e+01 1.331302999999999948e+01 -2.138277901209070797e-01
6.681799999999999784e+01 2.196799999999999997e+01 2.295899999999999963e+01 1.538568000000000069e+01 -2.965841742545445858e-01
6.682699999999999818e+01 1.185299999999999976e+01 1.630799999999999983e+01 -8.324576999999999671e+00 -2.155942100252928595e-01
6.682699999999999818e+01 1.304400000000000048e+01 1.564400000000000013e+01 5.312458999999999598e+00 -2.150147657518678146e-01
6.683400000000000318e+01 1.938100000000000023e+01 1.364400000000000013e+01 1.270799000000000056e+01 -2.103232640752681903e-01
6.684699999999999420e+01 4.809300000000000352e+00 2.647400000000000020e+01 -3.807796000000000181e+00 -1.397028890821358782e-01
6.684699999999999420e+01 1.554199999999999982e+01 2.442399999999999949e+01 -2.851444000000000045e+01 -2.145016036796865977e-01
6.685200000000000387e+01 2.305499999999999972e+01 1.542900000000000027e+01 3.256280999999999981e+00 -3.010016917380308188e-01
6.685800000000000409e+01 9.428100000000000591e+00 2.772299999999999898e+01 1.927994999999999948e+01 -2.144628829197055830e-01
6.685800000000000409e+01 2.146000000000000085e+01 2.328500000000000014e+01 1.603227000000000046e+01 -2.960237045112535936e-01
6.687500000000000000e+01 6.507699999999999818e+00 2.819300000000000139e+01 -2.423010000000000108e+00 -2.151866179562121340e-01
6.687600000000000477e+01 2.329500000000000171e+01 2.202899999999999991e+01 -1.716517000000000071e+00 -2.984209958718261335e-01
6.687999999999999545e+01 7.080700000000000216e+00 2.844500000000000028e+01 -3.058520000000000127e+00 -2.148206992895101697e-01
6.687999999999999545e+01 8.131299999999999528e+00 2.844500000000000028e+01 9.968503999999999365e+00 -2.144295348820247915e-01
6.688899999999999579e+01 9.625999999999999446e+00 1.197600000000000087e+01 -5.227841999999999878e+00 -2.140842035333634930e-01
6.690500000000000114e+01 7.948999999999999844e+00 2.146600000000000108e+01 3.419776999999999845e+00 -2.175500743438254503e-01
6.690500000000000114e+01 8.885199999999999321e+00 2.146600000000000108e+01 1.683974999999999866e+01 -2.176253730835466249e-01
6.691100000000000136e+01 4.501999999999999780e+00 2.566600000000000037e+01 -6.888317999999999941e+00 -1.396824494308307463e-01
6.691400000000000148e+01 9.170400000000000773e+00 1.226299999999999990e+01 -5.221862999999999921e+00 -2.142968059162033700e-01
6.692499999999999716e+01 5.166199999999999903e+00 2.732300000000000040e+01 -1.238015000000000088e+00 -2.161507859675839693e-01
6.692700000000000671e+01 1.154499999999999993e+01 2.865500000000000114e+01 -4.904466000000000214e+00 -2.124698050918484848e-01
6.693399999999999750e+01 4.381000000000000227e+00 1.295700000000000074e+01 -3.967299000000000131e+00 -2.151185564752657320e-01
6.694599999999999795e+01 2.028099999999999881e+01 2.597200000000000131e+01 -6.746533999999999587e+00 -2.079650531254403634e-01
6.694700000000000273e+01 2.292599999999999838e+01 2.287900000000000134e+01 8.199040999999999357e+00 -2.965347262508122861e-01
6.695000000000000284e+01 8.037699999999999179e+00 1.302100000000000080e+01 -4.923504000000000325e+00 -2.147800862489059326e-01
6.695699999999999363e+01 8.087899999999999423e+00 2.490099999999999980e+01 1.917376000000000147e+01 -2.174363640541326359e-01
6.696299999999999386e+01 5.773600000000000065e+00 1.216600000000000037e+01 -2.199591999999999992e+00 -2.147736815097957275e-01
6.697199999999999420e+01 1.284200000000000053e+01 2.315299999999999869e+01 1.529578000000000060e+01 -2.180222833508893010e-01
6.698499999999999943e+01 9.554000000000000270e+00 2.333699999999999974e+01 2.764164999999999850e+01 -2.181487371706656297e-01
6.698999999999999488e+01 1.671199999999999974e+01 2.339600000000000080e+01 -7.606461999999999612e+00 -2.153177743063716676e-01
6.698999999999999488e+01 1.757700000000000173e+01 2.339600000000000080e+01 -3.213151000000000201e-01 -2.144663164635149111e-01
6.699299999999999500e+01 9.326299999999999812e+00 2.110399999999999920e+01 2.418890999999999991e+01 -2.175905609335477275e-01
6.699899999999999523e+01 6.573000000000000398e+00 2.527100000000000080e+01 7.132832999999999757e+00 -1.395925714872491841e-01
6.700000000000000000e+01 1.079100000000000037e+01 2.344399999999999906e+01 1.959153999999999840e+01 -2.183013477699037863e-01
6.700199999999999534e+01 1.977100000000000080e+01 2.641000000000000014e+01 -3.613770000000000149e+00 -2.081231128695835153e-01
6.701399999999999579e+01 2.245700000000000074e+01 1.485699999999999932e+01 5.576898999999999607e-01 -3.002973619693239948e-01
6.702100000000000080e+01 1.416200000000000081e+01 1.612500000000000000e+01 -3.202015999999999751e-01 -2.150742854313417995e-01
6.703799999999999670e+01 1.190300000000000047e+01 1.127399999999999913e+01 -4.569874999999999909e-01 -2.131684214283663115e-01
6.704099999999999682e+01 1.693199999999999861e+01 1.195599999999999952e+01 1.590494999999999948e+01 -2.109812685400308807e-01
6.704399999999999693e+01 1.589799999999999969e+01 1.124600000000000044e+01 7.907446000000000197e+00 -2.112517937139024027e-01
6.704600000000000648e+01 3.991000000000000103e+00 1.388199999999999967e+01 -4.050817000000000334e+00 -2.154124332202611569e-01
6.704800000000000182e+01 1.787999999999999901e+01 2.409600000000000009e+01 -1.448504000000000014e+00 -2.127959110901698203e-01
6.705700000000000216e+01 1.484200000000000053e+01 2.129299999999999926e+01 3.624242000000000186e+00 -2.178584477043236656e-01
6.705800000000000693e+01 1.518599999999999994e+01 1.695200000000000173e+01 -9.443728999999999374e+00 -2.153404150853686916e-01
6.706000000000000227e+01 1.871199999999999974e+01 2.589199999999999946e+01 -1.494176000000000037e+01 -2.099085187813593267e-01
6.706100000000000705e+01 1.071100000000000030e+01 2.871399999999999864e+01 -1.377547000000000077e+00 -2.129766146592776965e-01
6.708199999999999363e+01 1.410399999999999920e+01 9.382899999999999352e+00 2.163225000000000176e+00 -2.113987378617336876e-01
6.709699999999999420e+01 1.243800000000000061e+01 2.775300000000000011e+01 9.857552000000000536e-01 -2.127743548739496338e-01
6.710099999999999909e+01 1.581900000000000084e+01 1.981800000000000139e+01 2.384939000000000142e+00 -2.170640814117189843e-01
6.710500000000000398e+01 2.104200000000000159e+01 1.416999999999999993e+01 -3.215777000000000108e+00 -2.988733620616383924e-01
6.711100000000000421e+01 9.792699999999999960e+00 2.029700000000000060e+01 1.276281999999999961e+01 -2.174182934751459073e-01
6.711100000000000421e+01 2.112099999999999866e+01 2.413599999999999923e+01 -6.224490000000000300e+00 -2.944634511485532125e-01
6.711599999999999966e+01 1.514499999999999957e+01 2.059299999999999997e+01 2.327519000000000116e+00 -2.175548726951426204e-01
6.712999999999999545e+01 2.158200000000000074e+01 2.709600000000000009e+01 -1.244229000000000029e+00 -2.047510939883257497e-01
6.713700000000000045e+01 1.009500000000000064e+01 1.828000000000000114e+01 4.902320999999999884e+01 -2.167130214157738100e-01
6.713800000000000523e+01 3.702900000000000080e+00 2.566600000000000037e+01 -1.236021000000000036e+00 -1.397202385158874405e-01
6.715300000000000580e+01 3.801400000000000112e+00 1.533699999999999974e+01 -4.572109000000000201e+00 -2.158268167762502632e-01
6.715399999999999636e+01 1.234399999999999942e+01 2.865500000000000114e+01 -1.350500000000000034e+00 -2.122019281395984280e-01
6.715500000000000114e+01 1.632000000000000028e+01 1.780799999999999983e+01 -6.806500999999999912e+00 -2.156568218502449008e-01
6.715500000000000114e+01 1.632000000000000028e+01 1.867399999999999949e+01 3.871912000000000020e+00 -2.162744584166764739e-01
6.716400000000000148e+01 1.120899999999999963e+01 1.690399999999999991e+01 1.483516000000000057e+00 -2.160693610584886737e-01
6.716800000000000637e+01 1.645700000000000074e+01 2.408599999999999852e+01 -2.053153000000000006e+01 -2.144669268794759387e-01
6.716899999999999693e+01 6.287499999999999645e+00 2.853699999999999903e+01 -1.437575000000000047e+00 -2.151067134337956988e-01
6.716899999999999693e+01 2.379500000000000171e+01 2.019600000000000151e+01 -6.850550000000000139e+00 -3.032036033174060341e-01
6.716899999999999693e+01 2.379500000000000171e+01 2.113599999999999923e+01 -1.455592000000000041e+01 -3.009107284459483500e-01
6.718600000000000705e+01 1.772400000000000020e+01 2.466199999999999903e+01 -1.100605999999999973e+00 -2.121918855835001894e-01
6.718800000000000239e+01 3.907599999999999962e+00 1.477699999999999925e+01 -4.457225000000000215e+00 -2.156818275046286648e-01
6.719400000000000261e+01 1.320199999999999996e+01 2.584400000000000119e+01 7.937151000000000067e+00 -2.144977736370065335e-01
6.719599999999999795e+01 1.477399999999999913e+01 1.008300000000000018e+01 4.693989000000000078e-01 -2.113422759071738599e-01
6.719899999999999807e+01 1.039899999999999913e+01 1.201600000000000001e+01 -4.651767000000000429e+00 -2.139697609216602570e-01
6.720099999999999341e+01 4.032300000000000217e+00 2.490599999999999881e+01 -7.240043000000000450e-01 5.425226467760198984e-02
6.720099999999999341e+01 4.032300000000000217e+00 2.642599999999999838e+01 -1.528437999999999963e+00 -1.397443951354948866e-01
6.720099999999999341e+01 4.971700000000000230e+00 2.490599999999999881e+01 -2.764098999999999862e-01 -1.396511037078450868e-01
6.720300000000000296e+01 2.140200000000000102e+01 2.626399999999999935e+01 -3.172776999999999958e-01 -2.060133210703314899e-01
6.721699999999999875e+01 1.107499999999999929e+01 2.941499999999999915e+01 -7.953945999999999517e-01 -2.123580257815147476e-01
6.721699999999999875e+01 1.201500000000000057e+01 2.941499999999999915e+01 -1.908944999999999892e+00 -2.119679479249071963e-01
6.722700000000000387e+01 2.074899999999999878e+01 2.688400000000000034e+01 -9.105425000000000324e-01 -2.062886767950686817e-01
6.722799999999999443e+01 7.239899999999999558e+00 2.090500000000000114e+01 -1.488762000000000008e+01 -2.174507708826755314e-01
6.723300000000000409e+01 1.202699999999999925e+01 2.346499999999999986e+01 1.368604999999999983e+01 -2.181008266805202767e-01
6.723600000000000421e+01 4.960700000000000109e+00 1.218399999999999928e+01 -2.529253999999999891e+00 -2.148998764157789565e-01
6.724899999999999523e+01 8.892300000000000537e+00 2.091799999999999926e+01 1.838568000000000069e+01 -2.175944046447215174e-01
6.725100000000000477e+01 1.343099999999999916e+01 2.225199999999999889e+01 1.550196000000000041e+01 -2.183045922187019927e-01
6.725400000000000489e+01 1.036400000000000077e+01 1.770700000000000074e+01 2.600807999999999964e+01 -2.165123614176702183e-01
6.725400000000000489e+01 8.995499999999999829e+00 2.821399999999999864e+01 1.615884000000000142e+01 -2.143867345065377239e-01
6.725400000000000489e+01 9.860799999999999343e+00 2.821399999999999864e+01 6.405857000000000134e+00 -2.139731764945480008e-01
6.725900000000000034e+01 3.642999999999999794e+00 1.624899999999999878e+01 -2.772212999999999816e+00 -2.160830963717596254e-01
6.725900000000000034e+01 3.896900000000000031e+00 1.714300000000000068e+01 -2.169866999999999990e+00 -2.163153895401338789e-01
6.726000000000000512e+01 1.234399999999999942e+01 1.591200000000000081e+01 -1.751870000000000038e+00 -2.154427327459912112e-01
6.726000000000000512e+01 1.374399999999999977e+01 1.591200000000000081e+01 9.269237000000000171e-01 -2.151329320030901382e-01
6.726099999999999568e+01 2.109799999999999898e+01 2.556400000000000006e+01 -4.092699999999999783e+00 -2.074164556676040827e-01
6.726300000000000523e+01 9.719699999999999562e+00 1.918599999999999994e+01 2.069039000000000073e+00 -2.170931393844018620e-01
6.726900000000000546e+01 2.020400000000000063e+01 2.710999999999999943e+01 -6.606908000000000225e-01 -2.068400419540091240e-01
6.727400000000000091e+01 1.307300000000000040e+01 2.680199999999999960e+01 1.708953999999999951e+01 -2.134545273704901436e-01
6.730200000000000671e+01 1.264700000000000024e+01 9.137399999999999523e+00 -1.241238999999999981e+00 -2.120056745692705802e-01
6.730500000000000682e+01 5.256800000000000139e+00 1.805900000000000105e+01 1.367741000000000007e+01 -2.166082441214581544e-01
6.730500000000000682e+01 1.255300000000000082e+01 8.192000000000000171e+00 -4.436710999999999849e-01 -2.117015820280629956e-01
6.730599999999999739e+01 1.835800000000000054e+01 1.353400000000000070e+01 1.913482000000000127e+01 -2.110371366537893145e-01
6.730800000000000693e+01 1.736499999999999844e+01 1.265600000000000058e+01 4.388821999999999690e+01 -2.111304378372863000e-01
6.731699999999999307e+01 1.359099999999999930e+01 2.537800000000000011e+01 1.444871999999999934e+00 -2.149121221984817143e-01
6.731699999999999307e+01 1.478200000000000003e+01 2.471399999999999864e+01 -2.227764000000000166e+01 -2.149961801648070936e-01
6.731699999999999307e+01 2.243299999999999983e+01 2.350600000000000023e+01 1.674093999999999838e+01 -2.954587115517890994e-01
6.732800000000000296e+01 1.914499999999999957e+01 2.659199999999999875e+01 -4.677836000000000105e+00 -2.087623728605079720e-01
6.732800000000000296e+01 1.965500000000000114e+01 1.425600000000000023e+01 7.066104000000000163e+00 -2.105839737833062331e-01
6.733899999999999864e+01 4.833499999999999908e+00 2.740200000000000102e+01 -2.767040999999999862e+00 -1.397707486343517380e-01
6.734600000000000364e+01 7.605100000000000193e+00 1.252999999999999936e+01 -6.276875999999999678e+00 -2.147353337909223558e-01
6.734600000000000364e+01 8.470399999999999707e+00 1.252999999999999936e+01 -9.735255000000000436e+00 -2.146040778784107650e-01
6.735599999999999454e+01 6.780000000000000249e+00 1.226600000000000001e+01 -2.731943999999999928e+00 -2.147539781109057966e-01
6.735699999999999932e+01 2.238100000000000023e+01 2.709600000000000009e+01 -7.064528000000000141e+00 -1.701469055399678354e-01
6.736100000000000421e+01 7.605999999999999872e+00 2.904100000000000037e+01 -2.976242000000000054e+00 -2.143456828866142083e-01
6.736400000000000432e+01 1.394800000000000040e+01 2.132300000000000040e+01 1.107854999999999990e+01 -2.180443935355461937e-01
6.736700000000000443e+01 2.094000000000000128e+01 2.794800000000000040e+01 -4.899161000000000321e+00 -2.049272560384426678e-01
6.736799999999999500e+01 5.722999999999999865e+00 2.809199999999999875e+01 -4.180322999999999567e+00 -2.156435588597187536e-01
6.737099999999999511e+01 1.241999999999999993e+01 1.026099999999999923e+01 2.320160000000000000e+00 -2.125679904543800736e-01
6.737699999999999534e+01 2.365099999999999980e+01 1.591000000000000014e+01 9.651538999999999646e+00 -3.024893738531937992e-01
6.737699999999999534e+01 2.365099999999999980e+01 1.769800000000000040e+01 2.910364999999999824e+01 -3.039303928907799990e-01
6.737699999999999534e+01 2.390500000000000114e+01 1.680399999999999849e+01 4.533954999999999735e+00 -3.034784130733184648e-01
6.738100000000000023e+01 9.050399999999999778e+00 2.382799999999999940e+01 1.762891000000000119e+01 -2.183248303886831665e-01
6.738299999999999557e+01 8.267799999999999372e+00 2.093799999999999883e+01 2.989217000000000013e+01 -2.175934595760909696e-01
6.738899999999999579e+01 7.387900000000000134e+00 2.516900000000000048e+01 9.047442000000000206e+00 -1.395776964528614994e-01
6.738899999999999579e+01 8.578799999999999315e+00 2.450499999999999901e+01 1.974616999999999933e+01 -2.179208608688097681e-01
6.739499999999999602e+01 3.677700000000000191e+00 1.341799999999999926e+01 -3.790268999999999888e+00 -2.153551285657024916e-01
6.739600000000000080e+01 1.035800000000000054e+01 2.393499999999999872e+01 1.412124999999999986e+01 -2.181271131588365386e-01
6.742000000000000171e+01 2.205199999999999960e+01 2.633599999999999852e+01 -7.562942999999999749e-01 -1.709736980692704578e-01
6.742000000000000171e+01 2.205199999999999960e+01 2.785600000000000165e+01 -1.122771000000000008e+01 -1.697322855013943532e-01
6.742199999999999704e+01 1.588700000000000045e+01 1.710800000000000054e+01 -2.364716999999999913e+01 -2.153883384482403185e-01
6.742199999999999704e+01 1.588700000000000045e+01 1.937399999999999878e+01 1.061970000000000081e+00 -2.169641025071543938e-01
6.742499999999999716e+01 6.853299999999999947e+00 2.007799999999999940e+01 -2.607034000000000074e+00 -2.172659924766145445e-01
6.745600000000000307e+01 1.310999999999999943e+01 2.259900000000000020e+01 1.341624999999999979e+01 -2.184970237352686639e-01
6.745999999999999375e+01 1.923900000000000077e+01 2.719500000000000028e+01 2.029484000000000066e+00 -2.080609035787969741e-01
6.746200000000000330e+01 2.345200000000000173e+01 1.841900000000000048e+01 1.859403000000000006e+01 -3.041623413923830177e-01
6.746500000000000341e+01 5.808500000000000441e+00 2.485800000000000054e+01 -1.192069999999999963e+00 -1.396339749497103044e-01
6.747199999999999420e+01 2.377599999999999980e+01 2.255399999999999849e+01 1.134458000000000055e+01 -2.973821234405746861e-01
6.747799999999999443e+01 1.367099999999999937e+01 8.891999999999999460e+00 1.063833999999999946e+01 -2.114387551403797416e-01
6.748999999999999488e+01 1.459600000000000009e+01 1.661499999999999844e+01 -3.968067000000000011e+00 -2.154420406530562493e-01
6.749299999999999500e+01 1.871300000000000097e+01 1.433099999999999952e+01 1.494505999999999979e+01 -2.114496186496814256e-01
6.749399999999999977e+01 6.482700000000000351e+00 1.861899999999999977e+01 7.115363999999999578e-01 -2.168613654570083482e-01
6.749800000000000466e+01 1.438799999999999990e+01 2.055799999999999983e+01 5.526764000000000010e+00 -2.177823179219139926e-01
6.750700000000000500e+01 2.394900000000000162e+01 2.152499999999999858e+01 -5.277703999999999951e+00 -3.003145764636537263e-01
6.751699999999999591e+01 1.538199999999999967e+01 1.080899999999999928e+01 3.248584000000000138e+00 -2.113495972174243287e-01
6.752400000000000091e+01 6.793199999999999683e+00 1.913899999999999935e+01 -6.125310999999999950e+00 -2.170334924225241768e-01
6.753000000000000114e+01 1.817899999999999849e+01 2.546099999999999852e+01 -5.481535000000000046e+00 -2.110933325240925418e-01
6.753600000000000136e+01 1.173799999999999955e+01 8.192000000000000171e+00 2.730103999999999864e+00 -2.120566896754856323e-01
6.753600000000000136e+01 1.336800000000000033e+01 8.192000000000000171e+00 1.498803999999999981e+01 -2.113329918914405581e-01
6.754300000000000637e+01 2.346199999999999974e+01 1.922800000000000153e+01 3.070501000000000147e+00 -3.042317340776437562e-01
6.754300000000000637e+01 2.182100000000000151e+01 2.386799999999999855e+01 8.114625999999999451e+00 -2.949630540021380143e-01
6.755100000000000193e+01 1.125500000000000078e+01 1.171000000000000085e+01 -1.918033000000000099e+00 -2.136561573879878773e-01
6.756300000000000239e+01 1.304400000000000048e+01 1.585299999999999976e+01 1.137627999999999950e+01 -2.153656149583786372e-01
6.758199999999999363e+01 1.598300000000000054e+01 1.168900000000000006e+01 6.711807000000000301e+00 -2.114656310317910570e-01
6.759399999999999409e+01 1.967899999999999849e+01 2.796000000000000085e+01 4.005139999999999922e+00 -2.067855267612209169e-01
6.759499999999999886e+01 1.061100000000000065e+01 1.736899999999999977e+01 1.477069000000000010e+01 -2.164695163504058439e-01
6.759900000000000375e+01 1.179400000000000048e+01 1.655799999999999983e+01 -1.066566000000000081e+01 -2.159799904887465816e-01
6.760099999999999909e+01 1.207399999999999984e+01 7.416999999999999815e+00 9.196269999999999722e-01 -2.116666120699846054e-01
6.760099999999999909e+01 1.303200000000000003e+01 7.416999999999999815e+00 2.165360000000000174e+00 -2.112382261105671954e-01
6.760200000000000387e+01 2.151699999999999946e+01 2.456800000000000139e+01 -1.380994999999999862e-01 -2.935217047264557233e-01
6.760500000000000398e+01 2.158599999999999852e+01 1.489799999999999969e+01 2.929374000000000144e-01 -3.003763030468885598e-01
6.762500000000000000e+01 9.625999999999999446e+00 1.176699999999999946e+01 -3.918724999999999792e+00 -2.141258052586935412e-01
6.762900000000000489e+01 1.428299999999999947e+01 9.686099999999999710e+00 5.068795999999999857e+00 -2.114515323664717117e-01
6.763200000000000500e+01 4.501999999999999780e+00 2.437300000000000111e+01 -5.835552999999999990e-01 5.432785407124354066e-02
6.763400000000000034e+01 2.169099999999999895e+01 2.551899999999999835e+01 -3.033042000000000238e-01 -2.066076747728506080e-01
6.763400000000000034e+01 1.287800000000000011e+01 2.818299999999999983e+01 -2.289520000000000000e+00 -2.123804629031552094e-01
6.764400000000000546e+01 3.404799999999999827e+00 1.490399999999999991e+01 -3.661150999999999822e+00 4.981147871062285154e-02
6.764600000000000080e+01 8.411699999999999733e+00 2.907799999999999940e+01 7.229467999999999783e+00 -2.140772170102913652e-01
6.764799999999999613e+01 1.154499999999999993e+01 2.994800000000000040e+01 -1.010061999999999927e+01 -2.120282991396401917e-01
6.765399999999999636e+01 4.146300000000000097e+00 1.247100000000000009e+01 -3.247389000000000081e+00 -2.151082441965080638e-01
6.765900000000000603e+01 2.197000000000000064e+00 1.315399999999999991e+01 -3.402705000000000091e+00 4.760823432638573716e-02
6.767100000000000648e+01 3.272299999999999986e+00 2.519600000000000151e+01 -2.274214999999999876e+00 5.254590186033788329e-02
6.767100000000000648e+01 3.272299999999999986e+00 2.613599999999999923e+01 -4.434408999999999601e+00 5.263998049253412054e-02
6.767400000000000659e+01 6.043000000000000149e+00 1.809799999999999898e+01 1.149785999999999930e+01 -2.167375470704086537e-01
6.767400000000000659e+01 9.223599999999999355e+00 2.880199999999999960e+01 8.449422999999999462e+00 -2.139364191991096065e-01
6.767900000000000205e+01 3.511000000000000121e+00 1.434500000000000064e+01 -3.782891999999999921e+00 4.965224032622134187e-02
6.768300000000000693e+01 1.119299999999999962e+01 2.380499999999999972e+01 1.520064999999999955e+01 -2.182531298410239073e-01
6.768500000000000227e+01 8.687300000000000466e+00 1.186599999999999966e+01 -7.063520999999999717e+00 -2.143712045102578734e-01
6.768699999999999761e+01 1.277500000000000036e+01 2.912500000000000000e+01 -1.276914999999999978e+01 -2.119022171707822810e-01
6.768999999999999773e+01 1.032000000000000028e+01 2.939600000000000080e+01 -2.093865000000000087e+00 -2.128326992445833954e-01
6.769899999999999807e+01 4.766399999999999970e+00 1.195700000000000074e+01 -2.806090000000000195e+00 -2.149205495049239245e-01
6.770000000000000284e+01 1.726300000000000168e+01 2.464399999999999835e+01 1.338600000000000012e+00 -2.129604575826002377e-01
6.772199999999999420e+01 1.794399999999999906e+01 1.438400000000000034e+01 3.942772999999999683e+01 -2.121091995771932359e-01
6.772299999999999898e+01 1.267699999999999960e+01 2.329899999999999949e+01 9.943353999999999360e+00 -2.184765042996605344e-01
6.772599999999999909e+01 4.427999999999999936e+00 1.774200000000000088e+01 2.465948000000000029e+00 -2.165826046542999317e-01
6.773000000000000398e+01 6.756000000000000227e+00 2.896999999999999886e+01 -2.922311000000000103e+00 -2.148315084218414550e-01
6.773300000000000409e+01 9.324600000000000222e+00 1.966499999999999915e+01 -2.496408999999999878e+00 -2.174047426624515222e-01
6.773699999999999477e+01 7.650999999999999801e+00 1.193200000000000038e+01 -4.148407999999999873e+00 -2.145820076963189105e-01
6.774299999999999500e+01 1.273900000000000077e+01 4.560000000000000164e-01 -2.150332000000000077e-01 -2.100947847337007457e-01
6.774399999999999977e+01 5.926800000000000068e+00 1.197799999999999976e+01 -2.310477000000000114e+00 -2.148223062177915532e-01
6.774599999999999511e+01 1.676899999999999835e+01 1.231600000000000072e+01 8.137726000000000681e+01 -2.113360753972451378e-01
6.775000000000000000e+01 1.408200000000000074e+01 2.498100000000000165e+01 -1.109629999999999939e+01 -2.154110441414547328e-01
6.775400000000000489e+01 1.982900000000000063e+01 1.478100000000000058e+01 4.014139000000000124e+00 -2.109382220376080086e-01
6.775400000000000489e+01 2.069500000000000028e+01 1.478100000000000058e+01 1.041539999999999910e+00 -2.996862667505641453e-01
6.777700000000000102e+01 6.635299999999999976e+00 1.820899999999999963e+01 7.115363999999999578e-01 -2.168209629091675250e-01
6.778000000000000114e+01 1.824800000000000111e+01 1.508399999999999963e+01 2.563341000000000136e+01 -2.125524421665609953e-01
6.778000000000000114e+01 1.911299999999999955e+01 1.508399999999999963e+01 1.970061000000000107e+01 -2.118867380700993619e-01
6.779099999999999682e+01 1.555000000000000071e+01 2.457100000000000151e+01 -1.114513999999999960e+01 -2.149386423151691816e-01
6.779699999999999704e+01 2.325100000000000122e+01 2.340399999999999991e+01 2.640152000000000143e+01 -2.955150744560614551e-01
6.780200000000000671e+01 6.630399999999999849e+00 2.491400000000000148e+01 2.598860000000000170e+00 -1.396263394955571946e-01
6.782200000000000273e+01 8.087899999999999423e+00 2.490099999999999980e+01 1.221555999999999997e+01 -1.395609310413387372e-01
6.783700000000000330e+01 1.003599999999999959e+01 1.797700000000000031e+01 6.697271999999999892e+00 -2.168286291054608017e-01
6.785099999999999909e+01 2.158200000000000074e+01 2.838899999999999935e+01 -1.645495000000000019e+01 -2.034047696278558637e-01
6.785500000000000398e+01 1.518699999999999939e+01 1.684100000000000108e+01 -3.280126999999999793e+00 -2.155851155972665634e-01
6.785500000000000398e+01 1.637800000000000011e+01 1.750499999999999901e+01 -1.132554000000000016e+01 -2.157354444654962511e-01
6.785500000000000398e+01 1.637800000000000011e+01 1.897700000000000031e+01 1.266334000000000071e+00 -2.168588204805635411e-01
6.785500000000000398e+01 1.658699999999999974e+01 1.824099999999999966e+01 1.872804999999999886e-01 -2.162585235884288970e-01
6.785999999999999943e+01 5.417300000000000004e+00 2.805799999999999983e+01 -6.519426000000000165e+00 -1.398169043772339026e-01
6.786199999999999477e+01 1.202299999999999969e+01 9.828200000000000713e+00 -3.693775000000000253e-01 -2.125964396670420309e-01
6.786199999999999477e+01 7.248999999999999666e+00 8.816000000000000725e+00 -1.048915000000000042e+01 -2.136253346581088175e-01
6.786599999999999966e+01 3.937699999999999978e+00 2.701500000000000057e+01 -1.205624000000000073e+01 -1.398094809361766500e-01
6.788599999999999568e+01 1.397899999999999920e+00 1.315399999999999991e+01 -4.837867000000000139e+00 4.642959177849472624e-02
6.788599999999999568e+01 2.932999999999999829e+00 1.468900000000000006e+01 -4.164339000000000013e+00 4.871828857870802443e-02
6.789000000000000057e+01 2.281200000000000117e+01 2.662600000000000122e+01 -6.272574999999999790e+00 -1.695167605902465069e-01
6.789000000000000057e+01 2.281200000000000117e+01 2.756599999999999895e+01 -3.753795000000000215e+01 -1.686920015349764879e-01
6.790200000000000102e+01 2.305499999999999972e+01 1.542900000000000027e+01 8.068709999999999383e+00 -3.023600683419198631e-01
6.790800000000000125e+01 1.491200000000000081e+01 1.982600000000000051e+01 6.957242999999999622e-01 -2.176129611687262211e-01
6.791700000000000159e+01 1.176699999999999946e+01 1.091300000000000026e+01 2.624341999999999953e+00 -2.131786526332583587e-01
6.792900000000000205e+01 2.385800000000000054e+01 1.986700000000000088e+01 -6.677413999999999739e+00 -3.048874823913343413e-01
6.792900000000000205e+01 2.408500000000000085e+01 2.066600000000000037e+01 -1.801792999999999978e+01 -3.035053222578069088e-01
6.793500000000000227e+01 1.039899999999999913e+01 1.180700000000000038e+01 -6.576510999999999996e+00 -2.140093250805781833e-01
6.794899999999999807e+01 8.625000000000000000e+00 2.048499999999999943e+01 8.896228000000000691e+01 -2.176837558167734055e-01
6.794899999999999807e+01 1.727300000000000058e+00 1.239400000000000013e+01 -5.551639999999999908e+00 4.637355916547770962e-02
6.794899999999999807e+01 1.727300000000000058e+00 1.391399999999999970e+01 -1.067446999999999946e+01 4.694314102459531957e-02
6.794899999999999807e+01 2.666700000000000070e+00 1.239400000000000013e+01 -8.706692000000000320e+00 4.735052161470557075e-02
6.794899999999999807e+01 3.532000000000000028e+00 1.239400000000000013e+01 -4.250861999999999696e+00 -2.151678126635179211e-01
6.795799999999999841e+01 7.283900000000000041e+00 1.960800000000000054e+01 -4.738915000000000433e+00 -2.173211336308582542e-01
6.795900000000000318e+01 3.375599999999999934e+00 1.581600000000000072e+01 -4.723264000000000351e+00 4.963404884680910206e-02
6.796099999999999852e+01 3.741999999999999993e+00 2.443599999999999994e+01 -9.783671000000000451e-01 5.270152336801556953e-02
6.796099999999999852e+01 5.261999999999999567e+00 2.443599999999999994e+01 -8.024455999999999811e-01 5.510272185735613781e-02
6.796299999999999386e+01 1.768799999999999883e+01 2.506500000000000128e+01 2.439503000000000088e-01 -2.121830030681318147e-01
6.796999999999999886e+01 1.829400000000000048e+01 2.573000000000000043e+01 -6.108829000000000065e+00 -2.108854907936855982e-01
6.797400000000000375e+01 1.192399999999999949e+01 4.560000000000000164e-01 -1.027416000000000024e-01 -2.103868935591154676e-01
6.797400000000000375e+01 1.355400000000000027e+01 4.560000000000000164e-01 9.763712999999999198e+00 -2.097793634421906417e-01
6.797700000000000387e+01 1.078500000000000014e+01 2.988500000000000156e+01 -1.699252999999999858e+01 -2.124538734734389700e-01
6.797700000000000387e+01 1.230499999999999972e+01 2.988500000000000156e+01 -2.023633999999999844e+01 -2.118091944211545063e-01
6.798999999999999488e+01 1.486599999999999966e+01 1.037199999999999989e+01 5.536770999999999887e+00 -2.114582332204614501e-01
6.800300000000000011e+01 1.656299999999999883e+01 2.458599999999999852e+01 6.492274000000000100e+00 -2.140960810827500782e-01
6.800400000000000489e+01 1.392999999999999972e+01 8.624599999999999156e+00 3.133719999999999928e+01 -2.112187761269003761e-01
6.800900000000000034e+01 1.351399999999999935e+01 2.634799999999999898e+01 1.107043999999999961e+01 -2.140787573272835420e-01
6.801399999999999579e+01 1.258999999999999986e+01 1.637800000000000011e+01 -3.847404000000000046e+00 -2.159147765526230334e-01
6.801500000000000057e+01 1.549200000000000088e+01 1.129199999999999982e+01 6.235681999999999725e+00 -2.115704845264717859e-01
6.801699999999999591e+01 1.364899999999999913e+01 2.568100000000000094e+01 4.340882999999999825e+00 -2.148916818918731875e-01
6.801800000000000068e+01 1.324000000000000021e+01 2.718900000000000006e+01 5.852268000000000114e+01 -2.132209211286500705e-01
6.802299999999999613e+01 1.353800000000000026e+01 2.088299999999999912e+01 9.580588000000000548e+00 -2.182044531567564061e-01
6.802700000000000102e+01 1.110200000000000031e+01 1.697200000000000131e+01 -4.301325000000000287e+00 -2.164034477541358914e-01
6.803799999999999670e+01 1.754299999999999926e+01 1.377699999999999925e+01 1.165728000000000009e+01 -2.119077001288375561e-01
6.803900000000000148e+01 8.083999999999999631e+00 1.128700000000000081e+01 -4.849878999999999607e+00 -2.143241552724068355e-01
6.803900000000000148e+01 1.225999999999999979e+01 -3.190000000000000058e-01 2.691098999999999908e+00 -2.102046354598809397e-01
6.803900000000000148e+01 1.225999999999999979e+01 1.231000000000000094e+00 -4.182489999999999597e+00 -2.103414576458055019e-01
6.803900000000000148e+01 1.321799999999999997e+01 -3.190000000000000058e-01 1.334528000000000070e+01 -2.204095569703503621e-01
6.803900000000000148e+01 1.321799999999999997e+01 1.231000000000000094e+00 -8.383839000000000041e+00 -2.099692013560939541e-01
6.803900000000000148e+01 1.869999999999999929e+01 2.667699999999999960e+01 1.032164000000000081e+00 -2.094181005351817837e-01
6.804000000000000625e+01 1.255300000000000082e+01 6.873499999999999943e+00 1.996478999999999893e+00 -2.113077863580043458e-01
6.804200000000000159e+01 1.724800000000000111e+01 1.309099999999999930e+01 5.389762000000000342e+01 -2.115653864033309739e-01
6.806999999999999318e+01 8.791000000000000369e+00 2.929299999999999926e+01 4.346975999999999729e+00 -2.138767622932201129e-01
6.806999999999999318e+01 9.656200000000000117e+00 2.929299999999999926e+01 -4.155459000000000236e-01 -2.134365565827983924e-01
6.807500000000000284e+01 2.020400000000000063e+01 2.855600000000000094e+01 1.492979000000000056e+00 -2.055560830173605302e-01
6.807800000000000296e+01 1.338199999999999967e+01 2.202100000000000080e+01 1.805624999999999858e+01 -2.186581213833097836e-01
6.807999999999999829e+01 1.129899999999999949e+01 7.713000000000000078e+00 2.310019000000000045e+00 -2.121074301246084759e-01
6.807999999999999829e+01 1.129899999999999949e+01 8.670999999999999375e+00 2.323198000000000096e+00 -2.124440085133111056e-01
6.807999999999999829e+01 1.380700000000000038e+01 7.713000000000000078e+00 2.217802999999999969e+01 -2.109568630448372117e-01
6.808899999999999864e+01 6.449900000000000411e+00 8.816000000000000725e+00 -4.388404999999999667e+00 -2.138079328904255172e-01
6.808899999999999864e+01 8.048099999999999810e+00 8.816000000000000725e+00 -4.382767000000000301e+00 -2.134765859564467516e-01
6.809099999999999397e+01 6.966499999999999915e+00 2.926399999999999935e+01 -2.590488999999999820e+00 -2.146620241585954769e-01
6.809199999999999875e+01 6.780000000000000249e+00 1.205700000000000038e+01 -4.027618999999999616e+00 -2.148077629709206904e-01
6.809499999999999886e+01 5.269999999999999574e+00 1.146599999999999930e+01 -3.507689000000000057e+00 -2.147858377124713392e-01
6.811400000000000432e+01 7.761999999999999567e+00 2.953699999999999903e+01 -4.932589000000000112e+00 -2.141569502059771091e-01
6.811599999999999966e+01 9.157000000000000028e+00 1.133300000000000018e+01 -4.302724999999999689e+00 -2.141393567868680736e-01
6.811899999999999977e+01 1.882900000000000063e+01 2.763500000000000156e+01 4.691371000000000180e+00 -2.083067512527362886e-01
6.812399999999999523e+01 2.241600000000000037e+01 2.579599999999999937e+01 2.542797000000000196e+00 -1.704144363301628717e-01
6.812500000000000000e+01 2.208800000000000097e+01 2.508599999999999852e+01 5.398075999999999652e+00 -2.067114181701812936e-01
6.812500000000000000e+01 8.528200000000000003e+00 2.411499999999999844e+01 1.188377000000000017e+01 -1.395140361747370938e-01
6.812500000000000000e+01 7.387900000000000134e+00 2.496000000000000085e+01 5.733844999999999636e+00 -1.396199643707796700e-01
6.813100000000000023e+01 9.561999999999999389e+00 1.874399999999999977e+01 -1.076681999999999917e+00 -2.172255692970787300e-01
6.813200000000000500e+01 1.035800000000000054e+01 2.414399999999999835e+01 1.620920999999999879e+01 -1.394021147536039507e-01
6.815099999999999625e+01 2.026200000000000045e+01 1.527200000000000024e+01 6.725696000000000119e+00 -2.110875249016417876e-01
6.815200000000000102e+01 6.779300000000000104e+00 8.055999999999999162e+00 -3.129799000000000220e+00 -2.135276155866248082e-01
6.815200000000000102e+01 6.779300000000000104e+00 9.576000000000000512e+00 -4.471260000000000012e+00 -2.139899156591893448e-01
6.815200000000000102e+01 7.718700000000000117e+00 8.055999999999999162e+00 -3.265197999999999823e+00 -2.133221567957880038e-01
6.815200000000000102e+01 7.718700000000000117e+00 9.576000000000000512e+00 -5.434047999999999767e+00 -2.138083033799547672e-01
6.815600000000000591e+01 1.197700000000000031e+01 2.356599999999999895e+01 9.803179000000000087e+00 -2.186755338554070838e-01
6.815600000000000591e+01 1.316799999999999926e+01 2.290200000000000102e+01 1.039222999999999963e+01 -2.189508960159192996e-01
6.817400000000000659e+01 6.202700000000000102e+00 1.771799999999999997e+01 -6.219981999999999456e-01 -2.167550337360640289e-01
6.817700000000000671e+01 4.238699999999999690e+00 1.141000000000000014e+01 -2.711837000000000053e+00 -2.148769224607667838e-01
6.817700000000000671e+01 1.867999999999999972e+01 1.557499999999999929e+01 1.406670000000000087e+01 -2.128193937329535823e-01
6.817900000000000205e+01 1.627799999999999869e+01 1.191900000000000048e+01 1.239478000000000080e+01 -2.114398244351353429e-01
6.818000000000000682e+01 2.234199999999999875e+01 2.832600000000000051e+01 -7.476745000000000196e+00 -2.019244249416194958e-01
6.818099999999999739e+01 2.244099999999999895e+01 2.433399999999999963e+01 5.826616999999999713e+00 -2.936528717195384108e-01
6.818999999999999773e+01 6.129699999999999704e+00 2.861299999999999955e+01 -9.704719000000000761e+00 -1.398470757509263918e-01
6.820999999999999375e+01 7.335300000000000153e+00 1.847599999999999909e+01 -8.690164000000000222e-01 -2.170541301057583861e-01
6.821099999999999852e+01 5.269999999999999574e+00 9.951000000000000512e+00 -3.634158999999999917e+00 -2.143460173108398814e-01
6.821299999999999386e+01 1.754799999999999827e+01 1.481700000000000017e+01 2.843885999999999825e+01 -2.128755462011078237e-01
6.822400000000000375e+01 1.484999999999999964e+01 2.483800000000000097e+01 -1.850281999999999982e+01 -2.154045520974825489e-01
6.822400000000000375e+01 2.220499999999999829e+01 1.522199999999999953e+01 5.968587999999999560e+00 -3.018454932186258599e-01
6.822499999999999432e+01 1.421899999999999942e+01 1.650199999999999889e+01 1.278400999999999899e+00 -2.157522023914468789e-01
6.822700000000000387e+01 2.357999999999999829e+01 1.627899999999999991e+01 1.933678000000000097e+01 -3.043559063678662469e-01
6.822700000000000387e+01 2.357999999999999829e+01 1.732900000000000063e+01 2.730195000000000149e+01 -3.054177673325473852e-01
6.823799999999999955e+01 3.188899999999999846e+00 1.152399999999999913e+01 -2.469794999999999963e+00 4.707767042508677335e-02
6.826500000000000057e+01 5.961999999999999744e+00 2.449500000000000099e+01 3.712743000000000015e-01 -1.396650046956020019e-01
