8.371000000000000441e+00 9.096999999999999886e+01 -3.355400000000000049e-01 1.033733999999999931e+01 -1.843808774003597439e-01
8.374599999999999156e+00 9.103400000000000603e+01 -2.300399999999999778e+00 6.984517999999999560e-01 -1.821141573980834538e-01
8.392599999999999838e+00 1.024300000000000068e+02 4.484399999999999942e+00 9.491704999999999615e+00 -1.749326055600143037e-01
8.393000000000000682e+00 9.884900000000000375e+01 1.865700000000000003e+01 2.066097999999999857e+01 4.827227597012197918e-02
8.393100000000000449e+00 9.488800000000000523e+01 6.658000000000000362e+00 1.631758000000000042e+00 -1.852195911959940711e-01
8.400700000000000500e+00 9.484199999999999875e+01 6.135299999999999976e+00 4.052792000000000172e+00 -1.856607716277264841e-01
8.407000000000000028e+00 1.112099999999999937e+02 1.579299999999999926e+01 5.337063999999999808e+00 -2.720438162139322547e-01
8.410099999999999909e+00 1.070100000000000051e+02 2.095400000000000063e+01 2.085780000000000189e+00 -1.611180387646065360e-01
8.410899999999999821e+00 9.629600000000000648e+01 1.971399999999999864e+01 8.051258999999999943e+00 -6.481496304237510664e-02
8.411899999999999267e+00 9.665800000000000125e+01 4.060999999999999943e+00 9.923946999999999630e-01 -1.825807476902120974e-01
8.412000000000000810e+00 9.848999999999999488e+01 6.970100000000000406e+00 5.604814000000000185e-01 -1.781955646139687377e-01
8.417500000000000426e+00 1.037199999999999989e+02 1.353800000000000026e+01 3.394946000000000019e+00 -1.665435293637917702e-01
8.420400000000000773e+00 1.142099999999999937e+02 1.284699999999999953e+01 2.495994000000000046e+00 -1.672731888777721498e-01
8.420400000000000773e+00 1.142099999999999937e+02 1.636100000000000065e+01 8.644581999999999766e+00 -2.718720970188309716e-01
8.426600000000000534e+00 9.136799999999999500e+01 -2.803500000000000103e+00 -3.541086999999999985e-01 -1.816704342950065942e-01
8.426600000000000534e+00 1.060600000000000023e+02 1.910600000000000165e+01 -1.780019999999999936e+00 -1.630921594485415516e-01
8.427899999999999281e+00 9.988299999999999557e+01 2.128099999999999881e+01 -9.440932000000000102e+00 -1.601535499755613878e-01
8.429000000000000270e+00 9.998099999999999454e+01 1.941499999999999915e+01 5.337252999999999581e+00 -4.206490659718751385e-02
8.429000000000000270e+00 9.998099999999999454e+01 2.028000000000000114e+01 -9.048489000000000004e+00 -3.698086833845769250e-02
8.438000000000000611e+00 9.781699999999999307e+01 6.940999999999999837e+00 2.650535000000000085e+00 -1.796007969572001595e-01
8.441499999999999559e+00 9.489000000000000057e+01 1.779700000000000060e+01 6.590106999999999715e+00 5.123239025440562422e-02
8.442800000000000082e+00 7.839000000000000057e+01 2.487800000000000011e+00 1.056151000000000018e+01 -1.542436204866520777e-01
8.442999999999999616e+00 1.100799999999999983e+02 1.503500000000000014e+01 1.010421000000000014e+01 -2.719166479719991036e-01
8.450300000000000367e+00 9.494199999999999307e+01 1.882000000000000028e+01 6.822282000000000401e+00 4.355540562127745846e-02
8.456899999999999196e+00 9.385200000000000387e+01 1.262199999999999989e+01 -1.005662000000000056e+01 -1.761338181910958034e-01
8.457499999999999574e+00 1.042000000000000028e+02 1.389000000000000057e+01 3.672127999999999837e+00 -1.662060893394760597e-01
8.462500000000000355e+00 1.021400000000000006e+02 1.330300000000000082e+01 1.047627999999999915e+01 -1.668337480820226704e-01
8.462500000000000355e+00 1.030000000000000000e+02 1.330300000000000082e+01 6.899223000000000106e+00 -1.667428189881475231e-01
8.467999999999999972e+00 9.339100000000000534e+01 8.238300000000000622e+00 -4.375183999999999962e+00 -1.876730110626797510e-01
8.467999999999999972e+00 9.339100000000000534e+01 9.177699999999999747e+00 -5.054915000000000269e+00 -1.848113063438059644e-01
8.475500000000000256e+00 1.089099999999999966e+02 2.110000000000000142e+01 -1.115242999999999984e+00 -1.614089051076046943e-01
8.488400000000000389e+00 1.104800000000000040e+02 2.033200000000000074e+01 -7.108477999999999852e+00 -1.622314401174679843e-01
8.490399999999999281e+00 7.981399999999999295e+01 2.859900000000000109e+00 1.005555000000000021e+01 -6.700993939219833558e-03
8.492599999999999483e+00 1.063299999999999983e+02 1.478400000000000070e+01 5.869576000000000349e+00 -1.769755181830990065e-01
8.494999999999999218e+00 1.009800000000000040e+02 9.650199999999999889e-01 1.022339000000000020e+01 -1.778971163075991346e-01
8.494999999999999218e+00 1.025300000000000011e+02 9.650199999999999889e-01 1.414507000000000048e+01 -1.767721304376301261e-01
8.496600000000000819e+00 1.052900000000000063e+02 1.489199999999999946e+01 5.772539000000000087e+00 -1.769047220533242204e-01
8.504500000000000171e+00 7.923699999999999477e+01 5.861299999999999955e+00 3.122338999999999842e+01 -1.470469810508785169e-01
8.508300000000000196e+00 7.514600000000000080e+01 5.896700000000000053e+00 2.751033000000000062e+00 3.806794103832996518e-02
8.510699999999999932e+00 9.403600000000000136e+01 -2.943400000000000016e+00 1.194990999999999914e+00 -1.809678518970133654e-01
8.519800000000000040e+00 8.966299999999999670e+01 3.089399999999999924e-01 6.663369000000000097e-01 -1.857478353463656584e-01
8.524300000000000210e+00 9.536400000000000432e+01 -1.892500000000000016e-01 4.407069000000000264e-02 -1.823368289573432666e-01
8.531299999999999883e+00 1.054099999999999966e+02 1.388499999999999979e+01 4.348131000000000412e+00 -1.661333997762484693e-01
8.534900000000000375e+00 1.009599999999999937e+02 9.369699999999999918e+00 8.059212000000000486e+00 -1.713207332754581591e-01
8.548999999999999488e+00 8.862800000000000011e+01 -2.649999999999999911e+00 2.565447999999999951e+00 1.093973735168358719e-01
8.554000000000000270e+00 9.146200000000000330e+01 -3.427000000000000046e+00 -7.136917999999999873e-01 -1.812666104023827607e-01
8.561999999999999389e+00 1.076299999999999955e+02 1.008500000000000085e+01 3.724480999999999931e+00 -1.680160690319507377e-01
8.561999999999999389e+00 1.091800000000000068e+02 1.008500000000000085e+01 6.158947000000000394e+00 -1.677560062865740276e-01
8.565599999999999881e+00 1.019099999999999966e+02 1.238400000000000034e+01 1.311574000000000062e+01 -1.676855913809118803e-01
8.567500000000000782e+00 1.117000000000000028e+02 1.670100000000000051e+01 8.589898000000000255e-01 -2.723441648545973370e-01
8.568899999999999295e+00 7.344400000000000261e+01 6.461999999999999744e+00 1.191071999999999953e+01 3.121675931836864759e-02
8.580199999999999605e+00 8.016100000000000136e+01 3.474299999999999944e+00 1.966589000000000098e+01 -6.377734741106394489e-03
8.580600000000000449e+00 1.008900000000000006e+02 5.277000000000000135e+00 5.834344999999999892e+00 -1.761860882999416178e-01
8.580899999999999750e+00 1.096599999999999966e+02 1.782400000000000162e+01 -5.332252000000000436e+00 -1.640335352909459421e-01
8.586800000000000210e+00 9.700900000000000034e+01 4.744799999999999685e+00 4.587247999999999881e-01 -1.824622991858002585e-01
8.588599999999999568e+00 1.001599999999999966e+02 8.570000000000000284e+00 9.510893999999999737e-01 -1.726833363475747674e-01
8.591100000000000847e+00 9.466899999999999693e+01 1.683999999999999986e+01 -2.870786999999999978e+00 -1.776674750230037847e-01
8.591599999999999682e+00 1.023400000000000034e+02 1.134099999999999930e+01 9.113279000000000352e+00 -1.685631711430022051e-01
8.594099999999999184e+00 7.675600000000000023e+01 5.827300000000000146e+00 2.163776000000000010e+01 4.446213232869520443e-02
8.596700000000000230e+00 1.026599999999999966e+02 2.644800000000000040e+01 1.741729000000000083e+00 -2.681204961284279209e-01
8.609700000000000131e+00 1.070400000000000063e+02 1.519200000000000017e+01 5.540485000000000326e+00 -1.774111595359531834e-01
8.614000000000000767e+00 9.998000000000000398e+01 2.218999999999999861e+00 2.944475000000000176e+00 -1.789390524808376903e-01
8.619999999999999218e+00 1.084300000000000068e+02 1.864699999999999847e+01 -3.057723000000000191e+00 -1.635627642374298807e-01
8.619999999999999218e+00 1.108900000000000006e+02 1.864699999999999847e+01 -3.377841000000000093e+00 -1.634790462716494974e-01
8.619999999999999218e+00 1.108900000000000006e+02 1.958699999999999974e+01 -7.254437000000000246e+00 -1.628813236678609278e-01
8.620200000000000529e+00 8.865699999999999648e+01 7.156200000000000339e-01 -3.943692999999999782e-01 -1.864181521296031652e-01
8.620599999999999596e+00 1.110699999999999932e+02 1.309999999999999964e+01 9.990842000000000667e+00 -1.670208895060384113e-01
8.620599999999999596e+00 1.124699999999999989e+02 1.309999999999999964e+01 9.280806999999999363e+00 -1.671497086908218799e-01
8.632099999999999440e+00 9.508899999999999864e+01 -2.505999999999999783e+00 -7.618167999999999607e-01 -1.809799995040939358e-01
8.636100000000000776e+00 1.018299999999999983e+02 5.316900000000000404e+00 3.805788000000000171e+00 -1.746210965294119899e-01
8.638299999999999201e+00 7.167000000000000171e+01 2.125999999999999890e+00 -1.502850000000000019e+00 2.287326597538954023e-02
8.638299999999999201e+00 7.260999999999999943e+01 2.125999999999999890e+00 -1.355437999999999921e+00 2.457070881866522255e-02
8.646900000000000475e+00 9.985500000000000398e+01 7.870000000000000107e+00 -5.302715999999999541e-01 -1.734715681435313184e-01
8.647299999999999542e+00 9.264900000000000091e+01 4.420899999999999608e+00 3.259983000000000075e+00 -1.910281657915014752e-01
8.647299999999999542e+00 9.351399999999999579e+01 4.420899999999999608e+00 7.787703999999999460e-02 -1.892499569553582617e-01
8.649599999999999511e+00 1.101400000000000006e+02 2.104700000000000060e+01 -3.945701000000000125e+00 -1.618406626816255023e-01
8.650600000000000733e+00 8.017400000000000659e+01 4.402099999999999902e+00 1.410581999999999958e+01 -2.390147389480438804e-03
8.656000000000000583e+00 1.072999999999999972e+02 1.940599999999999881e+01 -1.398633999999999933e+00 -1.630134301974138222e-01
8.661899999999999267e+00 9.064400000000000546e+01 -3.349400000000000155e+00 -3.542934999999999834e-02 1.101508610771319008e-01
8.665200000000000458e+00 9.377800000000000580e+01 7.411400000000000432e+00 -2.308574000000000126e+00 -1.892622742304514438e-01
8.666999999999999815e+00 8.947499999999999432e+01 -2.649999999999999911e+00 1.148519000000000068e+00 1.103995642473560440e-01
8.674200000000000799e+00 9.757699999999999818e+01 6.322499999999999787e+00 6.961538000000000004e+00 -1.811298219353134342e-01
8.675499999999999545e+00 9.019700000000000273e+01 -2.105799999999999894e+00 7.812017999999999462e-01 1.125504315751670453e-01
8.675599999999999312e+00 1.045100000000000051e+02 1.354700000000000060e+01 3.672127999999999837e+00 -1.662215414932574076e-01
8.678599999999999426e+00 1.102399999999999949e+02 1.233600000000000030e+01 2.149866000000000099e+01 -1.668781506096957412e-01
8.678900000000000503e+00 9.350199999999999534e+01 1.609499999999999886e+01 -2.145212000000000074e+01 -1.753491617984127143e-02
8.687400000000000233e+00 9.954500000000000171e+01 7.097100000000000186e+00 5.802264000000000088e+00 -1.753386419513968397e-01
8.687599999999999767e+00 9.229600000000000648e+01 -3.485899999999999999e+00 -9.851032000000000011e+00 -1.812775893208775357e-01
8.688900000000000290e+00 1.147800000000000011e+02 1.281099999999999994e+01 1.489673000000000025e+00 -1.672795583860021140e-01
8.688900000000000290e+00 1.147800000000000011e+02 1.639300000000000068e+01 1.308562000000000047e+01 -1.645583645309502963e-01
8.689000000000000057e+00 9.201600000000000534e+01 1.446400000000000041e+01 -5.676471000000000267e+00 -1.644403876262533204e-01
8.689000000000000057e+00 9.224299999999999500e+01 1.366499999999999915e+01 -3.884905999999999970e+00 -1.705911855039588532e-01
8.689000000000000057e+00 9.224299999999999500e+01 1.526299999999999990e+01 -4.946094999999999686e+00 -1.592940201135095990e-01
8.693899999999999295e+00 9.984000000000000341e+01 4.002200000000000202e+00 1.060196999999999967e+01 -1.790311620499470124e-01
8.694000000000000838e+00 1.056200000000000045e+02 1.840599999999999881e+01 -1.602240000000000109e+01 -3.731060934912612537e-02
8.694599999999999440e+00 9.905700000000000216e+01 6.578100000000000058e+00 3.751621000000000095e+00 -1.775470704642911624e-01
8.696400000000000574e+00 9.954900000000000659e+01 1.871499999999999986e+01 1.362214999999999954e+01 -4.754758684623881099e-02
8.696899999999999409e+00 9.416500000000000625e+01 6.054000000000000270e+00 3.128044000000000047e+00 -1.888292332654727401e-01
8.701599999999999113e+00 9.982699999999999818e+01 2.946099999999999941e+00 6.711598999999999648e+00 -1.791998894501078410e-01
8.702600000000000335e+00 9.411499999999999488e+01 6.698500000000000121e+00 1.837074000000000096e+00 -1.889056429728778186e-01
8.702999999999999403e+00 1.022699999999999960e+02 1.032099999999999973e+01 6.911533999999999622e+00 -1.693910593907187734e-01
8.705600000000000449e+00 9.381699999999999307e+01 5.120899999999999785e+00 5.551568999999999754e+00 -1.894218928485474074e-01
8.710699999999999221e+00 1.032399999999999949e+02 1.277100000000000080e+01 -4.463330999999999826e-01 -1.668775054829248483e-01
8.719900000000000873e+00 1.055699999999999932e+02 2.401800000000000068e+01 6.784190999999999860e+00 -1.575205761089181755e-01
8.730000000000000426e+00 1.004699999999999989e+02 5.977000000000000313e+00 9.924174000000000717e+00 -1.757592558329579835e-01
8.731700000000000017e+00 1.134399999999999977e+02 1.664300000000000068e+01 1.934909999999999997e+01 -1.645446167801954407e-01
8.732499999999999929e+00 9.727299999999999613e+01 5.622499999999999609e+00 6.796922999999999604e+00 -1.821792998024001353e-01
8.737999999999999545e+00 9.552100000000000080e+01 1.953000000000000114e+01 4.265885999999999711e+01 4.132489129658750704e-02
8.743199999999999861e+00 9.717600000000000193e+01 1.958699999999999974e+01 2.871745999999999910e+01 -5.716601792819904493e-02
8.744500000000000384e+00 1.001599999999999966e+02 4.762500000000000178e+00 2.676288999999999874e+01 -1.782131671940643258e-01
8.747400000000000730e+00 1.052900000000000063e+02 1.759900000000000020e+01 -1.016901999999999973e+01 -3.960769908088969393e-02
8.749900000000000233e+00 1.032300000000000040e+02 4.426999999999999602e+00 1.570622999999999969e+01 -1.738775707111937241e-01
8.752399999999999736e+00 7.843500000000000227e+01 6.130799999999999805e+00 1.636470999999999876e+01 -1.463963495293605643e-01
8.754899999999999238e+00 9.222899999999999920e+01 4.880300000000000082e+00 3.704654000000000025e+01 -1.932175956361499580e-01
8.756099999999999994e+00 1.056500000000000057e+02 1.278800000000000026e+01 4.402855999999999881e+00 -1.666270642046875361e-01
8.756899999999999906e+00 9.744100000000000250e+01 4.060999999999999943e+00 1.888458000000000081e-01 -1.822481613261960898e-01
8.757099999999999440e+00 9.550199999999999534e+01 -1.751300000000000079e+00 -3.858821999999999974e+00 -1.814638709330441968e-01
8.758300000000000196e+00 9.386100000000000421e+01 9.937699999999999534e+00 -2.344040999999999997e+01 -3.115271118479120971e-01
8.766999999999999460e+00 8.819799999999999329e+01 1.014199999999999990e+00 3.002322000000000046e-01 1.193242331025095720e-01
8.766999999999999460e+00 8.819799999999999329e+01 3.593799999999999883e+00 -4.872221999999999831e+00 -1.930777461460879696e-01
8.767899999999999139e+00 1.046899999999999977e+02 1.569899999999999984e+01 1.480732000000000070e+01 -1.776103981403692744e-01
8.768499999999999517e+00 1.100300000000000011e+02 1.159800000000000075e+01 2.184193000000000140e+01 -1.669463874137183390e-01
8.771100000000000563e+00 9.584399999999999409e+01 2.116999999999999993e+00 3.763106000000000062e+00 -1.839370184851495948e-01
8.779299999999999216e+00 7.256600000000000250e+01 6.427299999999999791e+00 1.408428999999999931e+01 2.610878804624592806e-02
8.782899999999999707e+00 1.128799999999999955e+02 1.273300000000000054e+01 7.086803999999999881e+00 -1.671464305305638831e-01
8.784399999999999764e+00 9.415800000000000125e+01 1.633699999999999974e+01 -3.588002000000000180e+01 -1.719490371432286502e-01
8.784399999999999764e+00 9.810500000000000398e+01 1.869399999999999906e+01 3.475318000000000040e+01 4.888834061063644654e-02
8.791900000000000048e+00 7.604099999999999682e+01 3.039600000000000080e+00 1.334430000000000049e+01 3.261371704902289032e-02
8.792500000000000426e+00 1.059500000000000028e+02 2.159600000000000009e+01 5.060311999999999699e+00 -1.607822421427756721e-01
8.793799999999999173e+00 7.970499999999999829e+01 5.103900000000000325e+00 1.330207000000000050e+01 -1.502809938207963492e-01
8.800000000000000711e+00 1.162199999999999989e+02 1.370800000000000018e+01 2.507355000000000000e+00 -2.712190040074036745e-01
8.800000000000000711e+00 1.162199999999999989e+02 1.549600000000000044e+01 4.024155999999999622e+00 -2.716074180860222897e-01
8.800000000000000711e+00 1.164800000000000040e+02 1.460200000000000031e+01 5.880167000000000144e+00 -2.713973235417853624e-01
8.802899999999999281e+00 8.773399999999999466e+01 -2.649999999999999911e+00 3.703714000000000173e+00 1.075622604793293746e-01
8.803599999999999426e+00 9.026999999999999602e+01 -6.816500000000000337e-02 1.147311000000000014e+01 -1.859157973949146780e-01
8.803900000000000503e+00 1.058199999999999932e+02 1.494100000000000072e+01 4.956267000000000422e+00 -1.768579838364409684e-01
8.807700000000000529e+00 1.004099999999999966e+02 2.250900000000000034e+01 -7.514924999999999855e+00 -1.577362604236341448e-01
8.808600000000000207e+00 9.805700000000000216e+01 6.479199999999999626e+00 6.132719999999999949e+00 -1.803524728930223642e-01
8.809100000000000819e+00 1.033900000000000006e+02 3.313699999999999868e+00 4.154476999999999975e+01 -1.748281706986473671e-01
8.812400000000000233e+00 1.084000000000000057e+02 1.556900000000000084e+01 1.063225000000000087e+01 -2.725676055565983136e-01
8.814000000000000057e+00 8.936199999999999477e+01 5.520999999999999908e+00 -3.048992999999999842e+00 -2.001754302850787537e-01
8.814000000000000057e+00 9.091200000000000614e+01 5.520999999999999908e+00 1.224084000000000003e+02 -1.979648528542474473e-01
8.819599999999999440e+00 1.027099999999999937e+02 1.216499999999999915e+01 4.266049999999999898e+00 -1.673722208166622816e-01
8.820700000000000429e+00 1.028599999999999994e+02 5.277000000000000135e+00 2.192764000000000024e+01 -1.732490408591735864e-01
8.827700000000000102e+00 9.707200000000000273e+01 3.210999999999999854e+00 3.459693999999999825e+00 -1.828393881206200056e-01
8.832300000000000040e+00 1.041400000000000006e+02 1.284600000000000009e+01 3.378477000000000174e+00 -1.665959946172102524e-01
8.834899999999999309e+00 1.112699999999999960e+02 1.740099999999999980e+01 -4.992275000000000240e+00 -1.643844061032895820e-01
8.838499999999999801e+00 7.118399999999999750e+01 5.922799999999999621e+00 -4.523856000000000321e+00 2.133491381320325869e-02
8.839600000000000790e+00 1.096500000000000057e+02 1.552599999999999980e+01 1.155061000000000071e+01 -2.723614092057802805e-01
8.839600000000000790e+00 1.105100000000000051e+02 1.552599999999999980e+01 1.019956999999999958e+01 -2.722367367078259992e-01
8.842499999999999361e+00 1.118900000000000006e+02 1.711700000000000088e+01 5.331417000000000073e+00 -1.644957084827897709e-01
8.844300000000000495e+00 9.099200000000000443e+01 -4.187000000000000277e+00 -1.683124000000000065e+00 1.085906402994274017e-01
8.844300000000000495e+00 9.193200000000000216e+01 -4.187000000000000277e+00 -2.603600000000000136e+00 1.092520481643987490e-01
8.845599999999999241e+00 8.924699999999999989e+01 -2.627099999999999921e-02 7.116630999999999929e+00 -1.860055985806545187e-01
8.851900000000000546e+00 1.001599999999999966e+02 1.185000000000000053e+00 6.497220999999999691e+00 -1.790274356747251772e-01
8.852299999999999613e+00 1.054800000000000040e+02 2.500900000000000034e+01 -3.348955999999999822e+00 -2.711106006880655284e-01
8.853600000000000136e+00 1.088199999999999932e+02 1.781700000000000017e+01 -3.411617999999999817e+00 -1.644034533497033268e-01
8.854499999999999815e+00 1.073799999999999955e+02 2.149500000000000099e+01 1.246021000000000045e+00 -1.612481169040603513e-01
8.854599999999999582e+00 7.737800000000000011e+01 2.352700000000000014e+00 2.414693999999999896e+00 -1.544813607545813539e-01
8.858000000000000540e+00 1.071500000000000057e+02 1.085999999999999943e+01 1.006779000000000046e+01 -1.675065262566876045e-01
8.858000000000000540e+00 1.096599999999999966e+02 1.085999999999999943e+01 4.150968000000000302e+01 -1.672173487390693769e-01
8.858499999999999375e+00 1.067900000000000063e+02 1.159600000000000009e+01 7.736672999999999689e+00 -1.671573884149928912e-01
8.861900000000000333e+00 9.057299999999999329e+01 -7.681599999999999540e-01 1.339274999999999949e+01 -1.849664237303210168e-01
8.862000000000000099e+00 7.599800000000000466e+01 5.747099999999999653e+00 2.661335000000000051e+01 3.874130657935365846e-02
8.863500000000000156e+00 1.017800000000000011e+02 9.412599999999999412e+00 5.750504000000000282e+00 -1.702585901966664483e-01
8.868199999999999861e+00 9.959199999999999875e+01 5.924199999999999910e+00 2.301489000000000118e+00 -1.775382348406121524e-01
8.868199999999999861e+00 1.013499999999999943e+02 6.029799999999999827e+00 1.153228999999999971e+01 -1.741526488504968051e-01
8.873699999999999477e+00 8.810299999999999443e+01 -3.500000000000000000e+00 1.232426000000000021e+00 1.064967619856932030e-01
8.873699999999999477e+00 8.810299999999999443e+01 -1.800000000000000044e+00 7.666005000000000180e+00 1.099151073839312043e-01
8.873699999999999477e+00 8.915300000000000580e+01 -3.500000000000000000e+00 1.214207999999999954e+00 1.079447480842209706e-01
8.873699999999999477e+00 8.915300000000000580e+01 -1.800000000000000044e+00 1.044638999999999918e+01 1.116758738333378520e-01
8.873699999999999477e+00 9.001900000000000546e+01 -3.500000000000000000e+00 1.305870000000000086e-01 1.089532921030121476e-01
8.873699999999999477e+00 7.076099999999999568e+01 3.282099999999999795e+00 -1.956110999999999933e+00 2.045041491245285989e-02
8.889499999999999957e+00 9.434300000000000352e+01 1.222600000000000087e+01 -6.722939000000000220e+00 -1.740553590175817900e-01
8.890700000000000713e+00 7.429399999999999693e+01 6.255300000000000082e+00 1.138516000000000084e+01 3.212277188389940641e-02
8.893900000000000361e+00 1.153199999999999932e+02 1.289400000000000013e+01 4.982581999999999844e-01 -1.672937076734933304e-01
8.895699999999999719e+00 7.918800000000000239e+01 2.502699999999999925e+00 1.130340999999999951e+01 -7.811283222925903894e-03
8.896499999999999631e+00 1.002800000000000011e+02 7.097100000000000186e+00 8.728533999999999793e+00 -1.738548824043401331e-01
8.897899999999999920e+00 1.108199999999999932e+02 1.622599999999999909e+01 4.705485000000000362e+00 -2.724737113175182412e-01
8.921799999999999287e+00 1.014699999999999989e+02 8.712600000000000122e+00 5.452898000000000245e+00 -1.709773295958345596e-01
8.923999999999999488e+00 1.117699999999999960e+02 1.315799999999999947e+01 1.029875000000000007e+01 -1.670592906227510166e-01
8.923999999999999488e+00 1.134000000000000057e+02 1.269500000000000028e+01 6.118617999999999668e+00 -1.671689437179844639e-01
8.938900000000000290e+00 1.084800000000000040e+02 2.167599999999999838e+01 2.173303000000000040e-01 -1.613869852538739047e-01
8.938900000000000290e+00 1.094099999999999966e+02 2.167599999999999838e+01 -1.856049999999999978e+00 -1.615548169512979748e-01
8.946600000000000108e+00 9.986299999999999955e+01 5.171299999999999564e+00 6.419170000000000265e+00 -1.781677191064411359e-01
8.947100000000000719e+00 1.018100000000000023e+02 2.405199999999999960e+01 1.476509000000000071e+00 -1.549228767113279837e-01
8.957000000000000739e+00 9.582599999999999341e+01 -2.505999999999999783e+00 -1.741300999999999988e+00 -1.809957840337560742e-01
8.960200000000000387e+00 9.455800000000000693e+01 -3.365099999999999980e+00 -8.337936999999999710e-01 -1.810075928456388039e-01
8.961899999999999977e+00 7.486100000000000421e+01 3.301299999999999901e+00 5.361475999999999686e+00 2.907399594312319244e-02
8.963900000000000645e+00 1.157699999999999960e+02 1.633800000000000097e+01 1.138563000000000081e+01 -1.646908616931069824e-01
8.965999999999999304e+00 1.063199999999999932e+02 1.516600000000000037e+01 4.254578999999999667e+00 -1.770864406666579904e-01
8.966300000000000381e+00 9.308499999999999375e+01 -3.382899999999999796e+00 2.156050000000000022e+00 -1.815470027346269277e-01
8.973100000000000520e+00 7.762800000000000011e+01 5.883000000000000007e+00 2.204989000000000132e+01 4.548150531465241370e-02
8.974000000000000199e+00 1.017500000000000000e+02 6.690000000000000391e-01 6.893411999999999651e+00 -1.778149412950904562e-01
8.974000000000000199e+00 1.030699999999999932e+02 1.404099999999999904e+00 4.902137999999999884e+00 -1.766960274654114926e-01
8.974000000000000199e+00 1.032999999999999972e+02 2.218999999999999861e+00 3.521793999999999869e+01 -1.758333975647042025e-01
8.977499999999999147e+00 1.100900000000000034e+02 1.733299999999999841e+01 -9.288895000000000124e+00 -1.646717510064581447e-01
8.994500000000000384e+00 1.084300000000000068e+02 1.007699999999999996e+01 4.434759999999999813e+00 -1.676069712243611065e-01
8.999000000000000554e+00 7.069499999999999318e+01 3.963999999999999968e+00 -2.033116000000000145e+00 1.969225332690780622e-02
9.020300000000000651e+00 9.549699999999999989e+01 -3.266000000000000014e+00 -1.587112000000000078e+00 -1.807160360599945892e-01
9.027699999999999392e+00 1.048400000000000034e+02 1.686499999999999844e+01 -4.084921999999999720e+00 -2.745000012398912670e-01
9.030300000000000438e+00 9.952400000000000091e+01 1.121099999999999985e+00 1.518024999999999958e+00 -1.798345373807322956e-01
9.035099999999999909e+00 1.141400000000000006e+02 1.658500000000000085e+01 1.572150000000000070e+01 -1.647195567697624097e-01
9.035500000000000753e+00 7.356900000000000261e+01 2.496199999999999974e+00 -6.394737000000000116e+00 2.499379430908062194e-02
9.035800000000000054e+00 1.103900000000000006e+02 1.663299999999999912e+01 1.716285999999999923e-01 -2.727668641008354489e-01
9.035999999999999588e+00 9.551200000000000045e+01 9.837500000000000133e-01 4.004851999999999634e+00 -1.840683392225818116e-01
9.043499999999999872e+00 1.090600000000000023e+02 1.597700000000000031e+01 5.619454000000000171e+00 -2.727639347560181782e-01
9.052599999999999980e+00 1.077300000000000040e+02 1.891499999999999915e+01 -3.347678000000000154e+00 -1.639158931150858645e-01
9.054700000000000415e+00 1.010000000000000000e+02 6.826999999999999957e+00 1.083075999999999972e+01 -1.731659424469951525e-01
9.054700000000000415e+00 1.010000000000000000e+02 8.227000000000000313e+00 3.045789000000000080e+00 -1.715524071996148425e-01
9.057999999999999829e+00 8.782699999999999818e+01 1.834300000000000042e+00 7.210794000000000370e-01 1.213359649477480096e-01
9.057999999999999829e+00 8.782699999999999818e+01 2.773699999999999832e+00 -5.181797999999999682e+00 -1.918952431658506597e-01
9.058799999999999741e+00 9.451900000000000546e+01 1.134099999999999930e+01 -4.068933000000000355e+00 -1.768561581290988283e-01
9.061999999999999389e+00 1.019200000000000017e+02 2.498799999999999955e+01 2.321321000000000190e+00 -1.533907262396543014e-01
9.061999999999999389e+00 1.021700000000000017e+02 2.588200000000000145e+01 1.494416999999999973e+01 -2.706504082041066850e-01
9.061999999999999389e+00 1.036200000000000045e+02 2.668799999999999883e+01 4.913618999999999737e+00 -2.691635623667953392e-01
9.061999999999999389e+00 1.050699999999999932e+02 2.588200000000000145e+01 2.503067000000000153e+00 -2.704288929231232763e-01
9.068899999999999295e+00 7.214000000000000057e+01 1.592999999999999972e+00 -1.340043000000000095e+00 2.195565910395369871e-02
9.069000000000000838e+00 1.110999999999999943e+02 2.097599999999999909e+01 -7.836967999999999712e+00 -1.624116210360974644e-01
9.076000000000000512e+00 9.848999999999999488e+01 5.779200000000000337e+00 2.866373999999999977e+00 -1.803985998307167660e-01
9.078099999999999170e+00 9.299500000000000455e+01 5.150999999999999801e+00 6.170473999999999570e+00 -1.934717966858086613e-01
9.078799999999999315e+00 7.056600000000000250e+01 4.921999999999999709e+00 -2.396170999999999829e+00 1.883177119573040126e-02
9.081699999999999662e+00 1.049200000000000017e+02 1.278700000000000081e+01 3.831713000000000147e+00 -1.663445295562084592e-01
9.092000000000000526e+00 1.151899999999999977e+02 2.136599999999999966e+01 -3.236000999999999905e+00 -1.626989448919846093e-01
9.095900000000000318e+00 1.066500000000000057e+02 2.153699999999999903e+01 4.294598999999999833e+00 -1.614450940995527939e-01
9.099600000000000577e+00 1.022399999999999949e+02 9.171599999999999753e+00 3.285178999999999849e+00 -1.698966170101726125e-01
9.104699999999999349e+00 1.010600000000000023e+02 2.330399999999999849e+01 -2.650077000000000016e+00 -1.568304992920473151e-01
9.108000000000000540e+00 7.090999999999999659e+01 2.416300000000000114e+00 -4.530630999999999631e+00 1.985862937175693343e-02
9.111200000000000188e+00 1.107399999999999949e+02 1.273300000000000054e+01 1.229152000000000022e+01 -1.669038071676550716e-01
9.112999999999999545e+00 1.006899999999999977e+02 7.527000000000000135e+00 6.686477000000000004e+00 -1.722526826878882922e-01
9.126599999999999824e+00 1.063199999999999932e+02 1.867299999999999827e+01 -4.953006000000000242e+00 -1.645043337929733840e-01
9.127900000000000347e+00 9.982500000000000284e+01 2.158399999999999963e+01 -7.470032999999999923e+00 -1.622986551135701117e-01
9.128999999999999559e+00 1.000400000000000063e+02 2.058399999999999963e+01 -5.954790000000000028e+00 -1.649874094481155185e-01
9.132300000000000750e+00 1.107699999999999960e+02 2.173600000000000065e+01 -3.370279000000000025e+00 -1.619367975799924642e-01
9.139300000000000423e+00 1.152500000000000000e+02 1.696999999999999886e+01 4.469636000000000386e+00 -1.645658211592691267e-01
9.141000000000000014e+00 8.958599999999999852e+01 -1.100000000000000089e+00 8.681210999999999345e+00 1.137780370982732492e-01
9.142400000000000304e+00 1.062000000000000028e+02 1.217900000000000027e+01 4.858558999999999628e+00 -1.666377397252540860e-01
9.146000000000000796e+00 9.858799999999999386e+01 1.235999999999999988e+00 7.000151000000000012e-01 -1.809642219087863602e-01
9.149900000000000588e+00 9.013700000000000045e+01 5.585499999999999687e+00 -2.171773999999999916e+01 -2.026864057182991841e-01
9.158699999999999619e+00 9.277599999999999625e+01 1.323399999999999999e+01 -4.167638000000000176e+00 -1.674626963504150523e-01
9.158699999999999619e+00 9.277599999999999625e+01 1.569400000000000084e+01 -1.377309999999999945e+01 -1.504955642538584604e-01
9.159299999999999997e+00 9.826500000000000057e+01 3.858900000000000219e+00 1.345380000000000020e+00 -1.818723812573084797e-01
9.159299999999999997e+00 9.826500000000000057e+01 5.258899999999999686e+00 2.893101000000000145e+00 -1.816898708264521323e-01
9.159299999999999997e+00 9.912999999999999545e+01 3.858900000000000219e+00 1.807255999999999974e+00 -1.806854062930481897e-01
9.159299999999999997e+00 9.912999999999999545e+01 5.258899999999999686e+00 1.857553999999999927e+00 -1.795964336416056017e-01
9.165900000000000603e+00 1.126500000000000057e+02 1.707100000000000151e+01 1.797304000000000102e+01 -1.646939685866369019e-01
9.177899999999999281e+00 1.024000000000000057e+02 5.903299999999999770e+00 1.602718000000000131e+01 -1.727829872824317436e-01
9.184900000000000730e+00 9.661199999999999477e+01 2.584700000000000220e+00 9.846959000000000017e+00 -1.840322488537685930e-01
9.186299999999999244e+00 1.069800000000000040e+02 1.882300000000000040e+01 -3.938212000000000046e+00 -1.642937372765922721e-01
9.194100000000000605e+00 7.499399999999999977e+01 6.197000000000000064e+00 -9.097284999999999400e+00 3.265882629255677239e-02
9.197599999999999554e+00 1.151400000000000006e+02 1.979599999999999937e+01 -4.498957000000000095e-01 -1.634298998251153545e-01
9.198199999999999932e+00 1.037199999999999989e+02 1.223799999999999955e+01 -1.038464000000000054e+00 -1.667029752654440311e-01
9.201299999999999812e+00 1.055600000000000023e+02 2.247899999999999920e+01 3.287339999999999929e+00 -1.603168670154983544e-01
9.202199999999999491e+00 9.793699999999999761e+01 3.442499999999999893e+00 4.303917000000000215e+00 -1.823975995202695988e-01
9.202199999999999491e+00 9.880200000000000671e+01 2.042499999999999982e+00 4.745320999999999678e+00 -1.810217727038526958e-01
9.202199999999999491e+00 9.880200000000000671e+01 3.442499999999999893e+00 6.678386999999999851e+00 -1.811992279235841163e-01
9.205299999999999372e+00 9.625799999999999557e+01 1.993599999999999994e+01 2.137780000000000058e+01 4.094633446161331791e-02
9.205299999999999372e+00 8.690999999999999659e+01 -2.447900000000000187e+00 3.163647999999999794e+00 1.057043136989916504e-01
9.206300000000000594e+00 1.094300000000000068e+02 1.667699999999999960e+01 -2.026680999999999955e+00 -2.730778554453993090e-01
9.217000000000000526e+00 9.474599999999999511e+01 1.827599999999999980e+01 -3.142464999999999842e-01 5.151261608983054296e-02
9.217000000000000526e+00 9.485800000000000409e+01 1.746999999999999886e+01 5.215880000000000294e+00 -1.793545428131809449e-01
9.217000000000000526e+00 9.497700000000000387e+01 1.909100000000000108e+01 2.806149999999999878e+01 4.582300072017698317e-02
9.217000000000000526e+00 9.761499999999999488e+01 1.909100000000000108e+01 1.236321999999999974e+02 4.854186916909762617e-02
9.217599999999999127e+00 9.796200000000000330e+01 4.558900000000000396e+00 9.809799999999999187e+00 -1.824337847047287631e-01
9.217599999999999127e+00 9.943399999999999750e+01 4.558900000000000396e+00 1.269495000000000040e+01 -1.798598870324558674e-01
9.222699999999999676e+00 9.755500000000000682e+01 2.663600000000000190e+00 7.287872000000000128e+00 -1.827939703419906303e-01
9.224500000000000810e+00 7.674099999999999966e+01 2.772200000000000220e+00 8.098076000000000718e+00 -1.542440995187989161e-01
9.224899999999999878e+00 1.002699999999999960e+02 1.968199999999999861e+01 4.294425000000000381e+00 -4.036863938294807386e-02
9.226399999999999935e+00 7.921399999999999864e+01 5.500499999999999723e+00 1.237967000000000084e+01 -1.494971424943944971e-01
9.227999999999999758e+00 9.310099999999999909e+01 8.708000000000000185e+00 -3.338081999999999994e+00 -1.947927805805468593e-01
9.227999999999999758e+00 9.332800000000000296e+01 7.908900000000000041e+00 -8.466829000000000605e+00 -1.947909803310005628e-01
9.227999999999999758e+00 9.332800000000000296e+01 9.507099999999999440e+00 -2.025983000000000089e+01 -1.911128964051833079e-01
9.227999999999999758e+00 9.353700000000000614e+01 7.172900000000000276e+00 7.774929000000000423e-01 -1.941294470485585566e-01
9.227999999999999758e+00 9.427700000000000102e+01 1.045599999999999952e+01 -1.059722999999999971e+01 -3.090423067047067818e-01
9.230299999999999727e+00 8.809600000000000364e+01 1.295600000000000085e+00 3.719863000000000142e+00 1.192013892340813008e-01
9.242800000000000793e+00 9.357800000000000296e+01 6.554800000000000182e+00 3.759783999999999793e+00 -1.938985155859041520e-01
9.245300000000000296e+00 8.890699999999999648e+01 4.580199999999999605e+00 -1.543968000000000007e+00 -2.002246240897775920e-01
9.248200000000000642e+00 8.723799999999999955e+01 -2.031499999999999861e+00 5.705563999999999858e+00 1.070429624059122675e-01
9.253999999999999559e+00 1.000100000000000051e+02 1.896399999999999864e+01 5.646085000000000242e+00 -4.493698924765517771e-02
9.256999999999999673e+00 9.993999999999999773e+01 2.214099999999999824e+01 -3.748664000000000218e+00 -1.610212345903797582e-01
9.260500000000000398e+00 9.910500000000000398e+01 2.742500000000000160e+00 6.056541000000000174e+00 -1.808649404184119458e-01
9.263600000000000279e+00 8.721299999999999386e+01 -3.147899999999999920e+00 3.357558000000000042e+00 1.050175900416304015e-01
9.265299999999999869e+00 1.157300000000000040e+02 1.314199999999999946e+01 2.544068000000000218e+00 -1.672949408726700782e-01
9.266799999999999926e+00 9.015600000000000591e+01 -4.080300000000000260e+00 -4.804813000000000001e-01 1.074783531936109870e-01
9.269700000000000273e+00 9.378499999999999659e+01 -3.324600000000000222e+00 1.195721999999999952e+00 -1.817433835269030296e-01
9.274900000000000588e+00 9.146200000000000330e+01 -4.719999999999999751e+00 -2.782751999999999892e+00 1.075000786328840913e-01
9.283899999999999153e+00 1.157199999999999989e+02 2.060699999999999932e+01 -3.767224000000000128e+00 -1.631827239489465620e-01
9.284000000000000696e+00 1.059599999999999937e+02 1.797200000000000131e+01 -2.525944000000000145e+01 -1.655111752945019332e-01
9.285999999999999588e+00 1.146500000000000057e+02 2.030199999999999960e+01 -2.536528000000000116e+00 -1.632364831546639361e-01
9.288299999999999557e+00 1.079599999999999937e+02 2.204100000000000037e+01 -5.851119000000000181e-01 -1.614172065814603318e-01
9.297700000000000742e+00 9.808400000000000318e+01 2.050899999999999945e+00 4.226842000000000432e+00 -1.820313109575120714e-01
9.301000000000000156e+00 1.154599999999999937e+02 1.903900000000000148e+01 -1.427054999999999962e+00 -1.638206310836531621e-01
9.304000000000000270e+00 1.164099999999999966e+02 1.414700000000000024e+01 4.978387999999999813e+00 -2.714412173582093635e-01
9.312400000000000233e+00 1.112999999999999972e+02 1.821000000000000085e+01 -2.473457000000000150e+01 -1.643127933450489186e-01
9.312400000000000233e+00 1.112999999999999972e+02 1.911700000000000088e+01 -6.231692000000000320e+01 -1.637822012145273287e-01
9.312400000000000233e+00 1.112999999999999972e+02 2.002400000000000091e+01 -4.874942000000000064e+01 -1.632354454475216377e-01
9.319000000000000838e+00 1.159899999999999949e+02 2.136599999999999966e+01 -1.471468999999999916e+01 -1.629242417210169103e-01
9.320199999999999818e+00 8.839000000000000057e+01 -1.116999999999999993e+00 1.260960000000000036e+01 1.113289348662995504e-01
9.320199999999999818e+00 8.839000000000000057e+01 2.829999999999999738e-01 4.854756000000000071e+00 1.156847095764751837e-01
9.320600000000000662e+00 1.122000000000000028e+02 1.266699999999999982e+01 8.883349000000000828e+00 -1.670297570125461317e-01
9.320600000000000662e+00 1.138299999999999983e+02 1.220400000000000063e+01 1.250480000000000036e+00 -1.671385670060598350e-01
9.322100000000000719e+00 9.385200000000000387e+01 1.262199999999999989e+01 -7.367943000000000353e+00 -1.694869523898057950e-01
9.326599999999999113e+00 1.146200000000000045e+02 1.262599999999999945e+01 5.144165000000000099e+00 -1.672078358887197080e-01
9.330399999999999139e+00 1.054699999999999989e+02 1.558200000000000074e+01 1.181981000000000037e+01 -1.771839406812565632e-01
9.331799999999999429e+00 1.027500000000000000e+02 1.000099999999999945e+01 3.157235000000000014e+00 -1.686862377759782428e-01
9.332900000000000418e+00 9.139199999999999591e+01 5.106300000000000061e+00 7.653566999999999609e+01 -1.993908149711163535e-01
9.343600000000000350e+00 1.083100000000000023e+02 1.822400000000000020e+01 -3.411735999999999880e+00 -1.647183348769308830e-01
9.346000000000000085e+00 1.037099999999999937e+02 3.901699999999999946e+00 9.484728000000000492e+00 -1.737116125943869160e-01
9.346000000000000085e+00 1.037099999999999937e+02 4.952300000000000146e+00 1.621756999999999849e+01 -1.725198880519344669e-01
9.355299999999999727e+00 8.862800000000000011e+01 -4.096099999999999852e+00 1.936307000000000000e+00 1.055388304870535643e-01
9.359999999999999432e+00 1.161299999999999955e+02 1.588499999999999979e+01 1.295093999999999923e+01 -2.718628863895312109e-01
9.362600000000000477e+00 1.067600000000000051e+02 1.565700000000000003e+01 2.844587999999999894e+00 -1.774223988062805235e-01
9.365399999999999281e+00 9.874399999999999977e+01 1.840099999999999980e+01 1.591747999999999941e+01 5.123193139066851975e-02
9.370599999999999596e+00 9.465900000000000603e+01 1.662500000000000000e+01 -1.266932000000000080e+01 -1.714553775110334022e-01
9.374299999999999855e+00 1.076299999999999955e+02 1.560399999999999920e+01 8.017201000000000022e+00 -2.730697274649942496e-01
9.378500000000000725e+00 8.869299999999999784e+01 -4.169999999999999818e-01 1.896602000000000032e+01 1.138474137579944256e-01
9.378600000000000492e+00 1.102999999999999972e+02 1.203299999999999947e+01 1.595518999999999998e+01 -1.667792263851368695e-01
9.378600000000000492e+00 1.074500000000000028e+02 1.116699999999999982e+01 5.710280999999999807e+01 -1.669363989413656657e-01
9.382300000000000750e+00 1.147199999999999989e+02 2.212600000000000122e+01 -3.766065999999999914e+00 -1.624998376975535230e-01
9.382300000000000750e+00 1.156599999999999966e+02 2.212600000000000122e+01 -1.043260000000000076e+01 -1.626221812811658451e-01
9.390299999999999869e+00 1.036099999999999994e+02 3.081900000000000084e+00 8.378854999999999720e+00 -1.746176488372608027e-01
9.394500000000000739e+00 7.416100000000000136e+01 3.033900000000000041e+00 -4.493000999999999578e+00 2.488066529509686681e-02
9.394500000000000739e+00 7.556100000000000705e+01 3.033900000000000041e+00 1.168280000000000030e+01 2.827319990091330809e-02
9.398300000000000765e+00 7.137999999999999545e+01 1.656300000000000106e+00 -1.988409000000000093e+00 1.958579778028828738e-02
9.398300000000000765e+00 7.290000000000000568e+01 1.656300000000000106e+00 -1.373633000000000104e+00 2.194914980538597432e-02
9.398600000000000065e+00 1.017199999999999989e+02 8.299200000000000799e+00 7.864440000000000097e+00 -1.705371024168904903e-01
9.399900000000000588e+00 9.769400000000000261e+01 1.235999999999999988e+00 3.050942000000000043e+00 -1.823359475027615806e-01
9.403399999999999537e+00 1.078700000000000045e+02 1.048799999999999955e+01 7.636900999999999939e+00 -1.672198281603826941e-01
9.408300000000000551e+00 7.582800000000000296e+01 6.235899999999999999e+00 1.684218999999999866e+01 3.476780369992919784e-02
9.410500000000000753e+00 1.090199999999999960e+02 1.072000000000000064e+01 3.777758999999999645e+01 -1.670054274363458324e-01
9.412599999999999412e+00 9.563299999999999557e+01 -5.151299999999999768e-01 7.836613999999999969e+00 -1.833215528846167397e-01
9.412599999999999412e+00 9.563299999999999557e+01 3.501199999999999868e-01 1.010027999999999970e+01 -1.840808252254371724e-01
9.414600000000000080e+00 1.114399999999999977e+02 1.279100000000000037e+01 7.754280999999999757e+00 -1.669495096114007593e-01
9.416000000000000369e+00 7.344400000000000261e+01 6.580000000000000071e+00 4.566170000000000329e+01 2.448860807127736100e-02
9.420999999999999375e+00 7.833799999999999386e+01 2.177999999999999936e+00 4.967872999999999983e+00 -1.556053866865201585e-01
9.420999999999999375e+00 7.978400000000000603e+01 2.984300000000000175e+00 1.085968000000000089e+01 -1.225098476190925219e-02
9.420999999999999375e+00 7.978400000000000603e+01 4.771700000000000053e+00 1.271058000000000021e+01 -4.513127832073567623e-03
9.420999999999999375e+00 8.003799999999999670e+01 3.878000000000000114e+00 1.348973999999999940e+01 -1.034465291385614980e-02
9.423299999999999343e+00 1.141899999999999977e+02 2.125700000000000145e+01 -4.269194999999999851e+00 -1.628572261565255086e-01
9.426700000000000301e+00 9.869799999999999329e+01 4.558900000000000396e+00 8.184409000000000489e+00 -1.815571787299747886e-01
9.429199999999999804e+00 1.018599999999999994e+02 6.595500000000000362e+00 1.552632999999999974e+01 -1.722143265227446818e-01
9.431699999999999307e+00 1.145699999999999932e+02 1.707600000000000051e+01 1.695272999999999897e+01 -1.647292387974228778e-01
9.439199999999999591e+00 1.145799999999999983e+02 1.898600000000000065e+01 -1.926174000000000053e+00 -1.639156448617321016e-01
9.448999999999999844e+00 9.230599999999999739e+01 1.399399999999999977e+01 -4.305467000000000155e+00 -1.552108369366507479e-01
9.448999999999999844e+00 9.230599999999999739e+01 1.493399999999999928e+01 -4.317737000000000158e+00 -1.474364455488169356e-01
9.450200000000000600e+00 7.180400000000000205e+01 6.112099999999999866e+00 4.736748999999999654e+00 1.893963272242195697e-02
9.450900000000000745e+00 9.502700000000000102e+01 -3.798999999999999932e+00 -2.734029000000000043e+00 -1.810285210061484407e-01
9.452299999999999258e+00 9.704500000000000171e+01 1.884700000000000042e+00 5.115414999999999601e+00 -1.835624516957629349e-01
9.452999999999999403e+00 1.025300000000000011e+02 9.650199999999999889e-01 4.328811999999999927e+01 -1.775396549885621955e-01
9.456899999999999196e+00 1.014200000000000017e+02 7.599199999999999733e+00 1.244584000000000046e+01 -1.711867883945476509e-01
9.456899999999999196e+00 1.030499999999999972e+02 9.228999999999999204e+00 2.048205999999999971e+00 -1.690493286757137892e-01
9.460300000000000153e+00 1.055400000000000063e+02 1.713200000000000145e+01 -2.910807999999999840e+00 -2.747781422553630670e-01
9.461999999999999744e+00 7.060699999999999932e+01 4.184000000000000163e+00 -2.196013999999999911e+00 1.730953115309536577e-02
9.468600000000000350e+00 9.621200000000000330e+01 1.251100000000000101e+00 7.372908999999999935e+00 -1.842565882871860794e-01
9.469599999999999795e+00 9.836899999999999977e+01 2.742500000000000160e+00 5.239060000000000272e+00 -1.821376861930766866e-01
9.469599999999999795e+00 1.028400000000000034e+02 1.098000000000000043e+01 5.789958000000000382e+00 -1.676178169158362152e-01
9.470200000000000173e+00 1.140900000000000034e+02 1.949200000000000088e+01 -3.123080999999999996e+00 -1.637020700673221252e-01
9.470700000000000784e+00 9.806300000000000239e+01 3.860000000000000098e-01 1.672301999999999955e+00 -1.816339079483340890e-01
9.470700000000000784e+00 9.911299999999999955e+01 3.860000000000000098e-01 1.107604999999999951e+00 -1.805934679454826719e-01
9.473800000000000665e+00 9.707099999999999795e+01 1.989099999999999824e+01 2.010574000000000083e+01 4.520490199659501357e-02
9.474600000000000577e+00 1.087500000000000000e+02 1.651099999999999923e+01 -4.423642999999999881e-01 -2.733200232831000109e-01
9.478300000000000836e+00 1.149099999999999966e+02 1.811400000000000077e+01 2.057355999999999963e+00 -1.643106238940065245e-01
9.481299999999999173e+00 1.055600000000000023e+02 2.368100000000000094e+01 -1.840314999999999923e+00 -1.593423359503170489e-01
9.482900000000000773e+00 1.126099999999999994e+02 1.230000000000000071e+01 5.783539000000000208e+00 -1.670314291961095543e-01
9.485200000000000742e+00 1.160199999999999960e+02 1.984900000000000020e+01 -2.295786999999999800e+00 -1.636214975985073872e-01
9.488099999999999312e+00 9.353600000000000136e+01 1.575699999999999967e+01 -7.685267000000000337e+01 -1.484934815096286553e-01
9.489399999999999835e+00 1.134000000000000057e+02 1.702499999999999858e+01 1.978286999999999907e+01 -1.648742617759982321e-01
9.490000000000000213e+00 9.625700000000000500e+01 -2.975699999999999790e+00 -1.039520000000000000e+00 -1.810395101044282862e-01
9.490000000000000213e+00 9.625700000000000500e+01 -2.036300000000000221e+00 -5.392495000000000260e+00 -1.817160536912577617e-01
9.490399999999999281e+00 1.008499999999999943e+02 8.136200000000000099e-01 5.553687000000000040e+00 -1.791099576398014481e-01
9.492499999999999716e+00 1.062099999999999937e+02 2.202799999999999869e+01 7.227160999999999724e+00 -1.614830006831675102e-01
9.492499999999999716e+00 1.070799999999999983e+02 2.202799999999999869e+01 1.751973999999999920e+00 -1.615858526025705233e-01
9.500000000000000000e+00 1.166299999999999955e+02 1.501699999999999946e+01 6.429365999999999914e+00 -2.716674245714907343e-01
9.502900000000000347e+00 1.115900000000000034e+02 2.050700000000000145e+01 -1.347263000000000055e+01 -1.631214486875094127e-01
9.508800000000000807e+00 9.334099999999999397e+01 5.881000000000000227e+00 5.590212000000000181e+00 -1.956374280249657538e-01
9.509700000000000486e+00 7.053100000000000591e+01 5.296299999999999564e+00 -1.705748999999999960e+00 8.797457832517416310e-02
9.513700000000000045e+00 9.954900000000000659e+01 1.837399999999999878e+01 8.047879999999999256e+00 -6.214102791074087306e-02
9.518599999999999284e+00 1.052399999999999949e+02 1.643199999999999861e+01 5.684101000000000070e+00 -2.744317223080117718e-01
9.523300000000000765e+00 9.347700000000000387e+01 1.307799999999999940e+01 -1.732837999999999923e+01 -1.643106077124995568e-01
9.527699999999999392e+00 1.026800000000000068e+02 8.378999999999999559e+00 3.030320000000000125e+00 -1.697753506049947125e-01
