1.266999999999999904e+00 -2.895599999999999952e+01 -1.521599999999999930e+01 -3.628337000000000145e+00 -8.456385157080004156e-02
1.270999999999999908e+00 3.466499999999999915e+00 -3.099599999999999866e+01 4.556283999999999779e+00 -1.074951945195068842e-01
1.270999999999999908e+00 3.466499999999999915e+00 -3.012999999999999901e+01 8.087184999999999846e+00 -1.074338965018043213e-01
1.270999999999999908e+00 4.415300000000000225e+00 -3.194399999999999906e+01 -1.680968999999999980e+01 -1.070788961273467788e-01
1.272299999999999986e+00 -1.513899999999999935e+01 -2.643199999999999861e+01 3.005203999999999986e+00 -9.404412335801197453e-02
1.288000000000000034e+00 3.991699999999999804e+00 -3.403700000000000170e+00 1.162731999999999921e+01 -3.643321696090459083e-01
1.292300000000000004e+00 -2.618299999999999983e+01 -8.644700000000000273e+00 6.603469999999999729e+00 -8.017108882758719468e-02
1.299299999999999899e+00 1.181099999999999994e+01 -4.979499999999999815e+00 3.559109999999999996e+00 -3.629370187192831887e-01
1.299500000000000099e+00 -1.334099999999999930e+01 -2.536499999999999844e+01 8.609396999999999522e+00 -1.088545168774975869e-01
1.305600000000000094e+00 -2.944500000000000117e+00 -1.116499999999999915e+01 -2.003265999999999936e-01 -7.977108889633988120e-02
1.305600000000000094e+00 -2.944500000000000117e+00 -1.030000000000000071e+01 -1.157405000000000017e+00 -7.748190953346734133e-02
1.320000000000000062e+00 1.912399999999999878e+01 -2.008800000000000097e+01 6.580353999999999814e+01 -3.768665557214500583e-01
1.328999999999999959e+00 5.863000000000000433e+00 -1.955999999999999961e+00 2.767842999999999876e+01 -3.640939771292647786e-01
1.328999999999999959e+00 7.413000000000000256e+00 -1.955999999999999961e+00 5.947666999999999859e+01 -3.638106209847059569e-01
1.330999999999999961e+00 4.293700000000000294e+00 -3.351700000000000301e+01 -6.357709999999999972e+00 -1.059811460717446224e-01
1.335900000000000087e+00 -3.920700000000000074e+00 -7.730000000000000426e+00 1.047136000000000067e+00 -7.074915630742428796e-02
1.336100000000000065e+00 -1.506000000000000050e+01 -2.259799999999999898e+01 -1.076750000000000007e+01 -9.217470785664919064e-02
1.338600000000000012e+00 4.650199999999999889e+00 -3.278499999999999659e+01 -2.773254999999999981e+01 -1.062537711003287838e-01
1.340700000000000003e+00 9.906100000000000350e+00 -4.219599999999999795e+00 -1.783130999999999844e+01 -3.632165896520959669e-01
1.352999999999999980e+00 3.874099999999999877e+00 -4.395699999999999719e+00 7.576257000000000019e+00 -3.642837700851817018e-01
1.353299999999999947e+00 -1.418099999999999916e+01 -3.247200000000000131e+01 5.888224000000000302e+01 -1.089699891190039904e-01
1.358200000000000074e+00 1.926099999999999923e+01 -2.102299999999999969e+01 1.761505000000000010e+01 -3.769565003700705019e-01
1.359900000000000109e+00 1.787000000000000099e+01 -1.924800000000000111e+01 9.209059000000000594e+01 -3.765445705989649561e-01
1.360999999999999988e+00 8.616899999999999338e+00 -2.813500000000000156e+01 -1.432217000000000073e+00 -1.046086524106055460e-01
1.360999999999999988e+00 1.001699999999999946e+01 -2.813500000000000156e+01 -3.243736999999999870e+00 -1.038322519444210279e-01
1.366600000000000037e+00 -1.616400000000000148e+01 -7.593600000000000350e+00 4.782753999999999905e+01 -7.676247999650591403e-02
1.366600000000000037e+00 -1.476399999999999935e+01 -7.593600000000000350e+00 3.047082999999999942e+01 -7.622957060672144736e-02
1.372500000000000053e+00 1.692299999999999827e+01 -2.382700000000000173e+01 7.300229999999999997e+00 -3.767377628133818379e-01
1.372999999999999998e+00 1.420500000000000007e+01 -1.264400000000000013e+01 1.127238000000000007e+01 -3.767782847006114766e-01
1.372999999999999998e+00 1.420500000000000007e+01 -1.085599999999999987e+01 -5.918517999999999724e+00 -3.627811263330725788e-01
1.372999999999999998e+00 1.445899999999999963e+01 -1.175000000000000000e+01 1.827226999999999935e+00 -3.767335089060871445e-01
1.375299999999999967e+00 -1.871600000000000108e+01 -2.634100000000000108e+01 4.273723000000000383e+00 -9.259630484743572310e-02
1.378700000000000037e+00 7.176099999999999923e+00 -2.962999999999999901e+01 1.143426000000000053e+00 -1.057067923764514195e-01
1.381999999999999895e+00 -1.166200000000000081e+01 -6.625600000000000378e+00 2.427019999999999911e+01 -7.319572335063954938e-02
1.382900000000000018e+00 -7.304000000000000270e+00 -1.414100000000000001e+01 1.139067000000000007e+01 -8.580893521283752823e-02
1.384700000000000042e+00 -1.625300000000000011e+01 -2.184700000000000131e+01 1.303291999999999895e+00 -9.124752046700489172e-02
1.386600000000000055e+00 -8.879300000000000637e+00 -3.310000000000000142e+01 3.966277999999999970e+00 -1.092127853728525888e-01
1.387699999999999934e+00 -1.683299999999999841e+01 -2.062500000000000000e+01 9.490835999999999828e+00 -9.025379473645039896e-02
1.405000000000000027e+00 -1.866999999999999993e+00 -3.974600000000000222e+01 -7.527937000000000101e-01 -1.054798286425654708e-01
1.405299999999999994e+00 3.122900000000000009e+00 -3.443299999999999983e+01 -3.146375000000000144e-01 -1.061441378586482909e-01
1.406700000000000061e+00 -3.552299999999999791e+00 -8.580000000000000071e+00 1.096357999999999944e+00 -7.290070179169676201e-02
1.406700000000000061e+00 -3.552299999999999791e+00 -6.879999999999999893e+00 5.703149999999999942e+00 -6.812651976762615358e-02
1.406700000000000061e+00 -2.501700000000000035e+00 -6.879999999999999893e+00 1.014166999999999952e+01 -6.737860035314845175e-02
1.408199999999999896e+00 -4.909600000000000186e+00 -3.942699999999999960e+01 6.980779000000000067e+00 -1.068774196663963283e-01
1.418299999999999894e+00 3.935700000000000198e+00 -5.027899999999999814e+00 7.705326999999999593e+00 -3.642272962891498489e-01
1.419000000000000039e+00 -6.171299999999999564e+00 -1.490000000000000036e+01 1.933333999999999975e+01 -8.725481760798423081e-02
1.419100000000000028e+00 -1.412700000000000067e+01 -3.518299999999999983e+01 7.013765000000000249e+00 -1.087901173945492045e-01
1.427899999999999947e+00 -1.346700000000000053e+01 -2.255099999999999838e+01 7.497421000000000113e+00 -9.269665226300739802e-02
1.429300000000000015e+00 1.099499999999999922e+01 -2.886400000000000077e+01 -9.360399999999999832e-01 -1.033290033797183288e-01
1.429300000000000015e+00 1.251500000000000057e+01 -2.886400000000000077e+01 -1.724904999999999911e+00 -1.017260308968377797e-01
1.435000000000000053e+00 3.980100000000000193e+00 -2.962600000000000122e+01 5.173123000000000360e+00 -1.070383399123822077e-01
1.440299999999999914e+00 -6.639999999999999680e+00 -3.931000000000000227e+01 -1.042818000000000023e+00 -1.075286566977788072e-01
1.442299999999999915e+00 -2.754299999999999926e+01 -1.185399999999999920e+01 5.770868999999999582e-01 -8.247847520987286463e-02
1.446600000000000108e+00 -2.855699999999999861e+01 -1.831099999999999994e+01 -2.297776999999999958e+00 -8.623215505157422189e-02
1.452900000000000080e+00 -7.280000000000000249e+00 -1.116699999999999982e+01 1.342936000000000085e+01 -8.018986120724277966e-02
1.453000000000000069e+00 1.296599999999999975e-01 -7.482199999999999740e+00 3.057745000000000157e+00 -6.776798784112761376e-02
1.455999999999999961e+00 -9.927400000000000446e+00 -9.968400000000000816e+00 -9.353276000000000368e-01 -7.839210472774557625e-02
1.459000000000000075e+00 -1.992000000000000171e+01 -2.289600000000000080e+01 5.602880999999999556e-01 -9.058196304767562879e-02
1.459000000000000075e+00 -1.538100000000000023e+01 -3.434300000000000352e+01 3.612887000000000182e+00 -1.087094498335447607e-01
1.459000000000000075e+00 -1.538100000000000023e+01 -3.338499999999999801e+01 5.482010999999999967e+00 -1.087549345825319369e-01
1.461200000000000054e+00 -1.344400000000000084e+01 -2.016400000000000148e+01 -7.814771999999999608e+00 -9.101964253235782232e-02
1.463500000000000023e+00 8.737299999999999400e+00 -3.623499999999999943e+00 1.245076000000000072e+01 -3.634667118637413541e-01
1.465000000000000080e+00 -3.248899999999999899e+00 -9.279999999999999361e+00 -7.423680999999999752e-01 -7.469087126257790976e-02
1.467999999999999972e+00 -1.745899999999999963e+01 -1.898499999999999943e+01 3.779792000000000041e+00 -8.883598948503700077e-02
1.467999999999999972e+00 -1.725000000000000000e+01 -1.972100000000000009e+01 -1.458175999999999917e+00 -8.943950232079925233e-02
1.467999999999999972e+00 -1.725000000000000000e+01 -1.824899999999999878e+01 1.124578999999999951e+01 -8.831654614055359231e-02
1.467999999999999972e+00 -1.605900000000000105e+01 -1.758500000000000085e+01 5.981446000000000041e+00 -8.805566359509783836e-02
1.475800000000000001e+00 3.957599999999999785e+00 -5.928600000000000314e+00 1.183661999999999992e+01 -3.641575719036032610e-01
1.481800000000000006e+00 1.312299999999999933e+01 -7.081000000000000405e+00 1.272772000000000014e+00 -3.628585240219193708e-01
1.483300000000000063e+00 1.847299999999999898e+01 -2.335300000000000153e+01 7.220118000000000258e+00 -3.769557465026951437e-01
1.483999999999999986e+00 -3.599999999999999728e-02 -4.006000000000000227e+01 7.153520000000000323e+00 -1.044767543961601791e-01
1.483999999999999986e+00 1.514000000000000012e+00 -4.006000000000000227e+01 1.570919999999999916e+01 -1.037122222541185523e-01
1.489200000000000079e+00 1.409999999999999920e+00 -3.675900000000000034e+01 3.577365999999999957e+01 -1.056428012895089807e-01
1.489200000000000079e+00 1.619099999999999984e+00 -3.749499999999999744e+01 5.715019999999999811e+01 -1.050729263294534893e-01
1.489200000000000079e+00 1.619099999999999984e+00 -3.602300000000000324e+01 1.683459999999999823e+01 -1.059984456243081158e-01
1.491999999999999993e+00 -1.400999999999999979e+01 -1.889099999999999824e+01 1.820138000000000034e+00 -8.975853945191046568e-02
1.497999999999999998e+00 -2.955900000000000105e+01 -1.680900000000000105e+01 -5.405915000000000248e+00 -8.531516583910390972e-02
1.497999999999999998e+00 -2.933200000000000074e+01 -1.760800000000000054e+01 -8.000528999999999558e-01 -8.575552623843848976e-02
1.497999999999999998e+00 -2.933200000000000074e+01 -1.601000000000000156e+01 -3.991356999999999822e+00 -8.490734281902066749e-02
1.497999999999999998e+00 -2.803900000000000148e+01 -1.832900000000000063e+01 -5.311149999999999594e+00 -8.629518627475790682e-02
1.506899999999999906e+00 1.553700000000000081e+01 -1.997500000000000142e+01 1.244182999999999950e+01 -3.765150516476863940e-01
1.508000000000000007e+00 5.225900000000000212e+00 -2.889499999999999957e+01 2.353432000000000190e+00 -1.063412163116911613e-01
1.508999999999999897e+00 6.006899999999999906e+00 -2.892000000000000171e+01 2.060944000000000109e+00 -1.059925470547051080e-01
1.510999999999999899e+00 1.332399999999999984e+01 -2.465899999999999892e+01 -1.085937999999999981e+01 -9.983239220688611137e-02
1.510999999999999899e+00 1.448300000000000054e+01 -2.387999999999999901e+01 2.661176999999999904e+00 -9.848732724917241832e-02
1.515600000000000058e+00 -2.277499999999999858e+01 -2.125900000000000034e+01 1.687395999999999896e+00 -8.887975655096355676e-02
1.522100000000000009e+00 -9.631999999999999673e+00 -3.305400000000000205e+01 4.046465000000000423e+00 -1.091129627924400658e-01
1.533300000000000107e+00 -1.967099999999999937e+01 -6.400400000000000311e+00 2.412359000000000009e+01 -7.659726120744828060e-02
1.537300000000000111e+00 1.266000000000000014e+01 -5.982000000000000206e+00 8.552500000000000213e+00 -3.629001217205792273e-01
1.538000000000000034e+00 -1.197300000000000075e+01 -2.534600000000000009e+01 6.884808999999999735e+00 -1.087812714776472262e-01
1.542899999999999938e+00 1.661499999999999844e+01 -1.972800000000000153e+01 4.171076000000000050e+01 -3.763696109721591521e-01
1.544000000000000039e+00 -2.397800000000000153e+01 -7.153599999999999959e+00 5.146561000000000163e+00 -7.853766261297116802e-02
1.544799999999999951e+00 -2.567699999999999960e+01 -1.903099999999999881e+01 2.826750999999999792e+00 -8.702588293549121112e-02
1.548000000000000043e+00 -7.878800000000000026e+00 -3.425699999999999790e+01 1.059849999999999959e+00 -1.090186230176587862e-01
1.548000000000000043e+00 -7.550500000000000433e+00 -3.500200000000000244e+01 1.283628999999999909e+00 -1.089503750891489542e-01
1.548999999999999932e+00 5.299000000000000377e+00 -2.521300000000000097e+00 2.729112999999999900e+01 -3.641467670901216702e-01
1.549500000000000099e+00 -1.147000000000000064e+01 -2.903000000000000114e+01 7.250454999999999650e+00 -1.090938945495442819e-01
1.549500000000000099e+00 -1.147000000000000064e+01 -2.801800000000000068e+01 1.390933000000000064e+01 -1.090550176370722879e-01
1.549500000000000099e+00 -1.126099999999999923e+01 -2.976599999999999824e+01 5.920850999999999864e+00 -1.091189919551548149e-01
1.549500000000000099e+00 -1.126099999999999923e+01 -2.728200000000000003e+01 6.503001000000000253e+00 -1.090227677669554779e-01
1.553099999999999925e+00 -8.270699999999999719e+00 -1.037100000000000044e+01 6.756312999999999569e+00 -7.870285351092150272e-02
1.562599999999999989e+00 -1.495400000000000063e+01 -1.782999999999999829e+01 7.920494999999999841e+00 -8.849366218397947126e-02
1.568000000000000060e+00 -2.351300000000000168e+01 -6.204100000000000392e+00 -1.090081000000000078e+00 -7.762340406651507818e-02
1.568000000000000060e+00 -2.082300000000000040e+01 -6.105000000000000426e+00 6.910511999999999766e+00 -7.669529302509109359e-02
1.573499999999999899e+00 1.365799999999999947e+01 -1.844999999999999929e+01 6.873573999999999629e+00 -9.298773607529134400e-02
1.573499999999999899e+00 1.365799999999999947e+01 -1.480599999999999916e+01 1.673912999999999940e+01 -8.675060053241298585e-02
1.573499999999999899e+00 1.386700000000000088e+01 -1.918599999999999994e+01 1.090191000000000088e+01 -9.386953343190244936e-02
1.573499999999999899e+00 1.386700000000000088e+01 -1.771399999999999864e+01 1.304786999999999964e+01 -9.173436226314621300e-02
1.573499999999999899e+00 1.386700000000000088e+01 -1.554199999999999982e+01 2.208370000000000033e+01 -8.802506063307083406e-02
1.578699999999999992e+00 7.813799999999999635e+00 -2.887699999999999889e+01 1.151291000000000064e+00 -1.050458863564238954e-01
1.581900000000000084e+00 -2.708999999999999986e+01 -1.025200000000000067e+01 7.655759999999999899e+00 -8.133579000613404275e-02
1.583599999999999897e+00 -1.815599999999999881e+01 -6.400000000000000355e+00 1.129603000000000037e+02 -7.601488016944914217e-02
1.583700000000000108e+00 -1.353800000000000026e+01 -3.212500000000000000e+01 1.262329000000000079e+01 -1.089000902522541114e-01
1.583700000000000108e+00 -1.183799999999999919e+01 -3.487500000000000000e+01 1.146194999999999986e+01 -1.088713497812554137e-01
1.584999999999999964e+00 -2.730399999999999849e+01 -1.089000000000000057e+01 1.384861000000000075e+01 -8.178454955078685862e-02
1.592700000000000005e+00 -2.421900000000000119e+01 -1.982799999999999940e+01 6.068812999999999569e-01 -8.772725273080643482e-02
1.602899999999999991e+00 -1.404100000000000037e+01 -2.542399999999999949e+01 2.674195999999999884e+01 -9.383648043783199277e-02
1.603099999999999969e+00 1.331900000000000084e+01 -1.003599999999999959e+01 1.273657000000000039e+01 -3.628121270935755760e-01
1.616999999999999993e+00 -2.670799999999999841e+01 -9.494699999999999918e+00 4.601408000000000165e+00 -8.076186831957773982e-02
1.631999999999999895e+00 -2.743499999999999872e+01 -1.377999999999999936e+01 -2.105953999999999882e-01 -8.366299273022581584e-02
1.631999999999999895e+00 -2.743499999999999872e+01 -1.291499999999999915e+01 -1.503667000000000087e+00 -8.311132118063543905e-02
1.633699999999999930e+00 1.808100000000000041e+00 -7.456599999999999895e+00 4.514624000000000414e+00 -6.711325479104288116e-02
1.633699999999999930e+00 2.803900000000000059e+00 -7.456599999999999895e+00 -2.599606999999999779e+00 -8.108885259262429979e-02
1.633999999999999897e+00 -1.659600000000000009e+01 -6.893600000000000172e+00 3.906853999999999871e+01 -7.596278342772881664e-02
1.633999999999999897e+00 -1.433099999999999952e+01 -6.893600000000000172e+00 2.487790999999999997e+01 -7.497094550435352833e-02
1.638099999999999890e+00 -2.219399999999999906e+01 -5.372200000000000308e+00 1.721922999999999959e+01 -7.647251017429776421e-02
1.644300000000000095e+00 -3.883000000000000007e+00 -6.541100000000000136e+00 2.412955000000000183e+00 -6.748114231018577380e-02
1.652099999999999902e+00 -1.582000000000000028e+01 -2.254700000000000060e+01 -8.751870000000000260e+00 -9.164373452983654023e-02
1.655999999999999917e+00 -2.765299999999999869e+01 -1.426200000000000045e+01 2.262122000000000188e+00 -8.394829017378542535e-02
1.664600000000000080e+00 -4.035300000000000331e+00 -1.471499999999999986e+01 5.437567999999999735e+00 -8.709850788736571425e-02
1.664900000000000047e+00 6.637999999999999901e+00 -1.891499999999999959e+00 8.166889999999999361e+01 -3.639415639258001822e-01
1.669699999999999962e+00 3.936599999999999877e+00 -6.698299999999999699e+00 1.308474000000000004e+01 -3.640933461429928242e-01
1.669999999999999929e+00 -1.546400000000000041e+01 -7.651900000000000368e+00 4.522706999999999766e+01 -7.648559230495850791e-02
1.682099999999999929e+00 7.965700000000000003e+00 -2.660699999999999843e+00 2.742909999999999826e+01 -3.636626831290673545e-01
1.683300000000000018e+00 -5.541000000000000369e+00 -1.481099999999999994e+01 4.359753999999999685e+00 -8.694297778107859531e-02
1.684299999999999908e+00 1.533200000000000074e+01 -2.380699999999999861e+01 4.448324000000000389e+00 -1.105105703449698051e-01
1.689999999999999947e+00 -1.568599999999999994e+01 -2.688500000000000156e+01 3.854346000000000050e+00 -9.372849723743595374e-02
1.690099999999999936e+00 -1.335999999999999943e+01 -3.521800000000000352e+01 2.916872999999999827e+00 -1.086980497232807874e-01
1.691599999999999993e+00 -1.061299999999999955e+01 -3.375800000000000267e+01 3.539187000000000083e+00 -1.089339653173403422e-01
1.694499999999999895e+00 -1.198799999999999955e+01 -3.165099999999999980e+01 1.679896000000000100e+01 -1.089571265377687059e-01
1.699999999999999956e+00 -1.924099999999999966e+01 -2.549099999999999966e+01 1.864491999999999905e+01 -9.189253181314184504e-02
1.699999999999999956e+00 -1.924099999999999966e+01 -2.444099999999999895e+01 4.328568999999999889e+00 -9.142849756550323892e-02
1.703600000000000003e+00 4.166500000000000092e+00 -3.126300000000000168e+01 -3.347705000000000264e-01 -1.068984361057404298e-01
1.704199999999999937e+00 -4.003999999999999559e+00 -3.905700000000000216e+01 4.658403999999999989e+00 -1.067661431053235493e-01
1.710800000000000098e+00 -1.049500000000000099e+00 -3.982099999999999795e+01 4.152044999999999764e-01 -1.050924097186366757e-01
1.717100000000000071e+00 -2.328800000000000026e+01 -1.985800000000000054e+01 5.214800000000000324e+00 -8.788342547591329601e-02
1.732299999999999951e+00 -2.541799999999999926e+01 -8.510999999999999233e+00 5.722401999999999767e+00 -7.983925810779333998e-02
1.732299999999999951e+00 -1.746499999999999986e+01 -2.678900000000000148e+01 2.307491000000000181e+00 -9.300998943885108172e-02
1.738199999999999967e+00 -3.644499999999999851e+00 -1.003200000000000003e+01 -1.492426999999999948e+00 -7.667248771629310566e-02
1.742599999999999927e+00 -1.919600000000000151e+01 -2.339600000000000080e+01 -1.475907000000000080e+00 -9.091183865284249710e-02
1.754999999999999893e+00 -1.490199999999999925e+01 -3.511800000000000210e+01 3.128734999999999822e+00 -1.085534828373075911e-01
1.754999999999999893e+00 -1.490199999999999925e+01 -3.260999999999999943e+01 3.085688000000000031e+01 -1.086619467709345199e-01
1.756099999999999994e+00 -1.429899999999999949e+01 -2.285800000000000054e+01 3.166599999999999859e+00 -9.231056770191155281e-02
1.761900000000000022e+00 3.863100000000000200e+00 -3.056299999999999883e+01 9.356543000000000276e+00 -1.068937316065589060e-01
1.762399999999999967e+00 -1.797200000000000131e+01 -2.650799999999999912e+01 2.280273999999999912e+00 -9.270529103844883656e-02
1.763900000000000023e+00 -2.961699999999999999e+00 -6.253700000000000259e+00 9.409952999999999790e+00 -6.601852409857791870e-02
1.764599999999999946e+00 1.232900000000000063e+01 -5.420899999999999608e+00 1.886531000000000091e+01 -3.629379380899065421e-01
1.764999999999999902e+00 -7.165300000000000225e+00 -3.846000000000000085e+01 2.306446999999999914e+00 -1.082011473368446747e-01
1.764999999999999902e+00 -7.165300000000000225e+00 -3.740999999999999659e+01 7.947384999999999700e+00 -1.085756099657101126e-01
1.770199999999999996e+00 1.096799999999999997e+01 -4.623300000000000409e+00 -5.676375000000000171e+00 -3.630395271521843492e-01
1.771300000000000097e+00 -1.360800000000000054e+01 -6.700700000000000323e+00 3.132817999999999969e+01 -7.430140443821088569e-02
1.777600000000000069e+00 -3.708200000000000163e+00 -1.155599999999999916e+01 -2.335287000000000113e+00 -8.040410274305734295e-02
1.781199999999999894e+00 -1.637499999999999956e+00 -7.111500000000000377e+00 9.025876999999999484e+00 -6.760479657072351878e-02
1.787700000000000067e+00 -1.073399999999999999e+01 -8.721099999999999852e+00 2.633079000000000036e+01 -7.626522628791512770e-02
1.793700000000000072e+00 8.125999999999999446e+00 -2.853099999999999881e+01 -2.143291000000000057e+00 -1.046002791469315685e-01
1.793700000000000072e+00 9.317000000000000171e+00 -2.786799999999999855e+01 -4.429649000000000392e+00 -1.037472832114154919e-01
1.793700000000000072e+00 1.050799999999999912e+01 -2.853099999999999881e+01 -3.427623000000000086e+00 -1.033374815221351495e-01
1.796499999999999986e+00 -3.341099999999999959e+00 -1.073199999999999932e+01 -6.180980999999999836e-01 -7.834459072569373295e-02
1.798999999999999932e+00 1.834900000000000020e+01 -1.979200000000000159e+01 3.676521999999999935e+01 -3.766660969616336674e-01
1.806699999999999973e+00 -4.457799999999999763e+00 -8.241699999999999804e+00 -7.257112999999999481e-01 -7.234592028348992010e-02
1.808000000000000052e+00 1.899800000000000111e+01 -2.250300000000000011e+01 3.212884999999999991e+01 -3.769739302105262757e-01
1.808000000000000052e+00 1.899800000000000111e+01 -2.145299999999999940e+01 2.948179000000000016e+01 -3.769087401650467184e-01
1.808699999999999974e+00 -5.790000000000000036e+00 -3.938100000000000023e+01 3.220657000000000103e+00 -1.072110838930440818e-01
1.810000000000000053e+00 -1.088499999999999979e+01 -7.727699999999999569e+00 2.371350999999999942e+01 -7.458002645286121446e-02
1.813299999999999912e+00 4.841700000000000337e+00 -3.079000000000000181e+00 2.895497999999999905e+01 -3.641722551952376596e-01
1.815399999999999903e+00 -5.375999999999999668e-01 -7.051400000000000112e+00 3.235149999999999970e+00 -6.680894316073995864e-02
1.820999999999999952e+00 -7.513200000000000323e+00 -1.045100000000000051e+01 6.647979000000000305e+00 -7.853537179939819313e-02
1.822599999999999998e+00 -1.404400000000000048e+01 -1.968499999999999872e+01 -7.945370999999999961e-01 -9.015681768466360380e-02
1.824400000000000022e+00 -4.486500000000000377e+00 -7.264700000000000379e+00 1.278202999999999978e+00 -6.984135348009401500e-02
1.830000000000000071e+00 -1.452100000000000080e+01 -1.853000000000000114e+01 4.272831000000000046e+00 -8.904219989865769236e-02
1.833399999999999919e+00 -2.198999999999999844e+01 -2.140800000000000125e+01 1.321987000000000023e+00 -8.900833746860889462e-02
1.838000000000000078e+00 2.632000000000000117e+00 -3.482999999999999829e+01 2.326470000000000038e+00 -1.062030415519700510e-01
1.839499999999999913e+00 -4.113100000000000200e+00 -9.048500000000000654e+00 -8.310115000000000141e-01 -7.425475724877592110e-02
1.845099999999999962e+00 -1.050300000000000011e+01 -9.492599999999999483e+00 1.058426000000000045e+01 -7.751365495865542021e-02
1.845900000000000096e+00 1.378299999999999947e+01 -2.393900000000000006e+01 -5.409748999999999697e+00 -9.872585129805436233e-02
1.852899999999999991e+00 -1.650900000000000034e+01 -2.143199999999999861e+01 1.414390000000000036e+01 -9.058904656150414125e-02
1.855599999999999916e+00 1.739600000000000080e+01 -1.968700000000000117e+01 9.817690000000000339e+01 -3.764717820977611651e-01
1.857499999999999929e+00 -6.876100000000000101e+00 -3.661599999999999966e+01 1.192688000000000059e+01 -1.085905532417217045e-01
1.860400000000000054e+00 -7.759999999999999787e+00 -1.308200000000000074e+01 1.216540999999999961e+01 -8.350483051249407707e-02
1.860400000000000054e+00 -7.550900000000000389e+00 -1.381799999999999962e+01 1.164996999999999971e+01 -8.477721859451738118e-02
1.860400000000000054e+00 -6.360000000000000320e+00 -1.448199999999999932e+01 5.212915999999999883e+00 -8.605011893564872005e-02
1.862999999999999989e+00 4.646600000000000286e+00 -3.196300000000000097e+01 -7.516417999999999822e+00 -1.066527345328659865e-01
1.863499999999999934e+00 1.868499999999999872e+01 -2.056700000000000017e+01 2.250684000000000040e+01 -3.767869649694209899e-01
1.867599999999999927e+00 4.680100000000000371e+00 -2.935900000000000176e+01 4.124127999999999794e+00 -1.063229508097153220e-01
1.870500000000000052e+00 1.288700000000000045e+01 -9.335800000000000765e+00 8.398158999999999708e+00 -3.628439298175202277e-01
1.870900000000000007e+00 1.353500000000000014e+01 -1.390099999999999980e+01 1.450052999999999948e+01 -8.493700797795243618e-02
1.872700000000000031e+00 6.427199999999999580e-01 -7.201100000000000279e+00 1.344443999999999972e+00 -6.674882444897103917e-02
1.884800000000000031e+00 1.416200000000000081e+01 -1.662800000000000011e+01 1.063958000000000048e+01 -8.961240919600217680e-02
1.889000000000000012e+00 -3.630300000000000082e+00 -1.257600000000000051e+01 -4.787518000000000384e+00 -8.261578210811301726e-02
1.894300000000000095e+00 3.763700000000000045e+00 -3.377100000000000080e+01 -8.610981999999999914e+00 -1.061996943949479605e-01
1.898300000000000098e+00 1.360899999999999999e+01 -1.037500000000000000e+01 -4.583405999999999869e-01 -3.628231018900934246e-01
1.899000000000000021e+00 1.175500000000000078e+01 -2.915399999999999991e+01 -7.789920000000000400e+00 -1.024567302009951886e-01
1.899000000000000021e+00 1.283900000000000041e+01 -2.609900000000000020e+01 2.047449999999999903e+01 -1.007593246521408803e-01
1.899000000000000021e+00 1.304800000000000004e+01 -2.843299999999999983e+01 -4.032075999999999993e+00 -1.015483925949709071e-01
1.899000000000000021e+00 1.304800000000000004e+01 -2.683500000000000085e+01 -9.388624999999999332e+00 -1.010494642340286492e-01
1.899000000000000021e+00 1.327500000000000036e+01 -2.763400000000000034e+01 -2.211923000000000172e+01 -1.013291859060399397e-01
1.899899999999999922e+00 -7.594699999999999562e+00 -1.240099999999999980e+01 1.651297999999999888e+01 -8.225905113309368855e-02
1.899899999999999922e+00 -7.385600000000000165e+00 -1.166499999999999915e+01 2.110527000000000086e+01 -8.086626210490355238e-02
1.900600000000000067e+00 -1.675900000000000034e+01 -1.785200000000000031e+01 6.688600000000000101e+00 -8.784056401657382163e-02
1.905599999999999961e+00 6.439499999999999780e+00 -2.941100000000000136e+01 2.717306000000000221e+00 -1.055389354190212209e-01
1.912099999999999911e+00 -4.139000000000000234e+00 -9.967000000000000526e+00 -1.791287000000000074e+00 -7.654629456123747400e-02
1.914299999999999891e+00 4.348900000000000432e+00 -4.859600000000000364e+00 9.853609000000000506e+00 -3.641380358567420927e-01
1.917999999999999927e+00 1.392600000000000016e+01 -1.726000000000000156e+01 1.362312999999999974e+01 -9.077891783063048170e-02
1.918700000000000072e+00 -1.006499999999999950e+01 -3.354500000000000171e+01 5.503455999999999904e+00 -1.088181789495690638e-01
1.923000000000000043e+00 7.515200000000000102e+00 -2.989199999999999946e+01 1.773384999999999989e+00 -1.051344713265921493e-01
1.923399999999999999e+00 -2.808599999999999852e+01 -1.496199999999999974e+01 -1.455372999999999983e+01 -8.426564333559137532e-02
1.925899999999999945e+00 4.376699999999999591e+00 -3.005900000000000105e+01 4.865199999999999747e+00 -1.064985993453938518e-01
1.928500000000000103e+00 1.270700000000000074e+01 -8.488300000000000622e+00 6.935200000000000031e+00 -3.628641776684241593e-01
1.928500000000000103e+00 1.291600000000000037e+01 -7.752200000000000202e+00 1.844592000000000009e+00 -3.628748764956605255e-01
1.931200000000000028e+00 1.375200000000000067e+01 -1.315199999999999925e+01 8.634612999999999872e+00 -8.325856710321073717e-02
1.931899999999999951e+00 -3.602700000000000014e+00 -1.401500000000000057e+01 -3.250243999999999911e+00 -8.554481765487374767e-02
1.937100000000000044e+00 1.108100000000000085e+00 -7.398299999999999876e+00 7.416966000000000392e-01 -6.723894477159930716e-02
1.937100000000000044e+00 3.503899999999999793e+00 -7.398299999999999876e+00 7.208050000000000068e+00 -7.991438834871870955e-02
1.937300000000000022e+00 -2.619300000000000139e+01 -1.859400000000000119e+01 1.239465999999999957e+00 -8.655016831936246380e-02
1.939000000000000057e+00 -2.114399999999999835e+01 -2.211700000000000088e+01 1.504745000000000110e-01 -8.956341007340487548e-02
1.942600000000000104e+00 -8.470599999999999241e+00 -3.377799999999999869e+01 4.834391000000000105e+00 -1.088002588777970125e-01
1.943799999999999972e+00 -6.883399999999999963e+00 -1.073499999999999943e+01 1.185745000000000049e+00 -7.891107596247898259e-02
1.944900000000000073e+00 4.566900000000000404e+00 -3.995400000000000063e+00 1.487312999999999974e+01 -3.641544367838248641e-01
1.951600000000000001e+00 6.762900000000000134e+00 -3.016799999999999926e+01 1.727298999999999918e+00 -1.055064029142734477e-01
1.955600000000000005e+00 -3.379399999999999959e+00 -5.726200000000000401e+00 4.867295999999999623e+00 -6.499946488208298290e-02
1.963000000000000078e+00 7.389999999999999902e-01 -4.035600000000000165e+01 3.461644000000000165e+00 -1.039933962842685550e-01
1.963000000000000078e+00 2.057500000000000107e+00 -3.962100000000000222e+01 1.309301999999999921e+01 -1.037051819932017782e-01
1.963000000000000078e+00 2.057500000000000107e+00 -3.799099999999999966e+01 6.995457000000000392e+01 -1.045791565257473826e-01
1.963000000000000078e+00 2.289000000000000146e+00 -3.880599999999999739e+01 5.885195999999999827e+01 -1.040062133197532102e-01
1.963000000000000078e+00 -1.901899999999999835e+01 -6.350500000000000256e+00 4.631855000000000189e+01 -7.620149322461584884e-02
1.964900000000000091e+00 9.467000000000000526e+00 -3.616000000000000103e+00 -2.335673999999999850e+01 -3.633479720586073047e-01
1.964900000000000091e+00 -1.284299999999999997e+01 -2.211499999999999844e+01 1.019177999999999962e+01 -9.223718293442133287e-02
1.964900000000000091e+00 -1.284299999999999997e+01 -2.064300000000000068e+01 6.819585999999999704e-01 -9.119955111118217828e-02
1.964900000000000091e+00 -1.263400000000000034e+01 -2.137900000000000134e+01 1.667032999999999987e+00 -9.181418767912072343e-02
1.965000000000000080e+00 -1.096000000000000085e+01 -6.926800000000000068e+00 1.850115999999999872e+01 -7.318789939060423022e-02
1.967700000000000005e+00 -2.879899999999999949e+01 -1.803900000000000148e+01 -7.380807999999999813e-01 -8.589063743213111446e-02
1.967700000000000005e+00 -2.879899999999999949e+01 -1.557900000000000063e+01 -8.567055999999999116e+00 -8.456410416284912412e-02
1.967999999999999972e+00 -4.735299999999999621e+00 -1.477399999999999913e+01 3.226656000000000191e+00 -8.671594328896986559e-02
1.970599999999999907e+00 -1.267300000000000004e+01 -2.507799999999999940e+01 9.173837999999999937e+00 -1.083330450809973922e-01
1.970599999999999907e+00 -1.148199999999999932e+01 -2.574200000000000088e+01 6.118221000000000132e+00 -1.085050470698589731e-01
1.970599999999999907e+00 -1.127299999999999969e+01 -2.647800000000000153e+01 4.666610000000000369e+00 -1.086066798443311859e-01
1.971000000000000085e+00 4.599099999999999966e+00 -3.056299999999999883e+01 3.859853000000000200e+00 -1.064407175535632410e-01
1.972399999999999931e+00 -2.727100000000000080e+01 -1.818599999999999994e+01 -3.706069999999999975e+00 -8.615992444138016737e-02
1.978699999999999903e+00 -9.143000000000000682e+00 -1.045100000000000051e+01 -6.610997000000000234e+00 -7.880676916538709165e-02
1.992899999999999894e+00 4.242300000000000182e+00 -5.812999999999999723e+00 1.239447999999999972e+01 -3.640881088781361963e-01
2.005599999999999827e+00 -4.077099999999999724e+00 -1.073199999999999932e+01 -3.041014000000000106e+00 -7.833272317306130827e-02
2.009999999999999787e+00 -5.673000000000000043e+00 -9.967000000000000526e+00 -2.656409000000000020e+00 -7.692460045237861643e-02
2.009999999999999787e+00 -1.962900000000000134e+01 -2.269600000000000151e+01 -5.967052000000000467e-01 -9.026679878606364005e-02
2.013900000000000023e+00 -4.705700000000000216e+00 -6.655999999999999694e+00 9.624724999999999531e-01 -6.846006095864373697e-02
2.020099999999999785e+00 7.131499999999999950e+00 -3.082000000000000028e+01 1.257138000000000089e+00 -1.054074871549408321e-01
2.021700000000000053e+00 1.614199999999999946e+01 -2.373699999999999832e+01 8.859659000000000617e+00 -1.087045360226357449e-01
2.025399999999999867e+00 -1.234800000000000075e+01 -6.087900000000000311e+00 2.837499000000000038e+01 -7.261336021639323846e-02
2.030800000000000161e+00 -2.509299999999999997e+01 -1.956200000000000117e+01 1.605228000000000099e+00 -8.723282112339911243e-02
2.031000000000000139e+00 4.235400000000000276e+00 -3.321300000000000097e+01 -8.644088999999999245e+00 -1.062723414321037757e-01
2.032900000000000151e+00 1.754200000000000159e+01 -2.332900000000000063e+01 9.240930000000000533e+00 -3.767735863300220034e-01
2.035299999999999887e+00 -1.445800000000000018e+01 -1.939000000000000057e+01 1.287997000000000059e+00 -8.963350819728113650e-02
2.035499999999999865e+00 -1.453200000000000003e+01 -2.582000000000000028e+01 2.576582000000000150e+00 -9.351338136349218733e-02
2.043699999999999850e+00 -1.121199999999999974e+01 -3.451800000000000068e+01 1.061853999999999942e+01 -1.086533824810185650e-01
2.047000000000000153e+00 -2.296900000000000119e+01 -5.764999999999999680e+00 -5.572424999999999962e+00 -7.698369909296572111e-02
2.047000000000000153e+00 -2.141900000000000048e+01 -5.764999999999999680e+00 5.563257000000000119e+00 -7.647142996514420810e-02
2.053100000000000147e+00 -2.462000000000000099e+01 -8.214900000000000091e+00 6.771836999999999662e+00 -7.939143781274070333e-02
2.064000000000000057e+00 -2.236299999999999955e+01 -2.080499999999999972e+01 3.087461999999999929e+00 -8.847358863527288175e-02
2.066600000000000215e+00 -1.589600000000000080e+01 -7.160999999999999588e+00 4.197778000000000276e+01 -7.590197784057528541e-02
2.067200000000000149e+00 -2.778399999999999981e+00 -5.508499999999999730e+00 3.722376999999999825e+00 -6.397294654812181458e-02
2.067400000000000126e+00 -2.540900000000000158e+00 -3.975600000000000023e+01 -3.851070999999999800e-01 -1.057893040965759007e-01
2.081999999999999851e+00 -1.139499999999999957e+01 -6.192999999999999616e+00 2.264868999999999843e+01 -7.218590593771177788e-02
2.084700000000000220e+00 -4.337299999999999933e+00 -5.806000000000000050e+00 3.736073000000000199e+00 -6.606119272284396993e-02
2.084700000000000220e+00 -1.631099999999999994e+01 -2.215099999999999980e+01 -4.746055000000000135e+00 -9.095112807098841567e-02
2.084700000000000220e+00 -1.511999999999999922e+01 -2.281500000000000128e+01 -7.133913999999999866e+00 -9.175225815838544685e-02
2.085599999999999898e+00 -7.083099999999999952e+00 -3.550699999999999790e+01 4.945243999999999751e+00 -1.085567275412631372e-01
2.086800000000000210e+00 -1.666799999999999926e+01 -2.697599999999999909e+01 9.242964999999999876e+00 -9.315494228063687931e-02
2.087699999999999889e+00 -1.278299999999999947e+01 -3.168599999999999994e+01 1.488682000000000016e+01 -1.086515909614713671e-01
2.087699999999999889e+00 -1.677499999999999858e+01 -2.032100000000000151e+01 -8.899396000000000528e-01 -8.961234604611571786e-02
2.088799999999999990e+00 1.306600000000000072e+01 -2.521699999999999875e+01 -6.642462999999999562e-01 -9.991793182358468806e-02
2.092499999999999805e+00 -2.141099999999999781e+00 -6.296599999999999753e+00 5.523395999999999972e+00 -6.567051126594400379e-02
2.095000000000000195e+00 1.347100000000000009e+01 -1.891499999999999915e+01 9.044741000000000142e+00 -9.341714192643586767e-02
2.095000000000000195e+00 1.347100000000000009e+01 -1.804899999999999949e+01 7.574099999999999611e+00 -9.219069625235890020e-02
2.100000000000000089e+00 7.408999999999999808e+00 -3.153000000000000114e+01 1.576532000000000044e+00 -1.049959498609880776e-01
2.104000000000000092e+00 6.158999999999999808e+00 -2.435000000000000053e+00 3.231360000000000099e+01 -3.639742702130274732e-01
2.104000000000000092e+00 7.116999999999999993e+00 -2.435000000000000053e+00 4.745524999999999949e+01 -3.638141804386457179e-01
2.108999999999999986e+00 -1.268800000000000061e+01 -3.520000000000000284e+01 3.214217000000000102e+00 -1.085098745789184055e-01
2.113700000000000134e+00 -2.372100000000000009e+01 -1.936700000000000088e+01 3.550399999999999778e+00 -8.733906990393655589e-02
2.121100000000000207e+00 -4.875099999999999767e+00 -9.967000000000000526e+00 -2.621551000000000187e+00 -7.664301801891873489e-02
2.132400000000000073e+00 -6.489099999999999646e+00 -9.937599999999999767e+00 -1.223238000000000048e+00 -7.703217894944749955e-02
2.136899999999999800e+00 -3.303999999999999826e+00 -3.932399999999999807e+01 -6.968820000000000570e-02 -1.063442399259782317e-01
2.137599999999999945e+00 -1.513899999999999935e+01 -2.643199999999999861e+01 3.412066999999999961e+00 -9.346952092897295450e-02
2.139499999999999957e+00 -1.165900000000000070e+01 -3.096300000000000097e+01 7.485968999999999873e+00 -1.086877558320155784e-01
2.142300000000000093e+00 -2.585800000000000054e+01 -9.169999999999999929e+00 1.947428999999999988e+01 -8.028474616744288306e-02
2.144099999999999895e+00 8.371999999999999886e+00 -3.146199999999999886e+00 3.777429999999999666e+01 -3.635621539067381280e-01
2.147800000000000153e+00 2.114799999999999791e+00 -3.560000000000000142e+01 4.249855000000000160e+00 -1.060132629422873285e-01
2.149700000000000166e+00 -2.258800000000000097e+01 -2.012600000000000122e+01 6.128597000000000072e+00 -8.799427853391646182e-02
2.165799999999999947e+00 -6.126500000000000057e+00 -1.076800000000000068e+01 -2.359382000000000090e+00 -7.869734119328980482e-02
2.165799999999999947e+00 -5.219500000000000028e+00 -9.165599999999999525e+00 -2.507201999999999931e+00 -7.485668072794597616e-02
2.168000000000000149e+00 -1.719200000000000017e+01 -1.941799999999999926e+01 -2.841849999999999987e+00 -8.879960133541831002e-02
2.168000000000000149e+00 -1.719200000000000017e+01 -1.855199999999999960e+01 3.337879000000000040e+00 -8.814186610196364513e-02
2.168400000000000105e+00 -2.661899999999999977e+01 -1.052899999999999991e+01 1.054834999999999923e+01 -8.132583690037432922e-02
2.172600000000000087e+00 -1.485999999999999943e+01 -7.052399999999999558e+00 2.375761999999999929e+01 -7.529675085010276159e-02
2.173000000000000043e+00 6.006899999999999906e+00 -3.011100000000000065e+01 4.286246000000000222e-01 -1.056349416884421882e-01
2.176099999999999923e+00 -8.239200000000000301e+00 -1.042900000000000027e+01 7.000919999999999810e+00 -7.845671921765874635e-02
2.182199999999999918e+00 -1.287299999999999933e+01 -6.260299999999999976e+00 3.150271000000000043e+01 -7.316408436618428157e-02
2.182300000000000129e+00 -1.732100000000000151e+01 -6.380600000000000271e+00 3.576821999999999946e+01 -7.551018941743985191e-02
2.187899999999999956e+00 -1.341600000000000037e+01 -2.517200000000000060e+01 6.454775999999999847e+00 -9.354085726462200989e-02
2.196499999999999897e+00 -5.201299999999999812e+00 -1.077999999999999936e+01 -1.935175000000000090e+00 -7.852854159396623068e-02
2.204000000000000181e+00 -1.430799999999999983e+01 -6.967999999999999972e+00 2.559847999999999857e+01 -7.492508296513143706e-02
2.204000000000000181e+00 -1.605900000000000105e+01 -1.779400000000000048e+01 6.398541999999999952e+00 -8.776023006489150347e-02
2.204200000000000159e+00 -4.071399999999999686e+00 -1.158399999999999963e+01 -2.335287000000000113e+00 -8.015947961974573266e-02
2.207899999999999974e+00 -9.271499999999999631e+00 -3.363700000000000045e+01 4.143961000000000006e+00 -1.086380186274310822e-01
2.209000000000000075e+00 5.339000000000000412e+00 -3.011299999999999955e+01 4.946654999999999802e-01 -1.058808996762804905e-01
2.209000000000000075e+00 -1.183799999999999919e+01 -2.852400000000000091e+01 4.414818999999999605e+00 -1.085617835628129579e-01
2.216499999999999915e+00 -1.819800000000000040e+01 -2.592399999999999949e+01 2.742300999999999878e+00 -9.213653111152921016e-02
2.217999999999999972e+00 1.791700000000000159e+01 -2.049200000000000088e+01 1.998651999999999873e+01 -3.766232565578515046e-01
2.221699999999999786e+00 -1.629799999999999827e+01 -6.516000000000000014e+00 3.021425999999999945e+01 -7.522485311362009375e-02
2.222999999999999865e+00 1.413400000000000034e+01 -1.227500000000000036e+01 3.026613999999999916e+00 -3.768524313995017527e-01
2.222999999999999865e+00 1.413400000000000034e+01 -1.122499999999999964e+01 -4.393284000000000078e-01 -3.628293701769312873e-01
2.226300000000000168e+00 8.616899999999999338e+00 -2.813500000000000156e+01 -1.547439999999999927e+01 -1.038406007807866904e-01
2.226300000000000168e+00 1.001699999999999946e+01 -2.813500000000000156e+01 -6.289588000000000179e+00 -1.030993851512887333e-01
2.233299999999999841e+00 -1.437000000000000055e+00 -6.184099999999999930e+00 2.831926999999999861e+00 -6.493839793106073732e-02
2.233999999999999986e+00 -1.567699999999999960e+01 -3.386399999999999721e+01 1.024915999999999983e+01 -1.082904500976780982e-01
2.233999999999999986e+00 -1.544599999999999973e+01 -3.467900000000000205e+01 3.370772000000000101e+00 -1.082809735698160025e-01
2.233999999999999986e+00 -1.544599999999999973e+01 -3.304899999999999949e+01 1.119875000000000043e+01 -1.083319459397115991e-01
2.233999999999999986e+00 -1.412700000000000067e+01 -3.541400000000000148e+01 4.847097000000000122e+01 -1.083444483147453646e-01
2.237000000000000099e+00 -4.937000000000000277e+00 -8.431900000000000617e+00 -6.442145000000000010e+00 -7.296866212866068291e-02
2.240800000000000125e+00 -2.355900000000000105e+01 -6.701299999999999812e+00 -1.462746000000000102e+00 -7.789377231491569076e-02
2.249499999999999833e+00 -1.152899999999999991e+01 -2.933299999999999841e+01 4.209920999999999580e+00 -1.085870444648314032e-01
2.249499999999999833e+00 -1.152899999999999991e+01 -2.771499999999999986e+01 -2.942079999999999806e+00 -1.084915374533345495e-01
2.253699999999999815e+00 5.296000000000000263e+00 -3.814099999999999824e+00 1.616833000000000098e+01 -3.640321628546672739e-01
2.256099999999999994e+00 -2.728999999999999915e+01 -1.243599999999999994e+01 9.210307000000000244e+00 -8.261337330466374251e-02
2.258000000000000007e+00 -2.926899999999999835e+01 -1.727899999999999991e+01 -1.790526999999999980e+00 -8.535520516024612536e-02
2.258000000000000007e+00 -2.926899999999999835e+01 -1.633899999999999864e+01 -2.636521000000000114e+00 -8.485919899735791527e-02
2.260099999999999998e+00 -4.984300000000000175e+00 -3.920900000000000318e+01 5.940674999999999706e+00 -1.070366761096127189e-01
2.262199999999999989e+00 7.485299999999999621e+00 -3.143299999999999983e+00 5.810114999999999696e+01 -3.637112501985182988e-01
2.271399999999999864e+00 -2.489999999999999858e+01 -9.090199999999999392e+00 1.029144999999999932e+01 -8.005701183222506401e-02
2.271999999999999797e+00 1.129199999999999982e+01 -4.775299999999999656e+00 7.457622999999999891e+00 -3.630139411276940287e-01
2.274999999999999911e+00 5.811300000000000132e+00 -3.176699999999999857e+00 2.116882999999999981e+01 -3.639839589725808455e-01
2.275999999999999801e+00 -2.629799999999999827e+01 -9.934499999999999886e+00 8.179356000000000293e+00 -8.085054697014268377e-02
2.278599999999999959e+00 1.329199999999999982e+01 -2.433500000000000085e+01 -1.325939999999999941e+01 -9.900615205081556014e-02
2.278700000000000170e+00 7.872099999999999653e+00 -2.917999999999999972e+01 3.601658000000000026e+00 -1.044920857809442383e-01
2.278999999999999915e+00 1.661499999999999844e+01 -1.993700000000000117e+01 1.950537999999999883e+01 -3.764192893439819443e-01
2.282200000000000006e+00 -1.574499999999999922e+01 -2.696999999999999886e+01 2.616944000000000159e+00 -9.336335266494802387e-02
2.283300000000000107e+00 -1.154199999999999982e+01 -3.021900000000000119e+01 5.530963999999999992e+00 -1.085878439010173613e-01
2.287300000000000111e+00 3.115000000000000213e+00 -3.432000000000000028e+01 2.147073999999999927e-01 -1.062596670822808093e-01
2.293000000000000149e+00 -7.059999999999999609e+00 -1.421499999999999986e+01 5.181807000000000052e+00 -8.509170518442958631e-02
2.294299999999999784e+00 1.022700000000000031e+01 -3.679300000000000015e+00 -4.582104000000000354e+01 -3.632307927941545445e-01
2.295599999999999863e+00 5.346599999999999575e+00 -3.082999999999999829e+01 2.732736000000000054e+00 -1.059175660849553113e-01
2.295599999999999863e+00 6.211899999999999977e+00 -3.082999999999999829e+01 1.862571999999999894e+00 -1.055725984810587936e-01
2.298700000000000188e+00 -2.147200000000000131e+01 -2.185000000000000142e+01 5.329789000000000054e-02 -8.915659133137475434e-02
2.300300000000000011e+00 -6.142699999999999605e+00 -9.207000000000000739e+00 -1.682199999999999918e+01 -7.525289247970910755e-02
2.305299999999999905e+00 -5.728099999999999858e-02 -6.933699999999999974e+00 5.679851000000000205e+00 -6.639727705300363381e-02
2.307599999999999874e+00 -9.930699999999999861e+00 -1.034500000000000064e+01 8.738903999999999561e-01 -7.862275100592071297e-02
2.312899999999999956e+00 8.011799999999999145e+00 -3.070200000000000173e+01 7.664822000000000024e-01 -1.047661968475045724e-01
2.314900000000000180e+00 -1.680599999999999872e-01 -4.015500000000000114e+01 2.217751999999999946e+00 -1.045511701411552946e-01
2.314999999999999947e+00 1.723200000000000065e+00 -3.721099999999999852e+01 7.989919000000000437e+01 -1.052388050803314268e-01
2.314999999999999947e+00 1.723200000000000065e+00 -3.634599999999999653e+01 1.020795000000000030e+01 -1.057669688526936130e-01
2.321800000000000086e+00 -6.396099999999999675e+00 -3.890299999999999869e+01 1.508240999999999943e+00 -1.076838504464700808e-01
2.322999999999999954e+00 -7.485999999999999766e+00 -3.466599999999999682e+01 4.019413000000000125e+00 -1.084804455757880648e-01
2.326299999999999812e+00 -1.888400000000000034e+01 -2.403500000000000014e+01 -2.514651999999999887e+00 -9.100382105957152690e-02
2.331999999999999851e+00 -2.737699999999999889e+01 -1.408399999999999963e+01 -5.976886000000000143e-01 -8.363618189061869379e-02
2.331999999999999851e+00 -2.716799999999999926e+01 -1.334800000000000075e+01 7.819223000000000035e+00 -8.317665296639456529e-02
2.332500000000000018e+00 -6.894700000000000273e+00 -1.126800000000000068e+01 -1.923283000000000076e+00 -7.974078452119795490e-02
2.333299999999999930e+00 1.814799999999999969e+01 -2.282799999999999940e+01 8.755556000000000338e+00 -3.768241423928772038e-01
2.333299999999999930e+00 1.814799999999999969e+01 -2.112800000000000011e+01 2.975215999999999994e+01 -3.767080419579967865e-01
2.338000000000000078e+00 -2.807799999999999940e+01 -1.819200000000000017e+01 -1.290902999999999912e+00 -8.593645389191009731e-02
2.340199999999999836e+00 -1.209200000000000053e+01 -2.518700000000000117e+01 5.841755000000000031e+00 -1.080857192926222982e-01
2.342699999999999783e+00 -1.885800000000000054e+01 -2.497599999999999909e+01 4.127253999999999756e+00 -9.144248164737835138e-02
2.342999999999999972e+00 1.262299999999999933e+01 -5.697300000000000253e+00 4.033527999999999736e+01 -3.629560010077262366e-01
2.342999999999999972e+00 1.287700000000000067e+01 -6.591000000000000192e+00 8.575338999999999601e+00 -3.629269596157883582e-01
2.343100000000000183e+00 -4.927999999999999936e+00 -7.730000000000000426e+00 -2.342668999999999890e+00 -7.125730801410318227e-02
2.348399999999999821e+00 -6.479499999999999815e+00 -3.704899999999999949e+01 9.765959000000000501e+00 -1.082452760394502916e-01
2.352599999999999802e+00 7.946900000000000297e+00 -3.020100000000000051e+01 2.676613999999999827e+00 -1.046535477717997209e-01
2.353899999999999881e+00 5.043199999999999683e+00 -3.153000000000000114e+01 2.816443000000000030e+00 -1.060766130382872763e-01
