2.771000000000000085e+01 2.540299999999999869e+01 6.033100000000000307e+01 -1.029237000000000002e+01 3.836386108976933551e-01
2.771000000000000085e+01 2.561199999999999832e+01 6.106700000000000017e+01 -2.945234999999999825e+00 3.836459535573413793e-01
2.771199999999999974e+01 6.119400000000000261e+01 4.157900000000000063e+01 7.494104999999999794e-01 -2.511234830562808495e-01
2.771499999999999986e+01 2.489699999999999847e+01 5.886500000000000199e+01 -9.467767000000000266e+00 3.836253995150776808e-01
2.771499999999999986e+01 4.347800000000000153e+01 5.757000000000000028e+01 3.659187999999999885e+00 9.778225131749876398e-02
2.771600000000000108e+01 2.712900000000000134e+01 5.519899999999999807e+01 2.571788000000000185e+00 9.418437518258290786e-02
2.772400000000000020e+01 8.662199999999999989e+01 5.766700000000000159e+01 -1.381480999999999959e+01 -7.509397566677705749e-02
2.772800000000000153e+01 5.504800000000000182e+01 8.806499999999999773e+01 3.561479999999999979e+00 -2.909031343573897921e-02
2.772800000000000153e+01 5.525699999999999790e+01 8.880100000000000193e+01 4.104724000000000039e+00 -2.821802333502345522e-02
2.773000000000000043e+01 6.688100000000000023e+01 8.192900000000000205e+01 3.238226000000000049e+00 -3.114075609678959577e-01
2.773100000000000165e+01 5.046900000000000119e+01 5.742000000000000171e+01 2.570943999999999896e+00 -1.056280558844317624e-01
2.773199999999999932e+01 8.626600000000000534e+01 5.839900000000000091e+01 -1.337489000000000061e+01 -7.818432231929674237e-02
2.773400000000000176e+01 6.900199999999999534e+01 7.297400000000000375e+01 1.235313999999999979e+01 -1.060978499273538683e-01
2.773499999999999943e+01 4.989399999999999835e+01 2.819200000000000017e+01 -3.330586999999999964e+00 -2.804996896299121190e-01
2.773499999999999943e+01 5.142999999999999972e+01 2.819200000000000017e+01 -4.371738999999999820e+00 -1.424626691926584310e-01
2.773699999999999832e+01 6.859199999999999875e+01 4.276599999999999824e+01 -6.355607000000000006e+00 -2.503795459920532540e-01
2.773699999999999832e+01 2.945499999999999829e+01 4.887700000000000244e+01 5.044075000000000086e-01 9.710135466851189945e-02
2.773699999999999832e+01 4.662700000000000244e+01 3.045200000000000173e+01 -2.659696999999999978e+00 -2.795407625426669096e-01
2.773699999999999832e+01 4.809700000000000131e+01 3.308899999999999864e+01 4.472629999999999661e+00 -2.790826076886029905e-01
2.773799999999999955e+01 7.341599999999999682e+01 7.256300000000000239e+01 3.350033999999999956e+00 -2.595782340157934409e-01
2.773799999999999955e+01 2.844099999999999895e+01 6.940900000000000603e+01 1.012756999999999907e+00 3.837283864459102301e-01
2.773799999999999955e+01 2.844099999999999895e+01 7.036700000000000443e+01 4.649453000000000280e+00 3.837403799989296815e-01
2.773900000000000077e+01 7.329000000000000625e+01 8.165399999999999636e+01 -2.224249000000000009e+01 -2.093101968990317141e-01
2.773900000000000077e+01 7.481000000000000227e+01 8.165399999999999636e+01 -3.340187000000000239e+01 -2.157770821060170652e-01
2.773900000000000077e+01 3.442699999999999960e+01 8.052400000000000091e+01 -2.983175999999999917e+01 1.050716011515346882e-01
2.773900000000000077e+01 3.529299999999999926e+01 8.052400000000000091e+01 -2.366769000000000034e+01 1.048071114604144372e-01
2.774200000000000088e+01 8.672599999999999909e+01 5.054299999999999926e+01 -1.728002999999999900e-01 -1.730789472915023886e-01
2.774899999999999878e+01 5.897599999999999909e+01 3.933899999999999864e+01 -1.345758000000000010e+01 -2.372960537714891294e-01
2.775199999999999889e+01 5.955899999999999750e+01 6.347899999999999920e+01 8.354238000000000497e+00 -1.071775809242949962e-01
2.775199999999999889e+01 7.859699999999999420e+01 6.415999999999999659e+01 -1.416760999999999981e+01 -1.116717899055564428e-01
2.775400000000000134e+01 6.989100000000000534e+01 8.134999999999999432e+01 -1.558503999999999934e+01 -2.007093336397977323e-01
2.775900000000000034e+01 5.338600000000000279e+01 5.716100000000000136e+01 2.970964000000000027e+01 -1.033662058778004739e-01
2.776000000000000156e+01 4.250000000000000000e+01 5.595100000000000051e+01 2.254592999999999847e+00 9.843791820495366440e-02
2.776000000000000156e+01 4.270900000000000318e+01 5.521500000000000341e+01 -5.294795999999999836e+00 9.901682583176121821e-02
2.776000000000000156e+01 4.270900000000000318e+01 5.668699999999999761e+01 5.293847999999999665e+00 9.804345516455797993e-02
2.776200000000000045e+01 3.435399999999999920e+01 8.285899999999999466e+01 -7.347583000000000197e+00 1.060765582522753964e-01
2.776200000000000045e+01 5.576100000000000279e+01 9.099899999999999523e+01 -6.062376999999999683e+00 8.493994374738592090e-02
2.776200000000000045e+01 2.756299999999999883e+01 5.107300000000000040e+01 -4.371425000000000338e+00 9.586457504506308569e-02
2.776399999999999935e+01 5.142300000000000182e+01 5.084400000000000119e+01 3.476569000000000020e+00 -9.984779491275756758e-02
2.776800000000000068e+01 4.347800000000000153e+01 3.601299999999999812e+01 -1.165845999999999938e+00 -3.727502478705286837e-01
2.777100000000000080e+01 5.620900000000000318e+01 2.780799999999999983e+01 5.097031000000000311e+00 -2.603083514030825052e-01
2.777299999999999969e+01 3.661699999999999733e+01 8.215200000000000102e+01 -6.791585000000000427e+00 1.051309701267517382e-01
2.777499999999999858e+01 7.470499999999999829e+01 7.342600000000000193e+01 -9.306692999999999216e+00 -3.716255677843077754e-01
2.777599999999999980e+01 2.620400000000000063e+01 5.203099999999999881e+01 -4.817023999999999972e+00 9.523327218089132351e-02
2.778000000000000114e+01 7.330200000000000671e+01 6.504800000000000182e+01 -2.013443999999999789e+00 -1.166837067357842095e-01
2.778099999999999881e+01 4.244400000000000261e+01 8.406699999999999307e+01 7.577987000000000251e+00 1.044675339969577399e-01
2.778200000000000003e+01 4.547099999999999653e+01 3.662100000000000222e+01 -1.903829999999999911e+00 -3.727881663575928206e-01
2.778300000000000125e+01 3.383700000000000330e+01 8.456799999999999784e+01 -3.470930000000000071e+00 1.069564678516165684e-01
2.778600000000000136e+01 7.736199999999999477e+01 6.483299999999999841e+01 -7.503891999999999562e+00 -1.077914070333362284e-01
2.778800000000000026e+01 5.893399999999999750e+01 9.131699999999999307e+01 -7.986080000000000290e+00 -6.317604721918138044e-02
2.778900000000000148e+01 2.864999999999999858e+01 5.487899999999999778e+01 9.931542999999999566e+00 9.460107241114232290e-02
2.779700000000000060e+01 5.713199999999999790e+01 9.231100000000000705e+01 -3.040287000000000184e+00 8.938346138062061574e-02
2.779700000000000060e+01 5.786200000000000188e+01 9.231100000000000705e+01 -3.766217000000000148e+00 9.118260619702167613e-02
2.779799999999999827e+01 3.412400000000000233e+01 8.122400000000000375e+01 -1.351892999999999923e+01 1.054395741062859881e-01
2.779899999999999949e+01 5.184899999999999665e+01 6.214999999999999858e+01 1.277721000000000018e+01 -1.103525451305771704e-01
2.779899999999999949e+01 8.814199999999999591e+01 5.579800000000000182e+01 -3.418460999999999927e+01 -1.844933629999969127e-01
2.780000000000000071e+01 8.138400000000000034e+01 4.473899999999999721e+01 -8.901393999999999807e+00 -2.540141407534656226e-01
2.780300000000000082e+01 3.990699999999999648e+01 4.090200000000000102e+01 -1.168431999999999915e+00 -3.724476312075599149e-01
2.780399999999999849e+01 6.609399999999999409e+01 4.305799999999999983e+01 -1.381729999999999903e+00 -2.508350504331424702e-01
2.780399999999999849e+01 6.749399999999999977e+01 4.305799999999999983e+01 -2.113968999999999987e-01 -2.506210599391521798e-01
2.780799999999999983e+01 5.765800000000000125e+01 3.686099999999999710e+01 -9.914311000000000096e-01 -2.604058580957762103e-01
2.780799999999999983e+01 5.888300000000000267e+01 3.770600000000000307e+01 -9.638191000000000841e+00 -2.605295809239156490e-01
2.780799999999999983e+01 5.910999999999999943e+01 3.850500000000000256e+01 -2.190705000000000169e+01 -2.606867361818484552e-01
2.780900000000000105e+01 4.441299999999999670e+01 5.880100000000000193e+01 7.696939000000000419e+00 9.729516165470454558e-02
2.781099999999999994e+01 8.301099999999999568e+01 6.129800000000000182e+01 -1.845479000000000092e+00 -1.013162048396179238e-01
2.781200000000000117e+01 6.866400000000000148e+01 8.622100000000000364e+01 -2.876541999999999888e+01 -6.243131333580975717e-02
2.781299999999999883e+01 3.403799999999999670e+01 8.209799999999999898e+01 -1.029049000000000014e+01 1.058264653316959292e-01
2.781400000000000006e+01 6.913100000000000023e+01 7.201600000000000534e+01 1.021721999999999930e+01 -1.067364981267722168e-01
2.781700000000000017e+01 8.871699999999999875e+01 5.395400000000000063e+01 1.349111000000000082e+01 -1.774618390469407669e-01
2.782300000000000040e+01 4.606799999999999784e+01 6.070199999999999818e+01 3.435819000000000045e+01 9.644405683267190388e-02
2.782300000000000040e+01 2.583200000000000074e+01 5.613000000000000256e+01 5.278030000000000221e+00 9.359662639775664927e-02
2.782400000000000162e+01 5.609899999999999665e+01 3.495400000000000063e+01 2.080130000000000123e+01 -1.426462648764826591e-01
2.782400000000000162e+01 5.630899999999999750e+01 3.568999999999999773e+01 4.293845000000000312e+01 -1.426506704718729646e-01
2.782499999999999929e+01 8.796999999999999886e+01 5.100900000000000034e+01 1.773533999999999944e+00 -1.725201054463588179e-01
2.782799999999999940e+01 4.955400000000000205e+01 6.298400000000000176e+01 7.981666999999999845e+00 9.584247056133636533e-02
2.783299999999999841e+01 8.427700000000000102e+01 4.900000000000000000e+01 7.649987999999999566e+00 -1.729911197823786606e-01
2.783599999999999852e+01 6.212500000000000000e+01 4.160900000000000176e+01 2.523448000000000135e+00 -2.510407687832294510e-01
2.783599999999999852e+01 5.628399999999999892e+01 2.859700000000000131e+01 6.817219999999999835e+00 -2.602753633068232153e-01
2.783899999999999864e+01 5.603099999999999881e+01 3.061100000000000065e+01 -3.153766999999999854e+01 -2.601636907104828422e-01
2.783999999999999986e+01 5.101599999999999824e+01 5.709100000000000108e+01 6.551745000000000374e+00 -1.050178228498511029e-01
2.784100000000000108e+01 4.526700000000000301e+01 5.979200000000000159e+01 1.093631000000000064e+01 9.688110881832934229e-02
2.784199999999999875e+01 7.072899999999999920e+01 6.916899999999999693e+01 -4.030744999999999578e+00 5.907962685586520823e-02
2.784299999999999997e+01 8.268399999999999750e+01 6.207300000000000040e+01 3.170316000000000134e+00 -7.559495250268213895e-02
2.784400000000000119e+01 6.497400000000000375e+01 4.222500000000000142e+01 -4.427070999999999756e+00 -2.508292985250046847e-01
2.784400000000000119e+01 7.513599999999999568e+01 4.293099999999999739e+01 -6.397177000000000113e+00 -2.587331544767668134e-01
2.784600000000000009e+01 6.844700000000000273e+01 7.207800000000000296e+01 1.177458000000000027e+01 -1.111840724606341785e-01
2.784700000000000131e+01 2.657300000000000040e+01 5.118099999999999739e+01 -5.162681000000000076e+00 9.561428740990271513e-02
2.784700000000000131e+01 2.657300000000000040e+01 5.288100000000000023e+01 -5.497812999999999839e+00 9.499322346382255144e-02
2.784799999999999898e+01 5.628900000000000148e+01 2.977700000000000102e+01 -3.304419999999999646e+01 -2.602030060535063249e-01
2.785099999999999909e+01 6.834199999999999875e+01 8.249699999999999989e+01 -5.986660999999999788e-01 -3.148327210343734306e-01
2.785099999999999909e+01 3.597399999999999665e+01 8.121699999999999875e+01 -8.589745000000000630e+00 1.048834514445905475e-01
2.785200000000000031e+01 4.963700000000000045e+01 8.793699999999999761e+01 -7.293544999999999945e+00 -1.951677455411184731e-02
2.785300000000000153e+01 7.123999999999999488e+01 4.213900000000000290e+01 -7.034783000000000008e+00 -2.497390319372606859e-01
2.785699999999999932e+01 2.600199999999999889e+01 7.469299999999999784e+01 -1.780637000000000025e+00 2.015239205250687893e-01
2.785800000000000054e+01 7.318099999999999739e+01 7.206199999999999761e+01 4.378775000000000084e+00 -2.627748806477586685e-01
2.785900000000000176e+01 5.807999999999999829e+01 6.467199999999999704e+01 8.111993000000000009e+00 -1.112971835701659085e-01
2.786199999999999832e+01 5.059499999999999886e+01 6.282099999999999795e+01 9.230468999999999369e+00 9.670285113654805698e-02
2.786299999999999955e+01 2.844000000000000128e+01 7.190300000000000580e+01 2.348384999999999945e+00 3.837678148838393755e-01
2.786400000000000077e+01 8.847799999999999443e+01 5.502300000000000324e+01 -5.938692000000000348e+01 -1.806974391075177877e-01
2.786700000000000088e+01 7.556999999999999318e+01 6.588800000000000523e+01 -6.728347000000000300e+00 -1.078360091514183744e-01
2.786799999999999855e+01 4.676800000000000068e+01 3.615299999999999869e+01 -3.368757000000000001e-01 -3.728485337270680544e-01
2.786799999999999855e+01 2.329899999999999949e+01 7.853900000000000148e+01 4.543152000000000079e+00 2.012774749244102268e-01
2.787500000000000000e+01 7.141599999999999682e+01 8.078199999999999648e+01 -2.048181999999999903e+01 -1.980812406066353171e-01
2.787800000000000011e+01 4.257500000000000284e+01 4.906900000000000261e+01 1.024821000000000026e+02 -1.038375965633694664e-01
2.787800000000000011e+01 2.716300000000000026e+01 5.422099999999999653e+01 -4.037494999999999834e+00 9.458735401087067785e-02
2.787999999999999901e+01 8.566299999999999670e+01 5.001800000000000068e+01 5.286095999999999684e+00 -1.727462780294776734e-01
2.788400000000000034e+01 5.613300000000000267e+01 3.332099999999999795e+01 9.091920000000000357e+01 -1.426734266009694330e-01
2.788400000000000034e+01 5.613300000000000267e+01 3.427900000000000347e+01 5.520801000000000158e+01 -1.426510959147666291e-01
2.788599999999999923e+01 7.207800000000000296e+01 6.434699999999999420e+01 6.594507000000000119e+00 -1.201809797944775049e-01
2.789199999999999946e+01 8.700400000000000489e+01 5.666100000000000136e+01 1.024754000000000076e+01 -7.118147257515915205e-02
2.789799999999999969e+01 8.354600000000000648e+01 4.705499999999999972e+01 3.990110000000000046e-01 -1.720689976277346156e-01
2.789900000000000091e+01 4.999799999999999756e+01 5.661599999999999966e+01 2.203870000000000218e+00 -1.052084825605792001e-01
2.789999999999999858e+01 3.623700000000000188e+01 8.280500000000000682e+01 -6.589870000000000339e+00 1.055377457925836399e-01
2.790399999999999991e+01 7.434099999999999397e+01 6.552899999999999636e+01 -6.739952999999999861e+00 -1.132527930140579536e-01
2.790500000000000114e+01 2.687600000000000122e+01 5.358100000000000307e+01 -4.854417999999999900e+00 9.478515637490318724e-02
2.790500000000000114e+01 3.432699999999999818e+01 8.394199999999999307e+01 -5.269230000000000302e+00 1.065550907798118035e-01
2.791000000000000014e+01 4.994100000000000250e+01 8.863700000000000045e+01 -5.072766999999999804e+00 -1.911036812876281549e-02
2.791900000000000048e+01 5.714099999999999824e+01 6.477100000000000080e+01 9.661431999999999576e+00 -1.121762558996367148e-01
2.792000000000000171e+01 7.271200000000000330e+01 7.088800000000000523e+01 -4.930430000000000312e+00 -2.695536171698704742e-01
2.792299999999999827e+01 2.460099999999999909e+01 5.700200000000000244e+01 -4.402101000000000042e+00 9.307741087511280098e-02
2.792399999999999949e+01 4.847500000000000142e+01 8.582200000000000273e+01 1.193294000000000077e+00 1.042136762351437707e-01
2.792899999999999849e+01 6.009799999999999898e+01 8.768999999999999773e+01 -4.079657999999999873e+01 -1.698699181074516881e-02
2.793499999999999872e+01 3.997099999999999653e+01 4.981600000000000250e+01 -2.678060999999999936e+01 -1.051470881784049849e-01
2.793499999999999872e+01 4.017999999999999972e+01 5.055199999999999960e+01 6.570307999999999815e+00 -1.054309957449653945e-01
2.793499999999999872e+01 4.137100000000000222e+01 5.121600000000000108e+01 9.486720999999999293e+00 -1.053678454767408013e-01
2.793499999999999872e+01 4.256199999999999761e+01 5.055199999999999960e+01 2.839121000000000095e+01 -1.045880403145898196e-01
2.793499999999999872e+01 4.277100000000000080e+01 4.981600000000000250e+01 5.648078000000000287e+01 -1.041325859552028332e-01
2.793700000000000117e+01 7.141500000000000625e+01 7.010099999999999909e+01 -4.605878999999999834e+00 6.014158527875033272e-02
2.793900000000000006e+01 7.966400000000000148e+01 6.332900000000000063e+01 -6.225932000000000244e+01 -3.010647000953720759e-02
2.794000000000000128e+01 8.078700000000000614e+01 6.278999999999999915e+01 2.080934000000000061e+00 -4.871613333719198441e-02
2.794200000000000017e+01 4.696900000000000119e+01 8.572599999999999909e+01 6.926946999999999965e-01 1.044824357021131994e-01
2.794300000000000139e+01 4.266199999999999903e+01 4.805700000000000216e+01 5.124817000000000178e+01 -1.033483770867495571e-01
2.794600000000000151e+01 6.813500000000000512e+01 6.578600000000000136e+01 -9.657614999999999839e+00 4.984255212634507159e-02
2.794600000000000151e+01 6.813500000000000512e+01 6.665200000000000102e+01 -1.421505000000000130e-01 4.685840284746992795e-02
2.794900000000000162e+01 7.998000000000000398e+01 4.400000000000000000e+01 -3.029710000000000036e+01 -2.550697174896054409e-01
2.794999999999999929e+01 5.014699999999999847e+01 5.888000000000000256e+01 -1.066832999999999920e+00 -1.073601299727870162e-01
2.794999999999999929e+01 5.201899999999999835e+01 5.725000000000000000e+01 2.109431999999999974e+01 -1.045553109543102821e-01
2.795299999999999940e+01 5.863900000000000290e+01 5.859300000000000352e+01 1.576484999999999914e+01 -9.968041283150927412e-02
2.795299999999999940e+01 5.749699999999999989e+01 9.301099999999999568e+01 -1.400403999999999982e+01 9.063589837117697057e-02
2.795499999999999829e+01 2.718400000000000105e+01 7.391800000000000637e+01 1.266056999999999877e-01 2.015066812175806965e-01
2.795599999999999952e+01 5.500200000000000244e+01 6.504699999999999704e+01 8.620793000000000816e+00 -1.137138406494088982e-01
2.795599999999999952e+01 5.640200000000000102e+01 6.504699999999999704e+01 1.909931000000000045e+00 -1.131546081849253704e-01
2.795700000000000074e+01 7.035899999999999466e+01 6.834600000000000364e+01 -3.550286999999999971e+00 5.877051746518781317e-02
2.795799999999999841e+01 2.520599999999999952e+01 7.478600000000000136e+01 9.837700000000000333e-01 2.016474448381334328e-01
2.796000000000000085e+01 2.484900000000000020e+01 7.913100000000000023e+01 7.125975000000000392e+00 2.009204412409975604e-01
2.796199999999999974e+01 6.436199999999999477e+01 8.547700000000000387e+01 5.710119999999999862e+00 -1.690306314008502286e-01
2.796399999999999864e+01 4.545600000000000307e+01 5.120300000000000296e+01 2.620617999999999981e+01 -1.037070814303010097e-01
2.796399999999999864e+01 4.796500000000000341e+01 4.980400000000000205e+01 4.034577999999999776e+01 -1.016003563285564626e-01
2.796399999999999864e+01 4.936500000000000199e+01 4.980400000000000205e+01 9.766246999999999900e+00 -1.007388233505682046e-01
2.796699999999999875e+01 2.576099999999999923e+01 5.262500000000000000e+01 -1.332687999999999917e+01 9.493547627943134393e-02
2.796799999999999997e+01 5.143200000000000216e+01 7.082999999999999829e+01 1.662981999999999871e+01 3.827760182184628546e-01
2.797100000000000009e+01 3.660600000000000165e+01 8.365500000000000114e+01 -5.763482999999999912e+00 1.058486251686816260e-01
2.797100000000000009e+01 3.765599999999999881e+01 8.365500000000000114e+01 -7.659847000000000072e+00 1.055686645837628224e-01
2.797200000000000131e+01 2.962600000000000122e+01 4.727400000000000091e+01 5.239745999999999571e-01 9.769075168852389690e-02
2.797200000000000131e+01 5.106199999999999761e+01 6.214500000000000313e+01 8.794836999999999350e+00 -1.107457626843476872e-01
2.797299999999999898e+01 5.247699999999999676e+01 6.131499999999999773e+01 1.380810999999999922e+01 -1.090544011036659322e-01
2.797800000000000153e+01 7.652400000000000091e+01 6.527700000000000102e+01 -8.306266000000000815e+00 -1.075874385570668446e-01
2.798000000000000043e+01 5.040299999999999869e+01 5.616299999999999670e+01 2.519680999999999838e+00 -1.045840156840681934e-01
2.798400000000000176e+01 5.697899999999999920e+01 5.845199999999999818e+01 2.420195000000000007e+01 -1.015574573912518819e-01
2.798799999999999955e+01 5.920000000000000284e+01 4.116400000000000148e+01 6.689371999999999652e+00 -2.373611474048882841e-01
2.799299999999999855e+01 4.909599999999999653e+01 5.667300000000000182e+01 -1.865061999999999998e+00 -1.057917818607455318e-01
2.799299999999999855e+01 4.909599999999999653e+01 5.925900000000000034e+01 -3.166607000000000127e+01 -1.082539834547095320e-01
2.799500000000000099e+01 3.964999999999999858e+01 4.174499999999999744e+01 -1.411340000000000039e+00 -1.113392296668844483e-01
2.799599999999999866e+01 7.757699999999999818e+01 4.334499999999999886e+01 -4.254343000000000430e+00 -2.569400100909441931e-01
2.800000000000000000e+01 2.477799999999999869e+01 6.247299999999999898e+01 1.947824999999999918e+01 3.836882946290547380e-01
2.800199999999999889e+01 5.185300000000000153e+01 2.812999999999999901e+01 -7.509733999999999909e+00 -1.424451510168853186e-01
2.800199999999999889e+01 5.304399999999999693e+01 2.746600000000000108e+01 -4.195664999999999978e+00 -2.605939583535512027e-01
2.800300000000000011e+01 4.000600000000000023e+01 4.006499999999999773e+01 -1.804658000000000095e+00 -3.724731870176059001e-01
2.800400000000000134e+01 4.425200000000000244e+01 8.568800000000000239e+01 6.035268000000000299e-01 1.051176286794045095e-01
2.800700000000000145e+01 6.908299999999999841e+01 8.420099999999999341e+01 -1.333919000000000032e+01 -1.707505440639167926e-01
2.800700000000000145e+01 3.485999999999999943e+01 8.122400000000000375e+01 -2.036357999999999890e+01 1.052049163035118085e-01
2.800700000000000145e+01 4.291799999999999926e+01 4.728099999999999881e+01 1.108510000000000062e+01 -1.029137065719628180e-01
2.800900000000000034e+01 5.085099999999999909e+01 5.795000000000000284e+01 -1.132344999999999935e+01 -1.060396141688647320e-01
2.800900000000000034e+01 2.310800000000000054e+01 7.571299999999999386e+01 1.136188000000000059e-01 2.018029643368327297e-01
2.800900000000000034e+01 5.913100000000000023e+01 6.389800000000000324e+01 7.430145999999999695e+00 -1.088223023446726057e-01
2.801399999999999935e+01 6.532999999999999829e+01 8.562000000000000455e+01 6.302832999999999908e-01 -1.695084941547492785e-01
2.801500000000000057e+01 7.878100000000000591e+01 4.430400000000000205e+01 -4.989549000000000234e+00 -2.562100642719033483e-01
2.801500000000000057e+01 4.127499999999999858e+01 4.623400000000000176e+01 8.782578000000000884e+00 -1.131493975262920226e-01
2.801999999999999957e+01 4.793999999999999773e+01 3.408200000000000074e+01 1.546459999999999946e+00 -2.788512030733615865e-01
2.802199999999999847e+01 3.477400000000000091e+01 8.209799999999999898e+01 -1.369871000000000016e+01 1.056065262480665734e-01
2.802199999999999847e+01 8.579600000000000648e+01 5.915899999999999892e+01 -3.102591999999999928e+01 -8.072734249763163783e-02
2.802299999999999969e+01 6.278999999999999915e+01 8.703600000000000136e+01 -1.696806000000000125e+01 -1.807200980831900894e-01
2.802299999999999969e+01 7.060500000000000398e+01 6.463299999999999557e+01 1.525122000000000000e+01 -1.218870207984221049e-01
2.802499999999999858e+01 2.589000000000000057e+01 8.080899999999999750e+01 -6.234310999999999936e+00 1.072987930676694290e-01
2.802799999999999869e+01 4.716299999999999670e+01 2.789699999999999847e+01 -5.629876000000000325e+00 -2.802165132009976078e-01
2.802899999999999991e+01 7.528000000000000114e+01 8.089400000000000546e+01 -4.291532000000000124e+01 -2.061712404934679943e-01
2.803000000000000114e+01 2.839399999999999835e+01 4.810900000000000176e+01 -6.603436000000000305e+00 9.709361234225635795e-02
2.803000000000000114e+01 2.992899999999999849e+01 4.657399999999999807e+01 -1.905178999999999956e+00 9.800035559654364514e-02
2.803200000000000003e+01 4.766100000000000136e+01 6.292199999999999704e+01 4.055215999999999710e+00 9.491686564825804751e-02
2.803200000000000003e+01 4.786599999999999966e+01 5.749600000000000222e+01 2.190122999999999820e+00 -1.071268323342513956e-01
2.803200000000000003e+01 4.786599999999999966e+01 5.843599999999999994e+01 1.323493000000000031e+00 -1.079779486539527850e-01
2.803500000000000014e+01 4.088400000000000034e+01 8.312600000000000477e+01 -9.095885000000000220e-01 1.043011748343991574e-01
2.803999999999999915e+01 6.929200000000000159e+01 4.270700000000000074e+01 -7.508731000000000044e+00 -2.502251642866255565e-01
2.804299999999999926e+01 4.668099999999999739e+01 6.497299999999999898e+01 9.278296999999999795e-01 9.210498648292533841e-02
2.804500000000000171e+01 7.572799999999999443e+01 7.819299999999999784e+01 -6.375068999999999875e+00 -1.743602031841836042e-01
2.804599999999999937e+01 8.378799999999999670e+01 5.983100000000000307e+01 -9.761015000000000441e+00 -8.619084996479108030e-02
2.804599999999999937e+01 5.889600000000000080e+01 4.046399999999999864e+01 1.632975000000000065e+00 -2.372485009329186045e-01
2.804599999999999937e+01 4.996699999999999875e+01 7.175799999999999557e+01 1.403908000000000023e+01 3.829832703483045941e-01
2.804799999999999827e+01 4.287700000000000244e+01 8.476699999999999591e+01 2.625770000000000159e+00 1.047835133209542163e-01
2.805099999999999838e+01 4.014300000000000068e+01 4.699199999999999733e+01 1.930397999999999925e+01 -1.139561388014637411e-01
2.805099999999999838e+01 4.014300000000000068e+01 4.785699999999999932e+01 -1.450572999999999979e+01 -1.042349385578035248e-01
2.805099999999999838e+01 4.014300000000000068e+01 4.879699999999999704e+01 -5.589847000000000321e+01 -1.046445824403310770e-01
2.805399999999999849e+01 3.368500000000000227e+01 4.423299999999999699e+01 5.674762000000000306e+00 -1.141946400762011704e-01
2.805399999999999849e+01 3.454999999999999716e+01 4.423299999999999699e+01 1.358694999999999986e+01 -1.139874599645731151e-01
2.805399999999999849e+01 3.937800000000000011e+01 8.310500000000000398e+01 -1.768482000000000109e-01 1.047594156733887560e-01
2.805600000000000094e+01 4.671099999999999852e+01 3.144999999999999929e+01 -3.177935999999999872e+00 -2.793831934377852821e-01
2.805699999999999861e+01 2.456599999999999895e+01 7.491599999999999682e+01 3.905895999999999813e+00 2.017363996353935818e-01
2.805799999999999983e+01 7.231799999999999784e+01 7.017600000000000193e+01 -5.773836000000000190e+00 -2.728667822957049904e-01
2.805900000000000105e+01 5.066199999999999903e+01 2.816000000000000014e+01 -3.585614000000000079e+00 -2.807009080542793855e-01
2.805900000000000105e+01 2.870400000000000063e+01 6.773799999999999955e+01 -3.955008999999999730e+01 3.837264904462712178e-01
2.805900000000000105e+01 2.870400000000000063e+01 6.860299999999999443e+01 -3.680350999999999928e+00 3.837381299363230580e-01
2.805999999999999872e+01 3.612299999999999756e+01 4.295100000000000051e+01 -1.257424000000000097e+00 -1.129718789011384950e-01
2.806299999999999883e+01 2.819999999999999929e+01 7.267100000000000648e+01 4.616984000000000421e+00 2.016311973605447450e-01
2.806299999999999883e+01 4.083299999999999841e+01 3.848400000000000176e+01 8.403988999999999487e-01 -3.725563296889983222e-01
2.806400000000000006e+01 3.820100000000000051e+01 8.343000000000000682e+01 -1.019163999999999959e+01 1.052858446032476358e-01
2.806599999999999895e+01 4.261500000000000199e+01 4.658100000000000307e+01 1.219638999999999918e+01 -1.128750577940218075e-01
2.806599999999999895e+01 5.108299999999999841e+01 5.876500000000000057e+01 3.159959000000000184e+00 -1.067889038812600833e-01
2.806700000000000017e+01 4.593299999999999983e+01 2.871999999999999886e+01 -2.676090999999999998e+00 -2.798912320433685208e-01
2.806700000000000017e+01 4.593299999999999983e+01 2.966000000000000014e+01 -5.417201000000000377e+00 -2.796927091285464906e-01
2.806800000000000139e+01 7.404999999999999716e+01 8.171699999999999875e+01 -2.850761999999999929e+01 -2.114184154934784787e-01
2.807100000000000151e+01 5.149799999999999756e+01 8.790099999999999625e+01 -3.529057999999999851e+01 -1.999012667250669312e-02
2.807199999999999918e+01 3.578600000000000136e+01 8.199899999999999523e+01 -1.663994999999999891e+01 1.052690617789891619e-01
2.807199999999999918e+01 4.417799999999999727e+01 3.607099999999999795e+01 -3.203139000000000181e+00 -2.778701922937719671e-01
2.807300000000000040e+01 6.416200000000000614e+01 8.631999999999999318e+01 -1.841015000000000157e+01 -1.804140266712193352e-01
2.807300000000000040e+01 2.688400000000000034e+01 8.169400000000000261e+01 -1.707162999999999986e+00 1.073544223095104500e-01
2.807300000000000040e+01 2.800000000000000000e+01 8.169400000000000261e+01 3.738302000000000014e-01 1.071172396414945133e-01
2.807300000000000040e+01 7.574699999999999989e+01 7.752100000000000080e+01 -9.552412000000000347e+00 -2.952630227882636627e-01
2.807700000000000173e+01 4.526800000000000068e+01 6.268699999999999761e+01 7.062390999999999508e+01 9.411911706755059226e-02
2.807700000000000173e+01 4.526800000000000068e+01 6.495199999999999818e+01 4.200038000000000160e+00 9.170018387062854603e-02
2.807799999999999940e+01 7.273999999999999488e+01 8.100799999999999557e+01 -1.876146999999999920e+01 -2.004072704047793196e-01
2.808299999999999841e+01 6.372899999999999920e+01 8.693699999999999761e+01 -2.211864999999999881e+01 -1.809953266730715271e-01
2.808500000000000085e+01 2.946099999999999852e+01 8.170199999999999818e+01 -2.424141000000000101e+00 1.067925713733706983e-01
2.808599999999999852e+01 5.416100000000000136e+01 5.719299999999999784e+01 4.701082999999999856e+01 -1.028836703983232459e-01
2.808899999999999864e+01 4.834499999999999886e+01 2.822100000000000009e+01 -3.057170000000000165e+00 -2.803343050527715707e-01
2.808999999999999986e+01 4.649199999999999733e+01 6.222200000000000131e+01 3.768684999999999974e+01 9.513368242283856691e-02
2.809299999999999997e+01 4.847599999999999909e+01 7.005899999999999750e+01 -1.064678999999999931e+01 3.830845794666601911e-01
2.809299999999999997e+01 2.872299999999999898e+01 4.734899999999999665e+01 -5.156393999999999700e+00 9.742677243276252896e-02
2.809299999999999997e+01 2.872299999999999898e+01 4.886899999999999977e+01 -7.916642000000000401e+00 9.692634346682812985e-02
2.809299999999999997e+01 2.872299999999999898e+01 5.026899999999999835e+01 -7.076908000000000420e+00 9.643558559989491574e-02
2.809600000000000009e+01 4.314200000000000301e+01 5.462500000000000000e+01 1.184712000000000032e+01 -1.067801103811705510e-01
2.809700000000000131e+01 6.032399999999999807e+01 5.953499999999999659e+01 2.181928999999999785e+00 -9.868392015387909832e-02
2.809700000000000131e+01 6.053300000000000125e+01 6.027100000000000080e+01 7.839596000000000231e+00 -9.959058958377145498e-02
2.809799999999999898e+01 5.215699999999999648e+01 8.706900000000000261e+01 -5.518493999999999744e+01 -3.438553982133597114e-02
2.809799999999999898e+01 5.355700000000000216e+01 8.706900000000000261e+01 -5.700054999999999872e+00 -3.300959726380350151e-02
2.809900000000000020e+01 4.386500000000000199e+01 5.237800000000000011e+01 9.974764000000000408e+00 -1.051191844465754199e-01
2.809900000000000020e+01 5.619500000000000028e+01 9.158899999999999864e+01 -8.039835000000000065e+00 8.541075429471052527e-02
2.809900000000000020e+01 4.394400000000000261e+01 5.804200000000000159e+01 1.860631000000000090e-01 9.769221490618609782e-02
2.809900000000000020e+01 4.505499999999999972e+01 5.156199999999999761e+01 1.223892999999999986e+01 -1.041308094419474833e-01
2.809900000000000020e+01 4.725800000000000267e+01 3.543099999999999739e+01 9.200854000000000532e-01 -2.783903582427592616e-01
2.810300000000000153e+01 7.541599999999999682e+01 7.358799999999999386e+01 -9.524190000000000822e+00 -3.711139408729979272e-01
2.810399999999999920e+01 8.348499999999999943e+01 6.053099999999999881e+01 5.795624000000000109e+00 -9.202067564388995147e-02
2.810800000000000054e+01 5.327900000000000347e+01 6.144700000000000273e+01 1.830929000000000073e+01 -1.088808336807498833e-01
2.810900000000000176e+01 3.550099999999999767e+01 8.280500000000000682e+01 -9.433403000000000205e+00 1.057184208091008354e-01
2.811100000000000065e+01 6.540600000000000591e+01 4.292499999999999716e+01 -1.181126000000000076e+01 -2.508951509122687162e-01
2.811100000000000065e+01 7.470300000000000296e+01 4.223100000000000165e+01 -1.611489999999999867e+01 -2.586035074382953547e-01
2.811400000000000077e+01 5.294899999999999807e+01 5.747699999999999676e+01 2.189294999999999902e+01 -1.041858713104855533e-01
2.811799999999999855e+01 4.877700000000000102e+01 7.097799999999999443e+01 6.078102999999999589e+00 3.830878858737424286e-01
2.812099999999999866e+01 6.046200000000000330e+01 6.211099999999999710e+01 6.910499999999999865e+00 -1.033152802510401286e-01
2.812199999999999989e+01 4.761899999999999977e+01 3.470900000000000318e+01 3.952173999999999854e+00 -2.786529769624130348e-01
2.812300000000000111e+01 5.839000000000000057e+01 9.210899999999999466e+01 -7.135599000000000025e+00 9.114056652601539021e-02
2.812399999999999878e+01 8.750400000000000489e+01 5.056400000000000006e+01 -1.275818999999999981e-01 -1.711312250357506781e-01
2.812399999999999878e+01 4.214399999999999835e+01 4.622399999999999665e+01 1.011115999999999993e+01 -1.127885686581951985e-01
2.812600000000000122e+01 6.668500000000000227e+01 8.654800000000000182e+01 -1.825647000000000020e+01 -1.826318644772812749e-01
2.812699999999999889e+01 2.513200000000000145e+01 5.618800000000000239e+01 -4.623738000000000348e+00 9.347243556693075883e-02
2.813100000000000023e+01 4.909199999999999875e+01 8.765300000000000580e+01 -4.432654999999999568e+00 1.059655874697280342e-01
2.813100000000000023e+01 7.169100000000000250e+01 4.140899999999999892e+01 -5.918974000000000402e+00 -2.495176693809004198e-01
2.813599999999999923e+01 5.585499999999999687e+01 5.728900000000000148e+01 3.520600000000000307e+01 -1.014047500607797303e-01
2.813700000000000045e+01 6.000999999999999801e+01 6.298100000000000165e+01 7.881618999999999708e+00 -1.058666833631340676e-01
2.813800000000000168e+01 2.582199999999999918e+01 6.681100000000000705e+01 9.051944999999999908e+00 3.837435905955908222e-01
2.813800000000000168e+01 2.678000000000000114e+01 6.681100000000000705e+01 2.778455000000000155e+02 3.837364389722440761e-01
2.813899999999999935e+01 8.375600000000000023e+01 6.129800000000000182e+01 9.900833000000000439e+00 -1.001478402337226264e-01
2.814000000000000057e+01 3.014799999999999969e+01 8.451600000000000534e+01 1.584556000000000076e+00 1.076680519746124193e-01
2.814499999999999957e+01 5.043500000000000227e+01 6.880599999999999739e+01 8.292206000000000188e+00 8.771344617698209611e-02
2.814600000000000080e+01 3.335600000000000165e+01 8.534799999999999898e+01 2.008913999999999866e+00 1.073846098981895841e-01
2.814600000000000080e+01 7.595399999999999352e+01 7.895300000000000296e+01 1.288648000000000016e+00 -1.806609615540274993e-01
2.814699999999999847e+01 7.583599999999999852e+01 4.299000000000000199e+01 -6.389147000000000354e+00 -2.580825779567706424e-01
2.814900000000000091e+01 2.642899999999999849e+01 5.546600000000000108e+01 9.899782000000000082e+00 9.396076618732621122e-02
2.814900000000000091e+01 4.884000000000000341e+01 6.916200000000000614e+01 -4.684405999999999892e+01 3.830375357723986296e-01
2.814900000000000091e+01 2.684100000000000108e+01 7.464499999999999602e+01 1.689331000000000027e-01 2.014454290049907947e-01
2.814999999999999858e+01 8.302299999999999613e+01 4.624499999999999744e+01 -6.219797000000000242e-01 -1.714566501768164386e-01
2.815099999999999980e+01 3.730499999999999972e+01 4.239600000000000080e+01 -2.334362000000000048e+00 -1.123348230934200637e-01
2.815200000000000102e+01 2.902700000000000102e+01 4.956900000000000261e+01 -5.085899999999999643e+00 9.676344444847312376e-02
2.815500000000000114e+01 7.441800000000000637e+01 4.139500000000000313e+01 -1.144744000000000028e+01 -2.584533056470378343e-01
2.815599999999999881e+01 3.186299999999999955e+01 8.605599999999999739e+01 1.450718999999999959e+01 1.079724971431546832e-01
2.815700000000000003e+01 7.527800000000000580e+01 7.650000000000000000e+01 -1.599513999999999925e+01 -2.853251026316841465e-01
2.815700000000000003e+01 5.649799999999999756e+01 9.228900000000000148e+01 -6.034438999999999886e+00 8.675339014117328107e-02
2.815800000000000125e+01 5.683500000000000085e+01 3.635799999999999699e+01 2.286319999999999908e+00 -1.426039908469436679e-01
2.816000000000000014e+01 5.455700000000000216e+01 8.766800000000000637e+01 8.122561999999999838e-01 -3.155101501646796064e-02
2.816400000000000148e+01 3.110500000000000043e+01 4.399000000000000199e+01 -3.629915000000000003e+00 -1.146141911107421557e-01
2.816400000000000148e+01 5.436399999999999721e+01 2.651699999999999946e+01 1.288613999999999926e+01 -2.606065368335428456e-01
2.816799999999999926e+01 7.056100000000000705e+01 8.109399999999999409e+01 -3.321894000000000347e+01 -1.985855658348341657e-01
2.817000000000000171e+01 7.390699999999999648e+01 7.295999999999999375e+01 -1.265252000000000088e+01 -3.721657429596377797e-01
2.817099999999999937e+01 4.282699999999999818e+01 3.626100000000000279e+01 -1.136500000000000066e+00 -2.777179791026024858e-01
2.817800000000000082e+01 6.950600000000000023e+01 8.494799999999999329e+01 -9.448772999999999200e+00 -1.718821065399767367e-01
2.817899999999999849e+01 7.305899999999999750e+01 4.075300000000000011e+01 -7.335998000000000019e+00 -2.590326025880995142e-01
2.817999999999999972e+01 5.669800000000000040e+01 9.301099999999999568e+01 -4.052188000000000123e+00 8.804408076360960289e-02
2.817999999999999972e+01 5.829599999999999937e+01 9.301099999999999568e+01 -1.252286999999999928e+01 -6.324813580803902158e-02
2.817999999999999972e+01 4.290999999999999659e+01 5.703699999999999903e+01 1.155045999999999928e+01 9.793428225130157427e-02
2.818100000000000094e+01 5.156799999999999784e+01 6.956399999999999295e+01 1.123381999999999969e+01 8.658518414027246979e-02
2.818299999999999983e+01 7.523699999999999477e+01 7.542000000000000171e+01 -3.135741000000000156e+01 -2.789384216891069301e-01
2.818700000000000117e+01 6.919100000000000250e+01 8.161799999999999500e+01 6.381985000000000241e+00 -3.109257335062353134e-01
2.819099999999999895e+01 4.890699999999999648e+01 8.652200000000000557e+01 -1.114662999999999959e+00 1.047754737787296719e-01
2.819200000000000017e+01 8.773300000000000409e+01 5.502300000000000324e+01 -6.393552999999999820e+00 -1.796125212812411109e-01
2.819200000000000017e+01 5.101700000000000301e+01 8.872199999999999420e+01 -9.787378000000000355e+00 -1.940735083681467688e-02
2.819900000000000162e+01 5.958899999999999864e+01 9.078499999999999659e+01 3.266028000000000020e+01 9.245272781334905321e-02
2.819900000000000162e+01 5.982000000000000028e+01 8.996999999999999886e+01 1.194566999999999979e+01 9.188784439458438924e-02
2.820299999999999940e+01 8.743899999999999295e+01 5.589000000000000057e+01 3.113958999999999833e+01 -1.833726116787259275e-01
2.820299999999999940e+01 5.571800000000000352e+01 2.741100000000000136e+01 1.617151000000000005e+00 -2.604925596704236179e-01
2.820400000000000063e+01 2.802899999999999991e+01 5.055499999999999972e+01 -3.873639999999999972e+00 9.616928708624608579e-02
2.820400000000000063e+01 8.342000000000000171e+01 6.207300000000000040e+01 2.134074000000000026e+01 -1.097931989742616521e-01
2.820400000000000063e+01 7.702299999999999613e+01 4.278300000000000125e+01 -6.174247000000000263e+00 -2.570646184673818779e-01
2.820499999999999829e+01 6.297500000000000142e+01 4.167999999999999972e+01 1.284360000000000035e+01 -2.509585348752417788e-01
2.820700000000000074e+01 2.673199999999999932e+01 5.476599999999999824e+01 2.287189999999999834e+00 9.429517744141516222e-02
2.820799999999999841e+01 4.937599999999999767e+01 6.893999999999999773e+01 -2.233240999999999943e+01 8.734529053715039959e-02
2.821000000000000085e+01 5.146600000000000108e+01 6.122099999999999653e+01 1.085870000000000068e+01 -1.095415437777270684e-01
2.821199999999999974e+01 7.545699999999999363e+01 7.466599999999999682e+01 -3.875334999999999752e+01 -2.754976674411773185e-01
2.821300000000000097e+01 6.073400000000000176e+01 4.110199999999999676e+01 3.219097999999999793e+00 -2.375797061524940190e-01
2.821300000000000097e+01 6.856799999999999784e+01 6.508599999999999852e+01 -8.810571999999999848e-01 -1.238044844649956316e-01
2.821300000000000097e+01 6.856799999999999784e+01 6.735200000000000387e+01 5.284327000000000218e+00 4.542801560280514128e-02
2.821799999999999997e+01 5.158700000000000330e+01 5.795000000000000284e+01 9.464408000000000598e+00 -1.056764717541913701e-01
2.821799999999999997e+01 5.158500000000000085e+01 5.378099999999999881e+01 -1.918989000000000056e+00 -1.018496379577817912e-01
2.821900000000000119e+01 4.178300000000000125e+01 3.723400000000000176e+01 2.386159000000000141e+00 -3.726219383660797080e-01
2.822100000000000009e+01 2.570799999999999841e+01 5.141199999999999903e+01 -5.076999999999999957e+00 9.536418458579573598e-02
2.822299999999999898e+01 5.456900000000000261e+01 6.243099999999999739e+01 2.255339999999999989e+01 -1.096828571776104766e-01
2.822299999999999898e+01 5.456900000000000261e+01 6.348100000000000165e+01 1.965456999999999965e+01 -1.113923181150213437e-01
2.822299999999999898e+01 5.456900000000000261e+01 6.434699999999999420e+01 7.933262000000000036e+00 -1.128587696266535739e-01
2.822500000000000142e+01 3.262400000000000233e+01 4.389200000000000301e+01 -8.736413000000000650e+00 -1.142234958034327591e-01
2.822700000000000031e+01 4.777499999999999858e+01 8.576300000000000523e+01 1.015995999999999988e+01 1.042478874239167047e-01
2.823100000000000165e+01 4.999900000000000233e+01 5.034100000000000108e+01 3.112464000000000119e+00 -1.006780074249802592e-01
2.823100000000000165e+01 6.917600000000000193e+01 8.579099999999999682e+01 -2.892830999999999975e+01 -1.838913766386261750e-01
2.823199999999999932e+01 5.500099999999999767e+01 8.976900000000000546e+01 -3.538228000000000151e+00 -2.956053273087583949e-02
2.823199999999999932e+01 5.500099999999999767e+01 9.070900000000000318e+01 -3.815205999999999875e+00 8.175715940740893584e-02
2.823199999999999932e+01 6.430100000000000193e+01 4.230400000000000205e+01 -2.817286999999999875e+00 -2.509165622398424889e-01
2.823300000000000054e+01 8.187500000000000000e+01 4.513600000000000279e+01 1.372592999999999996e+01 -2.531885608124702647e-01
2.823300000000000054e+01 6.169200000000000017e+01 4.111800000000000210e+01 3.292762000000000189e+00 -2.509943715561766542e-01
2.823400000000000176e+01 2.625600000000000023e+01 5.346000000000000085e+01 -1.039868000000000059e+01 9.472006363211757374e-02
2.823600000000000065e+01 5.099900000000000233e+01 7.153000000000000114e+01 1.542487999999999992e+01 3.829015639458104303e-01
2.823699999999999832e+01 2.833599999999999852e+01 7.068999999999999773e+01 6.586440999999999546e-01 3.837807790683293030e-01
2.823999999999999844e+01 5.937299999999999756e+01 3.977199999999999847e+01 8.699299999999999811e-01 -2.372336883673307750e-01
2.824099999999999966e+01 3.035399999999999920e+01 8.532099999999999795e+01 1.262672999999999934e+00 1.079377582691496001e-01
2.824200000000000088e+01 2.457100000000000151e+01 6.519599999999999795e+01 -2.342738999999999905e+00 3.837381662906569901e-01
2.824200000000000088e+01 7.896399999999999864e+01 6.338700000000000045e+01 -3.019549999999999912e+01 -1.187909380457773667e-01
2.824299999999999855e+01 6.864499999999999602e+01 8.321200000000000330e+01 -4.411763999999999797e+00 -3.178682377733629272e-01
2.824299999999999855e+01 2.553800000000000026e+01 7.999500000000000455e+01 -3.201493000000000144e+00 2.006837055832854377e-01
2.824299999999999855e+01 8.008700000000000330e+01 6.284899999999999665e+01 -4.743408000000000158e+01 -4.052856688006896413e-02
2.824299999999999855e+01 5.702700000000000102e+01 9.377100000000000080e+01 -5.921331000000000344e+00 8.953265060772445938e-02
2.824299999999999855e+01 5.796699999999999875e+01 9.377100000000000080e+01 -7.454602000000000395e+00 -6.328547341068083143e-02
2.824299999999999855e+01 4.361999999999999744e+01 5.318399999999999750e+01 3.425399999999999778e+00 -1.057350300337435572e-01
2.824500000000000099e+01 5.159499999999999886e+01 5.960600000000000165e+01 9.007284000000000290e+00 -1.075310197675619223e-01
2.824699999999999989e+01 7.769100000000000250e+01 7.155599999999999739e+01 -3.254272999999999971e+00 -2.320643078189748854e-01
2.824699999999999989e+01 4.167799999999999727e+01 8.368300000000000693e+01 4.955352000000000423e+00 1.043649542591970902e-01
2.824899999999999878e+01 4.688199999999999790e+01 6.118800000000000239e+01 1.465615000000000023e+01 9.642296046145672206e-02
2.825000000000000000e+01 7.791100000000000136e+01 6.419899999999999807e+01 -1.212651999999999930e+01 -1.129960159152401111e-01
2.825000000000000000e+01 8.803700000000000614e+01 5.432300000000000040e+01 1.376567000000000007e+01 -1.767440799668788809e-01
2.825499999999999901e+01 4.915800000000000125e+01 8.863700000000000045e+01 -3.130841000000000207e+00 -1.928799299906239911e-02
2.825499999999999901e+01 5.963199999999999790e+01 4.046399999999999864e+01 3.950925999999999938e+00 -2.373124348107220061e-01
2.825499999999999901e+01 2.538700000000000045e+01 6.607699999999999818e+01 -5.827596999999999916e-01 3.837445970448818966e-01
2.825600000000000023e+01 4.827799999999999869e+01 5.927199999999999847e+01 -2.748057999999999890e+00 -1.087011074151869872e-01
2.825900000000000034e+01 5.570199999999999818e+01 6.510500000000000398e+01 5.433150000000000368e+00 -1.138365864994010518e-01
2.826200000000000045e+01 5.228000000000000114e+01 5.806499999999999773e+01 1.671609000000000123e+01 -1.053656793839649469e-01
2.826599999999999824e+01 4.638799999999999812e+01 3.060600000000000165e+01 -6.684647000000000006e+00 -2.795818741003250341e-01
2.826699999999999946e+01 4.866499999999999915e+01 4.974600000000000222e+01 1.482656000000000063e+01 -1.012152522681242645e-01
2.826800000000000068e+01 4.909599999999999653e+01 6.267499999999999716e+01 7.277675000000000338e+00 9.599816831256444138e-02
2.827299999999999969e+01 8.052200000000000557e+01 4.429500000000000171e+01 -1.194349000000000061e+01 -2.543659556976343716e-01
2.827299999999999969e+01 2.425000000000000000e+01 6.286200000000000188e+01 -7.796250999999999598e-01 3.837128212720765652e-01
2.827599999999999980e+01 4.740500000000000114e+01 5.057300000000000040e+01 7.847858999999999696e+01 -1.024144409956620205e-01
2.827700000000000102e+01 6.662099999999999511e+01 4.344100000000000250e+01 -6.459230999999999945e+00 -2.508186090478752850e-01
2.827799999999999869e+01 5.835000000000000142e+01 3.727499999999999858e+01 -9.820999000000000478e+00 -2.602936139591955911e-01
2.827899999999999991e+01 2.528699999999999903e+01 5.180700000000000216e+01 -5.244919000000000331e+00 9.514460750581230086e-02
2.828000000000000114e+01 4.615899999999999892e+01 8.579600000000000648e+01 9.500600000000000156e-01 1.046749994198308970e-01
2.829200000000000159e+01 2.502400000000000091e+01 5.262500000000000000e+01 -5.360585999999999629e+00 9.480517500448726320e-02
2.829200000000000159e+01 2.655900000000000105e+01 5.415999999999999659e+01 -4.492524000000000406e+00 9.450569176563518303e-02
2.829400000000000048e+01 4.037700000000000244e+01 3.924499999999999744e+01 -2.666777999999999871e+00 -3.724968584737349264e-01
2.829899999999999949e+01 4.722800000000000153e+01 6.222200000000000131e+01 1.514935000000000009e+01 9.550651354542946669e-02
2.830799999999999983e+01 6.032699999999999818e+01 6.098899999999999721e+01 8.262368000000000379e+00 -1.013784699618862917e-01
2.831099999999999994e+01 5.034199999999999875e+01 6.196600000000000108e+01 8.295609999999999928e+00 9.768145424691651590e-02
2.831200000000000117e+01 5.214800000000000324e+01 6.087199999999999989e+01 1.189577000000000062e+01 -1.088251054072453539e-01
2.831200000000000117e+01 8.496299999999999386e+01 4.959899999999999665e+01 5.153296000000000099e+00 -1.713596322187559973e-01
2.831800000000000139e+01 7.808100000000000307e+01 4.424600000000000222e+01 -5.994168000000000163e+00 -2.566080216034932748e-01
2.831800000000000139e+01 4.057500000000000284e+01 4.629200000000000159e+01 1.562623999999999924e+01 -1.132675440442203890e-01
