1.352399999999999913e+01 -7.331999999999999851e+00 4.626500000000000057e+01 -2.594255000000000067e+01 -4.727625396064107088e-02
1.352599999999999980e+01 -3.596999999999999975e+00 7.941599999999999682e+01 1.375427000000000000e+01 -3.764548541154179584e-01
1.352699999999999925e+01 -4.041500000000000092e+00 6.655200000000000671e+01 -1.358760000000000012e+01 8.475983706795217620e-02
1.352800000000000047e+01 1.825900000000000034e+01 4.038300000000000267e+01 2.548954000000000164e+01 3.176111137708857723e-02
1.353400000000000070e+01 -3.614500000000000046e+00 6.945399999999999352e+01 5.962792999999999566e+00 7.972959320058493893e-02
1.353400000000000070e+01 -3.286200000000000010e+00 7.019899999999999807e+01 2.285489000000000104e+01 7.847209200721101674e-02
1.353400000000000070e+01 1.577100000000000080e+01 6.305499999999999972e+01 -7.215232999999999564e+00 5.086625270474868371e-02
1.353500000000000014e+01 -1.635099999999999909e+01 5.607600000000000051e+01 -3.825937000000000143e+00 -1.761844054335728882e-01
1.353700000000000081e+01 1.491900000000000048e+01 3.670499999999999829e+01 -7.658056000000000196e+00 2.994685724927643664e-02
1.354100000000000037e+01 1.262599999999999945e+01 3.737700000000000244e+01 -2.674487000000000059e+00 2.709962036646906824e-02
1.354199999999999982e+01 2.086699999999999944e-01 6.878199999999999648e+01 -8.112389999999999546e+00 7.530509934463620880e-02
1.354299999999999926e+01 -2.536799999999999855e+01 6.233400000000000318e+01 -6.453748000000000040e+00 -6.940850578929279313e-02
1.354800000000000004e+01 -5.214999999999999858e+00 5.501299999999999812e+01 -1.733612000000000108e+01 -3.123500268165720420e-02
1.355000000000000071e+01 7.675799999999999734e+00 5.070600000000000307e+01 3.333164000000000016e+01 1.606901140581265541e-02
1.355199999999999960e+01 7.395999999999999908e+00 8.300799999999999557e+01 4.484767000000000081e+01 6.437730246690880065e-02
1.355300000000000082e+01 1.413899999999999935e+01 3.682600000000000051e+01 -4.506635000000000169e+00 2.911017597633511894e-02
1.355300000000000082e+01 1.950199999999999889e+01 3.970400000000000063e+01 -1.679749999999999943e+01 3.315343421039987359e-02
1.355499999999999972e+01 -1.557299999999999907e+00 3.556099999999999994e+01 -1.584962999999999900e+00 6.758227443292397218e-02
1.355499999999999972e+01 -1.013199999999999967e+01 5.339500000000000313e+01 -1.136787999999999954e+01 -2.029125637180116681e-01
1.355700000000000038e+01 -3.012500000000000178e+00 7.086599999999999966e+01 6.725622000000000433e+00 7.744956401812475022e-02
1.355899999999999928e+01 8.726200000000000401e+00 8.229000000000000625e+01 3.658872999999999820e+01 6.372162097840705641e-02
1.356300000000000061e+01 -2.908799999999999830e+00 6.579399999999999693e+01 -6.607522000000000340e+00 8.440872803887042308e-02
1.356300000000000061e+01 5.709100000000000286e+00 3.415299999999999869e+01 4.912472000000000172e+00 4.406124990237595546e-02
1.356700000000000017e+01 -8.780000000000000027e-01 5.349600000000000222e+01 -6.335732000000000141e+00 1.071867468975062077e-01
1.356700000000000017e+01 4.405100000000000127e-01 5.423100000000000165e+01 9.801994000000000540e+00 7.875382992204799093e-02
1.356700000000000017e+01 6.720000000000000417e-01 5.504599999999999937e+01 1.125019999999999953e+02 7.945691117068268139e-02
1.356700000000000017e+01 -2.872799999999999798e+00 3.633400000000000318e+01 -2.948729000000000156e+00 7.502296754112755539e-02
1.356900000000000084e+01 1.978999999999999915e+01 3.123100000000000165e+01 -1.849189999999999889e+00 3.637899203849095237e-02
1.357000000000000028e+01 1.426999999999999957e+01 8.170300000000000296e+01 1.538049999999999962e+01 6.088158753204222368e-02
1.357099999999999973e+01 7.802900000000000169e+00 5.813499999999999801e+01 -2.715158000000000182e+00 4.960286284449086369e-02
1.357399999999999984e+01 -1.846099999999999852e+01 5.722599999999999909e+01 -2.853291000000000022e-01 -6.914847443755066381e-02
1.358000000000000007e+01 3.569900000000000073e+00 4.551299999999999812e+01 -2.826602999999999977e+00 -1.387468038025856110e-02
1.358300000000000018e+01 1.249600000000000044e+00 7.667000000000000171e+01 -3.506537999999999755e+01 6.968027422490949419e-02
1.358500000000000085e+01 1.316000000000000059e+00 4.415500000000000114e+01 -1.187592000000000070e+01 -8.539552974478042263e-03
1.358799999999999919e+01 -6.190900000000000070e+00 4.652600000000000335e+01 -2.166119000000000128e+01 -2.606654617830888032e-01
1.359099999999999930e+01 -2.319999999999999840e+00 8.012999999999999545e+01 9.882574999999999221e+00 -3.764087494791412691e-01
1.359099999999999930e+01 2.043499999999999872e+00 7.745799999999999841e+01 1.791663000000000139e+01 6.878932385861163956e-02
1.359299999999999997e+01 -1.879899999999999904e+00 7.162399999999999523e+01 -3.943875999999999937e+00 7.554964903858839287e-02
1.359500000000000064e+01 -1.728999999999999915e+01 5.617499999999999716e+01 -2.801318999999999892e+00 -1.514412516475297475e-02
1.359600000000000009e+01 -2.372899999999999920e+01 6.616899999999999693e+01 -3.020636999999999794e+00 -3.746745536373001229e-01
1.359699999999999953e+01 6.080199999999999605e+00 8.226699999999999591e+01 8.345786999999999622e+00 6.515633610230213424e-02
1.360299999999999976e+01 -1.268399999999999928e+01 5.493299999999999983e+01 -5.072354999999999947e+00 -2.088449551403210869e-01
1.360500000000000043e+01 1.547100000000000009e+01 3.675200000000000244e+01 -7.449902999999999942e+00 3.042668945596993524e-02
1.360500000000000043e+01 -2.482300000000000040e+01 6.548099999999999454e+01 -2.369390999999999892e+01 -8.968184124737341167e-02
1.360699999999999932e+01 1.566000000000000014e+01 8.078600000000000136e+01 1.368607000000000085e+01 6.010851325260603562e-02
1.360800000000000054e+01 1.149099999999999966e+01 6.111500000000000199e+01 -9.476019000000000858e+00 5.125833940476650502e-02
1.360999999999999943e+01 5.100100000000000300e+00 7.576300000000000523e+01 4.414737999999999829e+00 6.675302714342794264e-02
1.360999999999999943e+01 5.100100000000000300e+00 7.662900000000000489e+01 1.462776000000000032e+01 6.661579590036974252e-02
1.361599999999999966e+01 1.584999999999999964e+01 3.843900000000000006e+01 -3.597100999999999971e+01 2.981721072705682124e-02
1.361800000000000033e+01 1.850100000000000122e+01 7.198999999999999488e+01 -2.020448000000000022e+01 5.609548201773519732e-02
1.362199999999999989e+01 7.960599999999999621e-02 6.782399999999999807e+01 -7.183879000000000126e+00 7.631278755570967964e-02
1.362400000000000055e+01 -7.352000000000000313e+00 7.062300000000000466e+01 1.853751000000000104e+01 -3.762776987471985191e-01
1.362400000000000055e+01 1.922599999999999909e+01 4.481300000000000239e+01 2.912233000000000072e+00 3.297660095365982647e-02
1.362899999999999956e+01 -3.609999999999999876e+00 5.479699999999999704e+01 -1.462710000000000043e+01 1.576487968590613575e-01
1.363799999999999990e+01 1.017200000000000060e+01 8.150600000000000023e+01 1.689053999999999860e+02 6.295073189424260640e-02
1.363899999999999935e+01 1.870100000000000051e+01 7.373799999999999955e+01 -7.159646000000000399e+00 5.675970180130619769e-02
1.364000000000000057e+01 2.528600000000000136e+01 3.974499999999999744e+01 -1.689931999999999945e+01 3.779434352226442029e-02
1.364000000000000057e+01 2.651099999999999923e+01 3.889999999999999858e+01 -2.015978000000000137e+01 3.858497517196000232e-02
1.364000000000000057e+01 2.662699999999999889e+01 3.730299999999999727e+01 -2.088867000000000118e+01 3.872703668372190489e-02
1.364000000000000057e+01 2.673799999999999955e+01 3.810099999999999909e+01 -3.636518999999999835e+01 3.874552618171391016e-02
1.364000000000000057e+01 1.130100000000000016e+01 3.757399999999999807e+01 1.370645999999999987e+01 2.545616823144173854e-02
1.364199999999999946e+01 7.949899999999999745e-01 5.595799999999999841e+01 5.207302999999999571e+00 8.079562933477650588e-02
1.364600000000000080e+01 3.967400000000000038e+00 7.500499999999999545e+01 -4.010073000000000221e+00 6.790044078378483505e-02
1.365199999999999925e+01 2.613800000000000168e+01 3.437500000000000000e+01 -6.766310999999999964e+00 3.880787394933217505e-02
1.365499999999999936e+01 1.293999999999999950e+01 6.061599999999999966e+01 -4.717534999999999812e+00 4.921855728819669179e-02
1.366000000000000014e+01 7.339999999999999858e-01 3.033599999999999852e+01 -5.663026000000000337e+00 6.479074935803756652e-02
1.366000000000000014e+01 2.254000000000000004e+00 3.033599999999999852e+01 -5.784011999999999709e+00 6.063449224131480658e-02
1.366300000000000026e+01 -2.504299999999999926e+01 6.131099999999999994e+01 2.196047000000000082e+00 -6.528451005976325383e-02
1.366699999999999982e+01 -4.639999999999999680e+00 4.652600000000000335e+01 7.808024999999999771e+00 -2.639938408659346925e-01
1.367500000000000071e+01 1.074699999999999989e+01 4.776200000000000045e+01 -2.816212999999999855e+00 1.906844428486094770e-02
1.367500000000000071e+01 1.214700000000000024e+01 4.776200000000000045e+01 -1.711100999999999983e+00 2.280355569473693084e-02
1.367800000000000082e+01 -2.242000000000000171e+01 5.870199999999999818e+01 -1.113498000000000054e+01 -3.813464032566723505e-01
1.367800000000000082e+01 -2.101999999999999957e+01 5.870199999999999818e+01 1.242172000000000054e+01 -3.810631576287245581e-01
1.367800000000000082e+01 -7.698199999999999932e+00 4.170000000000000284e+01 -7.460290999999999784e+00 -5.340669822074710360e-02
1.367900000000000027e+01 -7.369900000000000340e+00 4.240999999999999659e+01 -6.119390000000000107e+00 -5.394796307150227788e-02
1.367999999999999972e+01 -2.540099999999999980e+01 5.958500000000000085e+01 -3.795129999999999892e+00 -6.533710646548869516e-02
1.368099999999999916e+01 -1.967500000000000071e+01 6.391799999999999926e+01 8.444686000000000803e+00 -3.764207048038234471e-01
1.368099999999999916e+01 1.695200000000000173e+01 4.789300000000000068e+01 -1.034031000000000056e+01 3.159670447581285069e-02
1.368099999999999916e+01 1.716100000000000136e+01 4.715699999999999648e+01 -6.387386000000000230e+00 3.138773416583888476e-02
1.368099999999999916e+01 1.716100000000000136e+01 4.862899999999999778e+01 -1.498123999999999967e+01 3.244429051556919907e-02
1.369299999999999962e+01 2.526499999999999968e+00 7.428300000000000125e+01 8.883548999999999474e-01 6.945994997965064532e-02
1.369400000000000084e+01 3.619299999999999962e+00 4.867999999999999972e+01 3.776831000000000049e+00 -2.219120631199576060e-02
1.369400000000000084e+01 6.238999999999999879e+00 5.231900000000000261e+01 2.428510999999999953e+01 2.144135460235479379e-02
1.369699999999999918e+01 1.522600000000000087e+01 5.105799999999999983e+01 -7.109677999999999720e+00 3.265412257391663020e-02
1.369800000000000040e+01 4.515100000000000335e+00 5.057999999999999829e+01 2.142044999999999888e+01 7.393703218277860364e-04
1.370400000000000063e+01 -1.215799999999999947e+01 5.515699999999999648e+01 -4.473251000000000310e+00 -2.067408714285628446e-01
1.370500000000000007e+01 -8.368299999999999628e+00 5.372200000000000131e+01 -6.238370999999999889e+00 -6.689709191301916602e-02
1.370599999999999952e+01 7.924599999999999866e+00 4.984899999999999665e+01 2.781604000000000099e+01 1.359586413251242035e-02
1.370700000000000074e+01 3.535099999999999909e+00 3.203999999999999915e+01 -1.642868999999999957e+01 5.434019074407687999e-02
1.371000000000000085e+01 -4.031699999999999839e+00 6.738100000000000023e+01 -2.061581999999999937e+01 8.321723929085375615e-02
1.371400000000000041e+01 -2.506299999999999883e+01 5.879599999999999937e+01 -5.148582000000000214e+00 -6.851090875091783716e-02
1.371400000000000041e+01 -2.376999999999999957e+01 5.807500000000000284e+01 -3.135984000000000105e+00 -5.551785023803781222e-02
1.371499999999999986e+01 1.606500000000000128e+01 6.579699999999999704e+01 -7.315215000000000245e+00 5.339584876840125505e-02
1.372700000000000031e+01 -1.059699999999999953e+01 6.624699999999999989e+01 -4.859250000000000291e+00 -3.626163619136079097e-01
1.373000000000000043e+01 -6.440699999999999648e+00 3.835900000000000176e+01 -6.427107999999999599e+00 -6.175131663402862181e-02
1.373199999999999932e+01 1.714099999999999824e+01 4.960900000000000176e+01 -6.938773000000000479e+01 3.329372399246651598e-02
1.373399999999999999e+01 7.493000000000000327e+00 5.147899999999999920e+01 3.183409999999999940e+01 1.918237760191513624e-02
1.373399999999999999e+01 -7.623999999999999666e+00 3.917000000000000171e+01 -5.380835000000000257e+00 -5.789206761190699574e-02
1.373900000000000077e+01 -2.046999999999999886e+01 5.850300000000000011e+01 9.302595999999999421e+00 -3.810403417681669791e-01
1.374200000000000088e+01 4.884999999999999787e+00 5.154399999999999693e+01 2.403265000000000029e+01 1.197351809077721457e-02
1.375399999999999956e+01 1.359999999999999964e+01 5.063300000000000267e+01 -6.741094000000000364e+00 2.972223693579809090e-02
1.375500000000000078e+01 3.898600000000000065e+00 4.782699999999999818e+01 3.829387999999999792e+00 -2.005722670350038733e-02
1.375699999999999967e+01 6.144000000000000128e+00 5.814800000000000324e+01 -1.761232000000000042e+01 5.356532296043386987e-02
1.375699999999999967e+01 7.081999999999999851e+00 5.814800000000000324e+01 -8.353334999999999511e+00 5.110223636411269366e-02
1.375699999999999967e+01 2.200400000000000134e+01 4.009499999999999886e+01 -1.941377999999999915e+01 3.533107917965194050e-02
1.375999999999999979e+01 -1.969000000000000128e+01 6.845999999999999375e+01 -4.934739000000000431e+00 -3.755998567351425121e-01
1.376299999999999990e+01 1.264899999999999913e+01 8.138899999999999579e+01 1.172594999999999921e+01 6.163495549137524426e-02
1.376399999999999935e+01 -1.920700000000000074e+01 5.769200000000000017e+01 8.030450999999999340e+00 -5.303224287347137189e-02
1.376600000000000001e+01 1.850600000000000023e+01 7.279600000000000648e+01 -1.486035000000000039e+01 5.644848042557111534e-02
1.376900000000000013e+01 -3.895700000000000163e+00 6.884000000000000341e+01 -9.973929000000000045e+00 8.080200515506083536e-02
1.376900000000000013e+01 4.005200000000000315e+00 3.284599999999999653e+01 -8.982132000000000005e+00 5.131370696854486990e-02
1.376999999999999957e+01 2.049599999999999866e+01 4.004200000000000159e+01 -2.342047000000000168e+01 3.401961126791148288e-02
1.377299999999999969e+01 -1.512800000000000011e+01 6.951999999999999602e+01 2.091537999999999897e+00 -3.761930893989003932e-01
1.377399999999999913e+01 1.748900000000000077e+01 7.714799999999999613e+01 9.468686999999999188e+00 5.846719549970007257e-02
1.377399999999999913e+01 -1.573300000000000054e+01 5.603999999999999915e+01 -3.650361000000000189e+00 -1.837331212905838618e-01
1.377500000000000036e+01 1.915800000000000125e+01 3.914300000000000068e+01 -2.215994999999999848e+01 3.292542379264433439e-02
1.377599999999999980e+01 2.333699999999999974e+01 4.082999999999999829e+01 -1.533916999999999931e+01 3.638529309209857787e-02
1.377999999999999936e+01 9.079299999999999926e+00 6.109799999999999898e+01 -3.337651000000000323e+01 5.429741904267799957e-02
1.378200000000000003e+01 -2.521099999999999852e+01 6.515699999999999648e+01 -7.371164000000000271e+00 -9.396164089320796498e-02
1.378200000000000003e+01 3.972300000000000164e+00 4.633700000000000330e+01 -2.143218000000000067e-01 -1.542271170512605170e-02
1.378400000000000070e+01 -5.685299999999999798e+00 7.461199999999999477e+01 -3.542321999999999971e+00 -3.763562757041699625e-01
1.378999999999999915e+01 -7.377699999999999925e+00 5.382999999999999829e+01 -2.019144999999999968e+00 -5.422943753397778399e-02
1.379100000000000037e+01 9.679999999999999716e-01 7.584799999999999898e+01 -1.999180000000000135e+01 7.022123657707847466e-02
1.379100000000000037e+01 1.177100000000000035e+00 7.511199999999999477e+01 -1.490859999999999985e+01 7.036413955145846832e-02
1.379100000000000037e+01 1.947000000000000064e+00 5.699000000000000199e+01 2.620315999999999867e+00 7.163459834360688672e-02
1.379499999999999993e+01 9.578500000000000014e+00 4.865800000000000125e+01 -1.070353000000000065e+01 1.666678989883121562e-02
1.379899999999999949e+01 1.909100000000000108e+01 3.811599999999999966e+01 -1.387440999999999924e+01 3.313840375736172572e-02
1.380000000000000071e+01 -6.503499999999999837e+00 7.195499999999999829e+01 -5.000511000000000372e+00 -3.762617124497026344e-01
1.380799999999999983e+01 -1.848300000000000054e+01 6.797299999999999898e+01 -3.614128000000000007e+00 -3.758661957815635501e-01
1.380799999999999983e+01 -1.761799999999999855e+01 6.797299999999999898e+01 3.477358999999999867e+00 -3.760120950809763274e-01
1.381000000000000050e+01 -5.976300000000000168e+00 3.806799999999999784e+01 -4.977345999999999826e+00 -6.316469616348624472e-02
1.381300000000000061e+01 4.201999999999999957e+00 4.712700000000000244e+01 4.576825999999999950e-01 -1.611662055212561423e-02
1.381300000000000061e+01 -8.921599999999999753e+00 6.865999999999999659e+01 2.478772000000000020e+01 -3.762739710143290228e-01
1.381799999999999962e+01 -1.999299999999999855e+01 6.915999999999999659e+01 8.018710000000000004e-01 -3.755222176130570411e-01
1.381900000000000084e+01 1.001200000000000045e+01 3.719599999999999795e+01 -3.554034000000000137e+00 2.458700164550243344e-02
1.382000000000000028e+01 -5.009100000000000108e+00 7.784499999999999886e+01 1.065248999999999890e+00 -3.764530642557406548e-01
1.382099999999999973e+01 3.570500000000000007e+00 4.976599999999999824e+01 6.362294000000000338e+00 -1.478355932505601676e-02
1.382300000000000040e+01 -9.373100000000000875e+00 5.335999999999999943e+01 -6.779364000000000168e+00 -8.094881602152757816e-02
1.382399999999999984e+01 -1.467999999999999972e+00 6.641800000000000637e+01 2.909741000000000133e-01 8.065799920531345479e-02
1.382499999999999929e+01 3.422000000000000153e+00 5.749699999999999989e+01 -1.944989000000000079e+00 6.284500350819449688e-02
1.382600000000000051e+01 1.976399999999999935e+01 4.394200000000000017e+01 1.526985000000000037e+00 3.336188507568769307e-02
1.382600000000000051e+01 1.988200000000000145e+01 4.309499999999999886e+01 -4.474079999999999835e+00 3.336661421367766167e-02
1.382699999999999996e+01 8.217399999999999594e+00 5.880599999999999739e+01 -2.266414999999999846e+00 5.069227073073404727e-02
1.382799999999999940e+01 -1.710200000000000031e+01 6.895600000000000307e+01 1.616772000000000098e+00 -3.759983635719399420e-01
1.383300000000000018e+01 8.396000000000000796e+00 6.006499999999999773e+01 -2.702015000000000100e+01 5.341223373693639032e-02
1.383399999999999963e+01 1.850499999999999901e+01 6.904800000000000182e+01 -2.189906999999999826e+01 5.448772339015629795e-02
1.383500000000000085e+01 -1.385899999999999999e+01 6.850300000000000011e+01 1.131004000000000076e+01 -3.621127389479569803e-01
1.383799999999999919e+01 1.885800000000000054e+01 7.622899999999999920e+01 2.204384999999999906e+01 5.756507268310216002e-02
1.383999999999999986e+01 -3.175399999999999778e+00 5.448700000000000188e+01 -8.246021000000000711e+00 1.562525708991351625e-01
1.384600000000000009e+01 -1.794799999999999951e+00 5.361500000000000199e+01 -5.944651000000000352e+00 1.344833521064205395e-01
1.384699999999999953e+01 -4.205400000000000027e+00 7.868999999999999773e+01 1.791390000000000171e+01 -3.764351260947437772e-01
1.384800000000000075e+01 -7.579399999999999693e+00 7.015099999999999625e+01 9.673655000000000115e+00 -3.762291643764476001e-01
1.384900000000000020e+01 2.381899999999999906e+01 3.213799999999999812e+01 3.306885999999999992e+00 3.809537338580822052e-02
1.385299999999999976e+01 5.571199999999999486e-01 4.418999999999999773e+01 -1.703885000000000005e+01 -6.987245262517484748e-03
1.385500000000000043e+01 1.507600000000000051e+01 8.173999999999999488e+01 1.242460999999999949e+01 6.049565545330783806e-02
1.385800000000000054e+01 1.989900000000000091e+01 3.549900000000000233e+01 4.167647999999999797e+00 3.466680673811340513e-02
1.385800000000000054e+01 1.989900000000000091e+01 3.697099999999999653e+01 -2.238447999999999993e+01 3.416967396623724063e-02
1.385800000000000054e+01 2.010800000000000054e+01 3.623499999999999943e+01 -2.141670999999999836e+01 3.456670367840307401e-02
1.386100000000000065e+01 -1.347600000000000087e+01 5.494200000000000017e+01 -4.802025000000000432e+00 -2.077385013221678400e-01
1.386299999999999955e+01 2.246099999999999852e+01 3.128900000000000148e+01 6.738521999999999679e+00 3.767900300220131810e-02
1.386400000000000077e+01 -2.243299999999999983e+01 6.706799999999999784e+01 -4.481770000000000032e+00 -3.750866591103311221e-01
1.386599999999999966e+01 1.245899999999999963e+01 6.065100000000000335e+01 -5.061029000000000444e+00 4.959022014314230786e-02
1.386700000000000088e+01 -7.889999999999999680e+00 6.955200000000000671e+01 1.945093999999999923e+01 -3.762119016407725058e-01
1.387500000000000000e+01 1.664399999999999835e+01 7.915300000000000580e+01 -3.584396999999999878e+01 5.934066951517208421e-02
1.387599999999999945e+01 1.461999999999999922e+01 6.026100000000000279e+01 -2.969335000000000058e+00 4.773594436856167661e-02
1.387800000000000011e+01 -1.884199999999999875e+01 6.845999999999999375e+01 -3.092065999999999981e+00 -3.757706922167723396e-01
1.387800000000000011e+01 -7.867699999999999694e-01 7.122100000000000364e+01 -7.069112999999999758e+00 7.462801514608420617e-02
1.387899999999999956e+01 5.000600000000000378e+00 5.766100000000000136e+01 -1.209957999999999956e+01 5.575392485140169552e-02
1.388000000000000078e+01 -2.187399999999999789e+00 4.448400000000000176e+01 -3.755549999999999944e+00 1.104979680277880759e-02
1.388000000000000078e+01 8.446799999999999642e+00 3.663300000000000267e+01 -3.988970999999999822e+00 2.407917560434861062e-02
1.388400000000000034e+01 -1.089199999999999946e+01 5.345799999999999841e+01 -6.112035999999999802e+00 -2.085663357742047752e-01
1.388599999999999923e+01 1.733999999999999986e+01 4.044400000000000261e+01 1.055523999999999951e+01 3.069377760101082986e-02
1.389400000000000013e+01 1.926500000000000057e+01 3.208100000000000307e+01 -1.118622000000000005e+00 3.569548358128180748e-02
1.389499999999999957e+01 2.743500000000000050e+00 7.751600000000000534e+01 2.816073000000000093e+01 6.821791499316738616e-02
1.389499999999999957e+01 -1.309900000000000020e+01 6.624599999999999511e+01 8.021515999999999735e+01 -3.622465222750169689e-01
1.389600000000000080e+01 -1.220899999999999963e+01 5.416599999999999682e+01 -5.653329000000000271e+00 -2.115256613189025470e-01
1.389799999999999969e+01 6.278200000000000003e+00 3.497899999999999920e+01 -6.266511999999999638e-01 2.590834344949948312e-02
1.389799999999999969e+01 7.227000000000000313e+00 3.592799999999999727e+01 -1.202431999999999945e+01 2.454165033681090374e-02
1.389899999999999913e+01 -1.673300000000000054e+01 6.980599999999999739e+01 1.577463000000000060e+00 -3.759914016526746394e-01
1.389899999999999913e+01 -1.568299999999999983e+01 6.980599999999999739e+01 1.628028999999999948e+00 -3.761189561032313167e-01
1.390199999999999925e+01 -2.160099999999999909e+01 6.880800000000000693e+01 -4.099687000000000303e+00 -3.752511914829815831e-01
1.390399999999999991e+01 -4.876100000000000101e+00 3.710000000000000142e+01 6.714806000000000274e+00 8.937530626315146054e-02
1.390600000000000058e+01 3.332899999999999974e+00 7.745399999999999352e+01 1.948271000000000086e+01 6.779138841272297489e-02
1.390700000000000003e+01 1.628900000000000148e+01 4.046600000000000108e+01 -6.098209999999999908e+00 2.942794646381462556e-02
1.390799999999999947e+01 1.346000000000000085e+01 8.177299999999999613e+01 4.508596999999999966e+00 6.125657160735679257e-02
1.390799999999999947e+01 1.967599999999999838e+01 6.996399999999999864e+01 -8.907189999999999941e+00 5.450371895828731716e-02
1.390799999999999947e+01 1.967599999999999838e+01 7.090399999999999636e+01 -8.606087999999999738e+00 5.500847369870384002e-02
1.391600000000000037e+01 1.911400000000000077e+01 3.307399999999999807e+01 -5.151639000000000079e-01 3.514784876802266866e-02
1.391900000000000048e+01 1.672700000000000031e+01 5.047599999999999909e+01 -7.137439999999999429e+01 3.369774120645983168e-02
1.392699999999999960e+01 -1.544999999999999929e+00 8.019499999999999318e+01 4.058661000000000030e+01 -3.763491022340917924e-01
1.393299999999999983e+01 2.508299999999999841e+01 3.334599999999999653e+01 -2.727834000000000092e+00 3.844070786480675156e-02
1.393800000000000061e+01 2.064000000000000057e+01 3.116000000000000014e+01 -4.950565000000000104e-01 3.681877138777255032e-02
1.393999999999999950e+01 2.472100000000000009e+01 4.013100000000000023e+01 -1.794491000000000014e+01 3.739232169977255854e-02
1.394100000000000072e+01 1.087199999999999989e+01 8.144799999999999329e+01 6.157130999999999688e+01 6.255291458308540054e-02
1.394599999999999973e+01 -2.556400000000000006e+01 6.101200000000000045e+01 1.047847999999999891e+00 -7.715207190995412856e-02
1.394699999999999918e+01 -4.378700000000000259e+00 5.484499999999999886e+01 -2.663759999999999906e+01 1.600003033050121926e-01
1.394800000000000040e+01 2.147100000000000009e+01 3.118100000000000094e+01 -5.603190000000000115e-01 3.722480941395463205e-02
1.395100000000000051e+01 -1.153999999999999915e+00 3.497299999999999898e+01 -3.620662999999999965e+00 6.588513800270161258e-02
1.395100000000000051e+01 -9.448699999999999877e-01 3.423700000000000188e+01 -4.675838999999999857e+00 6.593912486115000027e-02
1.395899999999999963e+01 -3.341499999999999915e+00 6.628499999999999659e+01 -7.935632000000000019e+00 8.407384582622513813e-02
1.396000000000000085e+01 7.071100000000000385e+00 5.232800000000000296e+01 9.964065999999999690e+01 2.292141790314343799e-02
1.396199999999999974e+01 -1.011100000000000065e+01 6.696699999999999875e+01 3.921243000000000034e+00 -3.762577013993543829e-01
1.396499999999999986e+01 1.598600000000000065e+01 3.976599999999999824e+01 -1.003462999999999994e+01 2.931729099603596136e-02
1.396599999999999930e+01 -2.832500000000000018e+00 7.954999999999999716e+01 3.427579999999999849e+00 -3.763839364489330319e-01
1.396700000000000053e+01 -2.795300000000000118e+00 7.059499999999999886e+01 3.333225000000000104e+00 7.742149843904297390e-02
1.396899999999999942e+01 1.632700000000000173e+01 5.093299999999999983e+01 -2.892045999999999850e+01 3.377483922354192203e-02
1.397000000000000064e+01 5.253000000000000114e+00 8.164100000000000534e+01 1.004656999999999911e+01 6.567938496882314015e-02
1.397000000000000064e+01 -3.939999999999999947e+00 4.658400000000000318e+01 -1.372133000000000003e+01 -2.605642063573036515e-01
1.397300000000000075e+01 -2.123199999999999932e+01 6.965800000000000125e+01 2.432141000000000108e+00 -3.753270500220330930e-01
1.397300000000000075e+01 -2.018199999999999861e+01 6.965800000000000125e+01 1.318275000000000041e+01 -3.754989785565744365e-01
1.397499999999999964e+01 1.895100000000000051e+01 7.490600000000000591e+01 7.390892000000000017e+00 5.706792453922653052e-02
1.397499999999999964e+01 1.278000000000000025e+00 8.206399999999999295e+01 -8.456419000000000352e+00 -1.287399557613463086e-01
1.397499999999999964e+01 2.571000000000000174e+00 8.278499999999999659e+01 -2.603303999999999974e+01 -1.310516629382680043e-01
1.397499999999999964e+01 3.920999999999999819e+00 8.215800000000000125e+01 -1.105467999999999940e+01 6.633073875199069214e-02
1.398099999999999987e+01 -5.915000000000000036e+00 5.474600000000000222e+01 -9.087360000000000326e+00 -3.828434677961330135e-02
1.398099999999999987e+01 -2.171999999999999886e+01 5.875999999999999801e+01 -1.580025999999999931e+00 -3.810609928274736324e-01
1.398199999999999932e+01 1.695299999999999940e+01 6.680899999999999750e+01 -1.423451000000000022e+01 5.370471077653382608e-02
1.399099999999999966e+01 6.916999999999999815e+00 8.246399999999999864e+01 1.959459000000000017e+01 6.465161625350171470e-02
1.399099999999999966e+01 7.875000000000000000e+00 8.246399999999999864e+01 3.775621999999999900e+01 6.413772798054387381e-02
1.399399999999999977e+01 -8.092000000000000526e+00 4.503499999999999659e+01 -6.612819000000000003e+00 -4.264675800052518395e-02
1.399399999999999977e+01 -7.865000000000000213e+00 4.423599999999999710e+01 -1.000125000000000064e+01 -4.809621112602104759e-02
1.399399999999999977e+01 -7.865000000000000213e+00 4.583400000000000318e+01 -2.292236000000000118e+01 -4.466741227609875853e-02
1.399399999999999977e+01 -7.655899999999999928e+00 4.350000000000000000e+01 -4.696279999999999788e+00 -5.190459496457000554e-02
1.399399999999999977e+01 -6.572000000000000064e+00 4.655499999999999972e+01 -2.603371999999999886e+01 -2.628469466362494678e-01
1.400500000000000078e+01 -2.430499999999999972e+01 6.592300000000000182e+01 -6.334108999999999767e+00 -9.576733827197704552e-02
1.401600000000000001e+01 1.740499999999999936e+00 7.706600000000000250e+01 -7.392544000000000004e+00 6.910502818098661348e-02
1.401699999999999946e+01 -1.311200000000000010e+01 5.424099999999999966e+01 -5.550455000000000361e+00 -2.131757237989499176e-01
1.401699999999999946e+01 2.016000000000000014e+00 4.442199999999999704e+01 -5.055803000000000047e+00 -1.058850343931430800e-02
1.402599999999999980e+01 -1.682000000000000028e+01 5.564200000000000301e+01 -3.759088999999999903e+00 -2.120101487484019748e-02
1.402599999999999980e+01 -6.385399999999999965e-01 8.024699999999999989e+01 2.429643000000000086e+01 -3.763034005630802037e-01
1.402699999999999925e+01 -1.925700000000000145e+01 6.915999999999999659e+01 8.544575000000000031e+00 -3.756763272325217562e-01
1.402899999999999991e+01 -2.302899999999999991e+01 6.643699999999999761e+01 6.188373999999999597e+00 -3.749957544698164225e-01
1.402899999999999991e+01 1.336800000000000033e+01 3.712100000000000222e+01 -4.700236000000000303e+00 2.806521441439922132e-02
1.402999999999999936e+01 5.464000000000000412e+00 5.225399999999999778e+01 5.872044000000000352e+01 1.981233325961675659e-02
1.403100000000000058e+01 -1.129700000000000060e+01 6.618899999999999295e+01 4.964440999999999882e+00 -3.625283552125169728e-01
1.403800000000000026e+01 1.616199999999999903e+01 6.197500000000000142e+01 -1.050636000000000081e+01 4.938636566741978762e-02
1.404299999999999926e+01 4.400100000000000122e+00 7.549599999999999511e+01 9.311037999999999926e+00 6.735855273797294873e-02
1.404299999999999926e+01 4.400100000000000122e+00 7.689600000000000080e+01 2.496210999999999913e+01 6.707998320006089421e-02
1.404400000000000048e+01 -5.020999999999999769e-02 5.368800000000000239e+01 6.251991000000000076e-01 8.378823706776149238e-02
1.404599999999999937e+01 1.601500000000000057e+01 6.103099999999999881e+01 7.372851999999999961e+00 4.827171233100518294e-02
1.404700000000000060e+01 -2.290500000000000203e+00 7.109799999999999898e+01 4.913925000000000098e-01 7.636591976887130429e-02
1.404700000000000060e+01 -9.779899999999999594e+00 6.780500000000000682e+01 3.982098000000000138e+00 -3.762677354667034457e-01
1.405100000000000016e+01 -2.195100000000000051e+01 6.784900000000000375e+01 -5.093112999999999779e+00 -3.752210439694758093e-01
1.405599999999999916e+01 -1.794399999999999906e+01 6.881499999999999773e+01 8.962296999999999625e-02 -3.759127323515534802e-01
1.406499999999999950e+01 -1.805000000000000071e+01 5.646500000000000341e+01 -2.466542000000000012e+00 -9.799921084414699168e-02
1.406499999999999950e+01 -3.419299999999999784e+00 3.682000000000000028e+01 -1.503937000000000079e+00 7.804247221902735343e-02
1.406600000000000072e+01 -1.979700000000000060e+01 5.213600000000000279e+01 -2.149627999999999872e+00 -1.820718426667491951e-01
1.406700000000000017e+01 2.007400000000000162e+01 4.075999999999999801e+01 -8.930948000000000775e+00 3.353415799707458456e-02
1.407099999999999973e+01 -2.577899999999999991e+01 6.192399999999999949e+01 -1.709616000000000025e+00 -8.479385889651382124e-02
1.407099999999999973e+01 -2.557000000000000028e+01 6.265999999999999659e+01 -3.654079999999999995e+00 -8.595462058485101031e-02
1.407099999999999973e+01 -2.057900000000000063e+00 3.602199999999999847e+01 -6.675908999999999871e-01 6.942247956217330318e-02
1.407199999999999918e+01 6.578699999999999548e-01 8.125799999999999557e+01 3.830834999999999990e+00 -1.279138374317243809e-01
1.407199999999999918e+01 -5.863400000000000389e+00 7.354099999999999682e+01 -5.120205999999999591e+00 -3.762742337645290092e-01
1.407199999999999918e+01 -2.568100000000000094e+01 6.439700000000000557e+01 -5.361227000000000409e+00 -1.020858136150374074e-01
1.407300000000000040e+01 -2.561199999999999832e+01 5.992600000000000193e+01 -4.054432000000000258e+00 -8.653546879731198460e-02
1.407600000000000051e+01 8.376699999999999591e+00 4.906099999999999994e+01 1.315686000000000000e+01 1.312816718807166896e-02
1.407900000000000063e+01 2.006899999999999906e+01 4.171200000000000330e+01 -1.958745000000000047e+01 3.348351901857634511e-02
1.408000000000000007e+01 -1.766400000000000148e+01 6.963299999999999557e+01 -4.588786000000000254e-01 -3.758971645894725877e-01
1.408799999999999919e+01 5.113000000000000433e+00 3.367199999999999704e+01 8.285014000000000323e+00 4.644070120916967553e-02
1.408900000000000041e+01 -3.539600000000000080e+00 6.707699999999999818e+01 -1.961090000000000089e+01 8.294295585165054052e-02
1.408999999999999986e+01 1.500900000000000034e+01 3.715800000000000125e+01 -1.058322000000000074e+01 2.968423631661195120e-02
1.409500000000000064e+01 -2.234700000000000131e+00 6.645300000000000296e+01 2.754636999999999780e+00 8.189901513126347787e-02
1.409600000000000009e+01 3.915000000000000036e+00 5.002000000000000313e+01 1.518727999999999945e+01 -8.273867911342071974e-03
1.409800000000000075e+01 1.605600000000000094e+01 8.121899999999999409e+01 6.771485000000000198e+00 5.996719776882723091e-02
1.410100000000000087e+01 1.807199999999999918e+01 6.834799999999999898e+01 -1.735087000000000046e+01 5.422636097183301113e-02
1.410100000000000087e+01 4.703500000000000014e+00 7.619599999999999795e+01 1.335615999999999914e+01 6.696018226354058522e-02
1.410100000000000087e+01 -1.071900000000000075e+00 3.342999999999999972e+01 -5.543427999999999578e+00 6.742752793651932142e-02
1.410299999999999976e+01 2.120700000000000074e+01 4.000200000000000244e+01 -3.749703000000000230e+01 3.464232122740629888e-02
1.410500000000000043e+01 2.257700000000000173e+01 4.076700000000000301e+01 -2.316811999999999827e+01 3.576332101382079937e-02
1.410500000000000043e+01 2.409700000000000131e+01 4.076700000000000301e+01 -1.826798000000000144e+01 3.694472875603989348e-02
1.410800000000000054e+01 1.025600000000000023e+01 4.815800000000000125e+01 4.869991000000000181e-01 1.809197079694110227e-02
1.410800000000000054e+01 1.144699999999999918e+01 4.749399999999999977e+01 7.641257999999999662e+00 2.074982903109214016e-02
1.410800000000000054e+01 1.263799999999999990e+01 4.815800000000000125e+01 -8.861179999999999168e+00 2.435219348711167159e-02
1.410800000000000054e+01 1.284699999999999953e+01 4.889399999999999835e+01 -2.246819999999999951e+01 2.570652881287115860e-02
1.410999999999999943e+01 2.597800000000000153e+01 3.933100000000000307e+01 -4.546359000000000350e+01 3.822639741508334493e-02
1.411599999999999966e+01 8.804999999999999716e+00 4.870900000000000318e+01 4.163547000000000331e+00 1.401875309283630300e-02
1.411700000000000088e+01 1.539000000000000057e+01 6.445199999999999818e+01 -1.304072999999999993e+01 5.249705611263003752e-02
1.411700000000000088e+01 1.559900000000000020e+01 6.518800000000000239e+01 -1.300112000000000023e+01 5.308343911144432908e-02
1.411800000000000033e+01 -2.761600000000000055e+00 4.524199999999999733e+01 -9.390841999999999246e+00 1.668715449601572073e-02
1.411800000000000033e+01 -2.761600000000000055e+00 4.610699999999999932e+01 -1.002537000000000056e+01 1.864589731589425675e-02
1.412299999999999933e+01 7.926999999999999602e+00 6.082399999999999807e+01 -1.862022999999999939e+01 5.578239435449319078e-02
1.412899999999999956e+01 9.434699999999999420e+00 8.191200000000000614e+01 9.745179000000000258e+01 6.331446227612910760e-02
1.413000000000000078e+01 2.010099999999999942e-01 3.076699999999999946e+01 -5.991831000000000351e+00 6.568359122095643321e-02
1.413000000000000078e+01 1.493999999999999995e+00 3.004599999999999937e+01 -7.183450999999999809e+00 6.279925669085267836e-02
1.413000000000000078e+01 2.786999999999999922e+00 3.076699999999999946e+01 -1.565414999999999957e+01 5.841045945406621309e-02
1.414000000000000057e+01 -1.491399999999999970e+01 5.553199999999999648e+01 -3.838579000000000185e+00 -1.968866491645569761e-01
1.414300000000000068e+01 -6.168300000000000338e+00 7.293600000000000705e+01 -5.457390000000000185e+00 -3.762518934316171348e-01
1.414499999999999957e+01 -1.841000000000000014e+01 6.915999999999999659e+01 1.957745000000000068e+00 -3.758266530574121411e-01
1.414700000000000024e+01 -2.293499999999999872e+01 5.824399999999999977e+01 -9.160213999999999857e+00 -6.894802595980317750e-02
1.414700000000000024e+01 -8.833600000000000563e+00 5.320400000000000063e+01 -6.828148999999999802e+00 -7.862237907479811827e-02
1.416000000000000014e+01 -1.438400000000000034e+01 6.935299999999999443e+01 1.888567000000000107e+01 -3.763164047469918505e-01
1.416000000000000014e+01 -5.112000000000000099e+00 4.620600000000000307e+01 -1.913919999999999888e+01 -2.665113115471210992e-01
1.416099999999999959e+01 1.823300000000000054e+01 7.698099999999999454e+01 1.211752000000000073e+01 5.805214703130497089e-02
1.416200000000000081e+01 -1.353200000000000003e+01 6.694599999999999795e+01 6.543272000000000332e+01 -3.621725532115889767e-01
1.416200000000000081e+01 -6.931600000000000428e+00 3.875600000000000023e+01 -5.533659000000000106e+00 -6.124812077566006707e-02
1.416399999999999970e+01 3.125199999999999978e+00 3.155600000000000094e+01 -3.681484999999999985e+01 5.614495441788366209e-02
1.416499999999999915e+01 1.958899999999999864e+01 3.738400000000000034e+01 -8.314135000000000275e+00 3.377496671294820396e-02
1.416600000000000037e+01 -3.460999999999999854e+00 6.985299999999999443e+01 6.018551000000000428e+00 7.890818310231971500e-02
1.416999999999999993e+01 2.950400000000000134e+00 4.498100000000000165e+01 -3.391383999999999954e+00 -1.252311374814341939e-02
1.416999999999999993e+01 1.936799999999999855e+01 3.464000000000000057e+01 -2.373835000000000139e+00 3.461331301101570890e-02
1.417099999999999937e+01 1.206000000000000050e+01 3.738199999999999790e+01 -1.543735000000000079e+00 2.645045512618493522e-02
1.417200000000000060e+01 -2.117000000000000171e+01 5.877000000000000313e+01 1.463330999999999982e+01 -3.808392315503710823e-01
1.417200000000000060e+01 -1.997899999999999920e+01 5.810600000000000165e+01 3.751867000000000019e+01 -3.810379469144449249e-01
1.417200000000000060e+01 -9.595900000000000540e-01 3.257399999999999807e+01 -7.473906999999999634e+00 6.783192563051794466e-02
1.417500000000000071e+01 1.912699999999999889e+01 3.385199999999999676e+01 -2.823576000000000086e+00 3.479211622038069773e-02
1.417800000000000082e+01 1.202700000000000102e+00 5.682300000000000040e+01 -1.854252999999999929e+01 7.747155577600242649e-02
1.417900000000000027e+01 9.303800000000000736e+00 6.155599999999999739e+01 -1.160009999999999941e+01 5.465466918983602485e-02
1.417999999999999972e+01 2.633999999999999986e+01 3.470100000000000051e+01 -1.956748999999999938e+01 3.884117406564037422e-02
1.417999999999999972e+01 2.654899999999999949e+01 3.543699999999999761e+01 -1.576997000000000071e+01 3.884945545524366717e-02
1.418099999999999916e+01 8.230399999999999494e+00 6.152400000000000091e+01 -7.897644999999999804e-01 5.643085977957966459e-02
1.418200000000000038e+01 1.679799999999999827e+01 7.855400000000000205e+01 -2.620972000000000079e+00 5.912001654247042021e-02
1.418200000000000038e+01 1.700700000000000145e+01 7.781799999999999784e+01 4.332527999999999935e+00 5.884617108432044219e-02
1.418599999999999994e+01 -2.458299999999999841e+01 5.826200000000000045e+01 -5.343818999999999875e+00 -9.151265997609567271e-02
1.418599999999999994e+01 4.286100000000000243e+00 5.751899999999999835e+01 -4.320546000000000220e+00 5.817101110497700095e-02
1.418999999999999950e+01 1.985900000000000176e+01 4.273400000000000176e+01 -1.437604999999999933e+01 3.329370700934692479e-02
1.418999999999999950e+01 5.443999999999999950e+00 5.788100000000000023e+01 -9.125232000000000454e+00 5.475939884559986870e-02
1.419400000000000084e+01 -2.571399999999999864e+01 6.359499999999999886e+01 -5.094527000000000250e+00 -8.945838045338282141e-02
1.419800000000000040e+01 3.138500000000000068e+00 3.247299999999999898e+01 -3.496943000000000268e+01 5.422948570334747836e-02
1.419800000000000040e+01 -1.239899999999999913e+01 6.618800000000000239e+01 2.046160000000000068e+01 -3.623709606179995601e-01
1.419800000000000040e+01 1.920599999999999952e+01 6.920399999999999352e+01 -1.090504999999999924e+01 5.424165244615669623e-02
1.419800000000000040e+01 1.920599999999999952e+01 7.166400000000000148e+01 -3.965652000000000044e+01 5.557334073874832525e-02
1.420100000000000051e+01 -2.592000000000000082e+00 5.380199999999999960e+01 -6.733073000000000086e+00 1.516454434669566587e-01
1.420400000000000063e+01 -8.384000000000000341e+00 4.039999999999999858e+01 -1.282268999999999970e+01 -5.519353044292505533e-02
1.420400000000000063e+01 -8.157000000000000028e+00 3.960099999999999909e+01 -5.493752999999999886e+00 -5.711722686840681185e-02
1.420400000000000063e+01 -8.157000000000000028e+00 4.119899999999999807e+01 -6.462665999999999578e+00 -5.464879894533645338e-02
1.420599999999999952e+01 -2.908700000000000063e+00 4.660399999999999920e+01 -7.445763000000000353e+00 2.410626421702725952e-02
1.420800000000000018e+01 -7.577300000000000146e+00 4.299900000000000233e+01 -4.434126000000000012e+00 -5.501885793135825875e-02
1.421199999999999974e+01 1.388599999999999923e+01 6.023899999999999721e+01 -3.812660999999999856e+00 4.798922200178117048e-02
1.421299999999999919e+01 -1.345900000000000096e+00 4.436800000000000210e+01 -1.526648999999999923e+01 3.561867641016677917e-03
1.421400000000000041e+01 1.568699999999999939e+01 8.166800000000000637e+01 3.291757000000000044e+00 6.019039500611476218e-02
1.421799999999999997e+01 1.690700000000000003e+01 3.984799999999999898e+01 4.963966000000000212e-01 3.035748164472468202e-02
1.422199999999999953e+01 -6.491500000000000270e+00 5.402600000000000335e+01 8.513427000000000078e+00 -4.521851229324246046e-02
1.422300000000000075e+01 1.674500000000000099e+01 4.917600000000000193e+01 -3.671697000000000344e+01 3.236307433792097454e-02
1.422300000000000075e+01 1.674500000000000099e+01 5.004200000000000159e+01 -4.223884999999999934e+01 3.323014963397480370e-02
1.422300000000000075e+01 1.667999999999999927e+00 7.471500000000000341e+01 -7.234613999999999656e+00 7.002932192380456611e-02
1.422300000000000075e+01 3.068000000000000060e+00 7.471500000000000341e+01 3.770395999999999859e+00 6.873312052573622710e-02
1.422400000000000020e+01 2.646999999999999797e+00 5.725699999999999790e+01 -3.233843999999999941e+00 6.668648043607194875e-02
1.423600000000000065e+01 -1.889499999999999957e+01 7.033299999999999841e+01 -3.293827999999999978e+00 -3.757071149262916632e-01
1.423900000000000077e+01 -1.848699999999999832e+01 5.708700000000000330e+01 -1.436282999999999976e+00 -8.267813044719715676e-02
1.424000000000000021e+01 2.597700000000000031e+01 3.337599999999999767e+01 -3.138456999999999830e+00 3.887999750091723772e-02
1.424200000000000088e+01 2.669599999999999751e-01 6.995099999999999341e+01 -7.865154999999999674e+00 7.416326869803994970e-02
1.424200000000000088e+01 4.760499999999999732e-01 6.921500000000000341e+01 -9.483050999999999675e+00 7.438854234357712703e-02
1.424499999999999922e+01 2.457900000000000063e+01 3.253099999999999881e+01 -1.710811000000000082e+00 3.836058921703815183e-02
1.424600000000000044e+01 2.296499999999999986e+01 3.198900000000000077e+01 8.323498000000000729e+00 3.769149539865077753e-02
1.425099999999999945e+01 1.292500000000000071e+01 8.172100000000000364e+01 6.978991999999999862e+00 6.149266378067599209e-02
1.425200000000000067e+01 1.164199999999999946e+01 6.070300000000000296e+01 -6.468716999999999828e+00 5.030688300992931794e-02
1.426200000000000045e+01 1.795799999999999841e+01 3.992999999999999972e+01 1.603497000000000128e+01 3.149730562967033992e-02
1.426200000000000045e+01 -1.766300000000000026e+01 5.563799999999999812e+01 -3.123062000000000005e+00 -2.249463515361310034e-02
1.426500000000000057e+01 -7.680000000000000160e-01 6.680400000000000205e+01 -6.570795999999999637e+00 7.867875733065946009e-02
1.427100000000000080e+01 -7.902999999999999581e+00 5.323400000000000176e+01 -4.755568000000000239e+00 -6.814415185162198130e-02
1.427200000000000024e+01 1.891799999999999926e+01 4.533599999999999852e+01 -6.244392999999999638e+00 3.274212697941310951e-02
1.427299999999999969e+01 3.575699999999999878e+00 4.677000000000000313e+01 -2.091537999999999897e+00 -1.902452129196317843e-02
1.427399999999999913e+01 4.552999999999999936e+00 8.169899999999999807e+01 3.316720000000000224e-01 6.604200071398766414e-02
1.427800000000000047e+01 9.051899999999999835e+00 3.715200000000000102e+01 -6.184727999999999781e+00 2.373295850266065807e-02
1.428299999999999947e+01 -6.710500000000000353e-01 4.456300000000000239e+01 -1.212879000000000040e+01 -2.721029486991898873e-03
1.428299999999999947e+01 -2.174699999999999989e+01 6.983599999999999852e+01 -2.196314999999999795e+00 -3.752924809420222774e-01
1.428400000000000070e+01 -5.214999999999999858e+00 5.480400000000000205e+01 -1.839876999999999896e+01 -3.478777550194108587e-02
1.428500000000000014e+01 2.658800000000000097e+01 3.653600000000000136e+01 -2.697035999999999945e+01 3.874391853867584917e-02
1.428599999999999959e+01 -1.428800000000000070e-01 4.445700000000000074e+01 -1.232478000000000051e+01 -5.390735656391753249e-03
1.428599999999999959e+01 1.779400000000000048e+01 4.668999999999999773e+01 -1.174058999999999919e+01 3.192888724699228381e-02
1.428999999999999915e+01 3.137700000000000156e+00 4.920499999999999829e+01 1.960250999999999966e+00 -2.218079111854285440e-02
1.429199999999999982e+01 -1.013199999999999967e+01 5.307000000000000028e+01 -7.309338000000000335e+00 -2.048113968110311378e-01
1.429299999999999926e+01 1.303400000000000070e+01 5.048299999999999699e+01 -4.603578999999999866e+00 2.852312734575710579e-02
1.429400000000000048e+01 -5.447499999999999787e+00 7.734900000000000375e+01 3.044012000000000029e+01 -3.764153420666898620e-01
1.429400000000000048e+01 -4.488999999999999879e+00 7.830700000000000216e+01 1.137040000000000006e+01 -3.763972327451960975e-01
1.429400000000000048e+01 -5.801100000000000145e-01 3.173799999999999955e+01 -5.634280999999999651e+00 6.717810608345184398e-02
1.429400000000000048e+01 -1.527700000000000058e+00 7.120000000000000284e+01 -6.781130000000000102e+00 7.539040051849855983e-02
1.429899999999999949e+01 -1.168800000000000061e+01 5.363799999999999812e+01 -6.255447000000000202e+00 -2.125596274246622508e-01
1.430000000000000071e+01 -8.380900000000000460e+00 6.915600000000000591e+01 1.507876000000000083e+01 -3.761587583523656741e-01
1.430199999999999960e+01 3.765600000000000058e+00 7.696299999999999386e+01 2.500307000000000102e+01 6.753454079025897339e-02
1.430400000000000027e+01 2.200700000000000145e+01 3.202400000000000091e+01 7.402515000000000178e+00 3.718302463124990853e-02
1.430400000000000027e+01 2.396699999999999942e-01 8.036700000000000443e+01 2.090615999999999985e+01 -1.276566434035209252e-01
1.431000000000000050e+01 1.781899999999999906e+01 6.776300000000000523e+01 -1.022348999999999997e+01 5.393588941049555496e-02
1.431600000000000072e+01 1.558300000000000018e+01 3.800699999999999790e+01 -4.237733999999999668e+01 2.973437701820133561e-02
1.431600000000000072e+01 1.579199999999999982e+01 3.874300000000000210e+01 -2.968647999999999954e+01 2.956023378490942738e-02
1.432000000000000028e+01 -2.069099999999999895e+01 5.213600000000000279e+01 -2.819624000000000130e+00 -2.050865910627888145e-01
1.432000000000000028e+01 -1.890299999999999869e+01 5.213600000000000279e+01 5.203069999999999640e-01 -7.407666295818514379e-02
1.432099999999999973e+01 1.316000000000000059e+00 4.436399999999999721e+01 -1.826990999999999943e+01 -9.492774963354393483e-03
1.432199999999999918e+01 1.378900000000000126e-01 6.752100000000000080e+01 -7.875892999999999589e+00 7.626423295304603223e-02
