2.112200000000000077e+00 9.278200000000000003e+00 1.076500000000000057e+01 -1.645902999999999849e+01 -2.242836211962618564e-01
2.116499999999999826e+00 7.676300000000000345e+00 4.076500000000000057e+01 -5.740502000000000216e+00 1.353790794882398230e-01
2.119899999999999896e+00 -4.789500000000000313e+00 2.075000000000000000e+01 8.623678000000000177e-01 4.951686763029414240e-02
2.119899999999999896e+00 -3.924199999999999910e+00 2.075000000000000000e+01 1.228882000000000030e+00 4.071622408037493812e-02
2.124299999999999855e+00 8.435999999999999943e+00 4.568200000000000216e+01 -1.754786000000000001e+01 1.337685906359827315e-01
2.125700000000000145e+00 1.576999999999999957e+01 3.016499999999999915e+01 -2.895310999999999968e+00 1.291322293123481624e-01
2.125700000000000145e+00 1.576999999999999957e+01 3.186499999999999844e+01 -1.793944999999999901e+00 1.295598744860359253e-01
2.129700000000000149e+00 1.422199999999999953e+01 1.283000000000000007e+01 -5.887845999999999691e+00 -2.205557039363586491e-01
2.129999999999999893e+00 -3.438299999999999912e+00 1.780199999999999960e+01 -4.463455000000000061e-01 -9.792207895146034374e-03
2.129999999999999893e+00 -3.438299999999999912e+00 1.885200000000000031e+01 1.789322999999999997e+00 1.400273591465930022e-02
2.130999999999999783e+00 -6.079999999999999849e-01 6.080000000000000071e+00 -3.501482000000000205e+00 -1.386227405542039548e-01
2.138999999999999790e+00 1.042099999999999937e+01 2.791400000000000148e+01 -3.142001000000000044e+00 1.341527236742608153e-01
2.141799999999999926e+00 1.795599999999999952e+01 1.713299999999999912e+01 3.570073000000000008e+01 4.264576782364128127e-02
2.151499999999999968e+00 -2.246700000000000141e+00 3.628199999999999648e+01 -4.499392000000000280e+00 1.477865412952149293e-01
2.154100000000000126e+00 -3.529599999999999849e+00 1.988400000000000034e+01 1.933634000000000075e+00 3.021882250460705688e-02
2.157900000000000151e+00 1.427899999999999991e+01 1.126299999999999990e+01 1.232144000000000084e+01 -2.186594000511647429e-01
2.160899999999999821e+00 1.256099999999999994e+01 3.752600000000000335e+01 -2.000827000000000133e+00 1.329566980147371402e-01
2.165999999999999925e+00 2.045100000000000051e+01 1.468599999999999994e+01 -1.680236999999999981e+01 -9.492834824467533128e-02
2.174799999999999844e+00 7.372899999999999565e+00 4.146500000000000341e+01 -1.148396999999999935e+01 1.351742978730033629e-01
2.179699999999999971e+00 1.016799999999999926e+01 4.122099999999999653e+01 -7.699266999999999861e+00 1.339885544475743206e-01
2.179699999999999971e+00 1.016799999999999926e+01 4.262100000000000222e+01 -7.034004000000000367e+00 1.336671759732487585e-01
2.181299999999999795e+00 6.849800000000000111e+00 5.234099999999999753e+00 -3.079273999999999845e+00 -1.943234053786583593e-01
2.188099999999999934e+00 -2.204699999999999882e+00 4.473700000000000188e+01 -7.733337999999999823e+00 1.388171185588977230e-01
2.188499999999999890e+00 -6.557500000000000107e+00 3.520300000000000296e+01 -9.666261000000000436e+00 1.750102620614028825e-03
2.192400000000000126e+00 1.393800000000000061e+01 3.929299999999999926e+01 -1.488317999999999941e+01 1.322629907397794291e-01
2.194799999999999862e+00 1.845100000000000051e+01 7.164200000000000124e+00 -1.871854000000000084e+01 -1.921989074122787966e-01
2.194999999999999840e+00 -7.501699999999999591e+00 3.267799999999999727e+01 -7.057203000000000337e+00 6.009642932983453451e-03
2.200000000000000178e+00 1.379100000000000037e+01 3.834899999999999665e+01 -8.275579999999999714e+00 1.321695301975847614e-01
2.202999999999999847e+00 -7.278999999999999915e+00 2.854400000000000048e+01 1.301817999999999920e+01 -1.474728338795898153e-01
2.202999999999999847e+00 -7.025100000000000122e+00 2.764999999999999858e+01 1.921836000000000100e+00 -1.467167993544611915e-01
2.202999999999999847e+00 -7.025100000000000122e+00 2.943799999999999883e+01 -2.670714999999999895e-02 -1.476745371081453206e-01
2.203100000000000058e+00 8.963999999999999746e-01 1.171000000000000085e+01 -5.065440999999999860e+00 -5.161334405792654401e-02
2.213099999999999845e+00 1.407099999999999973e+01 3.300500000000000256e+01 2.625375999999999976e+01 1.308236798638421627e-01
2.215399999999999814e+00 8.652499999999999858e+00 3.505199999999999960e+01 -5.108571000000000417e+00 1.365868919863126307e-01
2.218199999999999950e+00 -3.052099999999999813e+00 3.526100000000000279e+01 -2.501038000000000139e+01 1.174680538196629185e-03
2.232000000000000206e+00 -7.611699999999999910e+00 3.363000000000000256e+01 -1.107862000000000080e+01 4.087434722905944340e-03
2.237999999999999989e+00 1.047100000000000009e+01 4.192099999999999937e+01 -6.795228999999999964e+00 1.336117626867295016e-01
2.238199999999999967e+00 4.488800000000000012e-01 4.434799999999999898e+01 1.951933999999999969e+01 1.375112158091485182e-01
2.240000000000000213e+00 2.312099999999999866e+01 8.834699999999999775e+00 8.813572999999999880e+00 -2.761654403856677042e-01
2.241999999999999993e+00 -7.937000000000000277e+00 2.178399999999999892e+01 -1.520971999999999991e+00 -1.478753436769749408e-01
2.241999999999999993e+00 -7.705499999999999794e+00 2.096900000000000119e+01 -2.296139000000000152e+00 -1.483125944415878694e-01
2.241999999999999993e+00 -6.386999999999999567e+00 2.023400000000000176e+01 -4.828941999999999957e-02 -1.429402059416778059e-01
2.243199999999999861e+00 9.743600000000000705e+00 1.155799999999999983e+01 -2.790382999999999925e+01 -2.249916871291615661e-01
2.245000000000000107e+00 2.102100000000000080e+00 4.397599999999999909e+01 -1.549812999999999885e-01 1.367921279270127854e-01
2.252200000000000202e+00 1.549600000000000044e+01 1.333000000000000007e+01 -7.142242000000000424e+00 6.684878235788531409e-02
2.252499999999999947e+00 5.200999999999999623e+00 3.205799999999999983e+01 1.160420000000000051e+01 1.431649613143485544e-01
2.253000000000000114e+00 -6.630000000000000338e-01 4.463700000000000045e+01 5.656710000000000349e+01 1.379360194754644386e-01
2.253299999999999859e+00 8.506000000000000227e+00 2.532000000000000028e+01 -3.595776000000000039e+01 1.506498644879442628e-01
2.261499999999999844e+00 9.323499999999999233e+00 2.831899999999999906e+01 -6.191429000000000293e+00 1.356315330097553340e-01
2.266599999999999948e+00 1.112599999999999945e+01 4.285000000000000142e+01 -9.774594999999999700e+00 1.331623859315595737e-01
2.271799999999999820e+00 1.270100000000000051e+01 3.372599999999999909e+01 2.066843000000000075e+01 1.319735034525199857e-01
2.272600000000000176e+00 1.246299999999999919e+01 2.763800000000000168e+01 -4.499381999999999771e+00 1.310010519061548528e-01
2.277699999999999836e+00 1.306700000000000017e+01 4.198700000000000188e+01 -1.102044000000000068e+02 1.326983639383365055e-01
2.282000000000000028e+00 1.709400000000000119e+01 2.080600000000000094e+01 1.585019999999999918e+01 3.934910177144966825e-01
2.287799999999999834e+00 2.061899999999999977e+01 1.416699999999999982e+01 8.213117999999999697e+00 -9.436257180824497715e-02
2.290399999999999991e+00 9.529899999999999594e+00 2.449299999999999855e+01 -1.895529000000000153e+01 1.478552055187079828e-01
2.290999999999999925e+00 7.071199999999999708e-01 9.363699999999999690e+00 -4.894231999999999694e+00 -9.552466181335281248e-02
2.295999999999999819e+00 -3.999600000000000044e+00 4.511500000000000199e+01 -1.183033999999999963e+01 1.393585878961609292e-01
2.298500000000000210e+00 1.799899999999999878e+01 1.043999999999999950e+01 5.663847999999999772e+00 -9.005138602140512483e-02
2.298500000000000210e+00 1.799899999999999878e+01 1.130599999999999916e+01 4.196390000000000065e+00 -9.128668932858657881e-02
2.318599999999999994e+00 5.173099999999999810e+00 4.304500000000000171e+01 -1.758305999999999969e+01 1.354549448723429694e-01
2.319999999999999840e+00 2.166000000000000014e+01 1.301800000000000068e+01 -8.837004000000000303e+00 -2.770578434069882467e-01
2.323900000000000077e+00 8.402900000000000702e+00 3.416499999999999915e+01 -1.397813999999999979e+01 1.367255766256733340e-01
2.324899999999999967e+00 1.082199999999999918e+01 4.354999999999999716e+01 -3.562272000000000105e+01 1.330560076433487393e-01
2.328899999999999970e+00 1.028400000000000009e-01 3.584100000000000108e+01 9.325735999999999137e+00 1.452271133143072934e-01
2.330900000000000194e+00 1.534600000000000009e+01 2.787600000000000122e+01 -2.174624000000000024e+01 1.283863837271531916e-01
2.331999999999999851e+00 -1.386299999999999955e+01 4.513499999999999801e+01 -2.611537000000000219e+00 -1.076983811761126619e-01
2.338799999999999990e+00 1.546599999999999930e+01 2.946000000000000085e+01 -2.463481999999999950e+00 1.286967795869773390e-01
2.342799999999999994e+00 1.157900000000000063e+01 3.267499999999999716e+01 1.311084999999999923e+01 1.327067468435182696e-01
2.342900000000000205e+00 6.749600000000000044e-01 3.375200000000000244e+01 -2.206484000000000112e+00 1.480001620964646325e-01
2.347100000000000186e+00 1.100999999999999979e+01 1.257099999999999973e+01 -1.116000000000000014e+01 -2.243944978741612695e-01
2.347999999999999865e+00 -7.275999999999999801e+00 4.443699999999999761e+01 -7.847584000000000337e+00 1.414085612765043076e-01
2.351100000000000190e+00 1.836700000000000088e+01 1.787000000000000099e+01 1.671631999999999962e+01 4.068615032929374237e-02
2.354900000000000215e+00 2.349099999999999966e+01 8.012000000000000455e+00 3.227085999999999899e+00 -2.761371718278678999e-01
2.355799999999999894e+00 -6.647800000000000153e+00 3.073300000000000054e+01 -2.357768999999999782e+00 1.028084668768714308e-02
2.357000000000000206e+00 -8.048999999999999488e+00 2.401099999999999923e+01 -2.855811999999999795e+00 -1.465007259139565754e-01
2.357000000000000206e+00 -7.822000000000000064e+00 2.480999999999999872e+01 -1.059501000000000026e+01 -1.461326933975109488e-01
2.357000000000000206e+00 -6.873199999999999754e+00 2.575900000000000034e+01 -1.424619000000000035e+01 -1.449121734129690808e-01
2.357000000000000206e+00 -6.664100000000000357e+00 2.649500000000000099e+01 -4.032882999999999996e+00 -1.451722509711583509e-01
2.357000000000000206e+00 1.373300000000000054e+01 1.041300000000000026e+01 -3.556620000000000115e+00 -2.180899700928597973e-01
2.361499999999999932e+00 -3.063800000000000079e+00 1.693700000000000117e+01 -2.311678000000000122e+00 -3.018828271848988248e-02
2.362000000000000099e+00 -8.780000000000000027e-01 7.548000000000000043e+00 -8.381068999999999880e-01 -5.952550438214380263e-02
2.362000000000000099e+00 -6.241100000000000536e-01 8.441700000000000870e+00 -1.810070000000000068e+00 -7.300726904560966846e-02
2.365699999999999914e+00 1.543800000000000061e+01 2.069800000000000040e+01 1.389663000000000004e+01 3.934438767876769494e-01
2.365699999999999914e+00 4.883099999999999774e+00 6.216000000000000192e+00 -5.251293999999999684e+00 -2.206235425176651943e-01
2.367199999999999971e+00 -1.164499999999999957e+01 4.214800000000000324e+01 4.771709999999999674e+00 -1.086155216448543709e-01
2.371399999999999952e+00 1.503599999999999959e+01 2.864900000000000091e+01 -3.093929999999999936e+01 1.286989190371320979e-01
2.374200000000000088e+00 -1.326699999999999990e+00 1.515300000000000047e+01 -3.268571999999999811e+00 1.271601067017696374e-01
2.374400000000000066e+00 -1.349099999999999966e+01 4.350099999999999767e+01 -5.937230999999999481e-01 -1.075326674976239821e-01
2.376700000000000035e+00 3.608999999999999986e+00 4.354299999999999926e+01 -7.408247000000000249e+00 1.359558118153308126e-01
2.379999999999999893e+00 8.640000000000000568e+00 3.321099999999999852e+01 -1.135622000000000043e+01 1.363028177322702372e-01
2.386200000000000099e+00 -3.046600000000000197e+00 3.457800000000000296e+01 -5.472482999999999720e+01 1.618904377814050664e-03
2.387599999999999945e+00 1.182300000000000040e+01 4.271300000000000097e+01 -1.496884999999999977e+01 1.327849587012344956e-01
2.390600000000000058e+00 2.244499999999999940e+00 4.586199999999999832e+00 -1.436282000000000059e+00 -1.645356081262189796e-01
2.390899999999999803e+00 1.405599999999999916e+01 2.611400000000000077e+01 -9.717563000000000173e+00 1.287899442302044006e-01
2.391999999999999904e+00 4.011999999999999567e+00 3.230299999999999727e+01 3.889097000000000026e+00 1.450724733929095733e-01
2.392100000000000115e+00 9.909999999999999920e-01 3.955499999999999794e+00 -1.656794000000000100e+00 -1.426554342131781949e-01
2.393600000000000172e+00 -1.089799999999999969e+01 4.604599999999999937e+01 -7.338030999999999970e+00 -1.099112377525173212e-01
2.398899999999999810e+00 2.175600000000000023e+01 1.200999999999999979e+01 -8.391470999999999236e+00 -2.767993339551603205e-01
2.406000000000000139e+00 6.897599999999999731e+00 2.550499999999999901e+01 -1.530223999999999940e+01 1.538932007633932453e-01
2.408700000000000063e+00 -6.627600000000000158e+00 3.163100000000000023e+01 -1.099624000000000024e+01 7.642326773394358605e-03
2.411999999999999922e+00 -9.121999999999999886e+00 4.063700000000000045e+01 -7.418734999999999857e+00 -1.105864019792114766e-01
2.414800000000000058e+00 -7.398299999999999876e-01 6.668199999999999683e+00 -2.694261000000000017e+00 -5.704334864380370546e-02
2.423700000000000188e+00 2.189699999999999847e+01 1.138599999999999923e+01 -6.619080000000000297e+00 -2.766519631969631132e-01
2.424100000000000144e+00 5.342500000000000249e+00 2.569600000000000151e+01 -1.378717999999999932e+01 1.578650550701090338e-01
2.425800000000000178e+00 -8.476200000000000401e+00 4.478499999999999659e+01 3.681346000000000007e+00 -1.115022113015847333e-01
2.426099999999999923e+00 1.884499999999999886e+01 1.513799999999999990e+01 -4.418910999999999945e+01 -9.580861295105672082e-02
2.427000000000000046e+00 -8.612299999999999400e+00 3.892499999999999716e+01 -4.512801999999999758e+00 -1.608588035400774705e-02
2.428300000000000125e+00 2.340700000000000003e+01 6.566399999999999793e+00 -1.630371000000000015e+00 -3.825277206554717480e-01
2.428300000000000125e+00 2.340700000000000003e+01 7.431700000000000195e+00 -1.455465000000000009e+00 -3.824753347362320754e-01
2.430000000000000160e+00 1.282600000000000051e+01 2.693700000000000117e+01 -8.435254999999999725e+00 1.300265226019468867e-01
2.430000000000000160e+00 1.528599999999999959e+01 2.693700000000000117e+01 -9.206436999999999315e+00 1.279598628325299414e-01
2.431999999999999940e+00 2.200600000000000023e+01 1.058500000000000085e+01 3.658400999999999925e+01 -2.764192076738805071e-01
2.432500000000000107e+00 2.236700000000000088e+01 9.849199999999999733e+00 2.486004000000000147e+01 -2.763128360249071380e-01
2.439999999999999947e+00 -9.423000000000000043e+00 4.548299999999999699e+01 7.872611000000000558e+01 -1.108893303994902269e-01
2.440300000000000136e+00 -3.629600000000000048e-01 4.730100000000000193e+00 -4.968624000000000152e+00 -1.284329539991493352e-01
2.452399999999999913e+00 1.120700000000000074e+01 2.796699999999999875e+01 1.048492000000000068e+01 1.320820130396121450e-01
2.452700000000000102e+00 1.141799999999999926e+01 2.405000000000000071e+01 -7.005275000000000141e+00 3.935967538527254672e-01
2.454000000000000181e+00 1.056799999999999962e+01 3.696500000000000341e+01 2.657693000000000083e+00 1.340653055244306890e-01
2.459700000000000220e+00 8.004500000000000171e+00 4.123299999999999699e+01 -9.496145000000000280e+00 1.344259387560921004e-01
2.459700000000000220e+00 8.004500000000000171e+00 4.263300000000000267e+01 -9.269633999999999929e+00 1.340436950677983963e-01
2.459700000000000220e+00 8.869699999999999918e+00 4.263300000000000267e+01 -6.746096999999999788e+00 1.336961829306079486e-01
2.462099999999999955e+00 1.771199999999999974e+01 1.589600000000000080e+01 1.746716999999999942e+01 4.702858702052044315e-02
2.462099999999999955e+00 1.771199999999999974e+01 1.676200000000000045e+01 4.348590999999999696e+01 4.363404247067931285e-02
2.462699999999999889e+00 -1.901999999999999913e+00 3.288499999999999801e+01 -1.797324000000000055e+01 3.657806926722331677e-03
2.462699999999999889e+00 -5.020000000000000018e-01 3.288499999999999801e+01 4.324914999999999843e+00 1.513998620810957929e-01
2.466000000000000192e+00 4.828400000000000247e+00 2.635000000000000142e+01 -2.367312000000000083e+01 1.602377571348425345e-01
2.467499999999999805e+00 8.482400000000000162e+00 4.096800000000000352e+01 -1.333148999999999917e+00 1.342700847515016782e-01
2.467499999999999805e+00 9.347599999999999909e+00 4.096800000000000352e+01 -1.019020999999999955e+00 1.338895429451256724e-01
2.467499999999999805e+00 9.347599999999999909e+00 4.236800000000000210e+01 -7.051128000000000284e+00 1.335574135258838779e-01
2.470299999999999940e+00 -9.425399999999999778e+00 4.133700000000000330e+01 -1.619948000000000121e+01 -1.104895553710303763e-01
2.470899999999999874e+00 2.460300000000000153e+00 3.060800000000000054e+01 5.159998000000000218e+01 1.504419640678536785e-01
2.470899999999999874e+00 2.669399999999999995e+00 2.987199999999999989e+01 8.807138000000000488e+01 1.510045005094244330e-01
2.470899999999999874e+00 2.669399999999999995e+00 3.134400000000000119e+01 2.594570999999999827e+01 1.489080825018303800e-01
2.477100000000000080e+00 -1.021199999999999974e+01 4.152199999999999847e+01 -8.355871000000000492e+00 -1.098230910152869083e-01
2.479000000000000092e+00 -6.857300000000000395e+00 3.748299999999999699e+01 -3.507067999999999852e+00 -1.324510406408043600e-03
2.480100000000000193e+00 1.676999999999999957e+01 1.271499999999999986e+01 -2.192821999999999960e+01 6.775424684884442939e-02
2.481700000000000017e+00 9.481999999999999318e+00 3.609199999999999875e+01 4.556905999999999679e+00 1.350470916303684876e-01
2.481899999999999995e+00 6.244299999999999962e+00 4.993599999999999817e+00 -2.635067999999999966e+00 -1.932790331813253326e-01
2.484999999999999876e+00 -2.760200000000000209e+00 1.622500000000000142e+01 -2.011242000000000196e+00 -4.732527311777358359e-02
2.485599999999999810e+00 1.179299999999999926e+01 3.744200000000000017e+01 -5.659671000000000340e+00 1.330013539348078311e-01
2.486499999999999932e+00 9.692999999999999616e+00 4.179399999999999693e+01 -8.356790999999999414e+00 1.335184397672912193e-01
2.490299999999999958e+00 1.332099999999999973e+01 3.758899999999999864e+01 -2.636496000000000173e+00 1.318790283513614769e-01
2.492900000000000116e+00 1.320500000000000007e+01 1.338499999999999979e+01 -7.039311999999999792e+00 -2.225279036514185849e-01
2.501199999999999868e+00 -1.356700000000000017e+01 4.561299999999999955e+01 -5.652239999999999931e+00 -1.081316664505954372e-01
2.501999999999999780e+00 5.961000000000000298e+00 2.559199999999999875e+01 -1.045111999999999952e+01 1.561820979788561270e-01
2.507899999999999796e+00 1.664699999999999847e+01 3.045700000000000074e+01 -1.967997999999999914e+00 3.117417925646230881e-01
2.508599999999999941e+00 -5.945100000000000051e+00 4.391799999999999926e+01 -2.585980000000000167e+00 1.408292347774710018e-01
2.515200000000000102e+00 4.164399999999999658e+00 2.724099999999999966e+01 -5.072361000000000075e+01 1.631601769932384260e-01
2.517999999999999794e+00 7.701100000000000279e+00 4.193299999999999983e+01 -2.113854999999999862e+01 1.342564157097846933e-01
2.518800000000000150e+00 5.882699999999999818e+00 3.083800000000000097e+01 -4.112179000000000251e+00 1.414375883189544214e-01
2.521999999999999797e+00 3.405899999999999928e+00 6.303300000000000125e+00 -3.267345999999999862e+00 -1.880969610111112578e-01
2.524999999999999911e+00 7.924000000000000377e+00 8.673099999999999810e+00 -5.666907000000000139e+00 -2.231279399386373596e-01
2.526299999999999990e+00 1.465499999999999936e+01 1.332099999999999973e+01 -4.652366999999999919e+00 6.668625959525033287e-02
2.526699999999999946e+00 5.897499999999999964e+00 3.007700000000000173e+01 -5.612563999999999886e+00 1.417119931966817903e-01
2.532000000000000028e+00 1.784700000000000131e+01 2.098199999999999932e+01 7.607169999999999765e-01 3.935743169139225839e-01
2.534600000000000186e+00 -8.696500000000000341e+00 3.991499999999999915e+01 -4.181542000000000314e+00 -1.110160412488782056e-01
2.535099999999999909e+00 1.058200000000000074e+01 4.528600000000000136e+01 -3.781255999999999773e+01 1.325953069813042284e-01
2.537900000000000045e+00 1.069800000000000040e+01 2.412999999999999901e+01 -3.070012999999999881e+00 1.319894088441334601e-01
2.539800000000000058e+00 5.855599999999999916e+00 4.302000000000000313e+01 -4.673230999999999824e+01 1.347473028008902840e-01
2.540900000000000158e+00 7.230999999999999872e+00 2.831200000000000117e+01 -8.549587999999999965e+00 1.390307476655545660e-01
2.541599999999999859e+00 1.148900000000000032e+00 4.428900000000000148e+01 2.140381000000000000e+01 1.366394338153497090e-01
2.542499999999999982e+00 9.420099999999999696e+00 4.610099999999999909e+01 -1.597297000000000011e+01 1.328220170028811542e-01
2.543000000000000149e+00 1.046899999999999942e+01 4.616799999999999926e+01 -1.354147000000000034e+01 1.325254685798361309e-01
2.544900000000000162e+00 8.578200000000000713e+00 1.049799999999999933e+01 -1.746324999999999861e+01 -2.261649407036855908e-01
2.547000000000000153e+00 1.910200000000000031e+01 1.892299999999999827e+01 4.041297000000000139e+00 3.846056423286369624e-02
2.547400000000000109e+00 -4.344999999999999751e+00 2.030699999999999861e+01 1.013857000000000008e+00 5.155860809087344648e-02
2.552099999999999813e+00 1.530400000000000027e+01 3.253399999999999892e+01 2.309257999999999811e+00 3.114321156002843871e-01
2.555899999999999839e+00 4.501000000000000334e+00 3.211599999999999966e+01 1.131367999999999974e+01 1.438272336558062414e-01
2.558399999999999785e+00 1.139699999999999935e+00 1.006400000000000006e+01 -3.825539000000000023e+00 -1.059883017817699197e-01
2.558399999999999785e+00 1.139699999999999935e+00 1.092900000000000027e+01 -6.910210000000000186e+00 -3.002032671685497117e-02
2.558499999999999996e+00 1.633099999999999952e+01 2.969600000000000151e+01 -7.515817999999999666e-01 3.115750478005047119e-01
2.559499999999999886e+00 1.905000000000000071e+01 2.014900000000000091e+01 1.536307000000000045e+01 3.159967267579622541e-01
2.560700000000000198e+00 7.277199999999999669e+00 4.371900000000000119e+01 -8.553433999999999315e+00 1.339160587975960492e-01
2.564900000000000180e+00 8.623499999999999943e+00 2.837800000000000011e+01 -7.029225000000000279e+00 1.359482526950641645e-01
2.569300000000000139e+00 1.257399999999999984e+01 2.313599999999999923e+01 -3.219697000000000031e+00 3.935943052840713552e-01
2.578899999999999970e+00 -2.756899999999999906e+00 3.394800000000000040e+01 -9.046434000000000708e+01 1.912900644486246636e-03
2.580000000000000071e+00 6.001299999999999635e+00 2.913500000000000156e+01 -6.852762000000000242e+00 1.416878562974681344e-01
2.584900000000000198e+00 -1.315300000000000047e+01 4.283299999999999841e+01 -1.648503999999999969e+00 -1.077580361667025005e-01
2.588699999999999779e+00 7.262400000000000411e+00 6.104000000000000092e+00 -9.613253000000000270e+00 -1.987662509055078686e-01
2.592999999999999972e+00 7.699099999999999611e+00 7.754900000000000126e+00 -2.432572000000000045e+01 -2.207720867585002134e-01
2.593999999999999861e+00 7.578100000000000058e+00 4.451400000000000290e+01 -6.878865000000000229e+00 1.335840552896808142e-01
2.593999999999999861e+00 7.902999999999999581e+00 4.525099999999999767e+01 -2.359478999999999971e+01 1.333406472574980850e-01
2.596299999999999830e+00 5.354600000000000470e-01 3.514099999999999824e+01 6.764185999999999588e+00 1.449474704215762411e-01
2.616299999999999848e+00 -4.723099999999999632e+00 4.464099999999999824e+01 -3.173099000000000114e+00 1.394850485177270283e-01
2.617300000000000182e+00 2.089799999999999969e+01 4.122700000000000031e+00 -1.975938999999999890e+00 -3.820516680251194730e-01
2.617300000000000182e+00 2.259799999999999898e+01 4.122700000000000031e+00 1.710954000000000086e+00 -3.825573794697220698e-01
2.618599999999999817e+00 -7.446699999999999875e+00 3.804299999999999926e+01 -1.104149999999999965e+00 -1.607682351398434170e-02
2.623499999999999943e+00 1.097400000000000020e+01 4.438499999999999801e+01 -5.039455000000000240e+01 1.324623281723562307e-01
2.625999999999999890e+00 7.547100000000000364e+00 6.909600000000000186e+00 -1.087140999999999913e+01 -2.030596355817140819e-01
2.635800000000000143e+00 4.054900000000000171e-01 1.210599999999999987e+01 -4.193497999999999948e+00 1.639260695607799023e-01
2.638799999999999812e+00 -2.976400000000000157e-01 1.251699999999999946e+01 -3.386200000000000099e+00 1.602543394164702151e-01
2.645700000000000163e+00 1.358000000000000007e+01 3.340100000000000335e+01 1.650638999999999967e+01 1.304307160661268283e-01
2.646999999999999797e+00 -1.395800000000000018e+01 4.454999999999999716e+01 -9.616421000000000552e-01 -1.076996654759248828e-01
2.650500000000000078e+00 1.031000000000000050e+01 1.251299999999999990e+01 -1.502136999999999922e+01 -2.259487449706364948e-01
2.650999999999999801e+00 1.662000000000000099e+01 3.153999999999999915e+01 -1.287743000000000082e+00 3.118797281443045355e-01
2.652899999999999814e+00 1.411200000000000010e+01 2.028300000000000125e+01 -3.404126999999999725e+01 3.934245933905804460e-01
2.653500000000000192e+00 -2.613999999999999879e+00 3.614399999999999835e+01 -6.352594999999999992e+00 1.469703347189794673e-01
2.653500000000000192e+00 -1.213999999999999968e+00 3.614399999999999835e+01 1.200382999999999978e+00 1.453474377631547299e-01
2.653599999999999959e+00 1.323799999999999955e+01 2.610099999999999909e+01 -8.714869000000000199e+00 1.287912394541359529e-01
2.660499999999999865e+00 3.109399999999999942e+00 4.414600000000000080e+01 -3.963478999999999974e+00 1.354916299928268786e-01
2.661099999999999799e+00 7.746000000000000441e+00 2.570799999999999841e+01 -2.788650000000000162e+01 1.377389610483924498e-01
2.661900000000000155e+00 -1.437999999999999945e+00 4.503000000000000114e+01 2.004297000000000040e+01 1.374514905638820061e-01
2.662300000000000111e+00 1.975400000000000134e+01 1.439799999999999969e+01 -8.641092999999999691e+00 -9.473247883328969610e-02
2.670999999999999819e+00 -6.128799999999999804e-01 3.596099999999999852e+01 7.761861999999999817e+00 1.448696179489686320e-01
2.676699999999999857e+00 -7.118299999999999628e+00 3.469299999999999784e+01 -9.779021999999999437e+00 1.194832770813056451e-03
2.680000000000000160e+00 3.571400000000000130e+00 2.801599999999999824e+01 -7.343322999999999823e+00 1.498700988779991250e-01
2.680000000000000160e+00 1.141600000000000037e+01 4.350200000000000244e+01 -1.917023000000000010e+01 1.323590439795398199e-01
2.681000000000000050e+00 1.611899999999999977e+01 2.883399999999999963e+01 -1.823075000000000001e+00 3.114656368975511347e-01
2.685000000000000053e+00 1.266499999999999915e+01 2.211499999999999844e+01 -1.610063000000000022e+00 3.935388173388687516e-01
2.689499999999999780e+00 1.918400000000000105e+01 6.710200000000000387e+00 -8.085919999999999774e+00 -3.812503484499055184e-01
2.696600000000000108e+00 -1.002999999999999892e+00 1.445299999999999940e+01 -2.781426000000000176e+00 1.358618465170206846e-01
2.704299999999999926e+00 8.165100000000000691e+00 9.210300000000000153e+00 -3.489081999999999795e+00 -2.245145815307329207e-01
2.704299999999999926e+00 8.374100000000000321e+00 9.946400000000000574e+00 -1.003157999999999994e+01 -2.258362517271981784e-01
2.707500000000000018e+00 1.861299999999999955e+01 2.088100000000000023e+01 1.054569999999999952e-01 3.120683434011636281e-01
2.710799999999999876e+00 -4.803899999999999837e-01 1.353999999999999915e+01 -2.281737000000000126e+00 1.480867328394744609e-01
2.710900000000000087e+00 1.796199999999999974e+01 7.885100000000000442e+00 -2.443654000000000082e+01 -1.931285147040996408e-01
2.710900000000000087e+00 1.796199999999999974e+01 8.946899999999999409e+00 -4.649412999999999840e+01 -1.953591396895903443e-01
2.710900000000000087e+00 1.817099999999999937e+01 9.682999999999999829e+00 -3.549719999999999942e+01 -8.879811680713411981e-02
2.719300000000000050e+00 1.294699999999999918e+01 2.107499999999999929e+01 2.215495000000000214e+00 3.934619169502855396e-01
2.720299999999999940e+00 1.481600000000000072e+01 2.617699999999999960e+01 -7.483408999999999978e+00 1.273586599146889486e-01
2.721000000000000085e+00 -7.161999999999999922e+00 2.053000000000000114e+01 4.748759000000000313e-02 -1.412975924841550768e-01
2.722999999999999865e+00 9.038999999999999702e+00 2.488899999999999935e+01 -3.627033999999999736e+01 1.344680189030482143e-01
2.726999999999999869e+00 8.437099999999999156e+00 4.193299999999999983e+01 -6.277425000000000033e+00 1.335702237974216167e-01
2.728000000000000203e+00 2.159999999999999976e-01 4.019999999999999574e+00 -2.686551000000000133e+00 -1.351097030787465347e-01
2.728000000000000203e+00 1.766000000000000014e+00 4.019999999999999574e+00 -9.715272999999999826e-01 -1.582182791377096109e-01
2.729499999999999815e+00 1.814499999999999957e+01 1.519599999999999973e+01 -4.272805000000000319e+01 6.261264724617381094e-02
2.732000000000000206e+00 1.129099999999999965e-01 4.449199999999999733e+01 2.929676999999999865e+01 1.367619487198668826e-01
2.734900000000000109e+00 8.914999999999999147e+00 4.166799999999999926e+01 -6.998974999999999724e+00 1.334226592012615065e-01
2.737899999999999778e+00 2.266000000000000014e+01 9.355700000000000571e+00 1.954685999999999879e+01 -2.764779068793276617e-01
2.738599999999999923e+00 8.436299999999999244e+00 2.551300000000000168e+01 -2.597408000000000072e+01 1.357543561746500094e-01
2.738599999999999923e+00 9.836299999999999599e+00 2.777799999999999869e+01 -3.223015999999999881e+00 1.331794665302119263e-01
2.740299999999999958e+00 1.771300000000000097e+01 1.199900000000000055e+01 -2.008740999999999843e+01 -9.217126597988843650e-02
2.744499999999999940e+00 -6.855699999999999683e+00 3.233899999999999864e+01 -9.754111999999999227e+00 4.912809827607409439e-03
2.746700000000000141e+00 3.108000000000000096e+00 2.899299999999999855e+01 4.611549999999999727e+01 1.501013818167501179e-01
2.746799999999999908e+00 1.196799999999999997e+01 1.304100000000000037e+01 -1.013462999999999958e+01 -2.240183379138198649e-01
2.749600000000000044e+00 -7.418400000000000105e+00 3.379399999999999693e+01 -6.176141999999999577e+00 -1.181126136965409378e-02
2.751199999999999868e+00 4.473099999999999632e+00 4.331199999999999761e+01 -6.527993000000000379e+00 1.349403863225551170e-01
2.754000000000000004e+00 1.127399999999999913e+01 4.732200000000000273e+01 -3.941502999999999979e+00 1.319772384487036265e-01
2.756299999999999972e+00 6.421700000000000408e+00 2.829500000000000171e+01 -7.470921999999999841e+00 1.402681096154632656e-01
2.775100000000000122e+00 -2.562600000000000211e+00 4.543399999999999750e+01 -3.960919999999999996e-01 1.376464753574441202e-01
2.775399999999999867e+00 1.207000000000000028e+01 3.307099999999999795e+01 1.897946999999999917e+01 1.313371818885215869e-01
2.779900000000000038e+00 1.628800000000000026e+01 2.111400000000000077e+01 1.230186999999999919e+01 3.936004845841431510e-01
2.784800000000000164e+00 1.622700000000000031e+01 1.334500000000000064e+01 -1.312358000000000047e+01 6.621445667383236977e-02
2.787500000000000089e+00 1.610699999999999932e+01 2.810699999999999932e+01 -8.115183999999999287e+00 3.114460435195940957e-01
2.791999999999999815e+00 1.978099999999999881e+01 5.930600000000000094e+00 -7.295728000000000435e+00 -3.815714748700514414e-01
2.791999999999999815e+00 1.989900000000000091e+01 5.083499999999999908e+00 -5.663774000000000086e+00 -3.816780909122384213e-01
2.796300000000000008e+00 1.250500000000000078e+01 1.332600000000000051e+01 -7.607217000000000340e+00 -2.236420451515919172e-01
2.796300000000000008e+00 -1.244999999999999929e+01 4.261599999999999966e+01 -4.761570999999999998e-01 -1.084495500043868299e-01
2.806999999999999940e+00 -7.119399999999999729e+00 3.292000000000000171e+01 -1.046505999999999936e+01 3.594193781162020786e-03
2.808300000000000018e+00 -1.013100000000000023e+01 4.564099999999999824e+01 -1.990731000000000028e+00 -1.107030498537887597e-01
2.811900000000000066e+00 5.616600000000000037e+00 5.787499999999999645e+00 -2.996312999999999782e+00 -2.016578353820276115e-01
2.812600000000000211e+00 9.131000000000000227e+00 3.281400000000000006e+01 -6.921227000000000018e+00 1.345261264475071383e-01
2.821499999999999897e+00 -6.579799999999999649e+00 2.628900000000000148e+01 -9.781442000000000192e+00 -1.437352424709314735e-01
2.821499999999999897e+00 -6.579799999999999649e+00 2.715399999999999991e+01 -3.881648999999999905e+00 -1.445775670381914679e-01
2.821699999999999875e+00 -1.295899999999999963e+01 4.633899999999999864e+01 -6.664653000000000382e+00 -1.088955041425790915e-01
2.821699999999999875e+00 -1.125900000000000034e+01 4.633899999999999864e+01 -8.886191999999999425e+00 -1.100121324831012382e-01
2.822400000000000020e+00 -8.043599999999999639e+00 4.429399999999999693e+01 -2.340430999999999884e+01 -1.121496383145158815e-01
2.826700000000000212e+00 -7.288999999999999702e+00 2.524099999999999966e+01 -3.373485999999999763e+01 -1.437995898876446299e-01
2.828599999999999781e+00 2.014099999999999824e+01 1.365399999999999991e+01 -3.119234000000000062e+00 -9.383139294168915678e-02
2.828800000000000203e+00 -2.204000000000000181e+00 1.532499999999999929e+01 -3.429898999999999809e+00 1.194743220297943970e-01
2.829499999999999904e+00 8.894600000000000506e+00 1.124499999999999922e+01 -2.003278999999999854e+01 -2.273947238123214531e-01
2.841800000000000104e+00 1.789799999999999969e+01 1.743599999999999994e+01 3.286811000000000149e+01 4.139208291754723629e-02
2.842600000000000016e+00 1.705799999999999983e+01 2.878800000000000026e+01 6.732042999999999999e+00 3.119288270837972665e-01
2.844899999999999984e+00 -3.642199999999999882e+00 4.549499999999999744e+01 9.547153999999999918e-01 1.380487176842631891e-01
2.845299999999999940e+00 2.080999999999999872e+01 1.334299999999999997e+01 -7.901250000000000107e+00 -9.340721300358727219e-02
2.845800000000000107e+00 1.580400000000000027e+01 2.740700000000000003e+01 -1.020504999999999995e+01 3.112695135405200708e-01
2.849000000000000199e+00 -1.070199999999999996e+01 4.209300000000000352e+01 -1.160637000000000008e+01 -1.098708564940702181e-01
2.849000000000000199e+00 1.164000000000000057e+01 2.747599999999999909e+01 1.189227999999999952e+01 1.302469940695901440e-01
2.856700000000000017e+00 1.069999999999999929e+01 2.745400000000000063e+01 2.176242999999999839e+01 1.314346161008794200e-01
2.858400000000000052e+00 -9.176199999999999690e+00 4.505199999999999960e+01 3.832927000000000106e+01 -1.113785229403820437e-01
2.864900000000000002e+00 1.042800000000000082e+01 3.229899999999999949e+01 -1.102792999999999912e+00 1.326842401465719024e-01
2.866899999999999782e+00 -9.858000000000000540e+00 4.182800000000000296e+01 -1.135147000000000084e+01 -1.105884994288903328e-01
2.873000000000000220e+00 1.389600000000000080e+01 4.001200000000000045e+01 -6.962117000000000111e+00 1.314668681871626610e-01
2.877699999999999925e+00 -6.512500000000000178e+00 3.689300000000000068e+01 -5.089476999999999585e+00 -1.718914046335595939e-03
2.883100000000000218e+00 -6.564199999999999591e+00 3.561599999999999966e+01 -6.308691999999999744e+00 -4.974596165451933803e-04
2.885299999999999976e+00 1.211800000000000033e+01 2.431800000000000139e+01 -3.371306999999999832e+00 1.288376855386193232e-01
2.887300000000000200e+00 -2.800000000000000058e-02 8.923299999999999343e+00 -9.889831000000000316e-02 -9.748214426198054117e-02
2.887599999999999945e+00 1.417999999999999972e+01 3.892300000000000182e+01 -8.408974000000000615e+00 3.118090613682255596e-01
2.898099999999999898e+00 1.256099999999999994e+01 3.720100000000000051e+01 -1.324444000000000088e+01 1.316514875984347299e-01
2.898600000000000065e+00 5.528400000000000425e+00 2.608299999999999841e+01 -1.213618999999999915e+01 1.433404852625083936e-01
2.902000000000000135e+00 -8.050000000000000711e+00 2.292399999999999949e+01 -1.427454999999999918e+00 -1.437561720640130880e-01
2.902899999999999814e+00 -8.725400000000000489e+00 4.106900000000000261e+01 -1.137512000000000079e+01 -1.115639517203871750e-01
2.903500000000000192e+00 3.160299999999999887e+00 3.174099999999999966e+01 9.813437999999999661e+00 1.455791955236765411e-01
2.905800000000000161e+00 1.616600000000000037e+00 4.472399999999999665e+01 9.105358000000000729e+00 1.356021156883017720e-01
2.924599999999999866e+00 1.690099999999999980e+01 2.953399999999999892e+01 4.102369000000000376e+00 3.119588047737056891e-01
2.927200000000000024e+00 -3.624800000000000022e+00 1.744699999999999918e+01 -1.018901000000000057e+00 6.629315887725260696e-03
2.927500000000000213e+00 1.230700000000000038e+01 4.233299999999999841e+01 -2.449577999999999989e+01 1.318759312205057543e-01
2.933199999999999807e+00 7.049999999999999822e+00 5.240000000000000213e+00 -4.759097999999999828e+00 -1.925041819942194532e-01
2.937500000000000000e+00 6.798399999999999999e+00 2.782100000000000151e+01 -7.558398999999999646e+00 1.387279696270795060e-01
2.941199999999999815e+00 -6.645100000000000229e+00 4.418599999999999994e+01 -3.418654999999999688e+01 1.402381224745634647e-01
2.941199999999999815e+00 -5.245099999999999874e+00 4.418599999999999994e+01 -3.271802000000000099e+00 1.394833447818151217e-01
2.942000000000000171e+00 2.312300000000000111e+01 4.972699999999999676e+00 4.523418000000000383e+00 -3.827330980881316624e-01
2.942000000000000171e+00 2.312300000000000111e+01 6.023299999999999876e+00 5.425695999999999852e-01 -3.826557062661025688e-01
2.946299999999999919e+00 2.130300000000000082e+01 1.156199999999999939e+01 -1.595983999999999980e+01 -2.768590364785346591e-01
2.949600000000000222e+00 1.007699999999999996e+01 4.662199999999999989e+01 -7.063028000000000084e+00 1.320510080887067061e-01
2.952300000000000146e+00 -7.762299999999999756e+00 3.860000000000000142e+01 -1.051790999999999920e+00 -1.707451277990335373e-02
2.954600000000000115e+00 2.915000000000000036e+00 5.906699999999999839e+00 -6.607164000000000037e+00 -1.892807411635609727e-01
2.954800000000000093e+00 -7.911800000000000388e+00 2.204400000000000048e+01 -1.545701999999999909e+00 -1.426256187188616187e-01
2.956300000000000150e+00 1.341200000000000081e+01 2.034100000000000108e+01 4.988493000000000066e+00 3.934837153563723877e-01
2.956300000000000150e+00 1.481199999999999939e+01 2.034100000000000108e+01 7.520945999999999465e-01 3.935403482137238007e-01
2.959000000000000075e+00 1.841199999999999903e+01 2.809400000000000119e+01 -6.989156999999999620e+00 3.124495534556588350e-01
2.961500000000000021e+00 8.190899999999999181e+00 2.788700000000000045e+01 -8.072549999999999670e+00 1.354311303431888214e-01
2.961899999999999977e+00 1.718599999999999994e+01 3.033999999999999986e+01 2.302686000000000011e+00 3.121380105978367459e-01
2.962699999999999889e+00 2.127700000000000102e+01 1.253599999999999959e+01 -1.255503000000000036e+01 -2.772118193761534677e-01
2.967699999999999783e+00 1.128200000000000003e+01 4.641899999999999693e+01 -7.394491999999999621e+00 1.317514709880372170e-01
2.972999999999999865e+00 1.755600000000000094e+01 1.269299999999999962e+01 -2.433489000000000146e+01 -9.312491014273691081e-02
2.974600000000000133e+00 1.698199999999999932e+01 3.122599999999999909e+01 -1.791577999999999893e+00 3.121288418408024734e-01
2.975699999999999790e+00 1.609499999999999886e+01 3.239000000000000057e+01 2.593928000000000011e+01 3.118964371388177059e-01
2.979999999999999982e+00 -5.044999999999999929e+00 2.057400000000000162e+01 1.020395000000000074e+01 7.059773028791466176e-02
2.979999999999999982e+00 -3.854099999999999859e+00 1.991000000000000014e+01 5.230163000000000117e+00 5.220597161535465297e-02
2.979999999999999982e+00 -3.762999999999999901e+00 1.832700000000000173e+01 2.296854000000000173e+00 3.131873641710296308e-02
2.979999999999999982e+00 -3.645000000000000018e+00 1.917399999999999949e+01 1.140984000000000087e+01 4.245718293751185590e-02
2.982200000000000184e+00 -4.895599999999999952e-02 3.347500000000000142e+01 -7.844560000000000421e-01 1.474270215606698353e-01
2.983699999999999797e+00 2.637300000000000200e+00 4.461299999999999955e+01 1.387918999999999903e+00 1.350104815974814687e-01
2.983900000000000219e+00 9.410399999999999210e+00 1.196599999999999930e+01 -1.956868000000000052e+01 -2.276031826412558134e-01
2.985700000000000021e+00 2.174800000000000111e+01 4.051899999999999835e+00 -3.772457000000000171e+00 -3.824561682084991476e-01
2.987999999999999989e+00 -2.472700000000000120e+00 3.341100000000000136e+01 -4.051597999999999900e+01 1.514399515440654764e-01
2.987999999999999989e+00 -1.281800000000000050e+00 3.274699999999999989e+01 -1.222944000000000031e+01 1.511357364774866263e-01
2.990200000000000191e+00 4.919200000000000017e+00 3.160200000000000031e+01 2.166150999999999982e+01 1.418077014797653468e-01
2.993300000000000072e+00 6.786299999999999777e+00 4.332200000000000273e+01 -1.353185000000000038e+01 1.334759110353210543e-01
2.998499999999999943e+00 1.826699999999999946e+01 1.087299999999999933e+01 -1.335345000000000049e+01 -9.044454437095143795e-02
3.000399999999999956e+00 1.204800000000000004e+01 2.703500000000000014e+01 -1.719810000000000061e+00 1.292096714271535052e-01
3.001700000000000035e+00 9.096199999999999619e+00 2.786199999999999832e+01 -6.343410000000000437e-01 1.335542288488213714e-01
3.005700000000000038e+00 1.664399999999999835e+01 2.798400000000000176e+01 -3.493491000000000124e+00 3.117788592228044608e-01
3.007000000000000117e+00 1.007799999999999940e+01 3.657300000000000040e+01 6.230134999999999756e+00 1.334329852859468257e-01
3.007000000000000117e+00 1.126900000000000013e+01 3.723700000000000188e+01 -4.470697000000000365e+00 1.324745048707181572e-01
3.007299999999999862e+00 4.101300000000000168e+00 6.603200000000000180e+00 3.394664999999999822e+00 -2.299583149063017251e-01
3.007899999999999796e+00 1.038000000000000078e+01 4.732200000000000273e+01 -4.355038000000000409e+00 1.318626326530127901e-01
3.007899999999999796e+00 1.216799999999999926e+01 4.732200000000000273e+01 -1.677173000000000025e+00 1.314798379277554441e-01
3.008500000000000174e+00 1.730499999999999972e+01 2.152199999999999847e+01 -1.974175000000000013e+00 3.116610852153724465e-01
3.009100000000000108e+00 -6.391300000000000203e+00 3.626800000000000068e+01 -5.813941999999999943e+00 -1.476796816426730963e-03
3.013300000000000090e+00 -7.094800000000000217e+00 2.910000000000000142e+01 -1.440223999999999949e+00 1.322584097850281262e-02
3.016599999999999948e+00 6.375499999999999723e+00 2.608299999999999841e+01 -9.395854999999999180e+00 1.400170600243906549e-01
3.016999999999999904e+00 -7.641000000000000014e+00 2.130499999999999972e+01 -8.993712999999999846e-01 -1.406930107014033871e-01
3.025999999999999801e+00 1.097899999999999920e+01 4.571900000000000119e+01 -2.866256999999999877e+01 1.317840971757568702e-01
3.031000000000000139e+00 -7.066099999999999604e+00 2.794099999999999895e+01 -2.291805000000000092e+00 -1.454070510812705552e-01
3.037199999999999900e+00 7.277099999999999902e+00 2.614099999999999824e+01 -1.162429000000000023e+01 1.373462640700264248e-01
3.048500000000000210e+00 1.360800000000000054e+01 4.094200000000000017e+01 1.462532000000000032e+01 1.315090682589832582e-01
3.050300000000000011e+00 5.024799999999999933e+00 2.689799999999999969e+01 -1.932948000000000022e+01 1.439630701632439169e-01
3.050600000000000200e+00 1.937500000000000000e+01 2.081500000000000128e+01 8.809117999999999782e+00 3.125530893342787220e-01
3.051299999999999901e+00 -6.851200000000000401e+00 3.771099999999999852e+01 -1.983187999999999951e+00 -1.689082163582633633e-02
3.053300000000000125e+00 -8.255100000000000549e+00 3.945000000000000284e+01 -5.413990000000000080e+00 -1.120503304668153816e-01
3.053300000000000125e+00 -8.255100000000000549e+00 4.038100000000000023e+01 -3.918661000000000172e+00 -1.121282062670135443e-01
3.054899999999999949e+00 2.322299999999999898e+01 8.444599999999999440e+00 1.176558999999999955e+01 -2.766325089253866554e-01
3.056900000000000173e+00 -6.386999999999999567e+00 2.046499999999999986e+01 1.940924000000000049e+01 -1.335304585605346650e-01
3.057599999999999874e+00 8.683199999999999363e+00 3.461899999999999977e+01 -2.880667000000000044e+01 1.346459823634293396e-01
3.057700000000000085e+00 1.837199999999999989e+01 2.139300000000000068e+01 3.598990999999999829e+00 3.121718620147510559e-01
3.062600000000000211e+00 6.284399999999999764e+00 2.753999999999999915e+01 -7.684287000000000312e+00 1.396695252653912256e-01
3.063699999999999868e+00 8.435999999999999943e+00 4.568200000000000216e+01 -3.710528999999999655e+01 1.324236923624670381e-01
3.076700000000000212e+00 3.876300000000000079e+00 4.397599999999999909e+01 -1.649958999999999953e+00 1.344499733094563221e-01
3.078399999999999803e+00 1.407099999999999973e+01 3.300500000000000256e+01 1.018943999999999939e+01 1.290925810865268808e-01
3.078699999999999992e+00 1.074900000000000055e+01 4.817199999999999704e+01 -2.828068000000000026e+00 1.316608378081280395e-01
3.078699999999999992e+00 1.179899999999999949e+01 4.647200000000000131e+01 -4.989190999999999931e+00 1.314933666499879250e-01
3.078699999999999992e+00 1.179899999999999949e+01 4.817199999999999704e+01 -2.652772999999999826e+00 1.314484223705780219e-01
3.080000000000000071e+00 8.698299999999999699e+00 3.351400000000000290e+01 -1.446719000000000044e+01 1.344870828929197182e-01
3.080700000000000216e+00 1.247899999999999920e+01 2.639099999999999824e+01 -5.553679999999999728e-01 1.283371716290132025e-01
3.084000000000000075e+00 -7.275999999999999801e+00 4.422800000000000153e+01 -5.368728000000000122e+01 1.402857083354326351e-01
3.086199999999999832e+00 -3.314000000000000057e+00 3.501100000000000279e+01 -2.945590999999999937e+01 1.485920337068098451e-01
3.086199999999999832e+00 -3.104900000000000215e+00 3.427499999999999858e+01 -4.270367000000000246e+01 1.499260749277134264e-01
3.086199999999999832e+00 -3.104900000000000215e+00 3.574699999999999989e+01 -1.568717000000000006e+01 1.468966296898701340e-01
3.086199999999999832e+00 -1.913999999999999924e+00 3.641100000000000136e+01 -5.794741000000000142e+00 1.444092946187459647e-01
3.087200000000000166e+00 7.433999999999999497e-01 1.126600000000000001e+01 -4.617721000000000409e+00 1.703041665340226385e-01
3.089999999999999858e+00 2.305000000000000071e+01 7.415700000000000180e+00 -2.929053000000000129e+00 -2.762509457758594578e-01
3.090800000000000214e+00 5.634900000000000020e+00 2.853800000000000026e+01 -6.638049999999999784e+00 1.410257944131394214e-01
3.091400000000000148e+00 8.905200000000000671e+00 3.537500000000000000e+01 -9.872507999999999839e+00 1.343630089335544620e-01
3.106700000000000017e+00 1.746399999999999864e+01 2.802799999999999869e+01 -5.638757000000000019e+00 3.121660531747825207e-01
3.108699999999999797e+00 -6.360299999999999621e+00 3.119800000000000040e+01 -5.162103000000000108e+00 6.130407092558407163e-03
3.110599999999999810e+00 4.496400000000000396e+00 2.767299999999999827e+01 -1.186500000000000021e+01 1.450172282059850326e-01
3.113300000000000178e+00 -6.601799999999999891e+00 3.040899999999999892e+01 -5.139445000000000263e+00 8.271853230393174175e-03
3.114799999999999791e+00 1.795799999999999841e+01 2.889499999999999957e+01 -5.740642000000000245e+00 3.124025919939609208e-01
3.115600000000000147e+00 7.681499999999999773e+00 5.602500000000000036e+00 -4.505611000000000033e+00 -1.936115436912407284e-01
3.115600000000000147e+00 1.249600000000000044e+01 3.381000000000000227e+01 5.169531000000000098e+00 1.304249071980024266e-01
3.116899999999999782e+00 7.943699999999999761e+00 6.477000000000000313e+00 -3.963404000000000149e+00 -1.988756828841316271e-01
3.116999999999999993e+00 -7.758700000000000152e+00 2.448100000000000165e+01 -1.498764000000000074e+01 -1.430944839538509650e-01
3.117900000000000116e+00 -6.843399999999999928e+00 2.962099999999999866e+01 -4.114594000000000307e+00 1.079886309709767421e-02
3.125799999999999912e+00 -8.743600000000000705e+00 4.435199999999999676e+01 -4.727418000000000120e+00 -1.119068275518024513e-01
3.126300000000000079e+00 1.882600000000000051e+01 1.426299999999999990e+01 -4.562317999999999785e+01 -9.476601583742275126e-02
3.128099999999999881e+00 1.405599999999999916e+01 2.578900000000000148e+01 -7.565944000000000003e+00 1.266817440019530061e-01
