1.316600000000000037e+01 4.202900000000000347e+01 3.039999999999999858e+01 4.053548000000000151e-01 -2.484296377276200007e-01
1.317500000000000071e+01 4.166599999999999682e+01 5.497200000000000131e+01 -8.572191999999999368e+00 -2.006270230000856414e-01
1.317500000000000071e+01 4.166599999999999682e+01 5.583800000000000097e+01 -2.061021000000000214e+00 -2.010519252509798682e-01
1.317699999999999960e+01 3.452499999999999858e+01 7.450000000000000000e+01 3.264838000000000306e+01 9.495558318580780977e-02
1.317800000000000082e+01 3.235799999999999699e+01 6.941400000000000148e+01 1.739215000000000066e-01 9.426751803794465590e-02
1.317900000000000027e+01 8.710699999999999221e+00 5.648100000000000165e+01 2.083427999999999969e+01 1.865746216497773946e-01
1.317900000000000027e+01 9.761300000000000310e+00 5.648100000000000165e+01 2.411584999999999823e+01 1.857774747526732273e-01
1.317900000000000027e+01 9.919499999999999318e+00 2.646199999999999974e+01 -4.468587000000000309e+00 -2.912594046490854516e-01
1.318299999999999983e+01 4.995100000000000051e+01 5.536999999999999744e+01 2.396876999999999924e+00 -1.941939783152411558e-01
1.318599999999999994e+01 3.773100000000000165e+01 3.386599999999999966e+01 1.053438000000000052e+01 -2.752418050857473597e-01
1.318699999999999939e+01 8.923899999999999721e+00 4.489099999999999824e+01 -5.712536000000000058e+00 -7.020577108038993097e-02
1.319100000000000072e+01 3.357200000000000273e+01 4.113199999999999790e+01 -4.619317999999999813e+00 1.193508151965114311e-01
1.319200000000000017e+01 1.163400000000000034e+01 5.530499999999999972e+01 2.803752000000000066e+01 1.061715419845179892e-01
1.319200000000000017e+01 9.523199999999999221e+00 3.256199999999999761e+01 -8.339676999999999785e-01 -3.007116073430192160e-01
1.319299999999999962e+01 5.257099999999999795e+01 4.170100000000000051e+01 3.544411999999999896e+00 -3.790720557955832293e-01
1.319299999999999962e+01 5.374399999999999977e+01 4.898299999999999699e+01 4.958115000000000272e+00 -3.805118410670768614e-01
1.319400000000000084e+01 4.870000000000000284e+01 3.708100000000000307e+01 -7.539689000000000085e+00 -3.768748841836145891e-01
1.319400000000000084e+01 4.989099999999999824e+01 3.774499999999999744e+01 -7.107834000000000430e+00 -3.774264620783666646e-01
1.319400000000000084e+01 5.290100000000000335e+01 3.838799999999999812e+01 -1.192231000000000041e+00 -2.719640650331215381e-01
1.320100000000000051e+01 3.662899999999999778e+01 3.743099999999999739e+01 -9.350073999999999330e+00 -1.927285958197277327e-01
1.320199999999999996e+01 1.926600000000000090e+00 3.725900000000000034e+01 7.915401000000000131e+00 -2.957124023328557283e-01
1.320400000000000063e+01 4.279999999999999716e+01 6.755700000000000216e+01 1.140651999999999999e+00 -2.037468224157576169e-01
1.320700000000000074e+01 3.967799999999999727e+01 7.348600000000000421e+01 -1.084886999999999979e+01 9.745500597012918265e-02
1.320899999999999963e+01 4.097699999999999676e+01 5.835300000000000153e+01 2.654621000000000119e+00 -2.027088378875156194e-01
1.321199999999999974e+01 3.808700000000000330e+01 3.618200000000000216e+01 6.607457000000000136e+00 -2.748904919216801912e-01
1.321499999999999986e+01 3.723100000000000076e+00 2.932000000000000028e+01 -3.846363000000000198e+00 -3.705177646506909728e-01
1.321499999999999986e+01 5.352899999999999991e+00 2.932000000000000028e+01 -2.122715000000000174e+01 -2.891294189863406472e-01
1.321700000000000053e+01 4.256900000000000261e+01 7.471899999999999409e+01 -9.287312999999999263e+00 -2.048625381096883802e-01
1.322100000000000009e+01 3.860099999999999909e+01 7.342199999999999704e+01 -6.138930000000000220e+00 9.698078425153436322e-02
1.322199999999999953e+01 8.042299999999999116e+00 4.747399999999999665e+01 -1.532010000000000005e+01 -7.042812906268254569e-02
1.322199999999999953e+01 8.907600000000000406e+00 4.747399999999999665e+01 -1.091180999999999912e+01 -7.103132728867535273e-02
1.322600000000000087e+01 1.071700000000000053e+01 2.920200000000000173e+01 2.003272000000000119e+01 -2.996837517920896143e-01
1.322600000000000087e+01 1.092600000000000016e+01 2.993799999999999883e+01 1.123798999999999992e+01 -3.013767678240132364e-01
1.322600000000000087e+01 5.139300000000000423e+00 3.100700000000000145e+01 -2.722500999999999838e+00 -2.916958657040843450e-01
1.322700000000000031e+01 2.471699999999999875e+01 3.224199999999999733e+01 -7.608375999999999806e+00 -3.038720406333535358e-03
1.322899999999999920e+01 1.666799999999999926e+01 5.552900000000000347e+01 -6.566207999999999601e+00 1.014379311828702140e-01
1.323499999999999943e+01 -9.291099999999999914e-01 5.251599999999999824e+01 -6.935012999999999650e+00 -6.768218006900930672e-02
1.323799999999999955e+01 2.211599999999999966e+01 3.199399999999999977e+01 -2.083117000000000019e+01 2.788122978024234477e-01
1.324000000000000021e+01 3.942600000000000193e+01 4.893299999999999983e+01 7.107469000000000037e+00 -2.000281427067548967e-01
1.324499999999999922e+01 3.803399999999999892e+01 3.456600000000000250e+01 1.674234999999999829e+01 -2.743743298997044500e-01
1.324600000000000044e+01 1.082699999999999996e+01 3.064300000000000068e+01 9.779928999999999206e+00 -3.019272545542373565e-01
1.324699999999999989e+01 2.158399999999999963e+01 2.586299999999999955e+01 -2.456693000000000016e+00 1.069889302211823184e-01
1.324699999999999989e+01 2.313400000000000034e+01 2.837099999999999866e+01 -2.357445999999999842e+01 1.644570005449522490e-02
1.324799999999999933e+01 4.203699999999999903e+01 5.633800000000000097e+01 -6.981869000000000547e-01 -2.009984137664233561e-01
1.325000000000000000e+01 5.081900000000000084e+00 3.008699999999999974e+01 -1.098000000000000043e+01 -2.901626081420737302e-01
1.325200000000000067e+01 1.119400000000000084e+01 5.614399999999999835e+01 3.153698999999999941e+01 1.065260732378035397e-01
1.325300000000000011e+01 3.234799999999999898e+01 3.963000000000000256e+01 -5.854155000000000442e+00 1.175300443735308314e-01
1.325399999999999956e+01 3.868699999999999761e+01 6.348100000000000165e+01 -7.401938999999999602e-01 9.978713913170743355e-02
1.325799999999999912e+01 5.144100000000000250e+01 3.740699999999999648e+01 -3.194824000000000108e+00 -2.703192972021376539e-01
1.326200000000000045e+01 3.044099999999999895e+01 3.304699999999999704e+01 7.347710000000000186e+00 1.281404963537818020e-01
1.326299999999999990e+01 2.358399999999999963e+01 3.300000000000000000e+01 -1.771189999999999998e+01 -5.543645796238681582e-03
1.326399999999999935e+01 7.345200000000000173e+00 5.531300000000000239e+01 -8.502830999999999584e-01 1.878196114578773446e-01
1.326399999999999935e+01 3.155499999999999972e+01 3.485099999999999909e+01 9.966867000000000587e+00 1.386990705087180753e-01
1.326699999999999946e+01 4.020999999999999908e+00 3.166700000000000159e+01 9.146886999999999546e+00 -2.915891381951861705e-01
1.326900000000000013e+01 3.343800000000000239e+01 7.036299999999999955e+01 1.223324000000000034e+01 9.478166653908097483e-02
1.327399999999999913e+01 1.010500000000000043e+01 4.552100000000000080e+01 -5.990933000000000064e+00 1.873744355779193571e-01
1.327500000000000036e+01 1.555700000000000038e+01 5.500699999999999790e+01 -9.245319000000000287e+00 1.024747896025901966e-01
1.327599999999999980e+01 3.180000000000000071e+01 3.400500000000000256e+01 3.188422000000000089e+00 1.519594143633811734e-01
1.327599999999999980e+01 2.414199999999999946e+01 6.671200000000000330e+01 -4.047225000000000072e+00 8.895618557199370946e-02
1.327800000000000047e+01 3.733700000000000330e+01 7.416700000000000159e+01 7.394210999999999956e+01 9.626412713746745897e-02
1.327899999999999991e+01 2.570200000000000173e+01 2.922200000000000131e+01 -6.999887999999999666e-01 2.278915066816598056e-01
1.327899999999999991e+01 2.821000000000000085e+01 2.922200000000000131e+01 4.904404000000000252e+01 3.376159542694695537e-02
1.327899999999999991e+01 2.821000000000000085e+01 3.017999999999999972e+01 -6.349331000000000280e+00 8.812875604366903273e-03
1.327899999999999991e+01 3.886500000000000199e+01 6.066599999999999682e+01 7.663745999999999725e+00 1.012088734428296666e-01
1.327999999999999936e+01 3.899900000000000144e+00 3.892399999999999949e+01 8.378204000000000207e-02 -2.981491264255686779e-01
1.328100000000000058e+01 4.009000000000000341e+01 5.830899999999999750e+01 1.676328000000000173e+01 -2.035403290776157392e-01
1.328200000000000003e+01 3.774900000000000233e+01 3.537199999999999989e+01 9.458743999999999374e+00 -2.754567217797393441e-01
1.328400000000000070e+01 2.476300000000000168e+01 3.128500000000000014e+01 -1.786126000000000102e+00 9.784482812242235872e-03
1.328500000000000014e+01 2.197999999999999954e+00 5.357800000000000296e+01 -3.672518999999999867e+00 -6.909191300622638532e-02
1.328800000000000026e+01 4.114399999999999835e+01 6.744899999999999807e+01 -3.594688000000000105e+00 -2.046337896087385144e-01
1.328899999999999970e+01 1.967999999999999972e+01 5.721099999999999852e+01 -3.719666999999999746e+01 6.335948672162581771e-03
1.329800000000000004e+01 4.059499999999999886e+01 4.963300000000000267e+01 2.559241999999999795e+00 -1.986968854483115721e-01
1.329800000000000004e+01 -5.997099999999999653e-01 5.175600000000000023e+01 -4.639746999999999844e+00 -6.755891115646540934e-02
1.329800000000000004e+01 -5.997099999999999653e-01 5.327600000000000335e+01 -6.831844000000000250e+00 -6.801545856721177841e-02
1.329800000000000004e+01 5.470100000000000051e+01 4.671200000000000330e+01 2.856387999999999927e+00 -3.801900874866866453e-01
1.330199999999999960e+01 5.281600000000000250e+01 3.937800000000000011e+01 6.347171999999999592e+00 -3.785123720879580156e-01
1.330400000000000027e+01 3.141900000000000048e+01 3.564300000000000068e+01 7.167009000000000185e+00 1.297912392166295781e-01
1.331900000000000084e+01 2.695599999999999952e+01 2.838200000000000145e+01 3.040188000000000113e+00 6.510152211687272872e-02
1.332099999999999973e+01 3.925300000000000011e+01 2.950799999999999912e+01 -1.778335999999999917e+00 -2.806285088875649647e-01
1.332099999999999973e+01 4.095300000000000296e+01 2.950799999999999912e+01 -1.165273000000000003e+00 -2.576344056128371252e-01
1.332499999999999929e+01 1.832999999999999829e+01 5.658400000000000318e+01 -4.531103000000000236e+01 1.001688119610548017e-01
1.332799999999999940e+01 1.174799999999999933e+01 2.372299999999999898e+01 -1.792620000000000147e+01 -2.996170793183315917e-01
1.333099999999999952e+01 4.463100000000000023e+01 7.344799999999999329e+01 -2.919581000000000159e+01 -2.039684494831028316e-01
1.333099999999999952e+01 4.484000000000000341e+01 7.271200000000000330e+01 -1.320302000000000042e+01 -2.037765445752737214e-01
1.333099999999999952e+01 2.390200000000000102e+01 6.117000000000000171e+01 4.793775000000000119e+00 8.741562994299809097e-02
1.333099999999999952e+01 3.927300000000000324e+01 6.693800000000000239e+01 -2.332482000000000166e+00 9.889684398439230195e-02
1.333500000000000085e+01 3.914099999999999824e+01 4.982999999999999829e+01 -6.279423999999999673e+00 -2.012972292775541683e-01
1.333699999999999974e+01 6.562999999999999723e+00 5.433400000000000318e+01 4.780785999999999980e+00 1.886461059379220262e-01
1.333799999999999919e+01 4.666100000000000136e+01 5.567600000000000193e+01 -1.639956000000000103e+01 -1.967229758153236641e-01
1.334200000000000053e+01 2.811400000000000077e+01 3.146600000000000108e+01 1.228206999999999915e+01 -1.154384359387238268e-01
1.334200000000000053e+01 1.030000000000000071e+01 5.073700000000000188e+01 -3.104703999999999908e+01 1.860817136050730569e-01
1.334200000000000053e+01 5.244400000000000261e+01 5.033800000000000097e+01 -8.090901999999999816e+00 -3.807262941323367178e-01
1.334500000000000064e+01 1.710399999999999920e+01 2.511700000000000088e+01 4.865432000000000201e+00 2.659571347949886769e-02
1.334699999999999953e+01 3.143100000000000094e+01 3.315500000000000114e+01 1.344649999999999901e+00 1.522624768419900965e-01
1.334699999999999953e+01 5.660199999999999676e+00 3.183599999999999852e+01 7.407201999999999842e+00 -2.934196711514635014e-01
1.334900000000000020e+01 1.621099999999999852e+01 2.360600000000000165e+01 -1.091539000000000037e+01 3.098674827702790902e-02
1.334900000000000020e+01 2.048700000000000188e+00 3.434300000000000352e+01 1.312809999999999988e+01 -2.932837920779552410e-01
1.334999999999999964e+01 4.276500000000000057e+01 3.083399999999999963e+01 -4.021283999999999637e+00 -2.494356210465883961e-01
1.335100000000000087e+01 7.219199999999999839e+00 4.720900000000000318e+01 -2.104474000000000089e+01 -6.981057077935221011e-02
1.335200000000000031e+01 1.044400000000000084e+01 2.464000000000000057e+01 -1.139358999999999966e+01 -2.979141961010387529e-01
1.335200000000000031e+01 3.871600000000000108e+01 5.228199999999999648e+01 -1.786299000000000081e+00 -2.031817101182871732e-01
1.335899999999999999e+01 3.722500000000000142e+01 3.122299999999999898e+01 -3.591603999999999908e-01 -2.856620727750474042e-01
1.336200000000000010e+01 3.914200000000000301e+01 5.155899999999999750e+01 -2.943967999999999918e+00 -2.022729665608836436e-01
1.336400000000000077e+01 5.435100000000000264e+00 4.140800000000000125e+01 -1.130089000000000077e+01 -8.239218796272876344e-02
1.336500000000000021e+01 4.851200000000000045e+01 3.633400000000000318e+01 -9.660244000000000497e+00 -3.764795018471114862e-01
1.336700000000000088e+01 3.871500000000000341e+01 5.074699999999999989e+01 -9.884320000000000661e+00 -2.025410468578043854e-01
1.336999999999999922e+01 4.607900000000000063e+01 7.090300000000000580e+01 2.628586999999999918e+01 -2.029798860466229260e-01
1.336999999999999922e+01 3.706199999999999761e+01 3.659599999999999653e+01 -3.734928000000000026e+00 -1.876648517585323139e-01
1.337100000000000044e+01 2.441600000000000037e+01 6.717400000000000659e+01 -4.269112999999999936e+00 8.917229592928896387e-02
1.337100000000000044e+01 2.462500000000000000e+01 6.790999999999999659e+01 -2.913351000000000024e+00 8.942463705470665714e-02
1.337199999999999989e+01 3.915800000000000125e+01 5.303900000000000148e+01 3.167174000000000156e+00 -2.029101716205575223e-01
1.337199999999999989e+01 4.002400000000000091e+01 5.153300000000000125e+01 -3.320953999999999962e+00 -2.009992910554963819e-01
1.337199999999999989e+01 4.002400000000000091e+01 5.303900000000000148e+01 -4.060975000000000001e+00 -2.017925368558522725e-01
1.337299999999999933e+01 3.580000000000000071e+00 4.566100000000000136e+01 -1.444828000000000001e+00 -6.690965152399627747e-02
1.337299999999999933e+01 5.280000000000000249e+00 4.566100000000000136e+01 -3.995375000000000121e+00 -6.791360280452522769e-02
1.337299999999999933e+01 4.792799999999999727e+01 5.645300000000000296e+01 -1.996899000000000157e+01 -1.964020334559791470e-01
1.337800000000000011e+01 1.414000000000000057e+01 2.278500000000000014e+01 -3.177760000000000140e+00 -2.223839534582184307e-01
1.338199999999999967e+01 6.046999999999999709e+00 4.167000000000000171e+01 -7.440255999999999759e+00 -8.304607710987257918e-02
1.338299999999999912e+01 3.703000000000000114e+01 3.203000000000000114e+01 1.866662999999999961e+00 -2.825791784513370652e-01
1.338299999999999912e+01 3.703000000000000114e+01 3.307999999999999829e+01 3.561659000000000130e+00 -2.794630841135384292e-01
1.338599999999999923e+01 4.367799999999999727e+01 5.439900000000000091e+01 -1.296843999999999930e+01 -1.984723694851154019e-01
1.339199999999999946e+01 4.747399999999999665e+01 3.522699999999999676e+01 -1.733220000000000027e+01 -2.655301803970216978e-01
1.339300000000000068e+01 3.609799999999999898e+01 3.818999999999999773e+01 -5.719666000000000139e+00 -1.996322188860578106e-01
1.339300000000000068e+01 4.582500000000000284e+01 3.196999999999999886e+01 -3.507089999999999819e+00 -2.534735520082155302e-01
1.339499999999999957e+01 4.497099999999999653e+01 5.518999999999999773e+01 -1.188677999999999990e+01 -1.978118982935890835e-01
1.339600000000000080e+01 3.182000000000000028e+01 6.917199999999999704e+01 1.787255999999999956e+00 9.388461601694944592e-02
1.339700000000000024e+01 2.381400000000000006e+01 6.174099999999999966e+01 7.252391000000000254e+00 8.747947815406047212e-02
1.339899999999999913e+01 2.475900000000000034e+01 6.852100000000000080e+01 -3.038111999999999924e+00 8.958992102333199203e-02
1.340000000000000036e+01 2.464799999999999969e+01 7.025799999999999557e+01 -7.432587999999999973e+00 8.978320349713631021e-02
1.341000000000000014e+01 1.079100000000000037e+01 3.144999999999999929e+01 1.198850000000000016e+01 -3.026575324694548152e-01
1.341099999999999959e+01 3.604500000000000171e+01 3.910600000000000165e+01 -5.260829000000000200e+00 -2.015126637484623839e-01
1.341200000000000081e+01 3.149299999999999855e+01 3.805899999999999750e+01 -1.858389000000000024e+01 1.162617893276506331e-01
1.341200000000000081e+01 2.960100000000000176e+00 3.438799999999999812e+01 7.589805000000000135e+00 -2.939127457198739135e-01
1.341200000000000081e+01 9.579700000000000770e+00 4.474099999999999966e+01 -2.768810000000000215e+00 -7.076231452776063358e-02
1.341499999999999915e+01 1.745599999999999952e+01 5.624600000000000222e+01 -2.384832000000000107e+01 1.009398976892286193e-01
1.342300000000000004e+01 5.120300000000000296e+01 5.194800000000000040e+01 1.346061000000000063e-01 -3.809758562589898867e-01
1.342300000000000004e+01 5.141199999999999903e+01 5.121200000000000330e+01 4.253544999999999909e+00 -3.808758456225026512e-01
1.342300000000000004e+01 5.141199999999999903e+01 5.268399999999999750e+01 4.058276000000000217e+00 -2.810587232745074826e-01
1.342800000000000082e+01 4.007399999999999807e+01 4.913700000000000045e+01 8.566951999999999900e-01 -1.993842448241331111e-01
1.342800000000000082e+01 4.093999999999999773e+01 4.913700000000000045e+01 -2.065853000000000161e+00 -1.979262150918034702e-01
1.342800000000000082e+01 3.582999999999999829e+01 3.743099999999999739e+01 -5.071925000000000239e+00 -2.004300544537409023e-01
1.342800000000000082e+01 4.485699999999999932e+01 6.883599999999999852e+01 2.053622000000000014e+01 -2.031156078758549199e-01
1.343099999999999916e+01 4.032699999999999818e+01 5.072699999999999676e+01 -2.161532999999999927e-01 -2.001424375279001744e-01
1.343099999999999916e+01 4.032699999999999818e+01 5.233899999999999864e+01 -4.157649000000000150e+00 -2.011182637209965041e-01
1.343099999999999916e+01 3.836099999999999710e+01 6.148100000000000165e+01 6.154524999999999579e+00 1.003295071752614565e-01
1.343099999999999916e+01 3.836099999999999710e+01 6.234700000000000131e+01 3.038694000000000006e+00 9.994340379002446262e-02
1.343099999999999916e+01 2.322299999999999898e+01 2.593100000000000094e+01 9.526923000000000030e+00 1.594150126087420516e-01
1.343299999999999983e+01 1.012100000000000044e+01 2.751000000000000156e+01 -7.780846999999999625e+00 -2.942937348816808685e-01
1.343299999999999983e+01 4.127700000000000102e+01 5.756799999999999784e+01 -5.755499000000000365e+00 -2.023800960788305348e-01
1.343699999999999939e+01 2.453800000000000026e+01 6.930599999999999739e+01 -4.286166999999999838e+00 8.957116905675886753e-02
1.344100000000000072e+01 3.733100000000000307e+01 3.603699999999999903e+01 -2.627822000000000102e+00 -1.834481244456329097e-01
1.344200000000000017e+01 7.365499999999999936e+00 4.226200000000000045e+01 -3.762513999999999914e+00 -8.453434937928049064e-02
1.344500000000000028e+01 1.252899999999999991e+01 5.413100000000000023e+01 1.792324999999999946e+01 1.055396573490882950e-01
1.344599999999999973e+01 4.538000000000000256e+00 2.932000000000000028e+01 -2.469697999999999993e+01 -2.882207632334470859e-01
1.344800000000000040e+01 4.048700000000000188e+01 6.760599999999999454e+01 -4.706817000000000029e+00 9.933347696046343489e-02
1.345100000000000051e+01 5.142099999999999937e+01 5.447800000000000153e+01 8.604631999999999836e-01 -1.929181090036164725e-01
1.345100000000000051e+01 1.322100000000000009e+01 2.349599999999999866e+01 -4.163952000000000098e+00 -2.134626316589255668e-01
1.345199999999999996e+01 4.740299999999999869e+01 3.350600000000000023e+01 -1.665153000000000105e+01 -2.606578155764340265e-01
1.345500000000000007e+01 4.711800000000000210e+01 3.278900000000000148e+01 -1.959290999999999983e+01 -2.580737989342912209e-01
1.345500000000000007e+01 4.723400000000000176e+01 3.438600000000000279e+01 -2.953304999999999936e+01 -2.633257356856162357e-01
1.346199999999999974e+01 5.232699999999999818e+01 3.742000000000000171e+01 -2.359160000000000146e+00 -2.708585128323491298e-01
1.346199999999999974e+01 1.015399999999999991e+01 2.539699999999999847e+01 -1.254504000000000019e+01 -2.884900854464089170e-01
1.346199999999999974e+01 1.036299999999999955e+01 2.830499999999999972e+01 -3.000363999999999809e+00 -2.968463370544672797e-01
1.346499999999999986e+01 4.184400000000000119e+01 5.707600000000000051e+01 -7.313723000000000418e+00 -2.017073219165702869e-01
1.346499999999999986e+01 6.366999999999999993e+00 4.653900000000000148e+01 -1.205854000000000070e+01 -6.901446228335743338e-02
1.346599999999999930e+01 4.395900000000000318e+01 3.138299999999999912e+01 -7.405554999999999666e+00 -2.509672540163304655e-01
1.346700000000000053e+01 3.042000000000000171e+01 6.917199999999999704e+01 -3.788755000000000095e+00 9.300783816492916301e-02
1.347400000000000020e+01 2.581899999999999906e+01 7.117400000000000659e+01 -3.687310000000000088e+01 9.048990604876995525e-02
1.347499999999999964e+01 5.340400000000000347e+01 4.376899999999999835e+01 5.923719000000000179e+00 -3.796315324275266745e-01
1.347600000000000087e+01 4.054399999999999693e+01 5.765299999999999869e+01 6.555026999999999937e+00 -2.031178384920521718e-01
1.347700000000000031e+01 2.394300000000000139e+01 6.269899999999999807e+01 3.289773999999999976e+00 8.780904525929185411e-02
1.348300000000000054e+01 9.211299999999999599e+00 4.389099999999999824e+01 1.585808000000000106e+00 -7.012047968775977913e-02
1.348900000000000077e+01 5.438699999999999868e+00 5.317099999999999937e+01 1.032339999999999947e+01 -7.039634927114965524e-02
1.348900000000000077e+01 4.468699999999999894e-01 5.356499999999999773e+01 -6.402641000000000027e+00 -6.846269813223256062e-02
1.349099999999999966e+01 3.615899999999999892e+01 3.667099999999999937e+01 -4.377233000000000374e+00 -1.965790058366564119e-01
1.349200000000000088e+01 1.566399999999999970e+01 2.275700000000000145e+01 -4.324784000000000184e+00 -2.153078690071634771e-01
1.349499999999999922e+01 1.976200000000000045e+01 2.676999999999999957e+01 -1.600842000000000098e+01 1.856695007416252485e-01
1.349600000000000044e+01 2.173399999999999999e+00 4.773299999999999699e+01 -6.776349999999999874e+00 -6.717696689877217242e-02
1.349799999999999933e+01 1.649399999999999977e+01 2.442399999999999949e+01 -1.362857999999999947e+01 3.210309004515599085e-02
1.349900000000000055e+01 4.919100000000000250e+01 5.542099999999999937e+01 -1.071059999999999945e+01 -1.949528354197369862e-01
1.349900000000000055e+01 4.522599999999999909e+01 6.968600000000000705e+01 2.489784999999999826e+01 -2.031553590940141374e-01
1.350099999999999945e+01 3.989699999999999847e+01 7.414000000000000057e+01 -1.219090999999999925e+00 9.734309500323704012e-02
1.350399999999999956e+01 2.553900000000000148e+01 2.987900000000000134e+01 -1.334281999999999968e+00 3.334191889203348691e-02
1.350699999999999967e+01 3.985900000000000176e+01 4.963300000000000267e+01 4.251803000000000110e-01 -2.002566338271953017e-01
1.350799999999999912e+01 5.580499999999999972e+01 4.538600000000000279e+01 -1.772061000000000108e+00 -3.800433531187271674e-01
1.350999999999999979e+01 2.209700000000000131e+01 5.781499999999999773e+01 9.785527000000000530e-01 8.372038898410068611e-03
1.351099999999999923e+01 5.453699999999999903e+01 4.452700000000000102e+01 -1.801862999999999992e+00 -3.798376543298513930e-01
1.351900000000000013e+01 2.435099999999999909e+01 5.857600000000000051e+01 1.268121000000000009e+01 8.683732508155750374e-02
1.351900000000000013e+01 2.435099999999999909e+01 6.004800000000000182e+01 1.819309000000000065e+00 8.733832310949372901e-02
1.351900000000000013e+01 2.455999999999999872e+01 5.931199999999999761e+01 6.370165000000000077e+00 8.729045806764365589e-02
1.352599999999999980e+01 3.736099999999999710e+01 3.058800000000000097e+01 -6.856417999999999680e-01 -2.909930710802681730e-01
1.352999999999999936e+01 8.751799999999999358e+00 4.310300000000000153e+01 -3.694122000000000128e+00 -6.934444941710152244e-02
1.353200000000000003e+01 5.413499999999999801e+01 4.839699999999999847e+01 9.573194000000000869e+00 -3.804558050935574198e-01
1.353299999999999947e+01 5.244200000000000017e+01 4.024300000000000210e+01 -4.233605999999999980e+00 -3.787324252544829184e-01
1.353299999999999947e+01 5.244200000000000017e+01 4.110799999999999699e+01 -4.981897000000000020e+00 -3.789602516066670201e-01
1.353500000000000014e+01 5.074600000000000222e+01 5.471699999999999875e+01 2.673077000000000147e+00 -1.935328171172132905e-01
1.353800000000000026e+01 7.209999999999999742e-01 4.937700000000000244e+01 -4.950268000000000335e+00 -6.722539751832293242e-02
1.353800000000000026e+01 9.480100000000000193e-01 4.857800000000000296e+01 -4.297577999999999676e+00 -6.700080822016310500e-02
1.353999999999999915e+01 3.936800000000000210e+01 5.910799999999999699e+01 1.914780000000000015e+01 -2.045902026259301676e-01
1.353999999999999915e+01 4.805600000000000094e+00 4.069700000000000273e+01 -5.692543999999999826e+00 -8.139222354656973357e-02
1.354100000000000037e+01 1.053800000000000026e+01 4.622099999999999653e+01 -1.117693000000000048e+01 1.869416846301221735e-01
1.354299999999999926e+01 2.361299999999999955e+01 2.663800000000000168e+01 -1.015631999999999913e+01 1.707867848121763787e-01
1.354299999999999926e+01 2.361299999999999955e+01 2.759600000000000009e+01 -3.948187000000000069e+01 2.390782434676139850e-02
1.354299999999999926e+01 5.350800000000000267e+01 4.991599999999999682e+01 -2.140125999999999973e+00 -3.806697591073939235e-01
1.354599999999999937e+01 2.714000000000000057e+01 7.184600000000000364e+01 -3.171090999999999838e+01 9.121543430315534606e-02
1.354599999999999937e+01 2.866000000000000014e+01 7.184600000000000364e+01 -8.622950000000000159e+01 9.201186600410089789e-02
1.354599999999999937e+01 3.112900000000000134e+01 3.744700000000000273e+01 -8.878768000000000882e+00 1.143529537379005534e-01
1.354700000000000060e+01 3.929800000000000182e+01 5.996600000000000108e+01 1.527694999999999936e+01 -2.048169705482150993e-01
1.354700000000000060e+01 1.104700000000000060e+01 2.371099999999999852e+01 -1.333051000000000030e+01 -2.955867042857560634e-01
1.354800000000000004e+01 4.332499999999999574e+00 3.962400000000000233e+01 -2.804486999999999952e+00 -2.988320287376557416e-01
1.355000000000000071e+01 3.482300000000000040e+01 4.016499999999999915e+01 -5.265263000000000027e+00 1.300133216212522036e-01
1.355000000000000071e+01 4.130799999999999983e+01 7.493200000000000216e+01 -1.833312999999999970e+00 9.775449529453936193e-02
1.355100000000000016e+01 1.103599999999999959e+01 5.073700000000000188e+01 -3.011821000000000126e+01 1.854788416905861215e-01
1.355599999999999916e+01 4.007399999999999807e+01 4.723400000000000176e+01 -1.095983999999999980e+01 -1.979197621644593341e-01
1.355599999999999916e+01 4.093900000000000006e+01 4.723400000000000176e+01 -1.423361000000000054e+01 -1.962108491908218511e-01
1.355700000000000038e+01 2.506200000000000117e+01 3.051899999999999835e+01 8.369117000000000361e-01 1.901572502446426810e-02
1.355700000000000038e+01 4.389900000000000091e+01 6.875600000000000023e+01 1.185561000000000043e+01 -2.036078922005680469e-01
1.356600000000000072e+01 5.426800000000000068e+01 4.741199999999999903e+01 7.364701000000000164e+00 -3.803132809055775887e-01
1.356900000000000084e+01 1.632700000000000173e+01 5.510799999999999699e+01 -9.161227000000000231e+00 1.018611203866797849e-01
1.356900000000000084e+01 1.080199999999999960e+01 4.471800000000000352e+01 -3.658195000000000086e+00 1.870137057616741705e-01
1.357000000000000028e+01 2.133399999999999963e+01 3.108800000000000097e+01 7.774119000000000446e-01 -1.778927720893353718e-03
1.357099999999999973e+01 5.547599999999999909e+01 4.462599999999999767e+01 -1.604314000000000018e+00 -3.799109165882589290e-01
1.357300000000000040e+01 4.195000000000000284e+01 6.748600000000000421e+01 -2.967360999999999915e+00 -2.043674033843937143e-01
1.357600000000000051e+01 1.370000000000000107e+00 5.361899999999999977e+01 -4.702473999999999599e+00 -6.881598291506321741e-02
1.357699999999999996e+01 4.522099999999999653e+01 7.212199999999999989e+01 6.814453000000000316e+01 -2.036326708304526389e-01
1.358099999999999952e+01 3.596299999999999830e+00 3.266599999999999682e+01 -1.303028999999999993e+00 -2.924049810991388720e-01
1.358300000000000018e+01 2.235900000000000176e+01 2.579799999999999827e+01 1.530198000000000036e+01 1.259421346648893769e-01
1.358300000000000018e+01 2.235900000000000176e+01 2.843599999999999994e+01 3.137162999999999968e+01 4.146281465949394228e-04
1.358699999999999974e+01 3.313900000000000290e+01 4.064099999999999824e+01 -4.912557999999999758e+00 1.179020435959089175e-01
1.358699999999999974e+01 3.400399999999999778e+01 4.064099999999999824e+01 -5.300716999999999679e+00 1.230290714672042929e-01
1.358999999999999986e+01 2.102899999999999991e+01 2.651599999999999824e+01 -4.795162000000000369e+00 9.822525934080474086e-02
1.359699999999999953e+01 7.524399999999999977e+00 3.349799999999999756e+01 -1.702565000000000106e+00 -2.979758961657783534e-01
1.360500000000000043e+01 3.150200000000000222e-01 3.440699999999999648e+01 7.632443999999999562e+00 -2.923961462459277461e-01
1.360500000000000043e+01 3.150200000000000222e-01 3.595700000000000074e+01 5.071990999999999872e+01 -2.937528935049987244e-01
1.360500000000000043e+01 1.272999999999999909e+00 3.440699999999999648e+01 3.507164999999999822e+01 -2.928379113689824065e-01
1.360500000000000043e+01 2.095200000000000173e+01 2.946499999999999986e+01 -1.876963999999999899e+01 -1.021802052427722360e-02
1.360500000000000043e+01 2.095200000000000173e+01 3.033099999999999952e+01 2.946944999999999837e+01 -6.846787362164164122e-03
1.360800000000000054e+01 4.236599999999999966e+01 5.470499999999999829e+01 -1.169593000000000060e+01 -2.002304080794377605e-01
1.360800000000000054e+01 5.319700000000000273e+01 3.811500000000000199e+01 -1.192231000000000041e+00 -2.721342695074780993e-01
1.360899999999999999e+01 1.001099999999999923e+01 4.664099999999999824e+01 -9.819594999999999629e+00 1.876311734059410985e-01
1.360899999999999999e+01 9.867399999999999949e+00 5.003699999999999903e+01 -2.312008000000000152e+01 1.869539732633700990e-01
1.360899999999999999e+01 9.867399999999999949e+00 5.143699999999999761e+01 -3.694219999999999970e+01 1.866828647559379550e-01
1.360899999999999999e+01 1.073300000000000054e+01 5.003699999999999903e+01 -2.665126000000000062e+01 1.859827109317902238e-01
1.360899999999999999e+01 1.073300000000000054e+01 5.143699999999999761e+01 -3.924848999999999677e+01 1.857821507057079435e-01
1.361400000000000077e+01 3.977000000000000313e+01 4.793399999999999750e+01 -3.184336000000000055e+00 -1.992966243595670761e-01
1.361400000000000077e+01 4.124199999999999733e+01 4.793399999999999750e+01 -1.538475000000000037e+01 -1.965509606703985390e-01
1.361800000000000033e+01 8.474899999999999878e+00 4.796500000000000341e+01 -2.542875000000000085e+01 -7.094578174956209238e-02
1.362100000000000044e+01 3.696099999999999941e+00 3.438799999999999812e+01 -7.709375999999999785e+00 -2.944240077130617639e-01
1.362199999999999989e+01 4.370100000000000051e+01 7.465399999999999636e+01 -1.524512999999999963e+01 -2.045875075037470181e-01
1.362199999999999989e+01 4.336099999999999710e+01 6.827800000000000580e+01 4.565062000000000175e+00 -2.038120534297008513e-01
1.362400000000000055e+01 3.855299999999999727e+01 2.956599999999999895e+01 1.485680000000000056e-01 -2.921394955810419081e-01
1.362700000000000067e+01 4.919100000000000250e+01 3.747800000000000153e+01 -5.459874000000000116e+00 -3.772955007240085812e-01
1.362700000000000067e+01 5.059100000000000108e+01 3.747800000000000153e+01 -3.784416999999999920e+00 -3.775701881877225330e-01
1.363199999999999967e+01 2.064399999999999835e+01 5.706099999999999994e+01 -3.117170000000000130e+01 6.693274713255180537e-03
1.363599999999999923e+01 1.380000000000000071e+01 5.410199999999999676e+01 4.144788000000000139e+00 1.043794183370961581e-01
1.363700000000000045e+01 1.851599999999999824e+01 2.605000000000000071e+01 1.967222999999999944e+00 5.636780548030693311e-02
1.363899999999999935e+01 6.131899999999999906e+00 3.260000000000000142e+01 -8.527393999999999252e+00 -2.949139681459859719e-01
1.363899999999999935e+01 3.931999999999999940e+00 5.321699999999999875e+01 -1.359815999999999914e+00 -6.975183287298623858e-02
1.364000000000000057e+01 3.959100000000000108e+01 5.072699999999999676e+01 -1.675470999999999933e+00 -2.015909564813434529e-01
1.364000000000000057e+01 3.959100000000000108e+01 5.233899999999999864e+01 -2.565798000000000023e+00 -2.023974008250603585e-01
1.364000000000000057e+01 1.639499999999999957e+00 3.655100000000000193e+01 3.584577000000000169e+01 -2.949238915736392963e-01
1.364100000000000001e+01 4.596099999999999852e+01 5.561800000000000210e+01 -1.055752000000000024e+01 -1.975129163847655911e-01
1.364300000000000068e+01 1.102800000000000047e+01 4.548899999999999721e+01 -7.257516999999999996e+00 1.865613678025253575e-01
1.364499999999999957e+01 4.357699999999999818e+01 7.010899999999999466e+01 1.439329000000000036e+01 -2.040288980614511360e-01
1.364600000000000080e+01 5.314399999999999835e+01 5.028000000000000114e+01 -5.225564000000000320e+00 -3.807302235759576492e-01
1.365399999999999991e+01 3.048000000000000043e+00 5.350699999999999790e+01 -2.988669999999999938e+00 -6.944900785305230251e-02
1.366000000000000014e+01 2.401699999999999946e+01 3.250900000000000034e+01 -1.013687000000000005e+01 -8.724060683384356543e-03
1.366000000000000014e+01 9.236000000000000654e+00 5.707699999999999818e+01 6.372453000000000145e-01 1.864531321953175058e-01
1.366200000000000081e+01 1.715899999999999892e+01 5.592600000000000193e+01 -1.451730000000000054e+01 1.012625342201130679e-01
1.366300000000000026e+01 1.045199999999999996e+01 3.230100000000000193e+01 1.972980000000000089e+01 -3.025738983208751121e-01
1.366499999999999915e+01 3.285099999999999909e+01 3.982699999999999818e+01 -5.721725000000000172e+00 1.192288790672848958e-01
1.366600000000000037e+01 4.500699999999999790e+01 7.012800000000000011e+01 2.708990999999999971e+01 -2.034116403894124792e-01
1.366600000000000037e+01 4.206300000000000239e+01 5.540500000000000114e+01 -8.700079000000000562e+00 -2.009623748195753234e-01
1.366999999999999993e+01 -2.088299999999999879e-02 3.518200000000000216e+01 4.695054999999999978e+01 -2.929383662605323235e-01
1.366999999999999993e+01 4.521699999999999875e+01 3.182199999999999918e+01 -3.546149999999999913e+00 -2.539696718497184147e-01
1.367099999999999937e+01 2.260699999999999932e+01 3.239099999999999824e+01 -2.948135999999999868e+01 2.786114352120045434e-01
1.367099999999999937e+01 4.522299999999999898e+01 7.072400000000000375e+01 3.181506999999999863e+01 -2.034305961105259686e-01
1.367200000000000060e+01 5.334700000000000131e+01 4.295600000000000307e+01 1.824427000000000021e+01 -3.794833206213247268e-01
1.367600000000000016e+01 4.722800000000000153e+01 5.639399999999999835e+01 -1.324621999999999922e+01 -1.971054397231647437e-01
1.367900000000000027e+01 2.527499999999999858e+00 3.508800000000000097e+01 2.629615000000000080e+01 -2.942172808594291089e-01
1.367900000000000027e+01 3.392700000000000049e+00 3.508800000000000097e+01 1.841236999999999924e+01 -2.948523714620747138e-01
1.367999999999999972e+01 3.536200000000000010e+00 3.360499999999999687e+01 -1.542503999999999920e+01 -2.934326581471464745e-01
1.368200000000000038e+01 1.077399999999999913e+01 5.665599999999999881e+01 2.466769999999999996e+01 1.070459223486278644e-01
1.368299999999999983e+01 9.164099999999999469e+00 4.950900000000000034e+01 -1.532380999999999993e+01 1.879162014565957939e-01
1.368399999999999928e+01 5.532200000000000450e-01 5.017000000000000171e+01 -7.866837000000000302e+00 -6.746389482449588471e-02
1.368399999999999928e+01 1.478200000000000003e+01 5.461399999999999721e+01 -7.939960000000000129e+00 1.034338915463511449e-01
1.368599999999999994e+01 5.170700000000000074e+01 3.714000000000000057e+01 -5.347419000000000366e+00 -2.705328579820126533e-01
1.369699999999999918e+01 4.233500000000000085e+01 5.609799999999999898e+01 -7.369002000000000052e-01 -2.010529044256494091e-01
1.369999999999999929e+01 5.177100000000000080e+01 5.333100000000000307e+01 -1.070191999999999943e+01 -2.813402575536201877e-01
1.370199999999999996e+01 3.367499999999999716e+01 7.312500000000000000e+01 7.900975999999999555e-01 9.452540710179097028e-02
1.370199999999999996e+01 3.392900000000000205e+01 7.223099999999999454e+01 4.301710000000000256e-01 9.473285137965112290e-02
1.370199999999999996e+01 3.392900000000000205e+01 7.401900000000000546e+01 7.158301000000000247e-01 9.457658338544036591e-02
1.370199999999999996e+01 3.413799999999999812e+01 7.149500000000000455e+01 4.164238000000000106e-01 9.491580537991647915e-02
1.370199999999999996e+01 3.537500000000000000e+01 7.482500000000000284e+01 3.330458999999999747e+01 9.517611778713772064e-02
1.370299999999999940e+01 5.401400000000000290e+01 4.969200000000000017e+01 -2.075765999999999778e+00 -3.806492547592454367e-01
1.370400000000000063e+01 5.318500000000000227e+01 3.913300000000000267e+01 -4.236475999999999686e+00 -3.785761317519469871e-01
1.370400000000000063e+01 7.860699999999999577e+00 5.615599999999999881e+01 1.732533000000000101e+00 1.876189902987091540e-01
1.370700000000000074e+01 3.788000000000000256e+01 7.372299999999999898e+01 3.635007000000000232e+01 9.647026190957186387e-02
1.370700000000000074e+01 3.928000000000000114e+01 7.372299999999999898e+01 -8.350816000000000017e+00 9.710234710257278912e-02
1.370800000000000018e+01 2.410900000000000176e+01 6.065500000000000114e+01 5.620872999999999564e+00 8.720956703516860586e-02
1.371199999999999974e+01 9.380900000000000460e+00 5.068900000000000006e+01 -1.622173000000000087e+01 1.874312306470546363e-01
1.371199999999999974e+01 2.286299999999999955e+01 5.786500000000000199e+01 1.015548000000000073e+01 8.902820633926266172e-03
1.371199999999999974e+01 1.209699999999999953e+01 5.483100000000000307e+01 6.566576999999999487e+01 1.060702860153729388e-01
1.371400000000000041e+01 3.939000000000000057e+01 5.857699999999999818e+01 -2.505808000000000035e+00 -2.046175865688258655e-01
1.371400000000000041e+01 4.825999999999999623e+00 3.178600000000000136e+01 4.643836000000000297e+00 -2.922573320832310140e-01
1.371599999999999930e+01 4.318699999999999761e+01 3.144200000000000017e+01 -5.751962999999999937e+00 -2.554344555302615061e-01
1.372600000000000087e+01 5.272999999999999687e+01 3.727499999999999858e+01 -2.000379999999999825e+00 -2.711141961369867293e-01
1.372700000000000031e+01 8.785700000000000287e+00 4.866700000000000159e+01 -2.145329999999999870e+01 1.886125487188793359e-01
1.372700000000000031e+01 3.299099999999999966e+01 6.961299999999999955e+01 -2.935915000000000052e-01 9.444200050951015446e-02
1.372899999999999920e+01 -1.300000000000000044e-01 5.380899999999999750e+01 -2.448514000000000124e+01 -6.834828661327731203e-02
1.373600000000000065e+01 9.858000000000000540e+00 4.392300000000000182e+01 -1.664660999999999946e+00 -7.079947287551319191e-02
1.374499999999999922e+01 5.630299999999999727e+01 4.506799999999999784e+01 -5.454551999999999623e+00 -3.800428284040275884e-01
1.374600000000000044e+01 3.733599999999999852e+01 3.396300000000000097e+01 3.001514999999999933e+00 -2.784299386347802718e-01
1.374799999999999933e+01 5.322399999999999665e+01 4.204399999999999693e+01 4.583341999999999672e+01 -3.792853798575215873e-01
1.375099999999999945e+01 6.992300000000000182e+00 5.501500000000000057e+01 4.320637999999999757e+00 1.885051644851109542e-01
1.375300000000000011e+01 4.433200000000000074e+01 6.968600000000000705e+01 1.192010999999999932e+01 -2.036696494429643123e-01
1.375399999999999956e+01 1.252100000000000080e+01 2.355399999999999849e+01 -1.773941999999999908e+01 -3.030083120988308898e-01
1.375799999999999912e+01 2.647700000000000031e+01 2.892599999999999838e+01 3.695539000000000129e+00 5.358812140383582140e-02
1.375799999999999912e+01 2.743499999999999872e+01 2.892599999999999838e+01 2.284331999999999852e+01 3.928124952230567513e-02
1.376099999999999923e+01 1.886700000000000088e+01 5.702400000000000091e+01 -6.600757000000000119e+01 1.000131913269307338e-01
1.376399999999999935e+01 2.606100000000000083e+00 4.703300000000000125e+01 -4.744104000000000099e+00 -6.709459808394516167e-02
1.376399999999999935e+01 3.126500000000000057e+01 3.577700000000000102e+01 1.548347000000000051e+01 1.242023239220691189e-01
1.376800000000000068e+01 -1.359699999999999909e+00 5.204599999999999937e+01 -7.053994999999999571e+00 -6.743051399977853522e-02
1.376800000000000068e+01 -1.359699999999999909e+00 5.298599999999999710e+01 -8.476293000000000077e+00 -6.771856457978521482e-02
1.376999999999999957e+01 2.364600000000000080e+01 6.634699999999999420e+01 -3.906232000000000149e+00 8.836783098966687067e-02
1.377299999999999969e+01 3.187699999999999889e+01 3.885499999999999687e+01 -2.108321999999999807e+00 1.151923057884352425e-01
1.377500000000000036e+01 2.881400000000000006e+01 3.259799999999999898e+01 5.758005999999999958e+00 -1.082833338443695177e-02
1.377599999999999980e+01 1.620700000000000029e+00 3.514900000000000091e+01 3.987205999999999761e+01 -2.936827279138164437e-01
1.378400000000000070e+01 6.519199999999999662e+00 4.694200000000000017e+01 -1.006809999999999938e+01 -6.932338383534668302e-02
1.378400000000000070e+01 1.176600000000000001e+01 4.467199999999999704e+01 -8.187998999999999583e+00 1.857878912830336349e-01
1.378800000000000026e+01 1.197400000000000020e+01 5.574300000000000210e+01 5.507459999999999667e+01 1.061734427188688185e-01
1.378899999999999970e+01 2.158099999999999952e+01 3.153900000000000148e+01 -1.380796999999999919e+01 2.816082122042360969e-01
1.379899999999999949e+01 6.835300000000000153e+00 4.177600000000000335e+01 7.016610000000000014e+00 -8.385969980697752235e-02
1.380899999999999928e+01 9.059599999999999653e+00 3.328900000000000148e+01 -4.033917999999999893e+00 -3.004269458394023262e-01
1.381199999999999939e+01 4.205299999999999727e+01 3.058500000000000085e+01 -9.242703999999999590e-04 -2.575471507635951895e-01
1.381600000000000072e+01 3.393399999999999750e+01 7.076500000000000057e+01 -1.803946000000000049e+00 9.484466931019291946e-02
1.382199999999999918e+01 2.169200000000000017e+01 2.849200000000000088e+01 1.498399999999999999e+01 -1.092491780856526609e-02
1.382300000000000040e+01 2.777100000000000080e+01 2.970100000000000051e+01 1.014945000000000022e+02 1.233427019661102395e-02
1.382300000000000040e+01 4.050600000000000023e+01 4.793399999999999750e+01 -5.094270999999999994e+00 -1.983052855241458079e-01
1.382399999999999984e+01 2.342699999999999960e+01 6.534499999999999886e+01 -4.701856000000000257e+00 8.797002996959188414e-02
1.382399999999999984e+01 2.365399999999999991e+01 6.454600000000000648e+01 -1.574033999999999933e+00 8.791967150926677244e-02
1.382399999999999984e+01 2.386299999999999955e+01 6.381000000000000227e+01 5.470599999999999907e-01 8.787440512913395618e-02
1.382399999999999984e+01 4.796500000000000341e+01 3.562299999999999756e+01 -2.514544000000000068e+01 -2.673945372189878156e-01
1.382699999999999996e+01 3.057199999999999918e+00 3.863700000000000045e+01 -8.439503000000000199e+00 -2.973042776153675959e-01
1.382799999999999940e+01 2.879300000000000193e+00 4.613400000000000034e+01 -2.446152000000000104e+00 -6.680970853442928792e-02
1.382799999999999940e+01 3.659300000000000352e+01 3.608100000000000307e+01 -7.451679999999999637e+00 -1.939104716959127728e-01
1.382799999999999940e+01 3.090599999999999881e+01 3.255899999999999750e+01 1.418518000000000079e+01 1.410602247355177696e-01
1.383000000000000007e+01 1.006499999999999950e+01 3.304500000000000171e+01 -5.345781999999999812e+00 -3.022867964286591880e-01
1.383200000000000074e+01 1.109399999999999942e+01 3.154799999999999827e+01 1.087485999999999997e+01 -3.036403290293158697e-01
1.383500000000000085e+01 2.922800000000000153e+01 7.114700000000000557e+01 -5.550679000000000229e+01 9.220528637447900078e-02
1.384099999999999930e+01 6.399399999999999977e+00 3.321300000000000097e+01 -1.282815000000000083e+01 -2.959605033931381191e-01
1.384200000000000053e+01 1.146299999999999919e+01 4.397200000000000131e+01 -3.192276999999999809e+00 1.865855485002412828e-01
1.384399999999999942e+01 2.948600000000000065e+01 7.035399999999999920e+01 -2.247475000000000023e+01 9.232955740174088322e-02
1.384399999999999942e+01 3.534499999999999886e+01 3.937299999999999756e+01 -5.864149000000000278e+00 1.371465845525194349e-01
1.384600000000000009e+01 4.010300000000000153e+01 2.918299999999999983e+01 -3.334169000000000160e-01 -2.792908117017161018e-01
1.384600000000000009e+01 4.154899999999999949e+01 2.998900000000000077e+01 -9.998200999999999894e-01 -2.597231338394386801e-01
1.385100000000000087e+01 3.788600000000000279e+01 2.973799999999999955e+01 -2.523162999999999934e-01 -2.996203507955504941e-01
1.385399999999999920e+01 4.284100000000000108e+01 7.010899999999999466e+01 9.962357000000000795e+00 -2.044586270520002969e-01
1.385399999999999920e+01 4.532500000000000284e+01 7.149399999999999977e+01 2.540528000000000119e+01 -2.036025088691676144e-01
1.385500000000000043e+01 5.190299999999999869e+01 5.081600000000000250e+01 -1.172661000000000087e+01 -3.808429182968702253e-01
1.385999999999999943e+01 1.906200000000000117e+01 2.661400000000000077e+01 -1.626487999999999934e+00 4.466162410256682008e-02
1.385999999999999943e+01 5.331000000000000405e+00 4.118299999999999983e+01 -3.330541000000000196e+00 -8.224701375115242574e-02
1.386200000000000010e+01 5.966899999999999871e+00 5.385300000000000153e+01 5.779378000000000348e+00 -7.081639050180515982e-02
1.386800000000000033e+01 7.702700000000000102e+00 4.802400000000000091e+01 -1.632898000000000138e+01 -7.048880948490474085e-02
1.386800000000000033e+01 3.981000000000000227e+01 6.755100000000000193e+01 -6.728835000000000122e+00 9.883258898451963148e-02
1.387199999999999989e+01 3.228099999999999881e+01 3.347999999999999687e+01 2.182456999999999869e+00 1.694140102575704965e-01
1.387199999999999989e+01 3.228099999999999881e+01 3.453000000000000114e+01 1.273183000000000042e+01 1.544658929510234757e-01
1.387299999999999933e+01 4.097699999999999676e+01 5.716199999999999903e+01 1.872457999999999956e+01 -2.029368372681216726e-01
1.387500000000000000e+01 2.787000000000000099e+01 3.060699999999999932e+01 9.158255000000000479e+00 -1.194161524708497318e-02
1.388299999999999912e+01 4.419299999999999784e+01 7.067700000000000671e+01 7.144256000000000384e+00 -2.039559204267228087e-01
1.388599999999999923e+01 3.689600000000000080e+01 3.538100000000000023e+01 -2.852109000000000005e+00 -1.888053927576241187e-01
1.388599999999999923e+01 9.690500000000000114e+00 4.319100000000000250e+01 -3.740156999999999954e+00 -7.037589913592429136e-02
1.388799999999999990e+01 4.665999999999999659e+01 3.223700000000000188e+01 -5.245524999999999771e+00 -2.573620894861639585e-01
1.388799999999999990e+01 4.211800000000000210e+01 7.500199999999999534e+01 7.224103000000000385e+00 -2.053125274098848985e-01
1.389199999999999946e+01 8.428100000000000591e+00 4.950900000000000034e+01 -3.771282999999999674e+01 1.889041206275518525e-01
1.389199999999999946e+01 2.792899999999999849e+01 7.201399999999999579e+01 -7.626695999999999742e+01 9.152811916142826465e-02
1.389300000000000068e+01 3.185699999999999932e+01 6.906399999999999295e+01 5.396984999999999921e+00 9.373956587213769232e-02
1.389499999999999957e+01 5.590999999999999659e+01 4.431300000000000239e+01 -2.719081000000000081e+00 -3.799186232167979793e-01
1.389799999999999969e+01 4.429999999999999716e+00 4.533599999999999852e+01 -3.600014999999999965e+00 -6.728381900838367735e-02
1.389799999999999969e+01 5.876100000000000101e+00 4.614200000000000301e+01 -1.306534000000000084e+00 -6.858981344111066136e-02
