3.426500000000000057e+01 5.899900000000000233e+01 4.810099999999999909e+01 -4.579241999999999813e+00 8.458838740083715613e-02
3.428099999999999881e+01 4.278499999999999659e+01 1.734400000000000119e+01 3.621614999999999807e+00 -1.724348999927280413e-01
3.428099999999999881e+01 4.430499999999999972e+01 1.734400000000000119e+01 -9.168117000000000072e-01 -1.729310879883310670e-01
3.429500000000000171e+01 5.011699999999999733e+01 5.101599999999999824e+01 9.655321000000000708e+00 -3.865878373461031914e-02
3.429999999999999716e+01 6.079999999999999716e+01 2.454200000000000159e+01 -5.910112999999999950e+00 -1.047179196652611027e-02
3.430100000000000193e+01 5.452700000000000102e+01 2.004299999999999926e+01 2.397259999999999991e+01 -2.050469474515168589e-01
3.430199999999999960e+01 6.267399999999999949e+01 2.400700000000000145e+01 -1.983020000000000138e+01 -1.071699521423282939e-02
3.430799999999999983e+01 6.164900000000000091e+01 1.847500000000000142e+01 8.254709000000000074e+00 -8.735937840891166636e-03
3.431400000000000006e+01 4.449600000000000222e+01 4.198599999999999710e+01 -1.138791999999999938e+01 -1.871491985091849053e-01
3.431700000000000017e+01 4.505100000000000193e+01 4.178399999999999892e+01 -6.838048999999999822e+00 1.135747470322966413e-01
3.432399999999999807e+01 6.088900000000000290e+01 2.993199999999999861e+01 -1.449779999999999980e+01 -1.392563807105169638e-02
3.433100000000000307e+01 3.864200000000000301e+01 3.300399999999999778e+01 4.432470000000000021e-01 -1.681685508356564884e-01
3.433800000000000097e+01 3.992399999999999949e+01 3.158999999999999986e+01 1.223690000000000033e+01 -1.700429565273889332e-01
3.433899999999999864e+01 5.304399999999999693e+01 5.295000000000000284e+01 4.011108000000000118e+01 4.254945130930189168e-02
3.433899999999999864e+01 6.850799999999999557e+01 4.152499999999999858e+01 -1.206628000000000078e+01 -1.871566978933150716e-01
3.434799999999999898e+01 4.817999999999999972e+01 1.809299999999999997e+01 9.132982999999999407e+00 -2.071644521639941505e-01
3.434799999999999898e+01 4.988000000000000256e+01 1.809299999999999997e+01 1.395490000000000030e+01 -2.065461211270031572e-01
3.435499999999999687e+01 6.222099999999999653e+01 4.271900000000000119e+01 1.547406999999999933e+01 8.198643251864325132e-02
3.435900000000000176e+01 6.023100000000000165e+01 3.028500000000000014e+01 -1.910416000000000025e+01 -1.402354135696890283e-02
3.436500000000000199e+01 5.885199999999999676e+01 5.763600000000000279e+01 -2.879929000000000183e+00 -2.144848694784499410e-01
3.436500000000000199e+01 5.885199999999999676e+01 5.850200000000000244e+01 -2.017186000000000146e+00 -2.129845632101467212e-01
3.436800000000000210e+01 3.882900000000000063e+01 3.036899999999999977e+01 1.754909999999999926e+01 -1.692199239410649980e-01
3.438300000000000267e+01 5.018599999999999994e+01 5.286599999999999966e+01 1.454627999999999943e+01 1.401431313098799522e-02
3.438900000000000290e+01 6.238199999999999790e+01 4.197599999999999909e+01 1.103866999999999976e+01 8.092209910117675875e-02
3.439200000000000301e+01 6.837000000000000455e+01 4.240500000000000114e+01 -5.499507999999999619e+00 -1.870933731146216250e-01
3.439500000000000313e+01 6.095499999999999829e+01 2.677799999999999869e+01 3.145887000000000100e+01 -1.152059538593748315e-02
3.439699999999999847e+01 3.962100000000000222e+01 3.089000000000000057e+01 1.354537999999999975e+01 -1.698491853505203208e-01
3.440400000000000347e+01 6.974399999999999977e+01 3.518900000000000006e+01 -2.367186999999999930e+00 8.597951677639348311e-02
3.440599999999999881e+01 4.523700000000000188e+01 4.773499999999999943e+01 2.101557000000000031e+01 3.098269020474567204e-01
3.440899999999999892e+01 6.394800000000000040e+01 4.426299999999999812e+01 -2.760546999999999862e+00 9.195687882195954788e-02
3.440999999999999659e+01 6.518699999999999761e+01 1.980000000000000071e+01 4.359691999999999901e+00 -9.761085495778424465e-03
3.441299999999999670e+01 4.477199999999999847e+01 4.377700000000000102e+01 1.003200999999999965e+01 1.156354271166328135e-01
3.441400000000000148e+01 6.039300000000000068e+01 1.808200000000000074e+01 3.537059000000000175e+00 -8.233362566483869507e-03
3.441899999999999693e+01 6.383299999999999841e+01 3.376599999999999824e+01 -4.163269999999999804e+00 -1.776693249671599389e-02
3.442699999999999960e+01 5.156099999999999994e+01 5.378699999999999903e+01 2.520973000000000042e+01 6.323381764172933406e-02
3.443599999999999994e+01 3.980299999999999727e+01 3.225399999999999778e+01 5.146506999999999721e+00 -1.697567543707713955e-01
3.443699999999999761e+01 6.031900000000000261e+01 5.528900000000000148e+01 -1.921567000000000025e+00 -2.206647048297846747e-01
3.443900000000000006e+01 6.555100000000000193e+01 2.061299999999999955e+01 5.254883999999999666e+00 -1.003364110468421035e-02
3.443900000000000006e+01 5.006400000000000006e+01 5.189999999999999858e+01 9.861860999999999322e+00 -2.629777024057356610e-02
3.443900000000000006e+01 5.389900000000000091e+01 2.022500000000000142e+01 2.504505999999999943e+01 -2.051309817250566159e-01
3.443900000000000006e+01 7.001500000000000057e+01 3.442199999999999704e+01 -3.012744999999999784e+00 8.549358897746794916e-02
3.444500000000000028e+01 6.415500000000000114e+01 2.400499999999999901e+01 -5.288359999999999950e+00 -1.087464581279754330e-02
3.445000000000000284e+01 6.217300000000000182e+01 3.362500000000000000e+01 -4.754054000000000002e+00 -1.764915348289073163e-02
3.445199999999999818e+01 6.085600000000000165e+01 4.205199999999999960e+01 2.298992999999999842e+00 7.542439972624655209e-02
3.446000000000000085e+01 5.732800000000000296e+01 1.983399999999999963e+01 8.036867000000000871e+00 -2.040512777108211273e-01
3.446399999999999864e+01 3.693399999999999750e+01 3.376599999999999824e+01 -2.124753999999999809e+00 -2.770737524676348262e-01
3.446600000000000108e+01 6.810299999999999443e+01 4.427700000000000102e+01 -6.609404000000000678e+01 -1.869156967002880143e-01
3.447500000000000142e+01 4.202700000000000102e+01 2.215099999999999980e+01 7.279033000000000087e+00 -1.721148721854254271e-01
3.447500000000000142e+01 5.661899999999999977e+01 2.079599999999999937e+01 1.222054999999999936e+01 -2.041973676794211490e-01
3.447699999999999676e+01 4.157099999999999795e+01 4.117999999999999972e+01 1.474871999999999961e+00 -1.745741511176785998e-01
3.449000000000000199e+01 4.662800000000000011e+01 4.679899999999999949e+01 3.090316999999999936e+01 2.908830051308341491e-01
3.449499999999999744e+01 4.580700000000000216e+01 1.868199999999999861e+01 8.938793999999999684e+00 -1.734840623864550013e-01
3.449499999999999744e+01 4.720700000000000074e+01 1.868199999999999861e+01 9.098278999999999783e+00 -2.074774972736607437e-01
3.450000000000000000e+01 6.951000000000000512e+01 3.840400000000000347e+01 -1.758607999999999905e+01 -5.134569103633236827e-03
3.450399999999999778e+01 6.872100000000000364e+01 3.364699999999999847e+01 -3.314972000000000030e+00 -5.616868205372490402e-02
3.450399999999999778e+01 6.967900000000000205e+01 3.364699999999999847e+01 -3.092553999999999803e+00 -5.566235946662804329e-02
3.450399999999999778e+01 6.180599999999999739e+01 4.201899999999999835e+01 1.073922999999999917e+01 7.909334199603297588e-02
3.450500000000000256e+01 6.687300000000000466e+01 4.510000000000000142e+01 -8.356543000000000632e+01 -1.873965862842688623e-01
3.450600000000000023e+01 5.522500000000000142e+01 5.239000000000000057e+01 7.759322000000000052e+00 3.440849437809141015e-02
3.450699999999999790e+01 4.284300000000000352e+01 2.023100000000000165e+01 1.830017000000000138e+01 -1.724569324705075846e-01
3.450699999999999790e+01 4.284300000000000352e+01 2.109600000000000009e+01 1.295608000000000004e+01 -1.724674717440444760e-01
3.450699999999999790e+01 6.823699999999999477e+01 4.335300000000000153e+01 -1.644456999999999880e+01 -1.869916459339482917e-01
3.450999999999999801e+01 6.569700000000000273e+01 2.390500000000000114e+01 -2.792037999999999798e+00 -1.110318026150239161e-02
3.450999999999999801e+01 5.089300000000000068e+01 4.772999999999999687e+01 2.861924000000000134e+00 -3.594888561991160802e-02
3.450999999999999801e+01 5.110199999999999676e+01 4.846600000000000108e+01 8.132452000000000680e+00 -3.448204736095462214e-02
3.451500000000000057e+01 6.580200000000000671e+01 2.133999999999999986e+01 8.098309999999999675e+00 -1.021871242762520046e-02
3.451599999999999824e+01 4.280100000000000193e+01 4.200300000000000011e+01 -2.615026999999999902e+01 -1.814120301345475972e-01
3.452100000000000080e+01 6.374099999999999966e+01 1.890299999999999869e+01 5.510036000000000378e+00 -9.086006704349589708e-03
3.452300000000000324e+01 6.022599999999999909e+01 3.380899999999999750e+01 -5.922564999999999635e+00 -1.761311936930267871e-02
3.452400000000000091e+01 6.976000000000000512e+01 3.618299999999999983e+01 -1.407778999999999892e+00 8.727087253365278796e-02
3.452600000000000335e+01 4.581499999999999773e+01 4.184899999999999665e+01 -3.965241999999999933e+00 1.067106299863565810e-01
3.452900000000000347e+01 6.940500000000000114e+01 4.001899999999999835e+01 -3.478674999999999784e+01 -1.869732258874781672e-01
3.452900000000000347e+01 6.963200000000000500e+01 3.921999999999999886e+01 -4.397632000000000119e+01 -1.869854559172519637e-01
3.452900000000000347e+01 4.362299999999999756e+01 4.928000000000000114e+01 2.479786000000000001e+01 3.372449078751566520e-01
3.453300000000000125e+01 5.943200000000000216e+01 4.494100000000000250e+01 -1.482503999999999955e+01 8.988016125573351778e-03
3.453300000000000125e+01 5.943200000000000216e+01 4.740100000000000335e+01 -6.803771000000000413e+01 8.464688567583225631e-02
3.453499999999999659e+01 6.305499999999999972e+01 5.393399999999999750e+01 -3.876180999999999699e+01 -1.891431912070047072e-01
3.453699999999999903e+01 5.803999999999999915e+01 4.339399999999999835e+01 1.377459999999999951e+01 3.401698542450668460e-03
3.453699999999999903e+01 5.824900000000000233e+01 4.265800000000000125e+01 -8.607245999999999952e+00 3.298677314591558392e-03
3.453699999999999903e+01 5.824900000000000233e+01 4.413000000000000256e+01 9.851079000000000363e+00 4.792701092693438768e-03
3.453699999999999903e+01 5.943999999999999773e+01 4.199399999999999977e+01 -1.481963000000000008e+01 5.484547648124674796e-03
3.454299999999999926e+01 6.310699999999999932e+01 5.291100000000000136e+01 -2.001163999999999987e+01 -1.893952685873740716e-01
3.454699999999999704e+01 5.565400000000000347e+01 5.736999999999999744e+01 9.450189999999999202e+00 -1.558218062679317117e-01
3.454699999999999704e+01 5.586299999999999955e+01 5.663400000000000034e+01 8.501540000000000319e+00 -1.629131097289365504e-01
3.454999999999999716e+01 6.585899999999999466e+01 3.459899999999999665e+01 -2.344560999999999851e+01 -5.836577390009697192e-02
3.454999999999999716e+01 3.742799999999999727e+01 3.627199999999999847e+01 -5.302697000000000216e+00 -1.641848518474083862e-01
3.454999999999999716e+01 5.188000000000000256e+01 2.067000000000000171e+01 2.491843000000000075e+01 -2.057787258805706399e-01
3.454999999999999716e+01 5.328000000000000114e+01 2.067000000000000171e+01 2.417952999999999975e+01 -2.052483112911872021e-01
3.455100000000000193e+01 6.958700000000000330e+01 3.734700000000000131e+01 -3.856393000000000182e+00 -7.205075427547327424e-03
3.456199999999999761e+01 6.446500000000000341e+01 3.410900000000000176e+01 -6.672968000000000011e+00 -1.775551927274763783e-02
3.456900000000000261e+01 5.496000000000000085e+01 2.074299999999999855e+01 2.736308000000000007e+01 -2.046394914707590773e-01
3.456900000000000261e+01 4.236899999999999977e+01 4.748199999999999932e+01 3.065941000000000027e+00 1.328061899302472593e-01
3.456900000000000261e+01 4.236899999999999977e+01 4.843999999999999773e+01 3.525002999999999886e+00 1.188365915027102399e-01
3.456900000000000261e+01 4.487700000000000244e+01 4.843999999999999773e+01 5.302532000000000068e+01 3.110216325599720055e-01
3.457000000000000028e+01 6.343299999999999983e+01 2.404200000000000159e+01 -7.941132999999999775e+00 -1.053768804436573496e-02
3.457000000000000028e+01 4.987299999999999756e+01 4.677499999999999858e+01 -8.412537000000000376e+00 8.249336954666917909e-02
3.457200000000000273e+01 4.070400000000000063e+01 2.228699999999999903e+01 6.255971999999999866e+00 -1.714911491892325557e-01
3.457300000000000040e+01 4.368699999999999761e+01 4.608599999999999852e+01 3.795303999999999789e+00 1.336478986108287637e-01
3.457600000000000051e+01 4.151100000000000279e+01 4.024099999999999966e+01 1.523756000000000022e+01 -1.734287793617245166e-01
3.457699999999999818e+01 6.290899999999999892e+01 4.107099999999999795e+01 7.058766000000000318e+00 8.100899503329414553e-02
3.457699999999999818e+01 5.860999999999999943e+01 6.385999999999999943e+01 1.029595999999999911e+01 -2.584786508177761705e-02
3.458200000000000074e+01 4.815899999999999892e+01 4.618800000000000239e+01 9.591573999999999600e+00 2.788237305270838684e-01
3.458299999999999841e+01 4.458899999999999864e+01 4.101899999999999835e+01 -1.119050000000000011e+01 -1.845030732754620040e-01
3.458299999999999841e+01 4.545499999999999829e+01 4.101899999999999835e+01 -3.691844999999999821e+00 1.105631303576296853e-01
3.458400000000000318e+01 4.551200000000000045e+01 4.254899999999999949e+01 1.751411999999999836e+01 1.086168669113599938e-01
3.459400000000000119e+01 4.408500000000000085e+01 4.125200000000000244e+01 -3.122435000000000116e+01 -1.838057170932745066e-01
3.459700000000000131e+01 5.572099999999999653e+01 6.054899999999999949e+01 -8.172036999999999551e+00 -1.828147323341214880e-01
3.459799999999999898e+01 3.744700000000000273e+01 3.350600000000000023e+01 -5.193324000000000273e-01 -2.777272220579891093e-01
3.459799999999999898e+01 5.608200000000000074e+01 6.380599999999999739e+01 6.014438000000000173e+00 -7.705560575081892016e-03
3.460799999999999699e+01 6.541299999999999670e+01 4.476899999999999835e+01 -1.688626999999999967e+01 -9.053843724795776482e-02
3.461200000000000188e+01 5.971900000000000119e+01 4.995400000000000063e+01 2.295949999999999847e+01 -9.192187293126648229e-02
3.461399999999999721e+01 6.250699999999999790e+01 5.181400000000000006e+01 -1.265431000000000061e+01 -1.905244660424663117e-01
3.461699999999999733e+01 3.613600000000000279e+01 3.442199999999999704e+01 -4.402606000000000019e-01 -2.764571564390502223e-01
3.461999999999999744e+01 6.167499999999999716e+01 3.383500000000000085e+01 -4.835285999999999973e+00 -1.749123186281774031e-02
3.462299999999999756e+01 3.832500000000000284e+01 3.740299999999999869e+01 -1.922123000000000026e-01 -1.647690883282962870e-01
3.463300000000000267e+01 3.791400000000000148e+01 2.728500000000000014e+01 -3.754369000000000067e+00 -2.776112401164247956e-01
3.463799999999999812e+01 5.846600000000000108e+01 1.617399999999999949e+01 4.036659000000000219e+00 -2.038538831614252478e-01
3.464800000000000324e+01 5.858599999999999852e+01 4.832999999999999829e+01 -4.579241999999999813e+00 8.376952236034576615e-02
3.464800000000000324e+01 5.858599999999999852e+01 4.919599999999999795e+01 2.375506999999999813e+00 8.896877161869173878e-02
3.465100000000000335e+01 6.159799999999999898e+01 5.022200000000000131e+01 8.448632999999999171e+00 -8.952695381759873117e-02
3.465299999999999869e+01 3.763799999999999812e+01 2.814900000000000091e+01 -1.179734999999999978e+00 -2.775373356533082925e-01
3.465400000000000347e+01 3.624600000000000222e+01 3.537400000000000233e+01 -3.574100000000000055e-01 -2.765618353955589526e-01
3.465500000000000114e+01 5.373299999999999699e+01 5.236299999999999955e+01 2.286028999999999911e+01 2.988388528316642673e-02
3.465500000000000114e+01 6.449800000000000466e+01 4.452400000000000091e+01 -1.612935999999999837e+01 -9.100645121632998380e-02
3.465599999999999881e+01 6.194899999999999807e+01 4.127600000000000335e+01 1.010932999999999993e+01 7.831403687414655035e-02
3.466899999999999693e+01 5.571300000000000097e+01 6.295600000000000307e+01 4.607889000000000124e+00 1.575556573146218164e-02
3.467600000000000193e+01 6.351500000000000057e+01 4.356300000000000239e+01 -8.685980000000000700e+00 8.893355481562362219e-02
3.467699999999999960e+01 6.351599999999999824e+01 4.189300000000000068e+01 1.885483000000000020e-01 8.467620160978980848e-02
3.467699999999999960e+01 5.723599999999999710e+01 1.699699999999999989e+01 3.667470999999999925e+00 -2.040534576006418077e-01
3.467699999999999960e+01 5.969599999999999795e+01 1.699699999999999989e+01 -7.786645000000000039e+00 -7.587801003656182916e-03
3.467999999999999972e+01 3.868200000000000216e+01 3.820600000000000307e+01 6.863198000000000354e-01 -1.648001706349125073e-01
3.468099999999999739e+01 5.595799999999999841e+01 6.210999999999999943e+01 4.862318000000000140e+00 3.877184721121458566e-02
3.468200000000000216e+01 5.572399999999999665e+01 5.308500000000000085e+01 -3.190024999999999888e+00 -1.621739034668384927e-01
3.468599999999999994e+01 6.325800000000000267e+01 4.268599999999999994e+01 -2.809649000000000174e-01 8.578816545284290163e-02
3.468800000000000239e+01 4.938100000000000023e+01 4.634499999999999886e+01 1.210970000000000102e+00 2.699680346857490920e-01
3.469200000000000017e+01 4.215899999999999892e+01 1.940800000000000125e+01 3.577007000000000048e+00 -1.721776601944686735e-01
3.469299999999999784e+01 6.181199999999999761e+01 2.742500000000000071e+01 -3.590421999999999780e+00 -1.160442507550555127e-02
3.469400000000000261e+01 6.207399999999999807e+01 2.829899999999999949e+01 -5.337531000000000247e+00 -1.222586668430545101e-02
3.469500000000000028e+01 5.751899999999999835e+01 1.910000000000000142e+01 5.040475999999999956e+00 -2.038407033435193083e-01
3.469599999999999795e+01 6.123199999999999932e+01 2.405099999999999838e+01 -1.991077999999999903e+01 -9.763174528589917828e-03
3.470100000000000051e+01 5.691400000000000148e+01 6.394299999999999784e+01 5.969260000000000232e+00 -6.755451109360040111e-03
3.470300000000000296e+01 3.937100000000000222e+01 3.295400000000000063e+01 2.250188000000000077e+00 -1.689923421718532437e-01
3.471800000000000352e+01 6.170900000000000318e+01 2.928099999999999881e+01 -4.931132999999999988e+00 -1.278242657959506937e-02
3.472399999999999665e+01 5.600999999999999801e+01 6.129299999999999926e+01 2.987572999999999812e+00 -1.851159437009941844e-01
3.472599999999999909e+01 4.004200000000000159e+01 3.912199999999999989e+01 -4.223290999999999684e+00 -1.680449256667896074e-01
3.473199999999999932e+01 6.010000000000000142e+01 2.480900000000000105e+01 -5.694780000000000397e-01 -9.689651675416462856e-03
3.473199999999999932e+01 6.010000000000000142e+01 2.567399999999999949e+01 3.309600999999999971e+01 -1.008735908986669975e-02
3.473299999999999699e+01 4.517600000000000193e+01 4.315200000000000102e+01 1.068612000000000073e+01 1.115772493350192934e-01
3.473700000000000188e+01 5.095900000000000318e+01 4.964300000000000068e+01 1.354439999999999955e+01 -3.839289288036649983e-02
3.473700000000000188e+01 5.116799999999999926e+01 4.890699999999999648e+01 8.963286999999999338e+00 -3.601478738753967346e-02
3.474300000000000210e+01 4.246000000000000085e+01 2.145100000000000051e+01 8.277328000000000685e+00 -1.722862336659411464e-01
3.474799999999999756e+01 5.136399999999999721e+01 2.024800000000000111e+01 2.316554999999999964e+01 -2.057583771345680435e-01
3.475000000000000000e+01 5.726200000000000045e+01 1.827299999999999969e+01 1.667456999999999967e+00 -2.039134641943670945e-01
3.475099999999999767e+01 4.225200000000000244e+01 1.777499999999999858e+01 1.255169999999999897e+00 -1.722235301882024949e-01
3.475099999999999767e+01 4.354500000000000171e+01 1.705399999999999849e+01 4.900608000000000075e+00 -1.726487399720151861e-01
3.475099999999999767e+01 4.483800000000000097e+01 1.777499999999999858e+01 -1.732996999999999943e+01 -1.730904986783622646e-01
3.475099999999999767e+01 3.996000000000000085e+01 2.281299999999999883e+01 4.446038999999999852e+00 -1.710868202998916954e-01
3.475900000000000034e+01 5.534400000000000119e+01 5.796999999999999886e+01 9.297024999999999650e+00 -1.485720196102418567e-01
3.476299999999999812e+01 4.128699999999999903e+01 3.941400000000000148e+01 5.647606999999999822e+00 -1.720875591143278260e-01
3.477400000000000091e+01 5.565800000000000125e+01 5.395499999999999829e+01 -1.147157999999999944e+01 -2.774279696407951912e-01
3.477799999999999869e+01 3.838900000000000290e+01 2.971000000000000085e+01 2.360425000000000217e+00 -1.689394929556109204e-01
3.477900000000000347e+01 4.132699999999999818e+01 2.221000000000000085e+01 4.274712000000000067e+00 -1.717636068493368362e-01
3.478499999999999659e+01 6.099099999999999966e+01 4.135600000000000165e+01 5.173422000000000409e+00 7.507256934066472431e-02
3.478799999999999670e+01 6.298299999999999699e+01 3.369500000000000028e+01 -3.027349000000000068e+00 -1.688215934691094169e-02
3.479099999999999682e+01 5.979299999999999926e+01 3.310900000000000176e+01 -8.647750999999999522e+00 -1.591928240423443747e-02
3.479200000000000159e+01 4.905899999999999750e+01 1.765800000000000125e+01 1.020378000000000007e+01 -2.064091643295822287e-01
3.479399999999999693e+01 5.517099999999999937e+01 5.899900000000000233e+01 3.837451000000000167e+00 -1.356421098025464012e-01
3.480700000000000216e+01 6.378499999999999659e+01 4.090999999999999659e+01 5.431230000000000224e-01 8.349999824570672469e-02
3.480799999999999983e+01 4.755400000000000205e+01 1.844999999999999929e+01 1.079371000000000080e+01 -2.070209636472538917e-01
3.481300000000000239e+01 6.191899999999999693e+01 2.410000000000000142e+01 -2.698075000000000045e+01 -9.799680890336009628e-03
3.481600000000000250e+01 6.111399999999999721e+01 1.821999999999999886e+01 1.072278999999999982e+01 -7.972740527945224726e-03
3.482099999999999795e+01 5.084899999999999665e+01 1.940800000000000125e+01 1.742492000000000019e+01 -2.058421751829031532e-01
3.482200000000000273e+01 6.000000000000000000e+01 4.564000000000000057e+01 -1.868001999999999896e+01 8.130108508688740909e-02
3.482200000000000273e+01 6.000000000000000000e+01 4.670199999999999818e+01 -4.125730000000000075e+01 8.552101320864415046e-02
3.482500000000000284e+01 6.304099999999999682e+01 1.884499999999999886e+01 8.108005000000000351e+00 -8.564985434915965007e-03
3.482500000000000284e+01 5.959599999999999653e+01 5.733400000000000318e+01 -5.434168999999999805e+00 -2.203909668157009727e-01
3.482600000000000051e+01 5.518800000000000239e+01 5.972399999999999665e+01 -1.608066999999999913e+00 -1.283269214617770992e-01
3.482900000000000063e+01 4.032099999999999795e+01 3.115700000000000003e+01 5.660605000000000331e+01 -1.704250422365369277e-01
3.482900000000000063e+01 4.032099999999999795e+01 3.202199999999999847e+01 9.901795999999999154e+00 -1.703032613390098871e-01
3.483299999999999841e+01 4.436899999999999977e+01 4.503999999999999915e+01 4.206611999999999796e+00 1.208736141124082258e-01
3.483400000000000318e+01 5.961099999999999710e+01 5.640800000000000125e+01 -4.668224999999999625e+00 -2.210318761335553217e-01
3.484400000000000119e+01 6.247599999999999909e+01 4.037100000000000222e+01 -3.297728000000000215e+00 7.865040009771037677e-02
3.485600000000000165e+01 5.924900000000000233e+01 5.806900000000000261e+01 -1.007962000000000025e+01 -2.185884631441581405e-01
3.486500000000000199e+01 4.284799999999999898e+01 4.921500000000000341e+01 1.093848000000000020e+01 9.331517516449476524e-02
3.486500000000000199e+01 4.439800000000000324e+01 4.921500000000000341e+01 6.540859000000000378e+01 3.078255629996066167e-01
3.486500000000000199e+01 6.348199999999999932e+01 4.021000000000000085e+01 -4.832144999999999690e+00 8.139092041548413869e-02
3.486899999999999977e+01 3.893999999999999773e+01 2.651099999999999923e+01 -7.706539999999999502e-01 -1.700520243379496921e-01
3.487299999999999756e+01 5.047599999999999909e+01 1.857400000000000162e+01 1.737112000000000123e+01 -2.058896221257679460e-01
3.487599999999999767e+01 4.278900000000000148e+01 4.647800000000000153e+01 3.065326999999999913e+00 -2.038383198461068968e-01
3.487899999999999778e+01 3.789600000000000080e+01 2.892500000000000071e+01 -2.177636999999999823e+00 -2.779094778692050571e-01
3.488000000000000256e+01 6.235099999999999909e+01 1.865800000000000125e+01 1.937750000000000128e+01 -8.292583721901327851e-03
3.489000000000000057e+01 3.927799999999999869e+01 2.351899999999999835e+01 3.536370999999999931e+00 -1.706676458396282903e-01
3.489000000000000057e+01 5.045400000000000063e+01 4.721600000000000108e+01 2.457262000000000057e+00 8.042235535622375975e-02
3.490200000000000102e+01 5.913499999999999801e+01 6.196000000000000085e+01 9.690274000000000498e+00 -2.101610426330212944e-01
3.490200000000000102e+01 5.913499999999999801e+01 6.300999999999999801e+01 8.189453000000000316e+00 -2.082208567181812187e-01
3.490800000000000125e+01 5.591899999999999693e+01 2.106299999999999883e+01 1.599611999999999945e+01 -2.039851921838323201e-01
3.490800000000000125e+01 5.710999999999999943e+01 2.039900000000000091e+01 7.819107999999999947e+00 -2.036748581311212669e-01
3.490800000000000125e+01 5.103600000000000136e+01 5.319100000000000250e+01 2.611574999999999847e+01 2.582916991994061925e-02
3.490800000000000125e+01 5.208599999999999852e+01 5.319100000000000250e+01 2.252817999999999898e+01 3.561751975207958637e-02
3.490899999999999892e+01 4.604200000000000159e+01 4.759499999999999886e+01 2.634121999999999986e+01 2.894427446974722762e-01
3.491499999999999915e+01 5.901899999999999835e+01 4.763000000000000256e+01 -1.036637999999999948e+01 8.390416891776412978e-02
3.491499999999999915e+01 5.901899999999999835e+01 4.989600000000000080e+01 -2.869870000000000143e+00 -9.275500621591173389e-02
3.492199999999999704e+01 6.623499999999999943e+01 4.470600000000000307e+01 -5.132327999999999690e+01 -1.876953292235633008e-01
3.492300000000000182e+01 6.097399999999999665e+01 3.383500000000000085e+01 -5.806955999999999563e+00 -1.665215596203475923e-02
3.492900000000000205e+01 5.282999999999999829e+01 5.249099999999999966e+01 2.703502999999999901e+01 2.405424639556431876e-02
3.492900000000000205e+01 4.001800000000000068e+01 3.063299999999999912e+01 2.314020999999999972e+01 -1.701805802977323645e-01
3.493500000000000227e+01 6.459099999999999397e+01 1.931899999999999906e+01 5.000454999999999650e+00 -8.926305085794606492e-03
3.493599999999999994e+01 6.734300000000000352e+01 4.456700000000000017e+01 -5.491535999999999973e+01 -1.871122999261302655e-01
3.493800000000000239e+01 4.200500000000000256e+01 1.870799999999999841e+01 5.760561000000000043e+00 -1.721119774936091529e-01
3.493900000000000006e+01 6.217699999999999960e+01 5.093200000000000216e+01 -4.865775000000000183e+00 -1.909363644392732817e-01
3.493999999999999773e+01 3.789900000000000091e+01 3.694500000000000028e+01 -1.535857000000000028e+00 -1.642032046441139204e-01
3.494299999999999784e+01 6.920000000000000284e+01 3.310300000000000153e+01 -4.291733999999999938e+00 -5.494922278911967828e-02
3.494400000000000261e+01 3.671600000000000108e+01 3.367399999999999949e+01 -5.862001999999999491e-01 -2.774893498137450121e-01
3.494400000000000261e+01 3.671600000000000108e+01 3.613400000000000034e+01 -2.360672999999999799e+00 -2.776320606349227949e-01
3.494599999999999795e+01 5.775999999999999801e+01 6.393099999999999739e+01 6.443980999999999959e+00 -2.946852702738629939e-02
3.494599999999999795e+01 6.495799999999999841e+01 3.459199999999999875e+01 -4.211406000000000205e+00 -5.814828799076963983e-02
3.494700000000000273e+01 4.233100000000000307e+01 4.146999999999999886e+01 -8.074474000000000373e+00 -1.778942301311177976e-01
3.494700000000000273e+01 4.327100000000000080e+01 4.146999999999999886e+01 -3.123473999999999862e+01 -1.815308393758418015e-01
3.494700000000000273e+01 3.904599999999999937e+01 2.270400000000000063e+01 4.290827000000000169e+00 -1.706455774262861103e-01
3.494800000000000040e+01 5.950800000000000267e+01 3.135200000000000031e+01 -1.258876000000000062e+01 -1.348503185393976067e-02
3.494800000000000040e+01 5.971699999999999875e+01 3.061599999999999966e+01 -1.627026000000000039e+01 -1.284909250211105358e-02
3.494800000000000040e+01 5.971699999999999875e+01 3.208800000000000097e+01 -1.016400999999999932e+01 -1.430226926064440476e-02
3.495300000000000296e+01 5.919299999999999784e+01 5.863300000000000267e+01 -4.984592000000000134e+00 -2.181426356435379466e-01
3.496699999999999875e+01 5.770600000000000307e+01 1.623699999999999832e+01 4.795581999999999567e+00 -2.037787235721159607e-01
3.496699999999999875e+01 5.922599999999999909e+01 1.623699999999999832e+01 2.345451000000000175e+00 -2.034588273437245576e-01
3.496900000000000119e+01 5.902199999999999847e+01 6.031499999999999773e+01 4.266425999999999874e+01 -2.137725362599950107e-01
3.496999999999999886e+01 5.874000000000000199e+01 4.226100000000000279e+01 -3.420284999999999798e+01 3.412968018280969351e-03
3.496999999999999886e+01 5.874000000000000199e+01 4.452700000000000102e+01 -3.244186000000000014e-01 5.709306513902690297e-03
3.497299999999999898e+01 5.566499999999999915e+01 5.497599999999999909e+01 -1.599510999999999905e+00 -1.761160167715902503e-01
3.497299999999999898e+01 5.587400000000000233e+01 5.571200000000000330e+01 2.831561999999999912e+00 -1.711503675010772330e-01
3.498299999999999699e+01 5.257999999999999829e+01 2.093799999999999883e+01 2.073527999999999949e+01 -2.050716890310907980e-01
3.498299999999999699e+01 7.045399999999999352e+01 3.394299999999999784e+01 -2.987708000000000030e+00 -5.456470528202622683e-02
3.498299999999999699e+01 7.045399999999999352e+01 3.490100000000000335e+01 -7.575919999999999987e+00 -9.100791436312238511e-03
3.498400000000000176e+01 4.475099999999999767e+01 4.396500000000000341e+01 8.071232000000000184e+00 1.163189708925756322e-01
3.498799999999999955e+01 3.971500000000000341e+01 2.993299999999999983e+01 2.781831999999999994e+01 -1.700079974948693340e-01
3.498899999999999721e+01 6.492199999999999704e+01 2.420100000000000051e+01 2.572690000000000055e+01 -1.039725005395982296e-02
3.498899999999999721e+01 6.624099999999999966e+01 2.183599999999999852e+01 5.049815999999999860e+01 -9.919984287584072621e-03
3.498899999999999721e+01 6.624099999999999966e+01 2.346600000000000108e+01 -7.110053999999999874e+00 -1.045197168063739454e-02
3.498899999999999721e+01 6.647199999999999420e+01 2.265099999999999980e+01 5.531897000000000020e+01 -1.022982219194064693e-02
3.499900000000000233e+01 6.085600000000000165e+01 5.005100000000000193e+01 2.411741999999999919e+01 -9.016408386839132316e-02
3.500000000000000000e+01 6.053199999999999648e+01 2.410900000000000176e+01 -1.759591999999999956e+01 -9.104141881980228057e-03
3.500000000000000000e+01 6.053199999999999648e+01 2.637399999999999878e+01 3.069366000000000128e+01 -1.009489651116077594e-02
3.500099999999999767e+01 5.446900000000000119e+01 2.034600000000000009e+01 1.986918999999999969e+01 -2.043943206970228466e-01
3.500399999999999778e+01 6.057500000000000284e+01 1.780199999999999960e+01 4.073567999999999856e+00 -7.552586095862105602e-03
3.500699999999999790e+01 6.129899999999999949e+01 5.524799999999999756e+01 -7.756899999999999906e-01 -1.923455951973599976e-01
3.500999999999999801e+01 4.200200000000000244e+01 4.071000000000000085e+01 2.211280999999999963e+01 -1.754125126594231476e-01
3.501400000000000290e+01 4.557800000000000296e+01 4.803099999999999881e+01 1.326007000000000069e+01 2.920356481156381467e-01
3.501700000000000301e+01 4.618299999999999983e+01 4.135099999999999909e+01 -6.398950000000000138e+00 1.045887402677914968e-01
3.501700000000000301e+01 4.621200000000000330e+01 4.228199999999999648e+01 1.069687000000000054e+01 1.024191370223590941e-01
3.502000000000000313e+01 6.284700000000000131e+01 5.252000000000000313e+01 -1.783880999999999872e+01 -1.896688176571796336e-01
3.502600000000000335e+01 4.428999999999999915e+01 4.046999999999999886e+01 -4.330964999999999954e+00 -1.822524542395061731e-01
3.502600000000000335e+01 4.515599999999999881e+01 4.046999999999999886e+01 2.314357000000000042e+01 1.131749821726329985e-01
3.504200000000000159e+01 4.746000000000000085e+01 4.621800000000000352e+01 1.546397999999999939e+01 2.815382382960254781e-01
3.504500000000000171e+01 4.227000000000000313e+01 3.995100000000000051e+01 7.588716999999999757e+01 -1.755290656333691746e-01
3.504500000000000171e+01 5.635799999999999699e+01 6.304299999999999926e+01 7.939593999999999596e+00 1.695068967707272917e-02
3.505299999999999727e+01 6.265899999999999892e+01 5.433200000000000074e+01 -2.868287000000000120e+01 -1.893923848790715347e-01
3.505499999999999972e+01 3.852199999999999847e+01 2.691900000000000048e+01 -4.850162000000000084e-01 -1.696810634558983677e-01
3.505499999999999972e+01 6.894599999999999795e+01 4.052000000000000313e+01 -5.812718999999999880e+01 -1.869734351561780639e-01
3.506000000000000227e+01 6.010600000000000165e+01 4.172999999999999687e+01 -1.616941999999999879e+01 5.826454638797982401e-03
3.507999999999999829e+01 3.944100000000000250e+01 2.467699999999999960e+01 4.026892000000000138e+00 -1.705938430963964136e-01
3.508200000000000074e+01 5.443299999999999983e+01 5.176100000000000279e+01 1.792049000000000092e+01 2.060374611485278618e-02
3.508500000000000085e+01 5.067399999999999949e+01 5.241899999999999693e+01 1.519927999999999990e+01 -1.271953810698827313e-02
3.508899999999999864e+01 5.056900000000000261e+01 5.053300000000000125e+01 1.586691000000000074e+01 -4.864072290047415092e-02
3.508899999999999864e+01 5.056900000000000261e+01 5.158299999999999841e+01 1.302965999999999980e+01 -3.626293983820434025e-02
3.509000000000000341e+01 4.215800000000000125e+01 1.987000000000000099e+01 8.651704999999999757e+00 -1.721419464266667754e-01
3.509199999999999875e+01 5.881400000000000006e+01 6.127900000000000347e+01 2.716354000000000113e+01 -2.110420813861275668e-01
3.509700000000000131e+01 3.988799999999999812e+01 3.272200000000000131e+01 4.804676999999999865e+00 -1.695999535082250986e-01
3.509700000000000131e+01 6.149499999999999744e+01 4.054099999999999682e+01 1.997498999999999914e+00 7.590584986696438663e-02
3.510099999999999909e+01 6.267399999999999949e+01 2.423400000000000176e+01 -4.721343999999999852e+01 -9.637308019942456352e-03
3.510300000000000153e+01 4.196699999999999875e+01 3.925099999999999767e+01 1.505556999999999945e+01 -1.739473600808612297e-01
3.510900000000000176e+01 6.400600000000000023e+01 4.395900000000000318e+01 -1.954836999999999847e+01 -9.131653516560964134e-02
3.510900000000000176e+01 6.529900000000000659e+01 4.467999999999999972e+01 -4.813503000000000043e+01 -1.882026716262550914e-01
3.511099999999999710e+01 5.573400000000000176e+01 5.707999999999999829e+01 1.080640000000000001e+01 -1.598499404808026436e-01
3.511099999999999710e+01 5.594299999999999784e+01 5.634400000000000119e+01 5.721161999999999637e+00 -1.667114563435286856e-01
3.511299999999999955e+01 6.428199999999999648e+01 4.099600000000000222e+01 7.357313000000000436e+00 8.531819531889092700e-02
3.512100000000000222e+01 5.008100000000000307e+01 4.661200000000000188e+01 6.918538000000000465e-02 8.232687440469202422e-02
3.514500000000000313e+01 4.873100000000000165e+01 4.585099999999999909e+01 1.378838999999999970e+01 2.743674234278977164e-01
3.514600000000000080e+01 4.521699999999999875e+01 1.832100000000000151e+01 -5.645787000000000333e+00 -1.732168474667170055e-01
3.514600000000000080e+01 4.640800000000000125e+01 1.898499999999999943e+01 7.551400000000000112e+00 -3.114510914372433104e-01
3.516100000000000136e+01 5.345000000000000284e+01 5.171900000000000119e+01 2.651630000000000109e+01 1.321426414220008491e-02
3.516700000000000159e+01 4.450099999999999767e+01 4.459100000000000108e+01 3.279853000000000129e+00 1.196136733034031396e-01
3.516799999999999926e+01 6.302900000000000347e+01 5.343800000000000239e+01 -1.708276000000000039e+01 -1.889676351720449010e-01
3.516799999999999926e+01 6.391299999999999670e+01 4.232600000000000051e+01 -8.277139999999999276e+00 8.739680674285572881e-02
3.517499999999999716e+01 5.389900000000000091e+01 2.043400000000000105e+01 1.880105999999999966e+01 -2.044121035925461904e-01
3.517699999999999960e+01 6.365500000000000114e+01 4.315999999999999659e+01 -9.058877999999999986e+00 8.885274326042000292e-02
3.517699999999999960e+01 3.847500000000000142e+01 3.323299999999999699e+01 -1.543611000000000066e+00 -1.676469788622990398e-01
3.518900000000000006e+01 6.818300000000000693e+01 4.204999999999999716e+01 -3.268876000000000115e+00 -1.870410230804258334e-01
3.520100000000000051e+01 3.815200000000000102e+01 2.270400000000000063e+01 3.951097999999999999e+00 -2.777230636467987734e-01
3.520300000000000296e+01 4.230899999999999750e+01 2.033500000000000085e+01 1.437697999999999965e+01 -1.721884626537137364e-01
3.520300000000000296e+01 4.230899999999999750e+01 2.120100000000000051e+01 8.027658999999999878e+00 -1.721826048293268463e-01
3.520499999999999829e+01 3.927799999999999869e+01 3.868699999999999761e+01 -1.188266000000000044e+00 -1.657105572288402051e-01
3.521000000000000085e+01 4.074600000000000222e+01 2.978699999999999903e+01 5.916311999999999927e+01 -1.709144540648135369e-01
3.521099999999999852e+01 3.975099999999999767e+01 2.609900000000000020e+01 -2.310759000000000007e+00 -1.705829619240954442e-01
3.521300000000000097e+01 6.798799999999999955e+01 4.285699999999999932e+01 6.194499999999999451e-01 -1.870045631586060852e-01
3.522099999999999653e+01 4.278499999999999659e+01 1.734400000000000119e+01 2.055048000000000208e+00 -1.723731685311366557e-01
3.522099999999999653e+01 4.430499999999999972e+01 1.734400000000000119e+01 -6.233251000000000097e+00 -1.728700487026730015e-01
3.523400000000000176e+01 6.766500000000000625e+01 4.345600000000000307e+01 -2.668086000000000180e+00 -1.870541369299613677e-01
3.523700000000000188e+01 5.830700000000000216e+01 4.296099999999999852e+01 -2.122792000000000012e+00 2.361889694514212896e-03
3.523899999999999721e+01 4.117699999999999960e+01 2.195899999999999963e+01 -2.611040000000000028e+00 -1.716633204727179562e-01
3.524699999999999989e+01 4.771500000000000341e+01 1.820799999999999841e+01 1.172480999999999973e+01 -2.065289101165289354e-01
3.525600000000000023e+01 5.909499999999999886e+01 5.945300000000000296e+01 4.071608000000000338e+00 -2.183168998321492471e-01
3.525699999999999790e+01 5.200900000000000034e+01 5.253399999999999892e+01 2.198181999999999903e+01 1.174271420535774949e-02
3.525999999999999801e+01 6.511599999999999966e+01 2.016900000000000048e+01 1.321371000000000073e+01 -8.887037802095336739e-03
3.525999999999999801e+01 6.123299999999999699e+01 2.986100000000000065e+01 -1.024338000000000015e+01 -1.197648523478985101e-02
3.526200000000000045e+01 6.304899999999999949e+01 3.971900000000000119e+01 -2.246290000000000120e+01 7.968127283110229553e-02
3.526200000000000045e+01 6.419799999999999329e+01 3.454099999999999682e+01 1.340836000000000006e+01 -1.661443632050062236e-02
3.526500000000000057e+01 4.704099999999999682e+01 4.655199999999999960e+01 1.335158000000000023e+01 2.817373537122268568e-01
3.527199999999999847e+01 3.852100000000000080e+01 2.185399999999999920e+01 5.160474999999999923e+00 -1.704843853698059797e-01
3.527199999999999847e+01 3.852100000000000080e+01 2.355399999999999849e+01 3.994670999999999861e+00 -1.702483279232060442e-01
3.527199999999999847e+01 3.957099999999999795e+01 2.185399999999999920e+01 9.320679000000000158e+00 -1.709461913508783792e-01
3.527900000000000347e+01 6.842499999999999716e+01 3.316799999999999926e+01 -5.287659999999999805e+00 -5.473672604769421607e-02
3.527900000000000347e+01 6.997499999999999432e+01 3.316799999999999926e+01 -6.685914999999999608e+00 -5.404687606186242554e-02
3.528000000000000114e+01 6.159799999999999898e+01 1.837099999999999866e+01 4.398691000000000351e+00 -7.590007709335984225e-03
3.528300000000000125e+01 4.572200000000000131e+01 4.058599999999999852e+01 -2.286194000000000059e+00 1.091020799460086232e-01
3.528399999999999892e+01 6.360199999999999676e+01 3.414000000000000057e+01 8.782529000000000252e+00 -1.615669680366229807e-02
3.528399999999999892e+01 4.577900000000000347e+01 4.298199999999999932e+01 1.248211000000000048e+01 1.052249789523171941e-01
3.528900000000000148e+01 6.934199999999999875e+01 3.968999999999999773e+01 -2.003931000000000040e+01 -1.868936275907819300e-01
3.528900000000000148e+01 4.093399999999999750e+01 3.879500000000000171e+01 -2.675066999999999862e+00 -1.705572281619992248e-01
3.528999999999999915e+01 6.255499999999999972e+01 2.777400000000000091e+01 -2.985390999999999906e+00 -1.094939259120945516e-02
3.528999999999999915e+01 6.255499999999999972e+01 2.882400000000000162e+01 -8.527337000000000389e-01 -1.158352292222753627e-02
3.529299999999999926e+01 5.841700000000000159e+01 4.402600000000000335e+01 4.593468999999999802e+00 3.534332057920921370e-03
3.530199999999999960e+01 3.964000000000000057e+01 2.537800000000000011e+01 2.599833999999999978e+00 -1.705954167451187442e-01
3.530400000000000205e+01 6.374099999999999966e+01 1.924800000000000111e+01 8.730765999999999138e+00 -8.284180277758328853e-03
3.530499999999999972e+01 5.949099999999999966e+01 4.715100000000000335e+01 -5.105716000000000143e+00 8.558068132605418932e-02
3.530899999999999750e+01 6.248499999999999943e+01 3.415599999999999881e+01 3.591739000000000015e+00 -1.609205153887533629e-02
3.532300000000000040e+01 5.094500000000000028e+01 4.761299999999999955e+01 5.830271999999999899e+00 -4.155810195888519354e-02
3.532300000000000040e+01 5.115400000000000347e+01 4.834899999999999665e+01 5.629374000000000322e+00 -4.123328210295591767e-02
3.532999999999999829e+01 6.125900000000000034e+01 2.669999999999999929e+01 6.369428000000000090e+00 -9.901360559776839140e-03
3.533800000000000097e+01 6.051299999999999812e+01 3.339099999999999824e+01 -9.758046000000000220e+00 -1.493003613764749306e-02
3.533899999999999864e+01 6.547899999999999920e+01 2.091100000000000136e+01 3.796787000000000134e+00 -9.068542464789148758e-03
3.534000000000000341e+01 6.184899999999999665e+01 4.006700000000000017e+01 -8.989095999999999975e+00 7.660280812017768171e-02
3.534100000000000108e+01 5.661899999999999977e+01 2.079599999999999937e+01 1.117833000000000077e+01 -2.033771838509160490e-01
3.534300000000000352e+01 7.015300000000000580e+01 3.581799999999999784e+01 -1.471723000000000070e+01 -7.734878431141564877e-03
3.534400000000000119e+01 4.207300000000000040e+01 4.796099999999999852e+01 3.119704000000000033e+00 1.417399477175968481e-01
3.534400000000000119e+01 4.230400000000000205e+01 4.714600000000000080e+01 2.642135999999999818e+00 -2.035422851630266927e-01
3.534400000000000119e+01 4.230400000000000205e+01 4.877600000000000335e+01 1.883625999999999934e+01 1.226763022833780026e-01
3.534400000000000119e+01 4.362299999999999756e+01 4.951100000000000279e+01 -1.531946999999999948e+00 3.090820960481748259e-01
3.534400000000000119e+01 4.494200000000000017e+01 4.877600000000000335e+01 -7.871850000000000236e+00 2.905514664128872049e-01
3.534499999999999886e+01 3.805199999999999960e+01 2.767899999999999849e+01 -1.371391999999999944e+00 -1.691524820845614063e-01
3.534499999999999886e+01 3.805199999999999960e+01 2.861899999999999977e+01 -3.222166999999999781e+00 -1.688970166374594017e-01
3.534799999999999898e+01 5.831900000000000261e+01 4.876299999999999812e+01 5.134615999999999625e-01 8.617819578400456870e-02
3.534799999999999898e+01 5.852799999999999869e+01 4.802700000000000102e+01 6.919094000000000300e+00 8.349381413350129288e-02
3.534799999999999898e+01 5.852799999999999869e+01 4.949900000000000233e+01 -8.193623999999999796e+00 -9.344936639140245804e-02
3.534799999999999898e+01 5.953499999999999659e+01 4.523199999999999932e+01 -4.300885000000000069e+00 7.819553358471154070e-02
3.534899999999999665e+01 5.149000000000000199e+01 5.245600000000000307e+01 1.748228999999999900e+01 1.390894437727448250e-04
3.536099999999999710e+01 4.275900000000000034e+01 4.077799999999999869e+01 4.754275999999999947e+00 -1.780425622834177490e-01
3.536599999999999966e+01 6.571899999999999409e+01 3.485199999999999676e+01 -4.051688000000000400e+00 -5.682188160346259009e-02
3.536699999999999733e+01 6.221999999999999886e+01 5.134899999999999665e+01 -9.782908000000000825e+00 -1.906947362043251992e-01
3.537100000000000222e+01 6.005100000000000193e+01 5.683800000000000097e+01 -6.168788000000000160e+00 -1.958968227742087787e-01
3.537100000000000222e+01 6.246099999999999852e+01 5.213799999999999812e+01 -4.929412000000000127e+00 -1.902147977226279763e-01
3.537199999999999989e+01 3.740800000000000125e+01 3.654800000000000182e+01 -1.465653000000000006e+01 -1.635584293816760015e-01
3.538400000000000034e+01 3.928199999999999648e+01 2.944200000000000017e+01 1.384895999999999994e+01 -1.696628274702471906e-01
3.538799999999999812e+01 4.658599999999999852e+01 4.715599999999999881e+01 8.788697000000000870e+00 2.809539815338831237e-01
3.538799999999999812e+01 4.964800000000000324e+01 4.591199999999999903e+01 6.541487000000000052e+00 2.688087376908251391e-01
3.538900000000000290e+01 5.709799999999999898e+01 1.660300000000000153e+01 7.404927999999999955e+00 -2.035754484263488373e-01
3.540200000000000102e+01 5.515100000000000335e+01 5.352400000000000091e+01 2.150922000000000001e+00 -1.670217269592354781e-01
3.540200000000000102e+01 5.011500000000000199e+01 1.801099999999999923e+01 1.851304000000000016e+01 -2.055154249097184971e-01
3.540299999999999869e+01 5.683500000000000085e+01 1.747700000000000031e+01 8.555901000000000423e+00 -2.035536508362842945e-01
3.540699999999999648e+01 6.826699999999999591e+01 4.094500000000000028e+01 -2.605209999999999937e+01 -1.870994694790983626e-01
3.541100000000000136e+01 6.941100000000000136e+01 3.880700000000000216e+01 -2.054228000000000165e+01 -1.869465031510887387e-01
3.541400000000000148e+01 3.595600000000000307e+01 3.490400000000000347e+01 -4.371555999999999775e-01 -2.774135986838810464e-01
3.541400000000000148e+01 3.618299999999999983e+01 3.410499999999999687e+01 1.450009999999999910e-01 -2.776122738699283721e-01
3.541400000000000148e+01 3.618299999999999983e+01 3.570300000000000296e+01 -1.394365999999999939e-01 -2.777236792046292591e-01
3.541400000000000148e+01 3.747599999999999909e+01 3.338400000000000034e+01 -5.561901000000000206e-01 -1.662898645756438476e-01
3.541499999999999915e+01 5.188000000000000256e+01 2.067000000000000171e+01 2.183730999999999867e+01 -2.048891359464236894e-01
3.541499999999999915e+01 5.328000000000000114e+01 2.067000000000000171e+01 1.805724000000000018e+01 -2.043779730265277705e-01
3.541599999999999682e+01 6.030400000000000205e+01 5.610000000000000142e+01 -2.652482000000000006e+00 -1.951528391580579225e-01
3.541700000000000159e+01 6.014999999999999858e+01 3.264900000000000091e+01 -9.991863999999999635e+00 -1.379990341726398430e-02
3.541899999999999693e+01 4.148199999999999932e+01 2.978699999999999903e+01 3.953020000000000067e+01 -1.715362526479876637e-01
3.542000000000000171e+01 4.048700000000000188e+01 2.609900000000000020e+01 -1.632138000000000089e+00 -1.710197439883217041e-01
3.542300000000000182e+01 4.336200000000000188e+01 4.556099999999999994e+01 2.935624999999999929e+00 1.424019443232298343e-01
3.542300000000000182e+01 4.472299999999999898e+01 3.997899999999999920e+01 -4.354232999999999798e+00 -1.820049632883160018e-01
3.542399999999999949e+01 6.735500000000000398e+01 3.427499999999999858e+01 -4.595165999999999862e+00 -5.542419945158657407e-02
3.542399999999999949e+01 5.994800000000000040e+01 5.778000000000000114e+01 -1.928453999999999979e+01 -1.957912960359058652e-01
3.542699999999999960e+01 5.723499999999999943e+01 6.333500000000000085e+01 6.693499000000000088e+00 -1.984955303665225934e-01
3.542699999999999960e+01 5.828499999999999659e+01 6.333500000000000085e+01 6.560818000000000261e+00 -2.055658081614770705e-01
3.543200000000000216e+01 5.983200000000000074e+01 2.524200000000000088e+01 3.723581999999999947e+00 -8.592428755105109561e-03
3.543200000000000216e+01 6.004099999999999682e+01 2.597800000000000153e+01 2.028091999999999828e+01 -8.969625689652052647e-03
3.543399999999999750e+01 5.496000000000000085e+01 2.074299999999999855e+01 1.687793999999999883e+01 -2.037920435253149642e-01
3.543699999999999761e+01 5.846600000000000108e+01 1.594699999999999918e+01 -7.043492000000000086e-01 -2.033054257599303249e-01
