-1.799999999999999933e-01 -1.354100000000000037e+01 -2.010000000000000142e+01 -4.003870999999999958e-01 2.075590632498250654e-01
-1.748699999999999977e-01 -5.067999999999999616e+00 -1.565300000000000047e+01 5.378403000000000489e-01 3.262874715800441472e-02
-1.716499999999999970e-01 1.117600000000000016e+01 -1.557300000000000040e+01 -2.471995999999999860e+00 -3.775515035948447395e-01
-1.703300000000000092e-01 2.903999999999999915e+00 -7.899399999999999977e+00 -2.065866000000000113e+01 -9.079732508512218525e-02
-1.673900000000000110e-01 2.305199999999999960e+01 1.367500000000000071e+01 -1.738905000000000101e+01 -7.970089178139697084e-02
-1.607699999999999962e-01 -1.061199999999999921e+00 -2.309299999999999997e+01 -7.200131999999999977e+00 -2.127861115313300563e-02
-1.607699999999999962e-01 5.122999999999999776e-02 -2.309299999999999997e+01 -1.240616999999999948e+01 -2.053945230258064948e-03
-1.554899999999999893e-01 -2.644499999999999851e+00 -2.193700000000000117e+01 2.035503999999999925e-01 -4.381987801039112507e-02
-1.545100000000000084e-01 1.468900000000000006e+01 -3.109399999999999942e+00 -9.850293000000000632e+00 -2.071528379714595025e-01
-1.505799999999999916e-01 2.060399999999999920e+01 -1.608999999999999986e+00 -4.203256999999999977e+01 -1.969875061931341265e-01
-1.471699999999999953e-01 -1.037800000000000011e+01 -1.918700000000000117e+01 1.056250999999999962e+01 2.040595823907248030e-01
-1.467299999999999993e-01 -2.612099999999999866e+00 2.121000000000000085e+01 1.265238000000000085e+01 -1.866787055099478065e-01
-1.420500000000000096e-01 -1.636799999999999855e+01 -1.497400000000000020e+01 -2.751805999999999841e+01 -4.959199641355601512e-02
-1.410399999999999987e-01 2.226599999999999824e+01 3.144800000000000040e+00 -2.728514000000000106e+00 -8.116495856947608667e-02
-1.383500000000000008e-01 -2.111800000000000122e+00 2.386299999999999866e+00 -2.832552000000000092e+01 -1.880886994563684966e-01
-1.324400000000000022e-01 2.499200000000000088e+01 1.061599999999999966e+01 1.739479000000000042e+01 -8.000304140982611445e-02
-1.322699999999999987e-01 5.633200000000000429e-01 -1.070599999999999952e+01 5.099725000000000108e+01 -3.523944777862229039e-01
-1.310000000000000053e-01 -3.027000000000000135e+00 -1.780399999999999849e+01 -1.355474999999999985e+00 -3.547758395405249676e-02
-1.297099999999999920e-01 -2.299399999999999977e+01 6.946299999999999919e+00 -9.354715999999999587e-01 -2.753484206083085528e-01
-1.295499999999999985e-01 2.477400000000000091e+01 8.129300000000000637e+00 -9.951135999999999981e+00 -8.027789541916866001e-02
-1.250000000000000000e-01 1.892800000000000082e+01 1.401099999999999923e+01 -1.486788999999999916e+00 -7.959587261765532773e-02
-1.229999999999999982e-01 -1.885900000000000176e+01 -2.990299999999999958e+00 9.556414999999999438e+00 -2.860955471042655462e-01
-1.216700000000000004e-01 1.600300000000000056e+00 -2.221099999999999852e+01 4.990433999999999592e+00 3.415455636856849775e-02
-1.176900000000000029e-01 5.315699999999999648e+00 -1.663100000000000023e+01 -4.089788999999999786e-01 -2.261977076522816987e-01
-1.161200000000000010e-01 -1.853800000000000026e+01 2.525999999999999801e+00 -9.848461999999999605e+00 -2.741192306005829638e-01
-1.161200000000000010e-01 -1.832900000000000063e+01 3.262000000000000011e+00 3.109476999999999935e-01 -2.737655638498529553e-01
-1.150000000000000050e-01 -1.844000000000000128e+01 4.059300000000000352e+00 4.976037999999999961e+00 -2.840761519954251857e-01
-1.132900000000000018e-01 4.296000000000000263e+00 2.054700000000000060e+01 -3.583518000000000114e+01 -1.886725042046202006e-01
-1.132900000000000018e-01 5.815999999999999837e+00 2.054700000000000060e+01 -6.037803000000000253e+01 -1.892280619172718448e-01
-1.131199999999999983e-01 -1.540199999999999925e+01 -8.509100000000000108e+00 -2.485445999999999955e+01 -2.935972381385841823e-01
-1.100000000000000006e-01 -1.875499999999999901e+01 1.711999999999999966e+00 -1.368969000000000102e+00 -3.636964907202436814e-01
-1.100000000000000006e-01 -1.852799999999999869e+01 9.128899999999999793e-01 -5.070737000000000272e+00 -2.878388731298360259e-01
-1.022799999999999959e-01 -1.490799999999999947e+01 1.403200000000000003e+01 8.060777999999999555e-01 -2.854612642041641779e-01
-1.022399999999999975e-01 -1.103299999999999947e+01 1.410699999999999932e+01 2.377867999999999871e+00 -2.861314122156123907e-01
-1.022399999999999975e-01 -9.632899999999999352e+00 1.410699999999999932e+01 -6.083961000000000396e+00 -1.842860752579018602e-01
-1.010000000000000064e-01 -1.608299999999999841e+01 -1.788800000000000168e+01 -1.621621999999999897e+00 -6.329142672690321603e-02
-1.001599999999999990e-01 2.195299999999999940e+01 2.363900000000000112e+00 -4.127496999999999971e+00 -8.136049155275833222e-02
-9.975100000000000633e-02 -3.173999999999999932e+00 1.102200000000000069e+00 -2.939987999999999957e+01 -1.883516779977864597e-01
-9.734399999999999997e-02 1.437199999999999867e-01 -1.511100000000000065e+01 -2.666583000000000148e+00 2.137581977034788694e-02
-9.624900000000000122e-02 1.695899999999999963e+00 -1.146400000000000041e+01 1.796406999999999954e+01 -3.541409957304870182e-01
-9.611100000000000199e-02 1.339499999999999957e+01 1.519500000000000028e+01 -1.356581000000000081e+01 -1.835258018699236771e-01
-9.229400000000000104e-02 2.090800000000000125e+01 -3.829000000000000181e+00 -2.631633000000000067e+01 -1.932029785571792724e-01
-9.229400000000000104e-02 2.090800000000000125e+01 -2.309000000000000163e+00 -8.402458000000000027e+01 -1.955772982776148861e-01
-9.202599999999999669e-02 -6.504900000000000126e+00 -1.541099999999999959e+01 4.157904000000000266e+00 3.691102866838223001e-02
-8.905699999999999728e-02 5.941300000000000026e+00 1.556000000000000050e+01 -1.429926000000000030e+01 -1.896313699413121889e-01
-8.861399999999999832e-02 -1.820100000000000051e+00 5.374400000000000288e-01 -2.682516000000000034e+01 -1.910313841906762233e-01
-8.861399999999999832e-02 -1.878700000000000092e-01 5.374400000000000288e-01 -2.836682000000000059e+01 -1.939356100663613691e-01
-8.823599999999999499e-02 1.089600000000000080e+01 1.563499999999999979e+01 9.008957999999999799e+00 -1.819718694404737769e-01
-8.599999999999999312e-02 -3.507000000000000117e+00 -2.027199999999999847e+01 2.335345999999999922e+00 -5.001470271599887246e-02
-8.599999999999999312e-02 -3.253099999999999881e+00 -2.116600000000000037e+01 1.470377000000000045e+00 -4.898065889258648720e-02
-8.599999999999999312e-02 -3.253099999999999881e+00 -1.937800000000000011e+01 8.441708999999999463e+00 -4.527015831687940944e-02
-8.599999999999999312e-02 -3.044000000000000039e+00 -1.864199999999999946e+01 1.745327000000000073e+00 -3.989014728560062034e-02
-8.144200000000000050e-02 2.186499999999999844e+01 1.397899999999999920e+00 -4.567230999999999597e+00 -8.158470579483115270e-02
-8.134399999999999964e-02 -1.889899999999999913e+00 3.373000000000000220e+00 -3.075103000000000009e+01 -1.874812247811374344e-01
-8.037600000000000300e-02 3.192800000000000082e+00 -1.105300000000000082e+01 -8.124904000000000792e+00 -2.288060385519638529e-01
-7.907100000000000239e-02 4.844999999999999751e+00 1.603600000000000136e+01 -1.162927999999999962e+01 -1.890069964818428538e-01
-7.780900000000000316e-02 -3.807100000000000151e+00 -1.595199999999999996e+01 -3.642700999999999856e-01 -3.006624386060329640e-02
-7.736800000000000621e-02 -2.703599999999999781e+00 1.966900000000000093e+00 -2.791675000000000040e+01 -1.879421145310454788e-01
-7.710000000000000187e-02 -1.653399999999999892e+01 -9.267400000000000304e+00 -3.675381999999999749e+01 -2.942648020397321540e-01
-7.710000000000000187e-02 -1.580400000000000027e+01 -1.166799999999999926e+01 -4.536153999999999797e+00 -2.961898572167057653e-01
-7.499999999999999722e-02 2.463500000000000156e+01 1.141900000000000048e+01 2.607281000000000049e+01 -7.993111546043484006e-02
-7.451800000000000090e-02 8.397099999999999564e-01 -8.455299999999999372e+00 -2.153965000000000174e+01 -3.012351199802313917e-01
-7.266599999999999449e-02 8.164200000000000346e-01 2.968399999999999928e-01 -3.060663999999999874e+01 -1.964496558545665572e-01
-7.189700000000000257e-02 6.791999999999999815e+00 -1.740399999999999991e+01 -3.552254000000000023e+00 -2.268775324832127682e-01
-6.649800000000000155e-02 -1.922299999999999898e+01 5.135600000000000165e+00 3.073999999999999844e+00 -2.738504774474698200e-01
-6.456699999999999939e-02 1.498099999999999987e+01 1.364000000000000057e+01 -8.908535000000000537e+00 -1.849508122775708752e-01
-6.456699999999999939e-02 1.617200000000000060e+01 1.297600000000000087e+01 6.928965999999999958e+00 -1.857985699241449518e-01
-5.700000000000000205e-02 1.462500000000000000e+01 1.437199999999999989e+01 -8.183039000000000840e+00 -1.844651536744754405e-01
-5.387700000000000128e-02 1.972200000000000131e+01 -4.670799999999999841e+00 -6.759193999999999924e+00 -1.932463860816317769e-01
-5.303399999999999781e-02 7.073900000000000077e+00 1.393599999999999994e+01 -1.693522000000000105e+01 -1.906202198404331749e-01
-5.303399999999999781e-02 7.073900000000000077e+00 1.480100000000000016e+01 -7.742503000000000135e+00 -1.904059247781169639e-01
-4.996099999999999847e-02 -1.606299999999999883e+01 -1.537299999999999933e+01 -2.837371999999999872e+01 -5.233521398653508822e-02
-4.837600000000000233e-02 -2.185999999999999943e+01 6.487899999999999778e+00 -8.744237000000000259e-01 -2.749314833510960732e-01
-4.567100000000000326e-02 -1.792300000000000004e+00 2.125400000000000134e+01 1.406616999999999962e+01 -1.869090986099554708e-01
-4.567100000000000326e-02 -7.416700000000000514e-01 2.125400000000000134e+01 2.754513000000000034e+01 -1.871705299374107068e-01
-4.000000000000000083e-02 2.518100000000000094e+01 9.812300000000000466e+00 -1.611586000000000141e+01 -8.009793507654021372e-02
-3.908500000000000169e-02 -1.478999999999999915e+01 -1.870700000000000074e+01 -1.924056999999999906e+00 -7.222952353759243271e-02
-3.367099999999999954e-02 9.990999999999999659e+00 -1.663200000000000145e+01 -3.166870999999999992e+00 -2.234692465267224537e-01
-3.164100000000000246e-02 -1.526200000000000045e+01 -1.141900000000000048e+01 -2.392605999999999966e+01 -2.960483175041650483e-01
-2.901099999999999859e-02 2.123699999999999832e+01 -3.068999999999999950e+00 -1.257523999999999944e+02 -1.940165769552350539e-01
-2.737600000000000103e-02 -9.880000000000000782e+00 -1.434099999999999930e+01 2.372794999999999987e+00 -5.513142844343257160e-02
-2.400000000000000050e-02 2.164399999999999835e+01 6.418700000000000516e-01 -1.828641999999999967e+01 -8.179355822947492749e-02
-2.219099999999999892e-02 -1.443699999999999939e+01 1.423000000000000043e+01 4.694674000000000014e+00 -2.855544828099230714e-01
-2.208900000000000099e-02 3.496199999999999974e+00 -1.035299999999999976e+01 -5.871827999999999825e+00 -2.343766791547430839e-01
-2.125700000000000159e-02 2.375000000000000000e+00 1.477399999999999913e+01 -9.200758000000000436e+00 -1.878002370132419996e-01
-1.908100000000000074e-02 -1.534899999999999931e+00 1.266899999999999915e+00 -3.440690000000000026e+01 -1.904795306069587135e-01
-1.824900000000000133e-02 7.398900000000000254e+00 1.946600000000000108e+01 1.020828999999999986e+01 -1.899152106249458183e-01
-1.645100000000000035e-02 -2.254000000000000004e+00 4.316300000000000026e+00 -2.203275000000000006e+01 -1.865063383349015169e-01
-1.255299999999999992e-02 -1.640099999999999980e+01 -1.612699999999999889e+01 -2.551861999999999853e+00 -5.498520954786705051e-02
-1.219100000000000045e-02 -2.282999999999999918e+00 -2.230499999999999972e+01 -4.593009000000000119e-01 -3.741469736076433183e-02
-1.048499999999999953e-02 -1.899699999999999989e+01 1.290600000000000058e+01 -9.435107999999999606e+00 -2.849166902026984971e-01
-3.062000000000000052e-03 -1.365700000000000003e+01 -1.946499999999999986e+01 -3.713545000000000040e-02 2.096330318734890008e-01
-1.928999999999999942e-03 1.908200000000000074e+01 -4.608100000000000307e+00 -7.758015000000000327e+00 -1.943098830197325932e-01
-2.169999999999999891e-04 1.186700000000000088e+01 1.536400000000000077e+01 7.569746999999999559e+00 -1.826344301224921973e-01
2.883999999999999845e-03 7.471900000000000208e-01 -1.559299999999999997e+01 -3.995389999999999997e+00 3.156693305374425051e-02
8.623999999999999722e-03 9.401799999999999713e+00 1.757000000000000028e+01 6.565462000000000131e+00 -1.807225144053646038e-01
1.091499999999999936e-02 4.508199999999999985e-01 -2.232499999999999929e+01 -3.564904999999999990e+00 8.929541411030535170e-03
1.199599999999999972e-02 2.040299999999999780e+00 -2.144600000000000151e+01 8.637135999999999925e+00 4.921617075411721665e-02
1.601100000000000093e-02 -1.739999999999999991e+00 2.043099999999999916e+00 -3.081631000000000142e+01 -1.892085999038926325e-01
1.605600000000000083e-02 2.351900000000000102e+00 4.979899999999999882e-01 -4.945653000000000077e+01 -1.991558430400491020e-01
1.795899999999999927e-02 -7.550300000000000011e+00 -1.415199999999999925e+01 8.271698000000000661e+00 -6.100866163270176473e-02
1.799999999999999864e-02 -1.069800000000000040e+01 -1.586599999999999966e+01 -1.081026999999999916e+01 -7.741147058556072102e-02
1.799999999999999864e-02 -1.048900000000000077e+01 -1.513000000000000078e+01 3.718236000000000097e+00 -7.295326190192555349e-02
2.832700000000000148e-02 3.786500000000000199e+00 1.556600000000000072e+01 -1.160279000000000060e+01 -1.885429806237306771e-01
2.860199999999999895e-02 8.834899999999999309e+00 -1.688200000000000145e+01 -2.438553000000000193e+00 -2.239939917176637096e-01
3.149400000000000116e-02 1.410500000000000043e+01 -1.405199999999999960e+01 -4.619851999999999848e+00 -3.730519908282690089e-01
3.403099999999999875e-02 -7.126599999999999602e-01 1.543099999999999916e+01 -1.139433000000000007e+01 -1.864241681428639441e-01
3.747899999999999843e-02 3.360799999999999788e+00 -9.509800000000000253e+00 -1.143131999999999948e+01 -1.471056782879241465e-01
4.331499999999999934e-02 4.679000000000000270e+00 8.093199999999999505e+00 -4.842987000000000108e+01 -1.914823215473720475e-01
4.432900000000000035e-02 -2.077299999999999969e+01 5.609700000000000131e+00 8.813060000000000116e+00 -2.745682205151197541e-01
4.494499999999999884e-02 2.574300000000000033e+00 -1.675900000000000034e+01 -1.180977999999999994e+01 -2.365625941383148745e-01
4.667099999999999721e-02 -1.771399999999999864e+01 1.365000000000000036e+01 3.531826000000000132e+00 -2.851094921220173606e-01
4.728799999999999670e-02 2.088200000000000056e+00 -7.769099999999999895e+00 -1.807260000000000133e+01 -8.946751196998678490e-02
4.994500000000000328e-02 -3.293200000000000127e+00 5.311200000000000365e+00 -2.070292999999999850e+01 -1.852926630449381884e-01
5.036500000000000005e-02 -1.044200000000000017e+01 -2.014999999999999858e+01 -1.962384000000000128e+01 1.997558396374987943e-01
5.900199999999999889e-02 3.030899999999999928e+00 1.883899999999999864e+01 -1.895955999999999975e+00 -1.882059060708706766e-01
6.300000000000000044e-02 1.582099999999999973e+01 -8.734999999999999432e+00 2.095907000000000053e+01 -1.880750850273171237e-01
6.837500000000000522e-02 -1.604899999999999949e+01 1.382300000000000040e+01 2.239796999999999816e+00 -2.853187449967490297e-01
6.837500000000000522e-02 -2.853099999999999969e+00 2.039600000000000080e+01 -1.991802999999999990e+00 -1.865669447272002845e-01
7.222499999999999754e-02 8.742399999999999949e+00 1.829899999999999949e+01 7.475317999999999685e+00 -1.802794525111010016e-01
7.225700000000000178e-02 2.062999999999999901e+01 1.540700000000000003e+01 5.045612000000000208e+00 -7.955493496918958352e-02
7.337599999999999678e-02 1.438299999999999912e+01 -1.315900000000000070e+01 -4.863991000000000398e+00 -2.662701907779060906e-01
7.743899999999999395e-02 1.591699999999999982e+01 -9.814999999999999503e+00 -3.856192000000000064e+00 -2.864320519289972333e-01
7.929400000000000337e-02 -5.342900000000000427e-01 1.268000000000000016e+00 -3.976485000000000269e+01 -1.922303312327805214e-01
9.262900000000000300e-02 -4.268299999999999983e+00 1.845100000000000051e+01 2.794486000000000026e+00 -1.859172389359735889e-01
9.474299999999999389e-02 1.552599999999999980e+00 1.885999999999999943e+01 8.750716999999999857e+00 -1.876636402174022000e-01
9.500000000000000111e-02 2.386599999999999966e+01 6.461999999999999744e+00 -1.006526000000000032e+01 -8.055095314473453838e-02
9.600000000000000200e-02 -1.300600000000000023e+01 -2.115500000000000114e+01 -9.980921000000000376e-01 2.028755241132794984e-01
9.600000000000000200e-02 -1.054599999999999937e+01 -2.115500000000000114e+01 -7.518867000000000189e+00 1.959945086343080622e-01
9.704699999999999438e-02 3.336699999999999999e+00 -8.599399999999999267e+00 -1.565278999999999954e+01 -1.525621313821938774e-01
1.059999999999999970e-01 -1.784900000000000020e+01 -2.314999999999999947e+00 7.999524000000000079e+00 -2.859909923695787004e-01
1.059999999999999970e-01 -1.764000000000000057e+01 -1.578999999999999959e+00 8.531667999999999807e+00 -2.863137957739310124e-01
1.071600000000000052e-01 2.075600000000000023e+01 -7.283500000000000529e-01 -9.871195000000000164e+00 -1.978538181528601281e-01
1.100000000000000006e-01 2.386899999999999977e+01 4.775699999999999612e+00 9.394460999999999729e+00 -8.081369919277331393e-02
1.118600000000000011e-01 8.216400000000000148e+00 -1.701999999999999957e+01 -5.328420000000000378e+00 -2.246829932535932828e-01
1.128900000000000042e-01 2.350499999999999901e+01 1.294100000000000072e+01 8.109606000000000314e-01 -7.980721000516106944e-02
1.137800000000000061e-01 8.813600000000000323e-01 -1.713899999999999935e+01 -3.726387999999999923e-01 3.531589459411543785e-02
1.137800000000000061e-01 1.746599999999999930e+00 -1.713899999999999935e+01 -1.193721000000000032e+01 5.334380232905890779e-02
1.137800000000000061e-01 1.746599999999999930e+00 -1.573900000000000077e+01 -3.546457999999999888e+00 -2.340630985156180732e-01
1.170000000000000068e-01 6.872300000000000075e+00 1.313899999999999935e+01 -1.891381000000000157e+01 -1.908105343574756640e-01
1.202199999999999935e-01 1.917200000000000060e+01 1.460999999999999943e+01 -2.422864999999999824e+00 -1.861259686155557203e-01
1.202199999999999935e-01 2.208800000000000097e+01 1.460999999999999943e+01 7.301231999999999722e+00 -7.965014436877736193e-02
1.239800000000000069e-01 3.000900000000000123e+00 5.241799999999999571e+00 -3.102209999999999823e+01 -1.922053221818169899e-01
1.239800000000000069e-01 3.209999999999999964e+00 4.505799999999999805e+00 -2.960883000000000109e+01 -1.933732163245259483e-01
1.266599999999999948e-01 -2.298400000000000176e+01 1.184399999999999942e+01 2.435058999999999862e+00 -2.744381456678446352e-01
1.282699999999999951e-01 -1.366900000000000048e+01 1.503999999999999915e+01 6.901518000000000264e+00 -2.857385660748950618e-01
1.284500000000000086e-01 1.455199999999999960e+01 -6.486600000000000144e+00 -3.718078000000000216e+00 -1.982881069765896898e-01
1.289099999999999968e-01 5.858799999999999564e-01 -9.427899999999999281e+00 -1.113646999999999920e+01 -2.978936317799421585e-01
1.301100000000000034e-01 3.066699999999999982e+00 -1.654700000000000060e+01 -2.685451000000000032e+00 -2.336057364166808092e-01
1.301100000000000034e-01 3.931999999999999940e+00 -1.654700000000000060e+01 1.106131999999999893e+00 -2.305125124147212878e-01
1.333699999999999886e-01 1.745300000000000074e+00 3.406100000000000239e-01 -3.677758999999999645e+01 -1.983547326868225491e-01
1.351100000000000079e-01 -1.177599999999999980e+01 -2.197800000000000153e+01 -1.015452999999999939e+01 1.970467005127092552e-01
1.402299999999999935e-01 1.667800000000000082e+01 -3.512999999999999901e+00 -4.845619000000000121e+00 -2.010430304107456434e-01
1.464199999999999946e-01 6.000200000000000422e+00 -1.709299999999999997e+01 -1.184007999999999949e+00 -2.273647502487237682e-01
1.470200000000000118e-01 -3.734999999999999876e+00 1.288599999999999923e+01 -2.108397000000000077e+01 -1.850424006842759372e-01
1.470200000000000118e-01 -3.525900000000000034e+00 1.215000000000000036e+01 -4.043910999999999945e+01 -1.850002666845347865e-01
1.470200000000000118e-01 -3.525900000000000034e+00 1.362199999999999989e+01 -1.504720999999999975e+01 -1.852268462353429124e-01
1.477100000000000080e-01 3.218999999999999861e+00 7.646700000000000053e+00 -4.236328000000000316e+01 -1.903922563213170660e-01
1.544800000000000062e-01 -1.766400000000000148e+01 -7.942899999999999849e+00 -7.678583999999999854e+00 -2.937586394714744586e-01
1.566200000000000092e-01 -6.657000000000000028e+00 1.556400000000000006e+01 1.651848000000000027e+01 -1.849470994215394182e-01
1.566200000000000092e-01 -2.438000000000000167e+00 1.535200000000000031e+01 -1.088249000000000066e+01 -1.858613620335622663e-01
1.600000000000000033e-01 -2.310900000000000176e+01 1.267099999999999937e+01 4.518691999999999709e+00 -2.743755156447224008e-01
1.600000000000000033e-01 -2.287800000000000011e+01 1.348600000000000065e+01 1.092778000000000027e+01 -2.847223439791521371e-01
1.600000000000000033e-01 -2.155900000000000105e+01 1.422100000000000009e+01 -1.889747999999999983e+00 -2.848536644161336340e-01
1.600000000000000033e-01 -2.018799999999999883e+01 1.358500000000000085e+01 3.407020000000000159e+00 -2.848975892536675936e-01
1.605900000000000105e-01 -3.109199999999999742e-01 2.040800000000000125e+01 -4.556958999999999982e+00 -1.872509380933213841e-01
1.649899999999999978e-01 5.831999999999999851e+00 1.114000000000000057e+01 -2.193321999999999861e+01 -1.908612151831667603e-01
1.651400000000000090e-01 -1.146599999999999930e+01 1.480700000000000038e+01 -5.190710000000000157e+00 -2.861095461275297569e-01
1.651400000000000090e-01 -9.200300000000000367e+00 1.480700000000000038e+01 4.034112999999999616e+00 -1.845891991904405061e-01
1.706100000000000116e-01 -7.170600000000000307e+00 1.527999999999999936e+01 1.316882000000000019e+01 -1.848328783648871265e-01
1.711100000000000121e-01 1.056499999999999995e+00 1.527800000000000047e+01 -1.554490999999999978e+01 -1.872607351645900475e-01
1.720700000000000007e-01 5.779600000000000293e-01 -1.643900000000000006e+01 -3.484109000000000123e+00 2.907203310187960604e-02
1.720700000000000007e-01 2.049999999999999822e+00 -1.643900000000000006e+01 -6.712767999999999624e+00 -2.366763653904070119e-01
1.769999999999999907e-01 3.826299999999999812e+00 1.978699999999999903e+01 -2.032976999999999990e+01 -1.885826275984342215e-01
1.857699999999999907e-01 -1.776899999999999835e+01 -6.209999999999999964e-01 4.397122999999999671e+00 -2.868177742881798387e-01
1.883900000000000019e-01 2.763300000000000090e+00 -1.724699999999999989e+01 -2.301461000000000112e+01 -2.385776174214304657e-01
1.895699999999999885e-01 -3.374499999999999833e+00 -1.665200000000000102e+01 -1.049525999999999931e-01 -2.866962590613934131e-02
1.900100000000000122e-01 -2.270999999999999908e+00 1.266899999999999915e+00 -3.153205000000000169e+01 -1.897398851233024764e-01
1.902800000000000047e-01 -1.610200000000000031e+01 -8.567399999999999238e+00 -1.549255999999999922e+01 -2.939257574460889533e-01
1.919099999999999973e-01 -2.284900000000000020e+01 1.053500000000000014e+01 2.699790000000000134e+00 -2.745498875637290004e-01
1.936799999999999911e-01 3.116499999999999826e+00 -1.801699999999999946e+01 -1.802786000000000044e+01 8.176968426715033877e-02
1.937099999999999933e-01 1.212400000000000055e+01 -1.500500000000000078e+01 -2.552593999999999852e+01 -3.759277731305385450e-01
1.937099999999999933e-01 1.306400000000000006e+01 -1.500500000000000078e+01 -2.207113000000000014e+01 -3.748900239764356157e-01
2.011600000000000055e-01 -1.033300000000000018e+01 1.404899999999999949e+01 -5.822473999999999705e+00 -2.863234529013738427e-01
2.055299999999999905e-01 1.127500000000000036e+01 -1.488199999999999967e+01 -4.150250999999999912e+00 -3.769086897641857892e-01
2.143400000000000027e-01 6.641300000000000203e+00 1.550099999999999945e+01 -1.321059999999999945e+01 -1.901431089826542686e-01
2.161099999999999965e-01 5.056000000000000050e+00 2.060999999999999943e+01 -4.770915000000000106e+01 -1.890553233582695503e-01
2.231700000000000073e-01 -1.571700000000000097e+00 -2.237800000000000011e+01 -1.714061000000000057e+00 -2.542569256115925769e-02
2.243300000000000016e-01 5.544999999999999929e+00 1.597799999999999976e+01 -7.983678000000000274e+00 -1.895071133984757850e-01
2.255600000000000105e-01 -1.420199999999999996e+01 -8.426399999999999224e+00 -1.827317000000000036e+01 -2.937018525345952424e-01
2.300000000000000100e-01 -1.601399999999999935e+01 -1.300500000000000078e+01 -2.272213999999999956e+00 -2.975144018950407476e-01
2.331799999999999984e-01 -2.259900000000000020e+00 2.032700000000000173e+01 1.255951000000000040e+00 -1.867565817272499318e-01
2.332899999999999974e-01 1.415499999999999936e+01 1.513199999999999967e+01 -2.982397999999999882e+01 -1.839543407149439591e-01
2.349999999999999867e-01 -5.839100000000000179e+00 1.642200000000000060e+01 7.348304999999999865e+00 -1.852901476935438496e-01
2.349999999999999867e-01 -5.494100000000000428e+00 1.720499999999999829e+01 7.988032999999999717e+00 -1.855076400346425125e-01
2.368099999999999927e-01 -2.323499999999999943e+01 9.773099999999999454e+00 -1.708860000000000046e+00 -2.748051452694010854e-01
2.392700000000000105e-01 -2.974400000000000155e+00 1.910099999999999909e+01 -1.015949999999999953e+01 -1.863868060102470969e-01
2.393899999999999917e-01 1.544699999999999918e+01 -1.180400000000000027e+01 -5.823285000000000267e+00 -2.705901369973776616e-01
2.394900000000000084e-01 -1.370600000000000041e+00 1.559999999999999964e+01 -1.444725000000000037e+01 -1.863154740883603000e-01
2.446099999999999941e-01 2.627399999999999736e-01 1.970400000000000063e+01 -7.392405000000000115e+00 -1.873709678822741420e-01
2.469999999999999973e-01 3.012700000000000156e+00 -1.895899999999999963e+01 -5.533642999999999645e+00 8.030109634966781096e-02
2.493799999999999906e-01 -4.862099999999999866e+00 1.785900000000000176e+01 8.795958000000000609e+00 -1.857589300988331249e-01
2.523299999999999987e-01 2.253999999999999915e+01 1.410500000000000043e+01 9.995665999999999940e+00 -7.971541376332599849e-02
2.560000000000000053e-01 1.592300000000000004e+01 -1.104400000000000048e+01 -5.209177000000000390e+00 -2.832923432509651396e-01
2.569899999999999962e-01 1.339300000000000068e+01 -1.424499999999999922e+01 -4.879818999999999818e+01 -3.739791167873170452e-01
2.577499999999999791e-01 -4.368000000000000327e+00 -1.591999999999999993e+01 5.918881999999999755e-01 3.015627734649608052e-02
2.594400000000000039e-01 -1.589199999999999946e+01 -1.218900000000000006e+01 -3.374445000000000139e+00 -2.968163049540922804e-01
2.600000000000000089e-01 2.399800000000000111e+01 7.363400000000000389e+00 1.064338000000000006e+00 -8.044514280452276511e-02
2.610000000000000098e-01 1.715899999999999892e+01 -4.334500000000000242e+00 -4.584241999999999706e+00 -1.982726647614734827e-01
2.641700000000000159e-01 2.017599999999999838e+01 -2.301400000000000112e+00 -4.117249000000000336e+01 -1.966466177181959707e-01
2.643199999999999994e-01 -1.408999999999999986e+01 -1.876500000000000057e+01 -2.227104000000000195e+00 -7.665238389180700773e-02
2.712100000000000066e-01 2.020700000000000074e+01 -3.986400000000000166e+00 -1.875803000000000154e+01 -1.939011520998935034e-01
2.717600000000000016e-01 -1.456199999999999939e+01 -1.136100000000000065e+01 -5.112785000000000224e+01 -2.962677160398916043e-01
2.730899999999999994e-01 -1.266900000000000048e+01 -9.097300000000000608e+00 -3.249387999999999721e+01 -2.943271227959325387e-01
2.731700000000000239e-01 4.074900000000000411e+00 1.609900000000000020e+01 -7.689820000000000100e+00 -1.887775760051015050e-01
2.751199999999999757e-01 1.492200000000000060e+01 -1.264400000000000013e+01 -5.523837999999999582e+00 -2.680813190349769504e-01
2.781199999999999783e-01 1.538899999999999935e+01 -2.842000000000000082e+00 -8.791354999999999587e-01 -2.053544115123092928e-01
2.810400000000000120e-01 -1.576699999999999946e+01 -1.472100000000000009e+01 -5.780844000000000094e+00 -5.148284109305847206e-02
2.834300000000000153e-01 2.784499999999999975e+00 1.197999999999999954e+00 -3.490534999999999854e+01 -1.984887761099236869e-01
2.834300000000000153e-01 2.784499999999999975e+00 2.104999999999999982e+00 -3.376004999999999967e+01 -1.966829158540181477e-01
2.888800000000000257e-01 -1.588000000000000078e+01 -1.383900000000000041e+01 4.459195000000000242e-01 -2.983317712020282508e-01
2.900200000000000000e-01 -8.700900000000000745e+00 1.527200000000000024e+01 1.055893000000000015e+01 -1.847734904874057116e-01
2.909999999999999809e-01 1.051600000000000001e+01 -1.578200000000000003e+01 -1.025857000000000019e+00 -3.792198216783001508e-01
2.921199999999999908e-01 3.042600000000000193e+00 2.939299999999999802e+00 -3.170223999999999975e+01 -1.956086616193684069e-01
2.937600000000000211e-01 -5.050000000000000044e-01 -2.233399999999999963e+01 -8.313328999999999525e+00 -7.792662578553412323e-03
2.949499999999999900e-01 1.508600000000000030e+01 -7.183799999999999741e+00 -3.745121000000000144e+00 -1.947438948979373641e-01
2.955999999999999739e-01 -1.310299999999999976e+01 -1.001699999999999946e+01 -3.336193999999999704e+01 -2.951805374504402613e-01
2.959499999999999909e-01 2.050000000000000000e+01 -3.068999999999999950e+00 -6.128081000000000245e+01 -1.950207449497654288e-01
2.999600000000000044e-01 3.155499999999999972e+00 3.821299999999999919e+00 -2.996591000000000093e+01 -1.943913307292793602e-01
3.003500000000000059e-01 1.263300000000000090e+00 -1.097300000000000075e+01 8.211411999999999267e+00 -3.534776317653771094e-01
3.003500000000000059e-01 2.128600000000000048e+00 -1.097300000000000075e+01 -4.322604000000000113e+00 -3.540242501637088646e-01
3.004100000000000104e-01 1.541799999999999926e+01 -7.893600000000000172e+00 2.483906999999999865e+00 -1.917243492711424024e-01
3.094500000000000028e-01 -1.732700000000000173e+01 -8.751200000000000756e+00 -5.318541999999999881e+00 -2.942541710773652897e-01
3.094799999999999773e-01 1.259699999999999953e+01 1.530899999999999928e+01 -3.116811999999999916e+00 -1.830923287324977000e-01
3.099999999999999978e-01 -2.170200000000000173e+01 -5.527999999999999581e+00 3.290614000000000150e+00 -2.858659990694877306e-01
3.099999999999999978e-01 -2.144800000000000040e+01 -6.421700000000000408e+00 9.850508999999999515e-01 -2.853984389434742752e-01
3.099999999999999978e-01 -2.144800000000000040e+01 -4.634299999999999642e+00 7.384986999999999746e+00 -2.861378274701744662e-01
3.099999999999999978e-01 -2.000199999999999889e+01 -7.227999999999999758e+00 5.084393000000000384e+00 -2.843665428716708465e-01
3.152800000000000047e-01 1.369699999999999918e+01 -1.354499999999999993e+01 -2.283067000000000135e+01 -2.650998283059821659e-01
3.186499999999999888e-01 1.145999999999999908e+00 -2.147599999999999909e+01 2.946676000000000073e+00 2.831718589126664548e-02
3.187400000000000233e-01 9.299999999999999933e-02 1.546799999999999997e+01 -9.133673999999999182e+00 -1.869273024740347178e-01
3.213599999999999790e-01 -8.250299999999999301e+00 -1.409399999999999942e+01 2.130148999999999848e+00 -5.861462935514209771e-02
3.303400000000000225e-01 -1.560800000000000054e+01 1.376500000000000057e+01 2.463376999999999928e+00 -2.854117822598561949e-01
3.313800000000000079e-01 -1.297300000000000075e+01 -8.397299999999999542e+00 -2.819838000000000022e+01 -2.937506895040943311e-01
3.343499999999999805e-01 3.462800000000000100e+00 1.908599999999999852e+01 -1.065310999999999986e+01 -1.884884100818081110e-01
3.400000000000000244e-01 -2.375400000000000134e+01 8.176000000000000156e+00 -7.912538999999999545e-01 -2.752537377234741678e-01
3.400000000000000244e-01 -2.352700000000000102e+01 7.376900000000000013e+00 -2.277213999999999849e+00 -2.753228389383728381e-01
3.400000000000000244e-01 -2.352700000000000102e+01 8.975099999999999412e+00 -6.044818000000000247e+00 -2.750228502139714371e-01
3.403300000000000214e-01 2.020799999999999841e+01 -1.176399999999999890e+00 -1.194860000000000078e+01 -1.981135613686652031e-01
3.410900000000000043e-01 1.211999999999999922e+01 -1.347700000000000031e+01 -5.270698999999999756e+01 -3.745345407645700453e-01
3.472799999999999776e-01 5.405300000000000438e+00 9.505300000000000082e+00 -2.302543000000000006e+01 -1.914454602554799822e-01
3.500800000000000023e-01 -2.226800000000000068e+01 6.544800000000000395e+00 -9.264335999999999682e-01 -2.749716709897981337e-01
3.551599999999999757e-01 -1.819099999999999895e+01 5.432000000000000384e+00 1.366846999999999923e+01 -2.843601844387187993e-01
3.558499999999999996e-01 6.474800000000000111e+00 1.975900000000000034e+01 -2.123905000000000154e+00 -1.896521556339190451e-01
3.569999999999999840e-01 5.544299999999999784e+00 1.051500000000000057e+01 -2.192605000000000004e+01 -1.910356921289734500e-01
3.586400000000000143e-01 9.599199999999999955e-01 -1.027299999999999969e+01 -2.937075000000000102e+00 -2.951128185007865778e-01
3.590200000000000058e-01 -1.809400000000000119e+01 4.221799999999999997e-01 4.374632999999999994e-02 -2.873309289172149561e-01
3.680599999999999983e-01 1.547199999999999953e+01 1.324399999999999977e+01 -5.561404999999999710e+00 -1.853625440220506015e-01
3.686699999999999977e-01 1.841400000000000148e+01 1.357699999999999996e+01 -1.790727000000000013e-01 -7.970706203518508615e-02
3.687099999999999822e-01 -1.555000000000000071e+01 -1.831899999999999906e+01 -9.048631999999999787e-01 -6.849738882885744728e-02
3.728600000000000247e-01 1.179599999999999937e+01 -1.424499999999999922e+01 -3.014442000000000021e+01 -3.756900768207984687e-01
3.744100000000000206e-01 -1.486999999999999922e+01 1.373900000000000077e+01 2.797807999999999851e+00 -2.855205689910078615e-01
3.811599999999999988e-01 1.314000000000000057e+00 -1.643900000000000006e+01 -5.364315999999999640e+00 4.219722750222469621e-02
3.815399999999999903e-01 -1.128899999999999970e+01 1.577800000000000047e+01 -1.964466999999999963e+00 -2.861999808328342665e-01
3.910000000000000142e-01 -7.022100000000000009e+00 -1.483399999999999963e+01 7.878956999999999766e+00 -7.260848315039578060e-02
3.910000000000000142e-01 -5.575999999999999623e+00 -1.564000000000000057e+01 7.993845000000000534e-01 3.390720769400963619e-02
3.926700000000000190e-01 8.134000000000000341e+00 1.902499999999999858e+01 1.211754999999999960e+01 -1.903777458591922878e-01
3.936899999999999844e-01 1.725799999999999912e+01 1.278100000000000058e+01 4.046491999999999756e+00 -1.863066866603704796e-01
3.946500000000000008e-01 -1.266999999999999904e+00 2.051899999999999835e+01 1.294135999999999953e+00 -1.870949624283603785e-01
3.946700000000000208e-01 1.759900000000000020e+01 -5.099000000000000199e+00 -3.225547999999999860e+00 -1.957263462096272832e-01
3.946700000000000208e-01 1.864900000000000091e+01 -5.099000000000000199e+00 -4.398283000000000165e+00 -1.940047447347018061e-01
3.994800000000000018e-01 4.658599999999999852e+00 -1.624399999999999977e+01 1.360800999999999927e+00 -2.274522561670795917e-01
4.052600000000000091e-01 2.130600000000000094e+01 1.337800000000000100e-01 -1.042182000000000031e+01 -8.202496417161289632e-02
4.062600000000000100e-01 9.226499999999999702e+00 -1.676599999999999824e+01 -2.438553000000000193e+00 -2.243829549339501628e-01
4.104300000000000170e-01 -1.373700000000000010e+01 1.449799999999999933e+01 6.929205999999999754e+00 -2.857413123959540169e-01
4.127399999999999958e-01 -1.992299999999999827e+01 5.538899999999999935e+00 1.512686999999999893e+00 -2.740008323020885483e-01
4.157899999999999929e-01 -9.676099999999999701e-01 1.858000000000000096e+00 -3.072669000000000139e+01 -1.911107004519950470e-01
4.159999999999999809e-01 1.389100000000000001e+01 -4.235000000000000320e+00 -1.663909999999999911e+01 -2.064217580131607332e-01
4.159999999999999809e-01 1.409999999999999964e+01 -4.971000000000000085e+00 -9.956322999999999368e+00 -2.039366758073607733e-01
4.159999999999999809e-01 1.409999999999999964e+01 -3.499000000000000110e+00 -1.806024999999999991e+01 -2.074645503139835312e-01
4.179899999999999727e-01 -1.800900000000000034e+01 4.528999999999999915e+00 -5.941735999999999684e+00 -2.843010175940555162e-01
4.239999999999999880e-01 -2.870600000000000041e+00 1.465199999999999925e+01 -1.248319000000000045e+01 -1.857820623714538100e-01
4.260300000000000198e-01 7.597699999999999676e+00 -1.709600000000000009e+01 -8.131906000000000745e+00 -2.259135126273061345e-01
4.264299999999999757e-01 1.055599999999999916e+01 -1.475900000000000034e+01 6.826914999999999623e+01 -3.779780249805887449e-01
4.319500000000000006e-01 -1.811199999999999832e+01 2.995699999999999807e+00 -1.493230000000000057e+00 -2.841320866407210932e-01
4.321099999999999941e-01 2.797100000000000142e-01 1.049900000000000055e+00 -3.490227999999999753e+01 -1.943959077773116662e-01
4.338899999999999979e-01 7.743900000000000228e-01 1.894000000000000128e+01 2.281882999999999839e+01 -1.875389256316251640e-01
4.374000000000000110e-01 -1.448499999999999899e+00 2.907700000000000173e+00 -2.756660000000000110e+01 -1.892398706545898590e-01
4.380000000000000004e-01 -3.155299999999999994e+00 1.039000000000000057e+01 -2.994913000000000025e+01 -1.852298512013153542e-01
4.380000000000000004e-01 -3.155299999999999994e+00 1.133000000000000007e+01 -5.774855999999999767e+01 -1.852904448271353588e-01
4.380000000000000004e-01 2.749299999999999855e+00 6.886700000000000266e+00 -2.739111000000000118e+01 -1.906923430959648613e-01
4.393299999999999983e-01 -2.657000000000000028e+00 -2.164699999999999847e+01 2.208295999999999870e-01 -3.643504677021751348e-02
4.406700000000000061e-01 1.978000000000000114e+01 1.533600000000000030e+01 9.310677000000000536e-01 -1.860044450315861964e-01
4.406700000000000061e-01 2.148000000000000043e+01 1.533600000000000030e+01 8.065833999999999504e-01 -7.962899525133762535e-02
4.409500000000000086e-01 -1.566699999999999982e+01 -1.580499999999999972e+01 -2.623066000000000031e+01 -5.715234820133519023e-02
4.438900000000000068e-01 1.655599999999999961e+00 -8.259999999999999787e+00 -1.474469999999999992e+01 -1.823613652805872731e-01
4.530799999999999828e-01 -1.774099999999999966e+01 3.770099999999999785e+00 2.644157999999999831e+01 -2.842605731165018801e-01
4.536800000000000277e-01 -3.790099999999999802e+00 6.711999999999999744e+00 1.273696999999999946e+01 -1.851697407845395438e-01
4.536800000000000277e-01 -3.580999999999999961e+00 5.975999999999999979e+00 -1.263896000000000086e+01 -1.854647238463985048e-01
4.536800000000000277e-01 -3.580999999999999961e+00 7.448100000000000165e+00 5.204762000000000199e+01 -1.851534030199445680e-01
4.548599999999999866e-01 6.301000000000000156e+00 1.189899999999999913e+01 -2.404914000000000129e+01 -1.910433352143799668e-01
4.550000000000000155e-01 2.260600000000000165e+01 2.706999999999999851e+00 -2.498219999999999885e-01 -8.131993956431887716e-02
4.603300000000000169e-01 2.900300000000000100e+00 1.536999999999999922e+01 -2.162319999999999798e+00 -1.883198617827323562e-01
4.624500000000000277e-01 -3.529399999999999871e+00 8.471299999999999386e+00 2.739546999999999954e+01 -1.850921305663422722e-01
4.624500000000000277e-01 -3.320300000000000029e+00 9.207300000000000040e+00 -1.246657000000000082e+01 -1.851624342714173754e-01
4.666699999999999737e-01 2.515699999999999825e+00 -1.022899999999999920e+01 -8.374893999999999394e+00 -2.576603602569597085e-01
4.667299999999999782e-01 2.519999999999999929e+01 9.444699999999999207e+00 1.831691000000000014e-01 -8.020538832131993146e-02
4.753399999999999848e-01 4.244299999999999962e+00 1.685500000000000043e+01 -5.797092000000000134e+00 -1.889076478254917979e-01
4.753399999999999848e-01 4.244299999999999962e+00 1.785099999999999909e+01 -6.235363999999999685e+00 -1.888670136954614387e-01
4.753700000000000148e-01 -1.364000000000000057e+01 -1.077100000000000080e+01 -3.232735999999999876e+01 -2.959703831294849818e-01
4.759399999999999742e-01 5.169900000000000162e+00 8.489800000000000679e+00 -2.889188000000000045e+01 -1.919668886220535498e-01
4.765900000000000136e-01 4.018399999999999750e+00 7.753199999999999648e+00 -5.418804000000000087e+01 -1.914003859748359404e-01
4.769300000000000206e-01 -3.050699999999999967e+00 -1.732700000000000173e+01 4.864411000000000151e-01 -2.690143340267898628e-02
4.793499999999999983e-01 2.614799999999999791e+00 5.963499999999999801e+00 -2.826845000000000141e+01 -1.913402435637688026e-01
4.825699999999999990e-01 -2.802299999999999791e+00 4.914600000000000080e+00 -2.947350000000000136e+01 -1.864500713485467975e-01
4.833399999999999919e-01 -1.309200000000000053e+01 1.546199999999999974e+01 8.827878000000000114e+00 -2.858987796578896790e-01
4.839999999999999858e-01 1.259399999999999942e+01 -1.424499999999999922e+01 -6.895731999999999573e+01 -3.749314144526026960e-01
4.847199999999999842e-01 1.085899999999999999e+01 -1.405899999999999928e+01 7.757203999999999766e+00 -3.767475699647527265e-01
4.860800000000000121e-01 -9.468199999999999505e+00 -1.433900000000000041e+01 -2.570056000000000118e+00 -5.773942510900849368e-02
4.951999999999999735e-01 -1.999399999999999977e+01 -3.510699999999999932e+00 1.389020999999999972e+01 -2.860440906528562977e-01
5.020900000000000363e-01 -1.673600000000000065e+01 5.296599999999999753e+00 8.591299999999999670e+01 -2.845641183035471089e-01
5.021799999999999597e-01 1.352200000000000069e+00 -8.960000000000000853e+00 -2.129210000000000136e+01 -2.993528980822047214e-01
5.060000000000000053e-01 -1.038199999999999967e+01 1.724599999999999866e+01 -1.358348999999999940e+01 -1.852113658453247713e-01
5.066500000000000448e-01 -3.407099999999999795e+00 1.840099999999999980e+01 -5.373236999999999597e+00 -1.862862226253574893e-01
5.067000000000000393e-01 -1.973999999999999844e+01 1.329299999999999926e+01 -7.065722000000000058e+00 -2.849564293490699507e-01
5.094899999999999984e-01 1.429100000000000037e+01 -5.672500000000000320e+00 -1.542184999999999917e+00 -2.013543257773053041e-01
5.120700000000000252e-01 -2.104599999999999937e+01 -3.809899999999999842e+00 1.908961000000000041e+01 -2.862771121414980358e-01
5.148700000000000498e-01 2.391100000000000136e+01 1.251600000000000001e+01 1.000751999999999953e+01 -7.990317563943515056e-02
5.249599999999999822e-01 1.346999999999999975e+00 -9.528999999999999915e+00 -1.403139000000000003e+01 -2.974987371355776733e-01
5.296699999999999742e-01 2.636699999999999822e+00 -8.332000000000000739e+00 -1.302730999999999995e+01 -1.527543848603017673e-01
5.311099999999999710e-01 3.268699999999999939e+00 1.621999999999999886e+01 -8.419320000000000803e+00 -1.885031845201381173e-01
5.359899999999999665e-01 3.789000000000000146e+00 1.855799999999999983e+01 -1.042281000000000013e+01 -1.886905663163496449e-01
5.371000000000000218e-01 -1.899200000000000088e+01 5.508700000000000152e+00 1.935197999999999974e+00 -2.843289999922278821e-01
5.382500000000000062e-01 1.879599999999999937e+00 1.525900000000000034e+01 -1.379263000000000083e+01 -1.878593521114174936e-01
5.386199999999999877e-01 -1.833999999999999986e+01 -2.711599999999999788e+00 1.111881999999999948e+01 -2.858101689754940500e-01
5.423999999999999932e-01 -1.918700000000000117e+01 -7.285400000000000098e+00 3.903931000000000040e+00 -2.838486133027441904e-01
5.449600000000000000e-01 9.258300000000000196e+00 1.786199999999999832e+01 6.081415999999999933e+00 -1.806948281758152808e-01
5.450000000000000400e-01 -1.532699999999999951e+00 3.898299999999999876e+00 -1.697412999999999883e+01 -1.883749710334256811e-01
5.455200000000000049e-01 2.301399999999999935e+01 1.333799999999999919e+01 7.311412999999999940e+00 -7.982534290898937734e-02
5.473099999999999632e-01 -1.957400000000000162e+01 -3.239900000000000002e+00 2.148702000000000112e+01 -2.860011148708058726e-01
5.501700000000000479e-01 1.138400000000000034e+01 -1.347700000000000031e+01 -6.494457999999999842e+00 -3.755157273132400664e-01
5.501700000000000479e-01 1.285599999999999987e+01 -1.347700000000000031e+01 -1.892006999999999906e+01 -3.740659001366827274e-01
5.551000000000000378e-01 -2.144500000000000028e+01 6.397599999999999731e+00 -6.845782999999999729e-01 -2.745597341963526561e-01
5.642500000000000293e-01 -1.745499999999999829e+01 5.432000000000000384e+00 4.732607000000000141e+01 -2.844948299132825653e-01
5.644500000000000073e-01 2.346299999999999830e+00 1.852599999999999980e+01 -8.320929999999999993e-02 -1.881355070555966180e-01
5.657100000000000461e-01 -1.224600000000000044e+01 -2.144500000000000028e+01 -4.461707999999999785e+00 1.999529549899746739e-01
5.657100000000000461e-01 -1.130599999999999916e+01 -2.144500000000000028e+01 -1.345785000000000053e+01 1.973782190812829462e-01
5.677299999999999569e-01 1.695899999999999963e+00 -1.027299999999999969e+01 -1.582138999999999918e+01 -2.545857804297749216e-01
5.719999999999999529e-01 -1.833999999999999986e+01 1.329299999999999926e+01 3.965225000000000222e+00 -2.850931013543759329e-01
5.719999999999999529e-01 -1.686400000000000077e+01 1.397499999999999964e+01 -9.933524999999999716e-01 -2.853030649686181253e-01
5.739400000000000057e-01 -1.063499999999999979e+01 -1.508399999999999963e+01 5.829132000000000424e+00 -7.395337969810925061e-02
5.806099999999999595e-01 -1.306799999999999962e+01 -1.972299999999999898e+01 8.629991000000000190e-01 2.072267077039008087e-01
5.871100000000000207e-01 -1.815500000000000114e+01 -7.546299999999999564e+00 -2.323757000000000073e+00 -2.831043649485573410e-01
5.879600000000000382e-01 2.940100000000000158e+00 -9.032000000000000028e+00 -1.326589000000000063e+01 -1.494120441092424978e-01
5.893899999999999695e-01 3.572099999999999831e+00 1.692000000000000171e+01 -4.050627000000000422e+00 -1.886475652738615338e-01
5.977599999999999580e-01 -1.076600000000000001e+01 1.453999999999999915e+01 -9.747339999999999449e+00 -2.863029153140758121e-01
5.977599999999999580e-01 -1.076600000000000001e+01 1.593999999999999950e+01 -3.883618999999999932e+00 -1.850078294746905494e-01
5.977599999999999580e-01 -9.900299999999999656e+00 1.453999999999999915e+01 -1.698293999999999970e+00 -1.847626994115903476e-01
5.977599999999999580e-01 -9.900299999999999656e+00 1.593999999999999950e+01 -1.053978999999999999e+00 -1.850177177445876953e-01
6.000499999999999723e-01 -3.144899999999999807e+00 1.425000000000000000e+01 -1.419427999999999912e+01 -1.857527378225895254e-01
6.035099999999999909e-01 -9.211200000000000498e-01 -2.170499999999999829e+01 -1.576670000000000016e+00 -1.145958507907452947e-02
6.077099999999999724e-01 2.064000000000000057e+01 -4.763800000000000257e-01 -4.897869000000000028e+00 -8.231017603768026047e-02
6.084600000000000009e-01 1.168699999999999939e+01 -1.277699999999999925e+01 -1.358855999999999931e+01 -3.745509057648666040e-01
6.084600000000000009e-01 1.255199999999999960e+01 -1.277699999999999925e+01 -1.764308000000000121e+01 -2.685234797297525455e-01
6.114300000000000290e-01 6.289299999999999891e+00 1.581099999999999994e+01 -1.575751999999999953e+01 -1.900731190158573836e-01
6.140700000000000047e-01 2.076700000000000212e+00 -2.078500000000000014e+01 2.123120999999999814e+00 5.068311052053783156e-02
6.225399999999999823e-01 -1.862399999999999878e+01 6.131999999999999673e+00 1.502547000000000033e+01 -2.844446408483038979e-01
6.225399999999999823e-01 -1.775799999999999912e+01 6.131999999999999673e+00 2.864555000000000007e+01 -2.845404572943820432e-01
6.229000000000000092e-01 -1.659299999999999997e+01 -8.964000000000000412e+00 -7.327045000000000030e+00 -2.944995724740464005e-01
6.229000000000000092e-01 -1.540199999999999925e+01 -8.300000000000000711e+00 -1.413663000000000025e+01 -2.939819582825466959e-01
6.250000000000000000e-01 2.469300000000000139e+01 1.172199999999999953e+01 1.489220000000000077e+01 -7.999587744052491511e-02
6.289900000000000491e-01 -1.257499999999999929e+01 -2.068499999999999872e+01 -2.410222999999999782e+00 2.031050088540492793e-01
6.289900000000000491e-01 -1.097700000000000031e+01 -2.068499999999999872e+01 -1.672064999999999912e+01 1.990693857118606969e-01
6.348799999999999999e-01 -2.699399999999999800e+00 1.931599999999999895e+01 -1.879772000000000176e+01 -1.866577681498763630e-01
6.350099999999999634e-01 -7.918199999999999683e+00 1.527200000000000024e+01 2.177419000000000082e+01 -1.850201820013017417e-01
