3.796600000000000108e+01 2.340099999999999980e+01 8.912000000000000455e+01 3.773058999999999941e+01 -2.847033625926134182e-01
3.798199999999999932e+01 3.134199999999999875e+01 1.003100000000000023e+02 1.465916999999999959e+01 -1.827306858394517897e-01
3.798299999999999699e+01 3.008500000000000085e+01 1.021800000000000068e+02 1.290343999999999980e+01 -2.366441311971011902e-02
3.799300000000000210e+01 3.109199999999999875e+01 7.090200000000000102e+01 1.721459000000000117e+01 -2.477654259782578750e-01
3.799399999999999977e+01 4.590400000000000347e+01 8.085099999999999909e+01 7.361259000000000441e+00 -2.821303058266914632e-01
3.800000000000000000e+01 2.401999999999999957e+01 1.018100000000000023e+02 -3.622198999999999813e+01 -1.340675748004896695e-01
3.800099999999999767e+01 2.585000000000000142e+01 8.638100000000000023e+01 3.990617999999999999e+00 -2.860243902153327133e-01
3.800200000000000244e+01 2.611199999999999832e+01 8.550700000000000500e+01 2.390661000000000147e+00 -2.515131143093419230e-01
3.800600000000000023e+01 4.635199999999999676e+01 8.847899999999999920e+01 -7.793756000000000483e+01 -2.278598652187062146e-01
3.801100000000000279e+01 3.070100000000000051e+01 7.354200000000000159e+01 5.053442999999999685e+00 -2.506345702942264220e-01
3.801500000000000057e+01 4.652799999999999869e+01 8.705200000000000671e+01 -1.200390999999999941e+01 -2.264819937206245248e-01
3.801500000000000057e+01 4.673700000000000188e+01 8.631600000000000250e+01 -1.160388000000000019e+01 -2.257639753481270328e-01
3.802100000000000080e+01 4.112400000000000233e+01 7.635699999999999932e+01 2.714374000000000109e+01 -2.941638442350444915e-01
3.802100000000000080e+01 4.112400000000000233e+01 7.722299999999999898e+01 1.600722999999999985e+01 -2.942590059253381019e-01
3.802100000000000080e+01 2.054200000000000159e+01 9.286100000000000421e+01 -1.343855000000000022e+00 -2.829652849029477002e-01
3.803699999999999903e+01 2.533899999999999864e+01 8.910699999999999932e+01 1.243947999999999965e+01 -2.829195668355068416e-01
3.803999999999999915e+01 3.801599999999999824e+01 6.960099999999999909e+01 4.342836000000000141e+00 -3.828443410758905485e-01
3.803999999999999915e+01 3.164499999999999957e+01 9.961400000000000432e+01 4.944944999999999702e+00 -1.826552785931238598e-01
3.803999999999999915e+01 3.250999999999999801e+01 9.961400000000000432e+01 5.094789999999999708e+00 -1.830409201212201964e-01
3.804200000000000159e+01 2.614099999999999824e+01 8.720900000000000318e+01 4.155663999999999803e+00 -2.845833763037571851e-01
3.804699999999999704e+01 4.648599999999999710e+01 8.755500000000000682e+01 -1.907222000000000151e+01 -2.270603126067036182e-01
3.805700000000000216e+01 4.225699999999999790e+01 7.798099999999999454e+01 8.295617000000000019e+00 -2.768429633719470262e-01
3.805799999999999983e+01 3.075600000000000023e+01 7.167700000000000671e+01 9.047088999999999714e+00 -2.487577991845970060e-01
3.806000000000000227e+01 3.429800000000000182e+01 6.956900000000000261e+01 6.429879999999999818e+00 -3.838715066054206870e-01
3.807099999999999795e+01 3.945000000000000284e+01 9.563599999999999568e+01 -3.485447000000000184e+00 -1.880256765259321616e-01
3.807900000000000063e+01 4.588900000000000290e+01 9.819299999999999784e+01 -9.942418999999999230e+00 -1.959839661626625318e-01
3.808200000000000074e+01 2.712699999999999889e+01 1.019000000000000057e+02 4.796329000000000065e+00 -2.598753151744911949e-02
3.809700000000000131e+01 3.204800000000000182e+01 7.084900000000000375e+01 1.002918999999999983e+02 -2.471215209799994261e-01
3.809799999999999898e+01 2.179899999999999949e+01 9.335699999999999932e+01 1.710475999999999885e+01 -2.815531529508666919e-01
3.811899999999999977e+01 4.616499999999999915e+01 9.026900000000000546e+01 -7.705180000000000362e+00 -9.556096429956659200e-02
3.812800000000000011e+01 2.858599999999999852e+01 1.024500000000000028e+02 2.314451999999999998e+01 -2.501307159258550628e-02
3.813400000000000034e+01 2.771000000000000085e+01 8.259600000000000364e+01 -3.477682999999999747e-01 -2.517118985862412117e-01
3.813400000000000034e+01 4.421300000000000097e+01 7.734999999999999432e+01 6.377019999999999911e+00 -2.753958829923418561e-01
3.814399999999999835e+01 2.145400000000000063e+01 9.293699999999999761e+01 1.118577999999999939e+01 -2.822322609289802942e-01
3.815599999999999881e+01 4.209499999999999886e+01 7.521800000000000352e+01 4.314846000000000004e+01 -2.928781633493958703e-01
3.815599999999999881e+01 4.588000000000000256e+01 8.946299999999999386e+01 -4.053903999999999996e+01 -2.283370366261517626e-01
3.815800000000000125e+01 4.654599999999999937e+01 9.123099999999999454e+01 -7.420797999999999561e+00 -9.550144935168830562e-02
3.816299999999999670e+01 2.492200000000000060e+01 9.905899999999999750e+01 -1.844285999999999959e+01 -1.324079551945643307e-01
3.817300000000000182e+01 2.047299999999999898e+01 8.948799999999999955e+01 3.099229999999999929e+00 -2.865138811562676358e-01
3.817900000000000205e+01 4.301500000000000057e+01 7.373399999999999466e+01 2.371675000000000111e+01 -2.871145038578729602e-01
3.817999999999999972e+01 3.309700000000000131e+01 9.940200000000000102e+01 2.341730999999999785e+00 -1.831874296654149026e-01
3.818099999999999739e+01 2.526200000000000045e+01 1.013400000000000034e+02 -4.033156000000000319e+01 -1.338194233123990162e-01
3.819200000000000017e+01 4.022099999999999653e+01 9.540699999999999648e+01 -6.925253999999999799e+00 -1.889204197167660415e-01
3.819200000000000017e+01 2.035900000000000176e+01 9.193699999999999761e+01 2.031197000000000141e+00 -2.840248130510593105e-01
3.820100000000000051e+01 4.491899999999999693e+01 7.866100000000000136e+01 2.111343000000000103e+01 -2.775696636799357409e-01
3.821200000000000330e+01 3.591499999999999915e+01 9.821500000000000341e+01 -6.414141999999999655e+01 -1.847039249387147641e-01
3.821300000000000097e+01 2.172700000000000031e+01 8.864799999999999613e+01 5.349874999999999936e+00 -2.866583057598752760e-01
3.821699999999999875e+01 2.391100000000000136e+01 9.807699999999999818e+01 3.435705000000000009e+00 -2.759487950208254214e-01
3.821900000000000119e+01 4.723700000000000188e+01 8.181799999999999784e+01 2.267495999999999867e+01 -2.844670272169394498e-01
3.822299999999999898e+01 4.330700000000000216e+01 7.476099999999999568e+01 5.167353999999999559e+00 -2.858308261400402950e-01
3.823100000000000165e+01 2.039300000000000068e+01 9.053100000000000591e+01 3.912666000000000199e+00 -2.854568843840620262e-01
3.823700000000000188e+01 3.071099999999999852e+01 7.268300000000000693e+01 7.779260999999999981e+00 -2.498477344643689757e-01
3.823799999999999955e+01 4.543299999999999983e+01 7.922499999999999432e+01 3.255205000000000126e+01 -2.786224668748142896e-01
3.825099999999999767e+01 2.396499999999999986e+01 9.896299999999999386e+01 -1.429696999999999996e+01 -1.324628122624617599e-01
3.825600000000000023e+01 4.167499999999999716e+01 7.127599999999999625e+01 1.362245000000000061e+01 -4.168788117771316526e-01
3.825699999999999790e+01 4.158800000000000097e+01 9.545099999999999341e+01 -1.958992999999999896e+01 -1.907524970832188693e-01
3.825999999999999801e+01 4.461599999999999966e+01 7.796099999999999852e+01 6.460033000000000136e+00 -2.762716483472703599e-01
3.826200000000000045e+01 4.547099999999999653e+01 8.015099999999999625e+01 1.910221999999999909e+01 -2.805474337257618522e-01
3.826200000000000045e+01 3.646600000000000108e+01 6.921800000000000352e+01 5.989694000000000074e+00 -3.831604184341587671e-01
3.826800000000000068e+01 3.471399999999999864e+01 9.914300000000000068e+01 -2.218231000000000108e+01 -1.839976892086677696e-01
3.827199999999999847e+01 2.330099999999999838e+01 9.726500000000000057e+01 1.383866000000000085e+01 -2.770462261721688413e-01
3.827700000000000102e+01 2.588100000000000023e+01 1.013599999999999994e+02 -2.080775999999999826e+01 -1.338471165384909345e-01
3.828600000000000136e+01 4.795400000000000063e+01 8.307500000000000284e+01 2.194442000000000004e+00 -2.220193098091336470e-01
3.828600000000000136e+01 4.795400000000000063e+01 8.412500000000000000e+01 5.601144000000000123e-01 -2.238889541140759720e-01
3.828999999999999915e+01 2.304599999999999937e+01 9.676099999999999568e+01 1.076831999999999923e+01 -2.776365307753138612e-01
3.829500000000000171e+01 4.485499999999999687e+01 7.561100000000000421e+01 4.582327000000000261e+00 -2.866637365879953769e-01
3.831099999999999994e+01 2.732000000000000028e+01 8.147299999999999898e+01 2.182684000000000013e-01 -2.520481420982655929e-01
3.831199999999999761e+01 2.697599999999999909e+01 8.719599999999999795e+01 3.476633999999999780e+00 -2.837727582601863308e-01
3.832300000000000040e+01 4.601299999999999812e+01 9.724299999999999500e+01 -2.074943999999999988e+01 -9.554024957619970670e-02
3.832699999999999818e+01 4.016100000000000136e+01 7.069700000000000273e+01 1.983609999999999829e+01 -3.826388028226030413e-01
3.834000000000000341e+01 2.719800000000000040e+01 8.065699999999999648e+01 7.484809999999999519e-01 -2.522019448751136594e-01
3.834000000000000341e+01 2.742500000000000071e+01 7.985800000000000409e+01 -3.740049999999999764e-01 -2.522395523583482735e-01
3.834000000000000341e+01 2.837399999999999878e+01 7.890900000000000603e+01 2.926965000000000039e+00 -2.520629891634783015e-01
3.834899999999999665e+01 4.509700000000000131e+01 7.627599999999999625e+01 5.243648000000000309e+00 -2.857876834776251762e-01
3.835000000000000142e+01 4.369599999999999795e+01 1.003499999999999943e+02 -5.499083999999999861e+01 -1.923995358315451765e-01
3.835000000000000142e+01 4.521600000000000108e+01 1.003499999999999943e+02 -8.569814999999999827e+01 -1.941708836317451170e-01
3.835399999999999920e+01 3.278600000000000136e+01 7.090200000000000102e+01 3.436977000000000260e+01 -2.466933424102743244e-01
3.835499999999999687e+01 4.500399999999999778e+01 7.740699999999999648e+01 5.914170000000000371e+00 -2.751363790008858889e-01
3.835600000000000165e+01 3.051000000000000156e+01 1.015600000000000023e+02 3.946311000000000035e+01 -2.314004499798239661e-02
3.835799999999999699e+01 2.665299999999999869e+01 8.643800000000000239e+01 2.675596999999999781e+00 -2.852640312680203571e-01
3.836200000000000188e+01 3.018299999999999983e+01 7.719599999999999795e+01 1.578744999999999976e+01 -2.515270690229522432e-01
3.836200000000000188e+01 3.039199999999999946e+01 7.645999999999999375e+01 5.612922000000000189e+00 -2.514481260057135903e-01
3.837100000000000222e+01 2.667299999999999827e+01 8.789600000000000080e+01 2.380418999999999841e+00 -2.831548150819487297e-01
3.837199999999999989e+01 2.565800000000000125e+01 9.905899999999999750e+01 -9.940590000000000259e+00 -1.324201657258702314e-01
3.838000000000000256e+01 3.899399999999999977e+01 9.637300000000000466e+01 -1.180177000000000032e+00 -1.872707386137059671e-01
3.838199999999999790e+01 4.594299999999999784e+01 9.084099999999999397e+01 -8.086439000000000377e+00 -9.571984906632442780e-02
3.838300000000000267e+01 2.920400000000000063e+01 7.810699999999999932e+01 9.908406999999999698e+01 -2.518647976612664596e-01
3.838700000000000045e+01 2.739000000000000057e+01 8.228199999999999648e+01 -3.477682999999999747e-01 -2.519335609152427713e-01
3.838900000000000290e+01 4.466100000000000136e+01 7.659199999999999875e+01 5.439009000000000427e+00 -2.844523641273457026e-01
3.839500000000000313e+01 4.324499999999999744e+01 7.590099999999999625e+01 4.624562000000000062e+00 -2.913497594033457316e-01
3.839500000000000313e+01 4.324499999999999744e+01 7.730100000000000193e+01 5.965714000000000183e+00 -2.753285416876188885e-01
3.839600000000000080e+01 2.298199999999999932e+01 8.912800000000000011e+01 9.713854999999999507e+01 -2.851964880955126236e-01
3.839999999999999858e+01 2.431299999999999883e+01 8.940000000000000568e+01 1.596143000000000001e+01 -2.836758268087767876e-01
3.841199999999999903e+01 3.157100000000000151e+01 7.160200000000000387e+01 6.028367000000000075e+01 -2.482371339131361210e-01
3.841199999999999903e+01 3.248299999999999699e+01 7.160200000000000387e+01 6.583714999999999407e+01 -2.476461608688004523e-01
3.841499999999999915e+01 4.267199999999999704e+01 7.218500000000000227e+01 4.030586999999999875e+01 -2.888150798110697970e-01
3.841700000000000159e+01 4.528799999999999670e+01 8.946899999999999409e+01 -4.399143000000000114e+01 -2.278624953901841610e-01
3.842099999999999937e+01 3.084600000000000009e+01 1.007900000000000063e+02 2.321594999999999942e+01 -2.253793202567933376e-02
3.842099999999999937e+01 4.360099999999999909e+01 7.659699999999999420e+01 4.993994999999999962e+00 -2.741129162978203082e-01
3.842300000000000182e+01 4.592900000000000205e+01 9.615300000000000580e+01 -9.442799000000000831e+00 -9.563409307211243049e-02
3.842600000000000193e+01 4.697899999999999920e+01 9.193099999999999739e+01 -1.183409999999999940e+01 -9.546784839713144677e-02
3.842600000000000193e+01 4.697899999999999920e+01 9.439100000000000534e+01 -4.162427000000000277e+01 -9.546306885314151391e-02
3.843099999999999739e+01 2.355000000000000071e+01 9.975900000000000034e+01 -1.918385999999999925e+01 -1.330565740111053774e-01
3.843099999999999739e+01 2.355000000000000071e+01 1.012800000000000011e+02 -5.328058999999999656e+01 -1.339491821312322750e-01
3.843099999999999739e+01 2.448999999999999844e+01 9.835899999999999466e+01 4.041212999999999944e+00 -1.320776677594945880e-01
3.843099999999999739e+01 2.448999999999999844e+01 9.975900000000000034e+01 -4.840185000000000315e+01 -1.329877631732470644e-01
3.843099999999999739e+01 2.448999999999999844e+01 1.012800000000000011e+02 -1.113683000000000050e+02 -1.339097759322222525e-01
3.843099999999999739e+01 2.535500000000000043e+01 9.835899999999999466e+01 9.716792999999999125e+00 -1.319893090058162910e-01
3.843099999999999739e+01 2.535500000000000043e+01 9.975900000000000034e+01 -2.770927000000000007e+01 -1.329283320203017704e-01
3.843699999999999761e+01 3.207800000000000296e+01 9.912300000000000466e+01 6.137236000000000358e-01 -1.824539784023073152e-01
3.843800000000000239e+01 4.424099999999999966e+01 7.483599999999999852e+01 4.625396000000000285e+00 -2.869064510886745745e-01
3.844400000000000261e+01 3.747599999999999909e+01 9.712399999999999523e+01 -3.724905999999999828e+00 -1.856994852129610074e-01
3.844400000000000261e+01 2.748400000000000176e+01 8.318399999999999750e+01 -7.729243000000000308e+00 -2.517753720244268467e-01
3.844800000000000040e+01 4.722800000000000153e+01 8.591899999999999693e+01 -1.985689000000000037e+00 -2.260726122838146723e-01
3.845300000000000296e+01 2.657400000000000162e+01 8.506300000000000239e+01 1.438593999999999928e+00 -2.516329907351501638e-01
3.845300000000000296e+01 4.182399999999999807e+01 7.609000000000000341e+01 2.202428000000000097e+01 -2.933783927304677297e-01
3.845300000000000296e+01 4.182399999999999807e+01 7.748999999999999488e+01 1.200885000000000069e+01 -2.935191138858276871e-01
3.845300000000000296e+01 4.268900000000000006e+01 7.748999999999999488e+01 7.987930999999999671e+00 -2.757174376208309519e-01
3.845600000000000307e+01 3.908400000000000318e+01 6.978900000000000148e+01 -4.077543000000000362e+00 -3.826069758717226543e-01
3.846399999999999864e+01 4.371900000000000119e+01 7.552899999999999636e+01 -2.982321000000000000e-01 -2.848623599256332461e-01
3.846399999999999864e+01 4.538199999999999790e+01 9.026900000000000546e+01 -9.613445999999999714e+00 -9.587266953977188755e-02
3.847299999999999898e+01 3.094500000000000028e+01 9.988200000000000500e+01 8.415241999999999223e+00 -2.208390931201091242e-02
3.847599999999999909e+01 4.559199999999999875e+01 8.876900000000000546e+01 -3.802058000000000249e+01 -2.276370650121589956e-01
3.847899999999999920e+01 3.634700000000000131e+01 9.751500000000000057e+01 -1.636028999999999911e+01 -1.847292821142265673e-01
3.848400000000000176e+01 3.491599999999999682e+01 6.960099999999999909e+01 4.783985999999999628e+00 -3.837623829803745723e-01
3.849399999999999977e+01 2.322100000000000009e+01 1.005199999999999960e+02 -5.076597999999999722e+00 -1.335540184047618872e-01
3.850099999999999767e+01 4.540400000000000347e+01 7.796599999999999397e+01 9.818991000000000469e+00 -2.759557792656947561e-01
3.850600000000000023e+01 4.677199999999999847e+01 8.106499999999999773e+01 1.469533999999999896e+00 -2.826605310353268452e-01
3.851200000000000045e+01 4.152100000000000080e+01 7.679000000000000625e+01 1.536992000000000047e+01 -2.938758458806925988e-01
3.851700000000000301e+01 4.757999999999999829e+01 8.220999999999999375e+01 1.728579000000000088e+00 -2.200318936567705053e-01
3.851700000000000301e+01 4.757999999999999829e+01 8.498999999999999488e+01 -4.332260999999999918e+00 -2.250585784730431416e-01
3.852300000000000324e+01 4.584499999999999886e+01 9.524699999999999989e+01 -1.223728000000000016e+01 -9.571748891644171753e-02
3.852400000000000091e+01 4.202000000000000313e+01 9.615099999999999625e+01 -1.100229000000000035e+01 -1.911049814611227027e-01
3.853000000000000114e+01 2.228999999999999915e+01 9.375400000000000489e+01 3.876084000000000085e+00 -2.808235028591350990e-01
3.854099999999999682e+01 3.377300000000000324e+01 7.016500000000000625e+01 6.655067999999999984e+00 -2.452132116307546017e-01
3.856000000000000227e+01 4.088799999999999812e+01 9.539300000000000068e+01 -1.656684999999999874e+01 -1.895837901810961124e-01
3.856199999999999761e+01 4.570000000000000284e+01 7.544799999999999329e+01 7.035057000000000116e+00 -2.882446165016067097e-01
3.856900000000000261e+01 2.249099999999999966e+01 9.466599999999999682e+01 3.862944000000000155e+00 -2.798236912855793235e-01
3.857099999999999795e+01 4.574199999999999733e+01 7.877599999999999625e+01 1.959712999999999994e+01 -2.774723262974301830e-01
3.857399999999999807e+01 4.571999999999999886e+01 7.712399999999999523e+01 8.967847000000000790e+00 -2.849706363726737246e-01
3.857600000000000051e+01 2.215399999999999991e+01 9.320399999999999352e+01 7.945280000000000342e+00 -2.814696282815443151e-01
3.857999999999999829e+01 2.658099999999999952e+01 1.014200000000000017e+02 3.489386999999999794e+00 -2.645084619165325585e-02
3.858700000000000330e+01 2.571999999999999886e+01 1.005799999999999983e+02 -1.248493000000000031e+01 -1.334940959771162561e-01
3.859100000000000108e+01 4.520700000000000074e+01 9.084099999999999397e+01 -9.255546999999999969e+00 -9.596932173154856804e-02
3.859300000000000352e+01 3.034299999999999997e+01 7.574200000000000443e+01 5.217878999999999934e+00 -2.515476334266129599e-01
3.859899999999999665e+01 2.483599999999999852e+01 1.005499999999999972e+02 -3.317942000000000036e+01 -1.335222985114870031e-01
3.860000000000000142e+01 2.707100000000000151e+01 8.413899999999999579e+01 3.462319999999999981e-02 -2.517487773280669416e-01
3.860199999999999676e+01 2.251500000000000057e+01 9.590200000000000102e+01 3.817981999999999765e-01 -2.787648746456318771e-01
3.860300000000000153e+01 4.599099999999999966e+01 7.627599999999999625e+01 1.107926999999999929e+01 -2.871306589473128779e-01
3.860600000000000165e+01 2.800000000000000000e+01 1.022000000000000028e+02 8.594950000000000756e+00 -2.553864341879021754e-02
3.860900000000000176e+01 4.536299999999999955e+01 7.484199999999999875e+01 5.632871999999999879e+00 -2.887197208975002538e-01
3.861099999999999710e+01 4.371500000000000341e+01 7.400100000000000477e+01 2.544367999999999963e+00 -2.873669490383004566e-01
3.861200000000000188e+01 3.340400000000000347e+01 7.101500000000000057e+01 2.198357000000000028e+01 -2.463828076768265762e-01
3.861399999999999721e+01 4.598599999999999710e+01 8.805700000000000216e+01 -2.893877000000000166e+01 -2.274903019710050600e-01
3.861899999999999977e+01 3.743999999999999773e+01 6.909999999999999432e+01 3.257534000000000152e+00 -3.828374301522441403e-01
3.863900000000000290e+01 4.239000000000000057e+01 9.697400000000000375e+01 -2.714681999999999817e+00 -1.914083246235050717e-01
3.864000000000000057e+01 4.322599999999999909e+01 9.959000000000000341e+01 -2.212867999999999924e+01 -1.919251688206819462e-01
3.864000000000000057e+01 4.568599999999999994e+01 9.778499999999999659e+01 -7.371363999999999805e+00 -1.958478072998428854e-01
3.864000000000000057e+01 4.568599999999999994e+01 9.865000000000000568e+01 -2.793016000000000076e+01 -1.954253327531840223e-01
3.864000000000000057e+01 4.568599999999999994e+01 9.959000000000000341e+01 -4.670626000000000033e+01 -1.949953788626064832e-01
3.864600000000000080e+01 2.416600000000000037e+01 9.749599999999999511e+01 4.933733000000000146e+00 -2.760470709892061114e-01
3.864900000000000091e+01 4.551100000000000279e+01 9.154099999999999682e+01 -6.342545000000000321e+00 -9.592134234842566998e-02
3.864900000000000091e+01 4.637599999999999767e+01 9.154099999999999682e+01 -2.701811999999999880e+00 -9.569668443877245301e-02
3.865200000000000102e+01 2.124800000000000111e+01 8.919199999999999307e+01 3.359321000000000002e+00 -2.865294183100986491e-01
3.865200000000000102e+01 2.220599999999999952e+01 8.919199999999999307e+01 2.209855999999999909e+01 -2.858333890689872536e-01
3.866299999999999670e+01 4.281199999999999761e+01 7.660099999999999909e+01 4.843136999999999581e+00 -2.920639388983697349e-01
3.867000000000000171e+01 3.310099999999999909e+01 7.171500000000000341e+01 2.111026000000000025e+01 -2.473669313373468293e-01
3.867900000000000205e+01 4.445600000000000307e+01 1.004099999999999966e+02 -6.953091000000000577e+01 -1.931719677635743426e-01
3.868200000000000216e+01 2.601800000000000068e+01 8.857599999999999341e+01 6.889878999999999643e+00 -2.830582371799002517e-01
3.868200000000000216e+01 2.157400000000000162e+01 9.226300000000000523e+01 9.099271999999999139e+00 -2.829047613434071962e-01
3.868900000000000006e+01 3.028300000000000125e+01 7.496800000000000352e+01 3.719647999999999843e+00 -2.515776639474453513e-01
3.869400000000000261e+01 4.617099999999999937e+01 8.041899999999999693e+01 5.033225999999999978e+00 -2.810559188846334377e-01
3.870100000000000051e+01 2.975799999999999912e+01 1.015199999999999960e+02 8.360625999999999891e+00 -2.387573532610853116e-02
3.871099999999999852e+01 3.043400000000000105e+01 7.397499999999999432e+01 3.543127000000000137e+00 -2.514503559760071782e-01
3.871099999999999852e+01 4.219299999999999784e+01 7.140999999999999659e+01 5.070027000000000328e+01 -2.890715966038025497e-01
3.871500000000000341e+01 4.679500000000000171e+01 8.661899999999999977e+01 -4.915104000000000362e+00 -2.267678185560231818e-01
3.871600000000000108e+01 4.744899999999999807e+01 9.269100000000000250e+01 -2.701350000000000051e+01 -9.541564699743433631e-02
3.871600000000000108e+01 4.744899999999999807e+01 9.363100000000000023e+01 -4.065335999999999927e+01 -9.541646688235894125e-02
3.871699999999999875e+01 2.091199999999999903e+01 8.996699999999999875e+01 3.108458000000000165e+00 -2.858909303970804672e-01
3.872099999999999653e+01 4.225699999999999790e+01 7.679000000000000625e+01 1.082085999999999970e+01 -2.929130390140520790e-01
3.872099999999999653e+01 2.401999999999999957e+01 1.005199999999999960e+02 -3.845038000000000267e+01 -1.335936474352715508e-01
3.872399999999999665e+01 4.091799999999999926e+01 7.098699999999999477e+01 2.648617000000000132e+01 -4.166818179668223543e-01
3.873299999999999699e+01 3.859400000000000119e+01 6.906399999999999295e+01 3.475004999999999900e+00 -3.824717511981428064e-01
3.873899999999999721e+01 4.316599999999999682e+01 9.865099999999999625e+01 -3.264064999999999994e+00 -1.920347206278507080e-01
3.874199999999999733e+01 2.762999999999999901e+01 8.724299999999999500e+01 6.043403999999999776e+00 -2.830524373579506592e-01
3.874900000000000233e+01 3.010099999999999909e+01 1.007900000000000063e+02 3.264225000000000154e+00 -2.331176719386236079e-02
3.875200000000000244e+01 4.586800000000000210e+01 7.971899999999999409e+01 1.973876999999999882e+01 -2.794125185095578945e-01
3.875900000000000034e+01 3.967000000000000171e+01 7.030100000000000193e+01 1.369380999999999915e+01 -3.826272230295927890e-01
3.875999999999999801e+01 2.103300000000000125e+01 9.129000000000000625e+01 1.009770999999999930e+01 -2.843590179574170818e-01
3.876899999999999835e+01 4.496500000000000341e+01 7.406100000000000705e+01 4.469013000000000346e+00 -2.892954023804923946e-01
3.877300000000000324e+01 3.379200000000000159e+01 9.914799999999999613e+01 -2.937755999999999812e+00 -1.830796172189491644e-01
3.877499999999999858e+01 2.512399999999999878e+01 9.757599999999999341e+01 2.631091999999999942e+01 -1.315835471036455873e-01
3.878099999999999881e+01 4.641499999999999915e+01 8.727299999999999613e+01 -6.919293999999999834e+00 -2.272257817642663602e-01
3.878699999999999903e+01 3.561599999999999966e+01 6.954300000000000637e+01 9.284231999999999374e+00 -3.835685870452302249e-01
3.878999999999999915e+01 4.627799999999999869e+01 9.454699999999999704e+01 -4.143222000000000094e+01 -9.571654954124499126e-02
3.879999999999999716e+01 2.732700000000000173e+01 8.654300000000000637e+01 3.419919000000000153e+00 -2.845160872498592175e-01
3.879999999999999716e+01 2.732700000000000173e+01 8.794299999999999784e+01 3.540674000000000099e+00 -2.824227356126337019e-01
3.880100000000000193e+01 3.130099999999999838e+01 7.223799999999999955e+01 5.308473000000000219e+00 -2.491664339217146140e-01
3.880700000000000216e+01 3.040500000000000114e+01 1.000900000000000034e+02 5.578431000000000139e+00 -2.277162087545266458e-02
3.880899999999999750e+01 3.204999999999999716e+01 7.209199999999999875e+01 1.372073999999999927e+01 -2.485165772658784467e-01
3.881000000000000227e+01 2.795799999999999841e+01 7.942700000000000671e+01 -3.604758000000000129e-01 -2.523420926040955137e-01
3.881300000000000239e+01 4.538400000000000034e+01 8.832399999999999807e+01 -7.689655999999999381e+01 -2.271785244806173443e-01
3.881600000000000250e+01 2.969500000000000028e+01 7.771099999999999852e+01 2.560692999999999842e+01 -2.518901233504943216e-01
3.883700000000000330e+01 2.702899999999999991e+01 8.594799999999999329e+01 4.058971999999999802e+00 -2.858161328940239665e-01
3.886299999999999955e+01 3.128000000000000114e+01 9.909900000000000375e+01 4.524714000000000347e+00 -2.148373090196562668e-02
3.886299999999999955e+01 2.605499999999999972e+01 9.862600000000000477e+01 1.692558000000000007e+00 -1.322713300456626051e-01
3.886299999999999955e+01 2.605499999999999972e+01 9.949200000000000443e+01 -4.005935000000000024e+00 -1.328733587968081442e-01
3.887100000000000222e+01 4.568800000000000239e+01 8.762399999999999523e+01 -5.093786000000000058e+01 -2.267985246855321324e-01
3.888400000000000034e+01 3.677400000000000091e+01 9.722199999999999420e+01 -7.406888000000000361e+00 -1.847204348587130340e-01
3.888400000000000034e+01 3.450000000000000000e+01 6.997100000000000364e+01 8.783277000000000001e+00 -2.784511412761542792e-01
3.889800000000000324e+01 3.947899999999999920e+01 9.598099999999999454e+01 -5.326100000000000279e+00 -1.874467803999481652e-01
3.890800000000000125e+01 4.489200000000000301e+01 8.903600000000000136e+01 -2.562722000000000122e+01 -2.273535064041670162e-01
3.891599999999999682e+01 4.319200000000000017e+01 7.284000000000000341e+01 3.230454999999999899e+01 -2.882501200419879672e-01
3.892000000000000171e+01 3.529599999999999937e+01 9.876300000000000523e+01 -2.962820999999999927e+01 -1.838253451826313001e-01
3.892000000000000171e+01 3.564099999999999824e+01 9.798099999999999454e+01 -3.117596999999999952e+01 -1.839103145702931097e-01
3.894800000000000040e+01 2.172700000000000031e+01 8.996699999999999875e+01 -9.076971000000000345e+00 -2.853834086067059683e-01
3.894899999999999807e+01 4.565599999999999881e+01 9.671800000000000352e+01 -5.685279000000000416e+00 -1.963265551413880261e-01
3.895199999999999818e+01 4.432399999999999807e+01 7.359799999999999898e+01 3.403595000000000148e+00 -2.888210744433925559e-01
3.895400000000000063e+01 2.615599999999999881e+01 1.004000000000000057e+02 -4.858836999999999740e-01 -1.335100175242533438e-01
3.895700000000000074e+01 4.132000000000000028e+01 9.588400000000000034e+01 -1.613203999999999994e+01 -1.898872113076026380e-01
3.896900000000000119e+01 3.832600000000000051e+01 9.679900000000000659e+01 -1.773551000000000100e+00 -1.861053024191935412e-01
3.897200000000000131e+01 2.356899999999999906e+01 9.683199999999999363e+01 -2.348536999999999986e-01 -2.770673553295125435e-01
3.897299999999999898e+01 2.693599999999999994e+01 8.374899999999999523e+01 -7.312879999999999825e+00 -2.519818206246708936e-01
3.897299999999999898e+01 4.656600000000000250e+01 7.997400000000000375e+01 -4.310797000000000101e-01 -2.799069136164659133e-01
3.897699999999999676e+01 2.705300000000000082e+01 8.271399999999999864e+01 -7.862365000000000048e-01 -2.521579473750089617e-01
3.897800000000000153e+01 2.716400000000000148e+01 8.191700000000000159e+01 -2.539456999999999964e-01 -2.522753505133433216e-01
3.899000000000000199e+01 4.719299999999999784e+01 8.043099999999999739e+01 -1.227912000000000070e+01 -2.810503115811641694e-01
3.903199999999999648e+01 4.626299999999999812e+01 7.927400000000000091e+01 2.480993000000000137e+01 -2.782180984452042316e-01
3.903499999999999659e+01 2.681500000000000128e+01 8.863500000000000512e+01 4.285595999999999961e+00 -2.821332528888539359e-01
3.903699999999999903e+01 2.997299999999999898e+01 7.725600000000000023e+01 5.026886000000000188e+00 -2.518935170512578425e-01
3.903999999999999915e+01 2.720700000000000074e+01 1.017699999999999960e+02 3.576429000000000080e+00 -2.619371738767846056e-02
3.903999999999999915e+01 2.890700000000000003e+01 1.017699999999999960e+02 1.441883999999999943e+01 -2.479413496849861009e-02
3.904599999999999937e+01 4.594299999999999784e+01 9.203199999999999648e+01 -4.194080999999999726e+00 -9.593576989123106524e-02
3.904800000000000182e+01 2.325499999999999901e+01 8.962900000000000489e+01 1.741222000000000136e+01 -2.845703507580110703e-01
3.906300000000000239e+01 2.553200000000000003e+01 8.919700000000000273e+01 1.038560000000000016e+01 -2.828681649751141336e-01
3.906700000000000017e+01 3.266799999999999926e+01 7.220600000000000307e+01 6.390684000000000253e+00 -2.482604438635165334e-01
3.907099999999999795e+01 2.263899999999999935e+01 8.989199999999999591e+01 1.658568999999999960e+01 -2.847862646248762175e-01
3.907099999999999795e+01 2.215899999999999892e+01 9.210500000000000398e+01 8.475607999999999365e+00 -2.826671486801416444e-01
3.907200000000000273e+01 4.189900000000000091e+01 9.657699999999999818e+01 -5.404499999999999638e+00 -1.905548604548044644e-01
3.908200000000000074e+01 4.481099999999999994e+01 9.033700000000000330e+01 -7.051635000000000097e+00 -2.266571417108896314e-01
3.908200000000000074e+01 4.481099999999999994e+01 9.127299999999999613e+01 -1.237718000000000096e+00 -2.259363364694805809e-01
3.908299999999999841e+01 4.814099999999999824e+01 8.448000000000000398e+01 1.352384999999999948e+00 -2.251846768296235646e-01
3.909599999999999653e+01 3.085099999999999909e+01 7.304000000000000625e+01 3.897816999999999865e+00 -2.504204450383341607e-01
3.910000000000000142e+01 2.748799999999999955e+01 8.018699999999999761e+01 -5.362618000000000329e+00 -2.525112569699894394e-01
3.910000000000000142e+01 4.615800000000000125e+01 7.511299999999999955e+01 9.671965000000000146e+00 -2.893991961863347506e-01
3.910300000000000153e+01 3.380100000000000193e+01 7.144799999999999329e+01 1.957654000000000138e+01 -2.465624996018320747e-01
3.910699999999999932e+01 2.245799999999999841e+01 9.518399999999999750e+01 1.063264000000000015e-01 -2.794274902790044313e-01
3.910699999999999932e+01 2.268900000000000006e+01 9.599899999999999523e+01 -2.415379000000000165e+00 -2.785340987688605385e-01
3.910999999999999943e+01 4.398599999999999710e+01 9.987999999999999545e+01 -2.471666000000000096e+01 -1.926215825627343725e-01
3.910999999999999943e+01 4.492600000000000193e+01 9.987999999999999545e+01 -6.647615999999999303e+01 -1.938113622414919246e-01
3.911699999999999733e+01 2.183599999999999852e+01 9.134699999999999420e+01 6.695914000000000144e+00 -2.837710876719072295e-01
3.911800000000000210e+01 2.676699999999999946e+01 8.483799999999999386e+01 7.725488999999999828e-01 -2.518393711091634346e-01
3.912800000000000011e+01 4.778099999999999881e+01 8.558299999999999841e+01 -1.398489000000000093e+00 -2.267588689264178892e-01
3.913100000000000023e+01 2.250300000000000011e+01 9.259900000000000375e+01 9.465350999999999626e-01 -2.818577037937456398e-01
3.913600000000000279e+01 4.802499999999999858e+01 8.270600000000000307e+01 3.506133999999999862e+00 -2.215010321635144108e-01
3.913600000000000279e+01 4.827900000000000347e+01 8.359999999999999432e+01 2.111933000000000149e+01 -2.236493038297261704e-01
3.914000000000000057e+01 3.408599999999999852e+01 7.064199999999999591e+01 7.728633000000000308e+00 -2.454113682520475681e-01
3.914000000000000057e+01 2.258299999999999841e+01 9.435699999999999932e+01 4.331961999999999868e+00 -2.800569175204255523e-01
3.915200000000000102e+01 3.292000000000000171e+01 9.909199999999999875e+01 -1.883756999999999904e+00 -1.823210428446499498e-01
3.915200000000000102e+01 3.466400000000000148e+01 9.909199999999999875e+01 6.460784000000000526e-01 -1.833037430315806737e-01
3.915899999999999892e+01 4.585499999999999687e+01 7.441299999999999670e+01 -2.684248000000000189e+00 -2.901328905271218228e-01
3.916400000000000148e+01 3.647999999999999687e+01 6.901900000000000546e+01 4.593777000000000221e+00 -3.831244898243803543e-01
3.916700000000000159e+01 4.622299999999999898e+01 7.738500000000000512e+01 1.240310000000000024e+01 -2.845750006772126972e-01
3.917099999999999937e+01 2.271399999999999864e+01 9.345000000000000284e+01 5.948052999999999813e+00 -2.808079452671127241e-01
3.917300000000000182e+01 4.365699999999999648e+01 9.912000000000000455e+01 -2.861933000000000149e+01 -1.923887132848891013e-01
3.917300000000000182e+01 4.525500000000000256e+01 9.912000000000000455e+01 -4.367528000000000077e+01 -1.945302109629410969e-01
3.918099999999999739e+01 4.745100000000000051e+01 8.639000000000000057e+01 -4.161469999999999891e-01 -2.276911100384285402e-01
3.918599999999999994e+01 4.668900000000000006e+01 9.240099999999999625e+01 -1.604295000000000115e+01 -9.577188555802716718e-02
3.918599999999999994e+01 4.668900000000000006e+01 9.392100000000000648e+01 -4.572827999999999804e+01 -9.574007756864735819e-02
3.918699999999999761e+01 3.607399999999999807e+01 9.728100000000000591e+01 -8.562901999999999347e+00 -1.838848966380704497e-01
3.918999999999999773e+01 4.141799999999999926e+01 7.111400000000000432e+01 1.383996999999999922e+01 -4.164653394664569741e-01
3.918999999999999773e+01 4.273700000000000188e+01 7.184900000000000375e+01 1.287729999999999961e+02 -2.889359500972984440e-01
3.919200000000000017e+01 4.016100000000000136e+01 7.069700000000000273e+01 8.290326000000000306e+00 -3.826333476942989087e-01
3.919200000000000017e+01 2.655099999999999838e+01 1.008799999999999955e+02 5.635283000000000264e+00 -1.339104147787494870e-01
3.919700000000000273e+01 4.284300000000000352e+01 9.748199999999999932e+01 -4.995324999999999904e-01 -1.916740909077348509e-01
3.919899999999999807e+01 4.647200000000000131e+01 7.575100000000000477e+01 8.860170999999999353e+00 -2.886382902477961365e-01
3.919899999999999807e+01 4.647200000000000131e+01 7.680100000000000193e+01 1.127448000000000050e+01 -2.863199489301822553e-01
3.920100000000000051e+01 4.017900000000000205e+01 9.592199999999999704e+01 -1.478484000000000087e+01 -1.881182651138622874e-01
3.920799999999999841e+01 4.498700000000000188e+01 9.836100000000000421e+01 -1.367121999999999993e+01 -1.944742979448646492e-01
3.922099999999999653e+01 4.635699999999999932e+01 7.843200000000000216e+01 1.649127000000000010e+01 -2.761374175418269128e-01
3.922999999999999687e+01 4.356300000000000239e+01 9.821800000000000352e+01 -2.316320999999999852e+00 -1.924932265397501230e-01
3.923299999999999699e+01 2.802700000000000102e+01 8.681000000000000227e+01 1.040077999999999925e+01 -2.833682434393006710e-01
3.923299999999999699e+01 2.802700000000000102e+01 8.767600000000000193e+01 5.040954000000000157e+00 -2.820145625065878514e-01
3.923400000000000176e+01 3.806799999999999784e+01 6.860500000000000398e+01 3.421502999999999961e+00 -3.824417873254043476e-01
3.924099999999999966e+01 4.699900000000000233e+01 7.927400000000000091e+01 1.051495999999999986e+00 -2.780262120330846409e-01
3.924199999999999733e+01 2.844900000000000162e+01 7.903100000000000591e+01 1.930897000000000086e+00 -2.524296067089704665e-01
3.924900000000000233e+01 4.701800000000000068e+01 9.316100000000000136e+01 -2.722935999999999979e+01 -9.568587600701025653e-02
3.925399999999999778e+01 2.434199999999999875e+01 9.702899999999999636e+01 9.309317000000000064e+00 -2.761409412423803666e-01
3.925800000000000267e+01 3.523400000000000176e+01 6.978199999999999648e+01 1.063603999999999949e+01 -3.838275139554004900e-01
3.926500000000000057e+01 3.965400000000000347e+01 7.015999999999999659e+01 1.984183000000000030e+00 -3.825716292608338787e-01
3.926599999999999824e+01 4.528999999999999915e+01 9.766100000000000136e+01 -3.979048000000000140e+00 -1.952255606832114521e-01
3.926800000000000068e+01 4.611999999999999744e+01 8.713299999999999557e+01 -5.751921000000000284e+00 -2.270396735710268066e-01
3.927300000000000324e+01 4.768599999999999994e+01 8.098900000000000432e+01 -1.114841000000000015e+01 -2.824914704825424727e-01
3.927300000000000324e+01 3.929800000000000182e+01 6.942799999999999727e+01 -3.855839999999999823e-01 -3.823837176114465719e-01
3.927300000000000324e+01 4.583599999999999852e+01 9.476000000000000512e+01 2.709486000000000061e+00 -9.593075541045241461e-02
3.928399999999999892e+01 4.605100000000000193e+01 7.388200000000000500e+01 1.876797999999999966e+00 -2.915456687494872856e-01
3.929099999999999682e+01 4.773899999999999721e+01 8.190500000000000114e+01 -1.322743999999999920e+00 -2.850068284210648950e-01
3.929299999999999926e+01 2.410099999999999909e+01 8.964100000000000534e+01 2.106759999999999877e+01 -2.838426578243404830e-01
3.929500000000000171e+01 2.745599999999999952e+01 8.096599999999999397e+01 -1.150351000000000035e+01 -2.524913439598569509e-01
3.930400000000000205e+01 4.498799999999999955e+01 8.789100000000000534e+01 -2.600404999999999944e+01 -2.265008506338047900e-01
3.930700000000000216e+01 4.530400000000000205e+01 9.244400000000000261e+01 -6.134564000000000128e+00 -9.616614874333787033e-02
3.930799999999999983e+01 4.795400000000000063e+01 8.023000000000000398e+01 -2.025380000000000180e+00 -2.804300026278288560e-01
3.930899999999999750e+01 2.899200000000000088e+01 7.820799999999999841e+01 3.601380999999999943e+00 -2.523466111245363797e-01
3.931199999999999761e+01 2.964999999999999858e+01 1.003700000000000045e+02 1.070125999999999955e+01 -2.373944448775724969e-02
3.932500000000000284e+01 2.531599999999999895e+01 9.696500000000000341e+01 1.881935999999999964e+01 -1.313085457191252026e-01
3.933800000000000097e+01 3.747599999999999909e+01 9.687000000000000455e+01 -2.571863000000000010e+00 -1.849344214115744844e-01
3.933899999999999864e+01 2.610200000000000031e+01 9.791500000000000625e+01 6.438151000000000401e+00 -1.319369837255390532e-01
3.934899999999999665e+01 4.389200000000000301e+01 7.310699999999999932e+01 7.605982000000000021e+00 -2.886339705802647426e-01
3.934899999999999665e+01 4.475699999999999790e+01 7.310699999999999932e+01 4.955053000000000374e+00 -2.902436415706171058e-01
3.934899999999999665e+01 4.571500000000000341e+01 7.310699999999999932e+01 3.720200999999999869e+00 -2.922500292515548548e-01
3.935600000000000165e+01 3.900999999999999801e+01 9.649500000000000455e+01 -3.490778999999999854e+00 -1.865320725762285581e-01
3.935600000000000165e+01 4.134799999999999898e+01 9.649500000000000455e+01 -6.604129000000000360e+00 -1.895967437711633674e-01
3.936500000000000199e+01 2.943199999999999861e+01 1.009200000000000017e+02 1.209944999999999915e+01 -2.414807348222933886e-02
3.936999999999999744e+01 3.336800000000000210e+01 7.214799999999999613e+01 1.187537000000000020e+01 -2.477174051940587707e-01
3.937100000000000222e+01 4.762500000000000000e+01 7.946999999999999886e+01 1.300456000000000056e+00 -2.783911015003265321e-01
3.938199999999999790e+01 4.618900000000000006e+01 9.387699999999999534e+01 -4.103296999999999883e+01 -9.592336179583776934e-02
3.938400000000000034e+01 2.268599999999999994e+01 9.158499999999999375e+01 8.489646000000000470e+00 -2.828432211717036848e-01
3.939000000000000057e+01 4.433400000000000318e+01 9.825600000000000023e+01 -1.007328000000000046e+01 -1.935239305577003410e-01
3.939200000000000301e+01 2.269900000000000162e+01 9.052899999999999636e+01 1.012612000000000023e+01 -2.840642314218346232e-01
3.939999999999999858e+01 4.445600000000000307e+01 9.912000000000000455e+01 -6.003388999999999953e+01 -1.933816663342371456e-01
3.940599999999999881e+01 4.489600000000000080e+01 9.196699999999999875e+01 -1.719536000000000120e-01 -1.975792329489289845e-01
3.940899999999999892e+01 2.805699999999999861e+01 1.018400000000000034e+02 1.376769999999999960e+01 -2.564824515452244352e-02
3.941700000000000159e+01 2.503200000000000003e+01 8.961100000000000421e+01 1.760462000000000060e+01 -2.829579173460773367e-01
3.943200000000000216e+01 2.638200000000000145e+01 8.912600000000000477e+01 1.205448999999999948e+01 -2.820696166490445633e-01
3.944500000000000028e+01 2.655300000000000082e+01 9.996399999999999864e+01 4.723643000000000036e+00 -1.334155839504277685e-01
3.946200000000000330e+01 3.654500000000000171e+01 9.690000000000000568e+01 -3.127583000000000002e+00 -1.839658699157909472e-01
3.947599999999999909e+01 4.621900000000000119e+01 9.316100000000000136e+01 -8.595409999999999329e+00 -9.597200458557521296e-02
3.948899999999999721e+01 4.521099999999999852e+01 9.660500000000000398e+01 2.727332999999999785e+00 -1.955863461659367031e-01
3.950000000000000000e+01 2.759400000000000119e+01 8.610999999999999943e+01 8.986798999999999538e+00 -2.851960546837526977e-01
3.950000000000000000e+01 2.759400000000000119e+01 8.837600000000000477e+01 1.716469000000000023e+00 -2.816095307377641799e-01
3.950600000000000023e+01 2.736599999999999966e+01 8.159099999999999397e+01 -4.387482000000000326e+00 -2.524992543989729166e-01
3.950699999999999790e+01 2.314300000000000068e+01 9.263700000000000045e+01 2.762712000000000057e+00 -2.812845024404887484e-01
3.950699999999999790e+01 3.013700000000000045e+01 9.965500000000000114e+01 8.804705999999999477e+00 -2.305747266567707843e-02
3.951599999999999824e+01 4.456700000000000017e+01 9.244400000000000261e+01 2.651235999999999926e+00 -1.965880219549135111e-01
3.952499999999999858e+01 4.240299999999999869e+01 9.676999999999999602e+01 -8.064443999999999502e-01 -1.910096621387064042e-01
3.954500000000000171e+01 4.692199999999999704e+01 8.692499999999999716e+01 5.674345999999999890e+01 -2.281216179864555271e-01
3.954899999999999949e+01 3.146499999999999986e+01 9.844599999999999795e+01 -3.003115000000000201e+00 -2.113145264054575728e-02
3.955299999999999727e+01 4.471000000000000085e+01 9.752500000000000568e+01 -2.688863000000000003e+00 -1.943282404771916050e-01
3.956099999999999994e+01 3.001800000000000068e+01 7.608299999999999841e+01 3.755167999999999839e+00 -2.521217498425714632e-01
3.956099999999999994e+01 3.010900000000000176e+01 7.450000000000000000e+01 2.703978000000000215e+00 -2.520002746079873512e-01
3.956099999999999994e+01 3.022700000000000031e+01 7.534699999999999420e+01 4.501585000000000392e+00 -2.520056083952104120e-01
3.956099999999999994e+01 3.036299999999999955e+01 7.360599999999999454e+01 2.919890000000000096e+00 -2.515420763423892314e-01
3.956300000000000239e+01 3.730799999999999983e+01 6.866800000000000637e+01 3.726614999999999789e+00 -3.827172567105395773e-01
3.956300000000000239e+01 3.882800000000000296e+01 6.866800000000000637e+01 3.319964000000000137e+00 -3.822059825931315435e-01
3.956400000000000006e+01 4.071800000000000352e+01 7.095900000000000318e+01 1.783548000000000044e+01 -4.169390052642477640e-01
3.956700000000000017e+01 4.469299999999999784e+01 8.848600000000000421e+01 -1.150081999999999915e+01 -2.269814803050741181e-01
3.956900000000000261e+01 4.534000000000000341e+01 9.564700000000000557e+01 1.862757999999999825e+01 -1.963173070822928079e-01
3.957099999999999795e+01 4.542000000000000171e+01 8.719100000000000250e+01 3.498441999999999941e-01 -2.263582151297354739e-01
3.957500000000000284e+01 4.487100000000000222e+01 9.314400000000000546e+01 3.240708999999999840e+00 -1.968442184646289062e-01
3.958200000000000074e+01 2.789900000000000091e+01 7.967700000000000671e+01 -2.782461000000000073e+00 -2.526867262012634230e-01
3.958599999999999852e+01 2.323300000000000054e+01 9.643800000000000239e+01 -2.029563000000000006e+00 -2.776647079231840953e-01
3.961999999999999744e+01 3.379200000000000159e+01 9.926600000000000534e+01 2.756089999999999929e+00 -1.824701215184253988e-01
3.961999999999999744e+01 3.523799999999999955e+01 9.845999999999999375e+01 7.387906000000000084e+00 -1.831584741719238796e-01
3.964999999999999858e+01 2.348900000000000077e+01 9.315399999999999636e+01 1.092183999999999955e+01 -2.804185052333529882e-01
3.965200000000000102e+01 3.175199999999999889e+01 7.269700000000000273e+01 3.827547000000000033e+00 -2.496102401800392168e-01
3.965299999999999869e+01 3.561599999999999966e+01 6.954300000000000637e+01 5.957353999999999594e+00 -3.836579385913784224e-01
3.965699999999999648e+01 4.383599999999999852e+01 9.755599999999999739e+01 -6.504545999999999939e-01 -1.929292742297372132e-01
3.965899999999999892e+01 3.971000000000000085e+01 9.643699999999999761e+01 -1.310496999999999979e+01 -1.871406778024516659e-01
3.965899999999999892e+01 4.064800000000000324e+01 9.643699999999999761e+01 -1.479710000000000036e+01 -1.883967574981235404e-01
3.966899999999999693e+01 4.219299999999999784e+01 7.140999999999999659e+01 4.829975000000000307e+01 -4.169714875971945456e-01
3.967699999999999960e+01 4.825200000000000244e+01 8.509300000000000352e+01 -1.399434999999999985e+00 -2.269728178587042677e-01
3.967699999999999960e+01 3.559499999999999886e+01 9.765699999999999648e+01 -9.766156999999999755e+00 -1.831697996898178915e-01
3.968500000000000227e+01 2.314799999999999969e+01 9.386799999999999500e+01 1.407507000000000019e+01 -2.800330706271639825e-01
3.968500000000000227e+01 3.231600000000000250e+01 9.858400000000000318e+01 -6.283559000000000339e+00 -2.021583538591816345e-02
3.971600000000000108e+01 2.387900000000000134e+01 9.263700000000000045e+01 1.772022000000000119e+01 -2.805810687044572038e-01
3.971800000000000352e+01 4.811800000000000210e+01 8.601699999999999591e+01 -4.503516000000000297e+00 -2.285508872803362623e-01
3.973499999999999943e+01 4.535999999999999943e+01 9.510200000000000387e+01 4.680109000000000208e+01 -1.966494631539758842e-01
3.973499999999999943e+01 2.708200000000000074e+01 8.906799999999999784e+01 2.080214999999999925e+00 -2.813278738749692698e-01
3.973700000000000188e+01 2.676300000000000168e+01 8.318399999999999750e+01 -8.290723999999999316e-02 -2.524206202191665582e-01
3.973700000000000188e+01 2.687399999999999878e+01 8.398199999999999932e+01 3.861701000000000161e-01 -2.522144541571265663e-01
3.973700000000000188e+01 2.698999999999999844e+01 8.238500000000000512e+01 -3.846503999999999923e+00 -2.525371792022153006e-01
3.973700000000000188e+01 2.991499999999999915e+01 7.695300000000000296e+01 4.873929999999999652e+00 -2.522521164165050789e-01
3.973700000000000188e+01 4.720300000000000296e+01 7.886199999999999477e+01 1.512123000000000106e+00 -2.765708084793272459e-01
3.975300000000000011e+01 3.018199999999999861e+01 9.912500000000000000e+01 9.452833999999999293e+00 -2.288750513385200483e-02
3.977400000000000091e+01 2.357600000000000051e+01 9.023699999999999477e+01 9.527874999999999872e+00 -2.837303910128855522e-01
3.977400000000000091e+01 2.357600000000000051e+01 9.193699999999999761e+01 1.063254000000000055e+01 -2.816765353839419950e-01
3.977600000000000335e+01 3.465500000000000114e+01 7.032099999999999795e+01 1.555428000000000033e+01 -2.444497322093212577e-01
3.978199999999999648e+01 4.454299999999999926e+01 8.983299999999999841e+01 -1.400637000000000043e+01 -1.978775436476751248e-01
3.978199999999999648e+01 4.454299999999999926e+01 9.084099999999999397e+01 -3.960872999999999866e+00 -1.973572620602182248e-01
