2.235800000000000054e+01 4.672299999999999898e+01 4.475099999999999767e+01 2.504507999999999868e+01 7.107997059213330693e-02
2.235900000000000176e+01 5.701200000000000045e+01 4.432200000000000273e+01 -1.932420000000000027e+00 -1.053654293916513052e-01
2.236299999999999955e+01 1.502999999999999936e+01 2.626699999999999946e+01 1.463181999999999983e+00 -2.424240917601701018e-01
2.236299999999999955e+01 3.216499999999999915e+01 3.545900000000000318e+01 -1.240565999999999924e+01 3.262106802294467006e-02
2.236499999999999844e+01 7.280299999999999727e+01 3.873299999999999699e+01 -5.290189999999999948e+00 -1.043419531571209979e-01
2.236499999999999844e+01 6.147200000000000131e+01 4.138600000000000279e+01 -1.723060999999999954e+00 -1.037350319258160125e-01
2.236899999999999977e+01 5.276100000000000279e+01 3.790100000000000335e+01 1.172879999999999923e+00 6.986897009525858127e-02
2.236899999999999977e+01 3.193400000000000105e+01 2.764300000000000068e+01 2.300676999999999950e+01 3.277481807753985371e-02
2.236899999999999977e+01 3.279899999999999949e+01 2.764300000000000068e+01 7.796502000000000265e+00 3.191198632289508202e-02
2.237000000000000099e+01 3.097100000000000009e+01 2.740800000000000125e+01 3.294089000000000311e+01 3.359395414080989378e-02
2.237099999999999866e+01 4.990400000000000347e+01 3.231099999999999994e+01 -2.877847000000000044e+00 2.515215724930897068e-01
2.237300000000000111e+01 3.934700000000000131e+01 2.924800000000000111e+01 2.166904999999999859e+01 1.011494772700753664e-01
2.237300000000000111e+01 3.096900000000000119e+01 3.488600000000000279e+01 9.834023000000000070e-02 3.793654928897425421e-02
2.237300000000000111e+01 5.998700000000000188e+01 4.144599999999999795e+01 -2.260263999999999829e+00 -1.034862282827138380e-01
2.237600000000000122e+01 6.834999999999999432e+01 4.288499999999999801e+01 -4.377334000000000280e+00 -1.049850748264482825e-01
2.237699999999999889e+01 4.439699999999999847e+01 2.937600000000000122e+01 -1.335870000000000068e+01 2.537021109647893402e-01
2.237699999999999889e+01 4.535499999999999687e+01 2.937600000000000122e+01 -1.733175999999999917e+01 2.533783800195356650e-01
2.237800000000000011e+01 6.438400000000000034e+01 3.256000000000000227e+01 -3.526987999999999790e+00 -1.713525766880979739e-01
2.237800000000000011e+01 6.524899999999999523e+01 3.256000000000000227e+01 -3.554679999999999840e+00 -1.709254061185627727e-01
2.238100000000000023e+01 5.997500000000000142e+01 4.290699999999999648e+01 4.353022000000000169e+00 -1.042818105767634035e-01
2.238700000000000045e+01 5.251299999999999812e+01 4.436500000000000199e+01 2.340008999999999872e+01 -1.053441734243888706e-01
2.239000000000000057e+01 3.521800000000000352e+01 2.341300000000000026e+01 -9.444292000000000797e+00 2.931376759015056829e-02
2.239000000000000057e+01 3.521800000000000352e+01 2.446300000000000097e+01 -1.529709000000000074e+01 2.943420792174846617e-02
2.239000000000000057e+01 3.521800000000000352e+01 2.532900000000000063e+01 -1.420597000000000065e+01 2.951915719793325385e-02
2.239300000000000068e+01 6.149300000000000210e+01 5.007200000000000273e+01 -2.174229000000000056e+01 -1.035491178084583658e-01
2.239399999999999835e+01 7.548799999999999955e+01 3.727199999999999847e+01 -7.877663000000000082e+00 -1.040233919987726408e-01
2.239499999999999957e+01 5.814500000000000313e+01 4.269800000000000040e+01 8.034404999999999575e+00 -1.038329787862843218e-01
2.239499999999999957e+01 5.814500000000000313e+01 4.356300000000000239e+01 8.313841000000000037e+00 -1.044791560199071212e-01
2.239499999999999957e+01 2.524200000000000088e+01 2.481500000000000128e+01 1.770680000000000032e+00 -1.603918142889747822e-01
2.240200000000000102e+01 3.176099999999999923e+01 3.753099999999999881e+01 -1.929212000000000060e+01 -1.231504605577381228e-01
2.240399999999999991e+01 3.569800000000000040e+01 3.349099999999999966e+01 1.015853000000000073e+01 1.061556438427639082e-01
2.240899999999999892e+01 7.264300000000000068e+01 3.793699999999999761e+01 -3.859888000000000208e+00 -1.040939065569446431e-01
2.241300000000000026e+01 3.886399999999999721e+01 3.729599999999999937e+01 3.625551999999999886e+00 2.582927399953763303e-01
2.241400000000000148e+01 5.827400000000000091e+01 4.832500000000000284e+01 4.762302000000000035e+00 -1.072177845228048793e-01
2.241600000000000037e+01 5.167699999999999960e+01 4.259899999999999665e+01 2.984416999999999831e+01 -1.739478843946923037e-01
2.241600000000000037e+01 5.200500000000000256e+01 4.334400000000000119e+01 9.571376999999999668e+01 7.825667831878038716e-02
2.242099999999999937e+01 1.678099999999999881e+01 1.898300000000000054e+01 6.009126999999999663e-01 -2.430490016116491070e-01
2.242099999999999937e+01 1.678099999999999881e+01 2.053300000000000125e+01 1.556461999999999968e+01 -2.428374105808044914e-01
2.242099999999999937e+01 1.773900000000000077e+01 1.898300000000000054e+01 1.662387999999999977e+01 -2.439617214532621703e-01
2.242099999999999937e+01 1.773900000000000077e+01 2.053300000000000125e+01 1.229602000000000039e+01 -2.438842881949188635e-01
2.242299999999999827e+01 6.031600000000000250e+01 3.076800000000000068e+01 -2.337080999999999964e+00 7.719760799760162773e-02
2.242399999999999949e+01 6.030299999999999727e+01 4.068599999999999994e+01 7.443446999999999925e+00 -1.029168601593450916e-01
2.242399999999999949e+01 6.116799999999999926e+01 4.068599999999999994e+01 5.142056000000000182e+00 -1.030967439548972769e-01
2.242500000000000071e+01 6.719499999999999318e+01 3.896300000000000097e+01 -6.963329000000000046e-02 -1.035782735799418014e-01
2.242699999999999960e+01 3.985600000000000165e+01 2.831500000000000128e+01 -2.435684000000000182e+00 1.045436931102675937e-01
2.242699999999999960e+01 2.973100000000000165e+01 2.659299999999999997e+01 1.006164000000000058e+01 3.413822944708492374e-02
2.242699999999999960e+01 3.120299999999999940e+01 2.659299999999999997e+01 9.616970000000000240e+00 3.296338126543260638e-02
2.243199999999999861e+01 3.923499999999999943e+01 3.822699999999999676e+01 8.043805000000000760e+00 2.582421688825000672e-01
2.243199999999999861e+01 3.923499999999999943e+01 3.909199999999999875e+01 -9.078187999999999536e-02 2.583913243335763110e-01
2.244099999999999895e+01 3.849699999999999989e+01 2.735699999999999932e+01 -2.769661999999999846e+00 1.032334286197755524e-01
2.244200000000000017e+01 4.406099999999999994e+01 3.015099999999999980e+01 -1.267206999999999972e+01 2.538910229985328892e-01
2.244699999999999918e+01 4.196699999999999875e+01 3.496200000000000330e+01 -8.953582000000000818e+00 2.551987228204494196e-01
2.244800000000000040e+01 7.451099999999999568e+01 4.040299999999999869e+01 -1.160763999999999996e+01 -1.036379291738261932e-01
2.244900000000000162e+01 3.001300000000000168e+01 2.859499999999999886e+01 7.688468000000000302e+00 3.539596538583930641e-02
2.245100000000000051e+01 4.432699999999999818e+01 3.098300000000000054e+01 -1.464549000000000056e+01 2.538205937786147670e-01
2.245200000000000173e+01 5.543299999999999983e+01 4.599199999999999733e+01 2.254668999999999812e+00 -1.065714108911561125e-01
2.245599999999999952e+01 4.992999999999999972e+01 3.997299999999999898e+01 2.993682000000000087e+01 6.417888422113256219e-02
2.245599999999999952e+01 5.013900000000000290e+01 3.923700000000000188e+01 3.744523000000000224e+01 6.326243364429275096e-02
2.245599999999999952e+01 5.013900000000000290e+01 4.070900000000000318e+01 2.579445000000000121e+01 6.685472844619803900e-02
2.245599999999999952e+01 5.132999999999999829e+01 3.857300000000000040e+01 -2.709733999999999909e+01 6.561962681015628962e-02
2.245799999999999841e+01 5.518500000000000227e+01 3.224699999999999989e+01 -3.679994999999999905e+00 7.205788543491237208e-02
2.245799999999999841e+01 2.203399999999999892e+01 2.509700000000000131e+01 -2.049411999999999878e+01 -1.552848433786711835e-01
2.245899999999999963e+01 2.342699999999999960e+01 2.538599999999999923e+01 -3.184906999999999933e+00 -1.577109262221385033e-01
2.246199999999999974e+01 2.610200000000000031e+01 2.370599999999999952e+01 4.493235999999999564e+00 -1.608499309000314681e-01
2.246600000000000108e+01 5.857699999999999818e+01 3.085399999999999920e+01 -2.934851999999999794e+00 7.572627017567837293e-02
2.247299999999999898e+01 1.767899999999999849e+01 2.450300000000000011e+01 8.096218000000000359e+00 -2.437446165569957801e-01
2.247500000000000142e+01 4.120000000000000284e+01 4.331499999999999773e+01 3.845660000000000078e+00 2.398352458272566268e-01
2.248600000000000065e+01 1.644500000000000028e+01 1.975799999999999912e+01 -1.570629000000000053e+00 -2.426674271632480173e-01
2.248600000000000065e+01 1.807499999999999929e+01 1.975799999999999912e+01 1.464789000000000030e+01 -2.443259468228499709e-01
2.248600000000000065e+01 3.003500000000000014e+01 2.729299999999999926e+01 1.190862000000000087e+01 3.439084553298088487e-02
2.248699999999999832e+01 4.589999999999999858e+01 3.013400000000000034e+01 -1.392137999999999920e+01 2.532370321048859063e-01
2.248999999999999844e+01 2.761100000000000065e+01 2.894200000000000017e+01 3.022186999999999912e+01 -1.702289665916674466e-01
2.249500000000000099e+01 3.797500000000000142e+01 3.515599999999999881e+01 1.024700999999999951e+01 9.481063919079654734e-02
2.249599999999999866e+01 3.009299999999999997e+01 2.573499999999999943e+01 6.610736999999999863e-01 3.334426495011334063e-02
2.250199999999999889e+01 5.991599999999999682e+01 4.956799999999999784e+01 -5.844502999999999560e+00 -1.041840246478568377e-01
2.250300000000000011e+01 2.595400000000000063e+01 3.549300000000000210e+01 1.088624000000000036e+00 5.666838197329850113e-02
2.250400000000000134e+01 3.291799999999999926e+01 3.938199999999999790e+01 -2.190722999999999843e+01 1.041736303077727133e-01
2.251599999999999824e+01 6.726500000000000057e+01 5.090100000000000335e+01 -2.029265999999999792e+00 -3.499999999999999778e-01
2.251599999999999824e+01 6.889499999999999602e+01 5.136399999999999721e+01 9.514352000000000364e-01 -3.499999999999999778e-01
2.251599999999999824e+01 7.034099999999999397e+01 4.877000000000000313e+01 3.126644999999999897e+00 -3.500000000000000333e-01
2.251599999999999824e+01 7.034099999999999397e+01 5.055799999999999983e+01 -2.833244000000000096e+00 -3.500000000000000333e-01
2.251599999999999824e+01 7.059499999999999886e+01 4.966400000000000148e+01 2.453513000000000055e+00 -3.499999999999999778e-01
2.251699999999999946e+01 6.269599999999999795e+01 5.021200000000000330e+01 -6.032967000000000191e+00 -1.026588324486656240e-01
2.252199999999999847e+01 3.236200000000000188e+01 3.210000000000000142e+01 -1.375891999999999982e+01 3.368749352831240662e-02
2.252199999999999847e+01 1.626800000000000068e+01 2.529500000000000171e+01 3.008335000000000203e+00 -2.416207500479013726e-01
2.252700000000000102e+01 2.439600000000000080e+01 2.522599999999999909e+01 -1.822672000000000070e+00 -1.593336081908025559e-01
2.253200000000000003e+01 5.610799999999999699e+01 4.531499999999999773e+01 1.319266000000000050e+00 -1.049278679767855493e-01
2.253300000000000125e+01 2.077799999999999869e+01 2.336499999999999844e+01 -2.418235000000000134e+00 -1.536423854803336264e-01
2.253699999999999903e+01 5.269200000000000017e+01 3.292999999999999972e+01 -9.896846999999999284e+00 6.776829251239399610e-02
2.254200000000000159e+01 7.029600000000000648e+01 4.014399999999999835e+01 3.133858000000000033e+00 -1.040019973933971331e-01
2.255300000000000082e+01 5.461299999999999955e+01 4.594800000000000040e+01 1.140628000000000064e+01 -1.055413239782063417e-01
2.255399999999999849e+01 5.065899999999999892e+01 4.753699999999999903e+01 2.185593000000000075e+01 -1.101086976048199356e-01
2.255399999999999849e+01 5.065899999999999892e+01 4.840200000000000102e+01 1.762282000000000082e+01 -1.088386604806860919e-01
2.255799999999999983e+01 6.756499999999999773e+01 3.309799999999999898e+01 -2.082764999999999844e+01 -1.696546950779056206e-01
2.255799999999999983e+01 6.756499999999999773e+01 3.461800000000000210e+01 -2.791111000000000075e+01 8.022963097863301807e-02
2.255799999999999983e+01 4.783400000000000318e+01 4.349399999999999977e+01 2.366226999999999947e+01 6.957044248348207005e-02
2.255799999999999983e+01 3.349499999999999744e+01 3.047599999999999909e+01 6.595299999999999940e+00 3.164796227833623771e-02
2.255799999999999983e+01 3.349499999999999744e+01 3.134199999999999875e+01 6.484526999999999930e+00 3.161855034379382201e-02
2.255900000000000105e+01 4.386399999999999721e+01 4.194599999999999795e+01 2.048736999999999853e+01 2.455198712703378638e-01
2.255999999999999872e+01 2.245100000000000051e+01 3.540200000000000102e+01 -6.610181000000000529e-01 -1.546258410139207673e-01
2.255999999999999872e+01 2.270499999999999829e+01 3.629599999999999937e+01 -3.948768999999999751e-01 -1.565988826029715009e-01
2.255999999999999872e+01 2.415099999999999980e+01 3.710199999999999676e+01 -4.489287000000000138e-01 -1.791941851002051833e-01
2.255999999999999872e+01 2.559700000000000131e+01 3.629599999999999937e+01 8.363386000000000431e-01 -1.962790616774398866e-01
2.256299999999999883e+01 4.016400000000000148e+01 4.262599999999999767e+01 3.116187000000000040e+00 2.488165642282521850e-01
2.256400000000000006e+01 6.447299999999999898e+01 5.012299999999999756e+01 -3.733195999999999737e-01 -1.023453668489729962e-01
2.256400000000000006e+01 6.820199999999999818e+01 4.500699999999999790e+01 -1.055311999999999983e+01 -1.047224292728489159e-01
2.257000000000000028e+01 3.058200000000000074e+01 3.311899999999999977e+01 -1.049907999999999930e+01 3.852687714640119776e-02
2.257000000000000028e+01 3.058200000000000074e+01 3.405899999999999750e+01 -8.684689999999999799e+00 3.925601439850040508e-02
2.257300000000000040e+01 2.783699999999999974e+01 2.159499999999999886e+01 1.201289000000000051e+01 -1.612582737300575775e-01
2.257600000000000051e+01 5.769500000000000028e+01 4.759100000000000108e+01 9.428649000000000058e-01 -1.068856765986561097e-01
2.258599999999999852e+01 6.892100000000000648e+01 3.922299999999999898e+01 3.786674999999999791e+00 -1.034941335771989018e-01
2.258800000000000097e+01 6.152300000000000324e+01 3.131200000000000117e+01 -4.497017999999999738e+00 -1.737275611487650029e-01
2.258800000000000097e+01 5.104999999999999716e+01 5.284799999999999898e+01 2.578798000000000101e+01 -8.334740860569941900e-02
2.258800000000000097e+01 5.200800000000000267e+01 5.284799999999999898e+01 -7.789126999999999690e+00 -8.677991985530114638e-02
2.258800000000000097e+01 3.900800000000000267e+01 3.173499999999999943e+01 4.582981000000000193e+00 1.027194334143358284e-01
2.258999999999999986e+01 4.952600000000000335e+01 4.677799999999999869e+01 2.270019999999999882e+01 1.596493341585141501e-01
2.259299999999999997e+01 5.523700000000000188e+01 3.741499999999999915e+01 -4.228653999999999691e+00 -1.758795797373673975e-01
2.259299999999999997e+01 5.894299999999999784e+01 4.874799999999999756e+01 -3.103988999999999776e-01 -1.051929154562627200e-01
2.259700000000000131e+01 1.860999999999999943e+01 2.447299999999999898e+01 -8.256273000000000195e+00 -2.454694509228929622e-01
2.260000000000000142e+01 3.089399999999999835e+01 2.573499999999999943e+01 2.977014000000000049e-01 3.279938028759438878e-02
2.260099999999999909e+01 5.749099999999999966e+01 3.180900000000000105e+01 -5.342919000000000196e+00 7.541083992413175063e-02
2.260200000000000031e+01 1.945499999999999829e+01 2.400100000000000122e+01 -9.005292999999999992e+00 -2.467921240065303334e-01
2.260399999999999920e+01 6.902700000000000102e+01 4.221099999999999852e+01 -1.250018000000000074e+00 -1.042345311615704845e-01
2.260800000000000054e+01 5.635999999999999943e+01 3.264399999999999835e+01 -1.771994000000000113e+01 7.449468862454067253e-02
2.260900000000000176e+01 3.181200000000000117e+01 3.229599999999999937e+01 -1.173836000000000013e+01 3.494608461330340338e-02
2.261100000000000065e+01 2.720599999999999952e+01 3.457000000000000028e+01 5.491407999999999845e-01 5.155967472935126666e-02
2.261299999999999955e+01 2.258899999999999864e+01 3.452199999999999847e+01 1.163359000000000032e+00 -1.567545213635933854e-01
2.261400000000000077e+01 6.635299999999999443e+01 3.289900000000000091e+01 -2.276804999999999968e+00 -1.702087253894731256e-01
2.261499999999999844e+01 2.865599999999999881e+01 2.089399999999999835e+01 -4.403012999999999622e+00 -1.614690577361848622e-01
2.261499999999999844e+01 3.229399999999999693e+01 2.089399999999999835e+01 -1.130753999999999948e+01 3.024850551149469574e-02
2.261599999999999966e+01 4.067900000000000205e+01 3.415599999999999881e+01 -1.188668999999999976e+01 2.561460606029216658e-01
2.261799999999999855e+01 6.284499999999999886e+01 3.158800000000000097e+01 -6.223272999999999833e+00 -1.727034128631249332e-01
2.262099999999999866e+01 6.789400000000000546e+01 3.385799999999999699e+01 -2.588370000000000104e+01 8.026487157823769536e-02
2.262999999999999901e+01 2.671999999999999886e+01 2.276899999999999835e+01 1.092889999999999917e+00 -1.609744964630456798e-01
2.263400000000000034e+01 3.857900000000000063e+01 4.081000000000000227e+01 -3.977324999999999999e+00 2.566162483243415449e-01
2.263400000000000034e+01 3.883299999999999841e+01 3.991599999999999682e+01 -1.863202999999999943e+00 2.598045797858276607e-01
2.263400000000000034e+01 3.883299999999999841e+01 4.170400000000000063e+01 -2.917428999999999828e+00 2.550248465409695742e-01
2.264000000000000057e+01 5.361299999999999955e+01 3.769599999999999795e+01 -1.449984000000000073e+01 7.344217948232953375e-02
2.264499999999999957e+01 2.819500000000000028e+01 3.402199999999999847e+01 -1.111707000000000001e+00 4.732261422178662968e-02
2.265099999999999980e+01 5.864000000000000057e+01 4.804800000000000182e+01 4.762302000000000035e+00 -1.058986032780290659e-01
2.265299999999999869e+01 7.037399999999999523e+01 4.116400000000000148e+01 3.631263000000000130e-01 -1.040012982374283884e-01
2.265399999999999991e+01 5.294599999999999795e+01 4.506499999999999773e+01 2.030630999999999986e+01 -1.028732375938528065e-01
2.266100000000000136e+01 1.964699999999999847e+01 2.981099999999999994e+01 -4.637185999999999808e+00 -1.481892934329133160e-01
2.266100000000000136e+01 5.616899999999999693e+01 4.599199999999999733e+01 -6.246574999999999989e+00 -1.044985347608900217e-01
2.266199999999999903e+01 5.771200000000000330e+01 4.426299999999999812e+01 -1.375239000000000100e+00 -1.030864962474750401e-01
2.266600000000000037e+01 2.260900000000000176e+01 3.362400000000000233e+01 4.858794999999999753e+00 -1.572810388594165221e-01
2.267000000000000171e+01 4.785999999999999943e+01 3.151099999999999923e+01 -8.336767999999999290e+00 2.525080136428065614e-01
2.267200000000000060e+01 5.206099999999999994e+01 3.795900000000000318e+01 -2.503245000000000076e+01 6.914782187079770992e-02
2.267800000000000082e+01 5.616599999999999682e+01 4.665999999999999659e+01 -4.267244999999999955e+00 -1.051123963275239770e-01
2.267999999999999972e+01 4.507699999999999818e+01 4.070400000000000063e+01 -3.609199000000000268e+01 2.483231132931343621e-01
2.268199999999999861e+01 5.365500000000000114e+01 4.586800000000000210e+01 2.081513999999999953e+01 -1.038466560925535298e-01
2.268700000000000117e+01 3.679099999999999682e+01 2.682100000000000151e+01 1.074953999999999965e+01 1.057528599030995026e-01
2.268900000000000006e+01 3.357699999999999818e+01 2.196300000000000097e+01 1.568219999999999992e+01 2.995140130616031834e-02
2.269500000000000028e+01 2.105799999999999983e+01 2.393400000000000105e+01 -2.499903000000000119e+01 -1.539989451170972468e-01
2.269600000000000151e+01 6.554500000000000171e+01 3.303000000000000114e+01 -2.276183000000000067e+00 -1.704631855554456232e-01
2.269900000000000162e+01 5.424199999999999733e+01 3.296399999999999864e+01 -5.243123999999999896e+00 7.148349551880510411e-02
2.269900000000000162e+01 3.776400000000000290e+01 2.727100000000000080e+01 3.830725999999999853e+00 1.043091288905814429e-01
2.270299999999999940e+01 3.181200000000000117e+01 3.493900000000000006e+01 -3.846737999999999857e+01 3.469664725438779268e-02
2.270299999999999940e+01 3.271399999999999864e+01 3.493900000000000006e+01 -2.079629999999999868e+01 3.171699320156080165e-02
2.270700000000000074e+01 3.499799999999999756e+01 3.354899999999999949e+01 1.039152999999999949e+01 1.087770409653010528e-01
2.270700000000000074e+01 3.639800000000000324e+01 3.354899999999999949e+01 8.062395999999999674e+00 1.036934109305658602e-01
2.271300000000000097e+01 7.323799999999999955e+01 3.929999999999999716e+01 -1.715675999999999979e+00 -1.034502690152721421e-01
2.271399999999999864e+01 5.503300000000000125e+01 4.741799999999999926e+01 1.686999000000000137e+01 -1.057778572733962391e-01
2.271499999999999986e+01 3.469299999999999784e+01 2.256299999999999883e+01 -5.234975000000000378e+00 2.951942813224284201e-02
2.271499999999999986e+01 2.941600000000000037e+01 2.557600000000000051e+01 8.684630000000000294e+00 3.371825934855911255e-02
2.271600000000000108e+01 2.957999999999999829e+01 2.789499999999999957e+01 1.247080000000000055e+01 3.529205200809377996e-02
2.271699999999999875e+01 1.726000000000000156e+01 1.975799999999999912e+01 -1.083850999999999942e+01 -2.436666224307914574e-01
2.271799999999999997e+01 4.387199999999999989e+01 3.472299999999999898e+01 -6.246693999999999747e+00 2.541283271054530224e-01
2.271799999999999997e+01 4.506300000000000239e+01 3.405899999999999750e+01 -1.651263000000000147e+01 2.534726342400280275e-01
2.271799999999999997e+01 4.527199999999999847e+01 3.332300000000000040e+01 -1.011062000000000083e+01 2.534563278204962078e-01
2.271999999999999886e+01 3.362100000000000222e+01 3.483299999999999841e+01 2.927174000000000120e+01 1.144001022325578931e-01
2.271999999999999886e+01 5.956300000000000239e+01 4.875399999999999778e+01 -4.128080999999999889e+00 -1.041723178866551247e-01
2.273799999999999955e+01 3.872999999999999687e+01 2.912999999999999901e+01 3.790976999999999819e+00 1.022087460968786610e-01
2.273900000000000077e+01 2.096999999999999886e+01 3.184299999999999997e+01 3.582854000000000205e+00 -1.499521372091244809e-01
2.273999999999999844e+01 2.744999999999999929e+01 2.233899999999999864e+01 5.332600000000000229e+00 -1.614525229046398225e-01
2.273999999999999844e+01 5.496800000000000352e+01 4.674499999999999744e+01 1.874099999999999966e+01 -1.045468988073614963e-01
2.273999999999999844e+01 2.164999999999999858e+01 3.246300000000000097e+01 -1.205014000000000074e+01 -1.523381690731056559e-01
2.274500000000000099e+01 6.061999999999999744e+01 4.336200000000000188e+01 9.704007999999999523e-01 -1.027031413738746790e-01
2.274699999999999989e+01 6.641800000000000637e+01 3.772800000000000153e+01 -1.020941000000000098e+00 8.097648177296221106e-02
2.274899999999999878e+01 6.196500000000000341e+01 4.170300000000000296e+01 -8.733399000000000356e+00 -1.022627957849806951e-01
2.274899999999999878e+01 6.196500000000000341e+01 4.256900000000000261e+01 -4.735526000000000124e+00 -1.026368071556258699e-01
2.275300000000000011e+01 2.889600000000000080e+01 2.830300000000000082e+01 2.128547999999999973e+01 3.628565251991788809e-02
2.275900000000000034e+01 2.971499999999999986e+01 1.979799999999999827e+01 -5.368324999999999569e+00 -1.615153497478502564e-01
2.275900000000000034e+01 3.123499999999999943e+01 1.979799999999999827e+01 -1.066569999999999929e+01 3.035540620498243178e-02
2.276599999999999824e+01 3.236699999999999733e+01 2.715200000000000102e+01 1.970439000000000052e+00 3.224602581221820696e-02
2.276599999999999824e+01 4.945100000000000051e+01 5.035600000000000165e+01 9.408217000000000496e+00 -9.335844153036801374e-02
2.276599999999999824e+01 4.968200000000000216e+01 4.954099999999999682e+01 7.742277999999999771e+00 -9.946479493245255488e-02
2.276599999999999824e+01 4.968200000000000216e+01 5.117099999999999937e+01 2.188653000000000048e+01 -8.772853518581254229e-02
2.277299999999999969e+01 2.971900000000000119e+01 2.487600000000000122e+01 1.995273000000000074e+00 3.311986586065168714e-02
2.277299999999999969e+01 3.058500000000000085e+01 2.487600000000000122e+01 5.304385999999999823e-01 3.260010690953402818e-02
2.277700000000000102e+01 1.474399999999999977e+01 2.760399999999999920e+01 8.012051000000000034e-01 -2.429099010215531873e-01
2.277700000000000102e+01 1.499799999999999933e+01 2.849800000000000111e+01 3.042845000000000133e-01 -2.429518008415565422e-01
2.277700000000000102e+01 1.644399999999999906e+01 2.930399999999999849e+01 2.329152999999999807e+00 -2.418762674640170807e-01
2.277700000000000102e+01 5.439200000000000301e+01 5.043099999999999739e+01 2.210385000000000044e+00 -9.964883697310519817e-02
2.277899999999999991e+01 6.572599999999999909e+01 5.062800000000000011e+01 1.792457999999999885e+01 -3.500000000000000333e-01
2.278399999999999892e+01 4.745300000000000296e+01 4.592300000000000182e+01 2.080846999999999980e+01 9.102719894911120990e-02
2.278399999999999892e+01 4.877199999999999847e+01 4.665800000000000125e+01 2.723547999999999902e+01 9.643471447370177696e-02
2.278399999999999892e+01 3.905299999999999727e+01 2.831500000000000128e+01 -6.363542999999999950e+00 1.021254005676811294e-01
2.279299999999999926e+01 2.056800000000000139e+01 3.064300000000000068e+01 1.047478000000000087e+01 -1.499727112087077263e-01
2.279599999999999937e+01 4.627100000000000080e+01 4.015500000000000114e+01 -4.547708999999999691e+01 2.488351501369749919e-01
2.280000000000000071e+01 6.628000000000000114e+01 3.684799999999999898e+01 3.599171000000000120e+00 -1.677177011928836781e-01
2.280000000000000071e+01 6.477299999999999613e+01 3.321999999999999886e+01 2.609601000000000059e+00 -1.706893400077475476e-01
2.280199999999999960e+01 3.349900000000000233e+01 2.791000000000000014e+01 1.501545999999999914e+01 3.137589536054843919e-02
2.280600000000000094e+01 5.612100000000000222e+01 3.756600000000000250e+01 -9.701427000000000689e+00 -1.742942334240705493e-01
2.280799999999999983e+01 6.765000000000000568e+01 4.315200000000000102e+01 -2.304877000000000109e+01 -1.037780066394726752e-01
2.280799999999999983e+01 6.765000000000000568e+01 4.401700000000000301e+01 -1.102590999999999966e+01 -1.040630322880114617e-01
2.281299999999999883e+01 3.876700000000000301e+01 3.126399999999999935e+01 8.389734000000000691e+00 1.041739346880734829e-01
2.282000000000000028e+01 3.745000000000000284e+01 3.430599999999999739e+01 1.233859999999999957e+01 9.915884336282432265e-02
2.282000000000000028e+01 4.020000000000000284e+01 3.325600000000000023e+01 -6.239036999999999722e+00 9.435258960061761180e-02
2.282000000000000028e+01 6.073599999999999710e+01 4.019500000000000028e+01 1.222700000000000031e+01 -1.667531171740663232e-01
2.282100000000000151e+01 3.850600000000000023e+01 3.046399999999999864e+01 1.128124000000000038e+01 1.017346536285801684e-01
2.282499999999999929e+01 3.306199999999999761e+01 3.204200000000000159e+01 1.941170999999999980e+00 3.240487530097924118e-02
2.282600000000000051e+01 6.219299999999999784e+01 5.033899999999999864e+01 -1.871112000000000108e+01 -1.014565689558509787e-01
2.282600000000000051e+01 5.769100000000000250e+01 4.088799999999999812e+01 7.770307999999999993e+00 -1.677754320444738156e-01
2.282600000000000051e+01 5.721399999999999864e+01 4.707200000000000273e+01 -1.213687000000000005e+01 -1.043032259319001953e-01
2.282600000000000051e+01 6.879500000000000171e+01 4.583500000000000085e+01 -4.809496000000000215e+00 -3.499999999999999778e-01
2.282700000000000173e+01 4.907200000000000273e+01 3.211800000000000210e+01 -5.877097000000000016e+00 2.520617127076894559e-01
2.282799999999999940e+01 2.573300000000000054e+01 2.441799999999999926e+01 9.030986000000000402e+00 -1.609758160002713878e-01
2.283599999999999852e+01 4.650999999999999801e+01 3.067500000000000071e+01 -2.124081999999999937e+01 2.531692728806031467e-01
2.283800000000000097e+01 4.738000000000000256e+01 4.422699999999999676e+01 7.343089999999999407e+01 7.424843571754975724e-02
2.283999999999999986e+01 6.636599999999999966e+01 3.533500000000000085e+01 4.343763000000000041e+00 -1.687023228133142927e-01
2.284199999999999875e+01 2.732000000000000028e+01 3.134799999999999898e+01 1.257208999999999932e+01 4.219705739522983806e-02
2.284499999999999886e+01 2.813100000000000023e+01 3.305599999999999739e+01 4.258727000000000373e+00 4.476833411109980287e-02
2.284700000000000131e+01 5.098100000000000165e+01 3.289000000000000057e+01 -1.159060999999999986e+01 2.513001808811569093e-01
2.284700000000000131e+01 5.191899999999999693e+01 3.289000000000000057e+01 -1.612592000000000070e+01 6.700371218889310254e-02
2.284799999999999898e+01 6.709499999999999886e+01 3.385799999999999699e+01 -2.478434999999999988e+01 -1.693424326617707365e-01
2.285000000000000142e+01 4.519599999999999795e+01 3.037800000000000011e+01 -5.189625999999999806e+01 2.536816565264993772e-01
2.285200000000000031e+01 5.710099999999999909e+01 3.845700000000000074e+01 4.435342000000000340e+00 -1.719032410237573139e-01
2.285500000000000043e+01 5.796200000000000330e+01 4.173599999999999710e+01 5.491321000000000119e+00 -1.661670099936521372e-01
2.285600000000000165e+01 3.944100000000000250e+01 3.243500000000000227e+01 7.181208000000000036e-01 9.934100344152101136e-02
2.285600000000000165e+01 5.756700000000000017e+01 3.995700000000000074e+01 1.150799999999999912e+01 -1.693066067664851793e-01
2.285600000000000165e+01 6.186800000000000210e+01 4.095300000000000296e+01 -7.151459000000000010e+00 -1.014776100822732535e-01
2.285699999999999932e+01 5.734300000000000352e+01 3.924600000000000222e+01 1.011201999999999934e+01 -1.705636318591830514e-01
2.285699999999999932e+01 4.502100000000000080e+01 3.218099999999999739e+01 -1.773311999999999955e+01 2.537574172920424309e-01
2.285699999999999932e+01 6.670499999999999829e+01 3.856600000000000250e+01 -1.109149999999999997e-01 -1.022088880637833236e-01
2.285699999999999932e+01 4.796600000000000108e+01 4.187400000000000233e+01 2.469948000000000121e+01 6.301644266827234608e-02
2.285900000000000176e+01 4.709899999999999665e+01 4.510799999999999699e+01 2.240127999999999986e+01 8.138441711899302433e-02
2.286299999999999955e+01 6.073299999999999699e+01 4.978199999999999648e+01 -1.871441000000000088e+01 -1.020158404249535689e-01
2.286400000000000077e+01 7.472799999999999443e+01 3.698199999999999932e+01 -1.249897999999999954e+01 -1.031543411449686865e-01
2.286400000000000077e+01 7.602100000000000080e+01 3.770300000000000296e+01 -1.188480999999999987e+01 -1.027978709880270902e-01
2.286400000000000077e+01 7.624800000000000466e+01 3.850200000000000244e+01 -1.946001000000000047e+01 -1.026241799822870393e-01
2.287800000000000011e+01 5.408800000000000097e+01 4.679800000000000182e+01 2.626388000000000034e+01 -1.028367253032150819e-01
2.288299999999999912e+01 5.916100000000000136e+01 4.171800000000000352e+01 -3.931817999999999813e+00 -1.006033644683782535e-01
2.288400000000000034e+01 5.035499999999999687e+01 3.286200000000000188e+01 -6.328699000000000296e+00 2.515139163144132217e-01
2.288899999999999935e+01 5.954999999999999716e+01 4.097299999999999898e+01 9.701731999999999578e-01 -1.663278300768591400e-01
2.289000000000000057e+01 4.486299999999999955e+01 3.112600000000000122e+01 -8.843560999999999339e+00 2.538518582850559091e-01
2.289699999999999847e+01 7.610200000000000387e+01 3.935699999999999932e+01 -5.237516999999999712e+01 -1.024223296905954206e-01
2.289900000000000091e+01 2.875900000000000034e+01 2.226999999999999957e+01 1.008807000000000009e+01 -1.626206899098034397e-01
2.290399999999999991e+01 6.595600000000000307e+01 3.365599999999999881e+01 4.478899000000000186e+00 -1.698809768915873486e-01
2.290399999999999991e+01 5.851599999999999824e+01 4.763400000000000034e+01 1.020752000000000059e+01 -1.043813768178412510e-01
2.290599999999999881e+01 7.328100000000000591e+01 3.747399999999999665e+01 -5.173005999999999993e+00 -1.031968257640594466e-01
2.290899999999999892e+01 6.137899999999999778e+01 4.029500000000000171e+01 8.773087000000000524e-01 -1.662983021661645633e-01
2.291100000000000136e+01 5.706000000000000227e+01 3.258599999999999852e+01 -1.707864999999999966e+01 7.618656340152832329e-02
2.291199999999999903e+01 4.271999999999999886e+01 3.467399999999999949e+01 -7.297435000000000116e+00 2.551324846085797904e-01
2.291300000000000026e+01 5.066700000000000159e+01 5.220100000000000051e+01 2.157075000000000031e+01 -8.220912177624212225e-02
2.291799999999999926e+01 3.160000000000000142e+01 2.616000000000000014e+01 -5.703973000000000404e+00 3.251897815975073047e-02
2.292099999999999937e+01 5.190800000000000125e+01 5.238900000000000290e+01 3.227116999999999902e-01 -8.570367577509299672e-02
2.292200000000000060e+01 2.712000000000000099e+01 2.933899999999999864e+01 7.496222000000000207e+01 -1.702042037190117374e-01
2.292599999999999838e+01 7.472799999999999443e+01 4.011999999999999744e+01 -4.403564000000000078e+01 -1.024341620095559346e-01
2.292599999999999838e+01 4.762299999999999756e+01 4.091599999999999682e+01 7.816679999999999851e+00 5.788789295010190322e-02
2.293100000000000094e+01 2.021499999999999986e+01 2.393799999999999883e+01 -1.193129000000000062e+01 -1.529686278473617045e-01
2.293199999999999861e+01 7.308400000000000318e+01 3.850200000000000244e+01 -4.840319000000000038e+00 -1.030524358100366467e-01
2.293299999999999983e+01 2.217699999999999960e+01 3.292399999999999949e+01 -1.617925999999999931e+01 -1.551812911404880091e-01
2.293599999999999994e+01 5.102000000000000313e+01 4.191400000000000148e+01 1.029274999999999984e+01 -1.776042892045636423e-01
2.293900000000000006e+01 1.582199999999999918e+01 2.580600000000000094e+01 5.840589999999999948e-01 -2.419510660760721965e-01
2.294000000000000128e+01 6.240400000000000347e+01 3.138599999999999923e+01 -4.742735999999999841e+00 -1.730229532113804480e-01
2.294000000000000128e+01 5.658899999999999864e+01 4.486099999999999710e+01 4.367765999999999593e+00 -1.009951556079959067e-01
2.294999999999999929e+01 2.152100000000000080e+01 2.469500000000000028e+01 -1.675143999999999878e+01 -1.547105246473270967e-01
2.295400000000000063e+01 5.433500000000000085e+01 3.753499999999999659e+01 -1.007376999999999967e+00 -1.771735269226785980e-01
2.295400000000000063e+01 1.715399999999999991e+01 2.509900000000000020e+01 6.927678000000000225e+00 -2.434942633878194318e-01
2.295599999999999952e+01 4.172500000000000142e+01 4.391100000000000136e+01 1.383276000000000039e+01 2.379101426308506684e-01
2.296000000000000085e+01 2.369600000000000151e+01 2.549299999999999855e+01 -7.834183999999999592e+00 -1.584368270366058318e-01
2.296000000000000085e+01 1.791600000000000037e+01 2.964999999999999858e+01 3.075420999999999960e+00 -2.459417253436627926e-01
2.296199999999999974e+01 6.348100000000000165e+01 3.243900000000000006e+01 -6.213656000000000290e+00 -1.717894189875359134e-01
2.296499999999999986e+01 2.935000000000000142e+01 2.719099999999999895e+01 1.942693999999999832e+01 3.494488037140130315e-02
2.296600000000000108e+01 5.346500000000000341e+01 5.118299999999999983e+01 2.477206999999999937e+00 -9.447363812764150715e-02
2.296699999999999875e+01 6.797299999999999898e+01 3.933299999999999841e+01 2.795314999999999994e+00 -1.023800455680136806e-01
2.296799999999999997e+01 4.429500000000000171e+01 4.105899999999999750e+01 1.048563000000000045e+01 2.488841224338112779e-01
2.297100000000000009e+01 3.883100000000000307e+01 3.596300000000000097e+01 -6.090417000000000414e+00 2.584496451143069584e-01
2.297100000000000009e+01 3.903999999999999915e+01 3.669899999999999807e+01 -1.071787999999999919e+01 2.587127185672362106e-01
2.299099999999999966e+01 5.798100000000000165e+01 3.133500000000000085e+01 -3.237700999999999940e+00 7.655791745999508680e-02
2.299099999999999966e+01 5.942699999999999960e+01 3.052899999999999991e+01 -2.695622000000000185e+00 7.740930501225569416e-02
2.300000000000000000e+01 6.671899999999999409e+01 3.456000000000000227e+01 -5.112472999999999601e+00 -1.690273668033319410e-01
2.301000000000000156e+01 2.670100000000000051e+01 2.320700000000000074e+01 5.161371999999999627e-01 -1.613559101957499076e-01
2.301399999999999935e+01 6.987999999999999545e+01 4.824900000000000233e+01 9.205004000000000630e+00 -3.499999999999999778e-01
2.301599999999999824e+01 5.193099999999999739e+01 4.384899999999999665e+01 3.818281000000000347e+01 -1.685672212234034795e-01
2.301599999999999824e+01 3.838799999999999812e+01 3.543399999999999750e+01 1.801393999999999940e+00 9.463829434864565182e-02
2.301599999999999824e+01 6.153199999999999648e+01 4.326899999999999835e+01 -5.924662999999999791e+00 -1.015708213341753041e-01
2.302100000000000080e+01 6.082300000000000040e+01 3.104500000000000171e+01 -4.332093999999999667e+00 7.891871654627061194e-02
2.302100000000000080e+01 3.618299999999999983e+01 2.627799999999999869e+01 -6.160905999999999771e+00 2.856598603119148844e-02
2.302100000000000080e+01 4.995100000000000051e+01 4.714999999999999858e+01 2.321159000000000106e+01 -9.853991330877510946e-02
2.302100000000000080e+01 5.479899999999999949e+01 4.849900000000000233e+01 2.717708999999999975e+01 -1.037967147439230048e-01
2.302100000000000080e+01 5.479899999999999949e+01 4.954899999999999949e+01 2.191238999999999848e+01 -1.011277756963027824e-01
2.302499999999999858e+01 3.842000000000000171e+01 2.957999999999999829e+01 1.666248999999999825e+01 1.024907935105594525e-01
2.302799999999999869e+01 4.343099999999999739e+01 4.250699999999999790e+01 1.041742999999999952e+01 2.455974381248435812e-01
2.302799999999999869e+01 5.916400000000000148e+01 4.320900000000000318e+01 1.313419000000000025e+01 -1.004843392192290574e-01
2.303900000000000148e+01 1.814399999999999835e+01 2.499099999999999966e+01 7.209453999999999585e-01 -2.452990589580864855e-01
2.303999999999999915e+01 3.134199999999999875e+01 3.282900000000000063e+01 -4.160317000000000043e+00 3.634701303121240512e-02
2.303999999999999915e+01 3.134199999999999875e+01 3.434899999999999665e+01 -1.437359999999999971e+01 3.668345512227769167e-02
2.304100000000000037e+01 6.804500000000000171e+01 5.103900000000000148e+01 3.022270999999999930e+00 -3.500000000000000333e-01
2.304100000000000037e+01 6.974500000000000455e+01 5.103900000000000148e+01 3.883752999999999789e-01 -3.500000000000000333e-01
2.304400000000000048e+01 2.772200000000000131e+01 3.217199999999999704e+01 4.071642999999999901e+00 4.334159723507693268e-02
2.304400000000000048e+01 4.320799999999999841e+01 4.307399999999999807e+01 3.771189999999999820e+00 2.434292690908731738e-01
2.304899999999999949e+01 4.117000000000000171e+01 3.455199999999999960e+01 -1.405896000000000079e+01 2.563521920115982011e-01
2.304899999999999949e+01 2.924500000000000099e+01 2.055799999999999983e+01 -7.946654999999999802e+00 -1.617487480155263280e-01
2.304899999999999949e+01 3.170499999999999829e+01 2.055799999999999983e+01 -2.422288999999999959e+01 3.043579057056318080e-02
2.305300000000000082e+01 6.932899999999999352e+01 4.682800000000000296e+01 2.580646000000000129e+01 -3.499999999999999778e-01
2.305399999999999849e+01 2.825300000000000011e+01 2.862199999999999989e+01 3.102740999999999971e+01 3.719489456782287817e-02
2.305999999999999872e+01 2.013500000000000156e+01 2.994300000000000139e+01 2.233172000000000068e+01 -1.497566051598659964e-01
2.306200000000000117e+01 2.917699999999999960e+01 2.608500000000000085e+01 9.885849000000000331e+00 3.425035971932040291e-02
2.306299999999999883e+01 1.508799999999999919e+01 2.657000000000000028e+01 -2.362256000000000078e-03 -2.425025304999118281e-01
2.306700000000000017e+01 6.944599999999999795e+01 3.981900000000000261e+01 7.035531999999999897e+00 -1.025660794858388042e-01
2.306700000000000017e+01 6.944599999999999795e+01 4.151899999999999835e+01 2.250631999999999966e+00 -1.029483260208941403e-01
2.306899999999999906e+01 3.306700000000000017e+01 2.721000000000000085e+01 -7.801487999999999978e+00 3.167224519382746267e-02
2.307000000000000028e+01 2.941900000000000048e+01 2.311299999999999955e+01 -3.754506999999999817e+00 3.236724839996067693e-02
2.307000000000000028e+01 5.450600000000000023e+01 4.760199999999999676e+01 1.682271000000000072e+01 -1.017884998886476600e-01
2.307600000000000051e+01 6.808199999999999363e+01 4.245199999999999818e+01 -1.109421000000000035e+01 -1.028855469672136369e-01
2.308500000000000085e+01 6.396699999999999875e+01 3.325699999999999790e+01 -4.290505999999999709e+00 -1.710113359839652847e-01
2.308500000000000085e+01 2.330099999999999838e+01 3.677700000000000102e+01 -6.050862999999999658e-01 -1.655096802406202106e-01
2.308500000000000085e+01 2.500100000000000122e+01 3.677700000000000102e+01 -1.745610000000000106e+00 -1.890307299201179903e-01
2.308699999999999974e+01 3.701700000000000301e+01 3.360600000000000165e+01 6.645152999999999643e+00 1.017273433897730450e-01
2.308800000000000097e+01 3.047500000000000142e+01 1.973499999999999943e+01 -7.002157000000000409e+00 3.062337011927913216e-02
2.309400000000000119e+01 5.520300000000000296e+01 3.305499999999999972e+01 -2.847357000000000138e+00 7.440467905055685172e-02
2.309499999999999886e+01 5.820300000000000296e+01 4.239500000000000313e+01 5.291051000000000393e+00 -1.647406998500384745e-01
2.309499999999999886e+01 5.820300000000000296e+01 4.386699999999999733e+01 8.454019000000000617e+00 -9.992852029968007921e-02
2.309499999999999886e+01 5.841199999999999903e+01 4.313100000000000023e+01 8.257683000000000106e+00 -9.962527868458609381e-02
2.309600000000000009e+01 6.652299999999999613e+01 5.058100000000000307e+01 1.579427000000000021e+02 -3.499999999999999778e-01
2.309799999999999898e+01 3.424399999999999977e+01 3.409499999999999886e+01 1.037590999999999930e+01 1.115560249470637089e-01
2.310300000000000153e+01 4.736899999999999977e+01 3.111400000000000077e+01 -6.270599999999999952e+00 2.529531469349098893e-01
2.310300000000000153e+01 3.101300000000000168e+01 3.358899999999999864e+01 -2.104747000000000057e+01 3.758673618170988578e-02
2.310500000000000043e+01 5.276100000000000279e+01 3.769200000000000017e+01 -1.817555000000000121e+01 7.336622212257216946e-02
2.310600000000000165e+01 5.147099999999999653e+01 3.829599999999999937e+01 -5.582350999999999885e+01 6.976057758713463675e-02
2.310800000000000054e+01 2.949500000000000099e+01 2.226999999999999957e+01 -3.760911000000000115e+00 3.194244598639697091e-02
2.310999999999999943e+01 5.007900000000000063e+01 3.984300000000000352e+01 2.143413999999999930e+01 6.598224801376026405e-02
2.310999999999999943e+01 5.028799999999999670e+01 3.910699999999999932e+01 1.940201000000000064e+01 6.543121829790080057e-02
2.311199999999999832e+01 2.680199999999999960e+01 3.010000000000000142e+01 4.068999999999999773e+01 -1.713211450285515303e-01
2.311499999999999844e+01 2.639099999999999824e+01 3.488199999999999790e+01 6.700355999999999534e-01 5.266093798744993920e-02
2.311700000000000088e+01 5.342799999999999727e+01 3.318999999999999773e+01 -4.863602000000000203e+00 7.135988440741593275e-02
2.312300000000000111e+01 3.563400000000000034e+01 2.535999999999999943e+01 -1.180701999999999963e+01 2.937121024459262222e-02
2.312399999999999878e+01 6.003600000000000136e+01 4.025300000000000011e+01 1.368516999999999939e+01 -1.668951584151673329e-01
2.312800000000000011e+01 4.534000000000000341e+01 4.007300000000000040e+01 -3.239021000000000328e+01 2.501408666108787537e-01
2.312900000000000134e+01 2.778500000000000014e+01 3.403099999999999881e+01 -1.375037000000000065e+00 4.779961563509762396e-02
2.312999999999999901e+01 5.695499999999999829e+01 4.455299999999999727e+01 3.965327999999999964e+00 -9.937350642901768283e-02
2.313100000000000023e+01 5.318599999999999994e+01 4.684799999999999898e+01 2.517286000000000001e+01 -9.900674487805700974e-02
2.313200000000000145e+01 3.929399999999999693e+01 3.792300000000000182e+01 -1.290899999999999936e+00 2.594119533935171917e-01
2.313200000000000145e+01 3.950300000000000011e+01 3.865899999999999892e+01 -2.166522000000000059e+00 2.594889123043141455e-01
2.313299999999999912e+01 6.945799999999999841e+01 4.778600000000000136e+01 2.490556000000000125e+01 -3.499999999999999778e-01
2.313800000000000168e+01 6.981499999999999773e+01 4.066899999999999693e+01 1.227473000000000036e+00 -1.026578483601733316e-01
2.314000000000000057e+01 3.569800000000000040e+01 3.328199999999999648e+01 8.208859000000000350e+00 1.063902410328871062e-01
2.314300000000000068e+01 3.228399999999999892e+01 3.440200000000000102e+01 -4.191096999999999895e+01 3.366333798574026176e-02
2.314799999999999969e+01 2.918499999999999872e+01 2.149699999999999989e+01 -1.087200999999999951e+01 -1.623926380639334477e-01
2.314900000000000091e+01 5.682600000000000051e+01 4.654800000000000182e+01 -1.241098000000000035e+01 -1.008573957079692551e-01
2.314999999999999858e+01 4.457200000000000273e+01 3.445499999999999829e+01 -9.402355999999999270e+00 2.540939697071863401e-01
2.315200000000000102e+01 7.538899999999999579e+01 3.986299999999999955e+01 -3.980248000000000275e+01 -1.018269838016267609e-01
2.315299999999999869e+01 6.026299999999999812e+01 4.902199999999999847e+01 -1.993893999999999878e+01 -3.499999999999999778e-01
2.315700000000000003e+01 6.176500000000000057e+01 3.124500000000000099e+01 -6.545072000000000223e+00 -1.734787857416897616e-01
2.315899999999999892e+01 3.942900000000000205e+01 4.218500000000000227e+01 -2.944729000000000152e+00 2.576143825555108346e-01
2.315899999999999892e+01 4.834199999999999875e+01 3.176899999999999835e+01 -1.542542000000000080e+01 2.525485412802103147e-01
2.316600000000000037e+01 2.832600000000000051e+01 2.296999999999999886e+01 4.925620000000000331e+00 -1.628750061497196144e-01
2.316700000000000159e+01 4.459599999999999653e+01 4.017099999999999937e+01 -5.829534999999999911e+00 2.507155527582894949e-01
2.317000000000000171e+01 3.015200000000000102e+01 2.438500000000000156e+01 1.041172999999999904e+00 3.265277754119728926e-02
2.318400000000000105e+01 5.143399999999999750e+01 5.216499999999999915e+01 -2.408656000000000130e-01 -8.268835782856540084e-02
2.318799999999999883e+01 4.965500000000000114e+01 3.280299999999999727e+01 -1.811145999999999923e+00 2.519154363175694078e-01
2.318900000000000006e+01 5.348899999999999721e+01 4.754800000000000182e+01 2.609560000000000102e+01 -9.952718176023508945e-02
2.318900000000000006e+01 5.348899999999999721e+01 5.050000000000000000e+01 -3.389374999999999805e+00 -9.546776661390679597e-02
2.319000000000000128e+01 3.364800000000000324e+01 3.016199999999999903e+01 8.456841999999999970e+00 3.159363248854937106e-02
2.319000000000000128e+01 3.385699999999999932e+01 2.942599999999999838e+01 1.011485000000000056e+01 3.128150369316144014e-02
2.319000000000000128e+01 5.668900000000000006e+01 3.773799999999999955e+01 2.754331000000000085e+00 -1.731641259377181274e-01
2.319099999999999895e+01 5.161200000000000188e+01 4.293500000000000227e+01 5.755863000000000085e+01 -1.723737453720575741e-01
2.319200000000000017e+01 3.928600000000000136e+01 3.940800000000000125e+01 -1.830867999999999940e+00 2.602790085908141537e-01
2.319300000000000139e+01 3.276299999999999812e+01 2.165200000000000102e+01 8.018461999999999534e+00 3.031332724212805821e-02
2.320599999999999952e+01 2.626899999999999835e+01 2.409299999999999997e+01 3.392527999999999988e+00 -1.615517585497794895e-01
2.320599999999999952e+01 2.901899999999999835e+01 2.514300000000000068e+01 5.975413999999999781e+00 3.371989684625068678e-02
2.320599999999999952e+01 3.128500000000000014e+01 2.514300000000000068e+01 -2.573348999999999887e+00 3.232780525976199776e-02
2.320599999999999952e+01 3.206799999999999784e+01 2.125900000000000034e+01 -8.394194999999999851e+00 3.050954854945186340e-02
2.321000000000000085e+01 2.111700000000000088e+01 3.203199999999999648e+01 -1.893759000000000015e+01 -1.511099035281452119e-01
2.322400000000000020e+01 3.232900000000000063e+01 3.279500000000000171e+01 -1.622811000000000092e+01 3.399040427105300827e-02
2.322800000000000153e+01 6.296500000000000341e+01 5.067699999999999960e+01 2.110545999999999811e+00 -3.500000000000000333e-01
2.322800000000000153e+01 6.408100000000000307e+01 5.067699999999999960e+01 1.688463999999999965e+00 -3.500000000000000333e-01
2.322800000000000153e+01 2.293700000000000117e+01 2.545799999999999841e+01 -5.028773000000000160e+00 -1.572146803713428409e-01
