2.780900000000000105e+01 -4.877699999999999925e+00 -1.978999999999999915e+01 -2.114855999999999980e+01 -1.770382769551029356e-01
2.780900000000000105e+01 -3.938299999999999912e+00 -1.978999999999999915e+01 -3.134202000000000155e+01 -1.766848240855240226e-01
2.780999999999999872e+01 -2.751300000000000168e+01 1.887999999999999901e+00 -5.247346000000000288e+00 -1.683324683681202971e-01
2.781200000000000117e+01 -3.181700000000000017e+01 -1.695000000000000062e+00 2.205985999999999780e+00 -1.716573544131484719e-01
2.781400000000000006e+01 -1.549300000000000033e+01 -3.326999999999999957e-01 1.273562000000000083e+01 -1.687343342001841329e-01
2.781400000000000006e+01 -7.200999999999999623e+00 -1.534099999999999930e+01 8.495257999999999754e+00 -1.767187056779334353e-01
2.781400000000000006e+01 -1.561299999999999910e+00 -2.266100000000000136e+01 -1.731701999999999941e+01 3.750644115280452051e-02
2.781400000000000006e+01 -1.142500000000000071e+01 -1.466600000000000037e+01 -1.861097000000000001e+00 -7.129824630321054957e-02
2.781899999999999906e+01 2.761200000000000099e+00 -1.911199999999999832e+01 -4.980923999999999907e+00 -6.831975485369952417e-02
2.782300000000000040e+01 1.348499999999999943e+01 -4.302199999999999847e+01 -1.846730999999999900e+00 3.787187036987076094e-02
2.782400000000000162e+01 -2.664499999999999957e+01 1.782899999999999929e+00 -3.473025999999999947e+00 -5.927652062587610710e-02
2.782400000000000162e+01 7.760100000000000442e+00 -3.703099999999999881e+01 6.513306000000000040e+00 3.712140339520465793e-02
2.782799999999999940e+01 2.065899999999999892e+01 -2.280399999999999849e+01 -3.453972000000000264e+01 -1.690604032548944924e-01
2.782999999999999829e+01 2.167500000000000071e+01 -2.762099999999999866e+01 3.003813000000000066e+00 -1.700126658843100214e-01
2.783099999999999952e+01 1.770499999999999829e+01 -2.270100000000000051e+01 -2.598685000000000045e+01 -1.696954369459084400e-01
2.783599999999999852e+01 3.381899999999999906e+00 -3.730199999999999960e+01 3.157806000000000068e+01 3.697936777773463274e-02
2.783800000000000097e+01 1.265399999999999991e+01 -3.641199999999999903e+01 1.728329000000000093e+01 3.822230102706824367e-02
2.783800000000000097e+01 1.384500000000000064e+01 -3.574799999999999756e+01 2.109282999999999930e+01 3.852004838569945966e-02
2.783800000000000097e+01 1.503599999999999959e+01 -3.641199999999999903e+01 1.113879000000000019e+01 3.868114084399856129e-02
2.783800000000000097e+01 1.538100000000000023e+01 -3.719500000000000028e+01 9.147786999999999225e+00 3.866922947469340899e-02
2.784100000000000108e+01 -1.485500000000000043e+01 -3.536999999999999744e+01 -4.595377999999999963e-01 3.920464519104642498e-02
2.784299999999999997e+01 -2.210500000000000043e+01 -2.344800000000000040e+01 7.204798000000000258e+00 -1.782208543692660740e-01
2.784900000000000020e+01 1.744300000000000139e+01 -4.043699999999999761e+01 -5.888463999999999920e+00 3.873456140260067571e-02
2.784900000000000020e+01 -1.015700000000000003e+01 -4.492999999999999972e+01 4.148977999999999611e+00 3.947046174671572233e-02
2.785099999999999909e+01 3.277699999999999836e+00 -3.841400000000000148e+01 5.257088000000000250e+01 3.715473203612649350e-02
2.785600000000000165e+01 -7.052500000000000213e+00 -1.847800000000000153e+01 2.397764000000000095e+01 -7.152090252163159634e-02
2.785600000000000165e+01 -4.111699999999999910e+00 -2.478800000000000026e+01 -1.953128999999999849e+01 3.694991087437918958e-02
2.785600000000000165e+01 -3.902600000000000069e+00 -2.405199999999999960e+01 -1.168871000000000038e+01 3.702804242969462423e-02
2.785699999999999932e+01 2.180999999999999872e+01 -2.483099999999999952e+01 -3.223098999999999936e+00 -1.693408835396851553e-01
2.785800000000000054e+01 -5.229199999999999626e+00 -4.772299999999999898e+01 -8.146694999999999354e+00 3.911419404600549599e-02
2.785900000000000176e+01 -1.444299999999999962e+01 -3.814999999999999858e+01 -3.266063000000000160e-01 3.946070314901865134e-02
2.786199999999999832e+01 -6.184499999999999886e+00 -1.947200000000000131e+01 2.926238000000000028e+01 -1.774954255051527652e-01
2.786299999999999955e+01 -2.666199999999999903e+01 -1.042799999999999949e+00 4.125912000000000290e+01 -6.273577450325951155e-02
2.786299999999999955e+01 -2.526200000000000045e+01 -1.042799999999999949e+00 3.142383999999999844e+01 -6.312901124801670316e-02
2.786299999999999955e+01 1.212700000000000067e+01 -3.889099999999999824e+01 -8.530198999999999643e+00 3.791131652656758166e-02
2.786700000000000088e+01 -3.605199999999999960e+00 -4.774499999999999744e+01 1.163559999999999942e-02 3.894012694523598522e-02
2.787199999999999989e+01 -3.672000000000000153e+00 -2.208500000000000085e+01 -1.606759999999999877e+01 3.728455807760321095e-02
2.787199999999999989e+01 -3.608900000000000219e+00 -2.055000000000000071e+01 -3.074214999999999876e+01 -1.767637731323311034e-01
2.787199999999999989e+01 -1.757700000000000173e+01 4.086000000000000298e+00 -1.191688000000000053e-01 -2.456075418446183600e-01
2.787300000000000111e+01 2.559000000000000163e+00 -4.734599999999999653e+01 5.524849999999999817e+00 3.830186328885788749e-02
2.787399999999999878e+01 -2.449299999999999855e+01 2.102399999999999824e+00 1.174117999999999995e+01 -5.958622914915272240e-02
2.787500000000000000e+01 -1.192200000000000060e+01 -1.038899999999999935e+01 -3.151827000000000112e+01 -7.059170352442581398e-02
2.787500000000000000e+01 -3.755599999999999827e+00 -2.305099999999999838e+01 -2.294094000000000122e+01 3.714502928943721333e-02
2.787699999999999889e+01 -3.178699999999999903e+01 -1.180100000000000016e+01 2.557853999999999850e+00 -1.786695753472000714e-01
2.787900000000000134e+01 -1.897700000000000031e+01 -3.234100000000000108e+01 9.941881000000000190e-01 -1.767637457504025178e-01
2.787999999999999901e+01 -1.654200000000000159e+01 -2.611199999999999832e+01 2.263301999999999836e+01 -1.779756255173239321e-01
2.788400000000000034e+01 -1.822400000000000020e+01 -3.964300000000000157e+00 -2.218221000000000220e+00 -6.747318558028532476e-02
2.788400000000000034e+01 -1.822400000000000020e+01 -3.099099999999999966e+00 6.393335000000000434e+00 -6.690311534976681185e-02
2.788400000000000034e+01 -2.908899999999999864e+01 -1.543399999999999928e+01 9.554276999999999909e-01 -1.788514823871238668e-01
2.788500000000000156e+01 -1.092399999999999949e+01 -7.512100000000000222e+00 1.750208999999999904e+01 -1.744137262130004973e-01
2.788700000000000045e+01 1.995299999999999940e+01 -2.777199999999999847e+01 7.684459999999999624e+00 -1.704119751524329485e-01
2.789199999999999946e+01 -7.628599999999999604e+00 -2.279200000000000159e+01 -2.605940000000000012e+01 3.757517019907111178e-02
2.789399999999999835e+01 -1.228800000000000026e+01 -6.679999999999999716e+00 2.491863000000000028e+01 -1.745288983581058662e-01
2.789399999999999835e+01 -1.065799999999999947e+01 -6.679999999999999716e+00 2.477618999999999971e+01 -1.735852707913593806e-01
2.789799999999999969e+01 1.567300000000000004e+01 -2.870499999999999829e+01 2.934874999999999901e+01 -1.716536349771794201e-01
2.789799999999999969e+01 1.588299999999999912e+01 -2.944099999999999895e+01 2.711179999999999879e+01 -1.717469201071642193e-01
2.789799999999999969e+01 1.588299999999999912e+01 -2.796900000000000119e+01 2.349217000000000155e+01 -1.714433801867508156e-01
2.789799999999999969e+01 1.707300000000000040e+01 -2.730499999999999972e+01 3.368675999999999959e+01 -1.709908079938428638e-01
2.789799999999999969e+01 2.441600000000000215e+00 -4.285000000000000142e+01 1.305211000000000077e+01 3.782141331728096356e-02
2.789799999999999969e+01 2.441600000000000215e+00 -4.145000000000000284e+01 1.538404000000000060e+01 3.764780437268213514e-02
2.790500000000000114e+01 4.451900000000000190e+00 -5.194700000000000273e+01 -1.700785999999999909e+00 3.856489262612202568e-02
2.790500000000000114e+01 6.050099999999999589e+00 -5.194700000000000273e+01 -1.189974999999999916e+01 3.844195866719911370e-02
2.790800000000000125e+01 2.715700000000000003e+00 -4.100099999999999767e+01 1.361608999999999980e+01 3.756511250302455029e-02
2.790800000000000125e+01 -1.046000000000000085e+01 -4.422999999999999687e+01 6.086222000000000243e+00 3.945488268368289864e-02
2.790899999999999892e+01 7.078100000000000058e+00 -3.499799999999999756e+01 1.859583999999999904e+00 3.711082122443124659e-02
2.791100000000000136e+01 -8.552899999999999947e-01 -3.319700000000000273e+01 -1.544433000000000078e+01 3.672085815285199700e-02
2.791100000000000136e+01 -8.552899999999999947e-01 -3.233200000000000074e+01 -3.717601000000000155e+00 3.655973853508615035e-02
2.791100000000000136e+01 1.409999999999999920e+00 -3.319700000000000273e+01 2.877594000000000207e+00 3.648423522466804486e-02
2.791100000000000136e+01 1.409999999999999920e+00 -3.233200000000000074e+01 5.657897000000000176e+00 3.632423034232998282e-02
2.791300000000000026e+01 -1.433000000000000007e+01 -3.714399999999999835e+01 -8.372983999999999982e-01 3.933373397113077569e-02
2.791400000000000148e+01 -1.319599999999999973e+01 -8.359500000000000597e+00 -2.283669000000000082e+01 -7.003849261454213326e-02
2.791499999999999915e+01 6.012299999999999756e+00 -1.561999999999999922e+01 8.447559999999999292e+00 -6.585444090582179277e-02
2.791499999999999915e+01 6.877600000000000158e+00 -1.561999999999999922e+01 5.165791999999999717e+00 -6.560236641122504930e-02
2.791600000000000037e+01 -2.903999999999999915e+01 -8.763900000000000023e-01 -1.569166000000000061e+01 -1.724583237700419713e-01
2.791600000000000037e+01 -7.989499999999999602e+00 -4.706600000000000250e+01 -3.413403000000000187e+00 3.938222493621915121e-02
2.791700000000000159e+01 -1.463700000000000045e+01 -3.916299999999999670e+01 4.774453000000000280e+00 3.960586302252180890e-02
2.791900000000000048e+01 -3.926200000000000134e+00 -2.134700000000000131e+01 -2.317896999999999963e+01 -1.770650788079126681e-01
2.792299999999999827e+01 -2.433500000000000085e+01 3.262599999999999945e+00 7.466986000000000345e+00 -5.805101184795845304e-02
2.793100000000000094e+01 -4.707600000000000229e+00 -2.548000000000000043e+01 2.356036000000000019e+00 3.687683032180223003e-02
2.793100000000000094e+01 8.489699999999999136e+00 -4.175000000000000000e+01 1.045983999999999980e+01 3.719942837000709407e-02
2.793299999999999983e+01 5.087900000000000311e+00 -4.498899999999999721e+01 -2.300354000000000099e+01 3.784155821517044133e-02
2.793499999999999872e+01 1.124000000000000021e+01 -4.357999999999999829e+01 5.173105000000000064e-01 3.743976319825573218e-02
2.793799999999999883e+01 -9.919299999999999784e+00 -4.623700000000000188e+01 2.094466999999999857e+00 3.955556633066161648e-02
2.793799999999999883e+01 4.070199999999999818e+00 -1.797800000000000153e+01 -7.555864999999999831e+00 -6.746000895316324464e-02
2.794000000000000128e+01 -3.057600000000000051e+01 -3.564900000000000180e+00 4.098475999999999786e+00 -1.752324209162604285e-01
2.794200000000000017e+01 -1.454800000000000004e+01 -8.755300000000000082e+00 -5.477725000000000399e+00 -7.010924159551498724e-02
2.794500000000000028e+01 -3.089900000000000091e+01 -4.048000000000000043e+00 3.982095000000000162e+00 -1.755928383633458545e-01
2.794699999999999918e+01 2.773300000000000209e-01 -3.395600000000000307e+01 -1.617307999999999879e+01 3.673670762347756857e-02
2.794699999999999918e+01 2.773300000000000209e-01 -3.157400000000000162e+01 2.269510000000000138e-01 3.629386414569878844e-02
2.795100000000000051e+01 3.092000000000000082e+00 -4.288499999999999801e+01 -9.578366000000000824e+00 3.776944578635730437e-02
2.795299999999999940e+01 -5.843600000000000350e+00 -1.994099999999999895e+01 3.235993999999999815e+00 -1.775049499666366826e-01
2.795400000000000063e+01 -1.907999999999999829e+01 -2.485999999999999943e+01 -1.590103999999999962e-01 -1.781469267607230511e-01
2.795700000000000074e+01 2.138199999999999878e+00 -4.214999999999999858e+01 1.453026000000000018e+01 3.776745785269283728e-02
2.795899999999999963e+01 -1.195199999999999996e+01 -5.905000000000000249e+00 2.415568000000000026e+01 -1.736837853450600710e-01
2.795899999999999963e+01 -1.099399999999999977e+01 -5.905000000000000249e+00 3.255704000000000065e+01 -1.731275435954759967e-01
2.796000000000000085e+01 1.507399999999999984e+01 -1.957799999999999940e+01 1.623250000000000171e+01 -1.694429174482957323e-01
2.796000000000000085e+01 -2.032499999999999929e+01 -2.334100000000000108e+01 -2.467496000000000134e+00 -1.784019303316444760e-01
2.796099999999999852e+01 4.807199999999999918e+00 -4.404099999999999682e+01 -2.191571000000000069e+01 3.775855349567981689e-02
2.796399999999999864e+01 3.112099999999999866e+00 -4.131300000000000239e+01 1.104044999999999987e+01 3.757249938659510541e-02
2.796499999999999986e+01 -6.107599999999999696e+00 -2.060900000000000176e+01 -8.238851000000000369e+00 3.775795536219905824e-02
2.796799999999999997e+01 4.781299999999999883e+00 -5.270700000000000074e+01 -1.412865000000000038e+00 3.860481365103065471e-02
2.796799999999999997e+01 4.781299999999999883e+00 -5.118699999999999761e+01 -4.646918000000000326e+00 3.847748341084161056e-02
2.796799999999999997e+01 5.720699999999999896e+00 -5.270700000000000074e+01 -2.094406999999999908e+00 3.853302626320638524e-02
2.796799999999999997e+01 5.720699999999999896e+00 -5.118699999999999761e+01 -7.915053000000000338e+00 3.840461719235696569e-02
2.797200000000000131e+01 -1.625400000000000134e+01 -2.760300000000000153e+01 3.790245000000000175e+01 -1.777027721844101626e-01
2.797200000000000131e+01 -1.625400000000000134e+01 -2.673799999999999955e+01 3.122134000000000142e+01 -1.778693263663663204e-01
2.797200000000000131e+01 -7.388099999999999667e+00 -2.522400000000000020e+01 1.551211999999999946e+01 3.712850613894956575e-02
2.797200000000000131e+01 -6.197199999999999598e+00 -2.588800000000000168e+01 1.110235999999999912e+01 3.693203153672575817e-02
2.797400000000000020e+01 -7.686099999999999710e+00 -4.776599999999999824e+01 -1.502599999999999936e+00 3.940718790735598526e-02
2.797400000000000020e+01 -1.731800000000000139e+01 -3.406199999999999761e+01 1.065600000000000103e+00 -1.765696177018203639e-01
2.797700000000000031e+01 -5.224099999999999966e+00 -2.057900000000000063e+01 -1.420093999999999923e+01 3.765107250813035794e-02
2.798300000000000054e+01 -2.066499999999999915e+01 3.282000000000000028e+00 8.806969000000000491e+00 -2.454529660677499392e-01
2.798400000000000176e+01 1.770299999999999940e+01 -2.737000000000000099e+01 2.905596999999999852e+01 -1.708473439368293767e-01
2.798600000000000065e+01 2.331999999999999851e+00 -1.989600000000000080e+01 -2.090412000000000159e+00 -6.878213200234264968e-02
2.798900000000000077e+01 -2.762900000000000134e+01 -1.588000000000000078e+01 -1.903639000000000081e+00 -1.791376078626284729e-01
2.798900000000000077e+01 2.875999999999999890e+00 -3.917600000000000193e+01 4.521885999999999939e+01 3.730753069450522263e-02
2.799899999999999878e+01 1.868499999999999872e+01 -3.294299999999999784e+01 1.544983000000000040e+01 -1.717022895835605412e-01
2.800100000000000122e+01 1.523499999999999943e+01 -1.635500000000000043e+01 -3.787319000000000102e+01 -1.682931497116826880e-01
2.800100000000000122e+01 1.523499999999999943e+01 -1.541499999999999915e+01 -2.715346999999999866e+01 -1.679425648282694694e-01
2.800300000000000011e+01 -3.028200000000000003e+01 -3.450199999999999934e-01 -9.043933000000000888e+00 -1.707213927641722528e-01
2.800700000000000145e+01 2.492399999999999949e+00 -4.008899999999999864e+01 2.074547000000000097e+01 3.747009629553827575e-02
2.800900000000000034e+01 -2.470799999999999841e+01 -2.175799999999999912e+01 7.903755999999999560e+00 -1.783267099990072935e-01
2.801099999999999923e+01 -2.261799999999999855e+01 4.014400000000000190e+00 6.525636000000000436e+00 -5.780591133270992360e-02
2.801200000000000045e+01 -9.439000000000000057e+00 -1.701000000000000156e+01 -1.853941999999999979e+01 -7.156383062096301206e-02
2.801300000000000168e+01 -3.002199999999999847e+01 -4.144999999999999574e+00 3.369164000000000048e+00 -1.763696725134257792e-01
2.802199999999999847e+01 -2.443799999999999883e+01 -2.259299999999999997e+01 2.522431000000000090e+00 -1.781817948403814911e-01
2.802499999999999858e+01 6.131700000000000372e+00 -3.512800000000000011e+01 3.978435000000000166e+00 3.687256099681786303e-02
2.803099999999999881e+01 4.346000000000000085e+00 -3.588799999999999812e+01 1.297198000000000029e+01 3.668509069103210313e-02
2.803300000000000125e+01 -2.488500000000000156e+01 -2.026899999999999835e+01 5.707651000000000252e+00 -1.786406513703830690e-01
2.803300000000000125e+01 -2.467599999999999838e+01 -2.100499999999999901e+01 1.018943999999999939e+01 -1.785026418808620119e-01
2.803399999999999892e+01 -2.586700000000000088e+01 -1.940299999999999869e+01 4.784648999999999930e+00 -1.786873355879061154e-01
2.803699999999999903e+01 -2.831200000000000117e+01 1.887999999999999901e+00 8.334751999999999716e-01 -1.678884967616794954e-01
2.803699999999999903e+01 -7.356700000000000017e+00 -4.852600000000000335e+01 -8.521893999999999858e-01 3.943325369860511964e-02
2.803699999999999903e+01 -6.417300000000000004e+00 -4.852600000000000335e+01 -1.232569000000000026e+00 3.932619610449110403e-02
2.804100000000000037e+01 1.691199999999999903e+01 -3.967799999999999727e+01 -3.966026000000000273e-01 3.872064583241732749e-02
2.804299999999999926e+01 -3.010900000000000176e+01 -1.363499999999999979e+01 2.091371000000000091e+00 -1.789638873277364650e-01
2.804299999999999926e+01 -2.989999999999999858e+01 -1.437100000000000044e+01 1.764979000000000131e-01 -1.788838627066416664e-01
2.804799999999999827e+01 -1.057199999999999918e+01 -1.625199999999999889e+01 2.502092000000000027e+01 -7.154575713357944067e-02
2.804899999999999949e+01 -1.424900000000000055e+01 2.774199999999999999e-01 -5.120682999999999652e+00 -2.458867122657654725e-01
2.805099999999999838e+01 -1.960500000000000043e+01 3.230900000000000105e+00 -5.419285999999999603e+00 -2.455296684507602689e-01
2.805099999999999838e+01 -1.747400000000000020e+01 -2.834600000000000009e+01 4.912925000000000431e+00 -1.775345592759329516e-01
2.805199999999999960e+01 -8.546099999999999142e+00 -1.733800000000000097e+01 -1.079763999999999946e+01 -7.157194825486201673e-02
2.805300000000000082e+01 -3.157900000000000063e+01 -1.132200000000000095e+00 -1.215545000000000098e+00 -1.711735173473684646e-01
2.805399999999999849e+01 1.299300000000000033e+01 -4.062899999999999778e+01 -1.372605000000000075e+01 3.795441418111092369e-02
2.805600000000000094e+01 -1.866199999999999903e+01 -2.873600000000000065e+01 -1.806353999999999971e+01 -1.774138564773642401e-01
2.805600000000000094e+01 -3.275000000000000000e+01 -9.913299999999999557e+00 2.725643999999999956e+00 -1.785905333442357468e-01
2.805799999999999983e+01 -2.709700000000000131e+01 -1.846000000000000085e+01 4.928519999999999790e+00 -1.786851561004603739e-01
2.805900000000000105e+01 1.685900000000000176e+01 -3.876200000000000045e+01 8.653923000000000032e-01 3.879381195339327848e-02
2.805999999999999872e+01 -3.108299999999999841e+01 -1.272899999999999920e+01 8.754393000000000313e+00 -1.788205839921896412e-01
2.805999999999999872e+01 1.130200000000000093e+00 -2.789199999999999946e+01 9.522221000000000046e+00 3.649169245137534601e-02
2.805999999999999872e+01 1.130200000000000093e+00 -2.649200000000000088e+01 3.032867999999999853e+01 3.694817051692985549e-02
2.805999999999999872e+01 1.995500000000000052e+00 -2.789199999999999946e+01 9.050140000000000740e+00 3.679546011987731846e-02
2.805999999999999872e+01 1.995500000000000052e+00 -2.649200000000000088e+01 7.597184000000000381e+00 3.725766870323489466e-02
2.806299999999999883e+01 4.838000000000000078e+00 -1.543800000000000061e+01 -4.105890999999999735e+01 -6.616330072209578028e-02
2.806800000000000139e+01 4.100000000000000172e-02 -2.114199999999999946e+01 -1.435295999999999950e+01 3.874623121651629004e-02
2.807199999999999918e+01 -3.119099999999999895e+01 -4.844999999999999751e+00 9.547978999999999772e+00 -1.764198909176881991e-01
2.807300000000000040e+01 -1.863400000000000034e+01 -3.306799999999999784e+01 1.228982000000000019e+00 -1.766767057604095303e-01
2.807600000000000051e+01 1.664399999999999835e+01 -4.043699999999999761e+01 -1.205694999999999961e+00 3.861313538937059808e-02
2.807600000000000051e+01 1.824200000000000088e+01 -4.043699999999999761e+01 -5.160745999999999611e+00 3.887314061839289292e-02
2.807700000000000173e+01 -2.987099999999999866e+01 -6.374699999999999811e+00 1.656872999999999863e+01 -1.786766421304813168e-01
2.808099999999999952e+01 3.682300000000000129e+00 -1.685600000000000165e+01 4.650489000000000317e+01 -6.717124459366809186e-02
2.808099999999999952e+01 3.682300000000000129e+00 -1.533600000000000030e+01 -1.849521000000000015e+01 -6.650750683048442524e-02
2.808599999999999852e+01 -1.833800000000000097e+01 4.007100000000000328e+00 -1.612136000000000013e+00 -2.455872790387057802e-01
2.808800000000000097e+01 -2.295100000000000051e+01 -2.343599999999999994e+01 6.215093999999999674e+00 -1.781776376009647778e-01
2.808899999999999864e+01 -3.100900000000000034e+01 -6.447300000000000253e+00 2.136430000000000007e+01 -1.780508260525993092e-01
2.808999999999999986e+01 6.929100000000000037e+00 -1.667099999999999937e+01 3.814989999999999881e+00 -6.606039917812414619e-02
2.809100000000000108e+01 -2.044200000000000017e+00 -4.730499999999999972e+01 2.450816000000000106e+00 3.875078156297784293e-02
2.809299999999999997e+01 -8.038000000000000256e+00 -1.726000000000000156e+01 -5.707192000000000043e+00 -7.156083914256945733e-02
2.809600000000000009e+01 4.971099999999999852e+00 -4.641100000000000136e+01 4.112153000000000169e+00 3.801311239106885953e-02
2.809900000000000020e+01 -4.408000000000000362e+00 -2.055000000000000071e+01 -3.929986000000000246e+01 -1.771475617413722226e-01
2.810000000000000142e+01 -2.798300000000000054e+01 -2.720000000000000195e-01 4.127145999999999759e+00 -1.724482001977280521e-01
2.810000000000000142e+01 -2.798300000000000054e+01 1.127999999999999892e+00 2.529492999999999991e+00 -1.698164998051455155e-01
2.810000000000000142e+01 -2.798300000000000054e+01 2.648000000000000131e+00 9.037808000000000508e-01 -1.665158380795540016e-01
2.810000000000000142e+01 -2.704299999999999926e+01 1.127999999999999892e+00 2.179565999999999892e+00 -6.009530009118772831e-02
2.810000000000000142e+01 -2.704299999999999926e+01 2.648000000000000131e+00 -4.925343999999999944e+00 -5.798331376659295044e-02
2.810000000000000142e+01 -1.608899999999999864e+01 -8.478699999999999903e+00 -5.943858999999999781e+00 -7.001094187056396134e-02
2.810099999999999909e+01 -2.953200000000000003e+01 -5.453599999999999781e+00 5.803831999999999880e+00 -1.781224372942670220e-01
2.810500000000000043e+01 -7.872099999999999653e+00 -2.368799999999999883e+01 -3.158781000000000105e+01 3.733803164091799992e-02
2.810500000000000043e+01 -7.663000000000000256e+00 -2.442399999999999949e+01 -1.410757000000000083e+01 3.720228061198229547e-02
2.810800000000000054e+01 -1.400300000000000011e+01 4.571399999999999686e+00 2.228276000000000145e+00 -2.457748584638362599e-01
2.810900000000000176e+01 1.713500000000000156e+01 -3.246900000000000119e+01 2.980223000000000155e+01 -1.719889079168735735e-01
2.810999999999999943e+01 -1.740200000000000102e+01 5.120000000000000107e+00 2.973383999999999805e+00 -2.456081263914114410e-01
2.811599999999999966e+01 -1.699200000000000088e+01 5.654899999999999594e+00 1.145506999999999920e+01 -2.456128834395586158e-01
2.811799999999999855e+01 8.268499999999999739e-01 -2.719200000000000017e+01 2.920035000000000025e+01 3.658036819122311573e-02
2.811799999999999855e+01 2.298900000000000166e+00 -2.719200000000000017e+01 8.321218000000000004e+00 3.710330671797991420e-02
2.812199999999999989e+01 6.334100000000000286e+00 -1.646999999999999886e+01 1.184914000000000023e+01 -6.615671539688640357e-02
2.812300000000000111e+01 -1.603399999999999892e+01 -4.203900000000000148e+01 1.837469000000000019e+00 4.011075041534155339e-02
2.812300000000000111e+01 -1.603399999999999892e+01 -4.098899999999999721e+01 9.430094000000000420e+00 4.002658742854799112e-02
2.812500000000000000e+01 -1.305700000000000038e+01 -4.345900000000000318e+01 1.626530999999999949e+00 3.977269720405088305e-02
2.812699999999999889e+01 -7.269700000000000273e+00 -2.184700000000000131e+01 -2.402009999999999934e+01 3.757244220577751065e-02
2.812699999999999889e+01 3.922000000000000153e+00 -4.671300000000000097e+01 1.371072999999999986e+00 3.813340851918706198e-02
2.812800000000000011e+01 -3.390999999999999659e+01 -2.077700000000000102e+00 3.506177000000000099e+00 -1.711239692172158988e-01
2.812999999999999901e+01 -2.709499999999999886e+01 -3.427499999999999991e-01 1.505988999999999933e+01 -6.193402913883924027e-02
2.812999999999999901e+01 -2.482900000000000063e+01 -3.427499999999999991e-01 2.328500000000000014e+01 -6.260701750875287408e-02
2.812999999999999901e+01 -2.482900000000000063e+01 5.224999999999999645e-01 1.837286999999999892e+01 -6.157654967625200010e-02
2.813299999999999912e+01 -1.822400000000000020e+01 -4.696600000000000108e+00 -8.366063999999999723e+00 -6.807299564314511775e-02
2.813400000000000034e+01 1.700499999999999901e+01 -2.264300000000000068e+01 -4.553175000000000239e+01 -1.698436846412471057e-01
2.813899999999999935e+01 1.697299999999999898e+01 -4.119700000000000273e+01 -1.830249000000000015e+00 3.860814314699154148e-02
2.813899999999999935e+01 1.791300000000000026e+01 -4.119700000000000273e+01 -2.521008000000000138e+00 3.875964184064494000e-02
2.813899999999999935e+01 1.791300000000000026e+01 -3.967699999999999960e+01 -1.120786999999999978e+01 3.888988286651356291e-02
2.814099999999999824e+01 5.185399999999999565e+00 -3.525800000000000267e+01 4.600913000000000252e+00 3.662909316021491224e-02
2.814099999999999824e+01 8.064999999999999503e+00 -1.447700000000000031e+01 -1.501793999999999940e+01 -6.480334301047205314e-02
2.814099999999999824e+01 9.358000000000000540e+00 -1.375600000000000023e+01 -1.066493999999999964e+01 -1.690307945639753784e-01
2.814300000000000068e+01 1.254499999999999993e+01 -1.492300000000000004e+01 6.468007000000000062e-01 -1.684791177018716835e-01
2.814399999999999835e+01 3.352899999999999991e+00 -1.609600000000000009e+01 4.675353000000000314e+00 -6.697557862678922558e-02
2.814399999999999835e+01 -1.803500000000000014e+01 4.707099999999999618e+00 4.534997000000000333e-02 -2.455897685125637275e-01
2.814699999999999847e+01 -3.131299999999999883e+01 -5.747300000000000075e+00 1.434676999999999936e+01 -1.773128957943696515e-01
2.814699999999999847e+01 4.806300000000000239e+00 -1.797800000000000153e+01 1.530371000000000059e+01 -6.725056584309381524e-02
2.815099999999999980e+01 -1.779200000000000159e+01 -2.399099999999999788e+00 8.795391999999999655e+00 -6.666982769819423948e-02
2.815299999999999869e+01 -1.471199999999999974e+01 -4.307600000000000051e+01 3.276699999999999946e+00 3.998997404528330940e-02
2.815599999999999881e+01 -1.148600000000000065e+01 -4.354599999999999937e+01 7.326825999999999617e+00 3.955781170096616534e-02
2.815700000000000003e+01 1.412800000000000011e+01 -1.463799999999999990e+01 2.471762999999999977e+01 -1.679167663552929290e-01
2.816300000000000026e+01 -1.415499999999999936e+01 1.196700000000000097e+00 -1.175582999999999956e+01 -2.458758918220666501e-01
2.816600000000000037e+01 2.874299999999999855e+00 -4.214999999999999858e+01 9.050561999999999330e+00 3.771101157284027783e-02
2.816600000000000037e+01 -2.596199999999999974e+01 -1.100999999999999979e+00 3.693531999999999726e+01 -6.313033674331400280e-02
2.816600000000000037e+01 -2.596199999999999974e+01 1.280799999999999939e+00 3.455690999999999846e+00 -6.023522426788816692e-02
2.817299999999999827e+01 1.500999999999999890e+00 -2.069600000000000151e+01 -9.835594000000000392e+00 -6.939340168207522308e-02
2.817399999999999949e+01 -3.295400000000000063e+01 -9.334600000000000009e+00 3.348784000000000205e+00 -1.785994813960157801e-01
2.817899999999999849e+01 -1.135100000000000087e+01 -8.277499999999999858e+00 7.080249000000000237e+00 -1.754520768999941749e-01
2.818100000000000094e+01 -1.276299999999999990e+01 -7.659500000000000419e+00 4.287641999999999953e+00 -6.998101084505327363e-02
2.818799999999999883e+01 3.719899999999999984e+00 -1.915500000000000114e+01 -2.729965999999999937e+01 -6.806570742061672508e-02
2.819000000000000128e+01 -1.985600000000000165e+01 -3.055499999999999972e+01 -7.413498999999999839e+00 -1.770387651490064329e-01
2.819000000000000128e+01 -1.962900000000000134e+01 -2.975600000000000023e+01 -5.821098000000000106e+00 -1.771916019948633347e-01
2.819099999999999895e+01 1.469999999999999929e+01 -1.871300000000000097e+01 1.988954000000000022e+01 -1.692535806994952263e-01
2.819500000000000028e+01 -1.792099999999999937e+01 -5.508099999999999774e+00 -1.729674999999999940e+01 -6.860972245820122495e-02
2.819800000000000040e+01 1.760900000000000176e+01 -3.897699999999999676e+01 -6.681248000000000076e+00 3.890618420714527653e-02
2.819800000000000040e+01 6.926599999999999646e+00 -3.554099999999999682e+01 3.827351000000000170e+00 3.704500180392376885e-02
2.819900000000000162e+01 -5.529899999999999816e-01 -4.801100000000000279e+01 1.831110999999999989e-01 3.867377089601758272e-02
2.819900000000000162e+01 7.399999999999999911e-01 -4.873199999999999932e+01 5.600973999999999675e-01 3.861719504355647092e-02
2.819900000000000162e+01 2.032999999999999918e+00 -4.801100000000000279e+01 8.980119000000000185e+00 3.843153859609316908e-02
2.820299999999999940e+01 -1.849399999999999977e+01 -2.816799999999999926e+01 7.867387999999999604e-01 -1.775417012703094655e-01
2.820499999999999829e+01 4.502900000000000347e+00 -1.867800000000000082e+01 -1.361172999999999966e+01 -6.762671489836152849e-02
2.820599999999999952e+01 1.906899999999999906e+01 -3.703699999999999903e+01 1.425642000000000076e+00 3.933240494724810771e-02
2.820700000000000074e+01 -1.924099999999999966e+01 3.931999999999999940e+00 -9.302300999999999487e-01 -2.455461863761598251e-01
2.821199999999999974e+01 -1.018000000000000016e+00 -2.223799999999999955e+01 -1.085721000000000025e+01 3.772560223248330041e-02
2.821399999999999864e+01 -3.326599999999999824e+01 -6.774700000000000166e+00 2.113309999999999800e+00 -1.770391180061608172e-01
2.821699999999999875e+01 4.564600000000000435e+00 -1.707100000000000151e+01 1.933991999999999933e+01 -6.698291427019709143e-02
2.821900000000000119e+01 -1.984100000000000108e+01 -3.126500000000000057e+01 2.779133999999999771e-01 -1.769205792662801313e-01
2.821900000000000119e+01 -3.327399999999999913e+00 -2.244000000000000128e+01 -1.630123000000000033e+01 3.702153065458770043e-02
2.821999999999999886e+01 -7.743599999999999817e+00 -1.808500000000000085e+01 -9.683014000000000010e+00 -7.164764356536983125e-02
2.822100000000000009e+01 -1.864699999999999847e+01 -2.555999999999999872e+01 1.666257999999999906e-01 -1.780551528039747144e-01
2.822500000000000142e+01 3.933399999999999785e+00 -4.287599999999999767e+01 -1.149044999999999916e+01 3.770884559005335812e-02
2.823999999999999844e+01 5.487000000000000099e+00 -1.646999999999999886e+01 1.218535999999999930e+01 -6.643662240787426287e-02
2.824200000000000088e+01 -1.022899999999999920e+01 -1.697899999999999920e+01 -1.870026999999999973e+01 -7.167169452457532175e-02
2.824299999999999855e+01 -8.770300000000000651e+00 -4.699699999999999989e+01 -4.355752999999999986e-01 3.949659339684497006e-02
2.824599999999999866e+01 -2.751300000000000168e+01 3.528600000000000070e-01 3.240635000000000154e+00 -6.101402095330205055e-02
2.824599999999999866e+01 -1.598399999999999999e+01 -7.292999999999999483e-01 2.394767999999999830e+01 -1.700664354362792507e-01
2.824599999999999866e+01 -1.479299999999999926e+01 -6.531900000000000206e-02 -4.135660999999999810e+00 -2.458902744062613499e-01
2.824899999999999878e+01 5.196399999999999686e+00 -1.716300000000000026e+01 2.156586000000000070e+01 -6.681814923015047536e-02
2.825100000000000122e+01 -2.159100000000000108e+01 3.976700000000000124e+00 3.518270999999999926e+00 -2.453870207300753170e-01
2.825100000000000122e+01 3.577300000000000146e+00 -4.217999999999999972e+01 5.090416000000000274e+00 3.765617127021661514e-02
2.825499999999999901e+01 -1.224300000000000033e+01 -1.334200000000000053e+01 -7.512755000000000294e+00 -7.132146716841605838e-02
2.825600000000000023e+01 9.015000000000000568e+00 -4.260000000000000142e+01 5.276132999999999740e+00 3.728329736276510958e-02
2.825600000000000023e+01 -2.719600000000000151e+01 -1.744500000000000028e+01 3.035985000000000156e+00 -1.789384883142100813e-01
2.825600000000000023e+01 -2.719600000000000151e+01 -1.657999999999999829e+01 2.198224999999999874e+00 -1.791396494490858360e-01
2.825900000000000034e+01 -1.442300000000000004e+01 4.983399999999999608e+00 7.257787999999999462e-01 -2.457591155771721714e-01
2.826000000000000156e+01 4.949900000000000411e+00 -1.609600000000000009e+01 -2.293547999999999831e+01 -6.645225044151426008e-02
2.826099999999999923e+01 1.290199999999999925e+01 -4.350500000000000256e+01 2.929098999999999897e+00 3.775518606118348497e-02
2.826599999999999824e+01 -1.506199999999999939e+01 -3.994899999999999807e+01 1.520138999999999996e+01 3.979022313466430011e-02
2.826699999999999946e+01 3.594399999999999817e+00 -4.050800000000000267e+01 8.416035000000000821e+00 3.744021337481445028e-02
2.826699999999999946e+01 -3.300099999999999767e+01 -8.391999999999999460e+00 2.673268999999999895e+00 -1.784630078760978955e-01
2.826800000000000068e+01 3.846900000000000208e+00 -3.676800000000000068e+01 1.462387999999999977e+01 3.687877392491988038e-02
2.827100000000000080e+01 1.314499999999999957e+01 -3.601599999999999824e+01 2.519000000000000128e+01 3.837835302104038171e-02
2.827100000000000080e+01 1.454499999999999993e+01 -3.601599999999999824e+01 2.053855000000000075e+01 3.865027557597832536e-02
2.827199999999999847e+01 -1.957700000000000173e+01 -3.189799999999999969e+01 6.762380999999999531e-01 -1.768329139939266714e-01
2.827700000000000102e+01 -1.679500000000000171e+01 -7.330199999999999605e+00 -2.739262000000000086e+00 -6.963548511895739646e-02
2.828000000000000114e+01 -2.163200000000000145e+01 -2.293199999999999861e+01 1.155541000000000018e+01 -1.784416385292373897e-01
2.828099999999999881e+01 -3.045499999999999829e+01 -4.844999999999999751e+00 5.059707999999999650e+00 -1.771579320157773973e-01
2.828500000000000014e+01 -1.832000000000000028e+01 -2.627100000000000080e+01 1.961667999999999878e+01 -1.779308352356982481e-01
2.828500000000000014e+01 -9.323100000000000165e+00 -4.658899999999999864e+01 -1.886465000000000058e+00 3.953603526166368093e-02
2.828900000000000148e+01 -1.052699999999999925e+01 -4.335699999999999932e+01 9.314593000000000345e+00 3.941802263475392004e-02
2.829200000000000159e+01 -2.832900000000000063e+01 -1.582199999999999918e+01 -5.117748999999999882e+00 -1.790619309871786524e-01
2.829500000000000171e+01 7.728399999999999714e+00 -3.895900000000000318e+01 9.017547999999999675e+00 3.700804608236029497e-02
2.829799999999999827e+01 1.989900000000000091e+01 -2.251399999999999935e+01 2.528725999999999807e+00 -1.691272161449975386e-01
2.829799999999999827e+01 2.119200000000000017e+01 -2.323499999999999943e+01 -7.619719999999999516e+01 -1.690487240412435199e-01
2.829799999999999827e+01 2.151699999999999946e+01 -2.397200000000000131e+01 -3.387644000000000233e+01 -1.691728367997692439e-01
2.829899999999999949e+01 7.665099999999999802e+00 -1.667099999999999937e+01 -4.368541999999999703e+00 -1.708919170163704648e-01
2.830099999999999838e+01 1.481099999999999994e+01 -1.766300000000000026e+01 -3.371979000000000060e+00 -1.688586862289439827e-01
2.830499999999999972e+01 5.251000000000000334e+00 -5.059700000000000131e+01 -1.369904000000000011e+01 3.840564600141183754e-02
2.830600000000000094e+01 -2.605799999999999983e+01 1.834999999999999964e+00 -8.664927999999999741e+00 -5.947989089351494313e-02
2.830600000000000094e+01 -2.519300000000000139e+01 1.834999999999999964e+00 8.737159000000000120e+00 -5.978283616542663659e-02
2.830699999999999861e+01 -6.680299999999999905e+00 -2.009100000000000108e+01 -4.195522999999999669e+00 3.773766926646185405e-02
2.831200000000000117e+01 -3.232900000000000063e+01 -1.087100000000000044e+01 2.746322999999999848e+00 -1.787247153556326684e-01
2.831200000000000117e+01 -2.947299999999999898e+01 -3.854799999999999893e-01 -1.775209999999999866e+01 -1.717509872124744208e-01
2.831200000000000117e+01 -2.860699999999999932e+01 -3.854799999999999893e-01 -1.937796999999999992e+00 -1.724242745887057116e-01
2.832100000000000151e+01 3.914699999999999847e+00 -4.136999999999999744e+01 5.524863999999999997e+00 3.752775174064647279e-02
2.832199999999999918e+01 1.851300000000000168e+01 -2.730000000000000071e+01 2.478065000000000140e+01 -1.706309645320324420e-01
2.832499999999999929e+01 3.854699999999999793e+00 -3.879099999999999682e+01 2.085931000000000068e+01 3.718301555473727676e-02
2.832700000000000173e+01 1.562899999999999956e+00 -2.719200000000000017e+01 -1.724345000000000017e+00 3.675945370044812061e-02
2.832999999999999829e+01 -1.694200000000000017e+01 -1.669300000000000006e+00 1.454692999999999969e+01 -6.644758433020905852e-02
2.832999999999999829e+01 1.637300000000000111e+01 -2.757199999999999918e+01 3.242846000000000117e+01 -1.712244854276760431e-01
2.833200000000000074e+01 -2.852300000000000058e+00 -4.745700000000000074e+01 6.606914000000000398e-01 3.886455081467676126e-02
2.833299999999999841e+01 -3.042200000000000060e+01 -5.600399999999999601e+00 1.336706000000000039e+01 -1.779757162799410486e-01
2.833399999999999963e+01 5.046000000000000263e+00 -3.582999999999999829e+01 5.603996999999999673e+00 3.663322819410353565e-02
2.833699999999999974e+01 -1.566200000000000081e+01 -3.499199999999999733e+01 9.295841000000000243e-01 3.936830109531848365e-02
2.833899999999999864e+01 6.540799999999999947e+00 -5.147800000000000153e+01 -1.243210000000000015e+01 3.838583234960224466e-02
2.833999999999999986e+01 -9.759999999999999787e+00 -4.536299999999999955e+01 1.255505000000000093e+00 3.949568348248502780e-02
2.833999999999999986e+01 -9.759999999999999787e+00 -4.449699999999999989e+01 3.039327000000000112e+00 3.942076745245073205e-02
2.834299999999999997e+01 1.266099999999999959e+01 -3.936299999999999955e+01 -6.516924000000000383e+00 3.799854817641871996e-02
2.834400000000000119e+01 -1.552900000000000114e-01 -3.346500000000000341e+01 -1.016191000000000066e+01 3.671816752528815619e-02
2.834400000000000119e+01 -1.552900000000000114e-01 -3.206499999999999773e+01 5.585192000000000156e+00 3.645691534226289804e-02
2.834400000000000119e+01 7.099499999999999700e-01 -3.346500000000000341e+01 -2.394090000000000107e-01 3.662667588383301809e-02
2.834400000000000119e+01 7.099499999999999700e-01 -3.206499999999999773e+01 8.350120000000000431e+00 3.636609434892128234e-02
2.834499999999999886e+01 1.109500000000000064e+01 -1.435100000000000087e+01 2.094195000000000029e+00 -1.686821166117240811e-01
2.834799999999999898e+01 7.577600000000000335e+00 -1.535299999999999976e+01 -5.122488999999999848e+00 -6.535483585514799409e-02
2.835099999999999909e+01 -3.221300000000000097e+01 -1.448099999999999943e+00 6.621119000000000199e+00 -1.715409536976361671e-01
2.835300000000000153e+01 1.834299999999999997e+01 -2.298400000000000176e+01 5.955125999999999920e+00 -1.696047186130429929e-01
2.835399999999999920e+01 -2.962199999999999989e+01 -1.500300000000000011e+01 9.395847000000000504e-01 -1.789159472926312722e-01
2.835500000000000043e+01 2.082499999999999929e+01 -2.794600000000000151e+01 9.496245999999999299e+00 -1.702510432566675114e-01
2.835500000000000043e+01 2.227100000000000080e+01 -2.714000000000000057e+01 2.239551000000000069e+00 -1.697742325535055996e-01
2.835500000000000043e+01 2.227100000000000080e+01 -2.535200000000000031e+01 8.198400999999999605e-01 -1.693608970773008149e-01
2.835500000000000043e+01 2.252499999999999858e+01 -2.624599999999999866e+01 2.762078000000000033e-01 -1.695210692333792846e-01
2.835699999999999932e+01 6.496500000000000163e+00 -1.737099999999999866e+01 3.492878999999999845e+00 -6.651385976516399623e-02
2.835699999999999932e+01 7.361699999999999910e+00 -1.737099999999999866e+01 -1.071668000000000021e+01 -1.712812771889721808e-01
2.835800000000000054e+01 -1.886799999999999855e+01 -2.746799999999999997e+01 1.333703000000000038e+01 -1.776744538435487686e-01
2.836100000000000065e+01 -3.304699999999999704e+01 -7.449399999999999800e+00 3.541564000000000156e+00 -1.778682239622633166e-01
2.836299999999999955e+01 3.707599999999999785e+00 -3.792699999999999960e+01 2.051683999999999841e+01 3.707208007908428110e-02
2.836299999999999955e+01 -5.407600000000000406e+00 -2.574699999999999989e+01 2.683875000000000099e+01 3.669316289415388427e-02
2.836499999999999844e+01 -2.636199999999999832e+01 2.535000000000000142e+00 -1.976041999999999987e+01 -5.838158711500272824e-02
2.836499999999999844e+01 -2.489000000000000057e+01 2.535000000000000142e+00 9.679484000000000421e+00 -5.891884928908047714e-02
2.836799999999999855e+01 -1.652199999999999847e+01 -7.778699999999999726e+00 -1.762928000000000051e+00 -6.988894385057645153e-02
2.836799999999999855e+01 -3.011400000000000077e+01 1.018000000000000016e+00 3.177528999999999826e+00 -1.685990649519540363e-01
2.837099999999999866e+01 -2.977599999999999980e+01 3.145200000000000218e-01 -9.269351999999999592e+00 -1.702815447931349258e-01
2.837099999999999866e+01 -2.830399999999999849e+01 3.145200000000000218e-01 5.096251999999999782e+00 -1.714588078127234072e-01
2.837099999999999866e+01 4.152000000000000135e+00 -1.609600000000000009e+01 -6.870180000000000398e+00 -6.673877446813084036e-02
2.837399999999999878e+01 -3.119300000000000139e+01 -4.645599999999999730e-01 -1.616325999999999874e-01 -1.706418898968185549e-01
2.837399999999999878e+01 -1.384800000000000075e+01 -8.487999999999999545e+00 -7.263976000000000433e+00 -7.030221067044004069e-02
2.837699999999999889e+01 1.670200000000000173e+01 -3.176899999999999835e+01 3.367114000000000118e+01 -1.719731107912777501e-01
2.837900000000000134e+01 1.221199999999999974e+01 -5.198799999999999955e+01 -1.197447999999999979e+01 3.805047416834091145e-02
2.838100000000000023e+01 -1.244400000000000084e+01 -1.254499999999999993e+01 -2.276142000000000110e+01 -7.125734842757112941e-02
2.838899999999999935e+01 5.901500000000000412e+00 -1.717000000000000171e+01 1.001478000000000002e+01 -6.662088093371829056e-02
2.839300000000000068e+01 -1.983399999999999963e+01 -2.373799999999999955e+01 -7.404341999999999757e+00 -1.784080923110073769e-01
2.839300000000000068e+01 -1.950900000000000034e+01 -2.447500000000000142e+01 5.387913999999999898e-02 -1.782642157792836413e-01
2.839399999999999835e+01 -4.119100000000000428e+00 -2.498400000000000176e+01 -1.646292000000000044e+01 3.666636449519496133e-02
2.839399999999999835e+01 -3.910000000000000142e+00 -2.424800000000000111e+01 -1.217045000000000066e+01 3.673837941839029619e-02
2.839600000000000080e+01 1.255799999999999983e+01 -3.842099999999999937e+01 -3.425641999999999854e+01 3.805581748181844498e-02
2.839699999999999847e+01 1.244699999999999918e+01 -3.762400000000000233e+01 -6.963447999999999638e+00 3.810048765230213824e-02
2.839799999999999969e+01 -1.810900000000000176e+01 -3.391799999999999926e+01 1.345992000000000077e+00 -1.765862056344121300e-01
2.839799999999999969e+01 -1.147300000000000075e+01 -5.361500000000000377e+00 6.546851999999999805e+01 -1.732072613153181895e-01
2.839900000000000091e+01 5.251000000000000334e+00 -5.324000000000000199e+01 -2.283701999999999899e+00 3.863255211321388327e-02
2.840200000000000102e+01 -4.586899999999999866e-01 -3.276500000000000057e+01 -7.080210000000000115e+00 3.662615069426376768e-02
2.840200000000000102e+01 1.013400000000000079e+00 -3.276500000000000057e+01 7.891048999999999758e+00 3.647071293145866949e-02
2.840399999999999991e+01 -1.538899999999999935e+01 -8.537000000000000810e+00 -2.894530000000000047e+00 -7.025532407489407105e-02
2.840399999999999991e+01 3.394899999999999807e+00 -3.965599999999999881e+01 3.009795000000000087e+01 3.734989593144839165e-02
2.840399999999999991e+01 -1.782000000000000028e+01 -2.787000000000000099e+01 2.950731000000000037e+01 -1.776464834324313069e-01
2.840399999999999991e+01 -1.695400000000000063e+01 -2.787000000000000099e+01 3.063944000000000045e+01 -1.776762105383194179e-01
2.840399999999999991e+01 -1.695400000000000063e+01 -2.646999999999999886e+01 2.729601999999999862e+01 -1.779525490702514312e-01
2.840500000000000114e+01 -6.897199999999999775e+00 -2.562099999999999866e+01 1.904874999999999829e+01 3.681318475751064329e-02
2.840700000000000003e+01 1.745700000000000074e+01 -2.301800000000000068e+01 -1.979778999999999911e+01 -1.698262940853693670e-01
2.840800000000000125e+01 5.618000000000000327e+00 -3.595799999999999841e+01 4.150839000000000389e+00 3.670264366059321215e-02
2.841000000000000014e+01 -1.378700000000000081e+01 -4.338900000000000290e+01 1.528755000000000086e+00 3.990129734510340642e-02
2.841000000000000014e+01 7.731700000000000017e+00 -1.617800000000000082e+01 -3.516675999999999913e+00 -1.706688574847097795e-01
2.841600000000000037e+01 5.488999999999999879e+00 -4.554800000000000182e+01 7.429399000000000086e+00 3.789512315905876200e-02
2.841600000000000037e+01 -3.466799999999999926e+01 -4.108999999999999986e+00 1.015465000000000062e+00 -1.736267248147148889e-01
2.841600000000000037e+01 -3.445900000000000318e+01 -4.844999999999999751e+00 8.816216999999999526e-01 -1.746095479953158613e-01
2.841600000000000037e+01 -3.423199999999999932e+01 -5.644099999999999895e+00 -3.525608000000000075e+00 -1.755918609353938342e-01
2.842500000000000071e+01 -2.099299999999999855e+01 -2.295899999999999963e+01 4.090569999999999595e+00 -1.785095708623790633e-01
2.843299999999999983e+01 1.789199999999999946e+01 -3.251500000000000057e+01 2.342113000000000156e+01 -1.718127584728157131e-01
2.843299999999999983e+01 7.684300000000000352e+00 -3.839099999999999824e+01 6.454056999999999711e+00 3.703787961331013456e-02
2.843299999999999983e+01 7.684300000000000352e+00 -3.752600000000000335e+01 7.438214999999999577e+00 3.709370097774362940e-02
2.843799999999999883e+01 -1.272700000000000031e+01 -6.200999999999999623e+00 1.861958999999999875e+01 -1.748145098354392801e-01
2.843799999999999883e+01 -1.021899999999999942e+01 -7.158999999999999808e+00 4.439408000000000243e+01 -1.741189869600077433e-01
2.843799999999999883e+01 -1.021899999999999942e+01 -6.200999999999999623e+00 1.868233999999999995e+01 -6.815968420059112520e-02
2.843799999999999883e+01 4.021300000000000097e+00 -5.241700000000000159e+01 -5.511559999999999793e-01 3.866469077479060129e-02
2.843799999999999883e+01 4.021300000000000097e+00 -5.147699999999999676e+01 1.195248000000000005e-01 3.858677548606502528e-02
2.843799999999999883e+01 6.480699999999999683e+00 -5.241700000000000159e+01 -1.205799999999999983e+01 3.847468071486347813e-02
2.843900000000000006e+01 -1.925300000000000011e+01 -2.813500000000000156e+01 4.808107999999999826e+00 -1.775337493720243187e-01
2.844900000000000162e+01 -5.581100000000000172e+00 -4.830199999999999960e+01 -2.343565999999999860e+01 3.924296074090150022e-02
2.845200000000000173e+01 4.464199999999999946e+00 -4.328399999999999892e+01 -5.677308000000000021e+00 3.772419537843398757e-02
2.845299999999999940e+01 5.773699999999999832e+00 -4.635399999999999920e+01 1.204021999999999970e+01 3.796058880965270249e-02
2.845700000000000074e+01 -2.001300000000000168e+01 3.990600000000000147e+00 -7.425110000000000321e-01 -2.455168241754492331e-01
2.845799999999999841e+01 1.583799999999999919e+01 -2.050300000000000011e+01 2.224581999999999837e+01 -1.695105653044611804e-01
2.845799999999999841e+01 -1.431199999999999939e+01 -3.586200000000000188e+01 1.083499999999999908e+00 3.923589153870911395e-02
2.846300000000000097e+01 -1.665099999999999980e+01 -2.717000000000000171e+01 3.731732999999999834e+01 -1.778272894311881125e-01
2.846300000000000097e+01 -1.748900000000000077e+01 -6.208099999999999952e+00 -1.509729000000000099e+00 -6.918914851106149067e-02
2.846399999999999864e+01 1.546799999999999997e+01 -3.768500000000000227e+01 6.828406000000000198e+00 3.866982551669628093e-02
