1.334299999999999997e+01 4.082099999999999795e+01 3.293800000000000239e+01 -1.116446999999999967e+01 -1.182856123921423368e-04
1.334299999999999997e+01 4.082099999999999795e+01 3.387800000000000011e+01 -1.390816000000000052e+01 -1.485915019306294389e-04
1.334800000000000075e+01 3.135099999999999909e+01 1.754599999999999937e+01 -7.062674999999999592e+00 -2.641070629507637491e-01
1.336599999999999966e+01 3.059100000000000108e+01 9.198900000000000077e+00 2.602258000000000071e-01 -1.725544828434508182e-01
1.337199999999999989e+01 4.729899999999999949e+01 1.772700000000000031e+01 -9.249230000000000729e+00 -2.634533082556128059e-01
1.337400000000000055e+01 4.309199999999999875e+01 3.000000000000000000e+01 -5.215811000000000419e+00 1.160113559891320098e-03
1.337400000000000055e+01 4.331900000000000261e+01 2.920100000000000051e+01 -1.110764999999999958e+01 1.313346288127045184e-03
1.337400000000000055e+01 4.331900000000000261e+01 3.079899999999999949e+01 -1.034393999999999991e+01 1.242576240832272321e-03
1.337400000000000055e+01 4.352799999999999869e+01 2.846499999999999986e+01 -8.700439000000000089e-02 1.454045875714706859e-03
1.337400000000000055e+01 4.461200000000000188e+01 3.151999999999999957e+01 -2.962227000000000032e+01 1.876354670756143553e-03
1.337599999999999945e+01 2.914000000000000057e+01 1.647899999999999920e+01 -1.217100999999999988e+00 -2.635034888310875956e-01
1.338400000000000034e+01 2.877299999999999969e+01 9.209899999999999309e+00 2.750871999999999762e-01 -1.720185580158888894e-01
1.339199999999999946e+01 2.569500000000000028e+01 3.082999999999999829e+01 -3.859794000000000125e+01 9.644895193289133514e-03
1.339899999999999913e+01 2.600700000000000145e+01 3.654999999999999716e+01 -1.273975000000000080e+01 5.743383218247192362e-03
1.340099999999999980e+01 3.240999999999999659e+01 4.002499999999999858e+01 6.238294999999999924e+00 -9.168600565842633440e-04
1.340099999999999980e+01 4.667199999999999704e+01 2.987300000000000111e+01 5.784359000000000250e+00 3.021398196827224450e-03
1.340700000000000003e+01 3.103000000000000114e+01 3.915299999999999869e+01 5.791979999999999684e+00 6.254326707094920532e-04
1.342099999999999937e+01 2.444200000000000017e+01 2.073300000000000054e+01 -3.848958999999999797e+00 -2.633802121538538765e-01
1.342399999999999949e+01 2.660600000000000165e+01 1.691700000000000159e+01 -3.405613999999999919e+00 -2.631406777198061486e-01
1.342900000000000027e+01 3.909899999999999665e+01 1.767599999999999838e+01 3.487361999999999962e-01 -2.648963728788992222e-01
1.344400000000000084e+01 4.741599999999999682e+01 2.024099999999999966e+01 -3.947793000000000063e+01 -2.635079650592896394e-01
1.344400000000000084e+01 4.741599999999999682e+01 2.110600000000000165e+01 3.066532000000000036e+00 -2.635274262314888372e-01
1.344899999999999984e+01 3.944700000000000273e+01 2.749599999999999866e+01 2.234652000000000172e+01 7.610403293391561439e-04
1.344899999999999984e+01 3.965599999999999881e+01 2.676000000000000156e+01 3.514158999999999811e+00 1.244107385369289370e-03
1.344899999999999984e+01 4.084700000000000131e+01 2.609600000000000009e+01 -5.179911999999999850e+00 1.425723655667116788e-03
1.345299999999999940e+01 4.605400000000000205e+01 1.715800000000000125e+01 4.320923999999999765e+00 6.161739090392270336e-03
1.345700000000000074e+01 2.557499999999999929e+01 1.997400000000000020e+01 -5.637471999999999817e+00 -2.634937821082664611e-01
1.346000000000000085e+01 3.053200000000000003e+01 1.730699999999999861e+01 -2.765460000000000029e+00 -2.639049609345686109e-01
1.347400000000000020e+01 2.319800000000000040e+01 2.390099999999999980e+01 -1.904914000000000129e+01 -2.635107086135812238e-01
1.348300000000000054e+01 3.717900000000000205e+01 1.729500000000000171e+01 2.587873999999999786e+00 -2.646912359001557524e-01
1.348799999999999955e+01 4.324499999999999744e+01 1.612900000000000134e+01 -4.086191000000000129e-01 -2.644693868793679403e-01
1.349200000000000088e+01 2.745599999999999952e+01 3.938499999999999801e+01 -3.174348000000000170e+00 3.092554400647261857e-03
1.350300000000000011e+01 2.553200000000000003e+01 3.004899999999999949e+01 -3.209799000000000291e+01 1.019993827190247837e-02
1.350799999999999912e+01 3.449499999999999744e+01 3.961500000000000199e+01 1.073611000000000004e+01 -2.392999823659360589e-03
1.351999999999999957e+01 4.312199999999999989e+01 2.368599999999999994e+01 -6.657315999999999789e-01 2.588375425048701928e-03
1.351999999999999957e+01 3.633299999999999841e+01 3.339500000000000313e+01 -1.730820999999999898e+01 -5.857699474800997846e-04
1.352399999999999913e+01 4.436500000000000199e+01 2.582700000000000173e+01 1.807228999999999886e+01 1.990259656969514245e-03
1.352599999999999980e+01 2.356899999999999906e+01 2.319999999999999929e+01 -8.737374000000000862e+00 -2.635084761958792487e-01
1.353500000000000014e+01 2.599699999999999989e+01 3.729299999999999926e+01 -8.079831000000000429e+00 5.265376472815708024e-03
1.353500000000000014e+01 2.599699999999999989e+01 3.834300000000000352e+01 -2.737445000000000128e+00 4.639936556401507220e-03
1.353999999999999915e+01 2.620499999999999829e+01 3.506300000000000239e+01 -2.899951000000000079e+01 6.516557042917198520e-03
1.354499999999999993e+01 4.496699999999999875e+01 1.628000000000000114e+01 1.236564999999999914e+00 6.953371038601325119e-03
1.355599999999999916e+01 4.425399999999999778e+01 2.444399999999999906e+01 1.507665000000000077e+01 1.971312793710505544e-03
1.355599999999999916e+01 4.403799999999999670e+01 2.660200000000000031e+01 6.203199999999999825e+00 1.793932522270888247e-03
1.358200000000000074e+01 2.829299999999999926e+01 7.249699999999999811e+00 1.304850000000000065e+00 -1.703397613386508080e-01
1.358200000000000074e+01 2.829299999999999926e+01 8.300300000000000011e+00 1.059325999999999990e+00 -1.711679382535090388e-01
1.358200000000000074e+01 3.104299999999999926e+01 7.249699999999999811e+00 5.291242999999999919e-01 -1.711177945549703372e-01
1.358200000000000074e+01 3.104299999999999926e+01 8.300300000000000011e+00 4.637349999999999639e+00 -1.719666081875683150e-01
1.358300000000000018e+01 4.683800000000000097e+01 2.938500000000000156e+01 1.763524999999999920e+01 3.115541643641998090e-03
1.358500000000000085e+01 2.146099999999999852e+01 2.389999999999999858e+01 -1.275342000000000020e+01 -2.631139265396865712e-01
1.358500000000000085e+01 2.146099999999999852e+01 2.542000000000000171e+01 -5.010911000000000115e+01 -2.632564153911559623e-01
1.358500000000000085e+01 2.240099999999999980e+01 2.389999999999999858e+01 -2.025572999999999979e+01 -2.633211011539695057e-01
1.358500000000000085e+01 2.240099999999999980e+01 2.542000000000000171e+01 -7.848031000000000290e+01 -2.634665535025513261e-01
1.358900000000000041e+01 3.979299999999999926e+01 2.927700000000000102e+01 4.014990000000000059e+00 -4.772431075310532597e-04
1.358900000000000041e+01 4.000200000000000244e+01 3.001300000000000168e+01 7.751206999999999958e+00 -3.982392777766299787e-04
1.359900000000000020e+01 2.655099999999999838e+01 3.181800000000000139e+01 -3.696415999999999968e+01 8.383679666780927131e-03
1.359900000000000020e+01 2.676000000000000156e+01 3.255400000000000205e+01 -5.233082999999999885e+01 7.766524571964789243e-03
1.360200000000000031e+01 2.364900000000000091e+01 2.628000000000000114e+01 -3.998266999999999882e+01 -2.638158166217330902e-01
1.361100000000000065e+01 3.384700000000000131e+01 3.506700000000000017e+01 4.438603999999999772e+00 6.522235774840629084e-04
1.361100000000000065e+01 2.407999999999999829e+01 2.814699999999999847e+01 -3.055124999999999957e+01 1.211700749010264158e-02
1.361100000000000065e+01 4.024799999999999756e+01 3.114499999999999957e+01 4.782701999999999742e+01 -3.108417482775432407e-04
1.361299999999999955e+01 4.191599999999999682e+01 1.718400000000000105e+01 -1.691936000000000107e+00 -2.647499905320889191e-01
1.361599999999999966e+01 4.814200000000000301e+01 2.273799999999999955e+01 1.371759999999999913e+01 3.937538199436230527e-03
1.362599999999999945e+01 2.966799999999999926e+01 6.328899999999999970e+00 9.670855000000000423e-01 -1.700063691634488561e-01
1.362599999999999945e+01 2.966799999999999926e+01 9.221099999999999852e+00 -5.385124000000000022e-01 -1.723093435071585966e-01
1.362800000000000011e+01 2.403099999999999881e+01 2.107600000000000051e+01 -1.437786999999999926e+00 -2.633204863468338597e-01
1.363299999999999912e+01 3.883100000000000307e+01 3.463799999999999812e+01 -7.119043999999999706e+00 -1.067517941323342223e-03
1.363299999999999912e+01 4.035099999999999909e+01 3.463799999999999812e+01 -3.262944000000000244e+01 -3.618861303634925272e-04
1.363400000000000034e+01 4.045000000000000284e+01 3.211800000000000210e+01 6.660978000000000065e+00 -2.400264530518905813e-04
1.364100000000000001e+01 2.850300000000000011e+01 1.665800000000000125e+01 -1.519279000000000046e+00 -2.634004512600284231e-01
1.364799999999999969e+01 2.113200000000000145e+01 2.466000000000000014e+01 -2.139233000000000118e+01 -2.631101273124332174e-01
1.364799999999999969e+01 2.841400000000000148e+01 3.934400000000000119e+01 -5.517589000000000254e+01 2.444312917269670510e-03
1.364899999999999913e+01 4.078300000000000125e+01 1.794200000000000017e+01 -1.089660000000000073e+00 -2.649369916113218926e-01
1.365099999999999980e+01 4.117499999999999716e+01 2.470100000000000051e+01 -3.512294999999999945e+00 2.350735943952935413e-03
1.365099999999999980e+01 4.117499999999999716e+01 2.556599999999999895e+01 -3.957152999999999921e+00 1.722800189974492326e-03
1.365300000000000047e+01 4.785699999999999932e+01 2.193199999999999861e+01 1.087734000000000023e+01 3.794407775614345828e-03
1.366099999999999959e+01 3.471699999999999875e+01 1.531199999999999939e+01 -1.234539000000000053e+00 -2.639436419383575649e-01
1.366099999999999959e+01 3.576700000000000301e+01 1.531199999999999939e+01 -1.040901999999999994e+00 -2.640403967619491254e-01
1.366200000000000081e+01 4.776899999999999835e+01 1.848699999999999832e+01 -3.799360000000000070e+01 -2.632414399046189568e-01
1.366200000000000081e+01 4.776899999999999835e+01 1.942699999999999960e+01 -5.949981999999999971e+01 -2.632832910063415133e-01
1.368299999999999983e+01 2.393400000000000105e+01 2.390099999999999980e+01 -1.614624999999999844e+01 -2.636488062590555681e-01
1.368299999999999983e+01 3.299499999999999744e+01 1.803900000000000148e+01 -1.611036000000000001e+01 -2.643942076220957005e-01
1.369100000000000072e+01 3.967000000000000171e+01 2.826000000000000156e+01 3.594303000000000026e+00 1.667897356969889303e-04
1.369200000000000017e+01 4.231199999999999761e+01 1.632600000000000051e+01 -1.784904999999999964e+00 -2.645078092095644595e-01
1.369299999999999962e+01 2.366700000000000159e+01 2.201899999999999835e+01 3.566464999999999996e+00 -2.633646348164778717e-01
1.370199999999999996e+01 4.785000000000000142e+01 2.634400000000000119e+01 4.266106999999999871e+00 3.730057349768039349e-03
1.370199999999999996e+01 2.314900000000000091e+01 2.524099999999999966e+01 -5.146011000000000024e+01 -2.636045456195760250e-01
1.372000000000000064e+01 3.992699999999999960e+01 1.763500000000000156e+01 -6.016631000000000062e-01 -2.648378426453380508e-01
1.372400000000000020e+01 2.514199999999999946e+01 2.067399999999999949e+01 -9.497358000000000189e+00 -2.634823369116759406e-01
1.373199999999999932e+01 3.434799999999999898e+01 1.616199999999999903e+01 -1.846183999999999881e-01 -2.641070558653202394e-01
1.373199999999999932e+01 3.613600000000000279e+01 1.616199999999999903e+01 2.604408000000000101e+01 -2.642762179828943570e-01
1.373600000000000065e+01 2.645599999999999952e+01 3.404800000000000182e+01 -3.152370000000000161e+01 6.947878427291944228e-03
1.373600000000000065e+01 2.666499999999999915e+01 3.331199999999999761e+01 -3.213575000000000159e+01 7.287551189350260916e-03
1.374099999999999966e+01 2.363100000000000023e+01 2.460099999999999909e+01 -3.884960999999999842e+01 -2.636467856607318527e-01
1.374399999999999977e+01 3.013899999999999935e+01 3.889699999999999847e+01 -9.191178000000000736e+00 1.441321393095864418e-03
1.375300000000000011e+01 2.274699999999999989e+01 2.463100000000000023e+01 -7.636941000000000201e+01 -2.634527873421614874e-01
1.375399999999999956e+01 4.396099999999999852e+01 2.780099999999999838e+01 6.100787000000000404e+00 1.709620105736637781e-03
1.375900000000000034e+01 3.421500000000000341e+01 1.710699999999999932e+01 -5.525244999999999740e-01 -2.643160147973293017e-01
1.376299999999999990e+01 2.511700000000000088e+01 2.921099999999999852e+01 -1.994610000000000127e+01 1.084000851660102231e-02
1.376500000000000057e+01 4.485000000000000142e+01 2.596000000000000085e+01 4.595485999999999649e+01 2.230366084212155164e-03
1.376600000000000001e+01 4.658700000000000330e+01 1.758899999999999864e+01 -1.039648000000000039e+01 -2.636990139131710209e-01
1.376800000000000068e+01 3.466599999999999682e+01 3.356300000000000239e+01 -5.891840000000000188e+00 8.525495470410107690e-04
1.376900000000000013e+01 4.860699999999999932e+01 2.441400000000000148e+01 -1.309393999999999947e+00 4.126183227581065385e-03
1.377899999999999991e+01 4.738499999999999801e+01 2.749099999999999966e+01 7.702388000000000012e+00 3.453415194968390001e-03
1.378999999999999915e+01 3.643900000000000006e+01 1.686199999999999832e+01 1.030411999999999928e+01 -2.644634718384845096e-01
1.380400000000000027e+01 3.458800000000000097e+01 3.645900000000000318e+01 1.168485000000000085e+01 -7.907183988277619816e-04
1.380599999999999916e+01 4.453699999999999903e+01 2.517899999999999849e+01 4.713058000000000192e+01 2.092158452064810277e-03
1.381400000000000006e+01 4.721200000000000330e+01 2.851999999999999957e+01 -1.294850000000000056e+00 3.321410084705062743e-03
1.382300000000000040e+01 4.242199999999999704e+01 2.374399999999999977e+01 -7.331629000000000396e+00 2.701755096359872033e-03
1.382300000000000040e+01 4.382200000000000273e+01 2.374399999999999977e+01 2.926683999999999841e+00 2.333803581845976961e-03
1.383399999999999963e+01 3.574600000000000222e+01 1.697700000000000031e+01 9.294052000000000646e+00 -2.644246376804076371e-01
1.384399999999999942e+01 4.385199999999999676e+01 3.123000000000000043e+01 -1.251010999999999918e+01 1.505866317803212801e-03
1.384399999999999942e+01 4.537199999999999989e+01 3.123000000000000043e+01 -1.721876999999999924e+01 2.267723668047747030e-03
1.385299999999999976e+01 3.158899999999999864e+01 3.964300000000000068e+01 1.546231000000000044e+01 -5.072071550066735641e-05
1.386800000000000033e+01 3.808200000000000074e+01 1.756800000000000139e+01 5.989818999999999782e+00 -2.647240831827901708e-01
1.386800000000000033e+01 2.382900000000000063e+01 2.270200000000000173e+01 -5.428547000000000011e+00 -2.634653106840889603e-01
1.386800000000000033e+01 2.415399999999999991e+01 2.343900000000000006e+01 -6.033290000000000042e+00 -2.636220396683218170e-01
1.387500000000000000e+01 2.193100000000000094e+01 2.466000000000000014e+01 -1.839361999999999853e+01 -2.632633340230085550e-01
1.388100000000000023e+01 4.014699999999999847e+01 2.636299999999999955e+01 -1.042027000000000037e+01 1.401789897066718941e-03
1.388400000000000034e+01 3.365599999999999881e+01 4.003000000000000114e+01 1.075533000000000072e+01 -1.854430075911217210e-03
1.389000000000000057e+01 2.640399999999999991e+01 3.611699999999999733e+01 -1.511772999999999989e+01 5.645986503804416128e-03
1.389000000000000057e+01 2.640399999999999991e+01 3.698299999999999699e+01 -4.384832000000000285e+00 5.122744977523115660e-03
1.389400000000000013e+01 2.584600000000000009e+01 1.814699999999999847e+01 -4.630351000000000106e+00 -2.631824260742617883e-01
1.389400000000000013e+01 2.595700000000000074e+01 1.894500000000000028e+01 -5.095136000000000109e+00 -2.633441683793438237e-01
1.389400000000000013e+01 2.607300000000000040e+01 1.734799999999999898e+01 -2.362054999999999794e+00 -2.630780065421447489e-01
1.389400000000000013e+01 2.736599999999999966e+01 1.662699999999999889e+01 -2.585338000000000136e+00 -2.631686333011564183e-01
1.390000000000000036e+01 4.417000000000000171e+01 1.609299999999999997e+01 -1.107493999999999978e+00 7.148936496682424188e-03
1.390600000000000058e+01 4.475099999999999767e+01 2.667599999999999838e+01 8.969357999999999498e-01 2.152437491338944457e-03
1.391799999999999926e+01 4.160699999999999932e+01 2.400100000000000122e+01 -1.726540999999999926e+01 2.718313694089278219e-03
1.393699999999999939e+01 4.376899999999999835e+01 2.870299999999999940e+01 -1.016846999999999923e+01 1.576623638883750027e-03
1.395299999999999940e+01 3.703300000000000125e+01 3.366199999999999903e+01 -1.251019999999999932e+01 -1.349719056448825958e-03
1.395299999999999940e+01 4.854599999999999937e+01 2.391700000000000159e+01 -1.171817000000000109e+00 4.075328226280393318e-03
1.395700000000000074e+01 4.443500000000000227e+01 2.743700000000000117e+01 6.377627000000000157e-01 1.963923854808669392e-03
1.395800000000000018e+01 3.508599999999999852e+01 3.907699999999999818e+01 1.438280999999999921e+01 -2.523129746292222288e-03
1.398600000000000065e+01 3.524199999999999733e+01 1.616199999999999903e+01 2.063582999999999945e+00 -2.641500370148692212e-01
1.398700000000000010e+01 3.229500000000000171e+01 1.798000000000000043e+01 -9.013681999999999306e+00 -2.642263665634421166e-01
1.398700000000000010e+01 3.369500000000000028e+01 1.798000000000000043e+01 -1.364625999999999895e+00 -2.644095029282241827e-01
1.398799999999999955e+01 4.552400000000000091e+01 1.704899999999999949e+01 1.368270000000000053e+01 6.213847129751809764e-03
1.400999999999999979e+01 2.955900000000000105e+01 1.698900000000000077e+01 -8.052082000000000406e+00 -2.635968247243601903e-01
1.401200000000000045e+01 3.117800000000000082e+01 1.808200000000000074e+01 -3.871598000000000095e+00 -2.640802476870574012e-01
1.401699999999999946e+01 2.396600000000000108e+01 2.568700000000000117e+01 -2.126741000000000170e+01 -2.637830937358636718e-01
1.402800000000000047e+01 2.376800000000000068e+01 2.506200000000000117e+01 -1.552552999999999983e+01 -2.636838318240399270e-01
1.404599999999999937e+01 4.121600000000000108e+01 1.745100000000000051e+01 -2.235812999999999828e+00 -2.647247382104234714e-01
1.405199999999999960e+01 3.537400000000000233e+01 3.819299999999999784e+01 5.857942000000000426e+00 -2.337533017417295616e-03
1.406000000000000050e+01 2.684700000000000131e+01 3.866799999999999926e+01 -3.825937000000000143e+00 3.831811592085851339e-03
1.406199999999999939e+01 4.834199999999999875e+01 2.539399999999999835e+01 4.501641000000000226e+00 3.942180225190940537e-03
1.406400000000000006e+01 4.583500000000000085e+01 1.785699999999999932e+01 1.643301999999999907e+01 5.632731419390172960e-03
1.406700000000000017e+01 3.824099999999999966e+01 3.430100000000000193e+01 -3.751958999999999822e+00 -1.253720088546701923e-03
1.407099999999999973e+01 3.536599999999999966e+01 3.350500000000000256e+01 -6.679702999999999946e+00 2.667774959992817913e-04
1.408099999999999952e+01 2.461299999999999955e+01 2.857799999999999940e+01 -6.892732999999999777e+01 1.133178565987011908e-02
1.408600000000000030e+01 4.682200000000000273e+01 2.040399999999999991e+01 -2.271868999999999872e+01 -2.636777672067996958e-01
1.410100000000000087e+01 3.481300000000000239e+01 1.747400000000000020e+01 3.160276000000000085e+00 -2.643975729048557155e-01
1.410200000000000031e+01 3.531300000000000239e+01 1.767699999999999960e+01 5.254362999999999673e+00 -2.644934550256140549e-01
1.410200000000000031e+01 3.617799999999999727e+01 1.767699999999999960e+01 6.948471999999999760e+00 -2.645704056037415097e-01
1.410299999999999976e+01 3.959100000000000108e+01 3.492799999999999727e+01 -1.716547999999999874e+01 -6.577862747807522361e-04
1.410299999999999976e+01 4.088400000000000034e+01 3.260900000000000176e+01 -1.321481999999999957e+01 6.112450547570767007e-06
1.410299999999999976e+01 4.088400000000000034e+01 3.420700000000000074e+01 -5.529648000000000252e+01 -4.507905756536346629e-05
1.410299999999999976e+01 4.111099999999999710e+01 3.340800000000000125e+01 -1.523165000000000013e+01 8.750869428062714656e-05
1.410699999999999932e+01 2.914300000000000068e+01 6.924999999999999822e+00 9.318499999999999561e-01 -1.704031445287630953e-01
1.410699999999999932e+01 2.914300000000000068e+01 8.625000000000000000e+00 2.711164999999999825e+00 -1.717175359834270942e-01
1.410699999999999932e+01 3.019300000000000139e+01 6.924999999999999822e+00 2.776064999999999783e-01 -1.706904921164207889e-01
1.410699999999999932e+01 3.019300000000000139e+01 8.625000000000000000e+00 -9.530214999999999659e-01 -1.720169960346865090e-01
1.411800000000000033e+01 2.917399999999999949e+01 3.905400000000000205e+01 -4.567363999999999891e+01 2.040561487702986700e-03
1.412199999999999989e+01 4.567199999999999704e+01 2.617999999999999972e+01 1.136173999999999928e+01 2.621454813534372739e-03
1.413000000000000078e+01 4.715800000000000125e+01 2.675799999999999912e+01 1.263776000000000010e+01 3.331555174045513178e-03
1.413100000000000023e+01 2.647800000000000153e+01 3.781799999999999784e+01 -5.001830000000000442e-01 4.541200660879989200e-03
1.413199999999999967e+01 4.700900000000000034e+01 1.819699999999999918e+01 -1.489607999999999954e+01 -2.634936861930518015e-01
1.413400000000000034e+01 4.338199999999999790e+01 2.953000000000000114e+01 -7.129946999999999591e+00 1.350967739357362453e-03
1.413400000000000034e+01 4.338199999999999790e+01 3.046999999999999886e+01 -2.167069000000000045e+01 1.311177353515912466e-03
1.413400000000000034e+01 4.584199999999999875e+01 3.046999999999999886e+01 -2.818216999999999928e+01 2.527925650631139987e-03
1.414400000000000013e+01 4.712500000000000000e+01 1.970400000000000063e+01 -4.376391000000000275e+01 -2.635109489226886703e-01
1.414400000000000013e+01 4.712500000000000000e+01 2.110399999999999920e+01 2.677507999999999999e+00 -2.635470110023078183e-01
1.414899999999999913e+01 3.971500000000000341e+01 2.706299999999999883e+01 2.616317000000000004e+00 1.012491245105498960e-03
1.414899999999999913e+01 3.971500000000000341e+01 2.792899999999999849e+01 1.455162999999999940e+01 4.109316311929695409e-04
1.415700000000000003e+01 2.563299999999999912e+01 2.027799999999999869e+01 -4.536751999999999896e+00 -2.634671671288414951e-01
1.415700000000000003e+01 2.584199999999999875e+01 1.954200000000000159e+01 -5.961871000000000365e+00 -2.633908824752665412e-01
1.415700000000000003e+01 2.455199999999999960e+01 2.101099999999999923e+01 -2.586751000000000023e+00 -2.633593142585309854e-01
1.416399999999999970e+01 4.280899999999999750e+01 1.592699999999999960e+01 -3.773517000000000010e+00 -2.642979566449467632e-01
1.417300000000000004e+01 4.461200000000000188e+01 3.129299999999999926e+01 -2.895719000000000065e+01 1.881183086528006145e-03
1.417399999999999949e+01 2.433099999999999952e+01 2.433399999999999963e+01 -1.221030000000000015e+01 -2.637160147258443277e-01
1.417800000000000082e+01 2.877400000000000091e+01 7.775000000000000355e+00 2.294252000000000180e+00 -1.709638696865781182e-01
1.417800000000000082e+01 3.056200000000000117e+01 7.775000000000000355e+00 2.358965000000000090e-01 -1.714615904788961420e-01
1.417900000000000027e+01 2.765500000000000114e+01 3.915200000000000102e+01 -1.029733000000000054e+01 3.021555496184414290e-03
1.417999999999999972e+01 4.536899999999999977e+01 2.548000000000000043e+01 2.153848999999999947e+01 2.488125184336878112e-03
1.419500000000000028e+01 4.733800000000000097e+01 1.895700000000000074e+01 -6.072384999999999877e+01 -2.633786904487901981e-01
1.420299999999999940e+01 4.157900000000000063e+01 1.675000000000000000e+01 -1.877637999999999918e+00 -2.645180782348965365e-01
1.422300000000000075e+01 4.031499999999999773e+01 3.171699999999999875e+01 1.749978000000000122e+01 -2.224650900403402336e-04
1.423900000000000077e+01 3.445300000000000296e+01 3.984300000000000352e+01 1.965191000000000088e+01 -2.346004979921396255e-03
1.423900000000000077e+01 4.044700000000000273e+01 1.750900000000000034e+01 -1.308025999999999911e+00 -2.646935791691855111e-01
1.424000000000000021e+01 2.626399999999999935e+01 3.125700000000000145e+01 -2.887224000000000146e+01 8.670622470615512931e-03
1.424000000000000021e+01 2.647299999999999898e+01 3.463100000000000023e+01 -2.349891999999999825e+01 6.427186490392376543e-03
1.425500000000000078e+01 4.099499999999999744e+01 2.609100000000000108e+01 -9.249530999999999281e+00 1.377241706924419579e-03
1.425600000000000023e+01 4.312199999999999989e+01 2.347700000000000031e+01 -1.767781999999999965e+00 2.665105304840342283e-03
1.425600000000000023e+01 3.633299999999999841e+01 3.360399999999999920e+01 -1.265479999999999983e+01 -6.473407324235739852e-04
1.425999999999999979e+01 4.534000000000000341e+01 2.701300000000000168e+01 7.065820000000000434e+00 2.422883173302334096e-03
1.425999999999999979e+01 3.278799999999999670e+01 4.001599999999999824e+01 8.597830999999999335e+00 -1.125996127853434855e-03
1.426900000000000013e+01 2.648300000000000054e+01 3.205700000000000216e+01 -2.725020999999999916e+01 8.020978985515294160e-03
1.427200000000000024e+01 3.103000000000000114e+01 3.915299999999999869e+01 1.264762999999999948e+01 6.376032172605956231e-04
1.427899999999999991e+01 4.606499999999999773e+01 1.972500000000000142e+01 -2.192536000000000129e+01 -2.639519950074928900e-01
1.428100000000000058e+01 4.605899999999999750e+01 2.954500000000000171e+01 2.791224999999999845e+00 2.671436925941146363e-03
1.430799999999999983e+01 4.770100000000000051e+01 2.189199999999999946e+01 7.183163999999999660e+00 3.639982731525725351e-03
1.431099999999999994e+01 3.411399999999999721e+01 3.463400000000000034e+01 -1.622700999999999949e+00 6.893717769241039734e-04
1.431099999999999994e+01 3.411399999999999721e+01 3.549900000000000233e+01 4.001173999999999786e+00 1.878383150735486718e-04
1.431499999999999950e+01 3.047800000000000153e+01 1.802299999999999969e+01 9.415130000000000443e-01 -2.639088469828666517e-01
1.431499999999999950e+01 3.187800000000000011e+01 1.802299999999999969e+01 -3.389196999999999793e+00 -2.641163464629709412e-01
1.431799999999999962e+01 4.496699999999999875e+01 2.475900000000000034e+01 8.316914000000000584e+00 2.301882631247920575e-03
1.432199999999999918e+01 2.400100000000000122e+01 2.681400000000000006e+01 -1.240093000000000067e+01 -2.638339182028971996e-01
1.432300000000000040e+01 3.909899999999999665e+01 1.742200000000000060e+01 8.049326000000000647e+00 -2.646277095296921678e-01
1.433900000000000041e+01 4.636200000000000188e+01 2.884499999999999886e+01 -1.475746999999999920e+00 2.846723176209167271e-03
1.434800000000000075e+01 2.569699999999999918e+01 2.972299999999999898e+01 -2.508757999999999910e+01 9.915060195187574282e-03
1.434800000000000075e+01 2.590599999999999881e+01 3.045899999999999963e+01 -2.029046999999999912e+01 9.338187522543398705e-03
1.435100000000000087e+01 4.090699999999999648e+01 2.513400000000000034e+01 -1.017254999999999932e+01 2.061389382346974237e-03
1.435100000000000087e+01 4.111599999999999966e+01 2.439799999999999969e+01 -9.899093999999999838e+00 2.520369101644863268e-03
1.435899999999999999e+01 2.422599999999999909e+01 2.153900000000000148e+01 -5.266024999999999956e+00 -2.633423019522557196e-01
1.435899999999999999e+01 2.422599999999999909e+01 2.226899999999999835e+01 -5.926876000000000033e+00 -2.634364877604460919e-01
1.435899999999999999e+01 2.455099999999999838e+01 2.300700000000000145e+01 -6.471270999999999773e+00 -2.635929244445897046e-01
1.435899999999999999e+01 2.455099999999999838e+01 2.387199999999999989e+01 -7.287952999999999903e+00 -2.636896765070469995e-01
1.436400000000000077e+01 2.660600000000000165e+01 1.691700000000000159e+01 -4.057985000000000397e+00 -2.630434784712182839e-01
1.436999999999999922e+01 3.754099999999999682e+01 3.424300000000000210e+01 1.776335999999999915e+00 -1.501764793280028739e-03
1.437100000000000044e+01 2.414300000000000068e+01 2.781800000000000139e+01 -2.649475999999999942e+01 1.186003954459430472e-02
1.439499999999999957e+01 3.982999999999999829e+01 2.956200000000000117e+01 -2.293153999999999826e+01 -3.635362165968805920e-04
1.439700000000000024e+01 4.759100000000000108e+01 2.605799999999999983e+01 7.646081999999999823e+01 3.530180749603161611e-03
1.439899999999999913e+01 3.227400000000000091e+01 3.998799999999999955e+01 9.972552999999999557e+00 -7.093325907476207611e-04
1.440099999999999980e+01 2.831400000000000006e+01 1.684299999999999997e+01 -1.646970000000000045e+00 -2.633129614989054845e-01
1.441000000000000014e+01 4.494299999999999784e+01 2.799500000000000099e+01 -3.084836999999999829e+00 2.185710627224306344e-03
1.441000000000000014e+01 4.673100000000000165e+01 2.799500000000000099e+01 9.818607999999999780e-01 3.054682799023913410e-03
1.441600000000000037e+01 2.993599999999999994e+01 1.775900000000000034e+01 -1.492512999999999979e+00 -2.637550271381993161e-01
1.441900000000000048e+01 3.299499999999999744e+01 1.824800000000000111e+01 -3.842509999999999870e+00 -2.642936110674992678e-01
1.442200000000000060e+01 4.653900000000000148e+01 1.895700000000000074e+01 -2.001375000000000171e+01 -2.636882569423619760e-01
1.443099999999999916e+01 4.477100000000000080e+01 1.671199999999999974e+01 6.476688999999999918e-01 6.469635561585126982e-03
1.443200000000000038e+01 2.966799999999999926e+01 7.775000000000000355e+00 1.984994999999999954e-01 -1.712390538411758256e-01
1.443599999999999994e+01 2.639799999999999969e+01 3.374499999999999744e+01 -1.760933999999999955e+01 6.963831218009636573e-03
1.443900000000000006e+01 3.993099999999999739e+01 3.038200000000000145e+01 6.727044000000000246e+00 -3.362812460288703057e-04
1.443999999999999950e+01 4.685499999999999687e+01 2.706400000000000006e+01 1.079676000000000080e+01 3.145757545207851415e-03
1.444699999999999918e+01 2.841400000000000148e+01 3.911699999999999733e+01 -3.089145999999999859e+01 2.510053712742717647e-03
1.444800000000000040e+01 4.588900000000000290e+01 2.044999999999999929e+01 -4.945452000000000403e+00 3.930072806828985299e-03
1.445199999999999996e+01 4.354200000000000159e+01 1.586899999999999977e+01 -8.090178999999999121e+00 -2.642024442379911631e-01
1.446799999999999997e+01 4.464000000000000057e+01 2.869500000000000028e+01 -1.272728999999999999e+01 2.008055821720784208e-03
1.447300000000000075e+01 4.437400000000000233e+01 2.387999999999999901e+01 1.598095999999999961e+00 2.051219350241261299e-03
1.447499999999999964e+01 3.863700000000000045e+01 3.471800000000000352e+01 -3.324929999999999830e-01 -1.020982066883856666e-03
1.448799999999999955e+01 4.631000000000000227e+01 2.107000000000000028e+01 -2.521530999999999967e+00 -2.638455533278202259e-01
1.448799999999999955e+01 4.532900000000000063e+01 1.972500000000000142e+01 -1.166865999999999959e+00 4.529994630045055919e-03
1.449300000000000033e+01 4.204899999999999949e+01 1.599000000000000021e+01 -2.180607999999999880e+00 -2.642666989440546343e-01
1.449600000000000044e+01 4.513499999999999801e+01 1.758999999999999986e+01 1.939449000000000112e+01 5.859602665361314869e-03
1.449699999999999989e+01 3.438000000000000256e+01 1.796499999999999986e+01 2.372285000000000199e+00 -2.643803908771155120e-01
1.449799999999999933e+01 3.574600000000000222e+01 1.816799999999999926e+01 1.042139000000000060e+01 -2.645572595213525613e-01
1.450699999999999967e+01 2.712399999999999878e+01 3.829299999999999926e+01 -4.659792999999999630e+00 3.804153977700491102e-03
1.451200000000000045e+01 4.634100000000000108e+01 2.717999999999999972e+01 2.715489999999999959e+00 2.889607331341202939e-03
1.451299999999999990e+01 2.510399999999999920e+01 2.897400000000000020e+01 -2.017291000000000167e+01 1.061699806165600397e-02
1.451900000000000013e+01 4.006000000000000227e+01 3.133999999999999986e+01 4.082726000000000077e+00 -2.956922396912070009e-04
1.451900000000000013e+01 2.416499999999999915e+01 2.549399999999999977e+01 -1.113325000000000031e+01 -2.637413426274891615e-01
1.451900000000000013e+01 2.449299999999999855e+01 2.475000000000000000e+01 -8.974716000000000804e+00 -2.637437616020125719e-01
1.453700000000000081e+01 3.467399999999999949e+01 3.620100000000000051e+01 4.197041999999999717e+00 -6.576759243316065160e-04
1.454400000000000048e+01 4.875300000000000011e+01 2.394399999999999906e+01 -6.215697999999999723e+00 4.082853682310537066e-03
1.454400000000000048e+01 4.875300000000000011e+01 2.488400000000000034e+01 -1.428950999999999993e+01 4.071651713580041326e-03
1.454499999999999993e+01 3.754899999999999949e+01 1.780499999999999972e+01 7.964120000000000310e+00 -2.645971439555495075e-01
1.457499999999999929e+01 4.040400000000000347e+01 3.474099999999999966e+01 -5.788087000000000160e+01 -2.292633668463480074e-04
1.458099999999999952e+01 4.041499999999999915e+01 2.679599999999999937e+01 -1.586576999999999948e+01 1.029545905577567994e-03
1.458200000000000074e+01 4.620900000000000318e+01 2.644000000000000128e+01 1.072729999999999961e+01 2.845171673966704565e-03
1.458900000000000041e+01 2.514199999999999946e+01 2.067399999999999949e+01 -7.283051000000000386e+00 -2.633768598379635506e-01
1.458999999999999986e+01 2.646199999999999974e+01 3.581400000000000006e+01 -1.757122000000000028e+01 5.632893442719654267e-03
1.458999999999999986e+01 2.667099999999999937e+01 3.654999999999999716e+01 -1.039514999999999922e+01 5.070913919940273074e-03
1.460399999999999920e+01 4.414200000000000301e+01 2.923999999999999844e+01 -1.132377999999999929e+01 1.741485517041760399e-03
1.460399999999999920e+01 4.414200000000000301e+01 3.076000000000000156e+01 -1.903775999999999868e+01 1.675919220239317341e-03
1.460399999999999920e+01 4.508200000000000074e+01 3.076000000000000156e+01 -5.128491000000000355e+01 2.127265946478542388e-03
1.460599999999999987e+01 3.487400000000000233e+01 3.418099999999999739e+01 -1.536291000000000073e+00 3.130471119330318535e-04
1.461299999999999955e+01 4.606900000000000261e+01 2.574699999999999989e+01 1.191182000000000052e+01 2.795643561804989248e-03
1.462199999999999989e+01 2.687500000000000000e+01 3.738499999999999801e+01 -1.420033000000000101e+00 4.456298916176268561e-03
1.462500000000000000e+01 4.239300000000000068e+01 2.374200000000000088e+01 -2.298404000000000025e+01 2.630886105905044965e-03
1.462800000000000011e+01 2.965599999999999881e+01 3.864300000000000068e+01 -3.147302000000000177e+01 1.896272031159413436e-03
1.465000000000000036e+01 4.559000000000000341e+01 1.889799999999999969e+01 1.793433999999999973e+00 4.930404679197150121e-03
1.465300000000000047e+01 3.676599999999999824e+01 3.409499999999999886e+01 -6.751748000000000083e+00 -1.271319927288392694e-03
1.465399999999999991e+01 2.613599999999999923e+01 1.767699999999999960e+01 -3.124617000000000200e+00 -2.630701767554796677e-01
1.466000000000000014e+01 3.700999999999999801e+01 1.797400000000000020e+01 1.991124999999999901e+01 -2.645759330399465314e-01
1.466399999999999970e+01 4.583700000000000330e+01 2.799500000000000099e+01 -3.603114999999999846e+00 2.608034375710575024e-03
1.466699999999999982e+01 4.381300000000000239e+01 3.000000000000000000e+01 -3.059743999999999886e+01 1.550866695239601920e-03
1.466699999999999982e+01 4.534799999999999898e+01 2.846499999999999986e+01 -4.161311000000000426e+00 2.354745339314563528e-03
1.466699999999999982e+01 4.541100000000000136e+01 3.000000000000000000e+01 -4.068789000000000300e+01 2.318561156295345822e-03
1.467500000000000071e+01 4.503600000000000136e+01 2.053000000000000114e+01 4.643523000000000067e+00 4.065417115036712783e-03
1.469299999999999962e+01 2.736599999999999966e+01 1.685399999999999920e+01 -2.483451000000000075e+00 -2.631246780644024286e-01
1.469599999999999973e+01 4.524499999999999744e+01 1.807199999999999918e+01 2.618033000000000143e+01 5.497787891970459806e-03
1.469999999999999929e+01 3.982600000000000051e+01 2.876300000000000168e+01 -2.384034000000000120e+01 -1.463644481307699969e-04
1.471400000000000041e+01 4.509400000000000119e+01 2.920299999999999940e+01 -3.975280000000000058e+01 2.200525841053363289e-03
1.471599999999999930e+01 4.854599999999999937e+01 2.326099999999999923e+01 -1.266810999999999909e+00 3.969777316486642303e-03
1.471700000000000053e+01 2.423300000000000054e+01 2.612000000000000099e+01 -2.240927999999999898e+01 -2.637783010906920023e-01
1.472100000000000009e+01 3.577600000000000335e+01 3.429899999999999949e+01 -5.869996999999999687e+00 -5.210104089319862828e-04
1.473199999999999932e+01 4.104699999999999704e+01 1.699800000000000111e+01 -1.804197999999999968e+00 -2.644672472222410198e-01
1.473300000000000054e+01 4.533899999999999864e+01 2.123000000000000043e+01 -1.002143000000000050e+01 3.531210750741604204e-03
1.474399999999999977e+01 2.620200000000000173e+01 1.865500000000000114e+01 -2.869203999999999866e+01 -2.632407601305605249e-01
1.474799999999999933e+01 3.117800000000000082e+01 1.829100000000000037e+01 -1.624157999999999991e+00 -2.639935293725373944e-01
1.476399999999999935e+01 3.360300000000000153e+01 4.016799999999999926e+01 1.796294999999999931e+01 -1.760898158918115537e-03
1.476399999999999935e+01 3.484000000000000341e+01 3.683800000000000097e+01 2.626581999999999972e+00 -1.111137270814744433e-03
1.476399999999999935e+01 3.504899999999999949e+01 3.757399999999999807e+01 1.725469000000000008e+01 -1.655715248189271530e-03
1.476399999999999935e+01 3.504899999999999949e+01 3.936200000000000188e+01 2.365750999999999848e+01 -2.362156467613633383e-03
1.476399999999999935e+01 3.530299999999999727e+01 3.846800000000000352e+01 8.192313999999999652e+00 -2.289010842591385729e-03
1.477100000000000080e+01 4.570100000000000051e+01 2.503900000000000148e+01 3.646564000000000139e+00 2.627527543222621994e-03
1.477299999999999969e+01 4.818900000000000006e+01 2.245799999999999841e+01 5.548956000000000444e+00 3.804265902179301134e-03
1.477800000000000047e+01 3.793699999999999761e+01 3.465899999999999892e+01 1.665602000000000160e+01 -1.269410931937118084e-03
1.478400000000000070e+01 4.160699999999999932e+01 2.400100000000000122e+01 -2.533485999999999905e+01 2.631738975102675040e-03
1.479499999999999993e+01 4.005400000000000205e+01 2.761299999999999955e+01 -1.587716999999999956e+01 5.682535881591505153e-04
1.480199999999999960e+01 3.504599999999999937e+01 1.810999999999999943e+01 5.158942999999999834e+00 -2.644156378196322321e-01
1.480199999999999960e+01 3.644599999999999795e+01 1.810999999999999943e+01 1.742829000000000050e+01 -2.645346523797486027e-01
1.480199999999999960e+01 3.451100000000000279e+01 3.506700000000000017e+01 -4.650046999999999819e+00 1.198881972100382994e-04
1.480499999999999972e+01 4.693599999999999994e+01 2.646799999999999997e+01 4.015518000000000143e+01 3.169438780933513718e-03
1.483300000000000018e+01 2.626699999999999946e+01 1.955999999999999872e+01 -8.742316999999999894e+00 -2.633897926590734739e-01
1.483399999999999963e+01 4.828300000000000125e+01 2.564399999999999835e+01 4.007809999999999917e+01 3.805322112343760468e-03
1.484800000000000075e+01 3.924099999999999966e+01 3.494800000000000040e+01 1.083604999999999929e+00 -7.107065337653344170e-04
1.484800000000000075e+01 3.824900000000000233e+01 1.774699999999999989e+01 6.749611999999999945e+00 -2.645524307869637770e-01
1.485200000000000031e+01 3.229500000000000171e+01 1.798000000000000043e+01 -2.592532999999999976e+00 -2.640664238234530226e-01
1.485200000000000031e+01 3.369500000000000028e+01 1.798000000000000043e+01 1.206476000000000104e+00 -2.642370243042289624e-01
1.486200000000000010e+01 4.091899999999999693e+01 3.393900000000000006e+01 -3.096365000000000123e+01 5.466359111642955576e-05
1.486400000000000077e+01 4.679999999999999716e+01 2.154899999999999949e+01 8.085067000000000448e+00 -2.635734096735689591e-01
1.487800000000000011e+01 2.794399999999999906e+01 3.858400000000000318e+01 -1.468800000000000061e+01 3.070885593333185729e-03
1.487800000000000011e+01 2.888400000000000034e+01 3.858400000000000318e+01 -2.184861000000000075e+01 2.445857878599856997e-03
1.487899999999999956e+01 4.520100000000000051e+01 2.426399999999999935e+01 3.136229999999999851e+00 2.401481774021303230e-03
1.487899999999999956e+01 3.990899999999999892e+01 1.760600000000000165e+01 4.379947999999999730e+00 -2.645650410556768528e-01
1.489400000000000013e+01 4.461200000000000188e+01 3.000000000000000000e+01 -1.965487999999999857e+01 1.931997160413301533e-03
1.489600000000000080e+01 4.381400000000000006e+01 2.327100000000000080e+01 -1.093920999999999921e+00 2.568850355740686167e-03
1.490499999999999936e+01 2.902799999999999869e+01 1.759900000000000020e+01 1.385126000000000135e-01 -2.635089483868777172e-01
1.492300000000000004e+01 4.025699999999999790e+01 3.202000000000000313e+01 -2.882462999999999997e+00 -1.798006933318624693e-04
1.492699999999999960e+01 2.600100000000000122e+01 3.331199999999999761e+01 -6.845266999999999769e+00 7.314881180396193283e-03
1.493299999999999983e+01 3.149099999999999966e+01 3.955199999999999960e+01 1.647140999999999877e+01 1.134154569744770280e-04
1.493999999999999950e+01 2.620499999999999829e+01 3.156099999999999994e+01 -1.313279999999999959e+01 8.248452019946846125e-03
1.493999999999999950e+01 2.620499999999999829e+01 3.242600000000000193e+01 -1.672101999999999933e+01 7.724472484277662698e-03
1.493999999999999950e+01 2.620499999999999829e+01 3.419800000000000040e+01 -4.300634999999999764e+00 6.660236660154521260e-03
1.493999999999999950e+01 4.080599999999999739e+01 3.269800000000000040e+01 -5.487237999999999616e+00 4.990851596961685575e-05
1.496299999999999919e+01 4.151599999999999824e+01 1.642099999999999937e+01 -2.392059999999999853e+00 -2.642829153538395759e-01
1.496299999999999919e+01 4.280899999999999750e+01 1.569999999999999929e+01 -2.559111000000000136e+00 -2.640903132348187965e-01
1.497899999999999920e+01 3.045700000000000074e+01 3.871600000000000108e+01 1.328203000000000067e+01 1.279223003708005162e-03
1.501099999999999923e+01 4.417699999999999960e+01 1.635600000000000165e+01 -5.339458999999999733e+00 6.626804175714123835e-03
1.501099999999999923e+01 3.524699999999999989e+01 3.506700000000000017e+01 -1.133076999999999934e+01 -4.793839717290848397e-04
1.501600000000000001e+01 2.755000000000000071e+01 3.787199999999999989e+01 -5.321540999999999855e+00 3.696382842462192682e-03
1.504499999999999993e+01 3.506400000000000006e+01 3.584199999999999875e+01 -1.438433000000000073e+00 -7.437686739451233528e-04
1.505100000000000016e+01 4.117499999999999716e+01 2.470100000000000051e+01 -5.830951999999999913e+00 2.244289214319559068e-03
1.505100000000000016e+01 4.117499999999999716e+01 2.556599999999999895e+01 -8.102135999999999783e+00 1.669936089012634406e-03
1.505100000000000016e+01 4.117499999999999716e+01 2.650600000000000023e+01 -1.569303999999999988e+01 1.045600227544504985e-03
1.505899999999999928e+01 2.438200000000000145e+01 2.190399999999999991e+01 -6.525441999999999965e+00 -2.633377918570204423e-01
1.505899999999999928e+01 2.460900000000000176e+01 2.110500000000000043e+01 -1.012833000000000006e+01 -2.632780549419154736e-01
1.505899999999999928e+01 2.460900000000000176e+01 2.270299999999999940e+01 -1.809605000000000175e+01 -2.634786548330345091e-01
1.505899999999999928e+01 2.481800000000000139e+01 2.343900000000000006e+01 -1.046149999999999913e+01 -2.636027957977475356e-01
1.507300000000000040e+01 4.660600000000000165e+01 2.600700000000000145e+01 3.852479000000000298e+01 3.005784277609778541e-03
1.510100000000000087e+01 2.583399999999999963e+01 2.026000000000000156e+01 -5.974505999999999872e+00 -2.633837474847068316e-01
1.510699999999999932e+01 2.513200000000000145e+01 2.833099999999999952e+01 -3.327150000000000318e+01 1.068816728086896886e-02
1.510699999999999932e+01 4.471900000000000119e+01 1.754700000000000060e+01 1.191524000000000072e+01 5.819628464106998793e-03
1.511100000000000065e+01 2.617599999999999838e+01 3.519400000000000261e+01 -1.004231000000000051e+01 6.046843062315314897e-03
1.512400000000000055e+01 2.689600000000000080e+01 1.738700000000000045e+01 -5.581260999999999584e+00 -2.630969028958763944e-01
1.512400000000000055e+01 2.783599999999999852e+01 1.738700000000000045e+01 -6.201063999999999687e+00 -2.632504977020244108e-01
1.513899999999999935e+01 3.966400000000000148e+01 2.994900000000000162e+01 -1.642359000000000080e+01 -3.615169276069460477e-04
1.513899999999999935e+01 3.371000000000000085e+01 2.389999999999999858e+01 -2.004544999999999799e+00 -2.651548011622897882e-01
1.514899999999999913e+01 2.461899999999999977e+01 2.742500000000000071e+01 -3.297211000000000070e+01 1.143769786218568063e-02
1.515399999999999991e+01 2.573400000000000176e+01 3.000799999999999912e+01 -1.748158000000000101e+01 9.363132749171018329e-03
1.515399999999999991e+01 2.594300000000000139e+01 3.074399999999999977e+01 -1.401894000000000062e+01 8.808484301971095803e-03
1.515499999999999936e+01 3.299499999999999744e+01 1.803900000000000148e+01 -2.548010000000000108e+00 -2.641097067610763127e-01
1.515799999999999947e+01 3.619100000000000250e+01 3.505899999999999750e+01 -8.786861000000000033e+00 -1.247190424747826338e-03
1.516600000000000037e+01 4.463900000000000290e+01 2.096199999999999974e+01 8.354995000000000616e+00 3.810903813471377098e-03
1.517999999999999972e+01 3.187800000000000011e+01 1.802299999999999969e+01 -1.684263999999999983e+00 -2.639618554072017398e-01
1.518699999999999939e+01 2.656700000000000017e+01 1.814699999999999847e+01 -1.364852999999999916e+01 -2.631670357729425369e-01
1.519599999999999973e+01 3.033299999999999841e+01 1.806700000000000017e+01 3.781960000000000210e+00 -2.637527664404653027e-01
1.519999999999999929e+01 4.311399999999999721e+01 2.332999999999999829e+01 -6.501264999999999361e+01 2.672409962645988686e-03
1.519999999999999929e+01 4.451400000000000290e+01 2.332999999999999829e+01 6.367483000000000448e-01 2.331946227972179434e-03
1.521100000000000030e+01 2.932199999999999918e+01 1.811100000000000065e+01 9.746321999999999264e+00 -2.636066284771799162e-01
1.521100000000000030e+01 2.537699999999999889e+01 2.920499999999999829e+01 -1.649419999999999931e+01 1.000334639112467755e-02
1.521599999999999930e+01 2.854899999999999949e+01 3.780199999999999960e+01 1.266473000000000049e+01 3.060398132789747712e-03
1.521700000000000053e+01 3.909899999999999665e+01 1.767599999999999838e+01 6.739866000000000135e+00 -2.644871835348212574e-01
1.521899999999999942e+01 3.979299999999999926e+01 3.090700000000000003e+01 -1.831199000000000021e+00 -3.224500025950134555e-04
1.521899999999999942e+01 4.000200000000000244e+01 3.164300000000000068e+01 -1.450056999999999929e+00 -2.506315452783733637e-04
1.521899999999999942e+01 2.432000000000000028e+01 2.586799999999999855e+01 -5.579832999999999599e-01 -2.637070310437211740e-01
1.521899999999999942e+01 2.455099999999999838e+01 2.505300000000000082e+01 -6.240554999999999630e+00 -2.636860782181296159e-01
1.521899999999999942e+01 2.476099999999999923e+01 2.431700000000000017e+01 -6.081426000000000442e+00 -2.636598517865850200e-01
1.522199999999999953e+01 2.683500000000000085e+01 1.890599999999999881e+01 -1.456136000000000053e+01 -2.633356651853289154e-01
1.523300000000000054e+01 3.438000000000000256e+01 1.817399999999999949e+01 4.663791999999999938e+00 -2.642748508717165379e-01
1.523399999999999999e+01 3.574600000000000222e+01 1.837699999999999889e+01 1.061800000000000033e+01 -2.644419504380176034e-01
1.523499999999999943e+01 4.060499999999999687e+01 1.757999999999999829e+01 -4.210606000000000293e+00 -2.644886778207173328e-01
1.525600000000000023e+01 4.585499999999999687e+01 2.179500000000000171e+01 1.720340999999999898e+00 2.972326485523423076e-03
1.527100000000000080e+01 4.464699999999999847e+01 1.995200000000000173e+01 -2.462203000000000142e+00 4.406972485292326609e-03
1.527999999999999936e+01 2.653200000000000003e+01 1.960600000000000165e+01 -5.059046999999999628e+00 -2.633873965746643675e-01
1.528599999999999959e+01 2.445799999999999841e+01 2.671499999999999986e+01 -1.129917999999999978e+01 -2.637862012204773010e-01
1.528899999999999970e+01 3.445300000000000296e+01 3.984300000000000352e+01 4.101209000000000060e+01 -2.183210190079809196e-03
1.528999999999999915e+01 2.640399999999999991e+01 3.611699999999999733e+01 -1.662353999999999843e+01 5.340423928121838457e-03
1.529199999999999982e+01 2.932100000000000151e+01 3.789200000000000301e+01 -4.508268000000000164e+00 2.487388214994117660e-03
