-7.570000000000000284e+00 1.113799999999999990e+01 -3.533299999999999841e+01 8.035037000000000873e+00 -4.407913620187634690e-02
-7.570000000000000284e+00 1.571299999999999919e+01 -4.361099999999999710e+01 1.887912999999999952e-01 -3.285392474275007357e-01
-7.567999999999999616e+00 1.305000000000000071e+01 -4.215999999999999659e+01 2.048772000000000038e+00 -3.614342702959732478e-01
-7.565199999999999925e+00 1.953099999999999881e+01 -4.978499999999999659e+01 -1.420889999999999986e+00 -1.914200417891958328e-01
-7.563600000000000101e+00 2.457000000000000028e+01 -2.172599999999999909e+01 -7.995179000000000258e+00 1.436078129439440354e-01
-7.562299999999999578e+00 3.381499999999999773e+01 -1.348399999999999999e+01 1.074923000000000073e+01 4.612271509682137893e-02
-7.559000000000000163e+00 2.924700000000000077e+00 -1.270199999999999996e+01 -1.765249999999999875e-01 -1.164464421003820194e-01
-7.555600000000000094e+00 2.484100000000000108e+01 1.215700000000000003e+01 -2.179266000000000147e+01 -2.602791053830370571e-01
-7.555600000000000094e+00 2.926399999999999935e+01 -1.236100000000000065e+01 -1.193445000000000000e+01 -4.918710041205186928e-02
-7.549999999999999822e+00 7.988000000000000433e+00 -3.245300000000000296e+01 -2.135548999999999964e+01 3.179803169333507429e-02
-7.549500000000000099e+00 2.110699999999999932e+01 -4.805100000000000193e+01 -2.668718999999999841e+00 -1.900589404603374999e-01
-7.549000000000000377e+00 2.515700000000000003e+01 3.161599999999999966e+00 1.598913000000000029e+00 1.593424882259006359e-01
-7.548899999999999721e+00 1.433300000000000018e+01 -4.221900000000000119e+01 -3.236003999999999881e+00 -2.801363616443018900e-01
-7.544400000000000439e+00 2.848799999999999955e+01 -1.508000000000000007e+01 2.608572999999999809e+00 -4.988074741248939986e-02
-7.543899999999999828e+00 8.717499999999999361e+00 -2.971799999999999997e+01 -3.882540000000000102e+00 -9.095731906582552040e-02
-7.542300000000000004e+00 2.201899999999999835e+01 5.783300000000000107e-01 -6.679734999999999978e-01 3.328159898000507266e-01
-7.536699999999999733e+00 2.773699999999999832e+00 -1.170899999999999963e+01 -2.154938999999999882e-01 4.596668385353069874e-02
-7.535999999999999588e+00 1.441900000000000048e+01 -3.529999999999999716e+01 5.994515000000000260e-01 -1.558105400026722487e-01
-7.535700000000000287e+00 4.425099999999999589e+00 -8.003200000000000314e-01 2.984551000000000176e+00 1.937848263083210010e-01
-7.526699999999999946e+00 2.408299999999999841e+01 -3.893500000000000227e+01 1.318280999999999992e+01 -8.987281040657939257e-02
-7.526699999999999946e+00 2.429200000000000159e+01 -3.819899999999999807e+01 7.159027000000000029e+00 -2.465788933046927922e-01
-7.525299999999999656e+00 1.116699999999999982e+01 1.331700000000000017e+01 -3.355782999999999960e-01 -6.058823929704988676e-02
-7.524000000000000021e+00 3.116299999999999848e+00 4.253300000000000303e+00 -1.484742999999999924e+01 -2.915099525190073537e-01
-7.524000000000000021e+00 3.116299999999999848e+00 5.192700000000000315e+00 -2.196969999999999956e+01 -2.140012281452911280e-01
-7.522000000000000242e+00 4.448599999999999888e+00 -1.855399999999999849e+01 -1.867154999999999987e+01 -3.324519505694195631e-01
-7.518399999999999750e+00 4.043000000000000149e+00 -1.539400000000000013e+01 3.580383999999999789e-01 -4.536804515743262517e-02
-7.514000000000000234e+00 6.033000000000000362e+00 -3.917600000000000193e+01 4.813066000000000066e+00 -3.388536459922739663e-01
-7.514000000000000234e+00 6.033000000000000362e+00 -3.821800000000000352e+01 7.691862000000000421e+00 -3.043462234238375475e-01
-7.513600000000000279e+00 2.585000000000000142e+01 -2.127499999999999858e+01 -5.855203000000000380e+00 1.536404036256455163e-01
-7.513600000000000279e+00 2.671499999999999986e+01 -2.267500000000000071e+01 2.006901999999999830e+01 7.961055054593622893e-02
-7.513600000000000279e+00 2.671499999999999986e+01 -2.127499999999999858e+01 -8.359194999999999709e+00 2.644159498895006649e-02
-7.510900000000000354e+00 1.334600000000000009e+01 -3.833599999999999852e+01 1.129759999999999920e+01 -2.657704571051852649e-01
-7.508399999999999963e+00 2.735500000000000043e+01 -1.432199999999999918e+01 3.513939999999999841e+00 1.352422127037267718e-01
-7.508399999999999963e+00 2.962000000000000099e+01 -1.432199999999999918e+01 6.612337000000000131e+00 4.716877741872241292e-02
-7.505499999999999616e+00 2.325700000000000145e+01 -1.547500000000000098e+00 -1.233408999999999978e+01 2.453192826603227128e-01
-7.504999999999999893e+00 2.546699999999999964e+00 -1.019899999999999984e+01 -3.052664999999999962e-01 6.905150635326166852e-02
-7.504999999999999893e+00 2.546699999999999964e+00 -9.148699999999999832e+00 -7.673972000000000016e-01 2.701082715484627306e-01
-7.503300000000000303e+00 2.960500000000000043e+01 -2.251399999999999935e+01 -1.299553000000000047e+01 2.170853931837001590e-03
-7.497899999999999565e+00 2.350700000000000145e+01 1.292399999999999949e+01 -1.812721000000000160e+01 -3.695743326744521107e-01
-7.497600000000000264e+00 2.255799999999999983e+01 -2.360300000000000153e+01 -1.010187999999999953e+01 2.101612473293529848e-01
-7.496000000000000441e+00 2.384799999999999898e+01 -4.228300000000000125e+01 2.001886999999999972e+01 -1.742620109716548349e-01
-7.495400000000000063e+00 5.108999999999999986e+00 7.466300000000000381e+00 -3.627664000000000222e+00 -2.132056798661775832e-01
-7.494299999999999962e+00 9.506999999999999673e+00 1.317600000000000016e+01 3.365318999999999949e+00 -1.972145216923790190e-01
-7.491500000000000270e+00 1.395400000000000063e+01 -3.844899999999999807e+01 8.192334999999999923e+00 -1.272887378048787876e-01
-7.490700000000000358e+00 3.389999999999999858e+01 -1.643900000000000006e+01 5.156208000000000347e+00 1.038608025232003532e-02
-7.488900000000000112e+00 2.631400000000000006e+01 -2.355499999999999972e+01 7.425872000000000028e+00 -8.162443999425850194e-02
-7.485400000000000276e+00 7.133600000000000385e+00 -4.021099999999999852e+01 6.447952000000000128e-01 -3.167300974484369425e-01
-7.484899999999999665e+00 4.346000000000000085e+00 3.430000000000000160e+00 -1.472406999999999933e+01 1.601077517813617387e-02
-7.483799999999999564e+00 8.249599999999999156e+00 -3.168499999999999872e+01 -2.128492999999999924e+01 1.673056819630090036e-02
-7.482000000000000206e+00 2.944900000000000162e+01 -2.519099999999999895e+01 1.077628999999999948e+00 -1.992431792344498409e-01
-7.482000000000000206e+00 2.944900000000000162e+01 -2.414099999999999824e+01 1.862481000000000009e+01 2.424061072628218988e-02
-7.481099999999999639e+00 3.758300000000000196e+00 -1.619999999999999929e+01 4.970777000000000112e-01 -3.986552183817304237e-03
-7.480000000000000426e+00 4.804100000000000037e+00 7.199999999999999456e-02 -9.207632000000000261e+00 2.127672106972647581e-01
-7.477699999999999569e+00 1.472199999999999953e+01 -3.600000000000000000e+01 1.343110000000000026e+00 -1.062520154145068230e-01
-7.477699999999999569e+00 2.862900000000000134e+01 -3.097299999999999898e+01 -6.223557999999999701e+00 -1.010898414072538970e-01
-7.477699999999999569e+00 2.862900000000000134e+01 -3.010699999999999932e+01 -5.033662999999999776e+00 -3.362537102447623050e-01
-7.474099999999999966e+00 7.286999999999999922e+00 -3.737800000000000011e+01 5.492376000000000147e+01 -3.484441861534216534e-01
-7.464500000000000135e+00 2.433899999999999864e+01 -4.929100000000000037e+00 -1.292055000000000042e+01 3.136976918996993435e-02
-7.463300000000000267e+00 3.002499999999999858e+01 -1.113000000000000078e+01 -4.496226000000000056e+01 -4.848768113552703873e-02
-7.463300000000000267e+00 3.096499999999999986e+01 -1.113000000000000078e+01 -5.155588000000000193e+01 -8.981428212557802937e-02
-7.460700000000000109e+00 2.647699999999999942e+00 -1.101900000000000013e+01 1.555015999999999954e+00 5.569787486442885627e-02
-7.459600000000000009e+00 7.250700000000000145e+00 -2.632600000000000051e+01 2.755177999999999905e+00 1.127471684638577942e-01
-7.455899999999999750e+00 2.307000000000000028e+01 -7.970000000000000417e-01 -1.601664999999999850e+01 2.477354003191837573e-01
-7.453800000000000203e+00 1.281700000000000017e+01 -3.485499999999999687e+01 4.594456000000000095e+00 -1.131369996076202478e-01
-7.451999999999999957e+00 2.793900000000000006e+01 -1.103999999999999915e+01 -1.852793000000000134e+01 -7.364985568525588000e-02
-7.448900000000000077e+00 3.250399999999999778e+01 -1.304800000000000004e+01 3.666078000000000259e+01 5.785279932725548996e-02
-7.447700000000000209e+00 1.519999999999999929e+01 -3.817600000000000193e+01 1.569150000000000045e+00 -1.703013840485067265e-01
-7.447700000000000209e+00 1.519999999999999929e+01 -3.677600000000000335e+01 1.563325999999999993e+00 -1.830967756889295139e-01
-7.443699999999999761e+00 1.076999999999999957e+01 -1.129300000000000026e-01 -4.489781999999999940e+00 2.308214409104852594e-01
-7.443699999999999761e+00 1.097899999999999920e+01 6.230900000000000327e-01 -4.075857000000000063e+00 2.350809311047236672e-01
-7.443699999999999761e+00 1.216999999999999993e+01 1.287099999999999911e+00 2.622310999999999948e-01 2.623236744179957558e-01
-7.438799999999999635e+00 2.999899999999999878e+01 -3.613199999999999790e+01 -3.842439000000000160e+00 -1.202461818087269541e-01
-7.438399999999999679e+00 1.107600000000000051e+01 -1.435699999999999976e+00 -7.316111000000000253e+00 3.554400821304457558e-01
-7.438399999999999679e+00 1.345800000000000018e+01 -1.435699999999999976e+00 -4.065659000000000134e+00 3.577615666162330815e-02
-7.437899999999999956e+00 3.288400000000000034e+01 -1.345400000000000063e+01 2.866602999999999923e+01 5.190925068705286305e-02
-7.436099999999999710e+00 8.708299999999999486e+00 -4.065299999999999869e+01 6.802003000000000021e+00 -3.052608956446745125e-01
-7.433600000000000207e+00 4.218300000000000161e+00 -2.539300000000000068e+01 2.594962999999999909e+00 5.535647057645757402e-02
-7.430299999999999905e+00 1.073000000000000043e+01 -4.149900000000000233e+01 7.729981000000000435e+00 -3.623490845526621262e-01
-7.424000000000000377e+00 2.464900000000000091e+01 -5.701999999999999957e+00 -9.766849999999999810e+00 -2.228293452691549326e-01
-7.421999999999999709e+00 9.404799999999999827e+00 -3.390100000000000335e+01 1.002050000000000018e+01 -1.886681978255609193e-03
-7.414699999999999847e+00 1.716400000000000148e+01 -4.714800000000000324e+01 -3.704422999999999799e+00 -3.079941904779567308e-01
-7.410300000000000331e+00 4.126699999999999591e+00 -1.705000000000000071e+01 -6.957299000000000122e-01 4.298649077631853943e-02
-7.410199999999999676e+00 2.729500000000000171e+01 -1.338700000000000045e+01 -8.499470000000000525e+00 -5.372702692599674867e-02
-7.408999999999999808e+00 1.333699999999999974e+01 1.235399999999999920e+01 -1.999503000000000030e+00 2.849646964127216520e-01
-7.408199999999999896e+00 4.535999999999999588e+00 -1.776699999999999946e+01 -2.255393000000000203e+00 -3.439213411756631422e-01
-7.407000000000000028e+00 2.214999999999999858e+01 -4.236200000000000188e+01 3.807845999999999975e+01 -1.629103230827299575e-01
-7.404700000000000060e+00 1.765800000000000125e+01 -4.955599999999999739e+01 1.050468000000000046e+01 -2.998220481142834237e-01
-7.404399999999999871e+00 2.312699999999999889e+01 3.936599999999999877e+00 4.852495000000000225e+00 -1.534404234918397836e-01
-7.400000000000000355e+00 2.969600000000000151e+01 -1.189000000000000057e+01 -2.983621000000000123e+01 -4.854772055141179377e-02
-7.400000000000000355e+00 3.129400000000000048e+01 -1.189000000000000057e+01 -3.290444000000000102e+01 6.641453951943783462e-02
-7.398299999999999876e+00 4.385900000000000354e+00 -6.291000000000000369e+00 -1.084907000000000066e+00 2.584173522400369238e-01
-7.396899999999999586e+00 2.378000000000000114e+01 -2.188200000000000145e+01 -6.464342000000000255e+00 1.340286319857970643e-01
-7.392299999999999649e+00 1.556900000000000084e+01 -4.300900000000000034e+01 9.688485999999999487e-01 -3.145167861882209315e-01
-7.391000000000000014e+00 2.246799999999999997e+01 -2.264999999999999858e+01 -9.204560999999999993e+00 2.021941152057081248e-01
-7.390799999999999592e+00 2.079500000000000171e+01 4.535999999999999588e+00 -4.254547999999999774e+00 1.017064907566160581e-01
-7.389400000000000190e+00 2.770599999999999952e+01 -2.699699999999999989e+01 -2.515628999999999849e+01 -1.898581598503908396e-01
-7.389400000000000190e+00 1.550399999999999956e+01 -3.747599999999999909e+01 1.151145000000000085e+00 -1.817231685131964480e-01
-7.389000000000000234e+00 3.113299999999999912e+01 -3.427799999999999869e+01 -9.841464000000000212e+00 -3.372750721416174491e-01
-7.389000000000000234e+00 3.113299999999999912e+01 -3.333800000000000097e+01 -1.827974999999999994e+01 -3.379509579828697818e-01
-7.385699999999999932e+00 1.226200000000000045e+01 -2.132200000000000095e+00 -4.485877999999999588e+00 3.561310857601439617e-01
-7.379599999999999937e+00 2.995499999999999829e+01 -1.358600000000000030e+01 1.330268000000000050e+01 5.778674812151361750e-02
-7.375300000000000189e+00 2.531599999999999895e+01 -7.046000000000000263e+00 -3.044999999999999929e+00 -2.250100974431961942e-01
-7.375200000000000422e+00 2.919000000000000128e+01 -2.321799999999999997e+01 7.007468000000000252e+00 1.708377880268246302e-02
-7.368400000000000283e+00 2.199399999999999977e+01 4.694899999999999629e+00 2.452163999999999788e+00 -1.085760892196781652e-01
-7.365400000000000169e+00 3.294800000000000040e+01 -1.887800000000000011e+01 7.881486999999999910e+00 -3.092424790156502595e-02
-7.364899999999999558e+00 2.996399999999999864e+01 -1.264899999999999913e+01 1.277510999999999974e+01 -4.733811915039150969e-02
-7.362000000000000099e+00 3.956999999999999851e+00 7.199999999999999456e-02 -1.097320000000000073e+00 2.243923733506516527e-01
-7.355800000000000338e+00 8.582800000000000651e+00 -2.867000000000000171e+01 -2.629528000000000088e+00 1.123344852420323364e-01
-7.349199999999999733e+00 4.317400000000000126e+00 -7.326999999999999957e+00 -1.053919999999999968e+00 2.740364590303046022e-01
-7.347000000000000419e+00 2.085999999999999943e+01 -4.309899999999999665e+01 5.110100000000000087e+00 -1.593674582754467384e-01
-7.346599999999999575e+00 2.665899999999999892e+01 -2.416799999999999926e+01 -8.175095999999999918e+00 -7.349040139424733997e-02
-7.341700000000000337e+00 3.159799999999999898e+01 -1.258999999999999986e+01 2.721235000000000070e+01 6.365819084304316644e-02
-7.339699999999999669e+00 5.009000000000000341e+00 1.045199999999999996e+01 -5.119606000000000101e+00 8.227239419937368639e-03
-7.339699999999999669e+00 5.009000000000000341e+00 1.291200000000000081e+01 -7.952264999999999695e+00 5.501657664713756552e-04
-7.339699999999999669e+00 6.528999999999999915e+00 1.291200000000000081e+01 -1.784837999999999880e+01 -4.236994911560292010e-02
-7.336700000000000443e+00 2.308099999999999952e+01 -2.438899999999999935e+01 -1.192629999999999946e+01 -3.561266729545631282e-02
-7.317999999999999616e+00 1.367699999999999960e+01 5.351500000000000146e-01 -2.915436000000000138e-01 2.543902212919956218e-01
-7.317999999999999616e+00 1.388599999999999923e+01 -2.008699999999999930e-01 4.649980000000000224e+00 2.384597566967611437e-01
-7.316099999999999604e+00 6.460099999999999731e+00 2.387000000000000011e+00 -1.888541999999999987e+01 3.047292884849941985e-01
-7.312000000000000277e+00 2.723400000000000176e+01 -1.245199999999999996e+01 -3.286934000000000022e+00 -8.107052164004699413e-02
-7.306700000000000195e+00 7.814700000000000202e+00 -4.026100000000000279e+01 2.761245999999999867e+00 -3.124563316834611526e-01
-7.304599999999999760e+00 5.196600000000000108e+00 -7.428799999999999848e-01 5.973528000000000171e-01 4.341790470253600875e-01
-7.304100000000000037e+00 1.079599999999999937e+01 -9.002499999999999947e-01 -1.034202999999999983e+00 2.353461694787661873e-01
-7.301000000000000156e+00 1.723400000000000176e+01 -4.572699999999999676e+01 -6.116389999999999993e+00 -3.139111533848046309e-01
-7.296000000000000263e+00 4.620000000000000107e+00 -2.611400000000000077e+01 9.991175000000000139e+00 3.250785319171069221e-02
-7.296000000000000263e+00 5.578000000000000291e+00 -2.611400000000000077e+01 2.772719000000000023e+01 1.568097243881906924e-02
-7.291100000000000136e+00 8.541700000000000514e+00 -3.785799999999999699e+01 3.142542999999999864e+01 -3.443201945496061622e-01
-7.290700000000000180e+00 2.460200000000000031e+01 -2.578399999999999892e+01 -2.192286999999999964e+01 -8.244559979759900903e-02
-7.280499999999999972e+00 2.019600000000000151e+01 1.437500000000000000e+01 -7.819024999999999892e+00 -3.663983627899704554e-01
-7.276099999999999568e+00 2.608500000000000085e+01 -8.182700000000000529e+00 -1.657381999999999911e+00 -2.227249350471398603e-01
-7.274499999999999744e+00 2.078500000000000014e+01 -4.430199999999999960e+01 2.432907000000000153e+01 -1.723434717351703394e-01
-7.271700000000000053e+00 2.028800000000000026e+01 -4.970199999999999818e+01 -4.558398999999999646e+00 -1.901449187770037075e-01
-7.270900000000000141e+00 5.540099999999999802e+00 7.199999999999999456e-02 -4.740848999999999869e+00 2.029325189868978752e-01
-7.269899999999999807e+00 3.298599999999999710e+01 -1.723699999999999832e+01 1.125296999999999947e+01 -2.690524756107156440e-02
-7.267999999999999794e+00 2.349800000000000111e+01 3.428500000000000103e+00 1.514858000000000082e+01 -1.787936261017920581e-01
-7.267699999999999605e+00 4.236699999999999910e+00 6.299900000000000055e+00 -6.638415000000000177e+00 -2.124147325604019976e-01
-7.266000000000000014e+00 7.916599999999999859e+00 -2.713800000000000168e+01 3.191132000000000080e+00 1.032209690915864841e-01
-7.263700000000000045e+00 1.598600000000000065e+01 1.217399999999999949e+01 -1.553703999999999930e+01 3.279711493804882659e-03
-7.260600000000000165e+00 1.366499999999999915e+01 -9.569499999999999673e-01 1.459716999999999931e+00 2.647663039084845529e-02
-7.257799999999999585e+00 6.156699999999999839e+00 3.087000000000000188e+00 -9.289289999999999381e+00 -1.660232828614217199e-02
-7.254699999999999704e+00 2.346900000000000119e+01 -2.502499999999999858e+01 -1.049028000000000027e+01 -2.407681526854912185e-02
-7.254599999999999937e+00 8.201599999999999113e+00 -2.786700000000000088e+01 3.621100999999999903e-01 1.043178542545199761e-01
-7.253000000000000114e+00 3.491999999999999993e+00 -2.337699999999999889e+01 4.994096000000000091e-01 -1.113099511244710904e-01
-7.253000000000000114e+00 3.723500000000000032e+00 -2.256200000000000117e+01 -5.956664999999999877e-01 -2.947975162128874116e-01
-7.245599999999999596e+00 2.445700000000000074e+01 3.219899999999999984e+00 6.551186999999999649e+00 1.530549975887313119e-01
-7.240999999999999659e+00 2.778800000000000026e+01 -1.502200000000000024e+01 -3.845089999999999897e+00 1.084744955435528596e-01
-7.240999999999999659e+00 2.918799999999999883e+01 -1.502200000000000024e+01 2.286379999999999857e+00 2.926224347103587725e-02
-7.238999999999999879e+00 1.900300000000000011e+01 -4.998700000000000188e+01 -7.724313000000000429e-01 -2.973937467590128114e-01
-7.237099999999999866e+00 2.869200000000000017e+01 -3.692300000000000182e+01 -7.261330000000000062e+00 -1.479547289055159753e-01
-7.227999999999999758e+00 5.541699999999999626e+00 8.166299999999999670e+00 -1.511914999999999942e+01 -2.001971057322742831e-01
-7.216300000000000381e+00 3.048300000000000054e+01 -3.251500000000000057e+01 -4.588998000000000133e+01 -3.375175163288401947e-01
-7.216199999999999726e+00 2.771099999999999852e+01 -2.802599999999999980e+01 -6.406690000000000218e+00 -1.792568396535489383e-01
-7.211599999999999788e+00 3.328900000000000148e+01 -1.653699999999999903e+01 5.651777000000000051e+00 4.138115425860640524e-03
-7.209999999999999964e+00 2.828900000000000148e+01 -2.620100000000000051e+01 -1.176473999999999975e+01 -3.058623109825448494e-01
-7.204299999999999926e+00 1.271899999999999942e+01 1.301399999999999935e+01 -2.772575999999999929e+00 -2.820880398052270574e-02
-7.201500000000000234e+00 2.580000000000000071e+01 1.087899999999999956e+01 -9.090196999999999861e+00 -2.725440111239424423e-01
-7.200000000000000178e+00 2.432700000000000173e+01 -4.150800000000000267e+01 2.480630000000000024e+01 -3.740881896210106194e-02
-7.199499999999999567e+00 2.447899999999999920e+01 -4.054999999999999716e+01 2.171882000000000090e+01 -5.576992764468378244e-02
-7.195700000000000429e+00 1.458500000000000085e+01 1.175000000000000000e+01 -9.001542999999999850e+00 3.166326447753162743e-01
-7.195299999999999585e+00 1.789000000000000057e+01 1.464700000000000024e+01 -2.086002999999999830e+01 -2.625150098115779929e-01
-7.195299999999999585e+00 1.941000000000000014e+01 1.464700000000000024e+01 -5.724830000000000041e+01 -2.486547573094922969e-01
-7.192499999999999893e+00 2.111100000000000065e+01 1.116700000000000026e+00 1.605280000000000129e+01 3.208873499901719883e-01
-7.187800000000000189e+00 2.752400000000000091e+01 -1.009200000000000053e+01 2.483193999999999957e-01 -6.615575250131960905e-02
-7.186499999999999666e+00 2.429700000000000060e+01 -3.780400000000000205e+01 6.717365000000000030e+00 -2.543417697207738803e-01
-7.180299999999999905e+00 3.072000000000000064e+00 -8.298700000000000188e+00 -1.769924000000000053e+00 2.685964784315463261e-01
-7.177900000000000169e+00 1.179599999999999937e+01 -3.786200000000000188e+01 2.068503000000000114e+01 -3.024482569951408850e-01
-7.177599999999999980e+00 2.744000000000000128e+01 -2.273999999999999844e+01 -1.312611999999999890e+00 8.520409116450719522e-02
-7.175500000000000433e+00 2.655999999999999872e+01 9.223399999999999821e+00 3.539015000000000022e+00 -2.939594839276890581e-01
-7.173000000000000043e+00 3.049500000000000099e+01 -1.189000000000000057e+01 -2.210394000000000148e+01 -4.716729491403772595e-02
-7.171400000000000219e+00 2.642500000000000071e+01 -2.501999999999999957e+01 -3.267725999999999686e+01 -5.616165136807680508e-02
-7.169699999999999740e+00 2.174599999999999866e+01 1.390099999999999980e+01 2.252772000000000108e-01 -3.683116196985267710e-01
-7.168999999999999595e+00 3.302300000000000324e+01 -2.062999999999999901e+01 -1.241913999999999962e+00 -5.853617099534987045e-02
-7.168999999999999595e+00 3.302300000000000324e+01 -1.976399999999999935e+01 1.214350000000000041e+00 -2.697621339082927408e-02
-7.166000000000000369e+00 2.748699999999999832e+01 8.064700000000000202e+00 5.955136000000000429e+00 -3.269256487330456928e-01
-7.165099999999999802e+00 9.474999999999999645e+00 -3.797999999999999687e+01 8.543386999999999887e+01 -3.399712911206236865e-01
-7.163100000000000023e+00 2.662199999999999989e+01 -3.616799999999999926e+01 -1.657685000000000075e+00 -2.024324117014558166e-01
-7.160999999999999588e+00 2.330000000000000071e+01 -1.187699999999999978e+00 -1.109005999999999936e+01 2.475047728336866315e-01
-7.160099999999999909e+00 2.307300000000000040e+01 -4.234799999999999898e+01 3.245917000000000030e+01 -1.671654974018677575e-01
-7.154600000000000293e+00 1.024600000000000044e+01 -3.488700000000000045e+01 2.186933999999999934e+00 -2.987166897381470648e-02
-7.154600000000000293e+00 1.191600000000000037e+01 -3.488700000000000045e+01 -2.894467999999999819e+00 -1.042997767756217026e-01
-7.153999999999999915e+00 9.298000000000000043e+00 -3.226899999999999835e+01 -3.866854000000000013e+00 -2.129546876090446933e-02
-7.151699999999999946e+00 2.678200000000000003e+01 3.426699999999999857e+00 1.782464999999999966e+00 -1.387179465489809561e-02
-7.145299999999999763e+00 9.039899999999999380e+00 -3.306199999999999761e+01 -4.911546999999999996e-01 -5.280246906306318780e-03
-7.142699999999999605e+00 2.277299999999999969e+01 1.296899999999999942e+01 -1.167381999999999920e+01 -3.699518038806863252e-01
-7.137999999999999901e+00 2.750900000000000034e+01 -2.150600000000000023e+01 -1.904655999999999949e+01 4.437020196669780314e-02
-7.135699999999999932e+00 2.529599999999999937e+01 -3.679200000000000159e+01 2.975518000000000107e+00 -2.470270060269921797e-01
-7.133099999999999774e+00 2.114999999999999858e+01 -4.494299999999999784e+01 1.331944000000000017e+00 -1.766188976276499845e-01
-7.126900000000000013e+00 1.142999999999999972e+01 -4.155700000000000216e+01 3.706319000000000141e+00 -3.597563537612148421e-01
-7.125899999999999679e+00 2.368199999999999861e+01 -1.945400000000000018e+00 -1.008723999999999954e+01 2.459476464283765207e-01
-7.124900000000000233e+00 1.513700000000000045e+01 -4.230899999999999750e+01 6.845301000000000080e+00 -2.899366173850189687e-01
-7.123599999999999710e+00 2.290099999999999980e+01 -2.194999999999999929e+01 -9.068282999999999205e+00 2.068756810931996204e-01
-7.123400000000000176e+00 2.036199999999999832e+01 2.021999999999999797e+00 6.313520999999999717e+00 3.012896560180057803e-01
-7.122700000000000031e+00 2.271099999999999852e+01 1.154300000000000048e-01 -4.847465999999999831e+00 2.516887906403907360e-01
-7.117200000000000415e+00 2.625600000000000023e+01 9.923400000000000887e+00 5.595014000000000376e-01 -2.842309868356880931e-01
-7.116999999999999993e+00 2.628200000000000003e+01 -2.078399999999999892e+01 -5.311003000000000362e+00 -6.617579820047503163e-03
-7.110000000000000320e+00 8.226800000000000779e+00 -3.018700000000000117e+01 -3.434906999999999933e+00 5.377707666815371296e-02
-7.110000000000000320e+00 8.226800000000000779e+00 -2.838299999999999912e+01 -1.531789999999999985e+00 1.026924843082279298e-01
-7.108399999999999608e+00 3.191400000000000148e+01 -2.148699999999999832e+01 -4.142280000000000406e+00 -4.519139605098671658e-02
-7.107999999999999652e+00 2.739499999999999957e+01 -9.133699999999999264e+00 5.235718999999999790e-01 -6.121678861131368832e-02
-7.106799999999999784e+00 3.075700000000000145e+01 -1.265799999999999947e+01 5.682369999999999699e+00 6.188843029931510864e-02
-7.106799999999999784e+00 5.665700000000000180e+00 -5.116300000000000292e-01 -3.319675000000000153e+00 1.834849191786634970e-01
-7.105000000000000426e+00 3.059299999999999997e+01 -3.556799999999999784e+01 -5.842198999999999920e+00 -1.071716164959636564e-01
-7.102899999999999991e+00 2.777700000000000102e+01 -2.226500000000000057e+01 -7.961907000000000068e+00 7.405952009695719596e-02
-7.099300000000000388e+00 9.421099999999999142e+00 -4.069100000000000250e+01 1.210358999999999963e+00 -2.961437094526506719e-01
-7.094999999999999751e+00 2.807400000000000162e+01 -2.303600000000000136e+01 -2.712524000000000157e+00 9.773260674610166621e-02
-7.094899999999999984e+00 1.438599999999999923e+01 -3.795799999999999841e+01 7.774085000000000356e+00 -1.455896356682083725e-01
-7.092999999999999972e+00 1.631200000000000117e+01 -4.392399999999999949e+01 4.616798000000000179e+00 -3.624840482240322403e-01
-7.087399999999999700e+00 2.149500000000000099e+01 4.594299999999999606e+00 1.046513999999999944e+00 -1.124051642996090755e-01
-7.085799999999999876e+00 1.351699999999999946e+01 -3.501800000000000068e+01 -3.435100999999999849e-01 -6.350009720579344319e-02
-7.084699999999999775e+00 2.551399999999999935e+01 1.176699999999999946e+01 -7.549841999999999942e+00 -2.655025656088554897e-01
-7.080700000000000216e+00 3.434000000000000341e+01 -1.577999999999999936e+01 -1.633071000000000106e-01 1.721302777675668902e-02
-7.080700000000000216e+00 3.434000000000000341e+01 -1.408000000000000007e+01 1.624759999999999849e+01 3.484902953782406665e-02
-7.080000000000000071e+00 1.713299999999999912e+01 -4.870600000000000307e+01 -8.684838999999999753e-02 -3.015351389950947647e-01
-7.080000000000000071e+00 1.713299999999999912e+01 -4.765599999999999881e+01 -1.986612000000000045e+00 -3.047162384125766676e-01
-7.079699999999999882e+00 2.720499999999999829e+01 -2.080600000000000094e+01 -2.039019000000000048e+01 1.202822521454253446e-01
-7.079600000000000115e+00 2.129299999999999926e+01 -4.239900000000000091e+01 1.496275999999999939e+01 -1.500372336207842772e-01
-7.072300000000000253e+00 5.441600000000000215e+00 9.752299999999999969e+00 -5.662098000000000297e+00 4.622635156918052058e-04
-7.070999999999999730e+00 1.353999999999999915e+01 -4.200099999999999767e+01 2.520725999999999800e+00 -3.573082137906568589e-01
-7.070000000000000284e+00 1.685800000000000054e+01 -4.493299999999999983e+01 -3.426606000000000041e+00 -3.135846510072765603e-01
-7.061600000000000321e+00 2.920299999999999940e+01 -3.202100000000000080e+01 -2.627091000000000065e+01 -3.500000000000000333e-01
-7.055699999999999861e+00 2.100700000000000145e+01 -4.881499999999999773e+01 -6.761770000000000280e+00 -1.884488146572235734e-01
-7.054499999999999993e+00 2.427400000000000091e+01 1.265700000000000003e+01 -6.137931999999999988e+01 -3.697688789837015877e-01
-7.054299999999999571e+00 3.876300000000000079e+00 3.963000000000000078e+00 -8.213414999999999466e+00 -2.953040063409120841e-01
-7.052999999999999936e+00 4.014700000000000379e+00 -1.904400000000000048e+01 -1.437077999999999989e+01 -3.278364855401099121e-01
-7.052999999999999936e+00 8.320899999999999963e+00 -2.928500000000000014e+01 -2.087025000000000130e+00 1.426983155107705570e-02
-7.051999999999999602e+00 5.092800000000000438e+00 -4.653900000000000148e+00 -1.063159000000000048e-01 2.071669290719690415e-01
-7.051000000000000156e+00 2.651800000000000068e+01 1.069100000000000072e+01 -5.455801000000000123e+00 -2.790866270736157007e-01
-7.048499999999999766e+00 3.045299999999999940e+01 -1.335800000000000054e+01 1.199871000000000087e+01 5.563757357095727718e-02
-7.047699999999999854e+00 3.014300000000000068e+01 -2.204599999999999937e+01 -1.601364999999999839e+01 -2.081304179855273176e-02
-7.044699999999999740e+00 2.036400000000000077e+01 3.649399999999999977e+00 -3.565881000000000078e+00 4.610737175437057411e-02
-7.044299999999999784e+00 8.820399999999999352e+00 -3.141100000000000136e+01 -5.792559999999999931e+00 1.275266507187249876e-01
-7.043000000000000149e+00 2.792500000000000071e+01 -2.892500000000000071e+01 2.015328999999999926e+00 -2.690698387144649373e-01
-7.041299999999999670e+00 3.331700000000000017e+01 -1.394500000000000028e+01 9.518243000000000009e+00 3.993130606749793754e-02
-7.039900000000000269e+00 6.353699999999999903e+00 -2.617800000000000082e+01 6.488773000000000124e+00 -5.333726467804516917e-03
-7.036599999999999966e+00 1.468999999999999950e+01 -3.725800000000000267e+01 9.957485000000000364e-01 -1.566686992372469112e-01
-7.035599999999999632e+00 5.306799999999999962e+00 -2.051499999999999879e+00 1.864665000000000017e+00 4.315365808786300050e-01
-7.035599999999999632e+00 5.515900000000000247e+00 -2.787500000000000089e+00 -1.015846000000000027e+00 4.296496636075307629e-01
-7.035000000000000142e+00 6.807999999999999829e+00 -3.947200000000000131e+01 -2.212142000000000053e+00 -3.193782886696105994e-01
-7.035000000000000142e+00 6.807999999999999829e+00 -3.792199999999999704e+01 5.334736000000000189e+01 -3.421906808441663728e-01
-7.035000000000000142e+00 7.766000000000000014e+00 -3.792199999999999704e+01 1.804343000000000075e+02 -3.423709437450895843e-01
-7.033400000000000318e+00 3.657300000000000217e+00 -1.746999999999999886e+01 -6.574134000000000366e-01 -3.477024549424790334e-01
-7.033100000000000129e+00 3.588499999999999801e+00 -1.396400000000000041e+01 1.913211999999999913e+00 -8.125794804660113266e-03
-7.031100000000000350e+00 4.051999999999999602e+00 -1.812099999999999866e+01 -2.161191999999999780e+00 -3.415212496269671161e-01
-7.029600000000000293e+00 1.155799999999999983e+01 -2.106399999999999828e+00 -1.148900000000000032e+00 3.601188908376048436e-01
-7.029600000000000293e+00 1.295800000000000018e+01 -2.106399999999999828e+00 -3.142520000000000202e+00 3.448851035581503854e-01
-7.017599999999999838e+00 1.840200000000000102e+01 -4.972299999999999898e+01 6.072244000000000419e+00 -2.981893149221357397e-01
-7.015399999999999636e+00 1.260899999999999999e+01 -3.807800000000000296e+01 1.906178999999999846e+01 -2.858905642983421980e-01
-7.011000000000000121e+00 1.147000000000000064e+01 1.019700000000000051e+00 -6.973888000000000136e-03 2.446993487724082039e-01
-7.009900000000000020e+00 3.470900000000000318e+01 -1.492999999999999972e+01 -2.366757999999999917e+00 2.581286898086517650e-02
-6.994100000000000428e+00 4.037899999999999601e+00 -2.214999999999999858e+01 -1.140703999999999940e+00 -2.933031397138531893e-01
-6.994100000000000428e+00 4.246999999999999886e+00 -2.141400000000000148e+01 1.348608999999999947e+00 -2.961555175668745266e-01
-6.991399999999999615e+00 2.514000000000000057e+01 -6.098600000000000243e+00 -7.361408999999999869e-01 -2.274488433084790873e-01
-6.990999999999999659e+00 3.546899999999999942e+00 4.722999999999999865e+00 -3.299929000000000201e+01 -2.921199690326797827e-01
-6.989700000000000024e+00 3.189499999999999957e+01 -1.323399999999999999e+01 6.885908000000000584e+01 5.338373057836123120e-02
-6.987499999999999822e+00 1.742200000000000060e+01 -4.686200000000000188e+01 -7.529246999999999801e+00 -3.069890735748032617e-01
-6.987300000000000288e+00 2.390200000000000102e+01 -2.572500000000000142e+01 -6.490308999999999884e+00 -9.975435959327086377e-02
-6.987300000000000288e+00 2.530199999999999960e+01 -2.572500000000000142e+01 -2.919311000000000078e+01 -6.260501031119929116e-02
-6.982099999999999973e+00 8.220299999999999940e+00 -4.013799999999999812e+01 6.708612999999999715e+00 -3.087639660090090721e-01
-6.978100000000000414e+00 3.809600000000000097e+00 5.540899999999999714e+00 -2.375375999999999976e+01 -2.088904930301868357e-01
-6.977999999999999758e+00 1.443999999999999950e+01 -3.648599999999999710e+01 -7.603195999999999621e+00 -7.422052087142162746e-02
-6.975600000000000023e+00 3.610500000000000043e+00 -1.306300000000000061e+01 4.465203999999999951e+00 -3.200828247688233125e-02
-6.971799999999999997e+00 2.242699999999999960e+01 4.203999999999999737e+00 6.869932000000000372e+00 -1.464794169669925150e-01
-6.971700000000000230e+00 1.231499999999999950e+01 -4.171900000000000119e+01 7.822702999999999740e+00 -3.571579121559146364e-01
-6.970500000000000362e+00 6.472100000000000186e+00 -3.869700000000000273e+01 3.704985000000000195e+00 -3.232786402921686286e-01
-6.969000000000000306e+00 8.880699999999999150e+00 1.281900000000000084e+01 -1.244504999999999972e+00 -1.911477295771336904e-01
-6.969000000000000306e+00 1.035699999999999932e+01 1.350099999999999945e+01 4.944581999999999589e+00 -1.719773436942215461e-01
-6.966000000000000192e+00 2.036599999999999966e+01 2.597500000000000142e+00 -3.373058999999999918e-01 2.959634917970587198e-01
-6.965600000000000236e+00 3.367599999999999927e+00 -1.479499999999999993e+01 7.069311000000000345e-01 1.915592730067396804e-02
-6.958000000000000185e+00 2.752400000000000091e+01 -1.172100000000000009e+01 -9.722125999999999824e-01 -7.481236841165930795e-02
-6.958000000000000185e+00 2.752400000000000091e+01 -1.085599999999999987e+01 -2.149313999999999947e+00 -6.934794426319516869e-02
-6.957799999999999763e+00 5.280400000000000205e+00 -3.653300000000000214e+00 -1.455710000000000059e+00 4.273907063326646272e-01
-6.956800000000000317e+00 2.828900000000000148e+01 -2.980900000000000105e+01 1.503959999999999964e+00 -1.085977074831029343e-01
-6.956699999999999662e+00 2.754899999999999949e+01 -2.381599999999999895e+01 -3.061484999999999790e+00 -2.077392305872906575e-01
-6.956699999999999662e+00 2.859900000000000020e+01 -2.551599999999999824e+01 -4.917880000000000251e+00 -3.104464503348292048e-01
-6.956699999999999662e+00 2.859900000000000020e+01 -2.381599999999999895e+01 2.090358000000000160e+00 2.215202875932543655e-02
-6.956699999999999662e+00 2.946499999999999986e+01 -2.241600000000000037e+01 -1.377454000000000001e+01 -6.393388329282524707e-03
-6.956000000000000405e+00 4.026299999999999990e+00 -2.062900000000000134e+01 -9.217589000000000254e+00 -3.054504494617317212e-01
-6.951600000000000001e+00 4.001800000000000246e+00 -1.969300000000000139e+01 -2.230781999999999954e+01 -3.182316006045126655e-01
-6.950499999999999901e+00 4.817700000000000315e+00 3.909699999999999953e+00 -2.294566999999999979e+01 3.808539434477001967e-02
-6.950099999999999945e+00 3.232399999999999807e+01 -2.124099999999999966e+01 -2.622478999999999782e+00 -5.118924609942016035e-02
-6.948699999999999655e+00 1.020500000000000007e+01 -4.090299999999999869e+01 4.394778999999999769e+00 -2.845280617056598627e-01
-6.942599999999999660e+00 2.601599999999999824e+01 -7.313299999999999912e+00 -2.323547000000000029e+00 -2.276975023355328198e-01
-6.932999999999999829e+00 2.685500000000000043e+01 9.679000000000000270e+00 -3.918628000000000000e+00 -2.899323242582642068e-01
-6.932999999999999829e+00 3.703699999999999992e+00 -2.453999999999999915e+01 1.321482999999999963e+00 -1.409478037657639626e-01
-6.932699999999999640e+00 3.281899999999999817e+00 -1.224200000000000088e+01 -5.393902000000000418e-01 -3.928584646738843278e-02
-6.931000000000000050e+00 2.155199999999999960e+01 -4.755499999999999972e+01 -3.231183999999999834e+00 -1.858145205498679675e-01
-6.931000000000000050e+00 2.155199999999999960e+01 -4.576700000000000301e+01 -9.419534999999999769e+00 -1.799875064611485276e-01
-6.931000000000000050e+00 2.180600000000000094e+01 -4.666100000000000136e+01 -2.750872999999999902e+00 -1.835513487600784199e-01
-6.928099999999999703e+00 2.829500000000000171e+01 -3.075499999999999901e+01 -1.697575000000000056e+00 -1.053965802795123752e-01
-6.923099999999999810e+00 4.456299999999999706e+00 7.237099999999999866e+00 -4.978595999999999577e+00 -2.049931700835551374e-01
-6.913499999999999979e+00 2.273000000000000043e+01 3.504000000000000004e+00 5.920437999999999867e+00 -1.765353693651295075e-01
-6.911999999999999922e+00 2.696300000000000097e+01 -8.247500000000000497e+00 -1.023315999999999892e+00 -2.219966227054969432e-01
-6.907700000000000173e+00 2.793199999999999861e+01 -3.685999999999999943e+01 -4.021762999999999977e+00 -1.602645124051080006e-01
-6.907700000000000173e+00 2.945200000000000173e+01 -3.685999999999999943e+01 -6.413261999999999574e+00 -1.322698763628949170e-01
-6.907000000000000028e+00 6.640600000000000058e+00 1.296499999999999986e+00 -5.224435999999999858e+00 2.431386747548197891e-01
-6.905000000000000249e+00 1.742000000000000171e+01 1.388700000000000045e+01 -1.493712999999999980e+01 -2.687545859846166563e-01
-6.902199999999999669e+00 2.709299999999999997e+01 8.952799999999999869e+00 -3.869731000000000143e-01 -2.985450644269866949e-01
-6.900699999999999612e+00 2.858399999999999963e+01 -2.234499999999999886e+01 -1.390201000000000064e+01 1.769726047693842477e-03
-6.899300000000000210e+00 1.596899999999999942e+01 -4.319700000000000273e+01 3.413276000000000199e+00 -3.454982479225478520e-01
-6.897400000000000198e+00 1.706400000000000006e+01 1.315499999999999936e+01 -1.223639000000000010e+01 -2.762821702333709273e-01
-6.888700000000000045e+00 3.035200000000000031e+01 -1.401900000000000013e+01 3.649182999999999844e+00 4.408652230986358916e-02
-6.887400000000000411e+00 7.794100000000000250e+00 -3.944800000000000040e+01 3.298983000000000221e+00 -3.155012448769013433e-01
-6.886999999999999567e+00 2.383800000000000097e+01 -3.784100000000000019e+00 -6.498912000000000022e-01 1.430102969593048112e-01
-6.886999999999999567e+00 2.395599999999999952e+01 -2.936999999999999833e+00 -5.311500999999999806e+00 2.439680675398766818e-01
-6.886999999999999567e+00 2.404700000000000060e+01 -4.520199999999999996e+00 -1.110675000000000079e+00 2.072883729586968288e-02
-6.885900000000000354e+00 2.896799999999999997e+01 -2.466600000000000037e+01 1.217994999999999939e+00 -2.011672326894588525e-01
-6.884999999999999787e+00 3.276699999999999946e+00 -1.672500000000000142e+01 6.302638999999999880e-01 1.748270160334848902e-02
-6.884999999999999787e+00 3.276699999999999946e+00 -1.567500000000000071e+01 1.665702000000000016e+00 -2.840746068713874764e-02
-6.882299999999999862e+00 2.608500000000000085e+01 1.152599999999999980e+01 -6.612701999999999636e+00 -2.706522193623762673e-01
-6.875600000000000378e+00 3.270799999999999841e+01 -1.783699999999999974e+01 1.592993000000000059e+01 -3.661487006348859014e-02
-6.870000000000000107e+00 4.248999999999999666e+00 1.168200000000000038e+01 -4.627824000000000382e+00 2.869844642247679906e-02
-6.870000000000000107e+00 4.475999999999999979e+00 1.088299999999999912e+01 -5.349034999999999762e+00 2.864352400099107188e-02
-6.870000000000000107e+00 4.475999999999999979e+00 1.248099999999999987e+01 -1.452772000000000041e+01 2.062619031419126586e-02
-6.870000000000000107e+00 5.769000000000000128e+00 1.320199999999999996e+01 -3.886581999999999937e+01 -9.442320810291442157e-03
-6.870000000000000107e+00 7.304100000000000037e+00 1.276600000000000001e+01 -8.409404000000000323e+00 -6.192774525010957820e-02
-6.865899999999999892e+00 1.864999999999999858e+01 1.471000000000000085e+01 -7.440366000000000213e+01 -2.552400608950612382e-01
-6.865700000000000358e+00 2.204899999999999949e+01 1.034699999999999953e+00 5.021054000000000350e+00 3.350172010737171302e-01
-6.861699999999999910e+00 2.470700000000000074e+01 -3.706799999999999784e+01 4.327875999999999834e+00 -2.451493103507436100e-01
-6.857099999999999973e+00 2.878299999999999859e+00 -1.139199999999999946e+01 5.706122000000000104e-03 1.434497231655058533e-02
-6.856900000000000439e+00 5.099000000000000199e+00 -2.665800000000000125e+01 3.099603000000000108e+00 1.063964041691453297e-02
-6.849000000000000199e+00 2.306599999999999895e+01 2.729000000000000092e+00 2.786248000000000058e+00 1.055936484954537596e-01
-6.849000000000000199e+00 2.402400000000000091e+01 2.729000000000000092e+00 7.843944000000000472e-01 1.284610572901934977e-01
-6.849000000000000199e+00 2.488899999999999935e+01 2.729000000000000092e+00 4.051867000000000107e-01 -4.064834190102169231e-02
-6.845600000000000129e+00 3.927599999999999980e+00 -6.808500000000000441e+00 -1.062510999999999983e+00 6.917702538928206801e-02
-6.835899999999999643e+00 2.575600000000000023e+01 -6.524399999999999977e+00 -2.047753000000000156e+00 -2.280240465978612130e-01
-6.835300000000000153e+00 2.134600000000000009e+01 -4.844899999999999807e+01 -1.504599000000000020e+00 -1.869425985821004943e-01
-6.835099999999999731e+00 8.195000000000000284e+00 -3.853199999999999648e+01 2.112404000000000082e+01 -3.369460616614192161e-01
-6.831000000000000405e+00 1.528599999999999959e+01 1.190700000000000003e+01 -1.614106999999999914e+01 -1.309856324106137802e-02
-6.825099999999999945e+00 6.856700000000000017e+00 1.954399999999999915e+00 -1.165765999999999991e+01 2.728501099652854145e-01
-6.825099999999999945e+00 6.856700000000000017e+00 2.819599999999999884e+00 -2.162931999999999988e+01 -3.829941561033641667e-02
-6.823999999999999844e+00 2.731700000000000017e+01 1.069100000000000072e+01 -3.853384999999999838e+00 -2.835556273485558276e-01
-6.817700000000000315e+00 5.396399999999999864e+00 3.821000000000000174e+00 -1.239550999999999981e+01 3.633650117071134805e-02
-6.817700000000000315e+00 6.261700000000000266e+00 3.821000000000000174e+00 4.056456999999999979e+00 3.038921269288740595e-02
-6.817000000000000171e+00 3.845000000000000195e+00 -2.581800000000000139e+01 1.790821999999999914e+00 5.195855466578667980e-02
-6.813600000000000101e+00 2.558200000000000074e+01 -2.084199999999999875e+01 -1.258620999999999990e+00 1.302920668752900191e-01
-6.813100000000000378e+00 2.824599999999999866e+01 -2.150600000000000023e+01 -5.726718000000000330e+01 1.527651034884263404e-01
-6.812899999999999956e+00 1.433300000000000018e+01 -4.200999999999999801e+01 1.879005000000000036e+00 -2.783270519871187121e-01
-6.808399999999999785e+00 2.708800000000000097e+01 -1.388899999999999935e+01 1.317642000000000024e+01 1.420738924428865402e-01
-6.808399999999999785e+00 2.729700000000000060e+01 -1.462500000000000000e+01 1.057245999999999908e+00 1.183729929732493524e-01
-6.808399999999999785e+00 2.848799999999999955e+01 -1.528899999999999970e+01 -6.338868999999999865e+00 2.421557251215512158e-02
-6.801300000000000345e+00 2.089600000000000080e+01 1.397199999999999953e+01 2.905457999999999874e+00 -3.670172869835817142e-01
-6.796299999999999564e+00 1.343399999999999928e+01 -3.802799999999999869e+01 6.776297999999999710e+00 -3.666900441040864544e-01
-6.796100000000000030e+00 2.805000000000000071e+01 7.344199999999999839e+00 2.707424000000000053e+00 -5.647883923034461434e-02
-6.792099999999999582e+00 2.462699999999999889e+01 -2.149500000000000099e+01 -3.297721999999999820e+00 1.350515048415262542e-01
-6.783699999999999619e+00 2.757000000000000028e+01 -2.548100000000000165e+01 -2.294231999999999871e+01 -3.090873331658907097e-01
-6.782399999999999984e+00 2.736700000000000088e+01 4.150400000000000311e+00 3.853420999999999985e+00 -1.326416377482132758e-01
-6.781699999999999839e+00 3.556900000000000173e+00 -7.675799999999999734e+00 -2.413832999999999895e+00 2.745375893298637182e-01
-6.778999999999999915e+00 3.258899999999999864e+01 -1.680499999999999972e+01 1.097674999999999912e+01 -7.488346909230966450e-03
-6.777199999999999669e+00 4.812199999999999811e+00 7.887599999999999945e+00 -5.816932999999999687e+00 -1.969267986506499368e-01
-6.772000000000000242e+00 4.028699999999999726e+00 -5.765699999999999825e+00 -1.534570999999999907e+00 2.391418244615160782e-01
-6.772000000000000242e+00 2.500799999999999912e+01 1.258600000000000030e+01 -1.581184999999999974e+01 -2.596809609849585754e-01
-6.771099999999999675e+00 1.976200000000000045e+01 -5.016100000000000136e+01 -1.834046999999999983e+00 -1.886502584340356281e-01
-6.770199999999999996e+00 2.719399999999999906e+01 -2.461299999999999955e+01 -6.688144000000000311e+00 -5.215408937820795870e-02
-6.760699999999999932e+00 2.698799999999999955e+01 1.145100000000000051e+01 -3.350569000000000131e+01 -2.771489524965796702e-01
-6.755300000000000082e+00 7.404700000000000060e+00 -2.674299999999999855e+01 8.798520999999999148e+00 9.148594182227705318e-02
-6.754999999999999893e+00 2.818599999999999994e+01 5.434700000000000308e+00 3.449330999999999925e+00 -9.824631883961935930e-02
-6.754999999999999893e+00 2.818599999999999994e+01 6.485299999999999621e+00 4.946807999999999872e+00 -7.470076815203195719e-02
-6.754800000000000360e+00 2.794300000000000139e+01 -2.080600000000000094e+01 -1.384545999999999921e+01 1.231530819424856704e-01
-6.751699999999999591e+00 2.230699999999999861e+01 1.317999999999999972e+01 -3.993238999999999983e+00 -3.691167998030020492e-01
-6.749600000000000044e+00 1.415000000000000036e+01 -3.584799999999999898e+01 -1.011857000000000006e+01 -1.149296798773798561e-01
-6.744299999999999962e+00 3.084299999999999997e+01 -2.198799999999999955e+01 -8.530556000000000694e+00 -3.193211794378748164e-02
-6.742600000000000371e+00 3.285499999999999687e+01 -1.437599999999999945e+01 -2.602463999999999889e+00 3.317927307034947149e-02
-6.740800000000000125e+00 2.604700000000000060e+01 2.986299999999999955e+00 -5.850530999999999926e-01 -2.591357668276852988e-02
-6.738999999999999879e+00 7.286999999999999922e+00 -3.869700000000000273e+01 9.654294000000000153e+00 -3.208591902488149294e-01
-6.737199999999999633e+00 3.090299999999999869e+01 -1.362500000000000000e+01 2.871462000000000181e+00 4.751437262290977848e-02
-6.737099999999999866e+00 5.145100000000000229e+00 8.598900000000000432e+00 -1.015668999999999933e+01 9.629280445204519562e-03
-6.732000000000000206e+00 2.099200000000000088e+01 -4.933800000000000097e+01 -1.406408000000000058e+01 -1.876713287428341814e-01
-6.730400000000000382e+00 2.592200000000000060e+01 -3.643500000000000227e+01 -1.907696000000000058e+00 -2.182584765994075027e-01
-6.725999999999999979e+00 8.996000000000000441e+00 -4.007399999999999807e+01 9.106469000000000369e-01 -3.015151634541404224e-01
-6.725999999999999979e+00 8.996000000000000441e+00 -3.852400000000000091e+01 4.810703999999999780e+01 -3.156473359916274757e-01
-6.725500000000000256e+00 8.213599999999999568e+00 -3.055300000000000082e+01 -4.099745999999999668e+00 4.884279565880420004e-02
-6.724000000000000199e+00 2.470700000000000074e+01 -5.398600000000000065e+00 8.578576999999999453e-01 4.970030885319300096e-02
-6.722000000000000419e+00 9.788000000000000256e+00 -3.433500000000000085e+01 -8.118684999999999929e-01 -3.079764092638706541e-02
-6.722000000000000419e+00 1.108099999999999952e+01 -3.505599999999999739e+01 3.483451000000000186e-01 3.166044375541859912e-02
-6.722000000000000419e+00 1.261599999999999966e+01 -3.461999999999999744e+01 -3.891201000000000132e+00 -1.205962627533118531e-01
