1.105600000000000023e+02 8.465000000000000568e+01 -1.701800000000000068e+02 -1.930827000000000027e+01 -9.589117405370833902e-02
1.105699999999999932e+02 7.563899999999999579e+01 -1.633600000000000136e+02 4.791851000000000305e+00 -1.070461827135057442e-01
1.105799999999999983e+02 7.854399999999999693e+01 -1.726100000000000136e+02 -8.041788999999999632e+00 -8.909996776901027427e-02
1.105799999999999983e+02 8.325600000000000023e+01 -1.854699999999999989e+02 -1.766462999999999894e+01 -2.894016852933561923e-01
1.105799999999999983e+02 7.183199999999999363e+01 -1.584000000000000057e+02 -3.883596999999999966e+00 7.285473485942396688e-02
1.105900000000000034e+02 8.687900000000000489e+01 -1.619499999999999886e+02 9.216599999999999682e+00 -9.540040184831551084e-02
1.105900000000000034e+02 8.148999999999999488e+01 -1.640600000000000023e+02 -3.320161999999999836e+00 -9.651021510383825386e-02
1.105900000000000034e+02 8.235599999999999454e+01 -1.640600000000000023e+02 -3.021803999999999935e+00 -9.634678863882187305e-02
1.105999999999999943e+02 8.605599999999999739e+01 -1.797100000000000080e+02 -2.211278000000000077e+01 -2.368812820462321833e-01
1.106099999999999994e+02 8.782200000000000273e+01 -1.804499999999999886e+02 -2.350966999999999985e+01 -2.998735331931478565e-01
1.106299999999999955e+02 8.813299999999999557e+01 -1.611100000000000136e+02 1.696176000000000172e+01 -1.061670875360533756e-01
1.106299999999999955e+02 8.813299999999999557e+01 -1.601599999999999966e+02 9.050749000000000422e+01 -1.062722153982526285e-01
1.106400000000000006e+02 8.605599999999999739e+01 -1.772599999999999909e+02 -3.873057000000000194e+00 -1.192254456465506041e-01
1.106400000000000006e+02 7.534099999999999397e+01 -1.684900000000000091e+02 -2.240581999999999852e+01 5.225362068062796433e-02
1.106400000000000006e+02 8.780400000000000205e+01 -1.820699999999999932e+02 -1.134129000000000076e+01 -3.767610117732487218e-01
1.106400000000000006e+02 7.394599999999999795e+01 -1.692199999999999989e+02 -1.387917000000000023e+01 5.027306087455379879e-02
1.106500000000000057e+02 8.118699999999999761e+01 -1.647599999999999909e+02 -2.773067000000000171e+00 -9.659991302988366058e-02
1.106500000000000057e+02 7.620799999999999841e+01 -1.752299999999999898e+02 2.741176999999999850e-02 -1.197191049505574451e-01
1.106500000000000057e+02 8.575300000000000011e+01 -1.790099999999999909e+02 -7.066296999999999606e+00 -2.382959773796874958e-01
1.106500000000000057e+02 8.114700000000000557e+01 -1.822199999999999989e+02 -4.326373000000000246e+00 -2.266467539112455576e-01
1.106599999999999966e+02 8.590500000000000114e+01 -1.782500000000000000e+02 1.695200000000000040e+00 -1.191071622113440559e-01
1.106700000000000017e+02 8.216700000000000159e+01 -1.567700000000000102e+02 -1.702755999999999936e+00 -9.628103656054549930e-02
1.106700000000000017e+02 7.159300000000000352e+01 -1.573499999999999943e+02 5.964644999999999975e+00 7.293595742352258771e-02
1.106700000000000017e+02 7.702599999999999625e+01 -1.681699999999999875e+02 -8.758585000000000065e+00 -1.066518945033668314e-01
1.106700000000000017e+02 7.186899999999999977e+01 -1.593199999999999932e+02 -5.035819000000000045e+00 7.246886818064943170e-02
1.106800000000000068e+02 7.771299999999999386e+01 -1.543199999999999932e+02 -2.920186999999999955e+01 -9.672258188617774421e-02
1.106899999999999977e+02 8.907500000000000284e+01 -1.812500000000000000e+02 -2.200778999999999996e+01 -2.011597751494906827e-01
1.106899999999999977e+02 8.090300000000000580e+01 -1.559600000000000080e+02 2.289312999999999931e+00 -9.642926211809207948e-02
1.107000000000000028e+02 8.628700000000000614e+01 -1.764900000000000091e+02 -1.525840999999999958e+01 -9.543496046633144492e-02
1.107000000000000028e+02 8.703799999999999670e+01 -1.798799999999999955e+02 -3.350766999999999740e+01 -2.358441340853400514e-01
1.107000000000000028e+02 7.506900000000000261e+01 -1.757500000000000000e+02 1.423774999999999902e-01 -1.197266619615694055e-01
1.107000000000000028e+02 8.144299999999999784e+01 -1.832800000000000011e+02 -6.791572999999999638e+00 -2.249605764415874842e-01
1.107099999999999937e+02 7.191200000000000614e+01 -1.599099999999999966e+02 -4.326512000000000135e+00 7.223875026911515118e-02
1.107199999999999989e+02 8.231300000000000239e+01 -1.725200000000000102e+02 -7.995581999999999745e+00 -9.656762814661978833e-02
1.107199999999999989e+02 7.840099999999999625e+01 -1.690900000000000034e+02 5.481474000000000402e+00 -1.066068391397889253e-01
1.107199999999999989e+02 8.059099999999999397e+01 -1.656399999999999864e+02 -3.716670000000000140e+00 -9.675836655627076399e-02
1.107199999999999989e+02 7.348099999999999454e+01 -1.756100000000000136e+02 1.741803000000000168e+01 5.069885960767916977e-02
1.107300000000000040e+02 8.375700000000000500e+01 -1.710900000000000034e+02 -9.070221999999999341e+00 -9.626141042620839361e-02
1.107300000000000040e+02 8.554300000000000637e+01 -1.710900000000000034e+02 -1.111599000000000004e+01 -9.561416228180832921e-02
1.107399999999999949e+02 8.551800000000000068e+01 -1.619199999999999875e+02 8.624693999999999861e+00 -9.571324453252189057e-02
1.107500000000000000e+02 8.874599999999999511e+01 -1.820099999999999909e+02 -1.016395999999999944e+01 -2.641697464012401908e-01
1.107500000000000000e+02 8.874599999999999511e+01 -1.804900000000000091e+02 -1.677419000000000082e+01 -1.927540049883197659e-01
1.107600000000000051e+02 8.745499999999999829e+01 -1.756399999999999864e+02 -1.187904999999999944e+01 -9.470249956040902028e-02
1.107600000000000051e+02 8.745499999999999829e+01 -1.731800000000000068e+02 -8.301027999999999452e+01 -9.471057714297384522e-02
1.107600000000000051e+02 7.064499999999999602e+01 -1.670099999999999909e+02 -4.085920999999999914e+00 4.583297362633403232e-02
1.107699999999999960e+02 7.142000000000000171e+01 -1.564000000000000057e+02 1.305801000000000045e-01 7.304227675211773241e-02
1.107699999999999960e+02 7.152500000000000568e+01 -1.538300000000000125e+02 1.084984000000000037e+01 7.397314404073399019e-02
1.107800000000000011e+02 8.162000000000000455e+01 -1.654900000000000091e+02 -3.395153000000000088e+00 -9.656731528526216191e-02
1.107900000000000063e+02 8.385099999999999909e+01 -1.701800000000000068e+02 -7.114250000000000185e+00 -9.620358584561033988e-02
1.107900000000000063e+02 8.544899999999999807e+01 -1.701800000000000068e+02 -1.820653000000000077e+01 -9.565330827716059248e-02
1.108100000000000023e+02 7.913500000000000512e+01 -1.702700000000000102e+02 -1.736133999999999844e+01 -1.064712616904458231e-01
1.108100000000000023e+02 7.945999999999999375e+01 -1.710099999999999909e+02 -4.496685000000000088e+01 -8.954710693562797919e-02
1.108100000000000023e+02 7.957099999999999795e+01 -1.718100000000000023e+02 -2.990962999999999994e+01 -8.940225614286284594e-02
1.108100000000000023e+02 7.106499999999999773e+01 -1.723899999999999864e+02 4.285301999999999722e+00 -3.018749357090307756e-02
1.108199999999999932e+02 8.203700000000000614e+01 -1.634099999999999966e+02 -3.706004000000000076e+00 -9.642341997272829701e-02
1.108199999999999932e+02 8.203700000000000614e+01 -1.625500000000000114e+02 -4.464269999999999960e+00 -9.640134254133951586e-02
1.108400000000000034e+02 7.306699999999999307e+01 -1.537299999999999898e+02 1.876905000000000001e+01 7.557370829944153046e-02
1.108499999999999943e+02 7.239900000000000091e+01 -1.731500000000000057e+02 6.241005000000000358e+00 4.809817035098794269e-02
1.108499999999999943e+02 7.260800000000000409e+01 -1.738799999999999955e+02 8.337795999999999541e-01 4.853963951180730041e-02
1.108499999999999943e+02 8.512000000000000455e+01 -1.694199999999999875e+02 -1.153283000000000058e+01 -9.577574357061459376e-02
1.108599999999999994e+02 8.378300000000000125e+01 -1.613199999999999932e+02 3.861327999999999872e+00 -9.607478169631537834e-02
1.108599999999999994e+02 8.192300000000000182e+01 -1.647599999999999909e+02 -2.568423999999999818e+00 -9.649291178613020326e-02
1.108599999999999994e+02 8.440500000000000114e+01 -1.578499999999999943e+02 -5.609439000000000508e-01 -9.598342913159201018e-02
1.108599999999999994e+02 7.989700000000000557e+01 -1.558899999999999864e+02 2.570197999999999983e+00 -9.655666358139759764e-02
1.108700000000000045e+02 7.688100000000000023e+01 -1.645300000000000011e+02 -1.200652999999999970e+00 -6.640727387490853728e-02
1.108700000000000045e+02 8.258599999999999852e+01 -1.848400000000000034e+02 -3.781349000000000160e+01 -2.916980794606748306e-01
1.108799999999999955e+02 7.493899999999999295e+01 -1.633100000000000023e+02 8.670316000000000134e-01 7.509266520727023164e-02
1.108799999999999955e+02 8.603700000000000614e+01 -1.579399999999999977e+02 2.239819999999999922e+01 -1.064026467210600763e-01
1.108900000000000006e+02 8.646899999999999409e+01 -1.725800000000000125e+02 -3.875081000000000220e+00 -9.525543433051038289e-02
1.108900000000000006e+02 7.031100000000000705e+01 -1.708300000000000125e+02 -2.178796999999999873e+00 -3.125692792189710412e-02
1.109000000000000057e+02 8.094899999999999807e+01 -1.786299999999999955e+02 -6.074910000000000032e+00 -1.185729132806883079e-01
1.109000000000000057e+02 8.094899999999999807e+01 -1.776899999999999977e+02 -6.434379999999999988e+00 -1.188332929202376986e-01
1.109000000000000057e+02 7.315300000000000580e+01 -1.692100000000000080e+02 -1.129325000000000045e+01 4.883120352457721858e-02
1.109099999999999966e+02 6.759999999999999432e+01 -1.600099999999999909e+02 -4.240160999999999625e+00 4.413626789815360690e-02
1.109099999999999966e+02 8.099500000000000455e+01 -1.813700000000000045e+02 -3.014043000000000028e+00 -2.283550224119555438e-01
1.109099999999999966e+02 7.306600000000000250e+01 -1.634199999999999875e+02 -3.165078999999999976e+00 4.836771705277845973e-02
1.109099999999999966e+02 7.140099999999999625e+01 -1.609699999999999989e+02 -2.653258000000000116e+00 7.094716166110291711e-02
1.109099999999999966e+02 8.116100000000000136e+01 -1.794699999999999989e+02 -4.818673999999999680e+00 -2.302602051846206199e-01
1.109200000000000017e+02 8.606999999999999318e+01 -1.620000000000000000e+02 1.067661999999999978e+01 -9.561512420578933968e-02
1.109200000000000017e+02 7.155700000000000216e+01 -1.685099999999999909e+02 -4.628957999999999906e+00 4.664580985872004287e-02
1.109200000000000017e+02 8.766599999999999682e+01 -1.799900000000000091e+02 -1.367923000000000044e+01 -2.354559959257376822e-01
1.109300000000000068e+02 8.765399999999999636e+01 -1.618899999999999864e+02 6.170748999999999818e+00 -9.526669193931611157e-02
1.109300000000000068e+02 8.741200000000000614e+01 -1.588700000000000045e+02 8.910306999999999533e+00 -1.063921879585420227e-01
1.109300000000000068e+02 8.396699999999999875e+01 -1.693799999999999955e+02 -6.317808999999999564e+00 -9.616697239637853056e-02
1.109300000000000068e+02 7.911199999999999477e+01 -1.650500000000000114e+02 5.802405000000000479e-01 -6.629736499784211201e-02
1.109399999999999977e+02 7.784300000000000352e+01 -1.727599999999999909e+02 -1.981934000000000040e+01 -8.900689428898997391e-02
1.109399999999999977e+02 7.567100000000000648e+01 -1.552400000000000091e+02 1.247108000000000061e+01 -6.620556475916621053e-02
1.109399999999999977e+02 7.653600000000000136e+01 -1.552400000000000091e+02 -9.393568000000000140e+00 -6.616968923012102322e-02
1.109399999999999977e+02 7.735399999999999920e+01 -1.552400000000000091e+02 -1.624331000000000103e+01 -9.680133524675545165e-02
1.109399999999999977e+02 7.821899999999999409e+01 -1.552400000000000091e+02 -1.737415000000000020e+01 -9.672059568401333851e-02
1.109500000000000028e+02 7.120099999999999341e+01 -1.678199999999999932e+02 -4.861302000000000234e+00 4.621127642705418620e-02
1.109500000000000028e+02 7.869299999999999784e+01 -1.556399999999999864e+02 -5.042016000000000275e+00 -9.668523873005777092e-02
1.109599999999999937e+02 7.140000000000000568e+01 -1.600699999999999932e+02 -2.913940999999999892e+00 7.137046973923785731e-02
1.109599999999999937e+02 7.140000000000000568e+01 -1.585600000000000023e+02 -2.770360000000000156e+00 7.206836610320274672e-02
1.109699999999999989e+02 7.149500000000000455e+01 -1.619799999999999898e+02 -2.663910000000000000e+00 4.681602436513423310e-02
1.109800000000000040e+02 8.215900000000000603e+01 -1.663300000000000125e+02 -3.236912999999999929e+00 -9.652417204085371460e-02
1.109800000000000040e+02 7.786100000000000421e+01 -1.645699999999999932e+02 8.062407000000000323e+00 -6.635338970340590170e-02
1.109800000000000040e+02 8.404399999999999693e+01 -1.851299999999999955e+02 -1.191840000000000011e+01 -2.899324090316511837e-01
1.109800000000000040e+02 8.498399999999999466e+01 -1.851299999999999955e+02 -1.238815999999999917e+01 -2.885351591212226285e-01
1.109899999999999949e+02 8.112399999999999523e+01 -1.804199999999999875e+02 6.602954000000000434e+00 -2.295669913204696488e-01
1.109899999999999949e+02 9.348699999999999477e+01 -1.661699999999999875e+02 -1.307187000000000054e+01 -1.057367986844915675e-01
1.109899999999999949e+02 8.268600000000000705e+01 -1.572700000000000102e+02 1.766613999999999907e+00 -9.624573537636230136e-02
1.110000000000000000e+02 7.599699999999999989e+01 -1.680699999999999932e+02 -1.668230000000000146e+01 5.284020278997716286e-02
1.110000000000000000e+02 7.113200000000000500e+01 -1.593199999999999932e+02 -6.556204000000000143e+00 7.138167584314925040e-02
1.110100000000000051e+02 8.278799999999999670e+01 -1.717500000000000000e+02 -1.935003999999999991e+01 -9.667406018975710502e-02
1.110100000000000051e+02 7.022599999999999909e+01 -1.695699999999999932e+02 -2.983638000000000012e+00 -3.239716593631120772e-02
1.110199999999999960e+02 6.975100000000000477e+01 -1.670099999999999909e+02 -4.367925999999999753e+00 -3.381200985387550206e-02
1.110199999999999960e+02 7.153900000000000148e+01 -1.670099999999999909e+02 -6.068221999999999561e+00 4.656792118152304483e-02
1.110199999999999960e+02 7.300199999999999534e+01 -1.748300000000000125e+02 2.647228000000000137e+00 4.917770644818008491e-02
1.110199999999999960e+02 8.134399999999999409e+01 -1.565500000000000114e+02 8.471016000000000190e+01 -9.641505341870393320e-02
1.110300000000000011e+02 7.508100000000000307e+01 -1.549199999999999875e+02 3.331284000000000134e+01 -6.622425749138806383e-02
1.110300000000000011e+02 8.251399999999999579e+01 -1.654900000000000091e+02 -1.365523000000000042e+00 -9.642422058432509324e-02
1.110400000000000063e+02 7.787600000000000477e+01 -1.682400000000000091e+02 -1.585369000000000028e+01 -1.067170848091173879e-01
1.110400000000000063e+02 7.437800000000000011e+01 -1.687299999999999898e+02 -1.540277999999999992e+01 5.044131035357436732e-02
1.110499999999999972e+02 8.560599999999999454e+01 -1.834600000000000080e+02 -3.045532000000000039e+01 -2.899559627987570165e-01
1.110499999999999972e+02 7.589900000000000091e+01 -1.756500000000000057e+02 -7.141313000000000244e-01 -1.197416678101409782e-01
1.110499999999999972e+02 8.792499999999999716e+01 -1.748799999999999955e+02 -3.129863999999999891e+01 -9.445655598022204003e-02
1.110499999999999972e+02 8.792499999999999716e+01 -1.739399999999999977e+02 -4.858046000000000220e+01 -9.447437501721475672e-02
1.110499999999999972e+02 8.177100000000000080e+01 -1.734000000000000057e+02 -1.140324000000000026e+01 -9.618868781995870698e-02
1.110499999999999972e+02 8.247100000000000364e+01 -1.670600000000000023e+02 -2.029371999999999954e+00 -9.649795015357701122e-02
1.110499999999999972e+02 7.901699999999999591e+01 -1.698400000000000034e+02 -6.930093000000000281e+00 -1.065530473451991034e-01
1.110699999999999932e+02 8.155599999999999739e+01 -1.725900000000000034e+02 -8.929116999999999749e+00 -9.634761433438501776e-02
1.110699999999999932e+02 7.104600000000000648e+01 -1.555699999999999932e+02 2.250981000000000165e+01 7.279540696993577753e-02
1.110699999999999932e+02 7.104600000000000648e+01 -1.546100000000000136e+02 1.391344999999999921e+01 7.312342731649631999e-02
1.110699999999999932e+02 7.479500000000000171e+01 -1.680099999999999909e+02 -1.482198999999999955e+01 5.090201806348263608e-02
1.110699999999999932e+02 7.422299999999999898e+01 -1.757800000000000011e+02 2.215014000000000038e+00 5.187558158532060842e-02
1.110900000000000034e+02 7.012000000000000455e+01 -1.678600000000000136e+02 -5.189517999999999631e+00 -3.361946293397597568e-02
1.110900000000000034e+02 7.012000000000000455e+01 -1.661599999999999966e+02 -3.006971000000000060e+00 4.504767937968520014e-02
1.110900000000000034e+02 7.117000000000000171e+01 -1.661599999999999966e+02 -2.977729000000000070e+00 4.613393410740878470e-02
1.110900000000000034e+02 7.902599999999999625e+01 -1.721899999999999977e+02 -1.755150000000000077e+01 -8.926870135371206549e-02
1.110900000000000034e+02 8.246999999999999886e+01 -1.641100000000000136e+02 -2.391690999999999789e+00 -9.639978837504584175e-02
1.110900000000000034e+02 8.246999999999999886e+01 -1.618499999999999943e+02 -1.945408999999999888e-01 -9.634577058014492934e-02
1.110900000000000034e+02 7.050300000000000011e+01 -1.686699999999999875e+02 -5.074498000000000175e+00 4.519245922951127536e-02
1.110900000000000034e+02 8.660500000000000398e+01 -1.793899999999999864e+02 -3.226670000000000016e+01 -2.380084152043559220e-01
1.110900000000000034e+02 8.216200000000000614e+01 -1.760099999999999909e+02 -7.247415000000000163e+00 -8.867236747020171284e-02
1.110999999999999943e+02 8.547100000000000364e+01 -1.844000000000000057e+02 -5.130344999999999800e+01 -2.891959823887843006e-01
1.111099999999999994e+02 8.109499999999999886e+01 -1.663400000000000034e+02 -4.216960000000000264e+00 -9.676626441409522106e-02
1.111099999999999994e+02 7.229999999999999716e+01 -1.537700000000000102e+02 4.125379000000000218e+01 7.464714239623733427e-02
1.111200000000000045e+02 8.464400000000000546e+01 -1.614600000000000080e+02 1.269899999999999984e+01 -9.594304093665018129e-02
1.111299999999999955e+02 8.281799999999999784e+01 -1.678199999999999932e+02 -1.952871999999999941e+00 -9.646324220161711649e-02
1.111299999999999955e+02 8.188500000000000512e+01 -1.718300000000000125e+02 -1.279381000000000057e+01 -9.662986042081503357e-02
1.111299999999999955e+02 9.728799999999999670e+01 -1.726899999999999977e+02 7.770633000000000123e+00 -9.492022946769665404e-02
1.111299999999999955e+02 6.680100000000000193e+01 -1.600099999999999909e+02 -7.946539999999999715e+00 -3.484655053591517032e-02
1.111299999999999955e+02 6.839900000000000091e+01 -1.600099999999999909e+02 -1.179908999999999963e+01 4.450621653953628493e-02
1.111299999999999955e+02 7.690399999999999636e+01 -1.747599999999999909e+02 7.534862000000000393e+00 -1.198194377755674445e-01
1.111400000000000006e+02 7.366599999999999682e+01 -1.541399999999999864e+02 3.836198999999999870e+01 7.602566089404841354e-02
1.111400000000000006e+02 7.610500000000000398e+01 -1.643600000000000136e+02 -1.509773000000000032e+00 -1.070298101762093834e-01
1.111500000000000057e+02 7.054000000000000625e+01 -1.715399999999999920e+02 -7.883040000000000047e-01 -3.100158938313834003e-02
1.111599999999999966e+02 8.308299999999999841e+01 -1.613799999999999955e+02 4.241109999999999935e+00 -9.623916580943300825e-02
1.111599999999999966e+02 8.305700000000000216e+01 -1.713499999999999943e+02 -1.114835000000000065e+01 -9.660306046116075296e-02
1.111700000000000017e+02 7.442000000000000171e+01 -1.672599999999999909e+02 -8.576873000000000857e+00 5.012636599991539266e-02
1.111800000000000068e+02 8.827599999999999625e+01 -1.825500000000000114e+02 -1.118656000000000006e+01 -2.614006089327609028e-01
1.111800000000000068e+02 8.673099999999999454e+01 -1.730600000000000023e+02 -6.380892999999999660e+01 -9.519447710960002307e-02
1.111800000000000068e+02 7.201000000000000512e+01 -1.629499999999999886e+02 -2.588706000000000174e+00 4.708527666512378473e-02
1.111800000000000068e+02 8.465000000000000568e+01 -1.688400000000000034e+02 -1.015018000000000065e+01 -9.598931848249873944e-02
1.111899999999999977e+02 8.141899999999999693e+01 -1.769300000000000068e+02 -1.486536000000000080e+01 -1.190219666065724241e-01
1.111899999999999977e+02 7.198999999999999488e+01 -1.678100000000000023e+02 -7.235802999999999763e+00 4.691100795623966146e-02
1.112000000000000028e+02 6.712999999999999545e+01 -1.607700000000000102e+02 -4.024263000000000368e+00 -3.486831647143741331e-02
1.112000000000000028e+02 6.712999999999999545e+01 -1.592500000000000000e+02 -6.422369999999999912e+00 -3.523147485942006163e-02
1.112000000000000028e+02 6.806999999999999318e+01 -1.607700000000000102e+02 -6.345108999999999888e+00 4.410198214158107116e-02
1.112000000000000028e+02 6.806999999999999318e+01 -1.592500000000000000e+02 -1.625268000000000157e+01 4.436892565272169270e-02
1.112000000000000028e+02 7.715399999999999636e+01 -1.739399999999999977e+02 1.431943000000000055e+01 -1.199290358254158917e-01
1.112199999999999989e+02 9.268800000000000239e+01 -1.661699999999999875e+02 -5.222572000000000436e+00 -1.057045107860563604e-01
1.112199999999999989e+02 9.428600000000000136e+01 -1.661699999999999875e+02 -8.499444000000000443e+00 -1.058554216856086583e-01
1.112199999999999989e+02 8.679099999999999682e+01 -1.760399999999999920e+02 -1.794695000000000107e+01 -9.525914643285975092e-02
1.112199999999999989e+02 8.950600000000000023e+01 -1.817199999999999989e+02 -1.599455000000000027e+01 -1.899976680647178229e-01
1.112199999999999989e+02 8.950600000000000023e+01 -1.807800000000000011e+02 -2.262301000000000073e+01 -1.933856321641743148e-01
1.112199999999999989e+02 8.335999999999999943e+01 -1.706500000000000057e+02 -7.771808000000000050e+00 -9.648018318224131640e-02
1.112199999999999989e+02 8.335999999999999943e+01 -1.697199999999999989e+02 -6.951516999999999946e+00 -9.642785485457353034e-02
1.112199999999999989e+02 8.522700000000000387e+01 -1.578799999999999955e+02 5.069671999999999734e+00 -9.589040289533887207e-02
1.112199999999999989e+02 7.940399999999999636e+01 -1.705800000000000125e+02 -2.772272999999999854e+01 -1.064642464208419292e-01
1.112399999999999949e+02 8.113700000000000045e+01 -1.720800000000000125e+02 -7.656124000000000152e+00 -9.636819522955444861e-02
1.112399999999999949e+02 8.162000000000000455e+01 -1.671200000000000045e+02 -4.163257999999999903e+00 -9.672578369610042304e-02
1.112500000000000000e+02 8.688700000000000045e+01 -1.580200000000000102e+02 1.906628999999999863e+01 -1.064700287232191733e-01
1.112500000000000000e+02 8.185800000000000409e+01 -1.842400000000000091e+02 -1.155377000000000010e+01 -2.242960783118475576e-01
1.112600000000000051e+02 8.184900000000000375e+01 -1.678000000000000114e+02 -3.976151999999999909e+00 -9.671807208542897161e-02
1.112699999999999960e+02 8.595900000000000318e+01 -1.706800000000000068e+02 -1.982423999999999964e+01 -9.556075942191544215e-02
1.112800000000000011e+02 9.301699999999999591e+01 -1.669300000000000068e+02 -4.857755000000000045e+00 -1.055578262089418712e-01
1.112800000000000011e+02 9.301699999999999591e+01 -1.654099999999999966e+02 -4.713356000000000101e+00 -1.059095428921324328e-01
1.112800000000000011e+02 9.395699999999999363e+01 -1.669300000000000068e+02 -4.908840999999999788e+00 -1.056479111101275292e-01
1.112800000000000011e+02 9.395699999999999363e+01 -1.654099999999999966e+02 -1.330054999999999943e+01 -1.059976227830664863e-01
1.112800000000000011e+02 8.231399999999999295e+01 -1.686299999999999955e+02 -5.425625000000000142e+00 -9.666121263972196620e-02
1.112800000000000011e+02 8.332200000000000273e+01 -1.686299999999999955e+02 -4.876790999999999876e+00 -9.639824458551746189e-02
1.112800000000000011e+02 8.332200000000000273e+01 -1.670099999999999909e+02 -1.929247000000000045e-01 -9.633289482726806185e-02
1.112999999999999972e+02 7.996800000000000352e+01 -1.713799999999999955e+02 -1.304420999999999964e+01 -8.957361551156031720e-02
1.112999999999999972e+02 7.271999999999999886e+01 -1.687199999999999989e+02 -1.140587999999999980e+01 4.775729657477236628e-02
1.112999999999999972e+02 7.358599999999999852e+01 -1.687199999999999989e+02 -1.150317000000000078e+01 4.898761947079606494e-02
1.112999999999999972e+02 7.529800000000000182e+01 -1.672500000000000000e+02 -8.805771999999999267e+00 5.127228513306205521e-02
1.113100000000000023e+02 8.357800000000000296e+01 -1.679799999999999898e+02 -2.209468000000000210e+00 -9.630689239934836499e-02
1.113100000000000023e+02 8.603900000000000148e+01 -1.827599999999999909e+02 -3.734450999999999965e+01 -2.907410332089663263e-01
1.113199999999999932e+02 8.587999999999999545e+01 -1.697199999999999989e+02 -1.896584999999999965e+01 -9.559908586448591372e-02
1.113199999999999932e+02 8.576900000000000546e+01 -1.714499999999999886e+02 -1.595210999999999935e+01 -9.566223974842144595e-02
1.113199999999999932e+02 8.597799999999999443e+01 -1.721899999999999977e+02 -1.173499999999999943e+01 -9.558533712639487312e-02
1.113199999999999932e+02 8.352599999999999625e+01 -1.575699999999999932e+02 2.353797000000000139e+00 -9.616120089794327752e-02
1.113299999999999983e+02 8.149500000000000455e+01 -1.685999999999999943e+02 -5.653258000000000116e+00 -9.686188271227898217e-02
1.113299999999999983e+02 8.637099999999999511e+01 -1.785800000000000125e+02 -6.392623999999999640e+00 -1.191794301601844658e-01
1.113299999999999983e+02 8.722599999999999909e+01 -1.793400000000000034e+02 -1.609315000000000140e+01 -2.381273616912848445e-01
1.113400000000000034e+02 7.610399999999999920e+01 -1.557299999999999898e+02 -9.256783999999999846e-02 -6.619391036631104563e-02
1.113400000000000034e+02 7.778600000000000136e+01 -1.557299999999999898e+02 -7.538035999999999959e+00 -9.681078356978616017e-02
1.113499999999999943e+02 7.912600000000000477e+01 -1.561299999999999955e+02 9.378095000000000070e+00 -9.668946403893509400e-02
1.113499999999999943e+02 7.578799999999999670e+01 -1.676399999999999864e+02 -1.219866999999999990e+01 5.206805037900110594e-02
1.113599999999999994e+02 8.056900000000000261e+01 -1.564799999999999898e+02 1.710672999999999888e+01 -9.653867125410882377e-02
1.113599999999999994e+02 7.241700000000000159e+01 -1.680200000000000102e+02 -8.091979999999999507e+00 4.727306861000498545e-02
1.113599999999999994e+02 7.388899999999999579e+01 -1.680200000000000102e+02 -8.293751999999999569e+00 4.928778248038034882e-02
1.113599999999999994e+02 9.647299999999999898e+01 -1.726899999999999977e+02 -1.942022999999999944e-01 -9.448373806152700338e-02
1.113599999999999994e+02 9.810299999999999443e+01 -1.726899999999999977e+02 1.918255000000000043e+00 -9.504544636055103912e-02
1.113599999999999994e+02 7.981199999999999761e+01 -1.653100000000000023e+02 -3.216368999999999811e+00 -9.697829788781865690e-02
1.113599999999999994e+02 7.189199999999999591e+01 -1.662299999999999898e+02 -3.433263999999999871e+00 4.666818360361061485e-02
1.113700000000000045e+02 8.189900000000000091e+01 -1.571999999999999886e+02 1.311689999999999934e+01 -9.638764224628512678e-02
1.113700000000000045e+02 7.735200000000000387e+01 -1.731599999999999966e+02 1.045855000000000068e+01 -8.888197045113151173e-02
1.113799999999999955e+02 7.096899999999999409e+01 -1.614600000000000080e+02 -2.771830000000000016e+00 4.608239825041556686e-02
1.113799999999999955e+02 8.452400000000000091e+01 -1.844000000000000057e+02 -6.185065999999999775e+01 -2.913105122252489521e-01
1.113900000000000006e+02 6.990399999999999636e+01 -1.690500000000000114e+02 -4.236265999999999643e+00 -3.291969818351126592e-02
1.113900000000000006e+02 8.550400000000000489e+01 -1.616100000000000136e+02 7.881363000000000341e+00 -9.580183672035115505e-02
1.113900000000000006e+02 7.832599999999999341e+01 -1.722500000000000000e+02 -3.569845000000000113e+01 -8.918841787533658694e-02
1.113900000000000006e+02 8.154200000000000159e+01 -1.832100000000000080e+02 -5.724879999999999747e+00 -2.267732240574196201e-01
1.113900000000000006e+02 7.377100000000000080e+01 -1.640200000000000102e+02 5.778883000000000436e+00 4.877319093678526840e-02
1.113900000000000006e+02 7.214900000000000091e+01 -1.672599999999999909e+02 -6.195801000000000336e+00 4.690977154896269763e-02
1.113900000000000006e+02 7.362099999999999511e+01 -1.672599999999999909e+02 -6.683215999999999823e+00 4.880923833786843247e-02
1.114000000000000057e+02 6.894100000000000250e+01 -1.673600000000000136e+02 -4.538357999999999670e+00 -3.337230528344113656e-02
1.114000000000000057e+02 8.687900000000000489e+01 -1.621899999999999977e+02 7.280898999999999566e-01 -9.548695711407871600e-02
1.114000000000000057e+02 8.819799999999999329e+01 -1.614499999999999886e+02 2.157422000000000040e+01 -1.062184320415701932e-01
1.114000000000000057e+02 8.819799999999999329e+01 -1.598199999999999932e+02 3.273344000000000165e+01 -1.063945231488616361e-01
1.114000000000000057e+02 8.842900000000000205e+01 -1.606399999999999864e+02 1.502228000000000030e+01 -1.063231853303384378e-01
1.114000000000000057e+02 7.421599999999999397e+01 -1.546899999999999977e+02 3.090753000000000128e+01 7.644064075342596465e-02
1.114099999999999966e+02 7.716100000000000136e+01 -1.648300000000000125e+02 -4.619070999999999927e+00 -6.640762103283212592e-02
1.114099999999999966e+02 7.856100000000000705e+01 -1.648300000000000125e+02 -1.602930999999999939e-01 -6.632278373972153029e-02
1.114300000000000068e+02 9.680899999999999750e+01 -1.734699999999999989e+02 5.724930000000000296e-01 -9.467939320601190256e-02
1.114300000000000068e+02 9.680899999999999750e+01 -1.719099999999999966e+02 -4.706284000000000023e-01 -9.444257759513910444e-02
1.114300000000000068e+02 9.776699999999999591e+01 -1.734699999999999989e+02 1.135955999999999966e+00 -9.504980173704215274e-02
1.114300000000000068e+02 9.776699999999999591e+01 -1.719099999999999966e+02 7.493043000000000342e-01 -9.474258150382905419e-02
1.114300000000000068e+02 7.536299999999999955e+01 -1.639699999999999989e+02 1.013509999999999955e+01 7.518602000223952031e-02
1.114300000000000068e+02 8.254399999999999693e+01 -1.758100000000000023e+02 -1.061707999999999963e+01 -8.881700882463003377e-02
1.114300000000000068e+02 8.254399999999999693e+01 -1.749499999999999886e+02 -1.995670999999999973e+00 -1.199488958706649983e-01
1.114399999999999977e+02 8.076200000000000045e+01 -1.723600000000000136e+02 -7.656124000000000152e+00 -8.948818238248339163e-02
1.114399999999999977e+02 7.064499999999999602e+01 -1.655300000000000011e+02 -1.885239000000000109e+00 4.530675077819377311e-02
1.114500000000000028e+02 8.751699999999999591e+01 -1.825800000000000125e+02 -1.397147000000000006e+01 -2.861017721406152736e-01
1.114500000000000028e+02 8.247100000000000364e+01 -1.697800000000000011e+02 -6.654747000000000412e+00 -9.673217344204704249e-02
1.114500000000000028e+02 7.176800000000000068e+01 -1.727100000000000080e+02 3.226192999999999866e+00 -3.109628080552334639e-02
1.114500000000000028e+02 6.869400000000000261e+01 -1.682800000000000011e+02 -1.679848000000000141e+01 -3.263316696098244457e-02
1.114500000000000028e+02 7.702599999999999625e+01 -1.678300000000000125e+02 -2.081393999999999878e+01 -1.067491273946269831e-01
1.114599999999999937e+02 7.395000000000000284e+01 -1.665000000000000000e+02 -1.906570999999999927e+01 4.911500340776595031e-02
1.114599999999999937e+02 7.489000000000000057e+01 -1.665000000000000000e+02 -2.590212999999999965e+01 5.039216532134921378e-02
1.114699999999999989e+02 8.347400000000000375e+01 -1.844000000000000057e+02 -1.005765000000000065e+01 -2.928124706032703695e-01
1.114699999999999989e+02 8.231900000000000261e+01 -1.712400000000000091e+02 -2.664677999999999969e+01 -9.688781097291893074e-02
1.114699999999999989e+02 7.095099999999999341e+01 -1.605600000000000023e+02 -2.264348000000000027e+00 7.023653868390866695e-02
1.115000000000000000e+02 8.303499999999999659e+01 -1.659900000000000091e+02 -9.036273000000000222e-01 -9.640632486322071870e-02
1.115000000000000000e+02 7.050199999999999534e+01 -1.596599999999999966e+02 -2.361308999999999880e+00 7.016376970445616090e-02
1.115000000000000000e+02 7.850199999999999534e+01 -1.685999999999999943e+02 -8.193125999999999465e+00 -1.067425782488287400e-01
1.115000000000000000e+02 8.196299999999999386e+01 -1.694699999999999989e+02 -5.835829999999999629e+00 -9.685088592317832312e-02
1.115100000000000051e+02 8.903600000000000136e+01 -1.824799999999999898e+02 -1.212767000000000017e+01 -2.953037737044758582e-01
1.115100000000000051e+02 8.903600000000000136e+01 -1.800200000000000102e+02 -5.447556999999999761e+01 -1.953275459228189237e-01
1.115100000000000051e+02 8.623000000000000398e+01 -1.777299999999999898e+02 -1.561585999999999919e+00 -1.193807178785947914e-01
1.115100000000000051e+02 8.634600000000000364e+01 -1.767899999999999920e+02 -8.523975999999999331e+00 -9.568194597471574303e-02
1.115100000000000051e+02 8.093899999999999295e+01 -1.677899999999999920e+02 -9.779183999999999655e-01 -9.696138835227037511e-02
1.115199999999999960e+02 8.549299999999999500e+01 -1.688899999999999864e+02 -4.927347999999999928e+01 -9.577858859471999331e-02
1.115199999999999960e+02 8.716500000000000625e+01 -1.751699999999999875e+02 -1.369982000000000077e+01 -9.507243091264712398e-02
1.115199999999999960e+02 8.716500000000000625e+01 -1.736500000000000057e+02 -4.760246999999999673e+01 -9.504435970442089154e-02
1.115199999999999960e+02 8.176999999999999602e+01 -1.629799999999999898e+02 -1.993554000000000048e+00 -9.655858342967400809e-02
1.115199999999999960e+02 8.197899999999999920e+01 -1.637199999999999989e+02 -2.224460999999999800e+00 -9.654698691310731329e-02
1.115199999999999960e+02 8.197899999999999920e+01 -1.622400000000000091e+02 -1.626511999999999958e+00 -9.649834309455149195e-02
1.115300000000000011e+02 8.262199999999999989e+01 -1.705399999999999920e+02 -1.306938000000000066e+01 -9.676486655458844954e-02
1.115300000000000011e+02 7.070099999999999341e+01 -1.588499999999999943e+02 -2.397752000000000105e+00 7.079074210420684132e-02
1.115300000000000011e+02 7.325799999999999557e+01 -1.546100000000000136e+02 2.465744000000000113e+01 7.530190819623862331e-02
1.115300000000000011e+02 7.520199999999999818e+01 -1.760200000000000102e+02 3.622783999999999782e+00 -1.198124433685579249e-01
1.115400000000000063e+02 7.941400000000000148e+01 -1.694000000000000057e+02 -8.237930000000000419e+00 -1.066887572626019909e-01
1.115499999999999972e+02 7.182099999999999795e+01 -1.543100000000000023e+02 3.127107000000000170e+01 7.381073221753628455e-02
1.115499999999999972e+02 7.277899999999999636e+01 -1.543100000000000023e+02 6.934283000000000641e+01 7.483813063533475973e-02
1.115499999999999972e+02 7.146099999999999852e+01 -1.575600000000000023e+02 -2.819548999999999861e+00 7.224644021174830844e-02
1.115699999999999932e+02 6.889000000000000057e+01 -1.604799999999999898e+02 -1.194308999999999976e+01 4.444992082569304559e-02
1.115699999999999932e+02 6.889000000000000057e+01 -1.595399999999999920e+02 -1.271973999999999982e+01 4.460754398112694308e-02
1.115699999999999932e+02 7.315300000000000580e+01 -1.680200000000000102e+02 -1.283538000000000068e+01 4.803432178739224651e-02
1.115699999999999932e+02 7.315300000000000580e+01 -1.665000000000000000e+02 -7.514378999999999920e+00 4.797704978848719992e-02
1.115699999999999932e+02 6.813400000000000034e+01 -1.612899999999999920e+02 -6.304317000000000171e+00 4.376939357024065003e-02
1.115699999999999932e+02 7.460299999999999443e+01 -1.554399999999999977e+02 1.499615999999999971e+01 -6.625058673199968329e-02
1.115699999999999932e+02 8.063700000000000045e+01 -1.818499999999999943e+02 -1.405399000000000065e+00 -2.292339163661478163e-01
1.115699999999999932e+02 8.063700000000000045e+01 -1.811800000000000068e+02 9.535253000000000201e-01 -2.299908759693530258e-01
1.115699999999999932e+02 8.241200000000000614e+01 -1.841599999999999966e+02 -9.249218000000000828e+00 -2.252352263514518227e-01
1.115799999999999983e+02 7.189900000000000091e+01 -1.565399999999999920e+02 4.650953999999999589e+00 7.313586147370006174e-02
1.115799999999999983e+02 8.468899999999999295e+01 -1.834399999999999977e+02 -2.843884999999999863e+01 -2.264376995959282157e-01
1.115799999999999983e+02 8.209900000000000375e+01 -1.742299999999999898e+02 -6.861661999999999928e+00 -8.923944917455238490e-02
1.115799999999999983e+02 8.060099999999999909e+01 -1.685999999999999943e+02 -4.157208999999999932e+00 -9.696143780890312258e-02
1.115799999999999983e+02 8.749399999999999977e+01 -1.744099999999999966e+02 -5.413931000000000182e+01 -9.486440980111984778e-02
1.115900000000000034e+02 8.071500000000000341e+01 -1.800900000000000034e+02 5.059490000000000265e+00 -2.310529110164181166e-01
1.115900000000000034e+02 7.036899999999999977e+01 -1.705300000000000011e+02 -2.645538999999999863e+00 -3.227133589621087456e-02
1.115900000000000034e+02 7.057800000000000296e+01 -1.712599999999999909e+02 -1.022880000000000011e+00 -3.176051377853528895e-02
1.115900000000000034e+02 8.444799999999999329e+01 -1.678199999999999932e+02 -1.644085000000000019e+00 -9.611062551393356745e-02
1.115900000000000034e+02 8.378300000000000125e+01 -1.611100000000000136e+02 8.293938999999999950e+00 -9.616494679552410607e-02
1.115900000000000034e+02 7.270499999999999829e+01 -1.640099999999999909e+02 9.772374999999999812e-01 4.742255532448426403e-02
1.115900000000000034e+02 8.046800000000000352e+01 -1.668799999999999955e+02 -3.161776000000000142e+00 -9.700535194834203345e-02
1.115999999999999943e+02 8.079300000000000637e+01 -1.789900000000000091e+02 -8.880036000000000485e+00 -1.185881503839272544e-01
1.115999999999999943e+02 8.112500000000000000e+01 -1.730600000000000023e+02 -7.221112999999999893e+00 -8.938902213479130165e-02
1.115999999999999943e+02 7.034999999999999432e+01 -1.618799999999999955e+02 -2.324428999999999856e+00 4.534208454031104368e-02
1.115999999999999943e+02 7.288500000000000512e+01 -1.672599999999999909e+02 -1.064714999999999989e+01 4.762150416902072997e-02
1.116099999999999994e+02 7.268099999999999739e+01 -1.662400000000000091e+02 -2.665243999999999946e+00 4.735073567855084542e-02
1.116099999999999994e+02 6.914799999999999613e+01 -1.690900000000000034e+02 -5.427094999999999558e+00 -3.252150350506534393e-02
1.116099999999999994e+02 7.148499999999999943e+01 -1.550900000000000034e+02 5.079983999999999611e+00 7.317792013611942870e-02
1.116099999999999994e+02 6.926999999999999602e+01 -1.664799999999999898e+02 -4.987428000000000416e+00 -3.429551128016296302e-02
1.116099999999999994e+02 6.909099999999999397e+01 -1.612299999999999898e+02 -3.788130999999999915e+00 4.443852233582289840e-02
1.116200000000000045e+02 8.603100000000000591e+01 -1.727899999999999920e+02 -9.072967999999999478e+00 -9.565629039625062058e-02
1.116200000000000045e+02 7.334199999999999875e+01 -1.744000000000000057e+02 2.258836000000000155e+01 4.892215362999877831e-02
1.116299999999999955e+02 6.759999999999999432e+01 -1.613000000000000114e+02 -4.406524000000000107e+00 -3.526988977779339091e-02
1.116299999999999955e+02 6.759999999999999432e+01 -1.587199999999999989e+02 -2.029129999999999967e+01 4.388144466746286831e-02
1.116299999999999955e+02 8.024500000000000455e+01 -1.660099999999999909e+02 -3.485352999999999923e+00 -9.699510521110890626e-02
1.116299999999999955e+02 8.299500000000000455e+01 -1.649600000000000080e+02 -1.952498000000000067e+00 -9.640260436474956673e-02
1.116299999999999955e+02 7.116899999999999693e+01 -1.625800000000000125e+02 -2.819637999999999867e+00 4.595231044390492292e-02
1.116400000000000006e+02 7.540399999999999636e+01 -1.556699999999999875e+02 2.683676999999999868e+00 -6.622180781385034187e-02
1.116400000000000006e+02 7.694499999999999318e+01 -1.556699999999999875e+02 -7.289378000000000135e+00 -6.615562346591082055e-02
1.116500000000000057e+02 7.175600000000000023e+01 -1.558499999999999943e+02 2.560110999999999848e+01 7.318981176541868028e-02
1.116500000000000057e+02 7.346999999999999886e+01 -1.751899999999999977e+02 2.547155000000000058e+00 4.927988630627225253e-02
1.116500000000000057e+02 8.010399999999999920e+01 -1.708499999999999943e+02 -1.145208000000000048e+01 -1.064953744391970158e-01
1.116500000000000057e+02 8.096999999999999886e+01 -1.694499999999999886e+02 -6.137802999999999898e+00 -9.690746203844000095e-02
1.116500000000000057e+02 7.842600000000000193e+01 -1.560699999999999932e+02 -2.139425999999999828e+00 -9.678714739462387917e-02
1.116599999999999966e+02 8.065900000000000603e+01 -1.781599999999999966e+02 -6.049920000000000186e+00 -1.188625343954078095e-01
1.116599999999999966e+02 8.088599999999999568e+01 -1.773600000000000136e+02 -1.480110999999999954e+01 -1.190520279729916642e-01
1.116599999999999966e+02 7.065399999999999636e+01 -1.611800000000000068e+02 -2.386217999999999950e+00 4.563400169477324630e-02
1.116599999999999966e+02 8.511799999999999500e+01 -1.830500000000000114e+02 -3.112347000000000108e+01 -2.274475530344257646e-01
1.116599999999999966e+02 7.136799999999999500e+01 -1.653600000000000136e+02 1.852251000000000092e+00 4.585910200570819661e-02
1.116700000000000017e+02 6.637000000000000455e+01 -1.604799999999999898e+02 -5.133263999999999605e+00 -3.483686098652475499e-02
1.116700000000000017e+02 6.637000000000000455e+01 -1.595399999999999920e+02 -7.290585000000000093e+00 -3.506574381178659966e-02
1.116700000000000017e+02 7.911199999999999477e+01 -1.652599999999999909e+02 -4.053859000000000101e+00 -6.630751679465618498e-02
1.116800000000000068e+02 6.789499999999999602e+01 -1.682800000000000011e+02 -6.948102999999999696e+00 -3.225371801094088775e-02
1.116800000000000068e+02 7.240999999999999659e+01 -1.654799999999999898e+02 2.442776999999999976e+00 4.697865956856928787e-02
1.116899999999999977e+02 7.659099999999999397e+01 -1.651399999999999864e+02 -2.568645000000000067e+00 -1.070286999646580528e-01
1.116899999999999977e+02 7.688899999999999579e+01 -1.751699999999999875e+02 5.465180000000000149e+00 -1.198575754437251895e-01
1.117000000000000028e+02 7.277899999999999636e+01 -1.558600000000000136e+02 1.739351999999999876e+01 7.432646883544538619e-02
1.117000000000000028e+02 8.211100000000000421e+01 -1.765099999999999909e+02 -1.920833000000000013e+01 -8.849471373891429349e-02
1.117000000000000028e+02 7.762999999999999545e+01 -1.678600000000000136e+02 -2.413179999999999836e+01 -1.068008102766278417e-01
1.117099999999999937e+02 9.348699999999999477e+01 -1.674600000000000080e+02 -4.874494999999999578e+00 -1.055374376587645963e-01
1.117099999999999937e+02 9.348699999999999477e+01 -1.648799999999999955e+02 -1.502971999999999930e+01 -1.061344050366331143e-01
1.117099999999999937e+02 7.980100000000000193e+01 -1.701500000000000057e+02 -9.163524000000000669e+00 -1.066063238385950573e-01
1.117099999999999937e+02 7.786100000000000421e+01 -1.647800000000000011e+02 -3.033905999999999992e+00 -6.636475282048609481e-02
1.117199999999999989e+02 6.941400000000000148e+01 -1.619900000000000091e+02 -2.641478999999999910e+00 4.447062098338146197e-02
1.117300000000000040e+02 7.369100000000000250e+01 -1.555399999999999920e+02 1.619554000000000116e+01 7.548337753740323730e-02
1.117300000000000040e+02 7.310599999999999454e+01 -1.550900000000000034e+02 2.828237999999999985e+01 7.491764025703309682e-02
1.117399999999999949e+02 7.444599999999999795e+01 -1.644199999999999875e+02 1.084392999999999940e+00 7.306945547762271065e-02
1.117399999999999949e+02 6.822400000000000375e+01 -1.690399999999999920e+02 -4.535116999999999621e+00 -3.198070779609241132e-02
1.117399999999999949e+02 6.822400000000000375e+01 -1.675200000000000102e+02 -5.059307000000000443e+00 -3.305615054200644609e-02
1.117500000000000000e+02 8.673900000000000432e+01 -1.825000000000000000e+02 -2.045764000000000138e+01 -2.259751620442235764e-01
1.117500000000000000e+02 7.326600000000000534e+01 -1.562400000000000091e+02 1.630352999999999852e+01 7.476540995587518945e-02
1.117500000000000000e+02 9.225700000000000500e+01 -1.666399999999999864e+02 -4.986962000000000117e+00 -1.056464995100321602e-01
1.117500000000000000e+02 9.225700000000000500e+01 -1.656999999999999886e+02 -4.611966999999999928e+00 -1.058631698199459237e-01
1.117500000000000000e+02 9.471699999999999875e+01 -1.666399999999999864e+02 -7.998331000000000301e+00 -1.058953837970807443e-01
1.117500000000000000e+02 9.471699999999999875e+01 -1.656999999999999886e+02 -9.116272999999999627e+00 -1.061074518505327469e-01
1.117500000000000000e+02 8.015000000000000568e+01 -1.694000000000000057e+02 -6.290034999999999599e+00 -9.672077170428006188e-02
1.117600000000000051e+02 8.443300000000000693e+01 -1.575800000000000125e+02 5.538058000000000369e+00 -9.607127373040735829e-02
1.117699999999999960e+02 8.033499999999999375e+01 -1.679000000000000057e+02 -2.456987999999999950e+00 -6.637409270507256542e-02
1.117699999999999960e+02 8.360399999999999920e+01 -1.663199999999999932e+02 1.342316999999999982e+00 -9.633025782488781330e-02
1.117699999999999960e+02 7.276999999999999602e+01 -1.736500000000000057e+02 8.171158000000000143e+00 4.752813012570981932e-02
1.117800000000000011e+02 6.962600000000000477e+01 -1.604799999999999898e+02 -4.355506000000000100e+00 4.483149676818260626e-02
1.117800000000000011e+02 6.962600000000000477e+01 -1.595399999999999920e+02 -3.889444000000000123e+00 6.905966434195889847e-02
1.117800000000000011e+02 8.603700000000000614e+01 -1.576899999999999977e+02 9.416206999999999994e+00 -1.065061824382974170e-01
1.117800000000000011e+02 8.748300000000000409e+01 -1.585000000000000000e+02 2.034356999999999971e+01 -1.065153509236977103e-01
1.117800000000000011e+02 8.068000000000000682e+01 -1.712800000000000011e+02 -9.068163000000000196e+00 -9.645780700377368233e-02
1.117800000000000011e+02 8.154600000000000648e+01 -1.712800000000000011e+02 -1.178203000000000067e+01 -9.669244286946884759e-02
1.117800000000000011e+02 8.154600000000000648e+01 -1.698799999999999955e+02 -5.970593000000000039e+00 -9.698585436151527239e-02
1.117800000000000011e+02 8.102800000000000580e+01 -1.826800000000000068e+02 -4.584725999999999857e+00 -2.286643960888838922e-01
1.117800000000000011e+02 8.531000000000000227e+01 -1.678400000000000034e+02 -5.187376000000000431e+00 -9.588318702087544887e-02
1.117800000000000011e+02 7.315800000000000125e+01 -1.645099999999999909e+02 -4.334485999999999895e-02 4.775327976664395235e-02
1.117900000000000063e+02 7.986499999999999488e+01 -1.685999999999999943e+02 -4.198868000000000045e+00 -6.646106761800348040e-02
1.117900000000000063e+02 7.442000000000000171e+01 -1.659099999999999966e+02 -1.552674000000000021e+01 4.936825962655009420e-02
1.117900000000000063e+02 7.532200000000000273e+01 -1.645099999999999909e+02 6.204175000000000217e+00 7.459124998613972379e-02
1.117999999999999972e+02 8.259900000000000375e+01 -1.574699999999999989e+02 1.099676000000000009e+01 -9.634068802171112667e-02
1.117999999999999972e+02 7.986100000000000421e+01 -1.565699999999999932e+02 2.493386999999999887e+01 -9.666400368106387031e-02
1.117999999999999972e+02 7.920199999999999818e+01 -1.686599999999999966e+02 -3.997221000000000135e+00 -1.068072905930284033e-01
1.118100000000000023e+02 7.570399999999999352e+01 -1.667199999999999989e+02 -1.428556000000000026e+01 5.128493678774730113e-02
1.118100000000000023e+02 7.020000000000000284e+01 -1.648899999999999864e+02 2.171518999999999977e+00 4.460310151777967247e-02
1.118100000000000023e+02 7.094799999999999329e+01 -1.648899999999999864e+02 3.685159000000000074e+00 4.533256070543422583e-02
1.118100000000000023e+02 7.181300000000000239e+01 -1.634900000000000091e+02 -2.091346000000000149e+00 4.633330012632638772e-02
1.118199999999999932e+02 7.107200000000000273e+01 -1.580300000000000011e+02 -7.490649000000000335e+00 7.144265620505299563e-02
1.118199999999999932e+02 7.783499999999999375e+01 -1.726500000000000057e+02 -9.547513000000000361e+00 -8.906360658072903780e-02
1.118199999999999932e+02 7.902599999999999625e+01 -1.719900000000000091e+02 -2.770628999999999920e+01 -8.935239157359331497e-02
1.118299999999999983e+02 8.420799999999999841e+01 -1.671999999999999886e+02 1.163404000000000105e+00 -9.621049510556310691e-02
1.118299999999999983e+02 7.566400000000000148e+01 -1.652700000000000102e+02 -5.984060999999999630e+00 -1.069707909848809368e-01
1.118299999999999983e+02 9.596800000000000352e+01 -1.732299999999999898e+02 -8.410792000000000268e-01 -9.401259798727039374e-02
1.118299999999999983e+02 9.596800000000000352e+01 -1.721500000000000057e+02 -5.801180000000000225e-01 -9.392967444193010829e-02
