1.962600000000000122e+01 1.946999999999999886e+01 2.905199999999999960e+01 8.706106999999999596e-01 2.369042645694135474e-01
1.962699999999999889e+01 -7.006999999999999673e+00 2.314799999999999969e+01 3.971553999999999807e+00 -2.156212824051046417e-01
1.963400000000000034e+01 -2.369800000000000129e+00 3.910499999999999865e+00 3.246754999999999836e+00 -2.635380978004275843e-01
1.963400000000000034e+01 2.085800000000000054e+01 1.573600000000000065e+01 -2.970133000000000134e+00 1.306610788046196348e-01
1.964900000000000091e+01 1.013899999999999935e+01 1.059699999999999953e+01 -1.125459999999999994e+01 2.329173934930786269e-02
1.965299999999999869e+01 -1.401599999999999957e+00 3.542000000000000171e+01 4.426012000000000057e+00 2.558604315744116356e-02
1.966300000000000026e+01 6.001000000000000334e+00 2.578699999999999992e+00 8.395947000000000271e-01 -2.453006963227695736e-01
1.966400000000000148e+01 1.726599999999999824e+01 1.446199999999999974e+01 -3.711202000000000112e+00 1.079534453329030474e-01
1.966499999999999915e+01 2.130799999999999983e+01 1.597000000000000064e+01 7.061397000000000368e+00 1.322881688812617973e-01
1.966600000000000037e+01 -7.700999999999999623e+00 8.716499999999999915e+00 1.082309000000000054e+02 -3.951909865730036664e-01
1.966700000000000159e+01 -5.636600000000000499e-01 5.516400000000000192e-01 1.584170999999999996e+00 -2.629860181736719538e-01
1.966799999999999926e+01 -3.600000000000000089e+00 1.937999999999999945e+00 -5.291177000000000241e+00 -2.654678137833527130e-01
1.966799999999999926e+01 -3.373000000000000220e+00 1.138900000000000023e+00 1.450865000000000071e+00 -2.655569315278375475e-01
1.966799999999999926e+01 -2.080000000000000071e+00 4.179999999999999827e-01 9.586911000000000183e-01 -2.647018644419669164e-01
1.969300000000000139e+01 2.262500000000000000e+01 1.803699999999999903e+01 -1.204208999999999996e+01 1.338306687265624073e-01
1.969300000000000139e+01 1.274099999999999966e+01 3.960699999999999932e+01 1.266019000000000005e+01 1.513798109900874565e-02
1.969600000000000151e+01 -6.141000000000000014e+00 8.850099999999999412e+00 2.212077000000000027e+01 -3.949190520979972696e-01
1.969600000000000151e+01 -5.275800000000000267e+00 8.850099999999999412e+00 2.397700999999999993e+01 -3.947497465948071604e-01
1.970200000000000173e+01 -2.900300000000000100e+00 3.572499999999999787e+00 6.746531999999999529e-01 -2.643507285785410277e-01
1.971099999999999852e+01 -1.166600000000000037e+01 1.267800000000000082e+01 9.909409999999999386e+00 -2.086553451152962368e-01
1.971099999999999852e+01 -1.166600000000000037e+01 1.360899999999999999e+01 8.602992999999999668e+00 -2.091260305692581589e-01
1.971099999999999852e+01 1.965200000000000102e+01 3.590500000000000114e+01 1.538418000000000063e+01 9.320192742561251784e-03
1.971300000000000097e+01 7.618000000000000327e+00 4.007900000000000063e+01 5.666464999999999641e+00 1.858188297847628706e-02
1.971300000000000097e+01 2.153300000000000125e+01 1.898300000000000054e+01 -1.541801000000000066e+01 1.301293919933015908e-01
1.972899999999999920e+01 -8.015700000000000713e+00 1.855600000000000094e+01 5.974336000000000091e+00 -2.120894037614993177e-01
1.973400000000000176e+01 -2.333400000000000141e+00 5.464000000000000412e+00 3.156623000000000179e+00 -3.952770518820664103e-01
1.973499999999999943e+01 1.803399999999999892e+01 1.382699999999999996e+01 -2.005468000000000028e+00 1.137238433323448233e-01
1.973499999999999943e+01 1.955399999999999849e+01 1.382699999999999996e+01 -4.937819000000000180e+00 1.259254771322812494e-01
1.973600000000000065e+01 1.463499999999999979e+01 1.447899999999999920e+01 4.673977000000000270e-01 2.371995750693829397e-01
1.973699999999999832e+01 -5.456999999999999851e+00 2.362199999999999989e+01 5.223597999999999963e+00 -2.166713953265186898e-01
1.973799999999999955e+01 1.687600000000000122e+01 3.921800000000000352e+01 7.185551000000000244e+00 1.229561211708357464e-02
1.973799999999999955e+01 1.708500000000000085e+01 3.995400000000000063e+01 1.695562000000000014e+00 1.233339269535089176e-02
1.973799999999999955e+01 1.731200000000000117e+01 4.075300000000000011e+01 -4.092731999999999815e+00 1.237169048324703730e-02
1.973799999999999955e+01 1.860500000000000043e+01 4.147399999999999665e+01 -4.288056000000000267e+01 1.181436380612354078e-02
1.973799999999999955e+01 1.989799999999999969e+01 4.075300000000000011e+01 -2.963439999999999941e+01 1.095041683162383851e-02
1.974099999999999966e+01 1.560200000000000031e+01 3.839900000000000091e+01 1.622417000000000087e+01 1.297517106302238307e-02
1.974800000000000111e+01 2.090299999999999869e+01 2.572599999999999909e+01 1.825507999999999953e+01 2.364733396958023093e-01
1.974800000000000111e+01 2.111199999999999832e+01 2.646199999999999974e+01 4.478111000000000175e+00 2.365026657610094785e-01
1.974899999999999878e+01 1.416000000000000014e+01 3.882200000000000273e+01 2.204900999999999911e+01 1.407607322591968024e-02
1.975199999999999889e+01 7.388099999999999667e+00 3.555400000000000205e+01 1.822053999999999974e+01 1.976768066444197988e-02
1.975499999999999901e+01 1.278999999999999915e+01 1.339799999999999969e+01 -3.396994999999999987e+00 -7.018674388755290205e-02
1.977199999999999847e+01 2.051099999999999923e+01 2.157900000000000063e+01 5.673373999999999917e+00 1.266271011289041570e-01
1.977199999999999847e+01 2.051099999999999923e+01 2.244500000000000028e+01 1.587208000000000041e+01 1.265207930687909932e-01
1.977299999999999969e+01 9.005800000000000693e+00 4.091799999999999926e+01 1.823082000000000136e+01 1.758904233624408037e-02
1.977599999999999980e+01 -1.130199999999999960e+01 1.173499999999999943e+01 5.550100999999999729e+00 -2.080875518723813433e-01
1.977899999999999991e+01 6.746199999999999974e-01 9.798300000000000065e-02 9.449792999999999665e-01 -8.452346163905301302e-02
1.978699999999999903e+01 -4.618299999999999628e+00 2.395599999999999952e+01 1.402552000000000021e+00 3.638917619178538843e-02
1.979200000000000159e+01 -2.029999999999999805e+00 4.764000000000000234e+00 5.540165000000000006e+00 -3.955709322161168329e-01
1.979299999999999926e+01 -1.113299999999999912e+01 1.770200000000000173e+01 1.283891000000000027e+01 -2.113862351312925658e-01
1.979299999999999926e+01 1.143599999999999994e+01 4.034199999999999875e+01 2.502815999999999974e+01 1.605783031547272643e-02
1.980099999999999838e+01 1.883699999999999974e+01 3.380400000000000205e+01 -2.132198999999999900e-01 8.848119995989410513e-03
1.980099999999999838e+01 1.883699999999999974e+01 3.466899999999999693e+01 1.363194999999999935e+00 9.305662895856442116e-03
1.980099999999999838e+01 5.258000000000000007e+00 3.536099999999999710e+01 9.033861999999999171e+00 2.164104601670899589e-02
1.980399999999999849e+01 2.090800000000000125e+01 3.791100000000000136e+01 2.700054000000000087e+01 9.442196738724737554e-03
1.980399999999999849e+01 2.069500000000000028e+01 2.839799999999999969e+01 -9.687034000000000589e+00 2.367005280334418538e-01
1.980499999999999972e+01 1.423999999999999932e+00 -2.919999999999999818e-01 3.354635999999999729e-01 -8.899261592706803059e-02
1.980699999999999861e+01 8.308699999999999974e+00 3.641199999999999903e+01 7.670257000000000325e+00 1.879531407851734934e-02
1.981599999999999895e+01 -8.013999999999999346e+00 9.120799999999999130e+00 4.493775999999999726e+01 -3.951848972666068271e-01
1.982999999999999829e+01 8.053000000000000824e+00 4.081300000000000239e+01 7.750248000000000026e+00 1.820925121901574573e-02
1.983699999999999974e+01 -6.798800000000000399e-01 3.572699999999999676e+01 7.235718000000000316e+00 2.517031530368808376e-02
1.983699999999999974e+01 6.798300000000000232e+00 5.753300000000000303e+00 -1.517273000000000094e+00 -2.355121987489693647e-01
1.983899999999999864e+01 1.626399999999999935e+01 3.854800000000000182e+01 9.483254000000000516e+00 1.256133689889105641e-02
1.984499999999999886e+01 -3.131299999999999972e+00 5.464000000000000412e+00 2.838792000000000204e+00 -3.954246095440837605e-01
1.984499999999999886e+01 1.341600000000000037e+01 1.381400000000000006e+01 8.400815000000000365e-02 -7.419801462403470549e-02
1.984600000000000009e+01 -9.338400000000000034e+00 1.005400000000000027e+01 1.840965999999999880e+01 -2.065088429887434462e-01
1.984600000000000009e+01 -1.173999999999999932e+00 3.758900000000000019e-01 1.427664000000000044e+00 -2.641213634382426068e-01
1.985200000000000031e+01 -6.563200000000000145e+00 9.592000000000000526e+00 3.695712000000000330e+01 -2.048957929018810908e-01
1.985900000000000176e+01 2.317299999999999915e+00 1.776999999999999913e+00 1.220789000000000080e+01 -2.578520298343368045e-01
1.988299999999999912e+01 -2.724400000000000155e+00 3.374000000000000199e+01 -2.604404000000000163e+00 2.726727209700313681e-02
1.988500000000000156e+01 3.369800000000000129e+00 1.991900000000000004e+00 5.836159999999999570e+00 -2.554624331957308092e-01
1.988800000000000168e+01 -7.605299999999999727e+00 9.717100000000000293e+00 5.213163000000000125e+01 -2.055098280195798988e-01
1.989099999999999824e+01 -3.777299999999999880e+00 2.794999999999999929e+01 3.898207999999999895e+00 3.240181489380106888e-02
1.990299999999999869e+01 -4.021700000000000053e+00 2.710399999999999920e+01 3.887643999999999878e+00 3.327354771530229710e-02
1.991100000000000136e+01 2.378000000000000114e+00 3.536999999999999744e+01 5.351595999999999798e+00 2.375682250589902442e-02
1.991199999999999903e+01 6.580799999999999983e+00 8.832100000000000506e+00 6.730173000000000405e-01 -4.724339695790449878e-02
1.991499999999999915e+01 1.168099999999999916e+01 1.252800000000000047e+01 -2.316704999999999970e+01 -5.881508850132569771e-02
1.991600000000000037e+01 -3.817499999999999893e+00 2.885500000000000043e+01 4.244284000000000390e+00 3.155672974730634739e-02
1.991700000000000159e+01 2.013900000000000023e+00 1.076999999999999957e+00 1.173519999999999897e+00 -2.595402298071315950e-01
1.992399999999999949e+01 2.096499999999999986e+01 2.337099999999999866e+01 2.200300000000000011e+01 1.274241578340952752e-01
1.994300000000000139e+01 1.136100000000000110e+00 3.563600000000000279e+01 8.523707999999999174e+00 2.436137069661122728e-02
1.995299999999999940e+01 2.121300000000000097e+01 2.423000000000000043e+01 4.832296000000000191e+01 2.362695696488791575e-01
1.996099999999999852e+01 2.122100000000000009e+01 2.731299999999999883e+01 -4.041743000000000308e+00 2.365605926854991437e-01
1.996999999999999886e+01 6.277400000000000091e+00 8.132099999999999440e+00 3.764422999999999853e+00 -4.055743299609227553e-02
1.997299999999999898e+01 6.993699999999999584e+00 4.742700000000000138e+00 -3.757662999999999975e+00 -2.378766898601444024e-01
1.997599999999999909e+01 -1.074300000000000033e+01 1.125000000000000000e+01 1.272621999999999964e+01 -2.076715078431818073e-01
1.998000000000000043e+01 -4.513300000000000090e+00 2.954200000000000159e+01 9.988716000000000150e+00 3.106168262636430782e-02
1.999099999999999966e+01 2.099099999999999966e+01 2.502400000000000091e+01 4.324389000000000038e+00 2.364014783764750993e-01
1.999099999999999966e+01 -1.962399999999999922e+00 3.520400000000000063e+01 5.603835000000000122e+00 2.607477887457052002e-02
1.999200000000000088e+01 4.549000000000000377e+00 1.223600000000000021e+00 1.696903999999999968e+00 -2.552229626920317074e-01
1.999200000000000088e+01 6.421599999999999753e+00 7.222400000000000375e+00 1.436722999999999972e+00 -2.421440535271447148e-01
1.999699999999999989e+01 -7.583000000000000185e+00 1.925600000000000023e+01 1.106856999999999935e+01 -2.127243249721235685e-01
1.999699999999999989e+01 -7.583000000000000185e+00 2.012199999999999989e+01 4.091740999999999850e+00 -2.133781372298949042e-01
1.999699999999999989e+01 1.954900000000000082e+00 4.668800000000000172e-01 -1.227379999999999960e+01 -2.607215278438437256e-01
2.000100000000000122e+01 -2.766000000000000014e+00 4.764000000000000234e+00 -4.099509000000000292e+00 -3.957041061120690206e-01
2.001200000000000045e+01 -4.592900000000000205e+00 8.977000000000000313e+00 1.389742000000000033e+01 -2.034209955420613336e-01
2.001500000000000057e+01 -9.576200000000000045e+00 1.829700000000000060e+01 -9.252076999999999662e-01 -2.117796723555347982e-01
2.001500000000000057e+01 -8.711000000000000298e+00 1.829700000000000060e+01 7.640543000000000085e+00 -2.118361866505999169e-01
2.002499999999999858e+01 2.002400000000000091e+01 1.458699999999999974e+01 -3.496627999999999847e+00 1.292405279974562504e-01
2.002599999999999980e+01 -4.071299999999999919e+00 6.536699999999999733e+00 7.422348999999999641e+00 -3.952247657133009517e-01
2.003099999999999881e+01 -4.523200000000000109e+00 7.524700000000000166e+00 9.112030999999999992e+00 -3.950031898632374028e-01
2.003200000000000003e+01 1.921300000000000097e+01 3.141199999999999903e+01 -2.171659999999999968e+01 2.370167528950163083e-01
2.003200000000000003e+01 1.921300000000000097e+01 3.300999999999999801e+01 -3.252705000000000268e+01 2.370399743035019324e-01
2.003200000000000003e+01 1.944000000000000128e+01 3.221099999999999852e+01 -5.449916000000000338e+01 2.370026549520788117e-01
2.003200000000000003e+01 2.223100000000000076e+00 -2.919999999999999818e-01 -8.951793999999999585e+00 -8.924639534907168048e-02
2.003300000000000125e+01 3.280299999999999994e+00 3.529500000000000171e+01 -5.857052999999999621e+00 2.324514581472844621e-02
2.003600000000000136e+01 2.241299999999999959e-01 3.565699999999999648e+01 1.538626000000000005e+01 2.486563994103625427e-02
2.004599999999999937e+01 -4.136800000000000033e+00 2.599899999999999878e+01 1.177786000000000000e+00 3.454920610557229987e-02
2.004599999999999937e+01 -7.698599999999999888e+00 2.086100000000000065e+01 2.293995999999999924e+00 -2.138845597549096644e-01
2.004899999999999949e+01 -3.746999999999999886e+00 3.270300000000000296e+01 8.960383999999999460e+00 2.838642707650337188e-02
2.005000000000000071e+01 8.180199999999999250e+00 1.010699999999999932e+01 1.850597999999999965e+00 -7.819697835421246523e-02
2.005600000000000094e+01 7.261000000000000121e+00 9.389699999999999491e+00 4.214598999999999984e-01 -5.801761001567205811e-02
2.005900000000000105e+01 1.876999999999999957e+01 3.018499999999999872e+01 -1.222073999999999927e+01 2.370552723284111152e-01
2.005900000000000105e+01 1.897899999999999920e+01 2.944900000000000162e+01 -2.445024999999999782e+00 2.370086336892615608e-01
2.005900000000000105e+01 1.897899999999999920e+01 3.092099999999999937e+01 -2.442214999999999847e+01 2.370395556735013509e-01
2.005900000000000105e+01 5.565299999999999692e+00 2.130599999999999827e+00 2.126781999999999950e+00 -2.508492701383117640e-01
2.006400000000000006e+01 1.879400000000000048e+01 1.376399999999999935e+01 -5.648303000000000296e+00 1.215510496122318707e-01
2.007000000000000028e+01 -8.551899999999999835e+00 9.924599999999999866e+00 1.345426999999999929e+01 -2.061015304895905675e-01
2.007000000000000028e+01 -5.761599999999999611e+00 9.676999999999999602e+00 1.800420000000000087e+01 -2.045525939210199873e-01
2.007000000000000028e+01 -4.896300000000000097e+00 9.676999999999999602e+00 1.602616000000000085e+01 -2.040966285185448759e-01
2.007499999999999929e+01 2.174800000000000111e+01 1.662900000000000134e+01 2.016930999999999941e+01 1.340628329060493118e-01
2.007499999999999929e+01 2.174800000000000111e+01 1.832900000000000063e+01 -7.402118999999999893e+00 1.319787282248953697e-01
2.007900000000000063e+01 1.544999999999999929e+01 1.451299999999999990e+01 5.004610000000000447e-01 2.362295658446032509e-01
2.007999999999999829e+01 1.060899999999999999e+01 1.113000000000000078e+01 -1.209553000000000011e+01 -2.041667798310036266e-02
2.008599999999999852e+01 6.063699999999999868e+00 3.539800000000000324e+01 1.263746000000000080e+01 2.107624357476807833e-02
2.008599999999999852e+01 9.786699999999999733e+00 4.087700000000000244e+01 2.163766000000000034e+01 1.716411661148491488e-02
2.009499999999999886e+01 9.542899999999999716e-01 -1.052000000000000046e+00 9.526192999999999467e-01 -9.823581635407774293e-02
2.009499999999999886e+01 1.893699999999999939e+00 -1.052000000000000046e+00 -1.811766999999999961e-01 -9.965744927156175437e-02
2.009700000000000131e+01 1.656599999999999895e+01 1.473000000000000043e+01 1.487754999999999939e+00 2.350823106134823370e-01
2.010099999999999909e+01 7.649899999999999700e+00 3.817199999999999704e+01 6.080490000000000173e+00 1.903798166109940335e-02
2.010600000000000165e+01 -1.065600000000000058e+01 1.830099999999999838e+01 2.253051000000000137e+00 -2.117648180394712809e-01
2.011599999999999966e+01 4.549000000000000377e+00 -2.439999999999999947e-01 -1.999425000000000008e+00 -9.273432783471860508e-02
2.012399999999999878e+01 2.008399999999999963e+01 1.552599999999999980e+01 -2.143759999999999977e+01 1.288130791451162493e-01
2.013500000000000156e+01 -2.441600000000000215e+00 3.442900000000000205e+01 4.518207999999999558e+00 2.681226172860742829e-02
2.013899999999999935e+01 4.447700000000000209e+00 3.543099999999999739e+01 8.517734000000000805e+00 2.237330442521863819e-02
2.014399999999999835e+01 2.014300000000000068e+01 3.630199999999999960e+01 8.560529000000000721e+00 9.235106171736420094e-03
2.014600000000000080e+01 2.211700000000000088e+01 1.747899999999999920e+01 5.439405999999999963e+00 1.341672345448373105e-01
2.014799999999999969e+01 -5.823299999999999699e+00 3.049299999999999855e+01 4.068402999999999992e+00 3.046400204119664029e-02
2.014799999999999969e+01 -5.823299999999999699e+00 3.154299999999999926e+01 4.772884000000000349e+00 2.964864822675621417e-02
2.015099999999999980e+01 -3.257099999999999884e+00 3.326400000000000290e+01 3.108537000000000106e+00 2.789284018729960152e-02
2.015200000000000102e+01 -7.857000000000000206e+00 2.177299999999999969e+01 1.636420999999999903e+00 -2.144705209531640455e-01
2.015200000000000102e+01 -7.603100000000000414e+00 2.266700000000000159e+01 7.032826000000000022e+00 -2.151348603637203705e-01
2.015200000000000102e+01 -6.157000000000000028e+00 2.347299999999999898e+01 1.862227000000000077e+00 -2.162530314430640144e-01
2.017099999999999937e+01 -3.659199999999999786e+00 5.665600000000000414e+00 4.171270000000000255e-01 -3.954963528096691605e-01
2.018100000000000094e+01 -1.846800000000000108e-01 -4.889999999999999599e-04 1.597698000000000063e+00 -2.640878912566645420e-01
2.018100000000000094e+01 1.890200000000000102e+01 3.521600000000000108e+01 8.869851000000000596e+00 9.573985366833893257e-03
2.018199999999999861e+01 2.038700000000000045e+01 1.622599999999999909e+01 -2.805445000000000189e+00 1.296809935718505891e-01
2.018299999999999983e+01 9.667299999999999116e+00 1.107699999999999996e+01 -1.378759999999999941e+01 9.925416750808591787e-03
2.018799999999999883e+01 6.597100000000000186e+00 3.060299999999999798e+00 5.989284999999999748e+00 -2.461594871062114664e-01
2.018799999999999883e+01 1.485999999999999943e+01 3.844599999999999795e+01 9.849621000000000848e+00 1.359262227845460871e-02
2.019300000000000139e+01 -3.296899999999999942e+00 4.005099999999999660e+00 1.819520999999999944e+00 -3.960893268698683078e-01
2.019699999999999918e+01 -1.211999999999999922e+01 1.411899999999999977e+01 2.910938999999999943e+00 -2.095364385340510172e-01
2.019999999999999929e+01 1.103200000000000003e+01 1.185399999999999920e+01 -1.594895999999999958e+01 -4.740764451019150588e-02
2.020299999999999940e+01 2.081200000000000117e+01 1.921499999999999986e+01 -7.000981999999999594e+00 1.288605434015850093e-01
2.020400000000000063e+01 2.078999999999999915e+01 1.654899999999999949e+01 5.340120999999999896e+00 1.310623213782025620e-01
2.020799999999999841e+01 1.784499999999999886e+01 4.118399999999999750e+01 -1.078819999999999979e+01 1.221872732816144634e-02
2.020799999999999841e+01 1.936499999999999844e+01 4.118399999999999750e+01 -3.515180999999999756e+01 1.139475710946388602e-02
2.021999999999999886e+01 -5.318299999999999805e+00 2.368799999999999883e+01 5.504090999999999845e+00 3.692307321903548489e-02
2.021999999999999886e+01 -4.127399999999999736e+00 2.435200000000000031e+01 -5.090506999999999671e+00 3.654579990278736257e-02
2.021999999999999886e+01 -3.918299999999999894e+00 2.508800000000000097e+01 -4.182095999999999592e+00 3.574171374758011721e-02
2.022800000000000153e+01 -3.565100000000000158e+00 4.764000000000000234e+00 3.691919999999999924e-02 -3.958287345111978772e-01
2.025000000000000000e+01 -1.225799999999999912e+01 1.499900000000000055e+01 1.991751999999999967e+00 -2.100250404841182694e-01
2.025199999999999889e+01 3.745699999999999807e+00 -1.871899999999999953e-01 -4.341175999999999924e-01 -8.935629122408969560e-02
2.025600000000000023e+01 6.688100000000000378e+00 3.528600000000000136e+01 1.306682999999999950e+01 2.064428360798113010e-02
2.025600000000000023e+01 -5.932000000000000384e+00 1.020199999999999996e+01 2.682892999999999972e+01 -2.050231187935626642e-01
2.025799999999999912e+01 -1.211899999999999977e+01 1.316099999999999959e+01 5.044779000000000124e+00 -2.090644829936922078e-01
2.025900000000000034e+01 9.341100000000000847e+00 1.189000000000000057e+01 -1.892042999999999964e+01 2.469001247629494674e-04
2.026000000000000156e+01 1.387800000000000011e+01 1.425799999999999912e+01 1.656055000000000055e+00 2.389059857907251117e-01
2.026599999999999824e+01 2.893299999999999983e+00 -1.009400000000000019e-01 -2.062011000000000038e+00 -8.670555527646513216e-02
2.026899999999999835e+01 8.532000000000000028e+00 4.135699999999999932e+01 5.023901000000000039e+01 1.792680365273084317e-02
2.026999999999999957e+01 -6.985000000000000320e+00 1.020500000000000007e+01 2.899049000000000120e+01 -2.055318651600455959e-01
2.027400000000000091e+01 1.353400000000000070e+01 3.917900000000000205e+01 1.582628000000000057e+01 1.465846189256892786e-02
2.027899999999999991e+01 -3.375500000000000167e+00 3.047699999999999854e+00 -7.382908000000000248e-01 -3.964658876907938279e-01
2.028200000000000003e+01 2.937100000000000044e+00 1.500999999999999890e+00 6.628999999999999559e+00 -2.586974928923159722e-01
2.028200000000000003e+01 3.802400000000000002e+00 1.500999999999999890e+00 3.791793999999999887e+00 -2.572645957864244659e-01
2.028999999999999915e+01 2.095299999999999940e+01 2.197899999999999920e+01 7.316295000000000215e+00 1.281438499163766453e-01
2.030199999999999960e+01 2.060800000000000054e+01 3.946600000000000108e+01 8.780661999999999523e+00 1.023478119590576045e-02
2.030799999999999983e+01 5.079900000000000304e+00 5.148800000000000043e-01 -1.677634000000000070e+00 -7.575424769924395119e-02
2.030900000000000105e+01 7.277999999999999581e+00 4.051700000000000301e+01 8.977645000000000763e+00 1.885043875237168293e-02
2.031700000000000017e+01 7.177999999999999936e+00 3.949399999999999977e+01 5.695759999999999934e+00 1.913344692936897601e-02
2.031800000000000139e+01 -1.198300000000000054e+01 1.632700000000000173e+01 4.540733000000000130e-01 -2.107019493677350641e-01
2.031800000000000139e+01 -1.172899999999999920e+01 1.722100000000000009e+01 2.082838000000000189e+00 -2.111788346453392362e-01
2.031800000000000139e+01 1.206199999999999939e+01 3.998499999999999943e+01 1.568267999999999951e+01 1.573731004015212903e-02
2.032300000000000040e+01 6.828400000000000247e+00 8.689700000000000202e+00 4.232414999999999927e-01 -5.166640178661933286e-02
2.032600000000000051e+01 5.132699999999999818e+00 1.430600000000000094e+00 5.443090999999999902e-01 -2.554322316452098951e-01
2.033699999999999974e+01 -1.016000000000000014e+01 1.056499999999999950e+01 9.420158999999999949e+00 -2.071547271588102535e-01
2.033699999999999974e+01 -1.202299999999999969e+01 1.215300000000000047e+01 5.526373000000000424e+00 -2.085695192731536474e-01
2.033999999999999986e+01 2.633700000000000152e+00 8.010000000000000453e-01 2.190020000000000078e+00 -2.604247611862934297e-01
2.033999999999999986e+01 4.105800000000000338e+00 8.010000000000000453e-01 -4.770268999999999759e-01 -2.585033522332714218e-01
2.034299999999999997e+01 5.348099999999999632e+00 -2.439999999999999947e-01 -7.606665999999999705e-01 -9.654070511216462924e-02
2.034499999999999886e+01 1.933399999999999963e+01 2.909299999999999997e+01 1.599204000000000070e+00 2.369567975136488980e-01
2.034799999999999898e+01 -4.517500000000000071e+00 2.912300000000000111e+01 9.988716000000000150e+00 3.167938423823393745e-02
2.035300000000000153e+01 -1.669000000000000039e+00 3.585300000000000153e+01 6.453529999999999767e+00 2.570138813877436562e-02
2.035399999999999920e+01 6.870300000000000296e+00 3.842799999999999994e+00 -2.049110999999999905e+00 -2.453272058177611292e-01
2.036899999999999977e+01 1.909000000000000030e+00 3.588499999999999801e+01 2.768057999999999907e+00 2.394566742370602547e-02
2.037699999999999889e+01 2.066600000000000037e+01 3.683800000000000097e+01 1.070091999999999999e+01 9.182822725828498206e-03
2.037699999999999889e+01 2.092000000000000171e+01 3.773199999999999932e+01 1.991255999999999915e+01 9.420072794417439638e-03
2.037999999999999901e+01 2.098699999999999832e+01 2.099299999999999855e+01 3.675532000000000021e+00 1.287015738286470257e-01
2.038700000000000045e+01 1.268699999999999939e+01 1.354499999999999993e+01 -4.549843000000000082e+00 -7.740521269747353827e-02
2.038800000000000168e+01 1.029599999999999937e+01 1.184099999999999930e+01 -4.365755000000000052e+01 -2.957485260737890975e-02
2.039600000000000080e+01 9.829000000000000625e+00 1.231199999999999939e+01 -4.390068999999999733e+01 -2.122053249838384836e-02
2.039999999999999858e+01 2.122299999999999898e+01 1.747899999999999920e+01 9.067372999999999905e+00 1.320336156590322940e-01
2.040599999999999881e+01 4.079299999999999926e+00 -1.004000000000000004e+00 8.997574999999999323e-02 -1.063064495032157442e-01
2.040599999999999881e+01 5.018699999999999939e+00 -1.004000000000000004e+00 1.108938000000000007e-01 1.458937316173472554e-02
2.040700000000000003e+01 -4.214100000000000179e+00 2.842299999999999827e+01 4.386459999999999582e+00 3.236238049622496005e-02
2.041100000000000136e+01 7.173199999999999577e+00 5.484399999999999942e+00 -2.234335999999999878e+00 -2.437663529048237354e-01
2.041499999999999915e+01 2.136199999999999832e+01 2.293799999999999883e+01 2.200300000000000011e+01 1.287736989351115358e-01
2.041799999999999926e+01 -4.604300000000000281e+00 2.382100000000000151e+01 6.812257999999999925e+00 3.723850679832519522e-02
2.042699999999999960e+01 7.994799999999999685e+00 3.606499999999999773e+01 8.052789000000000641e+00 1.933731146993169711e-02
2.042800000000000082e+01 -3.309699999999999864e+00 1.468299999999999939e+00 -1.343126000000000042e-01 -2.664775116591374116e-01
2.042899999999999849e+01 1.862199999999999989e+01 3.474499999999999744e+01 3.101217999999999808e+00 9.589740633118123275e-03
2.042899999999999849e+01 -1.008799999999999919e+01 1.898900000000000077e+01 1.437097999999999987e+00 -2.122427547050545482e-01
2.042899999999999849e+01 -9.148300000000000765e+00 1.898900000000000077e+01 1.777846999999999955e+00 -2.123181632452181833e-01
2.042899999999999849e+01 -8.282999999999999474e+00 1.898900000000000077e+01 7.386125999999999969e+00 -2.124286849981849024e-01
2.042899999999999849e+01 2.847700000000000120e+00 3.578600000000000136e+01 -3.748238000000000181e+00 2.343726164826177502e-02
2.042999999999999972e+01 2.078200000000000003e+01 3.861200000000000188e+01 2.075169999999999959e+01 9.848909866399344071e-03
2.043599999999999994e+01 8.928599999999999426e+00 1.112199999999999989e+01 -1.552947000000000077e+00 2.245711780105568572e-02
2.044800000000000040e+01 2.117099999999999937e+01 2.615800000000000125e+01 -3.999948999999999977e+00 2.364996301766971454e-01
2.044800000000000040e+01 1.933500000000000085e+01 3.591599999999999682e+01 1.886396999999999835e+01 9.626767637067604882e-03
2.044800000000000040e+01 2.707699999999999996e+00 -8.339499999999999691e-01 -5.672673999999999772e-01 -9.835644557577924441e-02
2.045100000000000051e+01 6.863699999999999690e+00 6.257299999999999862e+00 -2.240641999999999801e+00 -2.453892094361231069e-01
2.045700000000000074e+01 2.099099999999999966e+01 1.829400000000000048e+01 -8.594303000000000026e+00 1.305761625808612991e-01
2.046399999999999864e+01 1.059500000000000064e+01 4.067600000000000193e+01 2.047075999999999851e+01 1.673210753772368803e-02
2.046499999999999986e+01 1.075699999999999967e+01 1.249200000000000088e+01 -4.816470000000000340e+01 -4.864682392696565577e-02
2.046799999999999997e+01 8.605000000000000426e+00 1.189000000000000057e+01 4.689066000000000400e+00 -2.828948621760624116e-01
2.046799999999999997e+01 -4.758700000000000152e-01 3.592399999999999949e+01 8.996415000000000717e+00 2.520513170496167452e-02
2.046900000000000119e+01 -3.444199999999999928e+00 2.391500000000000181e+00 -5.944280000000000008e+00 -2.663714019619773943e-01
2.047100000000000009e+01 1.208999999999999986e+01 1.305799999999999983e+01 -6.517649999999999721e+00 -7.526100792836575015e-02
2.047299999999999898e+01 -5.298000000000000043e+00 2.964300000000000068e+01 9.070033000000000456e+00 3.133587284035191378e-02
2.047299999999999898e+01 -5.298000000000000043e+00 3.239300000000000068e+01 1.663395999999999830e+01 2.910952964193026099e-02
2.047599999999999909e+01 6.858799999999999564e+00 7.266099999999999781e+00 2.479302000000000117e+00 -2.482308917481646504e-01
2.047700000000000031e+01 1.679299999999999926e+01 3.885399999999999920e+01 7.497207999999999650e+00 1.237058680403290908e-02
2.048199999999999932e+01 -2.358999999999999986e+00 3.563700000000000045e+01 1.509251000000000076e+01 2.613430626815614957e-02
2.048699999999999832e+01 -5.242099999999999760e+00 1.019100000000000072e+01 1.195022999999999946e+01 -2.047228882451961884e-01
2.048799999999999955e+01 -7.979599999999999582e+00 1.968900000000000006e+01 1.236819000000000024e+01 -2.130053933374108366e-01
2.049500000000000099e+01 1.926399999999999935e+01 1.429700000000000060e+01 -7.765846999999999944e+00 1.266360042669385511e-01
2.049800000000000111e+01 1.737500000000000000e+01 4.042399999999999949e+01 -5.489353999999999623e+00 1.236300966967332320e-02
2.049800000000000111e+01 1.983500000000000085e+01 4.042399999999999949e+01 -2.014570000000000149e+01 1.096985814096256180e-02
2.049899999999999878e+01 -4.503300000000000303e+00 2.657900000000000063e+01 3.373282000000000114e+00 3.431062476123199201e-02
2.049899999999999878e+01 -4.503300000000000303e+00 2.762900000000000134e+01 4.509773000000000032e+00 3.322702323494048510e-02
2.050199999999999889e+01 -9.251899999999999125e+00 1.019200000000000017e+01 1.547761000000000031e+01 -2.066067276918887308e-01
2.050300000000000011e+01 -4.196299999999999919e+00 8.544399999999999551e+00 7.968783000000000172e+00 -3.947542659930156073e-01
2.050300000000000011e+01 -4.196299999999999919e+00 9.409599999999999298e+00 8.721270999999999773e+00 -2.036038531561405462e-01
2.050400000000000134e+01 2.042800000000000082e+01 2.796499999999999986e+01 -4.389299000000000284e+00 2.367464217064744469e-01
2.050799999999999912e+01 -7.974099999999999966e+00 2.036799999999999855e+01 3.520119000000000220e+00 -2.135001196036883930e-01
2.051599999999999824e+01 7.887299999999999756e+00 9.746900000000000119e+00 9.996732000000000395e-01 -8.066312238915089583e-02
2.052599999999999980e+01 1.423999999999999932e+00 -1.584999999999999964e+00 1.023754000000000053e+00 -1.054708258951875532e-01
2.052599999999999980e+01 8.908400000000000318e+00 1.258999999999999986e+01 -2.782179000000000180e+00 -2.887517436747853994e-01
2.052899999999999991e+01 1.586599999999999966e+01 1.446199999999999974e+01 -1.105787999999999993e+00 2.358557543067373030e-01
2.052899999999999991e+01 1.726599999999999824e+01 1.446199999999999974e+01 -2.034542000000000073e+00 1.107936319553383536e-01
2.053699999999999903e+01 1.860500000000000043e+01 4.124699999999999989e+01 -2.197204999999999941e+01 1.185319663866521434e-02
2.054899999999999949e+01 3.369800000000000129e+00 8.010000000000000453e-01 5.332379999999999676e+00 -2.602938174746637912e-01
2.055699999999999861e+01 1.842599999999999838e+01 3.422099999999999653e+01 4.509492999999999974e+00 9.499146660897933581e-03
2.055799999999999983e+01 1.959299999999999997e+01 1.505700000000000038e+01 -1.157808999999999955e+01 1.281720423401008224e-01
2.055799999999999983e+01 1.875400000000000134e+01 3.351100000000000279e+01 -1.500187000000000026e+01 8.849551977896113683e-03
2.056500000000000128e+01 1.942899999999999905e-01 -7.617099999999999982e-01 -2.050120000000000164e+00 -9.463622439042160273e-02
2.058299999999999841e+01 1.463499999999999979e+01 1.436100000000000065e+01 5.688234999999999708e+00 2.377702307588392405e-01
2.058299999999999841e+01 -3.748000000000000220e+00 3.286699999999999733e+01 1.178337999999999930e+01 2.851830528228159814e-02
2.058800000000000097e+01 -7.872700000000000031e+00 1.015000000000000036e+01 1.800187000000000026e+01 -2.059642985268444748e-01
2.059299999999999997e+01 1.932499999999999929e+01 1.581600000000000072e+01 -2.105226000000000042e+01 1.260764423757010644e-01
2.059900000000000020e+01 8.110599999999999810e+00 3.765100000000000335e+01 1.190192000000000050e+01 1.893828073720736291e-02
2.059900000000000020e+01 8.319699999999999207e+00 3.691499999999999915e+01 1.551661000000000001e+01 1.892487752898930689e-02
2.060500000000000043e+01 7.756999999999999673e+00 4.129200000000000159e+01 7.117046999999999457e+01 1.847495063094927586e-02
2.060500000000000043e+01 9.307000000000000384e+00 4.129200000000000159e+01 4.666490000000000293e+01 1.752691231094016464e-02
2.060900000000000176e+01 2.048699999999999832e+01 1.747899999999999920e+01 3.074746000000000201e+00 1.299720596013686225e-01
2.061199999999999832e+01 1.976599999999999824e+01 2.839300000000000068e+01 1.612392999999999965e+00 2.368756420105762039e-01
2.062399999999999878e+01 3.743100000000000094e+00 3.573100000000000165e+01 -4.466740999999999850e+00 2.293099592237930404e-02
2.062600000000000122e+01 -2.838200000000000056e+00 3.486200000000000188e+01 7.327155000000000307e+00 2.685214218897970934e-02
2.062900000000000134e+01 -1.173999999999999932e+00 3.090199999999999891e-02 3.234053999999999984e+00 -2.658090605991547117e-01
2.063500000000000156e+01 1.411700000000000088e+01 3.849399999999999977e+01 1.177904000000000018e+01 1.422764142698063061e-02
2.064499999999999957e+01 1.817399999999999949e+01 1.428599999999999959e+01 -6.126706000000000429e+00 1.188745740013129326e-01
2.065200000000000102e+01 -6.364600000000000257e+00 1.069299999999999962e+01 2.138972000000000051e+01 -2.056264531557077946e-01
2.065299999999999869e+01 6.108600000000000030e+00 2.494499999999999940e+00 1.687981999999999871e+01 -2.533720032380070153e-01
2.065399999999999991e+01 1.311999999999999922e+01 1.424499999999999922e+01 -6.588757000000000197e+00 2.410578154005921792e-01
2.065599999999999881e+01 3.306999999999999940e+00 -1.062599999999999989e+00 -1.470754999999999979e-01 -1.039342122772402705e-01
2.065700000000000003e+01 1.984400000000000119e+01 1.663500000000000156e+01 -4.973347999999999658e+00 1.282378200702440352e-01
2.066100000000000136e+01 2.116300000000000026e+01 2.700900000000000034e+01 -1.853969999999999985e+01 2.365775684610800234e-01
2.066199999999999903e+01 -1.149799999999999933e+01 1.130300000000000082e+01 3.713961999999999986e+00 -2.080429121185508878e-01
2.066300000000000026e+01 9.396300000000000097e+00 1.301200000000000045e+01 -8.745793000000000816e+00 -2.965699007582555113e-01
2.066300000000000026e+01 1.026200000000000045e+01 1.301200000000000045e+01 -1.531916000000000011e+01 -4.100325586386228266e-02
2.067699999999999960e+01 -7.006999999999999673e+00 2.314799999999999969e+01 1.188744999999999941e+01 -2.157142728502262907e-01
2.067899999999999849e+01 1.136100000000000110e+00 3.584499999999999886e+01 1.105838000000000099e+00 2.452729648185304062e-02
2.067999999999999972e+01 -8.049200000000000799e+00 2.128699999999999903e+01 3.129283000000000037e+00 -2.141339244436347988e-01
2.068799999999999883e+01 5.988100000000000200e+00 3.555400000000000205e+01 1.216386999999999929e+01 2.130266232916782493e-02
2.069099999999999895e+01 -3.095000000000000195e+00 3.563700000000000045e+01 1.545323999999999920e+01 2.644788214630399217e-02
2.069099999999999895e+01 2.125799999999999912e+01 2.459199999999999875e+01 1.663008000000000042e+00 2.363428248051163971e-01
2.069500000000000028e+01 5.258000000000000007e+00 3.561500000000000199e+01 1.369572999999999929e+01 2.187403156670448059e-02
2.070599999999999952e+01 2.038800000000000168e+01 1.857100000000000151e+01 4.910365999999999898e-01 1.289574776916482257e-01
2.070799999999999841e+01 -4.099499999999999922e+00 5.235699999999999577e+00 -1.255732999999999988e+00 -3.958149170604955414e-01
2.071399999999999864e+01 1.276900000000000013e+01 3.931300000000000239e+01 1.448273000000000010e+01 1.529902786038759600e-02
2.071600000000000108e+01 -4.419299999999999784e+00 1.021400000000000041e+01 1.417178999999999967e+01 -2.044071686814740718e-01
2.071999999999999886e+01 -2.073199999999999932e+00 1.784499999999999975e-01 2.575267000000000195e+00 -2.665646296500466805e-01
2.072700000000000031e+01 1.633200000000000074e+01 3.827100000000000080e+01 3.701452000000000186e+00 1.258848183199944362e-02
2.073999999999999844e+01 -4.865400000000000169e+00 2.894300000000000139e+01 5.160871000000000208e+00 3.211957578450021222e-02
2.075900000000000034e+01 1.903699999999999903e+01 3.061799999999999855e+01 -1.331122000000000050e+01 2.370524682685871964e-01
2.076099999999999923e+01 -3.995699999999999807e+00 4.294299999999999784e+00 4.157853000000000243e-01 -3.961412126838798620e-01
2.076599999999999824e+01 -8.716400000000000148e+00 1.957900000000000063e+01 5.630753999999999593e+00 -2.128150768491381406e-01
2.076999999999999957e+01 -4.237599999999999589e+00 6.149600000000000399e+00 3.329277999999999960e+00 -3.955403827432685260e-01
2.077199999999999847e+01 2.241299999999999959e-01 3.586599999999999966e+01 8.669109999999999872e+00 2.502416203829935237e-02
2.077400000000000091e+01 -5.588000000000000078e+00 1.091399999999999970e+01 1.924505999999999872e+01 -2.054866258502922316e-01
2.077400000000000091e+01 -4.722699999999999676e+00 1.091399999999999970e+01 1.737675000000000125e+01 -2.051502409198888155e-01
2.079200000000000159e+01 1.914999999999999858e+01 3.268099999999999739e+01 -3.975173000000000201e+01 8.051345503908308859e-03
2.079400000000000048e+01 -2.123299999999999965e+00 3.658800000000000097e+01 9.048624999999999474e+00 2.557999263298183640e-02
2.079400000000000048e+01 -1.072699999999999987e+00 3.658800000000000097e+01 1.995535999999999888e+01 2.518206383764584610e-02
2.081500000000000128e+01 1.544999999999999929e+01 1.430400000000000027e+01 1.469973999999999892e+00 2.365060954765820234e-01
2.081700000000000017e+01 5.529300000000000104e+00 9.979500000000000037e-01 -6.851890000000000036e+00 -2.591022928048558605e-01
2.082300000000000040e+01 2.193299999999999983e+01 2.382900000000000063e+01 8.774209000000000813e+00 1.534088827158224533e-01
2.083099999999999952e+01 -2.942099999999999937e+00 6.386199999999999655e-01 1.209287999999999919e+00 -2.671485821552702644e-01
2.083099999999999952e+01 7.447700000000000209e+00 3.558800000000000097e+01 7.540744000000000113e+00 2.008137442443833770e-02
2.083299999999999841e+01 1.656599999999999895e+01 1.452100000000000080e+01 -1.697381999999999946e+00 2.351998253831142360e-01
2.083500000000000085e+01 2.217800000000000082e+01 2.298300000000000054e+01 9.104867000000000488e+00 1.545346183669253914e-01
2.083699999999999974e+01 4.549000000000000377e+00 -1.536999999999999922e+00 4.665827000000000169e-01 9.812901732869404661e-03
2.084299999999999997e+01 1.143599999999999994e+01 4.034199999999999875e+01 3.973051999999999850e+01 1.626108778175629557e-02
2.085099999999999909e+01 -3.315399999999999903e+00 3.356700000000000017e+01 5.584550000000000125e+00 2.800167260587402285e-02
2.085099999999999909e+01 -3.315399999999999903e+00 3.443299999999999983e+01 5.318890999999999813e+00 2.737729436976876762e-02
2.085099999999999909e+01 -4.113400000000000389e+00 2.421699999999999875e+01 -2.718285999999999980e+00 3.739031908707746849e-02
2.085099999999999909e+01 -4.113400000000000389e+00 2.568900000000000006e+01 5.532057999999999698e-01 3.564246098600273860e-02
2.085099999999999909e+01 -3.904300000000000104e+00 2.495299999999999940e+01 -2.992570000000000174e+00 3.654527051763992174e-02
2.085099999999999909e+01 1.853200000000000003e+01 1.582499999999999929e+01 -1.727917000000000058e+01 1.223266706366610973e-01
2.085500000000000043e+01 6.640000000000000346e-01 -1.521700000000000053e+00 1.352432000000000079e+00 -1.033148668239028539e-01
2.085500000000000043e+01 2.184000000000000163e+00 -1.521700000000000053e+00 5.652977999999999614e-01 -1.068688435357435101e-01
2.085999999999999943e+01 -9.618000000000000327e+00 1.952199999999999847e+01 -1.685920000000000085e+00 -2.126657922730265382e-01
2.085999999999999943e+01 2.378000000000000114e+00 3.631900000000000261e+01 -1.068023999999999951e+01 2.360995154633280246e-02
2.086100000000000065e+01 1.118999999999999950e+01 1.298300000000000054e+01 -9.148369000000000639e+00 -6.577685936922035570e-02
2.086400000000000077e+01 -2.662399999999999878e+00 3.648799999999999955e+01 6.705943999999999683e+00 2.584510286107567084e-02
2.087600000000000122e+01 -4.395999999999999908e+00 7.062000000000000277e+00 6.956023000000000067e+00 -3.953008201501403973e-01
2.087600000000000122e+01 5.778699999999999726e+00 -7.137099999999999556e-01 -6.940233000000000096e+00 2.150285870702255825e-02
2.087600000000000122e+01 5.778699999999999726e+00 2.257099999999999940e-01 -1.498564000000000007e+01 -8.658286678145923898e-02
2.088299999999999912e+01 1.885600000000000165e+01 1.505700000000000038e+01 -2.533724000000000132e+01 1.247860783743047763e-01
2.088899999999999935e+01 -5.445700000000000429e+00 2.354599999999999937e+01 3.494597000000000175e+00 3.771314698057774695e-02
2.089099999999999824e+01 -1.120400000000000063e+01 1.796699999999999875e+01 1.059316000000000008e-01 -2.116344124425895978e-01
2.089199999999999946e+01 -5.989600000000000257e+00 3.010600000000000165e+01 4.410388000000000197e+00 3.118927045826670047e-02
2.089699999999999847e+01 1.487500000000000000e+01 3.824900000000000233e+01 1.261727999999999916e+01 1.367437913832653465e-02
2.089900000000000091e+01 -1.084800000000000075e+01 1.869900000000000162e+01 1.350020999999999916e+00 -2.120738222898054803e-01
2.090200000000000102e+01 1.905199999999999960e+01 2.963899999999999935e+01 -9.584736000000000367e-01 2.370368023545771086e-01
2.090200000000000102e+01 2.007000000000000028e+01 3.635699999999999932e+01 1.229053000000000040e+01 9.395192674465493998e-03
2.090599999999999881e+01 2.180900000000000105e+01 2.213299999999999912e+01 4.476037999999999961e+00 1.546086258931273494e-01
2.090700000000000003e+01 7.612599999999999589e+00 3.845700000000000074e+01 7.043979000000000212e+00 1.921736582664257745e-02
2.090700000000000003e+01 -4.505399999999999849e+00 3.282099999999999795e+01 1.408694000000000024e+01 2.885933590848889160e-02
2.090899999999999892e+01 1.883599999999999852e+01 1.652499999999999858e+01 -9.123710000000000875e+00 1.241105658033590659e-01
2.091799999999999926e+01 1.741199999999999903e+01 3.933899999999999864e+01 2.605808000000000124e+00 1.214692942742306124e-02
2.092000000000000171e+01 1.822500000000000142e+01 3.517799999999999727e+01 1.355669999999999931e+01 1.017076089915676732e-02
2.092200000000000060e+01 -3.909899999999999931e+00 3.563700000000000045e+01 5.943710000000000271e+00 2.675592415442780078e-02
2.092899999999999849e+01 -4.257799999999999585e+00 7.941799999999999748e+00 7.530556999999999945e+00 -3.950312369841048055e-01
2.093400000000000105e+01 2.095599999999999952e+01 2.743700000000000117e+01 -1.217632000000000048e+01 2.366510884986670615e-01
2.093499999999999872e+01 1.921199999999999974e+01 3.144800000000000040e+01 -1.690520000000000067e+01 2.370487128453982462e-01
2.094900000000000162e+01 -5.648699999999999832e+00 2.969800000000000040e+01 4.410388000000000197e+00 3.157067727727687345e-02
2.095599999999999952e+01 -7.064600000000000435e+00 1.063499999999999979e+01 2.188485000000000014e+01 -2.059437641157456922e-01
2.095899999999999963e+01 8.208399999999999253e+00 1.145700000000000074e+01 9.176576000000000732e+00 -2.819482525135173501e-01
2.095899999999999963e+01 8.208399999999999253e+00 1.232300000000000040e+01 5.213601999999999848e+00 -2.825144299322300268e-01
2.096600000000000108e+01 -5.946900000000000297e+00 3.201200000000000045e+01 7.988267999999999702e+00 2.968999476911752394e-02
2.096799999999999997e+01 1.813500000000000156e+01 4.071399999999999864e+01 -4.759232999999999691e+01 1.204378777404644697e-02
2.096799999999999997e+01 1.907499999999999929e+01 4.071399999999999864e+01 -4.647261000000000308e+01 1.151520981676016839e-02
2.097500000000000142e+01 2.053999999999999915e+01 1.972200000000000131e+01 -1.617537999999999920e+00 1.291856425980280887e-01
2.097800000000000153e+01 -8.457700000000000884e+00 9.838800000000000878e+00 7.756901000000000046e+00 -2.061390391667157762e-01
2.098100000000000165e+01 1.755199999999999960e+01 1.444699999999999918e+01 -2.034542000000000073e+00 1.151284297407952212e-01
2.098699999999999832e+01 -3.573999999999999844e+00 3.641199999999999903e+01 6.947555000000000369e+00 2.620406618899491849e-02
2.099399999999999977e+01 6.634400000000000297e+00 3.345000000000000195e+00 2.450616000000000128e+01 -2.548286074840865334e-01
2.099800000000000111e+01 -5.057099999999999929e-01 -4.943299999999999916e-01 2.164941999999999922e+00 -2.664317283708446671e-01
2.099800000000000111e+01 -7.615400000000000169e+00 2.242200000000000060e+01 8.365600999999999843e+00 -2.150501619702147593e-01
2.100100000000000122e+01 7.509699999999999598e+00 4.978299999999999947e+00 -3.949771000000000143e+00 -2.555792877834612842e-01
2.100100000000000122e+01 7.509699999999999598e+00 5.917699999999999960e+00 -3.942584999999999784e+00 -2.563900047505767721e-01
2.101300000000000168e+01 7.045099999999999696e+00 8.711399999999999366e+00 1.416671000000000014e+00 -6.916375014094931772e-02
2.102700000000000102e+01 -1.077500000000000036e+01 1.089199999999999946e+01 3.379960000000000075e+00 -2.076347622560897332e-01
2.103099999999999881e+01 1.780600000000000094e+01 3.995400000000000063e+01 -5.317061999999999955e+00 1.206654694806532334e-02
2.103099999999999881e+01 2.016300000000000026e+01 3.914300000000000068e+01 1.621550999999999831e+01 1.044803320436771786e-02
2.104500000000000171e+01 1.927499999999999858e+01 2.878999999999999915e+01 1.568577999999999939e+01 2.369863850930342686e-01
2.104799999999999827e+01 1.802899999999999991e+01 3.378799999999999670e+01 1.472344999999999970e+01 9.680057225646864633e-03
2.104799999999999827e+01 1.802899999999999991e+01 3.465299999999999869e+01 9.250857999999999137e+00 1.010672785977293972e-02
2.105199999999999960e+01 -3.625100000000000211e+00 3.474200000000000177e+00 -2.728346999999999856e-01 -3.964858499381520573e-01
2.105900000000000105e+01 4.435500000000000220e+00 3.566199999999999903e+01 7.441883999999999943e+00 2.262155099365092958e-02
2.105999999999999872e+01 9.829000000000000625e+00 1.350300000000000011e+01 -4.920429000000000386e+00 -2.021117983828491123e-03
2.106500000000000128e+01 -1.231499999999999950e+01 1.476699999999999946e+01 1.988126999999999978e+00 -2.099917275178145581e-01
2.107600000000000051e+01 2.084600000000000009e+01 2.050199999999999889e+01 -2.208787999999999863e-01 1.296773690231499965e-01
2.108399999999999963e+01 6.982000000000000206e+00 4.003799999999999670e+01 1.162819000000000003e+01 1.932013370685854020e-02
2.108399999999999963e+01 7.213499999999999801e+00 3.922299999999999898e+01 1.883973999999999904e+01 1.936192638979798014e-02
2.108399999999999963e+01 7.213499999999999801e+00 4.085300000000000153e+01 2.633696000000000126e+01 1.899208939984573657e-02
2.108399999999999963e+01 8.532000000000000028e+00 4.158800000000000097e+01 3.701935000000000286e+01 1.805606975785861018e-02
2.108399999999999963e+01 9.903000000000000469e+00 4.095199999999999818e+01 5.008435000000000059e+01 1.728114164175791750e-02
2.108699999999999974e+01 1.262899999999999956e+01 1.384900000000000020e+01 -4.727374000000000187e+00 2.431600492135390645e-01
2.108699999999999974e+01 1.382000000000000028e+01 1.451299999999999990e+01 -1.957586000000000048e+00 2.399575386524565312e-01
