4.095900000000000318e+01 1.406799999999999962e+01 -8.512300000000000466e+01 -1.749402999999999864e+01 -6.677693681530191827e-02
4.096300000000000097e+01 4.529099999999999682e+00 -9.523900000000000432e+01 2.205533000000000143e+01 -6.673290634512270281e-02
4.097200000000000131e+01 1.996999999999999886e+01 -8.408499999999999375e+01 1.376448000000000071e+01 -6.679592327232536375e-02
4.097200000000000131e+01 1.391799999999999926e+01 -9.623699999999999477e+01 3.431195000000000306e+01 -6.675742031839869417e-02
4.097200000000000131e+01 1.391799999999999926e+01 -9.468699999999999761e+01 7.035591000000000150e+00 -6.676127920000254901e-02
4.098199999999999932e+01 1.180799999999999983e+01 -8.865500000000000114e+01 2.299072999999999922e+01 -6.676584519157094388e-02
4.098700000000000188e+01 1.657300000000000040e+01 -9.373799999999999955e+01 9.375277999999999778e+00 -6.677258259135422647e-02
4.098899999999999721e+01 1.764900000000000091e+01 -8.494199999999999307e+01 -2.304859000000000080e+01 -6.678796042430582003e-02
4.099000000000000199e+01 3.352400000000000091e+01 -1.211899999999999977e+02 -1.431631999999999927e+01 -6.658886190876175948e-02
4.100000000000000000e+01 1.670100000000000051e+01 -8.217499999999999716e+01 -1.631965999999999894e+01 -6.678665511885897854e-02
4.101299999999999812e+01 1.279100000000000037e+01 -8.384300000000000352e+01 5.339074000000000098e+00 -6.677418823628632205e-02
4.102900000000000347e+01 1.305199999999999960e+01 -8.779699999999999704e+01 6.937937999999999938e+00 -6.677059070388835504e-02
4.102900000000000347e+01 1.338000000000000078e+01 -8.705200000000000671e+01 -6.410796999999999635e+00 -6.677252243360790041e-02
4.103300000000000125e+01 6.209999999999999964e+00 -8.461799999999999500e+01 -1.178734000000000037e+01 -6.675587123682558133e-02
4.103699999999999903e+01 1.358200000000000074e+01 -9.546200000000000330e+01 3.722330999999999790e+01 -6.675795553654875758e-02
4.103900000000000148e+01 1.122899999999999920e+01 -8.280800000000000693e+01 -2.152237999999999829e+01 -6.677068641928099457e-02
4.104200000000000159e+01 3.487099999999999866e+00 -8.724299999999999500e+01 1.293088999999999933e+00 -6.674571248550328906e-02
4.104699999999999704e+01 2.001999999999999957e+01 -8.326699999999999591e+01 2.630003999999999920e+01 -6.679606094129331151e-02
4.105799999999999983e+01 4.511000000000000121e+00 -8.594599999999999795e+01 2.114841999999999889e+00 -6.674995664469349221e-02
4.106000000000000227e+01 2.259900000000000020e+00 -9.248399999999999466e+01 -3.080217999999999900e+00 -6.673343498069470026e-02
4.106000000000000227e+01 2.468999999999999861e+00 -9.321999999999999886e+01 -2.613621999999999890e-01 -6.673235265063870436e-02
4.107200000000000273e+01 1.183000000000000007e+01 -8.294100000000000250e+01 -2.233001000000000147e+01 -6.677208228327989603e-02
4.107999999999999829e+01 1.982599999999999918e+00 -8.815399999999999636e+01 -1.497245999999999988e+01 -6.674071724502209091e-02
4.107999999999999829e+01 3.310399999999999920e+01 -1.253700000000000045e+02 -4.284404000000000323e+00 -6.647611232559530459e-02
4.108599999999999852e+01 1.678200000000000003e+01 -8.475000000000000000e+01 -1.871755999999999887e+01 -6.678496764817150322e-02
4.108899999999999864e+01 3.895199999999999996e+00 -8.796599999999999397e+01 -7.833378999999999870e+00 -6.674540471332787717e-02
4.109799999999999898e+01 4.065999999999999837e+00 -8.675799999999999557e+01 5.170776000000000039e+00 -6.674762210746884583e-02
4.113100000000000023e+01 1.068900000000000006e+01 -9.164700000000000557e+01 1.216325999999999929e+01 -6.675682476515740205e-02
4.113499999999999801e+01 7.700000000000000178e+00 -8.366200000000000614e+01 -4.882878999999999969e-01 -6.676034530501437358e-02
4.114000000000000057e+01 2.133099999999999952e+01 -9.248600000000000421e+01 -1.827933000000000163e+01 -6.679212272404666528e-02
4.114000000000000057e+01 2.133099999999999952e+01 -9.096599999999999397e+01 -1.927833000000000041e+01 -6.679427672218320178e-02
4.114000000000000057e+01 2.227100000000000080e+01 -9.248600000000000421e+01 -3.330277999999999849e+01 -6.679589334271131273e-02
4.114000000000000057e+01 2.227100000000000080e+01 -9.096599999999999397e+01 -4.969189999999999685e+01 -6.679792355527816583e-02
4.114200000000000301e+01 8.243900000000000006e+00 -9.697400000000000375e+01 -2.766744000000000092e+00 -6.673728062517529647e-02
4.114399999999999835e+01 9.929899999999999949e+00 -8.343200000000000216e+01 -1.155396000000000001e+01 -6.676629132023408075e-02
4.114699999999999847e+01 1.035399999999999920e+01 -9.086799999999999500e+01 1.185919999999999952e+01 -6.675723740449174270e-02
4.114900000000000091e+01 1.645299999999999940e+01 -8.398999999999999488e+01 -2.457084000000000046e+01 -6.678424526210405276e-02
4.115999999999999659e+01 6.421700000000000408e+00 -9.876800000000000068e+01 9.919957000000000136e+00 -6.672726635404280238e-02
4.115999999999999659e+01 7.472299999999999720e+00 -9.876800000000000068e+01 5.618101000000000234e+00 -6.672994281364011404e-02
4.116499999999999915e+01 3.498299999999999699e+01 -1.221700000000000017e+02 1.331609000000000087e+01 -6.300408341894850328e-02
4.117000000000000171e+01 6.660000000000000364e-01 -9.131300000000000239e+01 -5.503457000000000043e+00 -6.673192276194386818e-02
4.117000000000000171e+01 6.660000000000000364e-01 -8.885299999999999443e+01 -4.188685000000000258e+01 -6.673639329643363260e-02
4.120300000000000296e+01 2.100199999999999889e+01 -9.172599999999999909e+01 -1.034858999999999973e+01 -6.679160582245820266e-02
4.120300000000000296e+01 2.260000000000000142e+01 -9.172599999999999909e+01 -3.983787000000000234e+01 -6.679789217739935669e-02
4.120499999999999829e+01 1.670700000000000074e+01 -8.319199999999999307e+01 -4.721967999999999677e+01 -6.678529320364852417e-02
4.121600000000000108e+01 3.019000000000000128e+00 -8.811499999999999488e+01 -9.035254999999999370e+00 -6.674271876407555926e-02
4.121699999999999875e+01 1.032499999999999929e+01 -9.292000000000000171e+01 5.632946999999999704e+00 -6.675280819380760566e-02
4.122299999999999898e+01 3.125000000000000000e+00 -9.444899999999999807e+01 2.117906999999999940e+01 -6.673054854538179592e-02
4.122299999999999898e+01 1.033600000000000030e+01 -8.979600000000000648e+01 1.186222000000000065e+01 -6.675876230453686722e-02
4.123100000000000165e+01 6.053300000000000125e+00 -9.791800000000000637e+01 8.301351999999999620e+00 -6.672855556225772145e-02
4.123100000000000165e+01 7.840700000000000003e+00 -9.791800000000000637e+01 8.499418999999999613e+00 -6.673313976489178567e-02
4.124600000000000222e+01 1.365700000000000003e+01 -8.664499999999999602e+01 -2.278187000000000140e+01 -6.677294894242831458e-02
4.124600000000000222e+01 1.391099999999999959e+01 -8.575100000000000477e+01 -1.842990999999999957e+01 -6.677469371800116849e-02
4.127000000000000313e+01 2.941600000000000037e+01 -1.273700000000000045e+02 2.136124999999999829e+01 -6.646296291494170616e-02
4.127000000000000313e+01 2.941600000000000037e+01 -1.258199999999999932e+02 2.418195000000000050e+01 -6.649596566420837296e-02
4.127000000000000313e+01 3.037399999999999878e+01 -1.273700000000000045e+02 1.660585000000000022e+01 -6.645266079591802266e-02
4.127000000000000313e+01 3.037399999999999878e+01 -1.258199999999999932e+02 2.250022999999999840e+01 -6.648789441746953688e-02
4.127700000000000102e+01 3.500800000000000267e+01 -1.251299999999999955e+02 4.159881000000000384e+00 -6.293386117623832321e-02
4.127900000000000347e+01 1.150000000000000000e+01 -8.902500000000000568e+01 2.319867999999999952e+01 -6.676316935034083688e-02
4.128900000000000148e+01 4.660400000000000098e+00 -8.781699999999999307e+01 -2.326105999999999785e+00 -6.674682406824178349e-02
4.128900000000000148e+01 4.660400000000000098e+00 -8.686899999999999977e+01 -1.061785999999999897e+00 -6.674826813820014526e-02
4.129399999999999693e+01 2.496600000000000108e+01 -1.258299999999999983e+02 1.155999999999999944e-01 -6.652620226285310689e-02
4.129399999999999693e+01 2.496600000000000108e+01 -1.243100000000000023e+02 -5.593257999999999619e+00 -6.655056603500492107e-02
4.129399999999999693e+01 2.590599999999999881e+01 -1.258299999999999983e+02 -2.174255000000000049e+00 -6.652053160142637478e-02
4.129399999999999693e+01 2.590599999999999881e+01 -1.243100000000000023e+02 -2.410488000000000142e+01 -6.654634951634467999e-02
4.130599999999999739e+01 1.079700000000000060e+01 -8.350799999999999557e+01 -7.411108999999999725e+00 -6.676795187175615931e-02
4.130599999999999739e+01 1.170299999999999940e+01 -8.350799999999999557e+01 -6.016651999999999667e+00 -6.677039411690958992e-02
4.131000000000000227e+01 3.142300000000000093e+00 -8.884099999999999397e+01 -2.152965000000000018e+01 -6.674150657556454647e-02
4.131000000000000227e+01 5.425200000000000244e+00 -9.665099999999999625e+01 6.608957000000000193e+00 -6.673020041822332049e-02
4.133200000000000074e+01 1.462299999999999933e+01 -9.640000000000000568e+01 1.224113999999999924e+00 -6.675752452092545419e-02
4.133500000000000085e+01 2.907999999999999829e+01 -1.265900000000000034e+02 3.582726999999999862e+01 -6.648192967621281702e-02
4.133500000000000085e+01 3.071000000000000085e+01 -1.265900000000000034e+02 3.332075999999999993e+01 -6.646625328016741996e-02
4.134599999999999653e+01 3.276200000000000045e+01 -1.249099999999999966e+02 4.336145000000000138e+00 -6.648838605783100042e-02
4.134599999999999653e+01 1.910500000000000043e+01 -8.431600000000000250e+01 4.559198999999999558e+00 -6.679136906543789443e-02
4.135699999999999932e+01 2.463700000000000045e+01 -1.250699999999999932e+02 -8.379454000000000846e+00 -6.653949012949909869e-02
4.135699999999999932e+01 2.623499999999999943e+01 -1.250699999999999932e+02 -1.874456999999999951e+01 -6.653104253284056191e-02
4.135699999999999932e+01 1.593500000000000050e+01 -9.693699999999999761e+01 -2.898793000000000064e-01 -6.676048893664918160e-02
4.135699999999999932e+01 5.106099999999999639e+00 -8.535599999999999454e+01 -8.406980000000000786e+00 -6.675123388872934715e-02
4.135900000000000176e+01 5.085899999999999643e+00 -9.572100000000000364e+01 1.011951000000000001e+01 -6.673160252246135293e-02
4.135999999999999943e+01 8.596700000000000230e+00 -9.615999999999999659e+01 -7.238263999999999809e-01 -6.673952873846403233e-02
4.135999999999999943e+01 8.596700000000000230e+00 -9.521999999999999886e+01 8.766874999999999529e-01 -6.674194900828099575e-02
4.136500000000000199e+01 4.298799999999999955e+00 -8.881499999999999773e+01 -2.246452000000000027e+01 -6.674408600855191720e-02
4.139099999999999824e+01 1.357699999999999996e+01 -8.472599999999999909e+01 -2.484793000000000163e+01 -6.677417094052627566e-02
4.140500000000000114e+01 1.461800000000000033e+01 -9.442000000000000171e+01 -1.312756000000000034e+00 -6.676210193896822687e-02
4.140500000000000114e+01 1.730300000000000082e+01 -9.628100000000000591e+01 -9.318813000000000457e+00 -6.676698284091946156e-02
4.140500000000000114e+01 1.730300000000000082e+01 -9.455299999999999727e+01 -2.596415000000000006e+01 -6.677120890699797529e-02
4.140999999999999659e+01 1.766700000000000159e+01 -8.087099999999999511e+01 -2.895894000000000190e+00 -6.678835572121777364e-02
4.140999999999999659e+01 1.936700000000000088e+01 -8.087099999999999511e+01 -2.678005999999999887e+00 -6.679322499529581625e-02
4.141899999999999693e+01 8.347300000000000608e+00 -9.444799999999999329e+01 -1.156678999999999924e+01 -6.674290768184057421e-02
4.141899999999999693e+01 1.593500000000000050e+01 -9.379900000000000659e+01 -9.279598000000000013e+00 -6.676792951561720535e-02
4.142099999999999937e+01 3.305400000000000205e+01 -1.217300000000000040e+02 -1.042877999999999972e+01 -6.656896010423268839e-02
4.142099999999999937e+01 3.399399999999999977e+01 -1.217300000000000040e+02 -1.455911000000000044e+01 -6.303851787227322812e-02
4.142999999999999972e+01 2.180099999999999838e+01 -9.172599999999999909e+01 -1.898420000000000130e+01 -6.679337145945213328e-02
4.143099999999999739e+01 1.811499999999999844e+01 -8.442400000000000659e+01 -1.376942000000000021e+01 -6.678783418405696837e-02
4.143299999999999983e+01 3.972300000000000164e+00 -9.475799999999999557e+01 1.939163999999999888e+01 -6.673104810202390436e-02
4.143299999999999983e+01 8.791499999999999204e+00 -9.374800000000000466e+01 6.367270999999999681e+00 -6.674570644568432465e-02
4.144700000000000273e+01 9.229900000000000659e+00 -8.337399999999999523e+01 -2.062096999999999980e+01 -6.676349705918066535e-02
4.146000000000000085e+01 1.962899999999999923e-01 -9.055299999999999727e+01 -1.085068000000000055e+01 -6.673150072777284114e-02
4.146000000000000085e+01 1.962899999999999923e-01 -8.961299999999999955e+01 -1.734748000000000090e+01 -6.673321859965200553e-02
4.147399999999999665e+01 1.719000000000000128e+01 -8.398999999999999488e+01 -2.646903000000000006e+01 -6.678511027199081351e-02
4.148400000000000176e+01 3.272500000000000142e+01 -1.224899999999999949e+02 -4.318249999999999922e+00 -6.655003918521359974e-02
4.148499999999999943e+01 6.947000000000000064e+00 -9.791800000000000637e+01 1.644766999999999868e+01 -6.672976682385114988e-02
4.149199999999999733e+01 6.970399999999999707e+00 -8.404999999999999716e+01 3.500417000000000112e+00 -6.675693961923365172e-02
4.149300000000000210e+01 3.271000000000000085e+01 -1.242300000000000040e+02 6.642282999999999937e+00 -6.650493482102455556e-02
4.149300000000000210e+01 3.546000000000000085e+01 -1.242300000000000040e+02 1.384251000000000076e+01 -6.292385921535384452e-02
4.149300000000000210e+01 3.546000000000000085e+01 -1.231800000000000068e+02 2.695833000000000013e+01 -6.294812817290390550e-02
4.149900000000000233e+01 1.425999999999999934e+00 -8.879000000000000625e+01 -2.093275999999999826e+01 -6.673716466114973378e-02
4.150800000000000267e+01 1.250799999999999912e+01 -8.823600000000000421e+01 4.597225999999999857e+01 -6.676638503459270124e-02
4.151599999999999824e+01 6.639700000000000379e+00 -9.750300000000000011e+01 7.058749999999999858e+00 -6.673005683559142531e-02
4.151899999999999835e+01 2.406299999999999883e+00 -8.884099999999999397e+01 -6.378049000000000035e+01 -6.673917964084387366e-02
4.153499999999999659e+01 2.562199999999999811e+00 -9.377200000000000557e+01 3.720507000000000009e+00 -6.672976396839858104e-02
4.153699999999999903e+01 3.408500000000000085e+01 -1.251500000000000057e+02 5.628650000000000375e+00 -6.296371147797819035e-02
4.153900000000000148e+01 1.946000000000000085e+01 -8.365699999999999648e+01 1.016262000000000043e+01 -6.679196291383353301e-02
4.154099999999999682e+01 3.263100000000000023e+01 -1.233900000000000006e+02 2.768062000000000022e+00 -6.652670263432482189e-02
4.156400000000000006e+01 1.378400000000000070e+00 -9.145099999999999341e+01 -8.609220000000000539e+00 -6.673196779929606304e-02
4.156600000000000250e+01 2.989499999999999957e+01 -1.265900000000000034e+02 3.193293999999999855e+01 -6.647202582054657916e-02
4.157399999999999807e+01 6.336299999999999599e+00 -9.680299999999999727e+01 6.147142999999999802e+00 -6.673101062805568418e-02
4.157699999999999818e+01 2.709700000000000220e+00 -8.954099999999999682e+01 -6.093556000000000239e+01 -6.673845912872890251e-02
4.158400000000000318e+01 2.543599999999999994e+01 -1.250699999999999932e+02 -2.342405000000000115e+01 -6.653331007386750762e-02
4.159700000000000131e+01 1.423399999999999999e+01 -9.536700000000000443e+01 -9.121026000000000522e+00 -6.675755840623823212e-02
4.160199999999999676e+01 1.094699999999999918e+01 -9.239100000000000534e+01 5.423827000000000176e+00 -6.675411127547678514e-02
4.160499999999999687e+01 8.460000000000000853e+00 -8.337199999999999989e+01 -2.044678000000000040e+01 -6.676101875901990779e-02
4.163400000000000034e+01 7.361500000000000377e+00 -9.721800000000000352e+01 -1.378079999999999972e+00 -6.673221212654231738e-02
4.164600000000000080e+01 1.035899999999999999e+01 -8.410399999999999920e+01 -2.298798000000000030e+01 -6.676498374399060520e-02
4.164600000000000080e+01 1.122400000000000020e+01 -8.410399999999999920e+01 -1.664411000000000129e+01 -6.676728690599391391e-02
4.165599999999999881e+01 1.103599999999999959e+01 -8.952899999999999636e+01 2.297887000000000057e+01 -6.675948504376155723e-02
4.166100000000000136e+01 3.414999999999999858e+01 -1.222300000000000040e+02 -3.593184000000000111e+01 -6.301382486877028788e-02
4.166499999999999915e+01 4.982300000000000395e+00 -8.640800000000000125e+01 -4.686065000000000147e+00 -6.674850656161450402e-02
4.168200000000000216e+01 1.105899999999999928e+01 -9.100400000000000489e+01 1.416859000000000002e+01 -6.675683544516866630e-02
4.170000000000000284e+01 5.100100000000000300e+00 -8.760200000000000387e+01 -4.747232999999999592e+00 -6.674687625404282509e-02
4.170300000000000296e+01 1.217699999999999960e+01 -8.399899999999999523e+01 4.735247000000000206e+00 -6.676976605719382729e-02
4.170400000000000063e+01 6.362599999999999589e+00 -8.485899999999999466e+01 -2.864494999999999791e+00 -6.675379122690452971e-02
4.170900000000000318e+01 3.743100000000000094e+00 -8.964300000000000068e+01 -2.647370000000000090e+01 -6.674021625753008558e-02
4.171399999999999864e+01 1.073199999999999932e+01 -9.022899999999999920e+01 2.314726999999999890e+01 -6.675717507521169991e-02
4.173499999999999943e+01 1.714199999999999946e+01 -8.277100000000000080e+01 -1.140845000000000020e+01 -6.678465512551198802e-02
4.173499999999999943e+01 1.714199999999999946e+01 -8.172100000000000364e+01 -2.320513000000000048e+00 -6.678522083518226293e-02
4.173499999999999943e+01 1.989199999999999946e+01 -8.277100000000000080e+01 9.485810000000000741e+00 -6.679280941024852425e-02
4.173499999999999943e+01 1.989199999999999946e+01 -8.172100000000000364e+01 2.898705999999999783e+00 -6.679317261296120745e-02
4.174600000000000222e+01 9.392300000000000537e+00 -9.312099999999999511e+01 7.020304999999999573e+00 -6.674750152955868931e-02
4.175999999999999801e+01 2.201600000000000001e+00 -9.278799999999999670e+01 -1.004699999999999926e+00 -6.673038147969140299e-02
4.177100000000000080e+01 1.306099999999999994e+01 -8.437600000000000477e+01 -1.621637000000000128e+01 -6.677158020068588162e-02
4.177900000000000347e+01 1.851699999999999946e+01 -8.079999999999999716e+01 -7.359454000000000384e+00 -6.678931503372699530e-02
4.178399999999999892e+01 2.961100000000000065e+00 -9.008299999999999841e+01 -6.920523000000000025e+01 -6.673738412455967883e-02
4.179099999999999682e+01 4.594999999999999751e+00 -9.532399999999999807e+01 1.372403000000000084e+01 -6.672983706602302056e-02
4.179899999999999949e+01 5.461999999999999744e+00 -8.823699999999999477e+01 -3.057573000000000096e+00 -6.674640277483126494e-02
4.180400000000000205e+01 1.298700000000000010e+01 -8.746099999999999852e+01 4.904207000000000427e+00 -6.676765749323486376e-02
4.182000000000000028e+01 3.228000000000000203e+00 -9.459099999999999397e+01 6.788945000000000007e+00 -6.672839027692024916e-02
4.182699999999999818e+01 1.517500000000000071e+01 -9.664700000000000557e+01 3.816719000000000084e-01 -6.675610232272664868e-02
4.182699999999999818e+01 1.517500000000000071e+01 -9.418699999999999761e+01 -3.056562000000000001e+00 -6.676237794033273998e-02
4.182699999999999818e+01 1.669500000000000028e+01 -9.664700000000000557e+01 -3.060531000000000112e+00 -6.676137819699175247e-02
4.182699999999999818e+01 1.669500000000000028e+01 -9.418699999999999761e+01 -2.539564000000000021e+01 -6.676757308473851849e-02
4.182999999999999829e+01 7.836700000000000443e+00 -9.645000000000000284e+01 -4.717548999999999992e+00 -6.673475653109642303e-02
4.185699999999999932e+01 5.158599999999999852e+00 -8.893699999999999761e+01 -2.483298999999999879e+01 -6.674430489618886353e-02
4.186599999999999966e+01 6.022000000000000242e+00 -8.526900000000000546e+01 9.693234000000000350e+00 -6.675191746453812414e-02
4.187500000000000000e+01 8.434400000000000119e+00 -9.320099999999999341e+01 6.364745000000000097e+00 -6.674418606835023915e-02
4.189300000000000068e+01 8.166100000000000136e+00 -9.568999999999999773e+01 -1.703312999999999988e+01 -6.673738169197866721e-02
4.190299999999999869e+01 1.851699999999999946e+01 -8.372199999999999420e+01 -2.417720000000000091e+00 -6.678744837872571671e-02
4.190999999999999659e+01 7.950700000000000323e+00 -9.401500000000000057e+01 3.895052000000000181e+00 -6.674089490250936785e-02
4.192799999999999727e+01 7.897899999999999920e+00 -9.493099999999999739e+01 -1.107516999999999996e+01 -6.673846696105059650e-02
4.192999999999999972e+01 9.562899999999999734e-01 -9.084300000000000352e+01 -5.573827999999999783e+00 -6.673112378647089171e-02
4.192999999999999972e+01 9.562899999999999734e-01 -8.932299999999999329e+01 -1.895478999999999914e+01 -6.673393763053442340e-02
4.192999999999999972e+01 1.895699999999999941e+00 -8.932299999999999329e+01 -5.949629000000000190e+01 -6.673594633130655596e-02
4.195100000000000051e+01 6.934400000000000119e+00 -9.652500000000000568e+01 -4.062715999999999994e+00 -6.673175979850989870e-02
4.197099999999999653e+01 5.903699999999999726e+00 -9.631199999999999761e+01 4.523105000000000153e+00 -6.672972527295809031e-02
4.197500000000000142e+01 1.153299999999999947e+01 -9.023699999999999477e+01 7.798153000000000645e+01 -6.675838964596650382e-02
4.197599999999999909e+01 2.150900000000000034e+00 -9.174500000000000455e+01 -2.013176000000000077e+00 -6.673174715208213259e-02
4.199300000000000210e+01 6.268899999999999473e-01 -9.008299999999999841e+01 -2.318783000000000172e+01 -6.673168070939619612e-02
4.199300000000000210e+01 2.225099999999999856e+00 -9.008299999999999841e+01 -4.784394000000000347e+01 -6.673508697385280297e-02
4.199300000000000210e+01 3.697200000000000042e+00 -9.008299999999999841e+01 -1.148634000000000022e+01 -6.673837899703440046e-02
4.199900000000000233e+01 1.158999999999999986e+01 -8.931699999999999307e+01 4.080906999999999840e+01 -6.676003202991577512e-02
4.200099999999999767e+01 1.153800000000000026e+01 -9.183599999999999852e+01 5.512717999999999563e+00 -6.675526789118503557e-02
4.200999999999999801e+01 1.180400000000000027e+01 -9.100400000000000489e+01 1.527122999999999919e+01 -6.675762663506909500e-02
4.201800000000000068e+01 3.356000000000000227e+01 -1.245600000000000023e+02 1.382850999999999964e+01 -6.297776815221868552e-02
4.201800000000000068e+01 3.356000000000000227e+01 -1.228599999999999994e+02 1.443646999999999903e+00 -6.300916936444675431e-02
4.201800000000000068e+01 3.460999999999999943e+01 -1.245600000000000023e+02 1.419336000000000020e+01 -6.293484722040863788e-02
4.201800000000000068e+01 3.460999999999999943e+01 -1.228599999999999994e+02 1.477928999999999959e+01 -6.297019840755314901e-02
4.204299999999999926e+01 1.079100000000000037e+01 -8.459499999999999886e+01 -2.623479999999999990e+01 -6.676416666579926273e-02
4.205100000000000193e+01 2.528500000000000192e+00 -9.078300000000000125e+01 -1.002117999999999931e+01 -6.673424110203141080e-02
4.205100000000000193e+01 3.393800000000000150e+00 -9.078300000000000125e+01 2.929397999999999946e+00 -6.673617035056793323e-02
4.205700000000000216e+01 1.195299999999999940e+01 -8.852700000000000102e+01 3.219845999999999719e+01 -6.676209628823874531e-02
4.206400000000000006e+01 1.879499999999999948e+00 -9.088400000000000034e+01 -1.999446000000000012e+01 -6.673259215575519376e-02
4.207500000000000284e+01 7.700000000000000178e+00 -8.366200000000000614e+01 -1.437740999999999936e+01 -6.675727614446755331e-02
4.207500000000000284e+01 9.220000000000000639e+00 -8.366200000000000614e+01 -6.779048000000000229e+01 -6.676103823260051695e-02
4.208899999999999864e+01 3.319100000000000250e+01 -1.237099999999999937e+02 9.062405000000000044e+00 -6.300412584947584493e-02
4.208899999999999864e+01 3.497899999999999920e+01 -1.237099999999999937e+02 1.832918000000000092e+01 -6.293419413121276174e-02
4.209599999999999653e+01 1.358600000000000030e+01 -8.627599999999999625e+01 -3.949314999999999998e+01 -6.676971445647575387e-02
4.209599999999999653e+01 1.358600000000000030e+01 -8.522599999999999909e+01 -3.495036000000000342e+01 -6.677091288304616568e-02
4.211399999999999721e+01 3.799999999999999822e+00 -9.522799999999999443e+01 5.222707999999999906e+00 -6.672709824298855841e-02
4.211699999999999733e+01 1.470500000000000007e+01 -9.588700000000000045e+01 2.857985000000000109e-01 -6.675509808520664612e-02
4.211699999999999733e+01 1.470500000000000007e+01 -9.494700000000000273e+01 -3.784888000000000141e-01 -6.675752968492013051e-02
4.211699999999999733e+01 1.716499999999999915e+01 -9.588700000000000045e+01 -1.735582000000000136e+01 -6.676347159583531643e-02
4.211699999999999733e+01 1.716499999999999915e+01 -9.494700000000000273e+01 -2.012753999999999976e+01 -6.676585832623324612e-02
4.212800000000000011e+01 1.001900000000000013e+01 -9.262399999999999523e+01 6.248874999999999957e+00 -6.674875424727991224e-02
4.214000000000000057e+01 1.221100000000000030e+01 -8.430500000000000682e+01 -1.536194000000000059e+01 -6.676792276684098693e-02
4.215599999999999881e+01 1.593500000000000050e+01 -9.670999999999999375e+01 -6.778828999999999994e+00 -6.675672306155899793e-02
4.215599999999999881e+01 1.593500000000000050e+01 -9.412399999999999523e+01 -4.538499999999999801e+01 -6.676337967257967021e-02
4.219100000000000250e+01 5.496699999999999697e+00 -8.716899999999999693e+01 -9.469080999999999193e+00 -6.674688370555800776e-02
4.219100000000000250e+01 5.496699999999999697e+00 -8.611899999999999977e+01 4.307925000000000004e+00 -6.674844908690921730e-02
4.219400000000000261e+01 4.725299999999999834e+00 -8.952700000000000102e+01 -2.997006999999999977e+01 -6.674111075787374225e-02
4.221800000000000352e+01 7.428899999999999615e+00 -9.568999999999999773e+01 -3.582077999999999918e+01 -6.673415771899465776e-02
4.221999999999999886e+01 1.425999999999999934e+00 -9.008299999999999841e+01 -5.365854000000000212e+01 -6.673266656181406353e-02
4.222699999999999676e+01 5.075199999999999712e+00 -9.608400000000000318e+01 4.294375999999999749e+00 -6.672740379760717933e-02
4.225699999999999790e+01 4.395900000000000141e+00 -9.028700000000000614e+01 -8.920994999999999564e+00 -6.673872860062005086e-02
4.225999999999999801e+01 1.799200000000000088e+01 -8.309600000000000364e+01 -5.261765999999999721e+00 -6.678474986883589648e-02
4.225999999999999801e+01 1.799200000000000088e+01 -8.139600000000000080e+01 1.895908000000000038e-01 -6.678566668792268457e-02
4.225999999999999801e+01 1.904200000000000159e+01 -8.309600000000000364e+01 7.279006000000000087e-01 -6.678782819191345088e-02
4.225999999999999801e+01 1.904200000000000159e+01 -8.139600000000000080e+01 -8.713651999999999731e+00 -6.678862503284574426e-02
4.227199999999999847e+01 8.867000000000000881e+00 -9.270999999999999375e+01 6.951448000000000071e+00 -6.674484249460030383e-02
4.228300000000000125e+01 1.221199999999999974e+01 -8.775700000000000500e+01 5.645839000000000141e+01 -6.676307223311020445e-02
4.228999999999999915e+01 5.858600000000000030e+00 -8.867000000000000171e+01 -8.414059999999999206e+00 -6.674497811388531432e-02
4.228999999999999915e+01 5.858600000000000030e+00 -8.780400000000000205e+01 -6.103168000000000148e+00 -6.674641430949174170e-02
4.230199999999999960e+01 2.532500000000000195e+00 -9.412199999999999989e+01 4.182399000000000200e+00 -6.672633086407561698e-02
4.230799999999999983e+01 7.734399999999999942e+00 -9.346800000000000352e+01 1.339528999999999925e+01 -6.674003578930551295e-02
4.231499999999999773e+01 4.092500000000000249e+00 -9.098699999999999477e+01 6.562397999999999954e+00 -6.673648259741950250e-02
4.233100000000000307e+01 1.762300000000000111e+01 -8.224599999999999511e+01 -1.639853000000000005e+00 -6.678390125072707073e-02
4.233100000000000307e+01 1.941100000000000136e+01 -8.224599999999999511e+01 2.742815999999999832e+01 -6.678902725124509498e-02
4.234300000000000352e+01 3.408500000000000085e+01 -1.237099999999999937e+02 6.571092000000000155e+00 -6.296184334639606806e-02
4.234499999999999886e+01 2.378000000000000114e+00 -9.321599999999999397e+01 -1.498280999999999918e-01 -6.672791302583588879e-02
4.236500000000000199e+01 7.230299999999999727e+00 -8.442199999999999704e+01 -4.119278999999999691e+00 -6.675428441520607492e-02
4.240400000000000347e+01 8.460000000000000853e+00 -8.359900000000000375e+01 -4.035842000000000240e+01 -6.675811619265291375e-02
4.242699999999999960e+01 1.090499999999999936e+01 -8.496599999999999397e+01 -9.842928999999999817e+00 -6.676264056554463699e-02
4.243900000000000006e+01 9.759700000000000486e+00 -8.436599999999999966e+01 -3.949103999999999814e+01 -6.676034961205781770e-02
4.244100000000000250e+01 1.258000000000000007e+01 -8.704900000000000659e+01 -3.426013999999999893e+00 -6.676447268927226952e-02
4.244800000000000040e+01 2.961100000000000065e+00 -9.127400000000000091e+01 7.143775999999999460e-01 -6.673294012988954804e-02
4.245000000000000284e+01 6.679199999999999804e+00 -9.601600000000000534e+01 7.050446999999999687e-01 -6.673052280656674440e-02
4.245100000000000051e+01 2.536399999999999988e+00 -9.230400000000000205e+01 2.755542999999999854e+00 -6.672988205520005711e-02
4.248299999999999699e+01 1.058099999999999952e+01 -8.575100000000000477e+01 -1.449152999999999913e+01 -6.676060901506229717e-02
4.248400000000000176e+01 5.195000000000000284e+00 -9.028700000000000614e+01 -2.812675000000000036e+00 -6.673982022681526627e-02
4.249099999999999966e+01 4.327600000000000335e+00 -9.575700000000000500e+01 4.017712999999999646e+00 -6.672558959357591246e-02
4.249300000000000210e+01 1.089600000000000080e+01 -8.676900000000000546e+01 -4.190870000000000317e+00 -6.676003965132101814e-02
4.250200000000000244e+01 1.102200000000000024e+01 -9.242900000000000205e+01 4.292006999999999906e+00 -6.675041105706673583e-02
4.252199999999999847e+01 6.866799999999999571e+00 -8.512300000000000466e+01 1.887453999999999965e+01 -6.675199598360916087e-02
4.252199999999999847e+01 1.005300000000000082e+01 -8.512300000000000466e+01 -2.150710000000000122e+01 -6.675989097343548728e-02
4.254699999999999704e+01 3.034299999999999997e+00 -9.493399999999999750e+01 8.036922000000000565e+00 -6.672463839464666535e-02
4.254999999999999716e+01 5.456599999999999895e+00 -8.951900000000000546e+01 -1.477553999999999945e+01 -6.674163906649532851e-02
4.255400000000000205e+01 1.224300000000000033e+01 -9.148300000000000409e+01 1.529016000000000020e+01 -6.675563725360814105e-02
4.255400000000000205e+01 1.224300000000000033e+01 -9.052500000000000568e+01 9.891073000000000093e+01 -6.675747650028972247e-02
4.257200000000000273e+01 1.126999999999999957e+01 -8.751500000000000057e+01 1.921233000000000146e+01 -6.675967280222973310e-02
4.257500000000000284e+01 8.166999999999999815e+00 -9.276800000000000068e+01 8.382726999999999151e+00 -6.674168379835122844e-02
4.258500000000000085e+01 1.851699999999999946e+01 -8.224599999999999511e+01 -3.115807000000000215e+00 -6.678538720528587325e-02
4.258700000000000330e+01 1.546499999999999986e+01 -9.617700000000000671e+01 -3.596185999999999883e+00 -6.675432717460208498e-02
4.258700000000000330e+01 1.546499999999999986e+01 -9.465699999999999648e+01 -1.968396999999999863e+01 -6.675832043217490297e-02
4.258700000000000330e+01 1.640500000000000114e+01 -9.617700000000000671e+01 -1.286238999999999955e+01 -6.675744560357374513e-02
4.258700000000000330e+01 1.640500000000000114e+01 -9.465699999999999648e+01 -4.713532000000000011e+01 -6.676141688668583984e-02
4.262100000000000222e+01 1.168599999999999994e+01 -8.490099999999999625e+01 -1.238297999999999988e+01 -6.676406126394260343e-02
4.262100000000000222e+01 1.273600000000000065e+01 -8.660099999999999909e+01 -2.296839999999999904e+01 -6.676479198174023466e-02
4.262100000000000222e+01 1.273600000000000065e+01 -8.490099999999999625e+01 -2.114311000000000007e+01 -6.676687437547178250e-02
4.264000000000000057e+01 4.829699999999999882e+00 -9.098699999999999477e+01 1.081658999999999970e+01 -6.673707123909813910e-02
4.264999999999999858e+01 1.513599999999999923e+01 -9.541700000000000159e+01 -5.348146999999999984e+00 -6.675498933728615802e-02
4.264999999999999858e+01 1.673400000000000176e+01 -9.541700000000000159e+01 -3.063897000000000048e+01 -6.676025668104568211e-02
4.268900000000000006e+01 1.172100000000000009e+01 -8.701999999999999602e+01 5.452050999999999981e+00 -6.676115982914361535e-02
4.269200000000000017e+01 9.845200000000000173e+00 -8.575100000000000477e+01 -1.566318000000000055e+01 -6.675793763386227153e-02
4.269200000000000017e+01 1.131700000000000017e+01 -8.575100000000000477e+01 -3.164309000000000083e+01 -6.676177437786333380e-02
4.269200000000000017e+01 1.310500000000000043e+01 -8.575100000000000477e+01 -4.545177000000000334e+01 -6.676661044676347745e-02
4.269299999999999784e+01 5.931000000000000050e+00 -9.028700000000000614e+01 6.934531999999999918e+00 -6.674083427923717393e-02
4.270300000000000296e+01 1.016000000000000014e+01 -8.676900000000000546e+01 3.641471999999999820e+00 -6.675730445000251090e-02
4.271200000000000330e+01 3.659899999999999931e+00 -9.147799999999999443e+01 1.026563999999999943e+01 -6.673319327038397530e-02
4.271600000000000108e+01 1.151200000000000045e+01 -8.889000000000000057e+01 4.008547000000000082e+01 -6.675760951597797810e-02
4.272999999999999687e+01 5.941399999999999793e+00 -9.608899999999999864e+01 3.189559000000000033e+00 -6.672749421912108070e-02
4.273400000000000176e+01 1.049399999999999977e+01 -8.768200000000000216e+01 2.436739999999999995e+01 -6.675671138176537955e-02
4.275999999999999801e+01 9.109099999999999753e+00 -9.232200000000000273e+01 7.235576000000000008e+00 -6.674437638414711105e-02
4.277600000000000335e+01 7.219699999999999562e+00 -9.429099999999999682e+01 8.821163999999999561e+00 -6.673496843764703534e-02
4.278499999999999659e+01 6.945599999999999774e+00 -9.513200000000000500e+01 -5.868992000000000431e+00 -6.673216351659916334e-02
4.279999999999999716e+01 6.263200000000000323e+00 -8.569299999999999784e+01 3.934445000000000192e+01 -6.674887729702821959e-02
4.281700000000000017e+01 5.853900000000000325e+00 -8.657899999999999352e+01 2.577376000000000111e+00 -6.674656919277691114e-02
4.283500000000000085e+01 7.990300000000000402e+00 -8.413200000000000500e+01 -4.758377999999999730e+01 -6.675491609017661365e-02
4.283500000000000085e+01 8.929700000000000415e+00 -8.413200000000000500e+01 -7.377998999999999796e+01 -6.675719100325341882e-02
4.283899999999999864e+01 1.083699999999999974e+01 -8.821500000000000341e+01 2.988732999999999862e+01 -6.675638569970068770e-02
4.285000000000000142e+01 1.176399999999999935e+01 -9.225799999999999557e+01 4.464909999999999712e+00 -6.675137713054526967e-02
4.285499999999999687e+01 1.186899999999999977e+01 -8.969299999999999784e+01 3.875142999999999915e+01 -6.675665699055602365e-02
4.286399999999999721e+01 1.001900000000000013e+01 -9.241500000000000625e+01 7.187993999999999772e+00 -6.674616640047346949e-02
4.286899999999999977e+01 5.718600000000000350e+00 -9.114499999999999602e+01 1.416346000000000060e+01 -6.673802381725560395e-02
4.287700000000000244e+01 1.593500000000000050e+01 -9.541700000000000159e+01 -1.042731999999999992e+01 -6.675638384302104433e-02
4.289699999999999847e+01 3.270000000000000018e+00 -9.567300000000000182e+01 5.543584000000000067e+00 -6.672208070639226718e-02
4.289800000000000324e+01 9.259100000000000108e+00 -8.489199999999999591e+01 -3.028957000000000122e+01 -6.675684611116408651e-02
4.291400000000000148e+01 5.834299999999999820e+00 -8.733100000000000307e+01 -1.981543000000000054e-01 -6.674503324217861966e-02
4.294599999999999795e+01 1.221100000000000030e+01 -8.575100000000000477e+01 -1.279710000000000036e+01 -6.676319037867799178e-02
4.297299999999999898e+01 7.596199999999999619e+00 -8.484399999999999409e+01 -6.779300000000000104e+00 -6.675261032394916305e-02
4.299000000000000199e+01 5.916900000000000048e+00 -8.897299999999999898e+01 2.403074999999999850e+00 -6.674219807609672872e-02
4.299000000000000199e+01 6.126000000000000334e+00 -8.823699999999999477e+01 2.785632000000000108e+00 -6.674396706383353695e-02
4.299699999999999989e+01 3.183399999999999785e+00 -9.178100000000000591e+01 9.682657000000000735e+00 -6.673058183617587569e-02
4.300800000000000267e+01 7.676099999999999923e+00 -9.316500000000000625e+01 9.646267999999999176e+00 -6.673786381229533660e-02
4.302199999999999847e+01 4.040000000000000036e+00 -9.632599999999999341e+01 4.425279999999999880e+00 -6.672155811006764969e-02
4.302400000000000091e+01 2.455700000000000216e+00 -9.479500000000000171e+01 9.887930000000000330e-01 -6.672214905111614747e-02
4.304500000000000171e+01 2.228600000000000136e+00 -9.363100000000000023e+01 7.085679999999999756e-01 -6.672436210232170206e-02
4.306400000000000006e+01 8.409100000000000463e+00 -9.238100000000000023e+01 5.963002000000000358e+00 -6.674124376563680960e-02
4.313000000000000256e+01 5.122799999999999798e+00 -9.635299999999999443e+01 7.952359000000000400e+00 -6.672342638111923574e-02
4.316700000000000159e+01 9.794200000000000017e+00 -8.741500000000000625e+01 2.816775000000000162e+01 -6.675366947812996776e-02
4.318299999999999983e+01 9.448600000000000776e+00 -8.618399999999999750e+01 -9.388113000000000152e-01 -6.675456851107106071e-02
4.318399999999999750e+01 6.327600000000000335e+00 -8.985399999999999920e+01 3.199235999999999969e+00 -6.674087306010537124e-02
4.319100000000000250e+01 2.619600000000000151e+00 -9.256699999999999307e+01 4.907976999999999812e+00 -6.672707118669742032e-02
4.322200000000000131e+01 7.134199999999999875e+00 -8.555599999999999739e+01 1.094238000000000000e+01 -6.674971748647552661e-02
4.323599999999999710e+01 1.126999999999999957e+01 -8.870600000000000307e+01 2.875743999999999900e+01 -6.675517572397941801e-02
4.323599999999999710e+01 8.470100000000000406e+00 -8.485800000000000409e+01 -3.468366999999999933e+01 -6.675379586636305540e-02
4.323899999999999721e+01 4.078000000000000291e+00 -9.176999999999999602e+01 1.908254000000000161e+01 -6.673173456491367228e-02
4.324199999999999733e+01 6.493900000000000006e+00 -9.562000000000000455e+01 3.402654000000000067e+00 -6.672805291937367045e-02
4.326700000000000301e+01 2.447299999999999809e+00 -9.555800000000000693e+01 1.368997999999999937e+00 -6.671942032375818843e-02
4.328099999999999881e+01 2.759999999999999787e+00 -9.675000000000000000e+01 1.526300999999999908e+00 -6.671688521882121470e-02
4.332900000000000063e+01 1.098900000000000077e+01 -9.255400000000000205e+01 3.395373000000000197e+00 -6.674652842002194719e-02
4.332900000000000063e+01 1.230799999999999983e+01 -9.181900000000000261e+01 7.064729999999999954e+00 -6.675175700069312101e-02
4.332900000000000063e+01 1.230799999999999983e+01 -9.018899999999999295e+01 1.043929999999999936e+01 -6.675499325848593957e-02
4.332900000000000063e+01 1.253899999999999970e+01 -9.100400000000000489e+01 5.114046000000000092e+00 -6.675407060211294152e-02
4.333599999999999852e+01 6.675300000000000011e+00 -8.587600000000000477e+01 1.947384999999999877e+01 -6.674780984907210946e-02
4.333700000000000330e+01 5.022400000000000198e+00 -9.175400000000000489e+01 2.503781999999999996e+01 -6.673352333910499701e-02
4.336299999999999955e+01 8.836399999999999366e+00 -8.578600000000000136e+01 -8.842278000000000304e+00 -6.675298135874425942e-02
4.341100000000000136e+01 6.078999999999999737e+00 -9.178900000000000148e+01 2.206499000000000166e+01 -6.673559301392641141e-02
4.341599999999999682e+01 1.145400000000000063e+01 -8.919299999999999784e+01 7.749416000000000082e+00 -6.675410952185202584e-02
4.341899999999999693e+01 3.607299999999999951e+00 -9.681699999999999307e+01 4.225143000000000093e+00 -6.671791534694626602e-02
4.341899999999999693e+01 6.164600000000000080e+00 -8.938899999999999579e+01 3.891128000000000142e+00 -6.674054187245406777e-02
4.342600000000000193e+01 6.573699999999999655e+00 -9.112500000000000000e+01 1.339744999999999919e+01 -6.673808335387011736e-02
4.347599999999999909e+01 7.161400000000000432e+00 -9.398799999999999955e+01 1.669885000000000019e+01 -6.673286208477294257e-02
4.348100000000000165e+01 6.919800000000000395e+00 -9.477599999999999625e+01 7.709033999999999942e+00 -6.673031083069433378e-02
4.349600000000000222e+01 9.109099999999999753e+00 -9.211299999999999955e+01 8.454871999999999943e+00 -6.674190156621925829e-02
4.351200000000000045e+01 1.945100000000000051e+00 -9.675000000000000000e+01 1.422150999999999943e+00 -6.671451821395499304e-02
4.351500000000000057e+01 2.059099999999999930e+00 -9.522799999999999443e+01 2.178582000000000019e+00 -6.671865121993937608e-02
4.353799999999999670e+01 6.019000000000000128e+00 -8.759399999999999409e+01 4.635818999999999690e+00 -6.674294934644582622e-02
4.353799999999999670e+01 6.136999999999999567e+00 -8.844100000000000250e+01 3.617395000000000138e+00 -6.674177545810391909e-02
4.353900000000000148e+01 2.001700000000000035e+00 -9.363899999999999579e+01 -1.958253999999999939e+00 -6.672227104156706889e-02
4.353900000000000148e+01 1.057000000000000028e+01 -8.864799999999999613e+01 1.865673999999999921e+01 -6.675223822370535132e-02
4.354299999999999926e+01 1.810100000000000042e+00 -9.426200000000000045e+01 4.677571999999999841e-01 -6.672042198735204932e-02
4.357699999999999818e+01 2.281000000000000139e+00 -9.752500000000000568e+01 1.496159999999999934e+00 -6.671282291355591643e-02
4.357699999999999818e+01 3.238999999999999879e+00 -9.752500000000000568e+01 4.142814999999999692e+00 -6.671465902542751680e-02
4.362299999999999756e+01 6.209999999999999964e+00 -8.662900000000000489e+01 6.742630000000000123e+00 -6.674465501758967967e-02
4.362599999999999767e+01 4.649000000000000021e+00 -9.679200000000000159e+01 7.559224999999999639e+00 -6.671937488534915306e-02
4.364399999999999835e+01 9.260600000000000165e+00 -8.668200000000000216e+01 1.620719000000000065e+01 -6.675171046414818399e-02
4.365299999999999869e+01 9.534700000000000841e+00 -8.752299999999999613e+01 1.491658999999999935e+01 -6.675104305143959860e-02
4.367399999999999949e+01 6.003000000000000114e+00 -9.601699999999999591e+01 8.855702000000000851e+00 -6.672422569557771854e-02
4.369800000000000040e+01 8.038800000000000168e+00 -8.546800000000000352e+01 2.095076000000000160e+00 -6.675036258329017369e-02
4.375000000000000000e+01 7.346000000000000085e+00 -8.562000000000000455e+01 4.593308999999999642e+00 -6.674835404412005069e-02
4.380700000000000216e+01 5.646300000000000097e+00 -9.228000000000000114e+01 2.940183000000000035e+01 -6.673212378677752243e-02
4.380799999999999983e+01 1.176399999999999935e+01 -9.225799999999999557e+01 1.724776999999999916e+01 -6.674723114117936396e-02
4.384300000000000352e+01 3.510299999999999976e+00 -9.227200000000000557e+01 3.425439000000000078e+01 -6.672741260262629592e-02
4.388499999999999801e+01 7.645400000000000418e+00 -9.293000000000000682e+01 1.007516000000000034e+01 -6.673495744761330506e-02
4.390899999999999892e+01 4.582499999999999574e+00 -9.234699999999999420e+01 2.671103000000000094e+01 -6.672928838223693426e-02
4.391700000000000159e+01 6.970299999999999940e+00 -9.155700000000000216e+01 1.570101000000000013e+01 -6.673631611255993745e-02
4.391700000000000159e+01 6.970299999999999940e+00 -9.069199999999999307e+01 1.662874000000000052e+01 -6.673811972915821844e-02
4.393699999999999761e+01 1.158200000000000074e+01 -8.964799999999999613e+01 1.903553000000000051e+00 -6.675151299830713036e-02
4.395700000000000074e+01 2.527499999999999858e+00 -9.278799999999999670e+01 2.212189000000000050e+01 -6.672389055242398948e-02
4.396200000000000330e+01 5.424000000000000377e+00 -9.672700000000000387e+01 2.543071000000000126e+01 -6.671993049025717881e-02
4.397699999999999676e+01 9.974000000000000199e+00 -8.830800000000000693e+01 3.876809999999999867e+00 -6.674962266901039720e-02
4.400099999999999767e+01 6.476899999999999658e+00 -8.970900000000000318e+01 1.765290999999999855e+01 -6.673862674164543485e-02
4.401599999999999824e+01 4.153299999999999770e+00 -9.731699999999999307e+01 1.954840000000000089e+01 -6.671547118826254286e-02
4.401599999999999824e+01 2.759999999999999787e+00 -9.806900000000000261e+01 2.811560000000000059e+00 -6.671065730952657757e-02
4.405599999999999739e+01 1.506000000000000005e+00 -9.722899999999999920e+01 1.454742999999999897e+00 -6.671059783583074831e-02
4.405599999999999739e+01 1.506000000000000005e+00 -9.627100000000000080e+01 1.803692000000000073e+00 -6.671315500209590299e-02
4.406300000000000239e+01 6.868999999999999773e+00 -8.621899999999999409e+01 5.802715000000000067e+00 -6.674532168089628015e-02
4.406300000000000239e+01 8.569000000000000838e+00 -8.621899999999999409e+01 1.371424999999999983e+01 -6.674925500358884489e-02
4.407500000000000284e+01 1.427499999999999991e+00 -9.517300000000000182e+01 1.424951999999999996e+00 -6.671574864298697449e-02
4.409400000000000119e+01 1.348999999999999977e+00 -9.398199999999999932e+01 1.279981999999999953e+00 -6.671842303178247835e-02
4.410399999999999920e+01 1.224300000000000033e+01 -9.148300000000000409e+01 1.974908000000000072e+02 -6.674892780785730839e-02
4.410399999999999920e+01 1.224300000000000033e+01 -9.052500000000000568e+01 -1.218782999999999994e+01 -6.675089209552695357e-02
4.411899999999999977e+01 6.314000000000000057e+00 -8.897400000000000375e+01 4.028547999999999796e+00 -6.673922941640808570e-02
4.415599999999999881e+01 1.102200000000000024e+01 -9.242900000000000205e+01 1.079476999999999975e+01 -6.674339883149493780e-02
4.418399999999999750e+01 6.537700000000000067e+00 -9.225700000000000500e+01 1.917918999999999841e+01 -6.673281523966052842e-02
4.423400000000000176e+01 6.198299999999999699e+00 -8.803799999999999670e+01 3.651018999999999792e+00 -6.674025605493159874e-02
4.429099999999999682e+01 6.850100000000000300e+00 -9.511400000000000432e+01 7.756140000000000256e+00 -6.672615784479715706e-02
4.429099999999999682e+01 7.104000000000000092e+00 -9.421999999999999886e+01 1.844059999999999988e+01 -6.672902966311620998e-02
4.429099999999999682e+01 7.313100000000000378e+00 -9.348399999999999466e+01 1.890912000000000148e+01 -6.673132062313980040e-02
4.431799999999999784e+01 8.136300000000000310e+00 -9.253300000000000125e+01 6.723246999999999751e+00 -6.673537051084878213e-02
4.435000000000000142e+01 9.602999999999999758e+00 -9.243999999999999773e+01 4.219349000000000238e+00 -6.673898873618033800e-02
4.435199999999999676e+01 1.985000000000000098e+00 -9.800400000000000489e+01 1.395127999999999924e+00 -6.670829296711852652e-02
4.435199999999999676e+01 3.535000000000000142e+00 -9.800400000000000489e+01 4.722655999999999743e+00 -6.671109662619181813e-02
4.438799999999999812e+01 6.343700000000000117e+00 -8.706900000000000261e+01 6.847459999999999880e+00 -6.674170611858341873e-02
4.438799999999999812e+01 9.094300000000000495e+00 -8.706900000000000261e+01 1.979513000000000034e+01 -6.674801999789706231e-02
4.439000000000000057e+01 1.828000000000000069e+00 -9.320699999999999363e+01 1.439823999999999993e+00 -6.672018067735924207e-02
4.440999999999999659e+01 9.483100000000000307e+00 -8.791100000000000136e+01 1.536148999999999987e+00 -6.674747442632904260e-02
4.442300000000000182e+01 1.065199999999999925e+01 -8.907500000000000284e+01 2.072425000000000139e+01 -6.674823985320271769e-02
4.442699999999999960e+01 8.972699999999999676e+00 -9.239900000000000091e+01 3.934544999999999959e+00 -6.673724308615650025e-02
4.443200000000000216e+01 7.719000000000000306e+00 -8.614799999999999613e+01 1.049737000000000009e+01 -6.674611546314397625e-02
4.444100000000000250e+01 4.724499999999999922e+00 -9.714600000000000080e+01 8.102857000000000198e+00 -6.671553770488855561e-02
4.444100000000000250e+01 5.967500000000000249e+00 -9.628799999999999670e+01 2.081513999999999953e+01 -6.672049457601149369e-02
4.451299999999999812e+01 3.854000000000000092e+00 -9.290300000000000580e+01 7.800397999999999854e+01 -6.672444669738841760e-02
4.453600000000000136e+01 1.008900000000000041e+01 -8.871599999999999397e+01 2.898651999999999784e+00 -6.674706149508412290e-02
4.461699999999999733e+01 5.837699999999999889e+00 -9.252500000000000568e+01 2.026479000000000141e+01 -6.672909856510438054e-02
4.464500000000000313e+01 1.156700000000000017e+01 -9.186400000000000432e+01 2.588299999999999912e+01 -6.674401349698351471e-02
4.468399999999999750e+01 7.334600000000000009e+00 -9.111599999999999966e+01 6.722666000000000253e+00 -6.673527959851233149e-02
