3.877799999999999869e+01 6.212900000000000311e+00 1.152999999999999936e+01 -1.381581000000000081e+01 -3.908963327105593466e-01
3.877799999999999869e+01 6.421999999999999709e+00 1.079400000000000048e+01 -2.783678000000000097e+01 -3.540262259881927775e-01
3.877799999999999869e+01 6.421999999999999709e+00 1.226600000000000001e+01 -9.306744999999999379e+00 -3.907793359025649171e-01
3.877799999999999869e+01 8.638299999999999201e+00 2.200499999999999901e+01 -1.692458999999999847e+01 -2.704695330161721034e-01
3.878099999999999881e+01 -1.393599999999999994e+01 2.505399999999999849e+01 -5.140158999999999700e-01 -2.417611276441977708e-01
3.878300000000000125e+01 -1.324699999999999989e+01 2.880799999999999983e+01 6.701008000000000209e+01 -2.434375490068464709e-01
3.878300000000000125e+01 -1.324699999999999989e+01 3.035800000000000054e+01 1.066202000000000005e+01 -2.435778483796752492e-01
3.878300000000000125e+01 -1.228899999999999970e+01 3.035800000000000054e+01 4.856544999999999845e+01 -2.443624138355497410e-01
3.879099999999999682e+01 -1.220199999999999996e+01 2.593100000000000094e+01 -1.742288000000000059e+00 -2.435514238721080693e-01
3.879099999999999682e+01 -1.220199999999999996e+01 2.774500000000000099e+01 -1.200523999999999925e+00 -2.439535608950061385e-01
3.879899999999999949e+01 -8.381000000000000227e+00 1.082699999999999996e+01 -2.595645999999999898e+00 -3.518875291938895755e-02
3.880299999999999727e+01 5.849000000000000199e+00 2.787199999999999989e+01 3.561538999999999788e+00 -2.717291630738921659e-01
3.882000000000000028e+01 -1.532799999999999940e+01 2.244699999999999918e+01 -1.437599999999999945e+01 -3.499999999999999778e-01
3.882500000000000284e+01 -1.045700000000000074e+01 1.098700000000000010e+01 -1.778040000000000065e+00 -4.785988352316656452e-02
3.882800000000000296e+01 9.961100000000000065e+00 2.767899999999999849e+01 2.368594999999999828e+01 -1.306200399575619120e-01
3.882900000000000063e+01 -9.533899999999999153e+00 2.950300000000000011e+01 4.094763999999999626e+00 -2.461865807634563141e-01
3.884499999999999886e+01 -1.203999999999999915e+01 1.207099999999999973e+01 -6.642228999999999495e-01 -3.001759660414006770e-01
3.884499999999999886e+01 -1.203999999999999915e+01 1.301099999999999923e+01 -2.385195999999999983e-01 -2.964927718478037044e-01
3.884700000000000131e+01 -6.840499999999999581e+00 1.136999999999999922e+01 -7.104722999999999455e-01 -1.332612264459620555e-01
3.884799999999999898e+01 -1.358300000000000018e+01 2.958299999999999841e+01 -7.561587000000000280e+00 -2.432177318387309661e-01
3.884799999999999898e+01 -1.195299999999999940e+01 2.958299999999999841e+01 -4.697158000000000300e+01 -2.444707724495187029e-01
3.884799999999999898e+01 4.122300000000000075e+00 8.335900000000000531e+00 -2.892310000000000159e+01 -3.522065557798224056e-01
3.884899999999999665e+01 4.667399999999999771e+00 1.805000000000000071e+01 6.880644000000000204e+00 -2.635353362748081296e-01
3.885000000000000142e+01 -1.724599999999999866e+01 2.527899999999999991e+01 5.944216999999999729e+01 -3.499999999999999778e-01
3.886999999999999744e+01 -9.846600000000000463e+00 3.028399999999999892e+01 -7.745877000000000123e+00 -2.459805066187641387e-01
3.887899999999999778e+01 8.497500000000000497e+00 2.404700000000000060e+01 -1.111898000000000053e-01 -2.697661097563509580e-01
3.887899999999999778e+01 9.688000000000000611e+00 2.486299999999999955e+01 1.139432000000000045e+01 -1.293117008577462923e-01
3.888799999999999812e+01 -1.070299999999999940e+01 2.880300000000000082e+01 -1.071842000000000006e+01 -2.452822408167198154e-01
3.888799999999999812e+01 -9.837300000000000821e+00 2.880300000000000082e+01 -3.458658999999999928e+00 -2.459517836394673473e-01
3.888799999999999812e+01 -5.009000000000000341e+00 1.110399999999999920e+01 -5.490065000000000417e+00 -1.223600757571137593e-01
3.890299999999999869e+01 -1.526500000000000057e+01 2.334199999999999875e+01 5.518556000000000239e+00 -3.499999999999999778e-01
3.890400000000000347e+01 -8.535999999999999588e+00 3.212899999999999778e+01 2.445896000000000114e+01 8.512074402921957633e-03
3.890599999999999881e+01 -1.165000000000000036e+01 2.888299999999999912e+01 -4.353480000000000238e+00 -2.445894607431333134e-01
3.890599999999999881e+01 -1.443999999999999950e+01 2.492999999999999972e+01 4.548720999999999570e+00 -3.499999999999999778e-01
3.890699999999999648e+01 6.085200000000000387e+00 1.929100000000000037e+01 4.822102000000000288e+01 -2.648353596390854992e-01
3.890699999999999648e+01 7.136000000000000121e+00 1.947800000000000153e+01 8.631759999999999877e+00 -2.672326168532462853e-01
3.892699999999999960e+01 -9.458800000000000097e+00 2.018599999999999994e+01 -6.583501000000000047e+00 -2.784581591164781988e-01
3.892699999999999960e+01 -8.267899999999999139e+00 1.952199999999999847e+01 7.705137999999999820e+00 -2.780743369203464432e-01
3.893500000000000227e+01 -1.228899999999999970e+01 2.880799999999999983e+01 1.247201999999999922e+00 -2.441263815486300337e-01
3.893599999999999994e+01 7.004999999999999893e+00 2.387399999999999878e+01 -6.262546999999999642e+00 -2.690034190428552963e-01
3.895600000000000307e+01 -6.965700000000000003e+00 2.034499999999999886e+01 2.147806999999999888e+01 -2.797123973219339255e-01
3.895799999999999841e+01 -3.222999999999999865e+00 2.977700000000000102e+01 7.277979000000000198e+00 -2.831025885394585218e-01
3.896200000000000330e+01 -1.383600000000000030e+01 1.854400000000000048e+01 1.041787000000000063e+01 -3.851160350903821694e-01
3.897599999999999909e+01 5.203199999999999825e+00 8.674500000000000099e+00 -1.000868000000000002e+01 -3.528377517409540531e-01
3.898299999999999699e+01 1.308999999999999941e+00 6.942999999999999616e+00 -1.266167000000000042e+00 -3.961073826149580923e-01
3.898299999999999699e+01 2.858999999999999986e+00 6.942999999999999616e+00 -1.922230000000000105e+00 -3.617058304404194846e-01
3.900399999999999778e+01 3.097100000000000186e+00 2.913200000000000145e+01 6.472029000000000032e+00 -3.016236928053079788e-02
3.900800000000000267e+01 -2.873299999999999743e-01 9.351599999999999469e+00 -6.822694000000000258e+00 -1.414161286977854148e-01
3.902100000000000080e+01 -6.886099999999999888e+00 2.148799999999999955e+01 2.191523000000000110e+01 -2.805642512219912454e-01
3.902199999999999847e+01 1.440800000000000081e+00 2.866400000000000148e+01 3.394857000000000014e+00 -2.836463706930779094e-01
3.902300000000000324e+01 2.540000000000000036e-01 2.832000000000000028e+01 9.933075999999999794e+00 -2.835675247311816305e-01
3.903099999999999881e+01 8.066599999999999326e+00 1.944800000000000040e+01 3.333982999999999919e+00 -2.692112729023227180e-01
3.903799999999999670e+01 -1.568099999999999916e+01 2.069300000000000139e+01 6.667216000000000253e-01 -3.638997296832685580e-01
3.903799999999999670e+01 -1.568099999999999916e+01 2.163299999999999912e+01 -6.371474000000000082e+00 -3.499999999999999778e-01
3.903799999999999670e+01 -1.043599999999999994e+01 1.462700000000000067e+01 -7.055871999999999922e+00 -2.859745585915304256e-01
3.903799999999999670e+01 -1.043599999999999994e+01 1.549300000000000033e+01 2.504258999999999791e-01 -2.850195241632552667e-01
3.903799999999999670e+01 3.813600000000000101e+00 2.909700000000000131e+01 1.528923999999999950e+01 -2.728323463962789019e-01
3.904200000000000159e+01 -2.173000000000000043e+00 1.019699999999999918e+01 -5.056153000000000119e+00 -1.235552109523991859e-01
3.905499999999999972e+01 5.541400000000000325e+00 9.430899999999999395e+00 -1.764052999999999827e+01 -3.532546319768898879e-01
3.905799999999999983e+01 -7.126999999999999780e+00 2.234400000000000119e+01 2.423511999999999844e+01 -2.808234637002238743e-01
3.905799999999999983e+01 -1.263499999999999979e+01 2.523100000000000165e+01 3.044314999999999868e-02 -2.430611615992541164e-01
3.905899999999999750e+01 7.095500000000000362e+00 2.728000000000000114e+01 1.457277999999999984e+01 -2.707604551455395914e-01
3.907900000000000063e+01 -1.276800000000000068e+01 2.958299999999999841e+01 -7.880106999999999751e+00 -2.439803925478057356e-01
3.909899999999999665e+01 -8.535999999999999588e+00 2.920700000000000074e+01 1.869104000000000099e+01 -2.817775514980394025e-01
3.910999999999999943e+01 -8.313299999999999912e+00 2.303999999999999915e+01 2.011775000000000091e+01 -2.805120802530680080e-01
3.911099999999999710e+01 -1.122000000000000064e+01 1.621499999999999986e+01 3.674672000000000160e+00 -2.869984202288432540e-01
3.911500000000000199e+01 -1.413000000000000034e+00 2.825700000000000145e+01 -1.924271000000000065e+00 -2.832965705864821659e-01
3.911599999999999966e+01 5.099999999999999645e+00 1.875000000000000000e+01 1.816722999999999999e+01 -2.641619858543690635e-01
3.911699999999999733e+01 -5.991399999999999615e+00 3.012699999999999889e+01 6.228857999999999784e+00 -2.824357556114146517e-01
3.911800000000000210e+01 -3.116400000000000059e+00 1.096199999999999974e+01 -5.718989999999999796e+00 -1.198617235050691010e-01
3.913000000000000256e+01 -9.598100000000000520e+00 2.223300000000000054e+01 1.968644000000000105e+01 -2.795012102367286366e-01
3.913499999999999801e+01 -1.157000000000000028e+01 1.131099999999999994e+01 -1.672166999999999959e+00 -5.207290830174807900e-02
3.913499999999999801e+01 -1.157000000000000028e+01 1.377100000000000080e+01 -1.069937999999999967e+01 -2.922740760368207069e-01
3.913499999999999801e+01 9.098300000000000054e+00 1.967899999999999849e+01 2.268820000000000003e-01 -2.711750849560042864e-01
3.913499999999999801e+01 9.098300000000000054e+00 2.137900000000000134e+01 1.208315999999999946e+00 -2.707769500690863085e-01
3.914399999999999835e+01 6.046400000000000219e+00 9.936799999999999855e+00 -2.582985000000000042e+01 -3.535646100095763966e-01
3.914500000000000313e+01 6.269000000000000128e+00 2.387399999999999878e+01 -1.591307000000000027e+00 -2.691416897498435934e-01
3.914500000000000313e+01 7.740999999999999659e+00 2.387399999999999878e+01 -4.525510999999999839e+00 -2.685149423304663552e-01
3.916299999999999670e+01 4.129900000000000126e+00 1.667899999999999849e+01 3.224381999999999943e-02 -2.606424183889741175e-01
3.916299999999999670e+01 4.339000000000000412e+00 1.594299999999999962e+01 2.059616999999999809e+00 -3.867394085889149791e-01
3.918299999999999983e+01 4.197400000000000020e+00 1.769800000000000040e+01 4.068138000000000254e+00 -2.626178877740167894e-01
3.918399999999999750e+01 5.565000000000000391e+00 1.510599999999999987e+01 1.096143000000000001e+01 -3.882900867279902579e-01
3.918699999999999761e+01 -1.486500000000000021e+01 2.403399999999999892e+01 1.259486000000000061e+01 -3.499999999999999778e-01
3.919200000000000017e+01 7.486799999999999677e+00 2.313599999999999923e+01 -5.211319000000000301e+01 -2.680223217966833937e-01
3.920199999999999818e+01 -1.185599999999999987e+01 2.810800000000000054e+01 -8.476307999999999510e+00 -2.443785900270064038e-01
3.920199999999999818e+01 -9.896499999999999631e+00 2.138500000000000156e+01 1.323612999999999928e+01 -2.787342329222716186e-01
3.920199999999999818e+01 -9.687400000000000233e+00 2.064900000000000091e+01 -6.394243999999999595e+00 -2.782823323667718562e-01
3.920300000000000296e+01 6.572400000000000020e+00 2.457400000000000162e+01 2.177789000000000197e+00 -2.694289362403049504e-01
3.920300000000000296e+01 7.437599999999999767e+00 2.457400000000000162e+01 2.773559000000000108e+00 -2.690617598411751965e-01
3.920600000000000307e+01 9.466699999999999449e+00 2.052899999999999991e+01 1.755884999999999962e+01 -2.715168666871512482e-01
3.921600000000000108e+01 6.551499999999999879e+00 2.314000000000000057e+01 -1.835854000000000141e+01 -2.683902132258583206e-01
3.921999999999999886e+01 7.868800000000000239e+00 2.238700000000000045e+01 -3.433881999999999834e+01 -2.682605730108820197e-01
3.923599999999999710e+01 5.358100000000000307e+00 2.826899999999999835e+01 -2.859464000000000006e+00 -2.717465199444055179e-01
3.924399999999999977e+01 -9.015000000000000568e+00 2.858299999999999841e+01 -1.826742000000000088e+00 -2.814684961174035993e-01
3.924399999999999977e+01 -9.015000000000000568e+00 2.998300000000000054e+01 6.822142000000000372e+00 -2.816169775627827554e-01
3.924399999999999977e+01 -9.015000000000000568e+00 3.153300000000000125e+01 4.948993999999999716e+01 9.399937414714945247e-03
3.924399999999999977e+01 -8.057000000000000384e+00 3.153300000000000125e+01 4.857325000000000159e+01 -2.819393959421511719e-01
3.925200000000000244e+01 -7.286999999999999922e+00 1.980300000000000082e+01 2.297794000000000025e+01 -2.780233031481895156e-01
3.925699999999999790e+01 4.468300000000000161e+00 8.559900000000000730e+00 -7.621669999999999945e+00 -3.524176204283530067e-01
3.925800000000000267e+01 -1.253299999999999947e+01 1.704200000000000159e+01 4.721161999999999637e+00 -3.833878729857166379e-01
3.926500000000000057e+01 -7.216599999999999682e+00 3.013200000000000145e+01 5.753927000000000014e+00 -2.820509704284950847e-01
3.927100000000000080e+01 7.300400000000000222e-01 7.653100000000000236e+00 -2.653757999999999839e+00 -1.407866019581308359e-01
3.927499999999999858e+01 1.452900000000000025e-01 8.651600000000000179e+00 -9.184658000000000655e+00 -1.440177838614707939e-01
3.927600000000000335e+01 3.534699999999999953e+00 7.796199999999999797e+00 -1.738651000000000124e+01 -3.868712637970413981e-01
3.928000000000000114e+01 -7.540499999999999758e+00 1.110200000000000031e+01 -1.097047000000000061e+01 -1.445105028516831813e-01
3.928300000000000125e+01 -2.697700000000000209e+00 2.892699999999999960e+01 1.935379999999999967e+01 -2.829481925885130034e-01
3.928999999999999915e+01 -8.849999999999999645e+00 1.039300000000000068e+01 -2.923094999999999999e+00 -5.402988132441458730e-02
3.930700000000000216e+01 -1.136700000000000088e+01 2.814799999999999969e+01 -2.203810999999999964e+01 -2.447789724302923964e-01
3.930899999999999750e+01 -9.350899999999999324e+00 3.075799999999999912e+01 9.360053999999999874e+00 -2.463634130945404066e-01
3.930899999999999750e+01 -7.799999999999999822e+00 2.920700000000000074e+01 2.601687000000000083e+01 -2.818129202933303268e-01
3.930899999999999750e+01 -7.721099999999999852e+00 3.075799999999999912e+01 -2.204627999999999943e+01 -2.819363575386951704e-01
3.931099999999999994e+01 -9.873300000000000409e-01 9.409900000000000375e+00 -4.759098999999999968e+00 -1.300269488794693340e-01
3.931300000000000239e+01 -4.020199999999999996e+00 2.996399999999999864e+01 9.130451000000000761e+00 -2.826888499318697123e-01
3.931900000000000261e+01 2.084000000000000075e+00 6.878499999999999837e+00 2.012166000000000121e+00 -3.974876469355532738e-01
3.932200000000000273e+01 2.150300000000000100e+00 2.869000000000000128e+01 6.005086000000000368e+00 -2.834561298952769648e-01
3.935300000000000153e+01 -6.366100000000000314e+00 1.134200000000000053e+01 -3.880110999999999866e+00 -1.340874507211249900e-01
3.935799999999999699e+01 1.023199999999999932e+01 2.530199999999999960e+01 4.122932000000000130e+01 -2.713179387314085256e-01
3.935799999999999699e+01 1.023199999999999932e+01 2.693199999999999861e+01 4.531727000000000061e+01 -1.301696482872574112e-01
3.935799999999999699e+01 1.046299999999999919e+01 2.611700000000000088e+01 1.685662000000000091e+02 -1.297091971842674885e-01
3.935999999999999943e+01 -8.967900000000000205e+00 1.978900000000000148e+01 -1.284390999999999927e+01 -2.773214422630498333e-01
3.936099999999999710e+01 -7.094300000000000050e-01 2.805999999999999872e+01 -9.518207999999999558e+00 -2.831795685856831613e-01
3.936200000000000188e+01 -4.241399999999999615e+00 1.124699999999999989e+01 -6.285357999999999556e+00 -1.227046025610041974e-01
3.936299999999999955e+01 7.795499999999999652e+00 2.733899999999999864e+01 2.423450000000000060e+01 -2.702893296337236517e-01
3.936699999999999733e+01 -8.103400000000000603e+00 2.850700000000000145e+01 9.897347999999999146e+00 -2.816167859358461034e-01
3.936800000000000210e+01 -1.432799999999999940e+01 1.933200000000000074e+01 5.759100000000000108e+00 -3.638816417090621202e-01
3.936999999999999744e+01 8.950699999999999434e+00 2.445700000000000074e+01 7.856063999999999936e+00 -2.696963136286695817e-01
3.937199999999999989e+01 7.004999999999999893e+00 2.233899999999999864e+01 -1.124149000000000065e+01 -2.673780457214233741e-01
3.938100000000000023e+01 -8.080099999999999838e+00 2.994500000000000028e+01 9.647444000000000131e+00 -2.817503261793604108e-01
3.940299999999999869e+01 -1.041399999999999970e+01 2.822200000000000131e+01 -1.902175000000000082e+01 -2.455473480836344591e-01
3.941899999999999693e+01 -5.767900000000000027e+00 1.129599999999999937e+01 -4.540961000000000247e+00 -1.308952294163505947e-01
3.942099999999999937e+01 6.422900000000000276e+00 2.724500000000000099e+01 1.979368999999999934e+00 -2.707487303964865588e-01
3.942799999999999727e+01 8.913000000000000256e+00 2.776399999999999935e+01 4.447185000000000343e+01 -1.309708396083679727e-01
3.943699999999999761e+01 -1.662300000000000111e+00 9.684699999999999420e+00 -4.566256000000000093e+00 -1.294074781451370892e-01
3.943800000000000239e+01 5.794599999999999973e+00 2.310699999999999932e+01 2.762845999999999913e-01 -2.684864145720486928e-01
3.943999999999999773e+01 -5.233999999999999986e+00 3.002400000000000091e+01 1.310385999999999918e+01 -2.823580742519152254e-01
3.945000000000000284e+01 4.629999999999999893e+00 1.839799999999999969e+01 1.200225000000000009e+01 -2.633493519708594022e-01
3.945400000000000063e+01 -2.986499999999999932e+00 1.054199999999999982e+01 -4.620283999999999835e+00 -1.249045931109641072e-01
3.946000000000000085e+01 8.573000000000000398e+00 2.052899999999999991e+01 4.914306999999999981e+00 -2.693113424385215060e-01
3.946399999999999864e+01 6.349999999999999645e+00 2.233200000000000074e+01 -4.507457999999999743e+00 -2.675463232050028783e-01
3.946600000000000108e+01 -9.008699999999999264e+00 2.301399999999999935e+01 2.075448000000000093e+01 -2.797290880195434926e-01
3.947099999999999653e+01 -1.113599999999999923e+01 1.435999999999999943e+01 -4.104637999999999565e+00 -2.893150538965386653e-01
3.947099999999999653e+01 -1.113599999999999923e+01 1.575999999999999979e+01 2.640953999999999802e+00 -2.873076993558986159e-01
3.947299999999999898e+01 6.670700000000000074e+00 1.996600000000000108e+01 1.008500000000000085e+01 -2.649835660343230481e-01
3.947999999999999687e+01 6.450199999999999712e+00 2.508299999999999841e+01 1.490275999999999934e+00 -2.695611181284144342e-01
3.947999999999999687e+01 7.315500000000000114e+00 2.508299999999999841e+01 7.633880000000000443e+00 -2.692044234529838986e-01
3.948299999999999699e+01 -1.178800000000000026e+01 2.730799999999999983e+01 -1.406497000000000064e+01 -2.443647683493272438e-01
3.948299999999999699e+01 -1.475799999999999912e+01 2.026999999999999957e+01 -8.806743000000000876e+00 -3.638445554106216617e-01
3.948799999999999955e+01 4.841400000000000148e+00 9.163500000000000867e+00 -4.355825000000000280e+00 -3.527912907362649175e-01
3.949099999999999966e+01 -1.333500000000000085e+01 2.496399999999999864e+01 9.135488000000000497e-01 -2.425216935873068247e-01
3.949099999999999966e+01 -1.214400000000000013e+01 2.562800000000000011e+01 2.386198999999999959e+00 -2.437482341772501948e-01
3.950600000000000023e+01 7.602699999999999569e+00 2.000900000000000034e+01 8.024027999999999494e+00 -2.671538144407383242e-01
3.950699999999999790e+01 -6.792900000000000382e+00 2.226099999999999923e+01 2.024315999999999960e+01 -2.802443611346915886e-01
3.950900000000000034e+01 6.090300000000000047e+00 1.425600000000000023e+01 4.987256000000000000e+01 -3.887574460086152817e-01
3.951599999999999824e+01 6.468700000000000117e+00 1.104800000000000004e+01 -1.970748999999999995e+01 -3.538591699236749433e-01
3.951599999999999824e+01 6.468700000000000117e+00 1.201200000000000045e+01 -2.036974000000000018e+01 -3.899064032870981356e-01
3.952100000000000080e+01 1.059700000000000086e+00 2.801200000000000045e+01 -4.238069999999999893e-01 -2.832317285699972320e-01
3.952900000000000347e+01 7.692300000000000360e+00 2.173400000000000176e+01 -2.491619000000000028e+00 -2.673905434807462567e-01
3.952900000000000347e+01 -1.083300000000000018e+01 1.506000000000000050e+01 -2.501322000000000045e+00 -2.871334138250609125e-01
3.953999999999999915e+01 -8.535999999999999588e+00 3.075799999999999912e+01 1.799802000000000035e+01 -2.815995220343570637e-01
3.954500000000000171e+01 -1.336100000000000065e+01 1.799699999999999989e+01 1.114171999999999940e+01 -3.840858061648869670e-01
3.954999999999999716e+01 -2.265000000000000124e+00 2.822700000000000031e+01 -2.439376000000000211e+00 -2.827886367094244457e-01
3.955100000000000193e+01 6.237499999999999822e+00 1.315499999999999936e+01 -3.692858000000000196e+00 -3.892217196184580841e-01
3.955400000000000205e+01 -1.504800000000000004e+01 2.285800000000000054e+01 3.344994999999999941e+00 -3.499999999999999778e-01
3.957099999999999795e+01 -1.525000000000000000e+01 2.116300000000000026e+01 -6.598669000000000118e+00 -3.637998761386268542e-01
3.957500000000000284e+01 8.015800000000000480e+00 2.097700000000000031e+01 1.385031000000000034e+01 -2.679427732334775381e-01
3.958500000000000085e+01 -1.192699999999999960e+01 1.630000000000000071e+01 3.350811000000000206e+00 -2.890424924987607946e-01
3.960499999999999687e+01 -1.192300000000000004e+01 2.630199999999999960e+01 4.395814000000000110e-01 -2.441095150567262062e-01
3.960499999999999687e+01 -1.233000000000000007e+01 1.254100000000000037e+01 -1.189751000000000047e+01 -4.943281990397294101e-02
3.960499999999999687e+01 -1.210299999999999976e+01 1.174200000000000088e+01 -1.725648999999999988e+00 -5.379062040569310144e-02
3.960499999999999687e+01 -1.210299999999999976e+01 1.333999999999999986e+01 -8.311232000000000397e+00 -2.951958070786140920e-01
3.960499999999999687e+01 -1.087800000000000011e+01 1.089700000000000024e+01 -2.374929999999999986e+00 -5.860291125900288917e-02
3.960600000000000165e+01 -1.417300000000000004e+01 2.449699999999999989e+01 1.235483999999999938e+01 -2.417140155411535152e-01
3.961899999999999977e+01 -9.609999999999999432e+00 1.045599999999999952e+01 -5.255391000000000368e+00 -6.119525150941527297e-02
3.961899999999999977e+01 -8.089999999999999858e+00 1.045599999999999952e+01 -1.322597999999999985e+01 -1.594201629408865395e-01
3.962100000000000222e+01 -7.417099999999999582e+00 2.298699999999999832e+01 1.607881000000000071e+01 -2.801786047080861430e-01
3.962400000000000233e+01 4.800500000000000433e+00 1.524000000000000021e+01 6.889880999999999922e+00 -3.869833770404048079e-01
3.962599999999999767e+01 -6.934800000000000075e+00 2.944600000000000151e+01 1.322475000000000023e+01 -2.818094996115330653e-01
3.963900000000000290e+01 6.572400000000000020e+00 2.163899999999999935e+01 1.112052000000000085e+01 -2.666276653446051359e-01
3.964099999999999824e+01 -9.447599999999999554e+00 2.809199999999999875e+01 -2.794868999999999915e+01 -2.809627973092665987e-01
3.964200000000000301e+01 5.849599999999999689e+00 2.748100000000000165e+01 -6.512413999999999703e+00 -2.709182187797809505e-01
3.965599999999999881e+01 -7.066099999999999604e+00 1.128299999999999947e+01 -1.052895999999999965e+01 -1.416072782563148613e-01
3.967300000000000182e+01 5.613999999999999879e+00 2.233200000000000074e+01 6.591111999999999860e+00 -2.676518921385697136e-01
3.967600000000000193e+01 -1.494400000000000084e+01 2.205099999999999838e+01 -3.034053000000000111e+00 -3.639665676259856708e-01
3.968500000000000227e+01 -7.987000000000000099e+00 1.953600000000000136e+01 5.179143999999999970e+00 -2.763391307737775304e-01
3.970400000000000063e+01 -5.038400000000000212e+00 1.122600000000000087e+01 -5.057285000000000252e+00 -1.293946472123694291e-01
3.970799999999999841e+01 -5.547100000000000364e-01 8.919000000000000483e+00 -3.860170000000000101e+00 -1.344011776333928487e-01
3.971300000000000097e+01 5.755899999999999572e+00 2.419500000000000028e+01 3.149447999999999831e-02 -2.690705361586904765e-01
3.973100000000000165e+01 5.938100000000000378e+00 1.987999999999999901e+01 2.597595000000000098e+01 -2.647590264990480891e-01
3.973100000000000165e+01 5.917399999999999771e+00 2.163200000000000145e+01 1.014206000000000074e+01 -2.667812902357142857e-01
3.973100000000000165e+01 5.336100000000000065e+00 2.338200000000000145e+01 8.107779999999999987e+00 -2.686289947904822450e-01
3.973299999999999699e+01 6.116399999999999615e+00 2.667500000000000071e+01 -7.034716999999999665e+00 -2.703675449545174803e-01
3.973299999999999699e+01 6.981600000000000250e+00 2.667500000000000071e+01 1.185992000000000068e+01 -2.700198092172766406e-01
3.974199999999999733e+01 -3.569199999999999928e+00 2.952199999999999847e+01 1.176608000000000054e+01 -2.824409392478889336e-01
3.975500000000000256e+01 5.274000000000000021e+00 9.863500000000000156e+00 -1.223216999999999999e+01 -3.887694884826130570e-01
3.975800000000000267e+01 1.604999999999999982e+00 7.421999999999999709e+00 6.544611999999999874e+00 -3.968585961971407006e-01
3.976100000000000279e+01 3.061999999999999833e+00 2.875000000000000000e+01 7.588475999999999999e+00 -2.724788838759782950e-01
3.976100000000000279e+01 4.761999999999999567e+00 2.875000000000000000e+01 1.082860999999999940e+01 -2.717578150143992732e-01
3.976299999999999812e+01 -8.535999999999999588e+00 2.801599999999999824e+01 4.853021000000000029e+00 -2.811094162000723484e-01
3.976700000000000301e+01 3.757000000000000117e+00 1.528100000000000058e+01 -2.912042000000000019e+00 -3.855437674145941185e-01
3.979500000000000171e+01 -3.541399999999999881e+00 1.098000000000000043e+01 -6.159272999999999776e+00 -1.256940234931541722e-01
3.979899999999999949e+01 -7.403400000000000425e+00 2.877400000000000091e+01 1.300242000000000075e+01 -2.814938515807553499e-01
3.980100000000000193e+01 -2.540299999999999780e+00 9.749499999999999389e+00 -4.269233999999999973e+00 -1.331750837109085539e-01
3.980599999999999739e+01 2.540000000000000036e-01 2.797500000000000142e+01 6.793768000000000029e+00 -2.829163949897637864e-01
3.981099999999999994e+01 3.271999999999999909e-02 8.085900000000000531e+00 -3.347218999999999944e+00 -1.342825696858906404e-01
3.981199999999999761e+01 -1.376500000000000057e+01 1.891300000000000026e+01 2.411286000000000129e+01 -3.636744442903678265e-01
3.981499999999999773e+01 2.557799999999999851e+00 7.316900000000000404e+00 5.676771000000000100e+01 -3.977716904560036348e-01
3.981600000000000250e+01 7.227100000000000080e+00 2.092399999999999949e+01 2.241481999999999886e+01 -2.658456027834031898e-01
3.981799999999999784e+01 1.778599999999999959e+00 2.800600000000000023e+01 2.265744000000000202e+00 -2.830504994180012002e-01
3.983700000000000330e+01 8.137999999999999901e+00 2.737099999999999866e+01 1.915724000000000160e+01 -2.698542628206126448e-01
3.983700000000000330e+01 9.688000000000000611e+00 2.486299999999999955e+01 1.121761000000000053e+01 -2.700542373258754125e-01
3.983700000000000330e+01 9.688000000000000611e+00 2.737099999999999866e+01 5.498342999999999847e+01 -1.305120967050718284e-01
3.984400000000000119e+01 5.988100000000000200e+00 1.024000000000000021e+01 -1.181451999999999991e+01 -3.534435002525077030e-01
3.984700000000000131e+01 3.186399999999999899e+00 1.519200000000000017e+01 -3.648769999999999847e+00 -3.846906676525224666e-01
3.986999999999999744e+01 -1.163700000000000045e+01 2.691700000000000159e+01 -2.929088999999999832e+00 -2.445156847816554735e-01
3.987700000000000244e+01 -6.758300000000000196e+00 2.027499999999999858e+01 1.880871000000000137e+01 -2.775154197401527023e-01
3.987700000000000244e+01 6.882799999999999585e+00 2.557400000000000162e+01 4.324665999999999677e+00 -2.693516165235133042e-01
3.989200000000000301e+01 -1.146799999999999997e+01 1.470199999999999996e+01 -1.806187999999999905e+00 -2.899326713966727254e-01
3.989200000000000301e+01 -1.146799999999999997e+01 1.556799999999999962e+01 2.639148000000000049e+00 -2.886666657528563773e-01
3.990699999999999648e+01 8.080899999999999750e+00 2.478900000000000148e+01 1.019452000000000069e+01 -2.684056645158526266e-01
3.991299999999999670e+01 5.750200000000000422e+00 2.481599999999999895e+01 -3.070526999999999784e+00 -2.693148690704774695e-01
3.992000000000000171e+01 -1.384999999999999964e+01 1.990299999999999869e+01 7.296350000000000335e+00 -3.637907206708951846e-01
3.993099999999999739e+01 -1.469800000000000040e+01 2.364699999999999847e+01 1.461476000000000042e+01 -3.499999999999999778e-01
3.993599999999999994e+01 3.909800000000000164e+00 1.723300000000000054e+01 8.773549999999999960e-01 -2.608369764520822587e-01
3.993999999999999773e+01 4.151399999999999757e+00 1.802199999999999847e+01 7.914422000000000068e+00 -2.622518284476891837e-01
3.995499999999999829e+01 -1.254199999999999982e+01 1.684299999999999997e+01 8.463025999999999271e+00 -2.900179809323037983e-01
3.995499999999999829e+01 -3.206300000000000150e+00 2.887800000000000011e+01 9.724030000000000840e+00 -2.823137002117018790e-01
3.996500000000000341e+01 -6.083999999999999631e+00 2.969900000000000162e+01 8.760934000000000665e+00 -2.817757383541976135e-01
3.996500000000000341e+01 -4.384000000000000341e+00 2.969900000000000162e+01 1.004963000000000051e+01 -2.821280342132099772e-01
3.996800000000000352e+01 -1.280000000000000071e+01 2.489999999999999858e+01 -2.299306000000000072e+00 -2.431450851742086861e-01
3.997299999999999898e+01 -1.364999999999999991e+00 8.954100000000000392e+00 -4.199944000000000344e+00 -1.373716381056981906e-01
3.997500000000000142e+01 -9.855999999999999872e+00 2.169500000000000028e+01 -1.447367000000000070e+00 -2.779405044487269771e-01
3.997500000000000142e+01 -9.646900000000000475e+00 2.095899999999999963e+01 -2.046033999999999864e+01 -2.774472169066389271e-01
3.997500000000000142e+01 -9.646900000000000475e+00 2.243100000000000094e+01 1.543650000000000055e+01 -2.785174448072566533e-01
3.998299999999999699e+01 -1.564999999999999947e+00 2.796000000000000085e+01 -3.258970000000000056e+01 -2.825207434038530807e-01
3.999799999999999756e+01 5.059999999999999609e+00 1.907600000000000051e+01 1.352492999999999945e+01 -2.636345007005377328e-01
4.001100000000000279e+01 3.745400000000000063e+00 1.629100000000000037e+01 -1.608878999999999948e+00 -3.853348917484192837e-01
4.001100000000000279e+01 -1.178400000000000070e+01 1.428999999999999915e+01 -1.072706999999999944e+01 -2.917262735018545938e-01
4.002499999999999858e+01 -1.282600000000000051e+01 1.751599999999999824e+01 1.539480000000000004e+01 -3.968171050639565101e-01
4.003399999999999892e+01 4.189700000000000202e+00 1.458099999999999952e+01 -4.999260999999999733e+00 -3.859326867049727161e-01
4.003399999999999892e+01 5.240300000000000402e+00 1.458099999999999952e+01 9.052395000000000636e+00 -3.872352804523523928e-01
4.004599999999999937e+01 -1.340799999999999947e+01 2.463100000000000023e+01 1.420923999999999943e+01 -2.425730345163427393e-01
4.005599999999999739e+01 2.450400000000000134e+00 1.519200000000000017e+01 -5.174419999999999575e+00 -1.055223329729163551e-01
4.006199999999999761e+01 -3.108800000000000008e+00 1.027999999999999936e+01 -4.198722000000000065e+00 -1.318266171478814086e-01
4.006700000000000017e+01 -7.836000000000000298e+00 2.807400000000000162e+01 1.443326000000000064e+01 -2.810667729678261173e-01
4.006799999999999784e+01 -6.511300000000000310e+00 2.108599999999999852e+01 1.808653999999999940e+01 -2.783937044066757682e-01
4.007500000000000284e+01 -1.157000000000000028e+01 1.131099999999999994e+01 -2.183676999999999868e+00 -5.969324257313259052e-02
4.008100000000000307e+01 -1.403599999999999959e+01 2.070799999999999841e+01 -4.010292999999999775e-01 -3.637857466433428999e-01
4.008200000000000074e+01 6.046400000000000219e+00 1.312299999999999933e+01 -1.614376999999999995e+01 -3.884268102226081654e-01
4.008599999999999852e+01 5.287300000000000111e+00 2.789999999999999858e+01 -9.757436000000000220e+00 -2.709810387296898715e-01
4.008899999999999864e+01 -8.849999999999999645e+00 1.016600000000000037e+01 -4.354360999999999926e+00 -1.675929744713405278e-01
4.008899999999999864e+01 -7.557000000000000384e+00 1.088700000000000045e+01 -1.049258000000000024e+01 -1.519281139532325797e-01
4.009499999999999886e+01 2.721000000000000085e+00 1.613899999999999935e+01 -2.944936000000000220e+00 -2.584451431382553399e-01
4.009700000000000131e+01 -7.094300000000000050e-01 2.785099999999999909e+01 -2.399822999999999951e+01 -2.825457670226249052e-01
4.009799999999999898e+01 -4.241399999999999615e+00 1.103800000000000026e+01 -4.815850000000000186e+00 -1.299752440826472399e-01
4.011200000000000188e+01 -6.331000000000000405e+00 1.160999999999999943e+01 -5.892237999999999865e+00 -1.363148548270273208e-01
4.011800000000000210e+01 -8.686999999999999389e+00 1.980300000000000082e+01 -9.563195999999999586e+00 -2.757918059867942029e-01
4.011899999999999977e+01 -1.029100000000000037e+01 2.239099999999999824e+01 2.155040999999999940e+01 -2.780881049280027884e-01
4.012199999999999989e+01 2.478600000000000136e+00 2.806500000000000128e+01 -1.803020000000000067e+00 -2.722107528250987118e-01
4.012500000000000000e+01 -1.019999999999999929e+01 1.079299999999999926e+01 -3.411183999999999994e+00 -1.589579842210466221e-01
4.013000000000000256e+01 3.911999999999999922e+00 2.882100000000000151e+01 4.182999999999999829e+01 -2.718465769911665442e-01
4.013300000000000267e+01 1.016699999999999982e+01 2.563800000000000168e+01 2.120278000000000063e+01 -2.702065859757920019e-01
4.013300000000000267e+01 1.016699999999999982e+01 2.659600000000000009e+01 6.160501000000000005e+01 -2.700999183372553292e-01
4.013400000000000034e+01 2.786500000000000199e+00 1.424600000000000044e+01 3.514410999999999952e+00 -3.837784663384909978e-01
4.013400000000000034e+01 3.651800000000000157e+00 1.424600000000000044e+01 -1.996966000000000108e+01 -3.851087770443977765e-01
4.013499999999999801e+01 6.361399999999999721e+00 2.112199999999999989e+01 6.367418999999999940e+00 -2.656904149539037752e-01
4.014099999999999824e+01 6.118999999999999773e+00 2.017200000000000060e+01 7.830142999999999631e+00 -2.646601492967412539e-01
4.015500000000000114e+01 1.172400000000000109e+00 7.912899999999999601e+00 1.239272000000000062e+01 -1.282791996821283087e-01
4.016400000000000148e+01 5.447199999999999598e+00 1.948400000000000176e+01 2.546491999999999933e+01 -2.639305827926102799e-01
4.016400000000000148e+01 5.217399999999999594e+00 2.189900000000000091e+01 3.725980999999999987e+00 -2.668980346580553387e-01
4.016599999999999682e+01 5.416400000000000325e+00 2.694200000000000017e+01 -1.759310999999999936e+01 -2.704409223079792257e-01
4.017300000000000182e+01 8.913000000000000256e+00 2.479799999999999827e+01 3.853452999999999662e+01 -2.685466489683321356e-01
4.017300000000000182e+01 8.913000000000000256e+00 2.743599999999999994e+01 2.242363000000000000e+02 -2.694124683698418954e-01
4.017999999999999972e+01 -2.632499999999999840e+00 9.378099999999999881e+00 -3.921586000000000016e+00 -1.399089802488610867e-01
4.018500000000000227e+01 -8.042199999999999349e+00 2.327499999999999858e+01 9.607433999999999585e+00 -2.793608945438705304e-01
4.018800000000000239e+01 4.438100000000000378e+00 8.684300000000000352e+00 2.936323999999999934e+00 -3.523737062327804703e-01
4.018800000000000239e+01 4.783100000000000129e+00 9.466900000000000759e+00 -4.092914000000000274e-02 -3.874898356859801107e-01
4.020700000000000074e+01 -6.734700000000000131e+00 2.256400000000000006e+01 1.632198999999999955e+01 -2.794464030109381492e-01
4.020700000000000074e+01 -6.525599999999999845e+00 2.182799999999999940e+01 1.722165000000000035e+01 -2.790642430833606413e-01
4.020900000000000318e+01 7.592600000000000016e+00 2.557900000000000063e+01 1.149563999999999986e+01 -2.688404053794182236e-01
4.020900000000000318e+01 7.592600000000000016e+00 2.665500000000000114e+01 1.241863999999999990e+01 -2.694387278665629770e-01
4.022099999999999653e+01 -9.764699999999999491e+00 2.312900000000000134e+01 2.243239000000000161e+01 -2.786101594278499460e-01
4.022599999999999909e+01 -1.433300000000000018e+01 2.163100000000000023e+01 2.642214000000000063e+00 -3.637763867316414212e-01
4.024699999999999989e+01 -2.206399999999999917e+00 8.963300000000000267e+00 -3.981145000000000156e+00 -1.424772048665258750e-01
4.025600000000000023e+01 -1.445700000000000074e+01 2.256200000000000117e+01 5.818604999999999805e+00 -3.638671260631876070e-01
4.026100000000000279e+01 -1.229899999999999949e+01 2.530499999999999972e+01 3.759631000000000167e+00 -2.437754616605241897e-01
4.026500000000000057e+01 4.596300000000000274e+00 1.874200000000000088e+01 7.539152999999999771e+00 -2.629636793942712325e-01
4.026899999999999835e+01 -8.865999999999999659e+00 2.321199999999999974e+01 1.789870000000000161e+01 -2.789252747656759124e-01
4.027700000000000102e+01 2.084000000000000075e+00 7.836999999999999744e+00 5.153960000000000008e+01 -3.973048889392686300e-01
4.027900000000000347e+01 3.049399999999999888e+00 7.774600000000000399e+00 1.353511999999999915e+01 -3.979182458029870140e-01
4.028499999999999659e+01 -5.699399999999999800e+00 1.152800000000000047e+01 -6.993913000000000046e+00 -1.344425042929232872e-01
4.030899999999999750e+01 -2.244600000000000151e+00 2.805999999999999872e+01 -1.889649999999999963e+01 -2.821394046919646348e-01
4.031300000000000239e+01 6.421999999999999709e+00 1.073099999999999987e+01 -1.252716000000000030e+01 -3.535628277923608120e-01
4.031300000000000239e+01 6.421999999999999709e+00 1.232900000000000063e+01 -3.780031000000000319e+01 -3.887861573356436451e-01
4.031300000000000239e+01 6.649000000000000021e+00 1.152999999999999936e+01 -1.132036000000000087e+01 -3.892389254195464665e-01
4.032399999999999807e+01 -1.216799999999999926e+01 1.583500000000000085e+01 6.075216000000000172e+00 -2.903300853029534001e-01
4.032600000000000051e+01 -6.667399999999999771e+00 2.901399999999999935e+01 1.516460999999999970e+01 -2.813033683449571165e-01
4.032699999999999818e+01 7.519299999999999873e-01 2.751399999999999935e+01 -3.049565999999999999e+00 -2.825178954302590695e-01
4.032800000000000296e+01 -1.102699999999999925e+01 2.239099999999999824e+01 2.505120000000000147e+01 -3.835317959948175703e-01
4.032900000000000063e+01 -8.287200000000000122e-01 8.111399999999999721e+00 2.091587999999999781e+00 -1.429235487988423370e-01
4.033400000000000318e+01 6.003999999999999559e+00 2.569600000000000151e+01 -2.350512999999999852e+00 -2.694017425045047709e-01
4.033400000000000318e+01 -5.233999999999999986e+00 2.976999999999999957e+01 9.459958999999999563e+00 -2.816956320784488321e-01
4.034899999999999665e+01 -1.101999999999999957e+01 2.747599999999999909e+01 -1.818073000000000050e+00 -2.451734190261311563e-01
4.036299999999999955e+01 1.779199999999999893e+00 2.756200000000000117e+01 1.403980999999999923e+00 -2.825988595969053940e-01
4.036399999999999721e+01 -1.192900000000000027e+01 1.380799999999999983e+01 -1.845839999999999925e+00 -4.707505685523142441e-02
4.036500000000000199e+01 -1.203999999999999915e+01 1.207099999999999973e+01 -2.477736000000000161e+00 -3.182570748086759049e-02
4.037299999999999756e+01 -9.289300000000000779e+00 2.748799999999999955e+01 1.429437000000000069e+01 -2.803067731593378298e-01
4.038300000000000267e+01 -1.186500000000000021e+01 1.513499999999999979e+01 -2.003226000000000173e+00 -2.904958728075145991e-01
4.038700000000000045e+01 -1.072400000000000020e+01 2.169099999999999895e+01 6.881179000000000379e+00 -3.831368286672774959e-01
4.038700000000000045e+01 -1.072400000000000020e+01 2.309100000000000108e+01 2.006046999999999869e+01 -2.780924583697833574e-01
4.038799999999999812e+01 -3.906299999999999883e+00 2.914499999999999957e+01 9.471866999999999592e+00 -2.818642427648002657e-01
4.039999999999999858e+01 5.548000000000000043e+00 2.511299999999999955e+01 -6.335852000000000039e+00 -2.691688825178301658e-01
4.040100000000000335e+01 4.793599999999999639e+00 2.376899999999999835e+01 1.851323000000000052e+00 -2.685261052697439088e-01
4.040200000000000102e+01 -1.215000000000000036e+01 1.302299999999999969e+01 -4.845621999999999652e+00 -2.886513260637068104e-02
4.040800000000000125e+01 -1.328400000000000070e+01 1.943799999999999883e+01 1.358863999999999983e+01 -3.837533588524395523e-01
4.041400000000000148e+01 -1.819299999999999917e+00 8.218999999999999417e+00 -3.368778999999999968e+00 -1.486691149892531427e-01
4.041499999999999915e+01 -7.030999999999999694e+00 1.155199999999999960e+01 -2.678455999999999904e+01 -1.420796673578562930e-01
4.043099999999999739e+01 5.650000000000000355e+00 2.119900000000000162e+01 -6.343378000000000405e+00 -2.657276144593525014e-01
4.043299999999999983e+01 5.849000000000000199e+00 2.624200000000000088e+01 -2.406644000000000005e+00 -2.696949265693188158e-01
4.044400000000000261e+01 -9.212999999999999190e+00 2.046799999999999997e+01 -3.374940000000000140e+01 -2.762319741600723910e-01
4.044700000000000273e+01 5.455300000000000260e+00 1.334900000000000020e+01 -2.595975999999999928e+01 -3.873253830284260624e-01
4.045600000000000307e+01 -1.384800000000000075e+01 2.397200000000000131e+01 2.133751000000000175e+01 -2.421685474477818512e-01
4.046900000000000119e+01 -1.085800000000000054e+01 1.117300000000000004e+01 -7.393678000000000416e+00 -1.556361112538312275e-01
4.046999999999999886e+01 -7.230299999999999727e+00 1.991600000000000037e+01 1.214345999999999925e+01 -2.755724098797264765e-01
4.047500000000000142e+01 4.714999999999999858e+00 1.384600000000000009e+01 -7.516587000000000351e+00 -3.863048965783413280e-01
4.047999999999999687e+01 -1.343900000000000006e+01 2.163100000000000023e+01 7.849476000000000120e+00 -3.843134440375261529e-01
4.049900000000000233e+01 -7.345100000000000406e+00 2.847100000000000009e+01 1.618061000000000149e+01 -2.809255938469595870e-01
4.051700000000000301e+01 3.271300000000000097e+00 1.668900000000000006e+01 -2.236123000000000083e+00 -2.591559737324568014e-01
4.052700000000000102e+01 -1.421700000000000053e+01 2.312199999999999989e+01 1.400473999999999997e+01 -3.638687154213386399e-01
4.052900000000000347e+01 -1.288700000000000045e+01 2.164900000000000091e+01 1.012432000000000087e+01 -3.840527182094798930e-01
4.053099999999999881e+01 3.219199999999999839e+00 1.375500000000000078e+01 -8.208847000000000227e-01 -3.841224549237264307e-01
4.053699999999999903e+01 -1.320700000000000074e+01 2.081599999999999895e+01 2.954000999999999877e+00 -3.839970563710394247e-01
4.055499999999999972e+01 8.823400000000000132e-01 8.109199999999999520e+00 2.073490000000000055e+00 -1.299936435925048428e-01
4.055899999999999750e+01 -9.609999999999999432e+00 1.045599999999999952e+01 -9.181309000000000609e+00 -1.633835428028342363e-01
4.055899999999999750e+01 -8.089999999999999858e+00 1.045599999999999952e+01 -2.789743999999999957e+01 -1.620369946605590417e-01
4.056400000000000006e+01 -1.393200000000000038e+01 2.231599999999999895e+01 8.737002000000000379e+00 -3.638116810220394237e-01
4.056700000000000017e+01 2.086500000000000021e+00 1.451299999999999990e+01 -8.730537999999999244e+00 -1.112806973021065737e-01
4.057099999999999795e+01 -1.477000000000000091e+00 2.799399999999999977e+01 -4.734819999999999851e+01 -2.820469290630229220e-01
4.057399999999999807e+01 5.628099999999999881e+00 1.977499999999999858e+01 -1.300816000000000017e+01 -2.638709592784388436e-01
4.057800000000000296e+01 -9.304700000000000415e+00 2.375499999999999901e+01 4.054753999999999792e+01 -2.787328604288021872e-01
4.057800000000000296e+01 -8.439399999999999125e+00 2.375499999999999901e+01 1.722521000000000058e+01 -2.790236753203746423e-01
4.057999999999999829e+01 4.647800000000000153e+00 2.285800000000000054e+01 3.104296999999999862e+00 -2.676425613010681714e-01
4.059599999999999653e+01 -1.309699999999999953e+01 2.021799999999999997e+01 7.055639000000000216e+00 -3.837446037212969285e-01
4.059799999999999898e+01 -1.202500000000000036e+01 2.209499999999999886e+01 1.707875999999999905e+01 -3.837341105333069713e-01
4.061200000000000188e+01 8.433999999999999275e+00 2.534199999999999875e+01 6.372014999999999674e+01 -2.681412469542684418e-01
4.061200000000000188e+01 8.433999999999999275e+00 2.689199999999999946e+01 4.033632999999999669e+01 -2.690157793566168021e-01
4.061200000000000188e+01 9.391999999999999460e+00 2.534199999999999875e+01 3.203838999999999970e+01 -2.686565215379725369e-01
4.061200000000000188e+01 9.391999999999999460e+00 2.689199999999999946e+01 6.852546999999999855e+01 -2.687362746653448875e-01
4.061299999999999955e+01 -2.944599999999999884e+00 2.811799999999999855e+01 6.714425000000000310e+00 -2.817660132436736187e-01
4.061399999999999721e+01 -1.147000000000000064e+01 2.653000000000000114e+01 5.905054999999999943e+00 -2.447666873428438472e-01
4.061599999999999966e+01 5.381000000000000227e+00 2.644000000000000128e+01 -1.179279000000000011e+01 -2.698409131375265058e-01
4.062100000000000222e+01 5.274000000000000021e+00 9.863500000000000156e+00 -4.751598999999999684e+00 -3.875928384631834867e-01
4.062899999999999778e+01 -1.281900000000000084e+01 2.230699999999999861e+01 1.538133000000000017e+01 -3.840965755470719389e-01
4.063000000000000256e+01 5.192800000000000193e-02 2.757300000000000040e+01 -2.892595000000000027e+01 -2.821855312831403340e-01
4.063300000000000267e+01 4.702499999999999680e+00 2.235699999999999932e+01 4.217061000000000170e+00 -2.670948221997030414e-01
4.063300000000000267e+01 5.976200000000000401e+00 2.067099999999999937e+01 -7.900680000000000369e+00 -2.648366252766180540e-01
4.064300000000000068e+01 4.358899999999999997e-01 2.710399999999999920e+01 -2.712847000000000008e+00 -2.821773898749443399e-01
4.064300000000000068e+01 1.301099999999999923e+00 2.710399999999999920e+01 3.693829000000000029e+00 -2.822844303989422432e-01
4.064600000000000080e+01 -1.258500000000000085e+01 1.563199999999999967e+01 2.020684999999999842e+00 -3.963086221009152199e-01
4.064900000000000091e+01 -3.930000000000000160e+00 1.049300000000000033e+01 -4.103278999999999677e+00 -1.369728543584888547e-01
4.065500000000000114e+01 -1.259999999999999964e+01 1.653999999999999915e+01 4.686048000000000435e+00 -3.963886824713843682e-01
4.065500000000000114e+01 -3.473700000000000010e+00 2.844500000000000028e+01 1.494993000000000016e+01 -2.816689298126911489e-01
4.065800000000000125e+01 -1.009500000000000064e+01 2.745100000000000051e+01 1.237967999999999957e+00 -2.798651545618180414e-01
4.067600000000000193e+01 -8.589299999999999713e+00 2.754700000000000060e+01 1.411022999999999961e+01 -2.802732297319691646e-01
4.067699999999999960e+01 8.098100000000000520e+00 2.611700000000000088e+01 2.750861000000000089e+01 -2.686585482763984567e-01
4.067699999999999960e+01 9.727899999999999991e+00 2.611700000000000088e+01 3.623908999999999736e+01 -2.689921359085418739e-01
4.067699999999999960e+01 -1.223799999999999955e+01 1.487899999999999956e+01 7.977843000000000018e-01 -3.042187267183256716e-01
4.069500000000000028e+01 -7.246400000000000396e+00 2.299399999999999977e+01 8.595164999999999722e+00 -2.788946525244326846e-01
4.069800000000000040e+01 4.105400000000000382e+00 1.834499999999999886e+01 2.556584000000000079e-01 -2.619760378529357725e-01
4.069899999999999807e+01 1.912300000000000111e+00 1.500300000000000011e+01 -1.489089000000000063e+01 -1.229358391391300598e-01
4.069899999999999807e+01 1.912300000000000111e+00 1.586899999999999977e+01 -1.011552000000000007e+01 -1.115035210758670986e-01
4.070199999999999818e+01 2.629999999999999893e+00 2.781500000000000128e+01 1.362839000000000134e-01 -2.715511418502012941e-01
4.071200000000000330e+01 4.930100000000000371e+00 2.744000000000000128e+01 -1.858023999999999987e+01 -2.704416230369931506e-01
4.071300000000000097e+01 -1.265000000000000036e+01 1.837399999999999878e+01 1.838948999999999856e+01 -3.965143347372771521e-01
4.071300000000000097e+01 3.842000000000000082e+00 8.202700000000000102e+00 -1.263791999999999971e-01 -3.981224919284364616e-01
4.072200000000000131e+01 -1.155499999999999972e+01 2.553999999999999915e+01 1.683974999999999866e+01 -2.787694939461353716e-01
4.072699999999999676e+01 1.981000000000000094e+00 8.116899999999999338e+00 9.600206999999999269e+00 -1.257227492320978079e-01
4.072899999999999920e+01 -1.029800000000000004e+01 2.373300000000000054e+01 3.830382999999999782e+01 -2.782574210347989463e-01
