-4.839600000000000080e+01 3.525000000000000000e+01 1.045599999999999952e+01 8.965815999999999786e-01 -3.100106029843693878e-01
-4.839200000000000301e+01 2.700600000000000023e+01 9.701000000000000512e+00 1.039803000000000033e+01 -3.103841657392277797e-01
-4.839200000000000301e+01 -1.849800000000000111e+01 1.278800000000000026e+01 7.335053000000000267e-01 -1.653646867059374581e-01
-4.838700000000000045e+01 -1.390900000000000025e+00 8.907099999999999795e+00 4.942354999999999665e-02 -2.379860253505329815e-01
-4.838700000000000045e+01 -1.066000000000000059e+00 8.169900000000000162e+00 5.204161000000000203e-02 -2.381475717629208122e-01
-4.838700000000000045e+01 2.270000000000000073e-01 7.448999999999999844e+00 -1.157019999999999937e+00 -2.378857358615490969e-01
-4.838700000000000045e+01 1.520000000000000018e+00 8.169900000000000162e+00 -5.970805000000000362e+00 -2.371447970229251800e-01
-4.838700000000000045e+01 2.454100000000000037e+01 2.276200000000000045e+01 2.391140000000000043e+01 -3.082149648274903342e-01
-4.838600000000000279e+01 -1.740899999999999892e+00 1.398499999999999943e+01 2.148731999999999864e+00 -2.355511487647984625e-01
-4.838400000000000034e+01 2.945299999999999940e+01 -1.419999999999999873e-01 5.317899999999999849e+00 -3.112948312631354519e-01
-4.838300000000000267e+01 2.910999999999999943e+01 1.841600000000000037e+01 -1.180075000000000074e+01 -3.090848336686816689e-01
-4.838000000000000256e+01 3.755499999999999972e+01 1.990200000000000102e+01 -2.236232000000000220e+00 -3.089986839281998465e-01
-4.838000000000000256e+01 2.413100000000000023e+01 2.371699999999999875e+01 -1.750197999999999920e+00 -3.080184929686274886e-01
-4.837899999999999778e+01 -5.913899999999999935e+00 2.118599999999999817e+00 1.465113999999999983e+01 -8.867859113776313529e-02
-4.837800000000000011e+01 -6.033100000000000129e+00 5.899999999999999689e-01 -1.150305999999999962e+01 -8.879321342951088103e-02
-4.837800000000000011e+01 1.824099999999999966e+01 4.127600000000000158e+00 -5.418931999999999860e+00 -3.118482915557619917e-01
-4.837599999999999767e+01 1.766799999999999926e+01 3.048000000000000043e+00 -3.754245000000000054e+00 -3.120698210393781369e-01
-4.837199999999999989e+01 -1.718499999999999872e+01 2.407600000000000051e+01 -6.566373999999999711e+00 -3.499999999999999778e-01
-4.836599999999999966e+01 -1.385999999999999943e+01 1.096700000000000053e+01 5.883377999999999730e+01 -1.882408379578984214e-01
-4.836299999999999955e+01 1.202599999999999980e+01 2.151000000000000156e+01 1.527868000000000004e+00 -3.078461393869706408e-01
-4.836200000000000188e+01 2.930000000000000071e+01 6.322000000000000064e+00 1.689816999999999902e+00 -3.106606449150848270e-01
-4.836200000000000188e+01 -2.190299999999999869e+01 2.383500000000000085e+01 2.769102999999999870e+00 -3.840727045442983711e-01
-4.835799999999999699e+01 3.790200000000000102e+01 1.131799999999999962e+01 -3.297778000000000098e-01 -3.098718213734736882e-01
-4.835499999999999687e+01 3.486800000000000210e+01 2.191900000000000048e+01 -2.757617000000000118e+01 -3.086977492932686529e-01
-4.835000000000000142e+01 3.838000000000000256e+01 1.858800000000000097e+01 -4.341193999999999775e+00 -3.091611278906019611e-01
-4.835000000000000142e+01 3.743099999999999739e+01 2.083299999999999841e+01 -1.462539000000000033e+00 -3.088871685570159231e-01
-4.835000000000000142e+01 1.249300000000000077e+00 1.173300000000000054e+01 7.028698999999999586e+00 -2.357344351500295365e-01
-4.834899999999999665e+01 -1.549699999999999989e+01 4.211899999999999977e+00 3.026396999999999782e+00 -1.644250212300835123e-01
-4.834700000000000131e+01 -1.005199999999999960e+01 1.669100000000000028e+00 1.870354000000000072e+00 -8.921005136326663754e-02
-4.834599999999999653e+01 3.096300000000000097e+01 7.074799999999999756e+00 4.878836999999999868e+00 -3.104975792974003501e-01
-4.834400000000000119e+01 3.562100000000000222e+01 9.754899999999999238e+00 5.132025999999999533e-01 -3.100653090657659039e-01
-4.834100000000000108e+01 -1.924800000000000111e+01 1.139100000000000001e+01 3.905101000000000155e+00 -1.692397126342246594e-01
-4.833500000000000085e+01 1.043999999999999950e+01 1.358600000000000030e+01 1.096586000000000061e+00 -3.106712943721636200e-01
-4.833400000000000318e+01 -1.300000000000000000e+01 4.828500000000000014e+00 2.315459999999999852e+00 -8.967060737919915758e-02
-4.833299999999999841e+01 3.794200000000000017e+01 9.803000000000000824e+00 -2.213147000000000197e+00 -3.100032449343852470e-01
-4.833299999999999841e+01 -2.362999999999999989e+00 3.661200000000000188e+01 7.992547000000000068e+00 -3.737953863476859984e-01
-4.833100000000000307e+01 -1.349300000000000033e+01 2.770100000000000051e+01 -5.134263999999999495e-01 -3.396623077411940472e-01
-4.832900000000000063e+01 -1.882700000000000173e+01 1.202800000000000047e+01 1.586413000000000073e+00 -1.675638582321249959e-01
-4.832800000000000296e+01 1.526800000000000068e+01 1.450500000000000123e-01 -1.511867000000000072e+00 -3.127870950002586969e-01
-4.832699999999999818e+01 -1.668900000000000006e+01 1.590099999999999980e+01 1.117783000000000015e+01 -1.825254727095969032e-01
-4.832300000000000040e+01 2.789600000000000080e+01 2.098500000000000032e+00 2.365488000000000035e+00 -3.111904983496133204e-01
-4.832099999999999795e+01 3.684599999999999653e+01 1.104899999999999949e+01 3.760226999999999875e-01 -3.099154792656906854e-01
-4.831700000000000017e+01 -1.464700000000000024e+01 2.153099999999999881e+01 1.195705000000000062e+01 -3.499999999999999778e-01
-4.831700000000000017e+01 -1.443800000000000061e+01 2.226699999999999946e+01 7.955722999999999878e+00 -3.499999999999999778e-01
-4.831700000000000017e+01 -1.655699999999999861e+01 4.207300000000000040e+00 3.342315999999999843e+00 -1.637408711970070319e-01
-4.831000000000000227e+01 1.784199999999999875e+01 1.155999999999999917e+00 -5.386789000000000271e+00 -3.122903440462571067e-01
-4.831000000000000227e+01 2.699599999999999866e+01 3.536300000000000221e+00 1.296327999999999925e+00 -3.111041621908659516e-01
-4.830899999999999750e+01 3.688799999999999812e+01 1.053100000000000058e+01 8.508577999999999975e-01 -3.099612998287225585e-01
-4.830899999999999750e+01 2.340399999999999991e+01 2.380100000000000104e+00 1.620737000000000094e+00 -3.115247530500231399e-01
-4.830499999999999972e+01 1.709400000000000119e+01 9.399200000000000443e+00 -1.303411000000000097e+00 -3.111229173602984011e-01
-4.829299999999999926e+01 -1.524399999999999977e+01 1.547100000000000009e+01 4.661429000000000045e+00 -1.836158612110438404e-01
-4.829200000000000159e+01 -1.843799999999999883e+01 1.338299999999999912e+01 -5.387322000000000166e+00 -1.642850709777751161e-01
-4.828900000000000148e+01 -1.475300000000000011e+01 1.494899999999999984e+01 4.148731999999999864e+00 -1.842463794986956838e-01
-4.828699999999999903e+01 -1.450900000000000079e+00 1.351600000000000001e+01 2.612786999999999971e+00 -2.356752042622885790e-01
-4.828600000000000136e+01 2.859299999999999997e+01 5.611199999999999521e-01 3.178631000000000206e+00 -3.112886113635539576e-01
-4.828499999999999659e+01 -1.837399999999999878e+01 1.433699999999999974e+01 3.316152999999999906e+00 -1.845643918265270078e-01
-4.828499999999999659e+01 -1.802899999999999991e+01 1.511899999999999977e+01 7.871368999999999616e+00 -1.833639896982766637e-01
-4.828300000000000125e+01 -1.955099999999999838e+01 1.069100000000000072e+01 1.220180000000000042e+01 -1.705939717414577395e-01
-4.828300000000000125e+01 2.339799999999999969e+01 2.510200000000000031e+01 -2.749811000000000050e+01 -3.077152264308899432e-01
-4.828199999999999648e+01 1.214600000000000080e+01 2.336799999999999855e+01 2.617977000000000221e+00 -3.072383891532440847e-01
-4.828099999999999881e+01 9.015700000000000713e+00 2.196499999999999986e+01 -6.146822000000000230e+01 -3.074531097391102197e-01
-4.828099999999999881e+01 9.015700000000000713e+00 2.282999999999999829e+01 -1.554312999999999967e+01 -3.071160169045893951e-01
-4.827900000000000347e+01 3.706199999999999761e+01 2.168299999999999983e+01 -8.634965999999999475e-01 -3.087786094247192969e-01
-4.827700000000000102e+01 -1.498300000000000054e+01 4.327600000000000335e+00 1.918968999999999925e+00 -1.854890918983352899e-01
-4.827700000000000102e+01 -1.271799999999999997e+01 4.327600000000000335e+00 2.015928000000000164e+00 -8.959832540763097708e-02
-4.827700000000000102e+01 6.642800000000000260e+00 3.848299999999999699e+01 1.016869999999999941e+00 -3.725548956763424235e-01
-4.827100000000000080e+01 3.175000000000000000e+01 1.325300000000000011e+01 5.543899999999999828e+00 -3.097997251639662553e-01
-4.827100000000000080e+01 -7.783199999999999896e+00 6.163399999999999990e-01 3.009016000000000091e+01 -8.894811708212563284e-02
-4.826899999999999835e+01 -5.929700000000000415e+00 3.529299999999999926e+01 -6.612506999999999913e+00 -3.746721488852801651e-01
-4.826700000000000301e+01 2.335900000000000176e+01 1.238199999999999967e+01 2.924615999999999882e+00 -3.101828216126313875e-01
-4.826400000000000290e+01 -2.373699999999999921e+00 1.544500000000000028e+01 -2.871249999999999858e+00 -3.116016848861270505e-01
-4.826200000000000045e+01 2.458899999999999864e+01 1.157600000000000051e+01 5.133562999999999654e+00 -3.102423621799424991e-01
-4.826200000000000045e+01 2.084499999999999797e+00 1.047400000000000020e+01 2.988055999999999823e+00 -2.360227741469624330e-01
-4.826200000000000045e+01 3.943699999999999761e+01 1.728800000000000026e+01 -8.783994999999999997e-01 -3.093150080877098973e-01
-4.826100000000000279e+01 3.949799999999999756e+01 1.537500000000000000e+01 -6.847764999999999880e+00 -3.094949750187049320e-01
-4.825999999999999801e+01 3.013000000000000123e-01 1.351200000000000045e+01 4.583938999999999986e+00 -3.122944017668666250e-01
-4.825699999999999790e+01 2.999500000000000099e+01 1.055199999999999960e+01 1.828963999999999857e+01 -3.101521584619205130e-01
-4.825500000000000256e+01 -1.014499999999999957e+01 3.212199999999999989e+01 -7.658548999999999829e+00 -3.399430906886596326e-01
-4.825000000000000000e+01 1.655199999999999960e+01 -6.059900000000000286e-01 -1.665375999999999967e+00 -3.126774222609439713e-01
-4.824900000000000233e+01 1.794500000000000028e+01 1.865099999999999980e+00 3.582917999999999936e-01 -3.121856125595003917e-01
-4.824799999999999756e+01 -1.642599999999999838e+01 1.060200000000000031e+01 2.695448999999999984e+00 -1.680405520165265121e-01
-4.824699999999999989e+01 1.379899999999999949e+01 9.482699999999999463e+00 -2.705087999999999937e-01 -3.114775958202401496e-01
-4.824699999999999989e+01 1.549900000000000055e+01 9.482699999999999463e+00 4.161895000000000344e+00 -3.112731681156793995e-01
-4.824699999999999989e+01 -1.689499999999999957e+01 3.396999999999999797e+00 3.768291000000000057e+00 -1.628784736723459525e-01
-4.824699999999999989e+01 -1.510699999999999932e+01 3.396999999999999797e+00 4.005721000000000309e+00 -1.846298485229067865e-01
-4.824600000000000222e+01 1.101299999999999990e+01 2.412600000000000122e+01 -3.416441999999999979e+00 -3.068675023319124007e-01
-4.824399999999999977e+01 2.910699999999999932e+01 6.568800000000000194e-01 7.785313999999999623e+00 -3.112416043076061123e-01
-4.824099999999999966e+01 -1.384999999999999964e+01 5.085799999999999876e+00 2.469755999999999840e+00 -8.988380940186306567e-02
-4.824099999999999966e+01 1.100699999999999967e+01 3.696099999999999852e+01 7.804155999999999871e+00 -4.176918278644592419e-01
-4.823899999999999721e+01 2.578000000000000114e+01 1.459099999999999930e+01 3.941901999999999795e+00 -3.097374314574792842e-01
-4.823599999999999710e+01 -8.364300000000000068e-01 3.910300000000000153e+01 -2.377689999999999859e+00 -3.738736272369347358e-01
-4.823599999999999710e+01 1.087800000000000011e+01 1.975600000000000023e+01 2.300692999999999877e+00 -3.083981646620432837e-01
-4.823499999999999943e+01 -9.332000000000000739e+00 3.345300000000000296e+01 -2.226222999999999885e+01 -3.400051911305453922e-01
-4.823299999999999699e+01 1.601800000000000068e+01 3.582300000000000040e+01 -1.114930000000000021e+01 -4.174476915651406661e-01
-4.822699999999999676e+01 9.683500000000000441e+00 3.760600000000000165e+01 3.683507999999999782e+00 -4.177698387712890371e-01
-4.822500000000000142e+01 2.748600000000000065e+01 5.479800000000000226e-01 5.091827000000000325e+00 -3.113704960817122447e-01
-4.822200000000000131e+01 -4.774300000000000210e-01 1.352699999999999925e+01 1.009186000000000050e+01 -2.353206057619011138e-01
-4.821800000000000352e+01 -1.435800000000000054e+01 1.527500000000000036e+01 3.271878999999999760e-01 -1.841526191529326562e-01
-4.821699999999999875e+01 -4.228699999999999903e+00 9.496299999999999741e+00 -1.750844999999999985e+01 -2.391753027419589728e-01
-4.821699999999999875e+01 -6.169500000000000206e+00 1.050599999999999978e+00 5.860687999999999676e+00 -8.874264082946935195e-02
-4.821399999999999864e+01 -2.117800000000000082e+01 2.481299999999999883e+01 1.744438999999999851e+01 -3.825794121183686003e-01
-4.821300000000000097e+01 1.907799999999999940e+01 2.623400000000000176e+00 -3.795547000000000004e+00 -3.119453411392539843e-01
-4.821200000000000330e+01 -1.992000000000000171e+01 9.840999999999999304e+00 9.925399999999999778e+00 -1.685981823279715797e-01
-4.821200000000000330e+01 2.558699999999999974e+01 9.858700000000000685e+00 7.306700000000000195e+00 -3.104253428550173832e-01
-4.821099999999999852e+01 -8.910500000000000753e+00 1.538799999999999990e+01 7.988215000000000288e+00 -2.387235403747972884e-01
-4.821099999999999852e+01 -8.910500000000000753e+00 1.625300000000000011e+01 2.483963000000000143e+00 -2.379138260425101292e-01
-4.821099999999999852e+01 1.778200000000000003e+01 2.172900000000000109e-01 -5.532760999999999818e+00 -3.124078030326164490e-01
-4.820700000000000074e+01 -1.611299999999999955e+01 8.873300000000000409e+00 5.876565000000000261e-01 -9.078897530598960264e-02
-4.820700000000000074e+01 -7.743599999999999817e+00 3.389800000000000324e+01 -9.991428000000000864e+00 -3.751060826562353512e-01
-4.820600000000000307e+01 2.801200000000000045e+01 1.044800000000000040e+01 1.028613999999999962e+01 -3.102377778796705510e-01
-4.820499999999999829e+01 3.564600000000000080e+01 8.177400000000000446e+00 -3.218287000000000120e+00 -3.102059296697896595e-01
-4.820400000000000063e+01 7.448000000000000398e+00 1.635000000000000142e+01 5.233213000000000115e+00 -3.097998633499225440e-01
-4.820300000000000296e+01 2.805399999999999849e+01 -3.888799999999999812e+00 2.813874999999999904e+00 -3.117147915057024710e-01
-4.820300000000000296e+01 2.805399999999999849e+01 -2.941199999999999815e+00 6.389035999999999937e+00 -3.116377681973715452e-01
-4.820199999999999818e+01 1.422000000000000064e+01 3.685300000000000153e+01 -4.480234999999999701e+01 -4.175312554752776961e-01
-4.820199999999999818e+01 1.557000000000000028e+01 3.622599999999999909e+01 -3.852942999999999785e+01 -4.174683640075576574e-01
-4.820000000000000284e+01 9.745699999999999363e+00 2.051399999999999935e+01 -1.472330999999999968e+01 -3.080633291009350350e-01
-4.820000000000000284e+01 1.201099999999999923e+01 2.051399999999999935e+01 3.390547999999999895e+00 -3.081730285816483561e-01
-4.819899999999999807e+01 1.169399999999999995e+00 1.375000000000000000e+01 -2.901638000000000162e+00 -3.119491838343390055e-01
-4.819400000000000261e+01 2.221099999999999852e+01 2.309099999999999930e+00 -4.234343000000000135e-02 -3.116426447292519053e-01
-4.819299999999999784e+01 3.271999999999999886e+01 1.770799999999999841e+01 2.342585000000000139e+00 -3.092198365409364325e-01
-4.819299999999999784e+01 3.318299999999999983e+01 1.694399999999999906e+01 -3.669509000000000132e+00 -3.093279813811580237e-01
-4.819200000000000017e+01 -1.277999999999999936e+01 2.850199999999999889e+01 -1.806982999999999961e+01 -3.397066144602151061e-01
-4.819100000000000250e+01 1.851099999999999923e+01 8.982499999999999929e+00 -8.131584999999999397e+00 -3.110523587925878575e-01
-4.818900000000000006e+01 9.309599999999999653e+00 1.510500000000000043e+01 1.665767999999999915e+00 -3.101978711562629054e-01
-4.818699999999999761e+01 3.598599999999999710e+01 1.045599999999999952e+01 2.614385000000000048e+01 -3.099842181653374440e-01
-4.818699999999999761e+01 3.778999999999999915e+01 1.045599999999999952e+01 1.622392000000000056e+00 -3.099437857981010014e-01
-4.818399999999999750e+01 2.719500000000000028e+01 1.375999999999999890e+00 8.067747999999999919e+00 -3.113099210327840982e-01
-4.818399999999999750e+01 2.898300000000000054e+01 1.375999999999999890e+00 5.796542999999999779e+00 -3.111802641834187644e-01
-4.818299999999999983e+01 -1.511500000000000021e+01 1.144699999999999918e+01 8.453016999999999115e+00 -1.882755459344372384e-01
-4.818200000000000216e+01 -1.729400000000000048e+01 4.993699999999999584e+00 1.264861999999999931e+01 -1.639126570628237356e-01
-4.818099999999999739e+01 3.250200000000000244e+01 1.431300000000000061e+01 1.478974000000000011e+00 -3.096658365489926013e-01
-4.818099999999999739e+01 3.250200000000000244e+01 1.517900000000000027e+01 -7.583007999999999971e-01 -3.095722437471800648e-01
-4.817600000000000193e+01 2.745799999999999841e+01 1.003400000000000070e+01 1.960748999999999853e+01 -3.103110950887987829e-01
-4.817600000000000193e+01 -1.652599999999999980e+01 2.547000000000000153e+00 1.771006000000000080e+00 -1.625891285142996856e-01
-4.817600000000000193e+01 -1.547600000000000087e+01 2.547000000000000153e+00 2.215716000000000019e+00 -1.632979815202333096e-01
-4.817099999999999937e+01 3.313100000000000023e+01 1.598000000000000043e+01 -2.516522999999999843e+00 -3.094599841449895417e-01
-4.817000000000000171e+01 9.131700000000000372e+00 2.142599999999999838e+01 -5.363376999999999839e+01 -3.076658574421229364e-01
-4.817000000000000171e+01 1.252100000000000080e+01 3.638199999999999790e+01 7.751219999999999999e+00 -4.176053383113830786e-01
-4.816799999999999926e+01 -1.411999999999999922e+01 1.348900000000000077e+01 3.899490999999999818e+00 -1.863376351339526282e-01
-4.816700000000000159e+01 -1.835000000000000142e+01 2.146499999999999986e+01 1.627315000000000111e+01 -3.857151520578022130e-01
-4.816700000000000159e+01 -1.835000000000000142e+01 2.233099999999999952e+01 2.849180000000000046e+00 -3.851154328510844604e-01
-4.816400000000000148e+01 2.621700000000000141e+00 3.893999999999999773e+01 4.300417999999999807e+01 -3.731441351538383744e-01
-4.816199999999999903e+01 3.036299999999999955e+01 -2.160299999999999887e+00 4.303401999999999816e+01 -3.113965412767409902e-01
-4.815699999999999648e+01 2.756200000000000117e+01 5.869100000000000428e+00 2.879703999999999908e+01 -3.108015399729386341e-01
-4.815500000000000114e+01 1.723400000000000176e+01 3.265100000000000335e+01 3.276254000000000222e+00 -3.056477746915854388e-01
-4.814699999999999847e+01 -1.464700000000000024e+01 1.434800000000000075e+01 1.768934999999999924e+00 -1.852405326577834799e-01
-4.814699999999999847e+01 -6.847999999999999865e+00 5.899999999999999689e-01 1.719810000000000016e+01 -8.882461449184340940e-02
-4.814300000000000068e+01 -1.636899999999999977e+01 9.648999999999999133e+00 1.252038999999999902e+00 -9.092095199142205542e-02
-4.814200000000000301e+01 2.345200000000000173e+01 1.350699999999999967e+01 -5.065796999999999883e+00 -3.099918886591243039e-01
-4.814200000000000301e+01 -1.578100000000000058e+01 2.082900000000000063e+01 1.274601999999999968e+01 -3.500000000000000333e-01
-4.814099999999999824e+01 8.659900000000000375e-01 1.305000000000000071e+01 4.936009999999999565e+00 -2.351508433990576741e-01
-4.813799999999999812e+01 2.936499999999999844e+01 -4.733500000000000263e+00 9.679432000000000258e+00 -3.116727657065032631e-01
-4.813600000000000279e+01 -2.378800000000000026e+01 2.149099999999999966e+01 -5.699040000000000106e+00 -3.881403549408747322e-01
-4.813600000000000279e+01 -2.356099999999999994e+01 2.069200000000000017e+01 3.656634999999999747e-01 -1.077236667905687451e-01
-4.813600000000000279e+01 -2.356099999999999994e+01 2.228999999999999915e+01 -2.304686999999999930e+00 -3.863934839674713628e-01
-4.813100000000000023e+01 -1.721699999999999875e+01 2.070700000000000074e+01 4.263983999999999774e+00 -2.726558895953795636e-01
-4.813000000000000256e+01 2.848499999999999943e+01 6.264599999999999724e+00 8.183291999999999788e+00 -3.107018596477636452e-01
-4.813000000000000256e+01 -1.183099999999999952e+01 1.438299999999999912e+01 1.573577000000000048e+01 -1.098105410608836568e-01
-4.812700000000000244e+01 2.658699999999999974e+01 1.459099999999999930e+01 8.936640000000000583e+00 -3.097233253520463303e-01
-4.812599999999999767e+01 5.875000000000000000e+00 1.590099999999999980e+01 4.695806000000000147e+00 -3.101104738629377744e-01
-4.812400000000000233e+01 -1.635500000000000043e+01 2.581700000000000017e+01 -3.472068999999999850e+00 -3.844281946619659829e-01
-4.812400000000000233e+01 2.438899999999999846e+00 1.456400000000000006e+01 -4.410410999999999859e+00 -3.112302817059199311e-01
-4.811899999999999977e+01 2.619800000000000040e+01 3.570600000000000218e+00 3.302083000000000101e+00 -3.111509755082799700e-01
-4.811800000000000210e+01 -2.339199999999999946e+01 9.139699999999999491e+00 2.677741000000000149e-01 -1.607005221236319226e-01
-4.811800000000000210e+01 -2.135999999999999943e+01 9.139699999999999491e+00 7.111596000000000029e-01 -1.653303456664891591e-01
-4.811699999999999733e+01 2.132499999999999929e+01 2.520499999999999829e+01 1.422883999999999993e+01 -3.075427032176184516e-01
-4.811699999999999733e+01 2.084700000000000131e+01 2.939499999999999780e+00 -5.976789000000000129e+00 -3.117024663684584418e-01
-4.811299999999999955e+01 2.861400000000000077e+01 2.225999999999999979e+00 3.784514999999999851e+00 -3.111200649962302944e-01
-4.811200000000000188e+01 -1.763200000000000145e+01 5.804000000000000270e+00 7.472006000000000370e+00 -1.644782382852007230e-01
-4.810900000000000176e+01 1.662699999999999889e+01 2.347999999999999865e+00 -3.168498000000000037e+00 -3.122947536939196800e-01
-4.810600000000000165e+01 2.458500000000000085e+01 1.426500000000000057e+01 -2.138778999999999897e+01 -3.098179075379730030e-01
-4.810199999999999676e+01 2.459900000000000198e+00 9.680999999999999162e+00 -9.278729000000000227e+00 -2.362003271274060734e-01
-4.809799999999999898e+01 2.725900000000000034e+01 5.169100000000000250e+00 2.264301999999999992e+01 -3.108973779264387893e-01
-4.809799999999999898e+01 3.061899999999999977e+01 -3.894000000000000128e+00 2.081459999999999866e+01 -3.115133606572439984e-01
-4.809799999999999898e+01 3.061899999999999977e+01 -2.935999999999999943e+00 1.475826999999999884e+02 -3.114389229136125259e-01
-4.809700000000000131e+01 2.407300000000000040e+01 2.327299999999999969e+01 -1.512888000000000011e+00 -3.080883928592361709e-01
-4.809700000000000131e+01 -2.553900000000000059e+00 9.689600000000000435e+00 1.506108000000000002e+00 -2.381163411663098639e-01
-4.809499999999999886e+01 2.880999999999999872e+01 1.044800000000000040e+01 1.483477000000000068e+01 -3.102004848458034814e-01
-4.809499999999999886e+01 4.214699999999999669e+00 1.575999999999999979e+01 -1.474337999999999926e+00 -3.103320444977326065e-01
-4.809400000000000119e+01 -2.233599999999999852e+01 2.313500000000000156e+01 -1.153457000000000043e+01 -3.842928989302065723e-01
-4.809300000000000352e+01 2.712000000000000099e+01 1.917599999999999838e+01 6.774296999999999791e+00 -3.089261453170494276e-01
-4.809300000000000352e+01 2.864000000000000057e+01 1.917599999999999838e+01 -1.802930999999999884e+01 -3.089511513196240289e-01
-4.809199999999999875e+01 2.442999999999999972e+01 1.997200000000000131e+01 -3.151162000000000063e+01 -3.087270696699801475e-01
-4.809199999999999875e+01 2.463899999999999935e+01 1.923600000000000065e+01 -1.709122999999999948e+01 -3.088718410704630601e-01
-4.809199999999999875e+01 2.582999999999999829e+01 1.857199999999999918e+01 2.005844999999999878e+00 -3.090136786759621890e-01
-4.808700000000000330e+01 3.320400000000000063e+01 1.875000000000000000e+01 1.246626000000000012e+01 -3.090789769885569638e-01
-4.808700000000000330e+01 -1.766000000000000014e+01 2.603900000000000148e+01 -1.173118999999999978e+01 -3.833788613635841225e-01
-4.808299999999999841e+01 2.805399999999999849e+01 1.607000000000000028e+01 5.432286000000000392e+00 -3.094575315111957603e-01
-4.808299999999999841e+01 3.794700000000000273e+01 1.928800000000000026e+01 -5.446153999999999940e+00 -3.090720212138787781e-01
-4.808200000000000074e+01 1.927400000000000091e+01 6.533100000000000129e+00 -1.602182000000000173e+01 -3.113657536230652334e-01
-4.808200000000000074e+01 1.927400000000000091e+01 7.398399999999999643e+00 -1.249084000000000039e+01 -3.112320241153579969e-01
-4.808200000000000074e+01 -1.917500000000000071e+01 2.577599999999999980e+01 -5.884011000000000102e+00 -3.825091469494263374e-01
-4.808200000000000074e+01 -1.765500000000000114e+01 2.331599999999999895e+01 -1.329588000000000036e+01 -3.845406299204504608e-01
-4.808100000000000307e+01 2.019200000000000017e+01 2.596300000000000097e+01 5.266262000000000443e-01 -3.072951379067502820e-01
-4.806900000000000261e+01 -9.313100000000000378e+00 1.692399999999999949e+01 3.859830000000000094e+00 -2.375284349318830535e-01
-4.806400000000000006e+01 -5.246800000000000352e+00 3.569400000000000261e+01 -4.127354000000000411e+00 -3.744498040111778336e-01
-4.806199999999999761e+01 2.527100000000000080e+01 3.507299999999999862e+00 1.418031000000000041e+00 -3.112268202725809174e-01
-4.806000000000000227e+01 -1.198799999999999955e+01 1.791100000000000136e+01 9.059380000000000877e+00 -2.041720268417161477e-01
-4.806000000000000227e+01 -1.098000000000000043e+01 1.791100000000000136e+01 9.021518999999999622e+00 -2.041878263278416039e-01
-4.805899999999999750e+01 3.818800000000000239e+01 8.469599999999999795e+00 -4.540108000000000033e+00 -3.101026368096363450e-01
-4.805799999999999983e+01 -1.609299999999999997e+01 2.658500000000000085e+01 -1.307126000000000010e+00 -3.397077767981639962e-01
-4.805700000000000216e+01 3.913700000000000045e+01 1.850499999999999901e+01 -1.168801000000000023e+01 -3.091747732887530353e-01
-4.805599999999999739e+01 2.746300000000000097e+01 2.798500000000000210e+00 6.044685999999999559e+00 -3.111397220832483046e-01
-4.805400000000000205e+01 -1.050900000000000034e+01 1.371499999999999986e+01 2.004326000000000008e+01 -1.095030047322939903e-01
-4.805100000000000193e+01 1.693100000000000094e+01 3.048000000000000043e+00 -3.466317000000000093e+00 -3.121541843683446893e-01
-4.804299999999999926e+01 -1.296599999999999930e+01 1.503999999999999915e+01 -9.841162000000000631e+00 -1.100630664316108176e-01
-4.804099999999999682e+01 -1.726300000000000168e+01 6.653999999999999915e+00 1.425843000000000060e+01 -1.657495531585979065e-01
-4.803999999999999915e+01 2.956200000000000117e+01 1.689900000000000091e+01 6.104794000000000054e-01 -3.093220927330485592e-01
-4.803699999999999903e+01 -5.089599999999999902e+00 6.454900000000000304e+00 6.661271000000000164e+00 -2.206442377904568042e-01
-4.803499999999999659e+01 -4.029900000000000149e-01 3.965100000000000335e+01 -2.154030000000000111e+00 -3.738310972873937210e-01
-4.803499999999999659e+01 8.900000000000000133e-01 4.037199999999999989e+01 -1.709995999999999938e+01 -3.736752351613020218e-01
-4.803499999999999659e+01 2.182999999999999829e+00 3.965100000000000335e+01 9.696612999999999261e+00 -3.733156408429950668e-01
-4.803099999999999881e+01 5.684400000000000119e+00 3.861800000000000210e+01 2.065665999999999780e+00 -3.726428919456644118e-01
-4.803000000000000114e+01 -1.310500000000000043e+01 1.764000000000000057e+01 1.314061000000000057e+01 -2.031238871096057164e-01
-4.802900000000000347e+01 3.843399999999999750e+01 1.063100000000000023e+01 3.861814999999999998e+00 -3.099094293038009984e-01
-4.802600000000000335e+01 2.993100000000000094e+01 1.724599999999999866e+01 9.943193000000000170e-01 -3.092690116640831599e-01
-4.802400000000000091e+01 3.688799999999999812e+01 7.703000000000000291e+00 -3.134292999999999996e+00 -3.102041437972592464e-01
-4.802199999999999847e+01 1.252800000000000047e+01 1.298700000000000010e+01 5.175925999999999583e+00 -3.106871253350203532e-01
-4.801899999999999835e+01 2.768299999999999983e+01 1.552899999999999991e+01 3.910581000000000085e+00 -3.095490699571160631e-01
-4.801599999999999824e+01 -4.210499999999999687e+00 8.552199999999999136e+00 -1.201985999999999954e+01 -2.395608283535821670e-01
-4.801500000000000057e+01 -1.636400000000000077e+01 2.524599999999999866e+01 -4.676903000000000254e+00 -3.845994865319773970e-01
-4.801400000000000290e+01 9.448299999999999699e+00 2.353000000000000114e+01 -4.065029000000000003e+00 -3.068733936028150699e-01
-4.801299999999999812e+01 1.680900000000000061e+00 1.125699999999999967e+01 6.030973000000000361e+00 -2.357278643721748002e-01
-4.800999999999999801e+01 1.457399999999999984e+01 4.689999999999999725e-01 -8.573250000000000037e-01 -3.128491710733484199e-01
-4.800800000000000267e+01 -2.037000000000000099e+01 2.536899999999999977e+01 2.736949000000000076e+00 -3.819456096049842486e-01
-4.800800000000000267e+01 -3.492700000000000138e+00 9.496299999999999741e+00 -2.516490000000000116e+00 -2.386912752632536494e-01
-4.800699999999999790e+01 -4.468600000000000350e+00 7.759699999999999598e+00 -2.325399000000000171e+01 -2.400613219323219361e-01
-4.800399999999999778e+01 -1.414400000000000013e+01 2.335399999999999920e+01 7.333016999999999896e+00 -3.500000000000000888e-01
-4.800399999999999778e+01 2.752799999999999869e+01 4.340700000000000003e+00 3.464081999999999795e+01 -3.109680569610307477e-01
-4.800300000000000011e+01 3.667100000000000026e+00 3.813499999999999801e+01 1.858767999999999887e+01 -3.728167423482109388e-01
-4.800000000000000000e+01 3.847999999999999687e+01 8.957200000000000273e+00 -6.902256999999999643e+00 -3.100515756553748892e-01
-4.799699999999999989e+01 2.453000000000000114e+01 3.194999999999999840e+00 3.554812999999999779e+00 -3.113201173761609430e-01
-4.799199999999999733e+01 -7.221499999999999808e+00 1.290000000000000036e+00 5.295570000000000022e+01 -8.878126376252727658e-02
-4.799000000000000199e+01 3.042800000000000082e+01 1.125200000000000067e+01 9.959554999999999936e+00 -3.100451915051464780e-01
-4.799000000000000199e+01 3.077299999999999969e+01 1.203400000000000070e+01 3.511308000000000096e+00 -3.099461795139603071e-01
-4.798799999999999955e+01 3.872500000000000142e+01 9.803000000000000824e+00 -2.715725999999999973e-01 -3.099733136679757584e-01
-4.798799999999999955e+01 1.726000000000000156e+01 3.807999999999999829e+00 -6.446526999999999674e+00 -3.119998847412886467e-01
-4.798700000000000188e+01 -1.057799999999999940e+01 3.142200000000000060e+01 5.326405000000000278e+00 -3.398844183339914116e-01
-4.798700000000000188e+01 3.342799999999999727e+01 7.551700000000000301e+00 -1.018589000000000055e+01 -3.103327652948580373e-01
-4.798499999999999943e+01 -9.286199999999999122e+00 1.458300000000000018e+01 3.410931999999999675e+01 -2.397230975989061152e-01
-4.798400000000000176e+01 -4.657700000000000173e+00 3.615800000000000125e+01 -1.435432000000000041e+00 -3.743256860679249898e-01
-4.798299999999999699e+01 -1.696000000000000085e+01 7.354000000000000092e+00 1.963452999999999893e+00 -1.668193344898479258e-01
-4.798199999999999932e+01 -2.334199999999999875e+01 1.544800000000000040e+01 -5.979642000000000124e+00 -2.831398270080519586e-01
-4.798199999999999932e+01 1.579299999999999926e+01 -6.410799999999999832e-01 -1.358819999999999917e+00 -3.127877316951227504e-01
-4.798100000000000165e+01 3.964399999999999835e+01 1.640099999999999980e+01 1.329655000000000031e+00 -3.093956306214046825e-01
-4.797800000000000153e+01 1.876599999999999824e+01 3.131299999999999883e+01 3.751182000000000016e+01 -3.060915630694892031e-01
-4.797800000000000153e+01 1.911100000000000065e+01 3.053000000000000114e+01 3.384315000000000140e+01 -3.062779935929115793e-01
-4.797699999999999676e+01 2.024200000000000088e+01 2.841000000000000192e+00 -4.494053000000000075e+00 -3.117746001105963227e-01
-4.797599999999999909e+01 4.738699999999999690e+00 3.842000000000000171e+01 2.452910999999999930e+01 -3.727163912338163909e-01
-4.797200000000000131e+01 2.621300000000000097e+01 1.389100000000000001e+01 5.807737999999999623e+00 -3.098428155595810418e-01
-4.796900000000000119e+01 -1.593699999999999939e+01 1.145800000000000018e+01 5.643305999999999933e+00 -1.888303841871198929e-01
-4.796900000000000119e+01 -1.429299999999999926e+01 1.145800000000000018e+01 3.206334999999999980e+01 -1.109390879167556909e-01
-4.796900000000000119e+01 -1.342800000000000082e+01 1.145800000000000018e+01 2.263873999999999853e+01 -1.105734057480968618e-01
-4.796900000000000119e+01 -1.342800000000000082e+01 1.285800000000000054e+01 8.378674000000000177e+00 -1.104441210501101167e-01
-4.796900000000000119e+01 2.779899999999999949e+01 3.573999999999999844e+00 1.063289999999999935e+01 -3.110313018852030043e-01
-4.796699999999999875e+01 2.962800000000000011e+01 1.794600000000000151e+01 -9.318668999999999869e+00 -3.091570911912611686e-01
-4.796699999999999875e+01 2.746799999999999997e+01 -5.267199999999999660e-01 4.393837000000000437e+00 -3.114651736563528450e-01
-4.796500000000000341e+01 -1.390900000000000070e+01 2.546799999999999997e+01 2.436408999999999825e+00 -3.392755016900544929e-01
-4.796200000000000330e+01 1.764499999999999957e+01 4.572000000000000064e+00 -3.594411000000000023e+00 -3.118381980230354178e-01
-4.796099999999999852e+01 -1.207900000000000063e+01 3.003300000000000125e+01 8.952976999999999741e-01 -3.398372518763638217e-01
-4.796099999999999852e+01 3.566499999999999915e+01 2.210699999999999932e+01 -4.762940999999999647e+00 -3.086883014679005499e-01
-4.795799999999999841e+01 -1.800700000000000145e+01 1.231900000000000084e+01 -1.902598000000000011e+00 -1.675678818658348779e-01
-4.795600000000000307e+01 -1.666700000000000159e+01 2.454599999999999937e+01 -5.153078999999999965e+00 -3.499999999999999778e-01
-4.795400000000000063e+01 -1.881899999999999906e+00 9.303699999999999193e+00 6.572299000000000335e-01 -2.379313862332705365e-01
-4.795400000000000063e+01 2.929500000000000171e+01 1.049300000000000033e+01 2.341608000000000089e+01 -3.101699635607136907e-01
-4.795300000000000296e+01 3.900800000000000267e+01 1.289600000000000080e+01 -3.768542000000000058e+00 -3.097007660285729935e-01
-4.795100000000000051e+01 2.784199999999999875e+01 -2.310500000000000220e+00 6.462747000000000241e+00 -3.115942208067999930e-01
-4.795100000000000051e+01 -1.662199999999999989e+01 7.940100000000000158e+00 1.527009000000000061e+00 -9.093973907479871444e-02
-4.794899999999999807e+01 -6.602100000000000080e+00 1.750599999999999934e+00 2.352549000000000134e+01 -8.867702826718323883e-02
-4.794800000000000040e+01 1.805000000000000071e+01 5.393399999999999750e+00 -3.554122000000000003e+00 -3.116657261641027632e-01
-4.794500000000000028e+01 -9.801700000000000301e+00 3.269299999999999784e+01 -3.241302000000000305e+01 -3.399536095191321716e-01
-4.794400000000000261e+01 2.515399999999999991e+01 1.055899999999999928e+01 5.619180000000000064e+00 -3.103388454512021610e-01
-4.794400000000000261e+01 2.742000000000000171e+01 1.055899999999999928e+01 3.003134999999999888e+00 -3.102354515829761628e-01
-4.794400000000000261e+01 1.619900000000000162e+01 9.541000000000000369e+00 -5.216355000000000297e-01 -3.111665828192534122e-01
-4.793999999999999773e+01 -1.873799999999999955e+01 1.054700000000000060e+01 2.683152999999999899e+00 -1.709937589360815136e-01
-4.793900000000000006e+01 1.494299999999999962e+01 -3.810000000000000053e-01 -8.197986999999999913e-01 -3.128902994351761557e-01
-4.793900000000000006e+01 1.494299999999999962e+01 1.318999999999999950e+00 -1.474777999999999922e+00 -3.126779786378003356e-01
-4.793900000000000006e+01 2.422700000000000031e+01 2.495000000000000107e+00 2.063098999999999794e+00 -3.114236526153880691e-01
-4.793699999999999761e+01 -8.324199999999999378e+00 1.271500000000000075e+00 2.550675999999999988e+01 -8.889544175407354532e-02
-4.793599999999999994e+01 1.929799999999999827e+01 2.737800000000000011e+01 -3.614262999999999693e+01 -3.069104487506160717e-01
-4.793599999999999994e+01 -1.690899999999999892e+01 2.661400000000000077e+01 -1.269236000000000031e+00 -3.398206049250006577e-01
-4.793599999999999994e+01 -1.527699999999999925e+01 2.655600000000000094e+01 7.060921000000000003e-01 -3.395792142726711815e-01
-4.793200000000000216e+01 1.017800000000000082e+01 1.981400000000000006e+01 -4.082900000000000418e+00 -3.083347128597812015e-01
-4.793200000000000216e+01 1.157799999999999940e+01 1.981400000000000006e+01 1.480766000000000027e+00 -3.083842064785461412e-01
-4.792999999999999972e+01 -1.625700000000000145e+01 1.541000000000000014e+01 6.436918999999999613e+00 -1.844905280783225576e-01
-4.792600000000000193e+01 -1.234800000000000075e+01 2.927400000000000091e+01 9.049357999999999569e-01 -3.397530597015679943e-01
-4.792399999999999949e+01 -1.439300000000000068e+01 2.652599999999999980e+01 1.085109000000000101e+00 -3.394846135399006704e-01
-4.792399999999999949e+01 3.042099999999999937e+01 -1.458700000000000108e+00 1.003435999999999950e+01 -3.113269914596038523e-01
-4.792300000000000182e+01 1.894399999999999906e+01 8.282500000000000639e+00 -8.064859999999999474e+00 -3.111131239162298057e-01
-4.792099999999999937e+01 1.579199999999999982e+01 1.916700000000000070e+00 -5.095374999999999766e+00 -3.124668676560770075e-01
-4.792099999999999937e+01 1.731200000000000117e+01 -5.427100000000000257e-01 -5.371864999999999668e+00 -3.125509620436976443e-01
-4.791799999999999926e+01 -1.872100000000000097e+00 3.712700000000000244e+01 6.305752000000000024e+00 -3.736818821858873818e-01
-4.791799999999999926e+01 3.854200000000000159e+01 1.158999999999999986e+01 2.541230999999999796e+00 -3.098197891585854347e-01
-4.791799999999999926e+01 -1.831700000000000017e+01 1.154599999999999937e+01 1.135472999999999955e+00 -1.694606781205946211e-01
-4.791700000000000159e+01 -5.330000000000000293e-01 7.739300000000000068e+00 -4.640437000000000034e-02 -2.379849674960423656e-01
-4.791700000000000159e+01 9.869999999999999885e-01 7.739300000000000068e+00 -1.051889000000000074e+00 -2.373891751794946769e-01
-4.791299999999999670e+01 3.931700000000000017e+01 1.370500000000000007e+01 -1.842551999999999879e+01 -3.096259093545022933e-01
-4.791100000000000136e+01 -1.312400000000000055e+01 1.215799999999999947e+01 1.590507000000000026e+01 -1.103656469151332170e-01
-4.790800000000000125e+01 2.628699999999999903e+01 9.800399999999999778e+00 1.002191999999999972e+01 -3.103820436238630687e-01
-4.790800000000000125e+01 1.654299999999999926e+01 3.497299999999999898e+01 4.854055999999999926e+01 -4.174045686334520999e-01
-4.790800000000000125e+01 -1.682900000000000063e+01 1.157199999999999918e+01 2.589179000000000119e+00 -1.679473256348087973e-01
-4.790699999999999648e+01 -2.321900000000000119e+01 1.385100000000000087e+01 1.708995000000000175e+01 -1.713302151900072956e-01
-4.790599999999999881e+01 -8.571999999999999176e+00 3.351599999999999824e+01 -4.289813000000000187e+01 -3.399426033995235907e-01
-4.790500000000000114e+01 6.883700000000000152e+00 3.816299999999999670e+01 -3.953335000000000043e+00 -3.724229530068904337e-01
-4.790400000000000347e+01 2.650499999999999901e+01 2.798999999999999932e+00 1.103174000000000099e+00 -3.112040093687771236e-01
-4.790100000000000335e+01 -2.319999999999999929e+01 1.296400000000000041e+01 7.896283000000000385e+00 -2.827250930726367684e-01
-4.789800000000000324e+01 -1.398399999999999999e+01 2.730499999999999972e+01 -3.477697000000000149e-01 -3.395827960853619043e-01
-4.789600000000000080e+01 1.960699999999999932e+01 2.660500000000000043e+01 -5.022816999999999865e+01 -3.070991852722065873e-01
-4.789099999999999824e+01 -1.701800000000000068e+01 1.047100000000000009e+01 1.570583000000000062e+00 -9.124395243366104080e-02
-4.788900000000000290e+01 3.795199999999999818e+01 2.033500000000000085e+01 -2.788599999999999968e-01 -3.089482041293679093e-01
-4.787400000000000233e+01 3.433400000000000318e+01 2.136400000000000077e+01 -1.340283999999999942e+01 -3.087473356670035196e-01
-4.787100000000000222e+01 3.164199999999999946e+01 7.401900000000000368e+00 -7.006732000000000404e+00 -3.104142319177997100e-01
-4.786800000000000210e+01 2.280799999999999983e+01 1.645000000000000018e+00 -5.027424999999999811e-01 -3.116484331996250967e-01
-4.786800000000000210e+01 2.385800000000000054e+01 1.645000000000000018e+00 3.851443000000000227e-02 -3.115491605417414211e-01
-4.786200000000000188e+01 -1.305899999999999928e+01 2.819200000000000017e+01 -3.413362999999999925e+00 -3.396442688237982788e-01
-4.786099999999999710e+01 3.877300000000000324e+01 1.236100000000000065e+01 -1.091842999999999897e+00 -3.097468281630595399e-01
-4.785999999999999943e+01 2.827499999999999858e+01 3.076799999999999979e+00 2.803773000000000071e+00 -3.110472788747837281e-01
-4.785900000000000176e+01 -1.806700000000000017e+01 1.325799999999999912e+01 -9.791387999999999536e+00 -1.660050649762510599e-01
-4.785900000000000176e+01 2.755300000000000082e+01 -1.517300000000000093e+00 4.559409999999999741e+00 -3.115452570487152184e-01
-4.785900000000000176e+01 3.030300000000000082e+01 -4.666699999999999737e-01 1.052340000000000053e+01 -3.112478527617286161e-01
-4.785900000000000176e+01 4.236299999999999955e+01 1.853399999999999892e+01 9.874327999999999994e-01 -3.092010899514847089e-01
-4.785900000000000176e+01 -1.353899999999999970e+01 1.594999999999999929e+01 -6.712160999999999822e-01 -1.100622122836655004e-01
-4.785799999999999699e+01 -1.246000000000000085e+01 4.071699999999999875e+00 2.550898000000000110e+00 -8.941387184876203875e-02
-4.785399999999999920e+01 -2.332300000000000040e+01 1.480700000000000038e+01 -4.617303999999999853e+00 -2.853683945763829666e-01
-4.785199999999999676e+01 -1.732900000000000063e+01 1.538700000000000045e+01 8.422100999999999615e+00 -1.846282931877555600e-01
-4.785000000000000142e+01 3.067899999999999849e+01 1.707300000000000040e+01 3.496890999999999750e-01 -3.092958942535157241e-01
-4.784899999999999665e+01 1.144599999999999973e+01 2.363500000000000156e+01 -1.521295999999999933e-02 -3.070457610819675720e-01
-4.784499999999999886e+01 2.463899999999999935e+01 2.130699999999999861e+01 -2.328669999999999973e+01 -3.084736781969710240e-01
-4.784499999999999886e+01 -1.428299999999999947e+01 4.594899999999999984e+00 1.814265000000000017e+00 -8.990263217619762215e-02
-4.784499999999999886e+01 -1.341799999999999926e+01 4.594899999999999984e+00 2.093468000000000107e+00 -8.963732428771312155e-02
-4.784100000000000108e+01 -2.341700000000000159e+01 1.221499999999999986e+01 2.626806000000000196e+00 -1.722507568126042110e-01
-4.783899999999999864e+01 -1.128500000000000014e+01 2.780299999999999994e+00 1.822276999999999925e+00 -8.922964301316187175e-02
-4.783800000000000097e+01 -1.905499999999999972e+01 1.007199999999999918e+01 8.441482000000000596e+00 -1.700197282654663800e-01
-4.783800000000000097e+01 -1.794399999999999906e+01 6.754699999999999704e+00 1.687270999999999965e+00 -1.654480888573996999e-01
-4.783700000000000330e+01 3.014999999999999858e+01 6.646700000000000053e+00 6.751250999999999891e+00 -3.105603942485500868e-01
-4.783500000000000085e+01 3.506099999999999994e+01 2.185099999999999909e+01 -1.134385999999999939e+01 -3.087024730594911115e-01
-4.783400000000000318e+01 2.405900000000000105e+01 1.211400000000000077e+01 3.083832999999999824e+00 -3.101644630283511006e-01
-4.783299999999999841e+01 -6.213700000000000223e+00 4.529099999999999682e+00 1.210186000000000028e+01 -1.095164933977433863e-01
-4.783299999999999841e+01 -6.004599999999999937e+00 5.265100000000000335e+00 1.137620000000000076e+01 -1.094445547444623940e-01
-4.782900000000000063e+01 3.277600000000000335e+01 1.820200000000000173e+01 4.409735000000000404e+00 -3.091461999326231558e-01
-4.782600000000000051e+01 1.198300000000000054e+01 2.280900000000000105e+01 1.110019000000000089e+00 -3.073717562621987587e-01
-4.782399999999999807e+01 -1.800900000000000034e+01 1.428100000000000058e+01 -1.735942000000000096e+00 -1.863082146550187335e-01
-4.781400000000000006e+01 -1.808800000000000097e+01 2.261599999999999966e+01 -3.214475999999999889e+00 -3.848848511465711719e-01
-4.781300000000000239e+01 2.062500000000000000e+01 2.526300000000000168e+01 1.951738999999999891e+01 -3.074633277509063456e-01
-4.781300000000000239e+01 2.202499999999999858e+01 2.526300000000000168e+01 2.001342000000000176e+00 -3.075700174007357512e-01
-4.781000000000000227e+01 7.402999999999999581e+00 3.804999999999999716e+01 1.234322000000000052e+01 -3.723415801151271909e-01
-4.781000000000000227e+01 9.843899999999999650e+00 1.406700000000000017e+01 1.058742999999999990e+00 -3.105466838407201502e-01
-4.781000000000000227e+01 1.128999999999999915e+01 1.326099999999999923e+01 2.842086000000000112e+00 -3.107046313449569608e-01
-4.780400000000000205e+01 -1.171499999999999986e+01 3.073400000000000176e+01 -2.748234000000000066e+00 -3.398818004612104149e-01
-4.780400000000000205e+01 2.378200000000000003e+01 2.424800000000000111e+01 -1.915313000000000043e+00 -3.078803246045370701e-01
-4.780199999999999960e+01 -6.909600000000000186e+00 3.448100000000000165e+01 -6.771810999999999581e+00 -3.747519816187075414e-01
-4.780199999999999960e+01 3.014000000000000057e+01 -4.668999999999999595e+00 2.115690000000000026e+01 -3.115991506067767314e-01
-4.779800000000000182e+01 3.653699999999999903e+01 2.227899999999999991e+01 1.524591999999999992e+01 -3.086875320911589005e-01
-4.779800000000000182e+01 -5.966899999999999871e+00 3.696200000000000152e+00 1.143701000000000079e+01 -1.095370662286953845e-01
-4.779500000000000171e+01 2.498699999999999832e+01 1.214100000000000001e+01 6.206215000000000259e+00 -3.101183053397047473e-01
-4.779399999999999693e+01 -1.769699999999999918e+01 3.536300000000000221e+00 3.444103000000000137e+00 -1.624349139078496151e-01
-4.778900000000000148e+01 -6.112700000000000244e+00 2.658700000000000063e+00 1.471615000000000073e+01 -8.852983852537195386e-02
-4.778699999999999903e+01 2.572500000000000142e+01 1.308200000000000074e+01 4.299312999999999718e+00 -3.099584681687536647e-01
-4.778600000000000136e+01 -1.458600000000000030e+01 3.894899999999999807e+00 2.698847999999999914e+00 -1.856834473596042367e-01
-4.778600000000000136e+01 -1.554800000000000004e+01 1.193699999999999939e+01 8.613300999999999874e+00 -1.888415506216871154e-01
-4.778600000000000136e+01 -1.468200000000000038e+01 1.193699999999999939e+01 3.156407000000000185e+00 -1.109923359233650209e-01
-4.778499999999999659e+01 2.785800000000000054e+01 -4.675399999999999778e+00 3.556509000000000142e+00 -3.117812546956159059e-01
-4.777600000000000335e+01 1.893000000000000016e+00 1.386999999999999922e+01 -1.519086000000000070e+01 -3.117392281990175595e-01
-4.777199999999999847e+01 2.519099999999999895e+01 1.379899999999999949e+01 1.505519999999999969e+00 -3.098745016647904693e-01
-4.777100000000000080e+01 -2.284600000000000009e+01 8.489000000000000767e+00 -1.156526999999999972e-01 -1.608955028439815471e-01
-4.777100000000000080e+01 -2.190599999999999881e+01 8.489000000000000767e+00 -2.116511000000000031e+00 -1.631161939275486972e-01
-4.776800000000000068e+01 -1.656299999999999883e+01 2.734499999999999886e+01 -6.585897000000000112e+00 -3.399060862259840055e-01
-4.776800000000000068e+01 -1.562299999999999933e+01 2.582499999999999929e+01 -7.427903000000000144e-01 -3.394378115728414191e-01
-4.776800000000000068e+01 -1.562299999999999933e+01 2.734499999999999886e+01 -1.199801000000000073e+01 -3.397577398512026670e-01
-4.776299999999999812e+01 1.049399999999999977e+01 3.750200000000000244e+01 6.882380999999999638e+00 -4.177008265055573988e-01
-4.776299999999999812e+01 2.880399999999999849e+01 -4.857099999999999973e+00 3.920367999999999853e+00 -3.117164875997839313e-01
-4.776299999999999812e+01 -1.353800000000000026e+01 1.694000000000000128e+01 8.697668000000000177e+00 -1.098730159827612934e-01
-4.775999999999999801e+01 3.202000000000000313e+01 1.744099999999999895e+01 -5.249882999999999633e+00 -3.092469779961768417e-01
-4.775999999999999801e+01 3.248299999999999699e+01 1.721099999999999852e+01 -3.240292000000000172e+00 -3.092822408588466465e-01
