-1.388899999999999935e+01 7.435100000000000264e+00 -4.406600000000000250e+01 1.104099000000000075e+01 -1.066759284845512357e-01
-1.388400000000000034e+01 7.407899999999999707e+00 -2.511700000000000088e+01 -5.870485999999999649e+00 5.950650896334957682e-03
-1.388100000000000023e+01 2.548199999999999932e+01 -3.955199999999999960e+01 -6.448972000000000371e+00 -3.760932951652089518e-01
-1.387400000000000055e+01 4.546999999999999709e+00 -2.535099999999999909e+01 -4.860978000000000243e+00 -2.437664574560430564e-01
-1.387400000000000055e+01 2.379599999999999937e+01 -4.005299999999999727e+01 -4.520038999999999696e+00 -3.760265044873434825e-01
-1.387199999999999989e+01 2.515099999999999980e+01 -4.614399999999999835e+01 5.678350000000000009e+00 -3.761295914996805601e-01
-1.386999999999999922e+01 4.257299999999999862e+00 -5.180899999999999750e+01 3.163554999999999851e+01 1.132366933737824627e-01
-1.386999999999999922e+01 5.122600000000000264e+00 -5.180899999999999750e+01 2.063213000000000008e+01 1.036930966996416209e-01
-1.386700000000000088e+01 1.890800000000000125e+01 -3.115899999999999892e+01 1.659956999999999905e+00 -1.180450371481594762e-01
-1.386400000000000077e+01 1.915399999999999991e+01 -3.876100000000000279e+01 8.333161000000000485e+00 -1.260596400245297677e-01
-1.385999999999999943e+01 -5.771200000000000330e+00 -3.112399999999999878e+01 3.132640999999999920e+01 -2.455738766340232471e-01
-1.384500000000000064e+01 -7.762799999999999701e-01 -2.894200000000000017e+01 -3.082447000000000159e+00 -2.430729289084123668e-01
-1.383699999999999974e+01 2.023000000000000043e+01 -3.012199999999999989e+01 7.178693999999999908e-01 -1.166883283499027674e-01
-1.383000000000000007e+01 4.045200000000000351e+00 -2.557499999999999929e+01 8.170351000000000141e+00 -3.499999999999999778e-01
-1.381900000000000084e+01 2.003900000000000148e+01 -3.982399999999999807e+01 -6.110013999999999612e+00 -3.760664475764122772e-01
-1.381900000000000084e+01 2.090500000000000114e+01 -3.982399999999999807e+01 -6.689036999999999900e+00 -3.759531734754019139e-01
-1.381700000000000017e+01 -5.842999999999999972e+00 -3.992300000000000182e+01 -1.105412000000000061e+00 -2.485599880782079774e-01
-1.381700000000000017e+01 -5.633899999999999686e+00 -4.065899999999999892e+01 3.343053999999999970e+00 -2.488706726852662199e-01
-1.381700000000000017e+01 -2.345000000000000195e+00 -5.421000000000000085e+01 9.431088000000000804e+00 -5.031498129215715431e-02
-1.381700000000000017e+01 -7.950000000000000400e-01 -5.421000000000000085e+01 5.220521999999999885e+00 2.114087357841380188e-01
-1.381099999999999994e+01 1.399699999999999989e+01 -5.592000000000000171e+01 4.050188000000000343e+00 -2.534495874683936334e-01
-1.381000000000000050e+01 -3.083000000000000185e+00 -4.385600000000000165e+01 1.775820999999999827e+01 -2.476762408026148832e-01
-1.380899999999999928e+01 -4.488699999999999690e+00 -3.108099999999999952e+01 3.593885999999999825e+01 -2.448882302273668599e-01
-1.380300000000000082e+01 1.579599999999999937e+01 -5.697699999999999676e+01 2.141194000000000042e+00 -2.823399908259989766e-01
-1.379899999999999949e+01 -1.266100000000000003e+00 -4.992499999999999716e+01 1.168338999999999928e+01 -2.543782117006177512e-01
-1.379299999999999926e+01 1.730199999999999960e+01 -3.324499999999999744e+01 1.244349000000000061e+01 -1.348837052636030816e-03
-1.379100000000000037e+01 -1.438900000000000068e+00 -4.624399999999999977e+01 1.168012000000000050e+01 -2.460216120081943347e-01
-1.378400000000000070e+01 -4.054499999999999993e+00 -3.021000000000000085e+01 1.096136000000000088e+01 -2.446161362362668790e-01
-1.378200000000000003e+01 -6.260500000000000398e+00 -3.901299999999999812e+01 3.320120999999999878e+00 -2.484079746576376702e-01
-1.377699999999999925e+01 1.730999999999999872e+01 -3.264900000000000091e+01 1.827076999999999884e+01 -1.073255392612479809e-03
-1.377699999999999925e+01 1.751899999999999835e+01 -3.191300000000000026e+01 1.973976000000000042e+01 -9.338516424880035282e-04
-1.377599999999999980e+01 1.787500000000000000e+01 -2.321300000000000097e+01 7.132568000000000019e+00 6.835714710217806120e-04
-1.377399999999999913e+01 -1.950399999999999912e+00 -4.461399999999999721e+01 6.188613000000000142e+00 -2.457852505837841428e-01
-1.377399999999999913e+01 1.994900000000000162e+01 -2.764099999999999824e+01 -3.432540999999999798e+01 -1.171956015613321994e-01
-1.377399999999999913e+01 2.027400000000000091e+01 -2.837800000000000011e+01 -3.890236000000000161e+01 -1.168339047493669181e-01
-1.377299999999999969e+01 8.012199999999999989e+00 -2.394500000000000028e+01 -2.211912999999999840e+01 5.539872779078141782e-03
-1.377299999999999969e+01 8.012199999999999989e+00 -2.254500000000000171e+01 -2.044032999999999944e+01 5.286254844231326119e-03
-1.377299999999999969e+01 8.877499999999999503e+00 -2.394500000000000028e+01 -8.862035999999999802e+00 5.112104134335655574e-03
-1.377299999999999969e+01 8.877499999999999503e+00 -2.254500000000000171e+01 -1.410631000000000057e+01 4.895413328534206285e-03
-1.377100000000000080e+01 1.665000000000000036e+00 -5.279500000000000171e+01 1.084342000000000006e+01 -1.485013332374353623e-01
-1.376999999999999957e+01 -6.547100000000000142e-01 -2.803900000000000148e+01 -1.033836999999999939e+01 -2.431094066964525346e-01
-1.376699999999999946e+01 1.362800000000000011e+01 -2.046099999999999852e+01 -7.794793000000000305e+00 2.627752523743561667e-03
-1.376699999999999946e+01 2.240599999999999881e+01 -3.922599999999999909e+01 -2.363459000000000199e+00 -3.759917483218803702e-01
-1.376500000000000057e+01 2.462600000000000122e+00 -2.543700000000000117e+01 -5.299430000000000085e+00 -3.499999999999999778e-01
-1.375699999999999967e+01 1.394999999999999929e+01 -5.683100000000000307e+01 1.097200999999999915e+01 -2.600475846056085616e-01
-1.375500000000000078e+01 1.687500000000000000e+01 -5.594100000000000250e+01 4.867103000000000179e+00 -2.665205075932474132e-01
-1.375500000000000078e+01 1.687500000000000000e+01 -5.489099999999999824e+01 7.606908999999999921e+00 -2.624306505989371652e-01
-1.375200000000000067e+01 9.111000000000000654e+00 -1.990899999999999892e+01 -1.810529999999999973e+01 4.429221225077055631e-03
-1.375000000000000000e+01 4.813500000000000001e-01 -2.665500000000000114e+01 -1.238190999999999953e+01 -2.428133507222526577e-01
-1.375000000000000000e+01 4.813500000000000001e-01 -2.578999999999999915e+01 -4.858613000000000071e+00 -2.429101519886538996e-01
-1.374900000000000055e+01 7.320599999999999774e+00 -2.236400000000000077e+01 -1.401286999999999949e+01 5.579867797226698359e-03
-1.374900000000000055e+01 -6.479599999999999582e+00 -3.063100000000000023e+01 4.306331000000000131e+01 -2.458898884472330015e-01
-1.374499999999999922e+01 1.370500000000000007e+01 -5.767699999999999960e+01 8.108734999999999360e+00 -2.654208868062071791e-01
-1.374499999999999922e+01 1.549300000000000033e+01 -5.767699999999999960e+01 3.078437000000000090e+00 -2.934128265789742729e-01
-1.372499999999999964e+01 1.223799999999999955e+01 -1.988299999999999912e+01 9.511212000000000000e-01 3.201456968016077546e-03
-1.371499999999999986e+01 5.129199999999999982e+00 -2.418299999999999983e+01 -1.159046000000000021e+01 -2.442317682334014251e-01
-1.371499999999999986e+01 7.708800000000000097e+00 -2.324500000000000099e+01 -2.579454000000000136e+01 5.611339640540470401e-03
-1.371499999999999986e+01 9.180899999999999395e+00 -2.324500000000000099e+01 -1.088226000000000049e+01 4.915557125221617883e-03
-1.371100000000000030e+01 -1.097399999999999931e+00 -2.931299999999999883e+01 -8.604138000000000730e+00 -2.432019175016994494e-01
-1.370700000000000074e+01 2.173100000000000165e+01 -4.529800000000000182e+01 4.155346999999999902e+00 -3.758958805098963074e-01
-1.370700000000000074e+01 2.173100000000000165e+01 -4.443200000000000216e+01 -2.195649999999999835e+01 -3.759010551330562167e-01
-1.370599999999999952e+01 2.098499999999999943e+01 -4.318999999999999773e+01 -1.402078000000000024e+01 -3.758811284514501083e-01
-1.369899999999999984e+01 8.027900000000000702e+00 -2.490599999999999881e+01 -7.573840999999999823e+00 5.793860298025478930e-03
-1.369599999999999973e+01 -5.072300000000000253e+00 -4.312100000000000222e+01 9.584409000000000844e+00 -2.506754032374672869e-01
-1.368900000000000006e+01 1.973799999999999955e+01 -4.632500000000000284e+01 -1.173229000000000077e+01 -3.757768030209784338e-01
-1.368900000000000006e+01 2.060300000000000153e+01 -4.632500000000000284e+01 -5.491225000000000023e+00 -3.758249368518623568e-01
-1.368800000000000061e+01 -9.099000000000000199e+00 -3.499499999999999744e+01 8.111274999999999125e+00 -2.485297170113605625e-01
-1.368800000000000061e+01 -9.099000000000000199e+00 -3.224499999999999744e+01 2.780220999999999876e+01 -2.475636908395497104e-01
-1.367999999999999972e+01 6.699099999999999611e+00 -4.406600000000000250e+01 3.469864999999999977e+00 -1.023187608323089942e-01
-1.367699999999999960e+01 1.696799999999999997e+01 -3.478900000000000148e+01 2.822538000000000213e+00 -1.655886780146960348e-03
-1.367699999999999960e+01 1.708599999999999852e+01 -3.563600000000000279e+01 2.308708999999999900e+00 -2.248728063494232626e-03
-1.367699999999999960e+01 1.717699999999999960e+01 -3.405299999999999727e+01 4.768163999999999625e+00 -1.445323723193916738e-03
-1.367500000000000071e+01 -2.229999999999999982e+00 -3.007199999999999918e+01 -2.356968000000000174e+01 -2.437078939079306839e-01
-1.367399999999999949e+01 1.407399999999999984e+01 -5.852700000000000102e+01 2.980878000000000139e+00 -2.832436135997871696e-01
-1.367399999999999949e+01 1.512400000000000055e+01 -5.852700000000000102e+01 2.205543000000000031e+00 -3.093164075694107007e-01
-1.367200000000000060e+01 2.748700000000000032e-01 -5.310300000000000153e+01 9.001875999999999323e+00 -4.117337695940407466e-02
-1.366699999999999982e+01 -7.873000000000000220e+00 -3.583200000000000074e+01 5.003637000000000334e+00 -2.481149660374734611e-01
-1.366399999999999970e+01 -1.719400000000000039e+00 -4.540599999999999881e+01 1.208001999999999931e+01 -2.460212334934067935e-01
-1.366099999999999959e+01 1.842899999999999849e+01 -4.453900000000000148e+01 -8.585933999999999955e+00 -3.761530275637385290e-01
-1.366099999999999959e+01 1.842899999999999849e+01 -4.367399999999999949e+01 -4.289470999999999812e+00 -3.761839038983620376e-01
-1.365600000000000058e+01 2.727599999999999980e+01 -4.279299999999999926e+01 -5.932883000000000351e+00 -3.761941841289281885e-01
-1.365600000000000058e+01 2.879599999999999937e+01 -4.279299999999999926e+01 -8.274124999999999730e+00 -3.762681256255916984e-01
-1.365499999999999936e+01 6.418999999999999595e+00 -2.242099999999999937e+01 -1.590038999999999980e+01 -2.448500045589581675e-01
-1.365499999999999936e+01 1.719800000000000040e+01 -3.645499999999999829e+01 2.783097999999999850e+00 -1.208817880030133296e-01
-1.365099999999999980e+01 7.806799999999999962e+00 -2.181800000000000139e+01 -6.640291999999999639e+00 5.358051127433239268e-03
-1.364899999999999913e+01 2.913800000000000168e+01 -3.988199999999999790e+01 -1.630303999999999931e+01 -3.762408722738399547e-01
-1.364100000000000001e+01 1.520700000000000074e+01 -2.102199999999999847e+01 -1.761286000000000129e+01 2.071999719259381371e-03
-1.363100000000000023e+01 1.943400000000000105e+01 -4.555700000000000216e+01 -1.753165999999999869e+01 -3.758504692238335831e-01
-1.362500000000000000e+01 1.855499999999999972e+01 -4.718200000000000216e+01 2.256635999999999864e+00 -3.759908822116551086e-01
-1.362500000000000000e+01 1.956200000000000117e+01 -4.291499999999999915e+01 -2.064845000000000041e+01 -3.759916975090331070e-01
-1.362199999999999989e+01 1.845899999999999963e+01 -2.337099999999999866e+01 4.745280000000000165e+00 5.360294342842415304e-04
-1.361800000000000033e+01 -4.401500000000000412e+00 -4.335199999999999676e+01 1.177337999999999951e+01 -2.498533992297620188e-01
-1.361599999999999966e+01 5.189300000000000246e+00 -2.324399999999999977e+01 -6.485460999999999920e+00 -2.443744542590962632e-01
-1.361299999999999955e+01 -8.740400000000000391e-01 -4.929899999999999949e+01 1.037772000000000006e+01 -2.498845757314701044e-01
-1.360699999999999932e+01 4.979599999999999582e+00 -2.465099999999999980e+01 -1.376694999999999958e+01 -2.441877261474184324e-01
-1.360299999999999976e+01 1.627700000000000102e+01 -5.231799999999999784e+01 8.708752999999999744e+00 -2.592959038171595010e-01
-1.359500000000000064e+01 -5.565100000000000158e+00 -4.227100000000000080e+01 6.148702000000000112e+00 -2.504490339488975037e-01
-1.359500000000000064e+01 -5.565100000000000158e+00 -4.134000000000000341e+01 3.621021999999999963e+00 -2.494769248221019864e-01
-1.358399999999999963e+01 1.621399999999999864e+01 -5.295100000000000051e+01 9.582224000000000075e+00 -2.602149796287549499e-01
-1.358000000000000007e+01 2.476899999999999835e+01 -4.526700000000000301e+01 7.556823999999999764e+00 -3.760963833890573760e-01
-1.357600000000000051e+01 2.471999999999999886e+01 -3.949499999999999744e+01 -8.032360999999999862e+00 -3.760740868559452887e-01
-1.357499999999999929e+01 1.739799999999999969e+01 -4.760499999999999687e+01 2.092147999999999897e+00 -3.763752173975530857e-01
-1.356700000000000017e+01 7.719000000000000306e+00 -5.429599999999999937e+01 4.308788999999999980e+00 1.666595081207591644e-01
-1.356700000000000017e+01 -7.833999999999999631e+00 -3.174899999999999878e+01 5.614661999999999864e+01 -2.468127917433394491e-01
-1.355899999999999928e+01 1.644300000000000139e+01 -5.682699999999999818e+01 2.423273000000000010e+00 -2.749312218665018737e-01
-1.355899999999999928e+01 -6.421800000000000175e+00 -3.129200000000000159e+01 1.242164999999999964e+02 -2.459865452349837001e-01
-1.355499999999999972e+01 2.274099999999999966e+01 -4.874199999999999733e+01 6.073515999999999693e+00 -3.760504714263647186e-01
-1.354100000000000037e+01 8.751300000000000523e+00 -5.415699999999999648e+01 1.034791000000000016e+00 1.892147193441156006e-01
-1.353899999999999970e+01 1.862900000000000134e+01 -3.791100000000000136e+01 5.912997999999999976e+00 -1.299439007447542038e-01
-1.353700000000000081e+01 2.593700000000000117e+01 -3.875300000000000011e+01 -2.940927999999999898e+01 -3.761221525068013105e-01
-1.353700000000000081e+01 2.723000000000000043e+01 -3.803199999999999648e+01 -5.956217999999999790e+01 -3.761678186720421868e-01
-1.353700000000000081e+01 2.852299999999999969e+01 -3.875300000000000011e+01 -4.307981999999999800e+01 -3.762135876149989011e-01
-1.353599999999999959e+01 1.004800000000000004e+01 -5.333299999999999841e+01 -7.073468000000000089e+00 -1.467537060331878251e-01
-1.352699999999999925e+01 3.529900000000000038e+00 -5.200300000000000011e+01 9.731132000000000559e+00 -1.398333488274151326e-01
-1.352399999999999913e+01 1.650100000000000122e+01 -5.402600000000000335e+01 7.227121999999999602e+00 -2.613025976520804705e-01
-1.351800000000000068e+01 1.740299999999999869e+01 -3.707399999999999807e+01 7.238209999999999589e+00 -1.205932163280262481e-01
-1.351200000000000045e+01 1.970499999999999829e+01 -3.097200000000000131e+01 1.098403000000000063e+01 -1.171081890560582150e-01
-1.351200000000000045e+01 1.690899999999999892e+01 -2.289699999999999847e+01 -3.561436000000000046e+00 1.371045601384222575e-03
-1.350699999999999967e+01 2.153800000000000026e+01 -4.393800000000000239e+01 -1.671067999999999998e+01 -3.759062004826657644e-01
-1.350699999999999967e+01 -2.383000000000000007e+00 -4.391400000000000148e+01 1.658875000000000099e+01 -2.463730836279512393e-01
-1.350600000000000023e+01 8.444800000000000750e+00 -2.324500000000000099e+01 -1.590231999999999957e+01 5.474798892242905765e-03
-1.350399999999999956e+01 2.548000000000000043e+01 -4.672999999999999687e+01 3.546806000000000125e+00 -3.761949958433847274e-01
-1.349399999999999977e+01 2.416400000000000148e+01 -4.952199999999999847e+01 3.821457999999999799e+00 -3.762574310144419232e-01
-1.348199999999999932e+01 6.209999999999999964e+00 -5.356099999999999994e+01 5.312191999999999581e+00 6.523570713340234861e-02
-1.348099999999999987e+01 1.683200000000000074e+01 -4.977900000000000347e+01 1.001870000000000083e+01 -2.570276809379953287e-01
-1.348000000000000043e+01 1.153800000000000026e+01 -5.292900000000000205e+01 -6.923365000000000435e+00 -1.175340452646846529e-01
-1.348000000000000043e+01 1.272899999999999920e+01 -5.359300000000000352e+01 8.996302999999999939e-01 -9.019131415839656829e-02
-1.347899999999999920e+01 -2.840699999999999892e-01 -2.721900000000000119e+01 -9.044138000000000233e+00 -2.430655341977789041e-01
-1.347600000000000087e+01 2.179700000000000060e+01 -4.755599999999999739e+01 6.783045000000000435e+00 -3.759305567003463633e-01
-1.347300000000000075e+01 4.690000000000000391e+00 -5.131799999999999784e+01 4.709745000000000203e+01 1.271136635273960314e-01
-1.347000000000000064e+01 2.152199999999999847e+01 -3.923199999999999932e+01 -3.980147000000000101e+00 -3.759741208258196576e-01
-1.346799999999999997e+01 -9.627700000000000147e-01 -4.702799999999999869e+01 9.274423999999999779e+00 -2.456206498107818548e-01
-1.345700000000000074e+01 2.004400000000000048e+01 -3.927600000000000335e+01 -2.062425000000000175e+00 -3.760863947784665040e-01
-1.345299999999999940e+01 2.598600000000000065e+01 -4.239800000000000324e+01 -1.091854000000000013e+01 -3.761328309050470109e-01
-1.345199999999999996e+01 5.903299999999999770e+00 -5.266700000000000159e+01 1.241172000000000075e+01 9.079374495121710076e-02
-1.345100000000000051e+01 1.082300000000000040e+01 -1.932600000000000051e+01 -8.407453000000000287e+00 3.925758404092147442e-03
-1.344999999999999929e+01 2.553900000000000148e+01 -4.860099999999999909e+01 7.421952000000000105e+00 -3.763129431629751442e-01
-1.344999999999999929e+01 2.553900000000000148e+01 -4.755100000000000193e+01 8.035826000000000136e+00 -3.762428713461272722e-01
-1.343699999999999939e+01 5.822600000000000442e+00 -5.207600000000000051e+01 1.151823000000000086e+01 1.038617470196106646e-01
-1.343200000000000038e+01 1.630300000000000082e+01 -5.144700000000000273e+01 1.211440999999999946e+01 -2.584059634440186159e-01
-1.342800000000000082e+01 1.654500000000000171e+01 -5.065800000000000125e+01 8.539694000000000784e+00 -2.576225159400569731e-01
-1.342500000000000071e+01 1.610999999999999943e+01 -5.749099999999999966e+01 2.044576999999999867e+00 -2.838968204473873436e-01
-1.341699999999999982e+01 2.485300000000000153e+01 -4.315599999999999881e+01 -3.545678999999999803e+01 -3.760824454867472411e-01
-1.341200000000000081e+01 -4.921299999999999564e+00 -3.157199999999999918e+01 4.595456999999999681e+01 -2.452271655874961043e-01
-1.339799999999999969e+01 2.325600000000000023e+01 -3.929699999999999704e+01 -2.970619999999999816e+00 -3.760297796039836493e-01
-1.339700000000000024e+01 3.345200000000000173e+00 -2.584199999999999875e+01 3.698447999999999958e+00 -2.433966484599242031e-01
-1.338700000000000045e+01 -7.499399999999999622e+00 -3.666700000000000159e+01 4.578740999999999950e+00 -2.482991905969766377e-01
-1.337800000000000011e+01 2.016799999999999926e+01 -4.713799999999999812e+01 2.615572999999999926e+00 -3.758181363344291759e-01
-1.337599999999999945e+01 -3.788699999999999957e+00 -3.081400000000000006e+01 1.965578999999999965e+01 -2.445564431597894439e-01
-1.336599999999999966e+01 -1.756999999999999895e+00 -5.032200000000000273e+01 8.702163999999999788e+00 -2.608957219040444198e-01
-1.336200000000000010e+01 1.341900000000000048e+01 -5.557900000000000063e+01 2.282772000000000023e+00 -2.453165726445260542e-01
-1.335599999999999987e+01 9.649999999999999689e-01 -5.294400000000000261e+01 1.342395999999999923e+01 -1.570812711884651269e-01
-1.335399999999999920e+01 3.740299999999999958e+00 -5.135300000000000153e+01 2.409477000000000046e+01 1.400457145737795117e-01
-1.335299999999999976e+01 2.453399999999999892e+01 -4.444700000000000273e+01 -1.816035000000000110e+01 -3.760795172271530484e-01
-1.335299999999999976e+01 2.474299999999999855e+01 -4.371099999999999852e+01 -2.862237999999999971e+01 -3.760835353437784745e-01
-1.335100000000000087e+01 1.889300000000000068e+01 -2.358699999999999974e+01 2.706325000000000092e+00 5.464871835617797231e-04
-1.334500000000000064e+01 -5.345100000000000406e-01 -4.856900000000000261e+01 1.394847000000000037e+01 -2.464033144497397854e-01
-1.334500000000000064e+01 -5.345100000000000406e-01 -4.770400000000000063e+01 1.215212999999999965e+01 -2.448927831134434518e-01
-1.334399999999999942e+01 1.801000000000000156e+01 -3.151599999999999824e+01 1.301323999999999970e+01 -5.286621990819361048e-04
-1.333999999999999986e+01 1.947299999999999898e+01 -2.555099999999999838e+01 -3.646330999999999989e+00 -2.594758462226564033e-01
-1.333999999999999986e+01 1.947299999999999898e+01 -2.450100000000000122e+01 1.560181000000000040e+00 1.794528132460784732e-04
-1.333999999999999986e+01 1.054299999999999926e+01 -5.321200000000000330e+01 -1.459249000000000018e+00 -1.336465500526586303e-01
-1.333799999999999919e+01 -3.120000000000000107e+00 -5.295600000000000307e+01 9.530004999999999171e+00 -1.498065330825300821e-02
-1.333799999999999919e+01 -2.888500000000000068e+00 -5.377100000000000080e+01 7.562166000000000388e+00 -3.808563351256314539e-02
-1.333799999999999919e+01 -1.570000000000000062e+00 -5.450600000000000023e+01 5.752277999999999558e+00 2.279296373006383103e-01
-1.333799999999999919e+01 -2.514899999999999913e-01 -5.377100000000000080e+01 6.037647999999999904e+00 2.090782876162303461e-01
-1.333799999999999919e+01 1.322400000000000020e+01 -5.477199999999999847e+01 1.855083000000000037e+00 -2.412012116874948653e-01
-1.333500000000000085e+01 1.922700000000000031e+01 -4.718399999999999750e+01 2.223116000000000092e+00 -2.662187368532989984e-01
-1.333500000000000085e+01 2.016499999999999915e+01 -4.308400000000000318e+01 -1.298445000000000071e+01 -3.758696086083991306e-01
-1.332600000000000051e+01 5.658999999999999808e+00 -2.248400000000000176e+01 -5.673708999999999669e+00 -2.447568213489093591e-01
-1.331700000000000017e+01 1.459900000000000020e+01 -5.915299999999999869e+01 2.219373000000000040e+00 4.471511919193989909e-02
-1.331400000000000006e+01 -5.407499999999999751e+00 -3.180000000000000071e+01 4.124105999999999739e+01 -2.455429244742458883e-01
-1.330799999999999983e+01 1.696499999999999986e+01 -4.917099999999999937e+01 8.143722000000000349e+00 -2.567455761119886160e-01
-1.330799999999999983e+01 1.696499999999999986e+01 -4.830499999999999972e+01 4.530122999999999678e+00 -2.566978740833371075e-01
-1.329700000000000060e+01 1.147699999999999970e-01 -2.604700000000000060e+01 -5.531138000000000332e+00 -2.430494748768602942e-01
-1.329599999999999937e+01 1.937199999999999989e+01 -2.637099999999999866e+01 -9.431110999999999578e+00 -2.594713147734283298e-01
-1.329599999999999937e+01 1.958099999999999952e+01 -2.710699999999999932e+01 -4.855129999999999768e+01 -2.592873335954910541e-01
-1.329400000000000048e+01 1.304100000000000037e+01 -2.002400000000000091e+01 -3.132947999999999844e+00 3.221285631162704079e-03
-1.329299999999999926e+01 1.575300000000000011e+01 -2.171600000000000108e+01 -4.345582999999999885e+01 2.113206333003215566e-03
-1.328999999999999915e+01 1.737699999999999889e+01 -2.266700000000000159e+01 1.569029000000000007e+00 1.358379122941803276e-03
-1.328200000000000003e+01 8.253099999999999881e+00 -2.107700000000000173e+01 -8.760284000000000404e+00 5.361808828807560802e-03
-1.328200000000000003e+01 8.577999999999999403e+00 -2.033999999999999986e+01 -1.532473000000000063e+01 5.094949240299424115e-03
-1.327899999999999991e+01 -1.797400000000000109e+00 -2.958099999999999952e+01 -1.030146000000000051e+01 -2.435639685358446938e-01
-1.327699999999999925e+01 1.450600000000000023e+01 -2.086599999999999966e+01 -3.657719999999999771e+01 2.660120160868511847e-03
-1.327500000000000036e+01 2.016600000000000037e+01 -4.556499999999999773e+01 -1.591517999999999944e+01 -3.758349336822746634e-01
-1.327500000000000036e+01 2.103099999999999881e+01 -4.556499999999999773e+01 -5.220259000000000427e+00 -3.758807250033848191e-01
-1.327399999999999913e+01 1.506999999999999895e+00 -2.504899999999999949e+01 -1.648774999999999835e+01 -3.499999999999999778e-01
-1.325999999999999979e+01 -7.269099999999999895e+00 -3.724699999999999989e+01 4.985451000000000299e+00 -2.484486391304733810e-01
-1.325699999999999967e+01 -3.033399999999999874e+00 -2.990200000000000102e+01 -3.573582000000000036e+00 -2.441632711436234615e-01
-1.325000000000000000e+01 1.839999999999999858e+01 -2.280199999999999960e+01 5.692166000000000281e+00 9.241914089793176312e-04
-1.324600000000000044e+01 2.515000000000000124e+00 -5.246999999999999886e+01 8.486655000000000726e+00 -1.511687615639083770e-01
-1.324499999999999922e+01 9.910399999999999210e+00 -1.939199999999999946e+01 -7.883973000000000120e+00 4.449192775532806628e-03
-1.323399999999999999e+01 -8.363899999999999224e+00 -3.543599999999999994e+01 1.281025999999999954e+01 -2.483655029296360506e-01
-1.322799999999999976e+01 1.912900000000000134e+01 -4.480599999999999739e+01 -2.060332000000000008e+01 -3.759711420225616552e-01
-1.322799999999999976e+01 1.912900000000000134e+01 -4.340599999999999881e+01 -2.069778000000000162e+01 -3.760463940793223325e-01
-1.322100000000000009e+01 7.118999999999999773e+00 -2.203800000000000026e+01 -7.583885000000000431e+00 6.093866555572152385e-03
-1.321700000000000053e+01 -6.940500000000000114e+00 -3.806799999999999784e+01 4.687852000000000352e+00 -2.486463985260675413e-01
-1.321599999999999930e+01 2.133399999999999963e+01 -4.486500000000000199e+01 -1.822160999999999831e+01 -3.759042892786971235e-01
-1.321400000000000041e+01 5.682899999999999618e-01 -2.514799999999999969e+01 -1.221311000000000035e+01 -2.429944072319016879e-01
-1.321100000000000030e+01 2.541100000000000136e+01 -3.941799999999999926e+01 -1.281315999999999988e+01 -3.761103565284699135e-01
-1.320800000000000018e+01 5.947099999999999831e+00 -5.163799999999999812e+01 7.304306000000000409e+00 1.160849255736770419e-01
-1.319800000000000040e+01 -6.898500000000000298e+00 -3.138200000000000145e+01 6.408786999999999523e+01 -2.463062613439856996e-01
-1.319299999999999962e+01 9.493000000000000327e+00 -5.398599999999999710e+01 -2.461244000000000209e+00 2.073320463508452338e-01
-1.318999999999999950e+01 1.961100000000000065e+01 -3.857600000000000051e+01 1.643752000000000102e+00 -1.243078724870818885e-01
-1.318599999999999994e+01 2.803600000000000136e+01 -4.308299999999999841e+01 -5.170855000000000423e+00 -3.762530721243139142e-01
-1.318599999999999994e+01 2.932900000000000063e+01 -4.236200000000000188e+01 -1.705623999999999896e+01 -3.762974842886064319e-01
-1.318599999999999994e+01 2.944500000000000028e+01 -4.076500000000000057e+01 -2.750690000000000168e+01 -3.762746168795774171e-01
-1.318599999999999994e+01 2.955600000000000094e+01 -4.156300000000000239e+01 -4.203119000000000227e+01 -3.762916487214646999e-01
-1.317699999999999960e+01 -3.605599999999999916e+00 -4.332999999999999829e+01 1.609684999999999988e+01 -2.485815162468537343e-01
-1.317300000000000004e+01 1.341900000000000048e+01 -5.634499999999999886e+01 5.017297000000000118e+00 -2.487249493458392746e-01
-1.316999999999999993e+01 1.882600000000000051e+01 -4.410600000000000165e+01 -9.789296999999999471e+00 -3.760753869038963026e-01
-1.316900000000000048e+01 -5.685500000000000220e+00 -4.053900000000000148e+01 3.429682999999999815e+00 -2.491065024611452405e-01
-1.316399999999999970e+01 -4.611100000000000421e+00 -3.198499999999999943e+01 4.381006000000000000e+01 -2.451300413157189162e-01
-1.316300000000000026e+01 -9.948999999999999844e+00 -3.361999999999999744e+01 4.772784999999999833e+00 -2.485397733733709091e-01
-1.316300000000000026e+01 -9.695100000000000051e+00 -3.451400000000000290e+01 5.975906000000000162e+00 -2.487683062623022023e-01
-1.316300000000000026e+01 -9.695100000000000051e+00 -3.272599999999999909e+01 2.449378000000000100e+01 -2.480934454988776294e-01
-1.316200000000000081e+01 -5.989200000000000301e+00 -3.178300000000000125e+01 9.173618000000000450e+01 -2.458899798498510036e-01
-1.315600000000000058e+01 -2.765299999999999869e+00 -5.157999999999999829e+01 6.388395000000000046e+00 2.423419058244746273e-03
-1.315399999999999991e+01 2.074399999999999977e+01 -3.933400000000000318e+01 -9.808652999999999622e+00 -3.759954734019775868e-01
-1.315000000000000036e+01 5.643699999999999939e+00 -5.093800000000000239e+01 6.583800000000000097e+00 1.293426625502885896e-01
-1.315000000000000036e+01 2.668599999999999994e+01 -4.245600000000000307e+01 -1.509085999999999927e+01 -3.761781703497327212e-01
-1.314899999999999913e+01 1.322400000000000020e+01 -5.820199999999999818e+01 3.095107000000000053e+00 -2.603668808901198894e-01
-1.314899999999999913e+01 1.322400000000000020e+01 -5.715200000000000102e+01 5.255302999999999614e+00 -2.511900707516005471e-01
-1.314899999999999913e+01 1.597400000000000020e+01 -5.820199999999999818e+01 -1.851369999999999960e+00 -2.918606757451224776e-01
-1.314100000000000001e+01 -3.019400000000000084e+00 -5.238799999999999812e+01 4.667161000000000115e+00 -7.554307795133952293e-03
-1.312500000000000000e+01 2.331400000000000006e+01 -4.945100000000000051e+01 8.969545999999999353e+00 -3.761899669523232070e-01
-1.312500000000000000e+01 2.501399999999999935e+01 -4.945100000000000051e+01 1.264579999999999949e+01 -3.763604175900899795e-01
-1.308500000000000085e+01 1.789399999999999835e+01 -3.746999999999999886e+01 1.286847999999999992e+01 -1.196011804347994339e-01
-1.308399999999999963e+01 2.475100000000000122e+01 -4.274699999999999989e+01 -3.325816999999999979e+01 -3.760883942876204755e-01
-1.308200000000000074e+01 1.167300000000000004e+01 -1.939699999999999847e+01 -2.468822999999999990e+00 3.883234376407582351e-03
-1.307799999999999940e+01 1.891199999999999903e+01 -3.139999999999999858e+01 1.119600999999999935e+01 -2.592957752828349283e-01
-1.307799999999999940e+01 -1.069499999999999895e+00 -2.846699999999999875e+01 -6.294278000000000262e+00 -2.433225882225450720e-01
-1.307600000000000051e+01 1.816700000000000159e+01 -4.762899999999999778e+01 1.834896000000000083e+00 -2.685884430205700002e-01
-1.307399999999999984e+01 -1.892099999999999893e+00 -4.431099999999999994e+01 9.422829000000000121e+00 -2.458154100877756876e-01
-1.307399999999999984e+01 -1.683000000000000052e+00 -4.504699999999999704e+01 1.712302000000000035e+01 -2.459531265050605153e-01
-1.306499999999999950e+01 2.641700000000000159e+01 -3.821900000000000119e+01 -3.293296999999999741e+01 -3.761520159918153583e-01
-1.305799999999999983e+01 -5.878099999999999881e+00 -3.965500000000000114e+01 1.428182000000000063e+00 -2.486902117914724930e-01
-1.305799999999999983e+01 -7.931700000000000417e-01 -2.764499999999999957e+01 -1.548792000000000080e+01 -2.432714406543808605e-01
-1.304800000000000004e+01 1.223799999999999955e+01 -5.319700000000000273e+01 -2.422158000000000033e+00 -9.973751154585189238e-02
-1.304599999999999937e+01 2.795400000000000063e+01 -3.814699999999999847e+01 -4.858492999999999995e+01 -3.762036482019066597e-01
-1.304199999999999982e+01 -1.604100000000000081e+00 -4.657999999999999829e+01 1.503505000000000003e+01 -2.477399081645343115e-01
-1.304199999999999982e+01 6.868999999999999773e+00 -5.397099999999999653e+01 5.215925000000000367e+00 7.918894749379752629e-02
-1.302800000000000047e+01 1.731099999999999994e+01 -3.293200000000000216e+01 3.244760999999999740e+01 -3.712118720504042262e-05
-1.302800000000000047e+01 1.751999999999999957e+01 -3.219599999999999795e+01 3.758012999999999693e+01 4.919706813967923914e-05
-1.302599999999999980e+01 2.112600000000000122e+01 -4.760499999999999687e+01 3.966765999999999792e+00 -3.759138970708003624e-01
-1.302599999999999980e+01 2.505499999999999972e+01 -4.204699999999999704e+01 -1.601634999999999920e+01 -3.761020383396006528e-01
-1.302200000000000024e+01 2.522200000000000131e+01 -4.577499999999999858e+01 4.380908999999999764e+01 -3.761673370455383414e-01
-1.302200000000000024e+01 2.556700000000000017e+01 -4.655799999999999983e+01 9.493418000000000134e+00 -3.762195580749897461e-01
-1.301500000000000057e+01 1.998400000000000176e+01 -2.790899999999999892e+01 -2.688099000000000061e+01 -2.591995692480152935e-01
-1.299600000000000044e+01 -4.804999999999999716e+00 -4.268800000000000239e+01 9.502618000000000009e+00 -2.500958666094982297e-01
-1.299300000000000033e+01 -1.321099999999999941e+00 -4.982099999999999795e+01 8.624847000000000818e+00 -2.557373615406252076e-01
-1.298900000000000077e+01 1.371299999999999919e+01 -5.910999999999999943e+01 2.557128000000000068e+00 1.873959540424201264e-02
-1.298700000000000010e+01 2.030099999999999838e+01 -3.049099999999999966e+01 3.419681999999999888e+00 -3.767074234821390366e-01
-1.298700000000000010e+01 2.030099999999999838e+01 -2.870299999999999940e+01 -2.084582999999999853e+00 -2.589468113711821395e-01
-1.298700000000000010e+01 2.055499999999999972e+01 -2.959700000000000131e+01 7.205244999999999678e+00 -2.586681026816483042e-01
-1.298099999999999987e+01 4.341499999999999915e+00 -5.070799999999999841e+01 1.501459999999999972e+01 1.500658058226387037e-01
-1.297700000000000031e+01 1.723499999999999943e+01 -3.522099999999999653e+01 3.355341000000000129e+00 -8.561086004201214550e-04
-1.297700000000000031e+01 1.723499999999999943e+01 -3.435600000000000165e+01 8.791399000000000186e+00 -4.510787734113500392e-04
-1.297300000000000075e+01 2.219000000000000128e+01 -4.828799999999999670e+01 9.983829999999999316e+00 -3.760234147648427450e-01
-1.296700000000000053e+01 -7.931300000000000239e+00 -3.613600000000000279e+01 5.028818000000000232e+00 -2.484558056494113321e-01
-1.296400000000000041e+01 4.045200000000000351e+00 -2.557499999999999929e+01 -1.049948999999999977e+01 -2.440361135645849333e-01
-1.296400000000000041e+01 1.924599999999999866e+01 -3.798499999999999943e+01 3.514082999999999846e+00 -1.270461005565835522e-01
-1.296400000000000041e+01 -1.777700000000000058e+00 -4.570900000000000318e+01 1.091130000000000067e+01 -2.470830242260348142e-01
-1.295800000000000018e+01 1.706200000000000117e+01 -5.629599999999999937e+01 2.798026000000000124e+00 -2.642247370806011242e-01
-1.295800000000000018e+01 1.706200000000000117e+01 -5.453600000000000136e+01 9.548033000000000214e+00 -2.594996564759540769e-01
-1.295299999999999940e+01 1.554199999999999982e+01 -5.908800000000000097e+01 1.366449000000000025e+00 -3.048282206938796590e-01
-1.295299999999999940e+01 1.116900000000000048e+01 -1.904799999999999827e+01 -6.506984000000000101e+00 4.138302278968047400e-03
-1.294800000000000040e+01 2.102100000000000080e+01 -4.432300000000000040e+01 -1.939095999999999975e+01 -3.759074312677067597e-01
-1.293800000000000061e+01 1.973199999999999932e+01 -4.497500000000000142e+01 -3.666599999999999682e+01 -2.662448610446715436e-01
-1.293800000000000061e+01 1.973199999999999932e+01 -4.357500000000000284e+01 -1.851090999999999909e+01 -3.759170887578883735e-01
-1.293800000000000061e+01 2.059799999999999898e+01 -4.497500000000000142e+01 -3.000065999999999988e+01 -3.758823212366245725e-01
-1.293800000000000061e+01 2.059799999999999898e+01 -4.357500000000000284e+01 -1.975247999999999848e+01 -3.758973294785928898e-01
-1.293699999999999939e+01 2.640699999999999825e+00 -4.896399999999999864e+01 1.360341000000000022e+01 -1.229099370715670270e-01
-1.292099999999999937e+01 3.040299999999999780e+00 -5.161999999999999744e+01 1.507659999999999911e+01 -1.409366070966707463e-01
-1.291600000000000037e+01 2.940899999999999892e+01 -3.980799999999999983e+01 -1.423680999999999974e+00 -3.762682787979776400e-01
-1.291499999999999915e+01 1.749399999999999977e+01 -3.385900000000000176e+01 9.030551000000000883e+00 -3.560103997597687192e-04
-1.291300000000000026e+01 7.806799999999999962e+00 -2.181800000000000139e+01 -1.139301999999999992e+01 6.033015464969197772e-03
-1.291300000000000026e+01 -9.323299999999999921e-01 -4.899600000000000222e+01 1.131766999999999967e+01 -2.501750676320763089e-01
-1.291300000000000026e+01 -1.234499999999999931e+00 -4.743699999999999761e+01 1.592247000000000057e+01 -2.479152119253049125e-01
-1.290700000000000003e+01 1.005199999999999960e+01 -5.360900000000000176e+01 -2.723170999999999786e+00 2.128906286984913743e-01
-1.290700000000000003e+01 1.124300000000000033e+01 -5.294500000000000028e+01 -5.689650000000000318e+00 -1.174900022632656693e-01
-1.290499999999999936e+01 2.394199999999999939e-01 -5.337400000000000233e+01 4.469041999999999959e+00 -5.271282713456507812e-02
-1.290499999999999936e+01 1.719999999999999929e+01 -5.541599999999999682e+01 7.867784000000000333e+00 -2.604964728494895687e-01
-1.289499999999999957e+01 -5.297699999999999854e+00 -4.177300000000000324e+01 4.180632000000000126e+00 -2.498672558296725354e-01
-1.288899999999999935e+01 -9.044999999999999929e+00 -3.208299999999999841e+01 3.881774000000000058e+01 -2.476167039034668227e-01
-1.288400000000000034e+01 -2.255100000000000104e+00 -5.075399999999999778e+01 7.515862000000000265e+00 -2.687043824466938124e-01
-1.288400000000000034e+01 1.648199999999999932e+01 -5.338400000000000034e+01 -1.063101999999999991e+00 -2.595501005639475611e-01
-1.288400000000000034e+01 1.648199999999999932e+01 -5.251800000000000068e+01 -1.850702999999999987e+00 -2.585863258844960932e-01
-1.288400000000000034e+01 -6.388600000000000279e+00 -3.907099999999999795e+01 3.493571000000000204e+00 -2.488727232764985364e-01
-1.288100000000000023e+01 1.491699999999999982e+01 -2.149200000000000088e+01 -4.406224999999999881e+01 2.820654505261026290e-03
-1.288000000000000078e+01 1.942899999999999849e+01 -4.427499999999999858e+01 -1.920908000000000015e+01 -3.759344267463592404e-01
-1.287899999999999956e+01 2.496300000000000185e+00 -2.544900000000000162e+01 -1.793243999999999971e+01 -2.433397862550139568e-01
-1.287700000000000067e+01 1.665000000000000036e+00 -5.254099999999999682e+01 1.033981999999999957e+01 -1.576185813700636817e-01
-1.287299999999999933e+01 2.240599999999999881e+01 -3.897200000000000131e+01 -2.949087000000000014e+00 -3.760226302860927294e-01
-1.286800000000000033e+01 -3.557799999999999851e+00 -2.947700000000000031e+01 -3.185086999999999779e+00 -2.444636718698471323e-01
-1.285999999999999943e+01 -2.600800000000000001e+00 -2.941100000000000136e+01 -7.114258000000000415e+00 -2.440044012152045583e-01
-1.285899999999999999e+01 -2.345000000000000195e+00 -5.421000000000000085e+01 1.534567000000000014e+01 2.516274146137697509e-01
-1.285899999999999999e+01 -7.950000000000000400e-01 -5.421000000000000085e+01 3.684924999999999784e+00 2.173686939427057485e-01
-1.285899999999999999e+01 -6.689199999999999591e+00 -3.172500000000000142e+01 1.066559000000000026e+02 -2.463100234545219924e-01
-1.285899999999999999e+01 2.610600000000000165e+01 -4.176500000000000057e+01 -2.037190999999999974e+01 -3.761543199399156601e-01
-1.285599999999999987e+01 5.126000000000000334e+00 -2.291499999999999915e+01 -7.342996000000000301e+00 -2.447536531361883261e-01
-1.285599999999999987e+01 6.418999999999999595e+00 -2.219399999999999906e+01 -4.197100999999999971e+01 6.769590339841914835e-03
-1.285399999999999920e+01 -9.311099999999999932e-01 -4.813700000000000045e+01 1.140244999999999997e+01 -2.479918207361307692e-01
-1.284699999999999953e+01 2.607600000000000051e+01 -4.804899999999999949e+01 5.143915999999999933e+00 -3.763499376347681502e-01
-1.284399999999999942e+01 1.969600000000000151e+01 -4.761800000000000210e+01 2.708309999999999995e+00 -3.758316934217679206e-01
-1.284200000000000053e+01 1.679500000000000171e+01 -5.713000000000000256e+01 1.492548999999999904e+00 -2.702672169447620232e-01
-1.283999999999999986e+01 1.230599999999999916e+01 -1.958299999999999841e+01 8.679406999999999428e+00 3.834663065899353122e-03
-1.283799999999999919e+01 1.616300000000000026e+01 -2.220100000000000051e+01 -1.055320000000000036e+01 2.301827666932087894e-03
-1.283699999999999974e+01 1.399900000000000055e+01 -5.962500000000000000e+01 2.507706000000000213e+00 -4.793355760039346575e-04
-1.283699999999999974e+01 1.504899999999999949e+01 -5.962500000000000000e+01 2.054373000000000005e+00 5.238080082329940601e-03
-1.281799999999999962e+01 1.746099999999999852e+01 -3.677000000000000313e+01 7.505194000000000365e+00 -1.632915005576173612e-03
-1.281700000000000017e+01 1.736199999999999832e+01 -4.873799999999999955e+01 4.014880999999999922e+00 -2.562079979803019714e-01
-1.281700000000000017e+01 2.596999999999999886e+01 -4.908899999999999864e+01 1.772321999999999953e+00 -3.764281779062776390e-01
-1.281300000000000061e+01 9.011900000000000688e+00 -1.984900000000000020e+01 -8.291831000000000174e+00 5.217940090763793955e-03
-1.281000000000000050e+01 4.626199999999999868e+00 -2.474800000000000111e+01 -1.598207000000000022e+01 -2.444659006390469125e-01
-1.281000000000000050e+01 -7.707300000000000040e+00 -3.157199999999999918e+01 6.822972000000000037e+01 -2.468223284344663038e-01
-1.280599999999999916e+01 4.732300000000000395e+00 -2.374800000000000111e+01 -7.327583999999999875e+00 -2.445714293732739741e-01
-1.280400000000000027e+01 1.715800000000000125e+01 -4.962400000000000233e+01 6.916558000000000206e+00 -2.564156514586388713e-01
-1.280400000000000027e+01 2.574800000000000111e+01 -4.716299999999999670e+01 1.002538999999999980e+01 -3.762728752828476408e-01
-1.279899999999999949e+01 2.946300000000000097e+01 -4.040699999999999648e+01 -5.929794000000000231e+00 -3.762804085540879528e-01
-1.278299999999999947e+01 1.038000000000000034e+00 -2.461499999999999844e+01 -1.263282000000000060e+01 -2.429369522485486377e-01
-1.277899999999999991e+01 -3.423499999999999877e-01 -2.691600000000000037e+01 -9.638412000000000646e+00 -2.431833912783719909e-01
-1.277800000000000047e+01 2.471099999999999852e+01 -3.968500000000000227e+01 -1.177209000000000039e+01 -3.760968992752393159e-01
-1.277800000000000047e+01 2.590200000000000102e+01 -3.902100000000000080e+01 -2.566791999999999874e+01 -3.761409253735907288e-01
-1.277599999999999980e+01 2.153000000000000114e+01 -4.798899999999999721e+01 4.713480999999999810e+00 -3.759727852420486349e-01
-1.276900000000000013e+01 1.787500000000000000e+01 -2.220599999999999952e+01 7.775415999999999883e+00 1.582622615294913869e-03
-1.276699999999999946e+01 -5.043700000000000294e+00 -3.247599999999999909e+01 7.219853000000000520e+01 -2.455090674323595068e-01
-1.275699999999999967e+01 2.031099999999999994e+01 -3.884300000000000352e+01 -7.500231999999999566e+00 -3.760680565715969759e-01
-1.275000000000000000e+01 -2.870000000000000107e+00 -4.331499999999999773e+01 2.270158999999999949e+01 -2.473085960867411059e-01
-1.274399999999999977e+01 -1.917099999999999915e-01 -2.543799999999999883e+01 -4.427719999999999878e+00 -2.432617675067684782e-01
-1.274399999999999977e+01 1.773499999999999943e+01 -4.822500000000000142e+01 2.557735999999999787e+00 -2.558971493770841876e-01
-1.273099999999999987e+01 -3.911099999999999799e+00 -3.171699999999999875e+01 9.991415999999999542e+01 -2.447659788504425171e-01
-1.272799999999999976e+01 3.376700000000000035e+00 -4.896399999999999864e+01 1.290799999999999947e+01 -1.235849117778239775e-01
-1.272700000000000031e+01 3.383100000000000218e+00 -5.089300000000000068e+01 1.885553000000000168e+01 1.653627328089168069e-01
-1.272600000000000087e+01 1.368399999999999928e+01 -2.040700000000000003e+01 -8.610490000000000421e+00 3.424578323906074008e-03
-1.272499999999999964e+01 1.925000000000000000e+01 -2.312699999999999889e+01 7.289890999999999899e+00 9.477798228790659330e-04
-1.272300000000000075e+01 1.684499999999999886e+01 -5.017300000000000182e+01 8.897617000000000331e+00 -2.568221221095895457e-01
-1.271700000000000053e+01 6.343700000000000117e+00 -5.312100000000000222e+01 2.145712999999999937e+01 1.004647376453005336e-01
-1.271700000000000053e+01 6.343700000000000117e+00 -5.207099999999999795e+01 1.583301999999999943e+01 1.193634784271486310e-01
-1.271700000000000053e+01 6.343700000000000117e+00 -5.120499999999999829e+01 2.609572000000000003e+00 1.297862475021138995e-01
-1.271599999999999930e+01 2.727599999999999980e+01 -4.279299999999999926e+01 -6.990270999999999901e+00 -3.762266850883743685e-01
-1.271599999999999930e+01 2.879599999999999937e+01 -4.279299999999999926e+01 -1.459159000000000006e+01 -3.762974879584878862e-01
-1.271400000000000041e+01 8.717999999999999972e+00 -5.428199999999999648e+01 -3.605115000000000069e+00 2.103736474875301798e-01
-1.271400000000000041e+01 -7.755399999999999849e+00 -3.674900000000000233e+01 6.585392999999999830e+00 -2.486959040711094748e-01
-1.268099999999999916e+01 2.419300000000000139e+01 -4.988600000000000279e+01 6.089629000000000403e+00 -3.763534066414150336e-01
-1.267600000000000016e+01 -3.730399999999999938e+00 -3.111700000000000088e+01 3.507773000000000252e+01 -2.446360617402784376e-01
-1.267600000000000016e+01 -3.521300000000000097e+00 -3.038100000000000023e+01 7.956936000000000009e-01 -2.444939453489735626e-01
-1.267099999999999937e+01 2.016499999999999915e+01 -4.427499999999999858e+01 -1.994782000000000011e+01 -3.758850268758765489e-01
-1.266999999999999993e+01 3.073300000000000143e+00 -4.966400000000000148e+01 1.602486000000000033e+01 -1.262288463229147839e-01
-1.266999999999999993e+01 3.073300000000000143e+00 -4.826400000000000290e+01 6.773114999999999775e+00 -1.223695532536143438e-01
-1.266099999999999959e+01 3.345200000000000173e+00 -2.563299999999999912e+01 -1.124488999999999983e+01 -2.438666437270275988e-01
-1.264499999999999957e+01 -1.769500000000000073e+00 -2.873499999999999943e+01 -1.996912999999999982e+01 -2.436645126477852141e-01
-1.264300000000000068e+01 2.139199999999999946e+01 -3.888300000000000267e+01 -8.851874999999999716e+00 -3.760018875908736069e-01
-1.263499999999999979e+01 2.857999999999999829e+01 -3.865899999999999892e+01 -1.179787999999999926e+01 -3.762364578122673331e-01
-1.263400000000000034e+01 -7.626299999999999635e+00 -3.770700000000000074e+01 5.759348000000000134e+00 -2.491617437127727486e-01
-1.262100000000000044e+01 -9.228199999999999292e+00 -3.504500000000000171e+01 7.248923999999999701e+00 -2.488451967262918507e-01
-1.261100000000000065e+01 1.642099999999999937e+01 -5.799499999999999744e+01 -4.095127999999999879e+00 -2.792066581270871706e-01
-1.260800000000000054e+01 2.053399999999999892e+00 -4.966599999999999682e+01 2.031455000000000055e+01 -1.271937046013394967e-01
-1.260800000000000054e+01 2.053399999999999892e+00 -4.826599999999999824e+01 8.695036999999999239e+00 -1.230316072375005759e-01
-1.260500000000000043e+01 1.595299999999999940e+00 -4.896900000000000119e+01 1.643444999999999823e+01 -1.251087038920398187e-01
-1.260100000000000087e+01 1.994699999999999918e+01 -3.814200000000000301e+01 -2.108377000000000123e+01 -1.236701132758914606e-01
-1.259999999999999964e+01 2.271799999999999997e+01 -4.896999999999999886e+01 1.059784999999999933e+01 -3.761350900585588297e-01
-1.259500000000000064e+01 1.801099999999999923e+01 -3.179899999999999949e+01 3.894590000000000174e+01 4.210407535135728477e-04
-1.259299999999999997e+01 2.435500000000000043e+01 -4.317900000000000205e+01 -7.123950999999999567e+01 -3.760914697051626621e-01
-1.259299999999999997e+01 2.435500000000000043e+01 -4.231400000000000006e+01 -2.445341000000000165e+01 -3.760871559657893437e-01
-1.258399999999999963e+01 4.774099999999999788e+00 -5.021699999999999875e+01 9.397123999999999810e+00 1.577912604608653069e-01
-1.258000000000000007e+01 -5.434700000000000308e+00 -4.111899999999999977e+01 2.986178000000000221e+00 -2.495367483032590594e-01
-1.257799999999999940e+01 1.265399999999999991e+01 -5.371500000000000341e+01 -2.913857000000000252e-01 -8.453412028494947106e-02
-1.257799999999999940e+01 1.286299999999999955e+01 -5.445100000000000051e+01 1.016488000000000014e+01 -2.376454662658425421e-01
-1.257600000000000051e+01 1.893700000000000117e+01 -4.765299999999999869e+01 -8.440649000000000068e-01 -2.674942711729438871e-01
-1.257600000000000051e+01 2.045499999999999829e+01 -4.765299999999999869e+01 1.127154999999999907e+00 -3.759016860928008907e-01
-1.257399999999999984e+01 9.649999999999999689e-01 -5.259899999999999665e+01 8.886264000000000607e+00 -3.392772817993358614e-02
-1.257099999999999973e+01 -2.923999999999999932e+00 -5.350000000000000000e+01 8.406807999999999836e+00 -3.749618433248120414e-02
