-9.082000000000000739e+00 4.434700000000000131e+01 4.294499999999999984e-01 -2.967032999999999809e+00 -9.865820481113878049e-02
-9.081799999999999429e+00 4.379099999999999682e+01 2.647400000000000198e+00 -1.972398000000000096e+01 -9.755905593020533506e-02
-9.081400000000000361e+00 2.670700000000000074e+01 -7.563600000000000101e+00 -1.309351000000000020e+01 -2.453915778721833529e-01
-9.081300000000000594e+00 2.964000000000000057e+01 4.829200000000000159e+01 7.200800000000000090e+00 -2.775422263897588948e-01
-9.081300000000000594e+00 2.984900000000000020e+01 4.755599999999999739e+01 1.760538999999999987e+01 -2.776396461696645224e-01
-9.077299999999999258e+00 1.390600000000000058e+01 2.454100000000000037e+01 -2.548742000000000019e+01 -2.645288787866308944e-01
-9.077299999999999258e+00 1.390600000000000058e+01 2.606099999999999994e+01 -2.532067999999999941e+01 -2.647932728761405174e-01
-9.077299999999999258e+00 1.484600000000000009e+01 2.606099999999999994e+01 -5.460723999999999734e+01 -2.648065607026165447e-01
-9.077299999999999258e+00 1.571100000000000030e+01 2.606099999999999994e+01 -5.909538999999999653e+00 -2.648182926264548986e-01
-9.076800000000000423e+00 3.590699999999999648e+01 1.658099999999999952e+01 -1.132915999999999990e+01 -3.499999999999999778e-01
-9.074999999999999289e+00 1.676000000000000156e+01 3.513900000000000290e+01 4.597004000000000090e+00 -2.661886565469288035e-01
-9.074999999999999289e+00 1.701399999999999935e+01 3.424499999999999744e+01 -2.157910000000000217e+00 -2.661789147728746419e-01
-9.074999999999999289e+00 1.701399999999999935e+01 3.603300000000000125e+01 9.849049000000000831e+00 -2.662008679384941789e-01
-9.073000000000000398e+00 2.973999999999999844e+01 4.931499999999999773e+01 3.096498000000000062e+01 -2.773365594801651679e-01
-9.070299999999999585e+00 1.448099999999999987e+01 7.832200000000000273e+00 -5.015900000000000247e+00 -2.460464000707593135e-01
-9.070000000000000284e+00 1.435500000000000043e+01 1.257499999999999929e+01 -1.044637000000000038e+00 -2.456543249575404708e-01
-9.067899999999999849e+00 1.977899999999999991e+01 9.755699999999999150e+00 -1.562720999999999982e+01 -2.457394989810054997e-01
-9.058999999999999275e+00 1.376200000000000045e+01 4.054699999999999704e+01 -2.293737000000000137e+00 -2.799348090892176399e-01
-9.058999999999999275e+00 1.376200000000000045e+01 4.150500000000000256e+01 -2.003620000000000179e+00 -2.798564709220411895e-01
-9.058999999999999275e+00 2.994399999999999906e+01 -9.924699999999999633e+00 -8.097497999999999863e+00 -1.032779615165293485e-01
-9.056699999999999307e+00 3.121199999999999974e+01 2.728500000000000014e+01 9.257384999999999309e+00 -2.651841871315456234e-01
-9.049099999999999255e+00 3.236200000000000188e+01 1.811299999999999955e+01 8.157596000000000291e-01 -3.499999999999999778e-01
-9.046499999999999986e+00 4.392099999999999937e+01 -4.466400000000000148e+00 2.483182999999999918e+00 -1.009219603178115737e-01
-9.043599999999999639e+00 4.016899999999999693e+01 3.546200000000000330e+01 -1.441928000000000099e+00 -2.778124393222999311e-01
-9.042400000000000659e+00 1.607999999999999829e+01 1.228700000000000081e+01 -1.525591999999999970e+01 -2.456221588366684916e-01
-9.041000000000000369e+00 1.484800000000000075e+01 6.246500000000000163e+00 -4.827372000000000440e+00 -2.461680594472759886e-01
-9.038600000000000634e+00 1.325399999999999956e+01 1.707400000000000162e+01 -6.826622999999999664e+00 -2.632401075951426583e-01
-9.037900000000000489e+00 3.492099999999999937e+01 4.324600000000000222e+01 5.723100999999999772e+00 -2.773958378941717706e-01
-9.037900000000000489e+00 3.578699999999999903e+01 4.324600000000000222e+01 1.390427000000000035e+01 -2.771769383569421263e-01
-9.033099999999999241e+00 3.099399999999999977e+01 5.015500000000000114e+01 5.044754999999999967e+01 -2.769382650044690530e-01
-9.025299999999999656e+00 7.717999999999999972e+00 1.136200000000000010e+01 5.658609999999999474e-01 -1.581726328280492477e-01
-9.025299999999999656e+00 7.717999999999999972e+00 1.244999999999999929e+01 1.909658999999999907e+01 -1.581363302179410180e-01
-9.023600000000000065e+00 2.045299999999999940e+01 5.891799999999999926e+00 7.666725999999999708e+00 -2.460937188246726248e-01
-9.023099999999999454e+00 2.213400000000000034e+01 -2.238999999999999879e+00 -4.974740999999999858e+00 -2.461731502940024130e-01
-9.019600000000000506e+00 2.105699999999999861e+01 9.541299999999999670e+00 -1.345565999999999995e+01 -2.457236474938956083e-01
-9.017300000000000537e+00 3.501500000000000057e+01 -7.860299999999999621e+00 1.595837000000000039e+01 -1.024740855460388039e-01
-9.014400000000000190e+00 2.671999999999999886e+01 -8.721799999999999997e+00 -6.448127999999999638e+00 -2.454085758199843759e-01
-9.013999999999999346e+00 1.357699999999999996e+01 2.530099999999999838e+01 -1.273564000000000007e+01 -2.646604444398082956e-01
-9.010199999999999321e+00 4.344500000000000028e+01 4.691099999999999604e+00 -6.901183999999999763e+00 -3.499999999999999778e-01
-9.005900000000000460e+00 1.611499999999999844e+01 3.952500000000000124e+00 -5.359573000000000143e+00 -2.463318711636657277e-01
-9.004500000000000171e+00 4.131700000000000017e+01 3.999699999999999989e+01 1.134197999999999951e+01 -2.763393488036062773e-01
-9.002299999999999969e+00 3.551899999999999835e+01 -3.657900000000000151e+00 -1.164750000000000085e+01 -1.009695301603384110e-01
-8.997400000000000730e+00 3.030999999999999872e+01 3.137900000000000134e+01 -9.262310000000000265e-01 -2.659138302460452574e-01
-8.997400000000000730e+00 3.051899999999999835e+01 3.211500000000000199e+01 -9.440313000000000176e-01 -2.659261003947334112e-01
-8.996100000000000207e+00 2.970700000000000074e+01 4.684300000000000352e+01 1.367070000000000007e+01 -2.778084365663885391e-01
-8.993800000000000239e+00 7.907399999999999984e+00 7.462200000000000166e+00 -2.915095000000000169e+01 -2.461989203262535120e-01
-8.993100000000000094e+00 1.040900000000000070e+01 4.592600000000000016e+00 -2.156834999999999880e+01 -2.463570504500066372e-01
-8.991899999999999338e+00 2.067200000000000060e+01 4.417999999999999972e+01 -1.819468000000000174e+01 -2.796444968160967104e-01
-8.989000000000000767e+00 3.000799999999999912e+01 2.913899999999999935e+01 1.296667000000000058e+01 -2.656798398308968245e-01
-8.989000000000000767e+00 3.021699999999999875e+01 2.840299999999999869e+01 7.075972000000000151e+00 -2.654916936121485826e-01
-8.989000000000000767e+00 3.021699999999999875e+01 2.987500000000000000e+01 9.383202000000000487e-01 -2.658651157237864604e-01
-8.988899999999999224e+00 1.669900000000000162e+01 2.722599999999999909e+01 -3.821893999999999902e+00 -2.650526081370445097e-01
-8.987700000000000244e+00 1.704200000000000159e+01 2.739599999999999813e+00 -1.394833999999999907e+00 -2.464164734200374463e-01
-8.984999999999999432e+00 3.309300000000000352e+01 2.620599999999999952e+01 1.370232999999999990e+01 -2.648583383533876789e-01
-8.984700000000000131e+00 1.521100000000000030e+01 1.860800000000000054e+01 1.967216999999999993e+00 -2.634506273754582684e-01
-8.984400000000000830e+00 2.178099999999999881e+01 7.137200000000000211e-01 -3.333909999999999929e+00 -2.462689429048589562e-01
-8.984099999999999753e+00 1.638299999999999912e+01 1.158699999999999974e+01 -9.406560000000000699e+00 -2.456764269617365826e-01
-8.977299999999999613e+00 3.595900000000000318e+01 8.170999999999999375e+00 4.244587000000000110e+00 -3.500000000000000333e-01
-8.976800000000000779e+00 3.272599999999999909e+01 -7.823800000000000310e+00 -7.491333000000000020e+00 -1.025665054636686752e-01
-8.975699999999999790e+00 3.174500000000000099e+01 3.295199999999999818e+01 3.098501999999999867e+00 -2.658843438873713660e-01
-8.971299999999999386e+00 2.583599999999999852e+01 4.684199999999999875e+01 -1.634172999999999831e+01 -2.784950142645000182e-01
-8.969900000000000873e+00 1.498199999999999932e+01 4.710799999999999876e+00 -1.066183000000000014e+01 -2.462897350918373252e-01
-8.964299999999999713e+00 1.856299999999999883e+01 2.257899999999999796e+00 1.635928000000000049e+00 -2.464392569082713424e-01
-8.963300000000000267e+00 3.637800000000000011e+01 3.526299999999999812e+01 2.327345999999999915e+00 -2.789393717090554725e-01
-8.961000000000000298e+00 3.878900000000000148e+01 -8.245699999999999363e+00 -1.855059000000000013e+00 -1.024875079067435468e-01
-8.961000000000000298e+00 4.023499999999999943e+01 -9.051999999999999602e+00 -2.255571000000000215e+00 -1.027300817731658239e-01
-8.959400000000000475e+00 3.584799999999999898e+01 -4.478500000000000369e+00 -9.694518999999999664e+00 -1.012624074236641858e-01
-8.957100000000000506e+00 9.057999999999999829e+00 2.866999999999999993e+00 -8.848183999999999827e+00 -2.464849906055513462e-01
-8.956699999999999662e+00 3.493200000000000216e+01 3.530499999999999972e+01 -3.197824999999999918e+00 -2.792898918409699172e-01
-8.953099999999999170e+00 3.072800000000000153e+01 1.736599999999999966e+01 1.597207000000000043e+01 -3.499999999999999778e-01
-8.950499999999999901e+00 3.229500000000000171e+01 4.939099999999999824e+01 3.885222999999999871e+01 -2.767962979902126031e-01
-8.949299999999999145e+00 4.172800000000000153e+01 3.750099999999999767e+01 4.190976000000000146e-01 -2.768131802867589419e-01
-8.947300000000000253e+00 1.469899999999999984e+01 2.116700000000000159e+01 -9.293841000000000463e+00 -2.639261954374568786e-01
-8.947300000000000253e+00 1.563899999999999935e+01 2.116700000000000159e+01 -2.124455999999999989e+01 -2.639138246519139863e-01
-8.946999999999999176e+00 3.554899999999999949e+01 1.586100000000000065e+01 -3.227870999999999668e+01 -3.499999999999999778e-01
-8.945999999999999730e+00 1.348000000000000043e+01 9.855800000000000338e+00 -3.583427999999999969e+01 -2.459094473583247620e-01
-8.942000000000000171e+00 1.837800000000000011e+01 3.327799999999999869e+01 -7.038351999999999720e+00 -2.661843652751693101e-01
-8.938499999999999446e+00 2.502700000000000102e+01 -4.625300000000000189e+00 -4.604193000000000424e+00 -2.456800227578063711e-01
-8.929000000000000270e+00 4.488100000000000023e+01 -3.164699999999999847e+00 2.858274999999999899e+00 -1.003539802047855450e-01
-8.929000000000000270e+00 4.501700000000000301e+01 -1.423899999999999944e+00 -5.375969000000000442e+00 -9.954754680177085868e-02
-8.929000000000000270e+00 4.513499999999999801e+01 -2.270999999999999908e+00 1.631178000000000017e+00 -9.994313726776796192e-02
-8.927599999999999980e+00 3.345000000000000284e+01 2.540299999999999869e+01 5.655630000000000379e-01 -2.646187303271381186e-01
-8.926800000000000068e+00 3.651899999999999835e+01 7.690000000000000391e+00 8.186061999999999728e+00 -3.499999999999999778e-01
-8.926700000000000301e+00 1.202100000000000080e+01 6.250600000000000378e+00 -3.966079999999999828e+00 -2.462197537916556433e-01
-8.925599999999999312e+00 7.471799999999999997e+00 4.421599999999999753e+00 -6.526764000000000010e+00 -2.464033384754701628e-01
-8.923999999999999488e+00 3.928099999999999881e+01 4.326899999999999835e+01 6.617416000000000409e+00 -2.762174224180556914e-01
-8.921699999999999520e+00 2.007799999999999940e+01 1.888300000000000090e+00 -7.362955000000000361e+00 -2.464555123177779306e-01
-8.919000000000000483e+00 2.245899999999999963e+01 8.327299999999999258e+00 9.631721999999999895e+00 -3.499999999999999778e-01
-8.917999999999999261e+00 7.828299999999999592e+00 3.690300000000000136e+00 -6.674674999999999692e+00 -2.464456845981632949e-01
-8.917999999999999261e+00 1.028800000000000026e+01 3.690300000000000136e+00 -1.243773999999999980e+01 -2.464220232019790069e-01
-8.916000000000000369e+00 4.162199999999999989e+01 3.914300000000000068e+01 7.301702000000000226e+01 -2.764445967037173491e-01
-8.916000000000000369e+00 4.185300000000000153e+01 3.832800000000000296e+01 8.794002000000000763e+00 -2.765690564196131573e-01
-8.915699999999999292e+00 1.876699999999999946e+01 2.076899999999999835e+01 6.570079999999999920e+00 -2.637819137793273039e-01
-8.914999999999999147e+00 3.801599999999999824e+01 6.630700000000000038e+00 -1.837809000000000026e+00 -3.499999999999999778e-01
-8.912900000000000489e+00 2.376099999999999923e+01 5.657000000000000028e+00 4.018515000000000015e+01 -3.499999999999999778e-01
-8.912900000000000489e+00 2.376099999999999923e+01 7.128999999999999559e+00 3.159209999999999852e+01 -3.499999999999999778e-01
-8.912900000000000489e+00 2.397100000000000009e+01 6.392999999999999794e+00 4.021524999999999750e+01 -3.499999999999999778e-01
-8.907099999999999795e+00 3.151800000000000068e+01 -8.282600000000000406e+00 -3.405008000000000035e+00 -1.027708725666611062e-01
-8.904899999999999594e+00 1.315000000000000036e+01 1.062500000000000000e+01 -4.236303000000000196e+01 -2.458569236755326626e-01
-8.903499999999999304e+00 1.688500000000000156e+01 2.187600000000000122e+01 -4.614522000000000013e+00 -2.640339047030130226e-01
-8.901999999999999247e+00 2.055900000000000105e+01 4.520400000000000063e+01 -5.091253000000000029e+00 -2.795059612356222689e-01
-8.895200000000000884e+00 2.350499999999999901e+01 -4.125000000000000000e+00 -2.975433000000000217e+00 -2.459469172619966337e-01
-8.894999999999999574e+00 4.111399999999999721e+01 3.566400000000000148e+01 -4.644015999999999700e+00 -2.774765277074247027e-01
-8.893599999999999284e+00 2.020799999999999841e+01 4.700300000000000011e+01 -2.300848999999999922e+00 -2.792183879894102327e-01
-8.891600000000000392e+00 2.229500000000000171e+01 4.890699999999999648e+01 7.553294000000000175e+00 -2.786306023236714280e-01
-8.890000000000000568e+00 6.725299999999999834e+00 5.624299999999999855e+00 -8.712894000000000361e+00 -2.463378279442598462e-01
-8.890000000000000568e+00 6.725299999999999834e+00 6.563699999999999868e+00 -9.346161000000000385e+00 -2.462786030623294042e-01
-8.886599999999999611e+00 1.099499999999999922e+01 5.302399999999999558e+00 -4.767958000000000141e+00 -2.463046704982815860e-01
-8.885999999999999233e+00 4.477900000000000347e+01 -4.566700000000000204e-01 -7.016043999999999947e+00 -9.908846523485403956e-02
-8.884000000000000341e+00 1.436999999999999922e+01 2.192699999999999960e+01 -7.582888999999999768e+00 -2.640682445346141938e-01
-8.883800000000000807e+00 4.470900000000000318e+01 -8.104900000000000659e+00 -6.577804999999999680e+00 -1.023715738726805047e-01
-8.881000000000000227e+00 3.560000000000000142e+01 -7.441099999999999604e+00 1.406107000000000085e+01 -1.023328346661212807e-01
-8.880399999999999849e+00 8.787900000000000489e+00 1.025500000000000078e+01 -8.049317000000000277e-01 -1.582078143611619359e-01
-8.879200000000000870e+00 2.360300000000000153e+01 4.791100000000000136e+01 2.236832999999999849e+00 -2.786332315040489505e-01
-8.877399999999999736e+00 3.406799999999999784e+01 4.770100000000000051e+01 2.311405999999999850e+00 -2.767005984341842084e-01
-8.872600000000000264e+00 1.681599999999999895e+01 4.184899999999999665e+01 1.314493000000000045e+01 -2.798786105275671843e-01
-8.868000000000000327e+00 3.869400000000000261e+01 3.510799999999999699e+01 1.486236999999999975e-01 -2.783541447980691363e-01
-8.867499999999999716e+00 1.458500000000000085e+01 2.360200000000000031e+01 -8.797890000000000654e+00 -2.643707954761280177e-01
-8.864200000000000301e+00 3.398400000000000176e+01 4.497899999999999920e+01 -5.930080000000000240e+00 -2.772595662957809126e-01
-8.859999999999999432e+00 4.332000000000000028e+01 -8.794000000000000483e+00 -4.014401999999999582e+00 -1.026256660311423569e-01
-8.859999999999999432e+00 4.461299999999999955e+01 -6.474899999999999878e+00 -2.068443999999999861e+01 -1.017572566071226758e-01
-8.859999999999999432e+00 4.484000000000000341e+01 -7.274000000000000021e+00 -3.735390999999999906e+01 -1.020653933010305520e-01
-8.857200000000000628e+00 3.911099999999999710e+01 5.852400000000000269e+00 1.168436999999999948e+01 -3.500000000000000333e-01
-8.853600000000000136e+00 1.652199999999999847e+01 2.642099999999999937e+01 1.825823999999999891e+00 -2.649067684246825261e-01
-8.849399999999999267e+00 3.790100000000000335e+01 4.403600000000000136e+01 -3.580449999999999910e+00 -2.764440464576550793e-01
-8.845000000000000639e+00 3.673299999999999699e+01 -6.682900000000000063e+00 -3.800491000000000064e+00 -1.020318231198407560e-01
-8.837600000000000122e+00 1.618400000000000105e+01 1.110399999999999920e+01 -1.679119999999999990e+01 -2.457302135557168921e-01
-8.837400000000000588e+00 4.026899999999999835e+01 5.320299999999999585e+00 -7.269555999999999685e+00 -3.499999999999999778e-01
-8.833999999999999631e+00 1.315900000000000070e+01 7.113999999999999879e+00 3.173545999999999978e+01 -2.461382818080663226e-01
-8.833999999999999631e+00 1.402399999999999913e+01 7.113999999999999879e+00 6.025540000000000340e-01 -2.461220044611222291e-01
-8.829100000000000392e+00 3.333899999999999864e+01 4.835399999999999920e+01 2.109967999999999932e+01 -2.767495354275986141e-01
-8.813900000000000290e+00 3.525699999999999790e+01 1.286400000000000077e+01 7.743465000000000487e-01 -3.500000000000000333e-01
-8.808999999999999275e+00 3.127100000000000080e+01 -8.949500000000000455e+00 -5.269361999999999657e-01 -1.029915329210241426e-01
-8.807900000000000063e+00 8.422599999999999199e+00 1.343200000000000038e+01 2.060623000000000093e+00 -1.580933650825177839e-01
-8.802699999999999747e+00 4.075200000000000244e+01 4.267999999999999972e+01 -3.755792999999999893e+01 -2.759057728714808255e-01
-8.801000000000000156e+00 2.967299999999999827e+01 1.842099999999999937e+01 9.298334000000000543e+00 -2.627888002931468847e-01
-8.801000000000000156e+00 2.967299999999999827e+01 1.928699999999999903e+01 1.133550999999999931e+01 -2.630211829638320897e-01
-8.795299999999999230e+00 1.090600000000000058e+01 1.654599999999999937e+01 2.312867999999999924e+00 -1.579982648868602790e-01
-8.794999999999999929e+00 2.608599999999999852e+01 -5.720699999999999896e+00 -1.187634000000000079e+01 -2.455101165259945262e-01
-8.794000000000000483e+00 3.502799999999999869e+01 1.191300000000000026e+01 3.933976000000000139e-02 -3.499999999999999778e-01
-8.793300000000000338e+00 3.169300000000000139e+01 1.741900000000000048e+01 1.354675999999999991e+00 -3.499999999999999778e-01
-8.793200000000000571e+00 4.140200000000000102e+01 5.182900000000000063e+00 -8.163059999999999761e+00 -3.499999999999999778e-01
-8.788000000000000256e+00 1.605600000000000094e+01 1.878000000000000114e+01 3.131412999999999780e+00 -2.634590969386698123e-01
-8.788000000000000256e+00 1.766799999999999926e+01 1.878000000000000114e+01 4.460854000000000208e-01 -2.634118969468124405e-01
-8.787000000000000810e+00 1.437599999999999945e+01 2.530099999999999838e+01 -2.498173999999999850e+01 -2.646775858159192696e-01
-8.785299999999999443e+00 1.837399999999999878e+01 9.836600000000000676e+00 -2.067494999999999905e+01 -2.457825285541266336e-01
-8.782099999999999795e+00 2.952700000000000102e+01 4.610900000000000176e+01 7.105535999999999852e+00 -2.779994160556504279e-01
-8.779099999999999682e+00 9.056300000000000239e+00 8.544000000000000483e+00 -4.454946999999999768e+00 -2.461118362748532795e-01
-8.777400000000000091e+00 1.961899999999999977e+01 4.309799999999999898e+01 -3.584446999999999939e+00 -2.797751143505392557e-01
-8.776199999999999335e+00 4.316599999999999682e+01 1.194299999999999917e+00 -1.044164999999999921e+01 -9.833298645366636559e-02
-8.768700000000000827e+00 2.795400000000000063e+01 -1.068500000000000050e+01 -5.458606999999999765e+00 -3.500000000000000333e-01
-8.768399999999999750e+00 1.526399999999999935e+01 1.221799999999999997e+01 -1.167850999999999928e+01 -2.456627343516389617e-01
-8.767500000000000071e+00 4.411399999999999721e+01 -5.566200000000000259e+00 -1.141292999999999935e+01 -1.014102814846751938e-01
-8.766899999999999693e+00 2.834100000000000108e+01 4.437199999999999989e+01 2.190318999999999861e+01 -2.785811553662386197e-01
-8.762999999999999901e+00 1.424099999999999966e+01 3.977199999999999847e+01 -2.876237000000000155e+00 -2.662061113566483450e-01
-8.762999999999999901e+00 1.424099999999999966e+01 4.228000000000000114e+01 5.107351000000000418e+00 -2.798168298070761173e-01
-8.753800000000000026e+00 3.370300000000000296e+01 3.494100000000000250e+01 -3.469746999999999915e+00 -2.658284961446953920e-01
-8.751899999999999125e+00 1.880000000000000071e+01 1.953900000000000148e+01 -3.582543999999999951e+00 -2.635303397396212000e-01
-8.749499999999999389e+00 1.706200000000000117e+01 2.815800000000000125e+01 -1.882285999999999859e+01 -2.652470218759926390e-01
-8.745699999999999363e+00 3.306199999999999761e+01 1.817099999999999937e+01 7.461308999999999969e+00 -3.499999999999999778e-01
-8.743999999999999773e+00 2.999200000000000088e+01 1.736599999999999966e+01 7.461908999999999992e+01 -3.500000000000000333e-01
-8.743100000000000094e+00 1.644399999999999906e+01 6.658699999999999619e+00 -3.846935999999999911e+00 -2.461163369421581204e-01
-8.740000000000000213e+00 3.228999999999999915e+01 2.209700000000000131e+01 -1.339301999999999992e+01 -2.636875245275768220e-01
-8.740000000000000213e+00 3.384000000000000341e+01 2.209700000000000131e+01 -2.548425999999999902e+01 -2.636157286940030708e-01
-8.737999999999999545e+00 1.960099999999999909e+01 3.256900000000000261e+01 -3.720162000000000191e+00 -2.661404047914269766e-01
-8.737999999999999545e+00 1.980999999999999872e+01 3.183299999999999841e+01 -1.057180999999999926e+00 -2.660178887628722455e-01
-8.730800000000000338e+00 2.947400000000000020e+01 4.513000000000000256e+01 7.653923999999999950e+00 -2.782131338839085033e-01
-8.730000000000000426e+00 2.239900000000000091e+01 -3.219300000000000050e+00 -4.052915999999999741e+00 -2.461532958295595264e-01
-8.730000000000000426e+00 2.239900000000000091e+01 -1.258699999999999930e+00 -4.513316999999999801e+00 -2.461715188706402879e-01
-8.730000000000000426e+00 2.239900000000000091e+01 2.133599999999999941e-01 -1.879561999999999955e+00 -2.461872665705924779e-01
-8.730000000000000426e+00 2.260800000000000054e+01 -5.226699999999999680e-01 -1.879634999999999945e+00 -2.461432160323811791e-01
-8.722400000000000375e+00 1.558799999999999919e+01 1.146100000000000030e+01 -1.360899000000000036e+01 -2.457203050967518843e-01
-8.720800000000000551e+00 1.463799999999999990e+01 2.453300000000000125e+01 -2.157429000000000130e+01 -2.645442722258414259e-01
-8.719900000000000873e+00 2.529400000000000048e+01 4.704899999999999949e+01 -1.616965000000000074e+01 -2.785561467043428108e-01
-8.717900000000000205e+00 4.346900000000000119e+01 4.943400000000000016e-01 -1.220745999999999931e+01 -9.867091504539213243e-02
-8.704900000000000304e+00 3.770199999999999818e+01 3.920000000000000284e+01 3.453203999999999940e+00 -2.776110887268238292e-01
-8.700300000000000367e+00 3.103500000000000014e+01 2.280799999999999983e+01 -4.507399000000000377e+00 -2.639463519429449678e-01
-8.698399999999999466e+00 1.803000000000000114e+01 6.610000000000000320e+00 -6.756299000000000277e+00 -2.460908992121977334e-01
-8.696899999999999409e+00 1.506199999999999939e+01 2.292099999999999937e+01 -2.613504999999999967e+01 -2.642502901515349500e-01
-8.695299999999999585e+00 3.237800000000000011e+01 3.371800000000000352e+01 3.587352999999999792e+00 -2.659004540911517056e-01
-8.684599999999999653e+00 1.390399999999999991e+01 1.065399999999999991e+01 -2.745345999999999975e+01 -2.458405488833795283e-01
-8.682000000000000384e+00 3.681799999999999784e+01 3.888700000000000045e+01 7.822345000000000326e+00 -2.779358363645502705e-01
-8.679999999999999716e+00 2.012900000000000134e+01 4.990299999999999869e+01 -7.221570999999999962e+00 -2.787384437765457745e-01
-8.679999999999999716e+00 2.108699999999999974e+01 4.990299999999999869e+01 1.214170000000000016e+02 -2.786238126390246927e-01
-8.679999999999999716e+00 2.716700000000000159e+01 -9.631199999999999761e+00 -6.570966999999999558e+00 -3.499999999999999778e-01
-8.677699999999999747e+00 1.834600000000000009e+01 2.869999999999999929e+01 7.981283999999999601e+00 -2.653866884914827251e-01
-8.677699999999999747e+00 1.953699999999999903e+01 2.936299999999999955e+01 1.627036999999999978e+01 -2.655480898708308390e-01
-8.677699999999999747e+00 1.974599999999999866e+01 3.010000000000000142e+01 1.175939999999999941e+01 -2.656969794802769291e-01
-8.673700000000000188e+00 1.404800000000000004e+01 8.323100000000000165e+00 -8.172157000000000338e+00 -2.460299441347356952e-01
-8.673400000000000887e+00 1.392200000000000060e+01 1.208399999999999963e+01 -1.461952999999999925e+01 -2.457201621668725910e-01
-8.673000000000000043e+00 3.027499999999999858e+01 1.663200000000000145e+01 6.163065000000000282e+01 -3.500000000000000333e-01
-8.672700000000000742e+00 2.104500000000000171e+01 1.132700000000000040e+00 -3.563972000000000140e+00 -2.464352621607105720e-01
-8.672399999999999665e+00 1.833099999999999952e+01 4.205899999999999750e+01 7.515674999999999883e+00 -2.798833347633898905e-01
-8.671300000000000452e+00 1.657100000000000151e+01 1.035999999999999943e+01 -1.835221999999999909e+01 -2.457905306849309801e-01
-8.671099999999999142e+00 2.546000000000000085e+01 -5.325300000000000367e+00 -4.932389999999999830e+00 -2.456314815076590663e-01
-8.669399999999999551e+00 3.371000000000000085e+01 4.372399999999999665e+01 -6.009087000000000067e+00 -2.776000559106513998e-01
-8.669399999999999551e+00 3.371000000000000085e+01 4.459000000000000341e+01 -3.603413000000000199e+00 -2.774126356796529635e-01
-8.669299999999999784e+00 3.502700000000000102e+01 1.843199999999999861e+01 -7.977790000000000248e+01 -3.500000000000000333e-01
-8.664300000000000779e+00 2.990200000000000102e+01 2.118400000000000105e+01 9.155921999999999672e-01 -2.635309511580579134e-01
-8.664300000000000779e+00 2.990200000000000102e+01 2.205000000000000071e+01 -1.099398000000000097e+00 -2.637737025428091853e-01
-8.663999999999999702e+00 3.499900000000000233e+01 1.109299999999999997e+01 -1.291692999999999980e+00 -3.500000000000000333e-01
-8.662499999999999645e+00 1.528299999999999947e+01 2.536899999999999977e+01 -2.594617999999999824e+01 -2.647043822143694269e-01
-8.661400000000000432e+00 1.406799999999999962e+01 9.780599999999999739e+00 -1.871286999999999878e+01 -2.459097428313288813e-01
-8.660899999999999821e+00 1.926300000000000168e+01 2.199600000000000222e+00 1.466893000000000002e+00 -2.464518863913827129e-01
-8.657600000000000406e+00 2.088400000000000034e+01 5.217299999999999827e+00 1.025079000000000029e+01 -2.461646174386296626e-01
-8.657000000000000028e+00 1.516900000000000048e+01 2.192699999999999960e+01 -3.417134000000000071e+01 -2.640659433103375031e-01
-8.655699999999999505e+00 3.337400000000000233e+01 4.647099999999999653e+01 1.118471000000000082e+01 -2.771038583653693266e-01
-8.655699999999999505e+00 3.358299999999999841e+01 4.720700000000000074e+01 8.337111999999999412e+00 -2.769099791571053570e-01
-8.650399999999999423e+00 3.789399999999999835e+01 -7.262100000000000222e+00 -2.182371999999999979e+00 -1.022205860270423428e-01
-8.648400000000000531e+00 1.833399999999999963e+01 2.146900000000000119e+01 1.048433999999999955e+01 -2.639372673083174581e-01
-8.645899999999999253e+00 3.105999999999999872e+01 1.645700000000000074e+01 2.348898000000000152e+01 -3.500000000000000333e-01
-8.641299999999999315e+00 3.535399999999999920e+01 4.275500000000000256e+01 3.715556999999999999e+00 -2.774082058094361480e-01
-8.638899999999999579e+00 1.762800000000000011e+01 9.836800000000000210e+00 -2.003559999999999874e+01 -2.458089105856677281e-01
-8.635500000000000398e+00 1.647299999999999898e+01 3.242700000000000138e+00 -3.210211000000000148e+00 -2.464000900617769607e-01
-8.634900000000000020e+00 2.154700000000000060e+01 4.807500000000000107e+00 1.647502000000000066e+01 -2.461921925703311476e-01
-8.633499999999999730e+00 3.538499999999999801e+01 1.021700000000000053e+01 2.031034000000000006e+00 -3.499999999999999778e-01
-8.631999999999999673e+00 2.964199999999999946e+01 -1.062800000000000011e+01 -8.371511999999999176e+00 -1.035414652140230762e-01
-8.627700000000000813e+00 8.298000000000000043e+00 2.930299999999999905e+00 -5.913705000000000211e+00 -2.465002165544879220e-01
-8.627700000000000813e+00 9.817999999999999616e+00 2.930299999999999905e+00 -6.076607000000000092e+00 -2.464880293557053792e-01
-8.624000000000000554e+00 3.072100000000000009e+01 2.768199999999999861e+01 9.347789999999999822e+00 -2.653350414133059387e-01
-8.617100000000000648e+00 1.493299999999999983e+01 2.387900000000000134e+01 -1.112559000000000076e+01 -2.644295382759811464e-01
-8.615500000000000824e+00 1.979299999999999926e+01 4.912800000000000011e+01 -1.340896000000000043e+01 -2.789124220782938091e-01
-8.615399999999999281e+00 1.374499999999999922e+01 9.023099999999999454e+00 -2.188521000000000072e+01 -2.459816872850464908e-01
-8.615099999999999980e+00 1.361899999999999977e+01 1.138400000000000034e+01 -2.625997999999999877e+01 -2.457897872169323428e-01
-8.609700000000000131e+00 1.750199999999999889e+01 3.367900000000000205e+01 -3.716314000000000117e+00 -2.662185410873960656e-01
-8.608399999999999608e+00 1.414799999999999969e+01 6.513899999999999579e+00 -5.000289000000000428e+00 -2.461761250716028582e-01
-8.605999999999999872e+00 1.255400000000000027e+01 1.680600000000000094e+01 -1.869318000000000035e+00 -1.579843586402800981e-01
-8.605299999999999727e+00 3.648700000000000188e+01 4.351400000000000290e+01 -1.165183000000000080e+00 -2.769417359473683726e-01
-8.603099999999999525e+00 3.416499999999999915e+01 -8.276099999999999568e+00 -2.241121000000000141e+00 -1.027031290066690722e-01
-8.600099999999999412e+00 1.758500000000000085e+01 2.181800000000000139e+01 2.090040000000000120e+00 -2.640198251467541501e-01
-8.599700000000000344e+00 7.195000000000000284e+00 7.323699999999999655e+00 -1.115030999999999928e+01 -2.462325635928202527e-01
-8.599000000000000199e+00 7.095900000000000318e+00 4.804199999999999804e+00 -6.852816999999999936e+00 -2.463954016219590260e-01
-8.597899999999999210e+00 1.900199999999999889e+01 9.752499999999999503e+00 -2.016115999999999886e+01 -2.457782506133707745e-01
-8.595200000000000173e+00 3.332399999999999807e+01 -8.372500000000000497e+00 -2.959055000000000213e+00 -1.027678588806032467e-01
-8.586899999999999977e+00 2.035699999999999932e+01 9.808699999999999974e+00 -1.320156000000000063e+01 -2.457321656081263295e-01
-8.586899999999999977e+00 2.154799999999999827e+01 9.144700000000000273e+00 -1.184257999999999988e+01 -2.457640691296635038e-01
-8.580899999999999750e+00 3.388600000000000279e+01 2.464199999999999946e+01 -1.283765999999999963e+01 -2.643966795097805744e-01
-8.580199999999999605e+00 3.229299999999999926e+01 -8.314700000000000202e+00 -3.886120000000000019e+00 -1.027954251951481018e-01
-8.580000000000000071e+00 2.006400000000000006e+01 4.836099999999999710e+01 -1.348146000000000022e+01 -2.790173192659392010e-01
-8.577999999999999403e+00 9.067899999999999849e+00 1.520599999999999952e+01 1.553174999999999972e+00 -1.580240278057112313e-01
-8.577099999999999724e+00 1.747500000000000142e+01 3.655400000000000205e+01 2.348618999999999790e+00 -2.662568274373614541e-01
-8.577099999999999724e+00 1.747500000000000142e+01 3.802600000000000335e+01 -1.421597000000000000e+00 -2.662642081789304283e-01
-8.577099999999999724e+00 1.768400000000000105e+01 3.728999999999999915e+01 -5.007278000000000340e+00 -2.662634689185433001e-01
-8.573299999999999699e+00 1.541499999999999915e+01 4.219899999999999984e+00 -6.410991000000000106e+00 -2.463393002272578070e-01
-8.570299999999999585e+00 1.575099999999999945e+01 1.040399999999999991e+01 -1.794483999999999924e+01 -2.458135106944683845e-01
-8.570100000000000051e+00 2.297400000000000020e+01 4.781100000000000350e+00 8.279904000000000508e+01 -3.500000000000000333e-01
-8.569599999999999440e+00 3.071799999999999997e+01 -9.691100000000000492e+00 -2.144156000000000173e+00 -1.032604407403703017e-01
-8.567000000000000171e+00 2.691700000000000159e+01 4.514900000000000091e+01 2.450929999999999964e+01 -2.786824015348992045e-01
-8.564799999999999969e+00 3.101000000000000156e+01 3.251100000000000279e+01 7.049406000000000283e-01 -2.659669621338994761e-01
-8.559400000000000119e+00 1.402999999999999936e+01 1.737000000000000099e+01 2.914665000000000106e+01 -2.632632552578597074e-01
-8.555999999999999162e+00 1.618499999999999872e+01 2.187000000000000099e+01 -2.659863999999999962e+01 -2.640472954195028921e-01
-8.550100000000000477e+00 2.980199999999999960e+01 2.067399999999999949e+01 1.498283000000000031e+00 -2.633931153702623318e-01
-8.550100000000000477e+00 1.445100000000000051e+01 5.813900000000000290e+00 -6.717503999999999920e+00 -2.462288394519726586e-01
-8.549300000000000566e+00 8.704499999999999460e+00 1.439300000000000068e+01 -9.417090999999999656e-02 -1.580480082789814111e-01
-8.544700000000000628e+00 3.525900000000000034e+01 9.303699999999999193e+00 2.384256999999999849e+00 -2.429259164131968574e-01
-8.544700000000000628e+00 3.546800000000000352e+01 8.567600000000000549e+00 2.870673000000000030e+00 -2.428743507816419345e-01
-8.539600000000000080e+00 8.429000000000000270e+00 7.983100000000000307e+00 -1.653922000000000025e+01 -2.461701839782279855e-01
-8.528000000000000469e+00 2.437500000000000000e+01 -4.503999999999999559e+00 -4.149727000000000388e+00 -2.458352718444333784e-01
-8.527699999999999392e+00 2.651899999999999835e+01 -6.420700000000000074e+00 -1.645397000000000176e+01 -2.454624721816845434e-01
-8.527599999999999625e+00 3.045599999999999952e+01 4.968699999999999761e+01 4.869762000000000057e+01 -2.771371198047161699e-01
-8.526699999999999946e+00 1.112199999999999989e+01 4.839100000000000179e+00 -8.368973999999999691e+00 -2.463497867686701426e-01
-8.525999999999999801e+00 3.236800000000000210e+01 1.779799999999999827e+01 -1.313830999999999971e+00 -3.499999999999999778e-01
-8.524599999999999511e+00 1.882300000000000040e+01 4.246900000000000119e+01 3.351074999999999804e+00 -2.798552280761491540e-01
-8.523999999999999133e+00 2.635200000000000031e+01 4.611800000000000210e+01 -8.864152000000000697e+00 -2.785829404342386462e-01
-8.522000000000000242e+00 3.198999999999999844e+01 -9.014699999999999491e+00 -1.089093000000000089e+00 -1.030259801549444215e-01
-8.519299999999999429e+00 4.304899999999999949e+01 2.433600000000000207e+00 -6.156234999999999680e+00 -9.770202660073695755e-02
-8.519299999999999429e+00 4.304899999999999949e+01 4.258399999999999963e+00 -7.418391999999999875e+00 -3.499999999999999778e-01
-8.515700000000000713e+00 3.150300000000000011e+01 4.965899999999999892e+01 2.448948000000000036e+02 -2.769225357905937268e-01
-8.515000000000000568e+00 1.418299999999999983e+01 5.054999999999999716e+00 -6.174515999999999671e+00 -2.462936983219930487e-01
-8.514499999999999957e+00 3.358500000000000085e+01 4.557399999999999807e+01 8.454222999999999599e-01 -2.772394908844266759e-01
-8.513700000000000045e+00 3.486099999999999710e+01 1.366999999999999993e+01 3.823888999999999871e+00 -3.500000000000000333e-01
-8.513700000000000045e+00 3.486099999999999710e+01 1.453599999999999959e+01 -8.015299000000000618e+00 -3.500000000000000333e-01
-8.512900000000000134e+00 1.775700000000000145e+01 2.429699999999999971e+00 -3.474574000000000273e-01 -2.464563423726922609e-01
-8.511900000000000688e+00 3.557200000000000273e+01 3.543500000000000227e+01 -1.624390999999999918e+00 -2.791576485338881364e-01
-8.510300000000000864e+00 4.427300000000000324e+01 -8.734799999999999898e+00 -3.891890000000000072e+00 -1.026612455334036528e-01
-8.510099999999999554e+00 4.332300000000000040e+01 3.346000000000000085e+00 -5.615949999999999775e+00 -9.720050060450038942e-02
-8.500999999999999446e+00 2.027599999999999980e+01 4.461200000000000188e+01 -4.268521999999999927e+00 -2.796342247211123233e-01
-8.495799999999999130e+00 3.843900000000000006e+01 3.920000000000000284e+01 -2.756253000000000064e+00 -2.774072882168512888e-01
-8.493999999999999773e+00 1.272100000000000009e+01 6.517999999999999794e+00 -6.317378999999999634e-01 -2.462047895440656053e-01
-8.493999999999999773e+00 1.358600000000000030e+01 6.517999999999999794e+00 -4.399845000000000006e+00 -2.461901024114566405e-01
-8.493700000000000472e+00 4.075000000000000000e+01 5.695000000000000284e+00 -2.907316000000000145e+01 -3.499999999999999778e-01
-8.486700000000000799e+00 2.411899999999999977e+01 4.747399999999999665e+01 -7.810272000000000325e+00 -2.786663512423945277e-01
-8.485300000000000509e+00 1.722500000000000142e+01 6.542900000000000382e+00 3.037848999999999933e+01 -2.461216183651179779e-01
-8.485300000000000509e+00 1.166000000000000014e+01 5.426000000000000156e+00 -6.754722000000000115e+00 -2.463025154236127001e-01
-8.484600000000000364e+00 1.686199999999999832e+01 1.883899999999999864e+01 1.419208000000000025e+00 -2.634472416915402126e-01
-8.484600000000000364e+00 1.836799999999999855e+01 1.883899999999999864e+01 -5.405007000000000339e+00 -2.634010079897942669e-01
-8.483299999999999841e+00 2.312300000000000111e+01 7.621100000000000207e+00 2.401338000000000150e+01 -3.499999999999999778e-01
-8.482400000000000162e+00 3.850699999999999790e+01 6.234099999999999753e+00 2.165440999999999949e+00 -3.500000000000000333e-01
-8.476000000000000867e+00 1.638299999999999912e+01 4.234000000000000341e+01 1.642679000000000000e+00 -2.798554340788703132e-01
-8.470000000000000639e+00 1.576200000000000045e+01 3.921699999999999875e+01 -2.231989000000000001e+00 -2.662545054953666113e-01
-8.467700000000000671e+00 3.206499999999999773e+01 1.709799999999999898e+01 -6.848105999999999582e+00 -3.499999999999999223e-01
-8.467299999999999827e+00 1.517500000000000071e+01 1.070299999999999940e+01 -1.735772000000000048e+01 -2.458070170906910268e-01
-8.463499999999999801e+00 2.764099999999999824e+01 4.442999999999999972e+01 1.144530999999999921e+01 -2.787160923357750453e-01
-8.463499999999999801e+00 2.904100000000000037e+01 4.442999999999999972e+01 6.306836999999999804e+00 -2.784612077875106007e-01
-8.459699999999999775e+00 3.249699999999999989e+01 2.668700000000000117e+01 1.260296999999999912e+01 -2.650514767257138304e-01
-8.457399999999999807e+00 4.104999999999999716e+01 -8.900299999999999656e+00 2.232712999999999948e+00 -1.027502418453127842e-01
-8.455899999999999750e+00 4.063499999999999801e+01 3.511999999999999744e+01 -5.545896000000000159e-01 -2.777942985632114170e-01
-8.455500000000000682e+00 4.209899999999999665e+01 5.069300000000000139e+00 -1.560187999999999953e+01 -3.499999999999999778e-01
-8.451700000000000657e+00 1.451200000000000045e+01 4.294999999999999929e+00 -1.166710999999999920e+01 -2.463504924322662271e-01
-8.451200000000000045e+00 2.951800000000000068e+01 1.659900000000000020e+01 5.225023999999999802e+01 -3.499999999999999778e-01
-8.448399999999999466e+00 3.629999999999999716e+01 -7.173799999999999955e+00 -5.749120999999999704e+00 -1.022786172085070611e-01
-8.444000000000000838e+00 3.431900000000000261e+01 2.287199999999999989e+01 -8.961130999999999958e+00 -2.638368210702778938e-01
-8.444000000000000838e+00 3.431900000000000261e+01 2.382999999999999829e+01 -1.202734000000000059e+01 -2.641360319301617743e-01
-8.437500000000000000e+00 3.727000000000000313e+01 3.989999999999999858e+01 -5.114186000000000121e+00 -2.775731307935929149e-01
-8.437500000000000000e+00 3.813499999999999801e+01 3.850000000000000000e+01 -2.145878000000000022e-02 -2.776749150475565364e-01
-8.437500000000000000e+00 3.813499999999999801e+01 3.989999999999999858e+01 -6.695924999999999905e+00 -2.773251308162813511e-01
-8.435800000000000409e+00 3.184100000000000108e+01 4.890299999999999869e+01 3.732759000000000071e+01 -2.769871952633354284e-01
-8.435700000000000642e+00 3.938499999999999801e+01 -8.727299999999999613e+00 -8.330640999999999741e-01 -1.027222813630523507e-01
-8.424400000000000333e+00 3.589900000000000091e+01 3.879800000000000182e+01 2.803535999999999806e+00 -2.782239281718681401e-01
-8.420999999999999375e+00 1.722200000000000131e+01 2.668799999999999883e+01 2.573344000000000165e+01 -2.649908485097921540e-01
-8.419800000000000395e+00 1.485699999999999932e+01 9.785199999999999676e+00 -1.499466999999999928e+01 -2.458968530036242939e-01
-8.418799999999999173e+00 1.988100000000000023e+01 4.404999999999999716e+01 -3.031975000000000087e+00 -2.797005053005978126e-01
-8.416000000000000369e+00 4.188900000000000290e+01 3.596000000000000085e+01 -4.563022000000000133e+00 -2.771665908288777902e-01
-8.414699999999999847e+00 3.638499999999999801e+01 3.958700000000000330e+01 -1.113087999999999944e+01 -2.778969576183885626e-01
-8.414699999999999847e+00 3.725099999999999767e+01 3.818699999999999761e+01 3.841572000000000209e+00 -2.780094401993538078e-01
-8.412100000000000577e+00 3.038100000000000023e+01 3.010600000000000165e+01 -5.406852999999999909e+00 -2.659385378326973859e-01
-8.412100000000000577e+00 3.038100000000000023e+01 3.097100000000000009e+01 -7.713799999999999990e+00 -2.659709825715915743e-01
-8.407700000000000173e+00 4.178000000000000114e+01 3.771900000000000119e+01 9.830610999999999322e+00 -2.767438352328381868e-01
-8.406499999999999417e+00 2.308699999999999974e+01 4.834799999999999898e+01 2.159397999999999929e+00 -2.786545757844279825e-01
-8.406000000000000583e+00 1.435500000000000043e+01 1.138400000000000034e+01 -3.265341000000000093e+01 -2.457740303125111603e-01
-8.405599999999999739e+00 4.171699999999999875e+01 -8.810299999999999798e+00 2.216505999999999865e+00 -1.027199748350124259e-01
-8.404099999999999682e+00 3.306499999999999773e+01 2.203200000000000003e+01 -8.171364000000000516e+00 -2.636365713641998787e-01
-8.402699999999999392e+00 2.042999999999999972e+01 1.347299999999999942e+00 -4.340226000000000361e+00 -2.465242859330032399e-01
-8.401999999999999247e+00 3.414300000000000068e+01 4.302400000000000091e+01 -5.299883000000000344e+00 -2.776622212129541412e-01
-8.399599999999999511e+00 1.488899999999999935e+01 8.332300000000000040e+00 -1.081711999999999918e+01 -2.460204166550016558e-01
-8.398699999999999832e+00 3.695499999999999829e+01 4.362599999999999767e+01 -5.532877000000000045e+00 -2.767914857452667965e-01
-8.398699999999999832e+00 3.865500000000000114e+01 4.362599999999999767e+01 -1.437491999999999948e+01 -2.763106841548287895e-01
-8.397500000000000853e+00 3.684300000000000352e+01 3.575099999999999767e+01 7.194715000000000416e+00 -2.787550123397152246e-01
-8.397199999999999775e+00 2.284299999999999997e+01 -3.616800000000000015e+00 -6.269668000000000241e+00 -2.461134726425830144e-01
-8.396900000000000475e+00 3.033500000000000085e+01 2.275000000000000000e+01 -1.044402999999999970e+01 -2.639626630688034492e-01
-8.396900000000000475e+00 3.173499999999999943e+01 2.275000000000000000e+01 -1.030328000000000088e+01 -2.639106148867031432e-01
-8.396900000000000475e+00 3.169600000000000151e+01 1.624800000000000111e+01 -8.345204000000000732e+00 -3.499999999999999778e-01
-8.392899999999999139e+00 2.982199999999999918e+01 1.589899999999999913e+01 3.573986000000000018e+01 -3.500000000000000333e-01
-8.391099999999999781e+00 4.444800000000000040e+01 -4.117399999999999949e+00 -1.221193000000000062e+01 -1.008414653159404317e-01
-8.390599999999999170e+00 3.549399999999999977e+01 1.783299999999999841e+01 -3.479337000000000302e+01 -3.499999999999999778e-01
-8.390000000000000568e+00 3.170299999999999940e+01 -9.648999999999999133e+00 1.263373999999999953e+01 -1.032413833029062200e-01
-8.389699999999999491e+00 3.742000000000000171e+01 7.112300000000000288e+00 2.065754999999999786e+00 -3.500000000000000333e-01
-8.381299999999999528e+00 2.958200000000000074e+01 4.798899999999999721e+01 -9.847316000000000402e-01 -2.776341762222839238e-01
-8.378099999999999881e+00 1.577500000000000036e+01 2.253600000000000136e+01 -1.220758000000000010e+01 -2.641824596280223925e-01
-8.377299999999999969e+00 1.597799999999999976e+01 2.562800000000000011e+01 -7.176287000000000638e-02 -2.647724467963136763e-01
-8.377299999999999969e+00 3.391199999999999903e+01 1.824200000000000088e+01 -1.755894999999999939e+01 -3.499999999999999778e-01
-8.377000000000000668e+00 1.973699999999999832e+01 3.113299999999999912e+01 8.133893000000000484e+00 -2.659186891653154694e-01
-8.373799999999999244e+00 1.453299999999999947e+01 9.027699999999999392e+00 -1.449024999999999963e+01 -2.459709947676937958e-01
-8.368999999999999773e+00 1.763100000000000023e+01 4.200099999999999767e+01 3.803735999999999784e+00 -2.799054815104772831e-01
-8.366899999999999338e+00 2.203300000000000125e+01 8.611299999999999955e+00 -6.559362000000000137e+00 -2.458135733155188407e-01
-8.366099999999999426e+00 3.620300000000000296e+01 3.809799999999999898e+01 5.423187000000000424e+00 -2.783245594067374484e-01
-8.359700000000000131e+00 3.441499999999999915e+01 3.507900000000000063e+01 -3.144016000000000144e+00 -2.795531888651437979e-01
-8.356600000000000250e+00 3.572200000000000131e+01 1.232199999999999918e+01 4.922142000000000017e+00 -3.500000000000000333e-01
-8.354100000000000747e+00 1.501600000000000001e+01 4.267300000000000182e+01 -1.319069999999999965e+01 -2.798176166934423503e-01
-8.352600000000000691e+00 3.594500000000000028e+01 3.577900000000000347e+01 1.355453999999999937e+00 -2.789927692396380055e-01
-8.346600000000000463e+00 2.734600000000000009e+01 -1.031900000000000084e+01 -7.991246000000000294e+00 -3.499999999999999778e-01
-8.340999999999999304e+00 1.371499999999999986e+01 5.813900000000000290e+00 -6.076697000000000237e+00 -2.462491035515563809e-01
-8.338599999999999568e+00 3.052799999999999869e+01 1.554800000000000004e+01 1.454421999999999926e+01 -3.499999999999999778e-01
-8.338599999999999568e+00 3.139300000000000068e+01 1.554800000000000004e+01 -6.265928999999999860e+00 -3.499999999999999778e-01
-8.337899999999999423e+00 3.465400000000000347e+01 4.281400000000000006e+01 -1.624437999999999960e+01 -2.775849800715187166e-01
-8.337899999999999423e+00 3.605400000000000205e+01 4.281400000000000006e+01 -8.975663000000000835e+00 -2.772195007037052683e-01
-8.336499999999999133e+00 2.164199999999999946e+01 4.925000000000000000e+01 2.794755999999999929e+01 -2.786878352777583112e-01
-8.333899999999999864e+00 4.396200000000000330e+01 1.110099999999999976e-02 -1.805622999999999934e+01 -9.890745850572572884e-02
-8.333000000000000185e+00 3.999199999999999733e+01 4.296999999999999886e+01 -2.513353000000000037e+01 -2.760552986810417275e-01
-8.333000000000000185e+00 4.128499999999999659e+01 4.224900000000000233e+01 -2.996509000000000000e+01 -2.758155885554779418e-01
-8.333000000000000185e+00 4.151200000000000045e+01 4.145000000000000284e+01 -3.342262000000000199e+01 -2.759232362470109834e-01
-8.330000000000000071e+00 3.571200000000000330e+01 -8.032500000000000639e+00 -5.861162000000000205e+00 -1.026093389549399548e-01
-8.327600000000000335e+00 4.514900000000000091e+01 -2.458400000000000141e+00 -8.152475000000000804e+00 -1.000835135338945803e-01
-8.320499999999999119e+00 3.701899999999999835e+01 -7.238999999999999879e+00 -4.436594999999999622e+00 -1.022935446212981658e-01
-8.318899999999999295e+00 4.510000000000000142e+01 -1.453100000000000058e+00 -1.605711000000000155e+01 -9.960307173547972015e-02
-8.317299999999999471e+00 3.528199999999999648e+01 -8.292999999999999261e+00 -6.648482999999999699e+00 -1.027120283186512273e-01
-8.316499999999999559e+00 1.917000000000000171e+01 6.460099999999999731e+00 -2.051711999999999980e-01 -2.460974596857782859e-01
-8.314999999999999503e+00 2.049599999999999866e+01 4.890899999999999892e+01 -1.111594000000000015e+01 -2.788894528181825594e-01
-8.314399999999999125e+00 2.645299999999999940e+01 -9.154400000000000759e+00 -5.302094000000000307e+00 -3.499999999999999778e-01
-8.314299999999999358e+00 1.592999999999999972e+01 7.495300000000000296e+00 -7.210550999999999711e+00 -2.460722645682362764e-01
-8.310000000000000497e+00 7.708000000000000185e+00 1.201699999999999946e+01 -1.558875000000000122e-01 -1.581133245725594716e-01
-8.310000000000000497e+00 7.961899999999999977e+00 1.112299999999999933e+01 -2.394734000000000140e+00 -1.581447517668269909e-01
-8.310000000000000497e+00 7.961899999999999977e+00 1.291099999999999959e+01 -1.184541999999999984e+00 -1.580831488790695183e-01
-8.310000000000000497e+00 8.969099999999999184e+00 1.011599999999999966e+01 8.334930000000000394e-01 -2.460168389788042198e-01
-8.310000000000000497e+00 9.178200000000000358e+00 9.380000000000000782e+00 -2.640375999999999834e+00 -2.460653192658140420e-01
