-4.157200000000000273e+01 2.159299999999999997e+01 1.388499999999999979e+01 -2.485265000000000057e+00 -3.836908431604093006e-01
-4.156700000000000017e+01 2.516700000000000159e+01 1.260899999999999999e+01 8.111545000000000005e-01 -3.805195220022842273e-01
-4.156600000000000250e+01 3.089900000000000091e+01 4.464500000000000135e+00 2.346734000000000009e+01 9.389119006662471900e-02
-4.155799999999999983e+01 1.783500000000000085e+01 1.894000000000000128e+01 -4.661412000000000333e+00 -3.499999999999999778e-01
-4.155100000000000193e+01 2.114900000000000091e+01 2.087199999999999989e+01 -4.274176999999999893e+00 -3.828856511912356875e-01
-4.155100000000000193e+01 2.114900000000000091e+01 2.173799999999999955e+01 -5.280160000000000409e+00 -3.828316086911248695e-01
-4.154999999999999716e+01 2.022400000000000020e+01 1.390000000000000036e+01 1.771104000000000012e-01 -3.854520596543938860e-01
-4.154800000000000182e+01 1.056799999999999962e+01 5.434599999999999653e+00 -6.426281000000000354e+00 1.513891798682459877e-01
-4.154500000000000171e+01 3.878999999999999915e+01 1.524200000000000088e+01 -3.534635000000000105e+01 -1.949985192644055898e-01
-4.154200000000000159e+01 3.891100000000000136e+01 5.137599999999999945e+00 -2.155429000000000173e+01 -2.090620379836020393e-01
-4.153600000000000136e+01 2.913400000000000034e+01 -1.032899999999999964e-02 1.076758000000000060e+01 1.673664392407956947e-01
-4.153499999999999659e+01 1.916300000000000026e+01 2.013800000000000168e+01 -2.617071000000000147e+00 -3.499999999999999778e-01
-4.153199999999999648e+01 2.544300000000000139e+01 9.769700000000000273e+00 1.020642999999999967e+00 -3.827115126009869583e-01
-4.153000000000000114e+01 3.213700000000000045e+01 5.169400000000000439e+00 3.288580000000000059e+00 9.347745523595860084e-02
-4.152199999999999847e+01 3.762899999999999778e+01 9.444699999999999207e+00 3.231752000000000180e+00 -2.025090716731548779e-01
-4.151800000000000068e+01 2.307199999999999918e+01 1.310200000000000031e+01 1.718601999999999963e+00 -3.820607238871902012e-01
-4.151400000000000290e+01 2.928500000000000014e+01 9.831299999999999484e-01 1.149081999999999937e+01 9.751481469144235303e-02
-4.151100000000000279e+01 1.579899999999999949e+01 6.394700000000000273e+00 5.593585000000000029e+00 -3.466571167637355622e-02
-4.150200000000000244e+01 1.310100000000000087e+01 1.244800000000000040e+01 2.124271999999999938e+00 -3.884430520568879497e-01
-4.150200000000000244e+01 2.361799999999999855e+01 4.094299999999999606e+00 -2.213410000000000100e+00 3.039764891034826139e-02
-4.149900000000000233e+01 1.264899999999999913e+01 1.168200000000000038e+01 1.407710999999999935e+01 -3.872294803443043221e-01
-4.149900000000000233e+01 1.264899999999999913e+01 1.308200000000000074e+01 -3.214713999999999849e+00 -3.873613633377216980e-01
-4.149900000000000233e+01 1.737600000000000122e+01 1.797599999999999909e+01 -9.255378999999999579e+00 -3.499999999999999778e-01
-4.149699999999999989e+01 4.013799999999999812e+01 1.336999999999999922e+01 -2.018495000000000061e+01 -9.756279597687103622e-02
-4.149499999999999744e+01 2.454700000000000060e+01 1.307600000000000051e+01 1.743449999999999944e+00 -3.805853840958061118e-01
-4.149399999999999977e+01 1.100600000000000023e+01 1.244200000000000017e+01 1.993649999999999878e+01 -3.830903730496394433e-01
-4.148799999999999955e+01 4.008899999999999864e+01 1.437500000000000000e+01 -1.456626999999999938e+01 -9.605714345362220685e-02
-4.148700000000000188e+01 2.510399999999999920e+01 2.463599999999999923e+01 4.851194999999999702e+00 -2.726993940873435607e-01
-4.147500000000000142e+01 2.182499999999999929e+01 2.215599999999999881e+01 -1.792390999999999934e+01 -3.824476746404240624e-01
-4.146800000000000352e+01 1.154599999999999937e+01 1.171199999999999974e+01 1.772792000000000101e+01 -3.841184129537220104e-01
-4.146600000000000108e+01 8.541499999999999204e+00 1.168599999999999994e+01 5.448498999999999981e+00 -6.867814281629799900e-02
-4.145799999999999841e+01 1.004599999999999937e+01 1.644500000000000028e+01 -4.066863000000000028e+01 -2.003430073589759497e-01
-4.145300000000000296e+01 1.610200000000000031e+01 7.094699999999999562e+00 9.066229999999999775e-03 -3.170065301782203776e-02
-4.144599999999999795e+01 3.718900000000000006e+01 4.880300000000000082e+00 -4.388091000000000186e+00 -2.098020712051848480e-01
-4.143699999999999761e+01 2.365099999999999980e+01 -6.039999999999999813e-01 -1.025320000000000009e+00 -1.615256203220906961e-01
-4.143599999999999994e+01 1.130899999999999928e+01 1.314199999999999946e+01 1.404171000000000014e+01 -3.842856152432860273e-01
-4.143200000000000216e+01 1.297600000000000087e+01 1.609600000000000009e+01 -4.296746000000000265e+01 -3.499999999999999778e-01
-4.143200000000000216e+01 1.437599999999999945e+01 1.609600000000000009e+01 6.910688999999999638e+00 -3.499999999999999778e-01
-4.142699999999999960e+01 1.141399999999999970e+01 4.687100000000000044e+00 -4.623075000000000045e+00 1.180396185391310998e-01
-4.142399999999999949e+01 2.942500000000000071e+01 1.674600000000000088e+00 5.467307999999999613e-01 9.715920752400331040e-02
-4.142399999999999949e+01 3.342900000000000205e+01 4.523900000000000254e+00 -4.282390999999999615e+00 9.418988442925788074e-02
-4.141599999999999682e+01 3.525900000000000034e+01 1.605499999999999972e+01 -1.536652999999999913e+01 -1.872629710976100037e-01
-4.140999999999999659e+01 3.156700000000000017e+01 2.080499999999999972e+01 2.086848999999999954e+00 -2.696173459326399735e-01
-4.139300000000000068e+01 3.627799999999999869e+01 1.516999999999999993e+01 -5.864017999999999731e+00 -1.909055400944250636e-01
-4.139099999999999824e+01 8.522999999999999687e+00 1.481400000000000006e+01 -6.981346999999999969e-01 -1.911571008897059443e-01
-4.139099999999999824e+01 8.750000000000000000e+00 1.254299999999999926e+01 3.287218999999999891e+00 -3.778429755602742968e-01
-4.139099999999999824e+01 8.750000000000000000e+00 1.401500000000000057e+01 -9.520523000000000735e+00 -1.833704879554121370e-01
-4.139099999999999824e+01 8.750000000000000000e+00 1.561299999999999955e+01 -1.520618999999999943e+01 -1.971457909098925376e-01
-4.139099999999999824e+01 8.959099999999999397e+00 1.327899999999999991e+01 5.477304000000000200e-02 -1.753529719125718200e-01
-4.138700000000000045e+01 2.274500000000000099e+01 4.359999999999999987e-01 -2.609745000000000203e+00 -1.412769799072690069e-01
-4.137299999999999756e+01 2.311199999999999832e+01 2.314099999999999824e+01 -4.174449000000000076e+00 -3.818512150280670703e-01
-4.136999999999999744e+01 1.540900000000000070e+01 1.680699999999999861e+01 -2.296015000000000139e+00 -3.499999999999999778e-01
-4.136500000000000199e+01 2.616100000000000136e+01 -1.028999999999999915e+00 6.823651000000000022e-02 1.636492542794156790e-01
-4.136500000000000199e+01 2.711899999999999977e+01 -1.028999999999999915e+00 5.838867999999999725e+00 1.644491487186780510e-01
-4.136500000000000199e+01 1.262800000000000011e+01 1.298499999999999988e+00 -1.969821999999999962e+00 2.176223352917838194e-01
-4.136200000000000188e+01 3.750699999999999790e+01 1.033099999999999952e+01 -2.928155999999999981e+00 -2.012325779972325424e-01
-4.134400000000000119e+01 3.882200000000000273e+01 6.359799999999999898e+00 -2.154677999999999827e+01 -2.074989257917550789e-01
-4.133200000000000074e+01 2.570499999999999829e+01 1.185299999999999976e+01 6.586752999999999636e-01 -3.802943164098308571e-01
-4.132800000000000296e+01 1.016200000000000081e+01 8.047599999999999199e+00 2.105151999999999912e+00 -1.007393094967911767e-01
-4.132399999999999807e+01 1.566799999999999926e+01 5.209299999999999820e+00 5.143426999999999971e+00 -3.376696098085003872e-02
-4.131700000000000017e+01 2.365099999999999980e+01 2.379400000000000048e+01 3.366095000000000059e+00 -3.816633426135399021e-01
-4.131600000000000250e+01 2.237600000000000122e+01 1.286000000000000032e+00 -1.351584000000000119e-01 1.886476967288865381e-01
-4.131499999999999773e+01 1.099300000000000033e+01 1.637600000000000122e+01 -2.020555999999999841e+01 -1.991595154110518684e-01
-4.131199999999999761e+01 3.288300000000000267e+01 2.273600000000000065e+01 -2.011088000000000164e+01 -2.715399233480190189e-01
-4.131199999999999761e+01 3.443299999999999983e+01 2.273600000000000065e+01 4.001343999999999568e+00 -2.718751734498593420e-01
-4.130199999999999960e+01 1.581900000000000084e+01 4.215900000000000425e+00 -1.534073000000000020e+00 -4.319824004688658375e-02
-4.129999999999999716e+01 1.118999999999999950e+01 5.531100000000000350e+00 -1.321029000000000009e+00 1.393336535358719874e-01
-4.128900000000000148e+01 1.302100000000000080e+01 1.133500000000000085e+01 1.319638999999999918e+01 -5.513281111697890952e-02
-4.128399999999999892e+01 2.071600000000000108e+01 2.017200000000000060e+01 6.918491999999999642e+00 -3.831390232990004585e-01
-4.128300000000000125e+01 2.974399999999999977e+01 2.079299999999999926e+01 -2.475839999999999819e+00 -3.794006392010236817e-01
-4.128099999999999881e+01 1.325999999999999979e+01 -7.543299999999999450e-01 5.872821999999999765e-01 2.219575185132564576e-01
-4.127100000000000080e+01 3.675000000000000000e+01 5.047299999999999898e+00 -2.457548000000000066e+00 -2.097895291675409557e-01
-4.126899999999999835e+01 2.089300000000000068e+01 1.394299999999999962e+01 -2.164578999999999809e+00 -3.844368427015491529e-01
-4.126800000000000068e+01 1.830399999999999849e+01 1.969900000000000162e+01 -2.861140999999999934e+00 -3.499999999999999778e-01
-4.126299999999999812e+01 2.416700000000000159e+01 8.713499999999999801e+00 8.494135999999999909e-01 -3.854737794865191747e-01
-4.125600000000000023e+01 1.004299999999999926e+01 1.233000000000000007e+01 7.484619000000000355e+00 -3.806373092743594033e-01
-4.125000000000000000e+01 2.329599999999999937e+01 1.931700000000000084e-01 -8.191779000000000366e+00 -1.439588111751753108e-01
-4.124900000000000233e+01 3.796500000000000341e+01 1.521199999999999974e+01 -8.602705999999999520e+00 -1.938358878589973577e-01
-4.124600000000000222e+01 3.533100000000000307e+01 5.027000000000000135e+00 -3.888825000000000198e+00 -2.100541988805924021e-01
-4.124099999999999966e+01 1.636700000000000088e+01 1.688700000000000045e+01 -1.486720000000000041e+01 -3.500000000000000333e-01
-4.123400000000000176e+01 2.560399999999999920e+01 1.077999999999999936e+01 -1.073539000000000021e+00 -3.810844580363853540e-01
-4.123199999999999932e+01 1.694300000000000139e+01 1.727599999999999980e+01 -1.300164000000000009e+01 -3.500000000000000333e-01
-4.123199999999999932e+01 1.537899999999999956e+01 6.002500000000000391e+00 1.156301000000000023e+01 -4.438357004230379654e-02
-4.122699999999999676e+01 2.687999999999999901e+01 2.439499999999999957e+01 4.547848000000000113e+00 -2.724318801951585156e-01
-4.122699999999999676e+01 3.921300000000000097e+01 1.185500000000000043e+01 -2.391528999999999794e+00 -2.003276990048693806e-01
-4.122299999999999898e+01 1.502500000000000036e+01 -8.719400000000000484e-01 1.457514999999999894e+00 -1.085804826870837569e-01
-4.121800000000000352e+01 8.612000000000000099e+00 8.521699999999999164e+00 1.354756999999999989e+00 -9.090274536677080131e-02
-4.121500000000000341e+01 1.585200000000000031e+01 1.409299999999999997e+00 -1.899219000000000079e+01 -6.171408313221652536e-02
-4.121200000000000330e+01 1.250900000000000034e+01 2.470699999999999896e+00 -1.261508999999999991e+00 1.436390402355655904e-01
-4.119899999999999807e+01 3.952100000000000080e+01 1.507399999999999984e+01 -2.990315000000000012e+01 -8.340498609889074322e-02
-4.119599999999999795e+01 2.583099999999999952e+01 2.469699999999999918e+01 4.411764999999999937e+00 -2.727992889288228251e-01
-4.119100000000000250e+01 2.384700000000000131e+01 1.313400000000000034e+01 5.669724000000000430e-01 -3.809377371684655733e-01
-4.117999999999999972e+01 1.403599999999999959e+01 1.233500000000000085e+01 7.656201000000000256e-01 -4.675478624650546144e-02
-4.117999999999999972e+01 1.368299999999999983e+01 1.321400000000000041e+01 -4.627576000000000356e+00 -3.499999999999999778e-01
-4.117300000000000182e+01 2.819399999999999906e+01 2.126699999999999946e+01 -1.848424999999999985e+00 -3.797684588596821897e-01
-4.116499999999999915e+01 3.825500000000000256e+01 4.897800000000000153e+00 -2.841522000000000148e+01 -2.098773556148588182e-01
-4.116499999999999915e+01 1.716300000000000026e+01 1.268500000000000050e+01 -3.581201000000000079e+00 -3.499999999999999778e-01
-4.115500000000000114e+01 1.493399999999999928e+01 1.604899999999999949e+01 6.948113000000000206e+00 -3.500000000000000333e-01
-4.114500000000000313e+01 2.315800000000000125e+01 3.467999999999999972e+00 3.222033000000000147e+00 3.063519771764866562e-02
-4.113700000000000045e+01 1.844600000000000151e+01 1.324699999999999989e+01 8.042071000000000636e-02 -3.499999999999999778e-01
-4.113600000000000279e+01 1.664300000000000068e+01 1.132000000000000028e+01 -5.425905000000000200e+00 -3.499999999999999778e-01
-4.111899999999999977e+01 1.208099999999999952e+01 3.319399999999999906e+00 4.520710000000000006e-01 1.293946150036662524e-01
-4.111200000000000188e+01 2.417599999999999838e+01 2.459999999999999964e-01 -2.416073000000000093e+01 -1.345751091473614269e-01
-4.111200000000000188e+01 8.879500000000000171e+00 1.202999999999999936e+01 6.890926000000000329e+00 -3.774150216512665579e-01
-4.111099999999999710e+01 2.504899999999999949e+01 -3.252399999999999736e-01 -1.044495000000000040e+01 -1.374441820524196500e-01
-4.110900000000000176e+01 2.412399999999999878e+01 5.864499999999999602e+00 4.160359999999999836e+00 -2.514961595456154941e-01
-4.110699999999999932e+01 1.663200000000000145e+01 1.037199999999999989e+01 -4.271773999999999738e+00 -3.499999999999999778e-01
-4.110300000000000153e+01 1.221599999999999930e+01 1.119100000000000072e+01 1.583892999999999951e+01 -3.863223482916319229e-01
-4.110300000000000153e+01 1.221599999999999930e+01 1.615899999999999892e+01 -5.444800999999999647e+01 -3.499999999999999778e-01
-4.109799999999999898e+01 1.668100000000000094e+01 1.210299999999999976e+01 -3.853260000000000129e+00 -3.500000000000000333e-01
-4.109799999999999898e+01 3.143700000000000117e+01 4.902000000000000135e+00 1.481381999999999977e+01 9.450461880627494815e-02
-4.109799999999999898e+01 3.283700000000000330e+01 4.902000000000000135e+00 4.661898999999999904e-01 -2.108053427058840246e-01
-4.109700000000000131e+01 2.457300000000000040e+01 9.067700000000000315e+00 3.952490000000000059e+00 -3.840391623970811907e-01
-4.109599999999999653e+01 1.656200000000000117e+01 7.721000000000000085e+00 1.657658999999999938e-01 -2.638841288878809171e-02
-4.109499999999999886e+01 3.827000000000000313e+01 8.270099999999999341e+00 6.109147000000000105e+00 -2.047621700347950768e-01
-4.109400000000000119e+01 2.463100000000000023e+01 1.083299999999999930e+00 -9.153745000000000687e+00 -1.157734120245280246e-01
-4.109000000000000341e+01 3.506799999999999784e+01 1.731800000000000139e+01 -2.265690000000000204e+00 -2.681038915919088383e-01
-4.109000000000000341e+01 3.506799999999999784e+01 1.836799999999999855e+01 2.324645999999999990e+00 -2.690686087505446134e-01
-4.109000000000000341e+01 2.749500000000000099e+01 2.370499999999999829e+01 1.010974000000000039e+01 -2.718513086984337135e-01
-4.108899999999999864e+01 2.600100000000000122e+01 -3.113299999999999956e-01 -5.310149000000000008e+00 -1.287295794140898286e-01
-4.107399999999999807e+01 2.278900000000000148e+01 2.617999999999999883e+00 -2.916291999999999884e+00 -8.683791312300502552e-02
-4.107200000000000273e+01 1.376999999999999957e+01 1.139499999999999957e+01 6.012750999999999735e+00 -4.915946063692980955e-02
-4.107099999999999795e+01 1.197899999999999920e+01 1.360299999999999976e+01 -1.072485999999999962e+01 -3.863137891972449611e-01
-4.107000000000000028e+01 2.816600000000000037e+01 1.050200000000000067e+01 2.882035000000000124e+00 -3.794528692642452627e-01
-4.106199999999999761e+01 2.326999999999999957e+01 1.286000000000000032e+00 -6.324017000000000444e+00 -1.146246822992225550e-01
-4.106199999999999761e+01 1.203500000000000014e+01 4.275800000000000267e+00 3.676089000000000162e+00 9.912049032678746374e-02
-4.106199999999999761e+01 1.573300000000000054e+01 2.581500000000000128e+00 -1.024661000000000044e+01 -1.060832071239062174e-01
-4.105299999999999727e+01 8.576100000000000279e+00 1.133000000000000007e+01 3.567369999999999930e+00 -6.267234321155550070e-02
-4.104699999999999704e+01 9.307000000000000384e+00 1.233000000000000007e+01 1.384351000000000109e+00 -3.788708776698971326e-01
-4.104599999999999937e+01 2.970700000000000074e+01 2.458699999999999886e+00 5.662819999999999965e+00 9.761064462281353327e-02
-4.103300000000000125e+01 2.468599999999999994e+01 5.610000000000000542e-01 -7.426115000000000244e+00 -1.242847439641166368e-01
-4.102600000000000335e+01 1.446000000000000085e+01 9.025000000000000355e+00 -1.229400999999999966e-01 -5.863638952372098034e-02
-4.102499999999999858e+01 1.530100000000000016e+01 6.941200000000000259e+00 4.814887999999999835e+00 -5.040414346320807454e-02
-4.102499999999999858e+01 1.693100000000000094e+01 8.570999999999999730e+00 3.593815999999999899e+00 -2.839848074042290380e-02
-4.102300000000000324e+01 1.983699999999999974e+01 1.385500000000000043e+01 -2.771485000000000198e+00 -3.858749443038166915e-01
-4.102100000000000080e+01 1.258900000000000041e+01 1.063499999999999979e+01 1.459956999999999994e+01 -3.874778215241406754e-01
-4.102100000000000080e+01 1.345400000000000063e+01 1.063499999999999979e+01 1.472591000000000072e+01 -5.390041682208052132e-02
-4.101599999999999824e+01 3.240400000000000347e+01 2.196099999999999852e+01 4.963028999999999691e+00 -2.709391395049610685e-01
-4.101599999999999824e+01 3.491199999999999903e+01 2.100300000000000011e+01 -1.123666000000000054e+01 -2.709422493165650758e-01
-4.101599999999999824e+01 3.491199999999999903e+01 2.196099999999999852e+01 -2.982250000000000156e+01 -2.715797875650877158e-01
-4.101500000000000057e+01 2.222100000000000009e+01 1.337199999999999989e+01 1.527193000000000023e+00 -3.826833540513042697e-01
-4.101200000000000045e+01 3.458700000000000330e+01 2.026699999999999946e+01 2.835161999999999960e+00 -2.703189302674363637e-01
-4.101100000000000279e+01 2.828399999999999892e+01 -3.350000000000000200e-01 -3.461263000000000201e+00 1.717991376136489001e-01
-4.100999999999999801e+01 3.020499999999999829e+01 4.104499999999999815e+00 1.830792999999999893e+01 9.555174623604653639e-02
-4.100399999999999778e+01 2.312699999999999889e+01 1.807700000000000085e+00 -7.238787000000000305e+00 -1.024851834772970288e-01
-4.100000000000000000e+01 2.440800000000000125e+01 5.199499999999999567e+00 3.274201000000000139e+00 -2.532723649589344594e-01
-4.099600000000000222e+01 3.671099999999999852e+01 1.467900000000000027e+01 -1.502847999999999962e+00 -1.926819973183936108e-01
-4.099000000000000199e+01 2.480199999999999960e+01 4.472000000000000419e+00 1.708458000000000032e+00 2.422921722753140078e-02
-4.098799999999999955e+01 9.610400000000000276e+00 1.302999999999999936e+01 -2.057301999999999964e+00 -3.804376415519293841e-01
-4.098799999999999955e+01 1.047600000000000087e+01 1.163000000000000078e+01 1.076234000000000002e+01 -3.812375430014520727e-01
-4.098799999999999955e+01 1.047600000000000087e+01 1.302999999999999936e+01 -4.613832999999999629e+00 -3.825158222331654367e-01
-4.097599999999999909e+01 3.114900000000000091e+01 2.029100000000000037e+01 1.541414000000000062e+00 -2.691217707064464948e-01
-4.097599999999999909e+01 3.365800000000000125e+01 2.280099999999999838e+01 -1.415823999999999971e+00 -2.718578815291540218e-01
-4.097399999999999665e+01 3.837199999999999989e+01 5.465900000000000425e+00 -1.231250000000000000e+01 -2.091834550516196711e-01
-4.097299999999999898e+01 1.328500000000000014e+01 9.662000000000000810e+00 1.823316000000000159e+01 -6.158044330420194001e-02
-4.097099999999999653e+01 2.763299999999999912e+01 2.287900000000000134e+01 8.707216999999999985e+00 -2.711108787463739622e-01
-4.096800000000000352e+01 1.661299999999999955e+01 9.401300000000000878e+00 -9.500391999999999726e-01 -3.500000000000000333e-01
-4.096300000000000097e+01 2.376099999999999923e+01 9.459999999999999520e-01 -7.504324999999999690e+00 -1.204350346832661345e-01
-4.094599999999999795e+01 3.984599999999999653e+01 1.262100000000000044e+01 -6.912946999999999953e+00 -1.999425349734536006e-01
-4.094500000000000028e+01 1.556900000000000084e+01 7.698699999999999655e+00 1.339594000000000062e-01 -4.761140601868095457e-02
-4.093999999999999773e+01 3.228099999999999881e+01 2.104899999999999949e+01 1.114850000000000030e+01 -2.701787912821005944e-01
-4.093999999999999773e+01 2.865299999999999869e+01 5.150000000000000133e-01 1.476822000000000079e+00 1.008306075390690559e-01
-4.093800000000000239e+01 2.979200000000000159e+01 3.449300000000000033e+00 9.580291000000000778e+00 9.660331711006345246e-02
-4.093200000000000216e+01 2.449899999999999878e+01 3.771999999999999797e+00 -1.298244000000000042e+01 -7.987066505058684762e-02
-4.092900000000000205e+01 3.778099999999999881e+01 1.097899999999999920e+01 -3.277226999999999890e+00 -2.006696631837923961e-01
-4.092199999999999704e+01 3.442300000000000182e+01 1.094100000000000072e+01 -7.751850999999999603e-01 -9.477003650085727426e-02
-4.092199999999999704e+01 1.345800000000000018e+01 1.568500000000000050e+01 -2.270107000000000141e+01 -3.499999999999999223e-01
-4.092099999999999937e+01 9.282999999999999474e+00 1.604400000000000048e+01 -1.788447999999999993e+01 -2.021752396418131370e-01
-4.091499999999999915e+01 2.553300000000000125e+01 5.610000000000000542e-01 -5.482642000000000237e+00 -1.188395442573693811e-01
-4.090699999999999648e+01 2.392800000000000082e+01 2.477299999999999969e+01 1.228487999999999936e+01 -2.733183245264008132e-01
-4.090500000000000114e+01 2.776099999999999923e+01 2.196699999999999875e+01 2.456821999999999839e+00 -2.701930620508380398e-01
-4.089600000000000080e+01 1.065300000000000047e+01 7.650999999999999801e+00 -3.312289999999999957e+00 1.830468430640817545e-01
-4.089300000000000068e+01 8.086700000000000443e+00 9.371700000000000585e+00 1.317361000000000004e+00 -7.276941220860638770e-02
-4.089300000000000068e+01 8.086700000000000443e+00 1.042200000000000060e+01 2.675764000000000031e+00 -6.495827920893142149e-02
-4.089300000000000068e+01 3.446600000000000108e+01 1.952499999999999858e+01 9.483421999999999130e+00 -2.697629321192115404e-01
-4.088900000000000290e+01 1.518999999999999950e+01 8.570999999999999730e+00 2.102383000000000113e+00 -5.654087802412648134e-02
-4.088300000000000267e+01 1.620299999999999940e+01 1.641400000000000148e+01 -4.806854999999999656e+00 -3.499999999999999778e-01
-4.088199999999999790e+01 2.895599999999999952e+01 1.215000000000000080e+00 -6.201677000000000106e+00 1.001302102232479452e-01
-4.087800000000000011e+01 2.375000000000000000e+01 6.728699999999999903e+00 3.089259000000000199e+00 -2.502473273743014981e-01
-4.087800000000000011e+01 2.375000000000000000e+01 7.779300000000000104e+00 3.640298000000000034e+00 -2.494448655007130422e-01
-4.087199999999999989e+01 1.308699999999999974e+01 1.026600000000000001e+01 1.464067999999999969e+01 -5.778835646563110912e-02
-4.086999999999999744e+01 2.768299999999999983e+01 2.433800000000000097e+01 4.754850000000000243e+00 -2.725092958096645979e-01
-4.086800000000000210e+01 1.189000000000000057e+01 5.263700000000000045e+00 6.886440000000000339e+00 1.196391750123496356e-01
-4.086500000000000199e+01 2.717000000000000171e+01 -3.458200000000000163e-01 -1.066427999999999976e+01 1.753222703433361951e-01
-4.086099999999999710e+01 2.742999999999999972e+01 1.050200000000000067e+01 2.550622999999999863e+00 -3.794807243964987142e-01
-4.086099999999999710e+01 2.890200000000000102e+01 1.050200000000000067e+01 5.813400999999999819e+00 -3.789344658707817226e-01
-4.085999999999999943e+01 1.080199999999999960e+01 1.614199999999999946e+01 -3.408008999999999844e+01 -2.004514357472901298e-01
-4.085699999999999932e+01 9.503500000000000725e+00 1.150200000000000067e+01 9.990325000000000344e+00 -3.782672498609014888e-01
-4.085199999999999676e+01 2.542000000000000171e+01 1.078699999999999992e+00 -5.525159999999999627e+00 -1.115260612662816592e-01
-4.085099999999999909e+01 2.001599999999999824e+01 1.990500000000000114e+01 -1.352322999999999942e+00 -3.835260724860355408e-01
-4.085099999999999909e+01 2.120700000000000074e+01 2.056899999999999906e+01 4.770604999999999762e+00 -3.826562885568852712e-01
-4.084899999999999665e+01 9.461999999999999744e+00 8.450900000000000745e+00 1.181073999999999957e+00 -8.164913353552359643e-02
-4.084899999999999665e+01 2.895100000000000051e+01 2.122100000000000009e+01 -3.637690999999999786e+00 -2.695511082884710641e-01
-4.083500000000000085e+01 2.479500000000000171e+01 1.223300000000000054e+01 -3.709397999999999862e-02 -3.799323068148197091e-01
-4.083400000000000318e+01 1.087199999999999989e+01 7.008099999999999774e+00 -1.492154999999999898e+00 1.723139723459838346e-01
-4.083100000000000307e+01 3.507500000000000284e+01 1.563899999999999935e+01 -2.034790999999999883e+01 -1.874826638187710448e-01
-4.082900000000000063e+01 2.500600000000000023e+01 9.767699999999999605e+00 4.794842999999999744e-01 -3.820874457264334390e-01
-4.082800000000000296e+01 9.199899999999999523e+00 1.351699999999999946e+01 -7.651137000000000299e+00 -1.801649781160797326e-01
-4.082800000000000296e+01 1.517200000000000060e+01 9.207200000000000273e+00 2.432889999999999997e+00 -5.004214832586442036e-02
-4.082399999999999807e+01 1.562199999999999989e+01 3.799300000000000122e+00 -5.041203000000000323e+00 -5.269892523535520124e-02
-4.082000000000000028e+01 2.368299999999999983e+01 2.617999999999999883e+00 -1.295731999999999928e+01 -8.830824872576270579e-02
-4.080700000000000216e+01 1.085200000000000031e+01 1.350399999999999956e+01 -1.743894999999999840e+01 -3.838618899546962782e-01
-4.080599999999999739e+01 2.509600000000000009e+01 1.836200000000000054e+00 -1.184492000000000012e+01 -1.013533350202477507e-01
-4.080299999999999727e+01 2.773400000000000176e+01 9.802400000000000446e+00 2.963427000000000144e-01 -3.797559648680669531e-01
-4.080299999999999727e+01 2.773400000000000176e+01 1.120199999999999996e+01 7.797297999999999618e+00 -3.788218476716724847e-01
-4.080299999999999727e+01 2.859900000000000020e+01 9.802400000000000446e+00 -5.752795000000000547e-01 -3.793838639746297536e-01
-4.080299999999999727e+01 2.859900000000000020e+01 1.120199999999999996e+01 1.429777999999999949e+01 -2.761638044455074770e-01
-4.080199999999999960e+01 2.669099999999999895e+01 4.805599999999999872e-01 -1.477997000000000050e+01 -1.139151319724348299e-01
-4.079899999999999949e+01 2.539799999999999969e+01 2.518799999999999883e+01 4.991468000000000238e+00 -2.734717570031504619e-01
-4.079899999999999949e+01 2.626399999999999935e+01 2.518799999999999883e+01 5.819764000000000159e+00 -2.733598156389025480e-01
-4.079899999999999949e+01 2.731400000000000006e+01 2.518799999999999883e+01 7.427900000000000169e+00 -2.732645816922324444e-01
-4.079899999999999949e+01 1.764300000000000068e+01 1.840899999999999892e+01 -8.859674000000000049e+00 -3.499999999999999223e-01
-4.079899999999999949e+01 1.787000000000000099e+01 1.920799999999999841e+01 -3.093640000000000168e+00 -3.499999999999999778e-01
-4.079899999999999949e+01 1.916300000000000026e+01 1.992899999999999849e+01 -2.123010999999999981e+01 -3.499999999999999778e-01
-4.079899999999999949e+01 1.481799999999999962e+01 5.533999999999999808e+00 1.776454999999999984e+01 -6.298328983815383586e-02
-4.079899999999999949e+01 1.481799999999999962e+01 6.934000000000000163e+00 8.188651000000000124e+00 -6.437749271801726514e-02
-4.079500000000000171e+01 2.341499999999999915e+01 1.264300000000000068e+01 -6.116462999999999761e-01 -3.811118301759912064e-01
-4.079500000000000171e+01 2.428000000000000114e+01 1.264300000000000068e+01 -5.746077000000000545e-01 -3.801542298365065409e-01
-4.079399999999999693e+01 3.213700000000000045e+01 4.960300000000000153e+00 1.055668000000000006e+01 -2.112725729072801040e-01
-4.079299999999999926e+01 3.538100000000000023e+01 1.102100000000000080e+01 -5.456571000000000282e+00 -9.588269445448241446e-02
-4.079299999999999926e+01 2.435900000000000176e+01 1.945200000000000040e+00 -1.273847999999999914e+01 -9.957526049008706692e-02
-4.078099999999999881e+01 1.114000000000000057e+01 6.308699999999999974e+00 -1.559935999999999989e+00 1.564664429476845808e-01
-4.078000000000000114e+01 1.488799999999999990e+01 8.045299999999999230e+00 -2.210878000000000121e+00 -6.478412985990542050e-02
-4.077799999999999869e+01 2.136199999999999832e+01 1.350900000000000034e+01 -1.545319000000000109e+00 -3.836894590527399340e-01
-4.077300000000000324e+01 1.228599999999999959e+01 2.139100000000000001e+00 -5.893937999999999677e-01 4.200000000000000400e-01
-4.077100000000000080e+01 2.269099999999999895e+01 1.265799999999999947e+01 -6.709595000000000420e-01 -3.820254916620756114e-01
-4.077100000000000080e+01 1.603699999999999903e+01 8.570999999999999730e+00 1.023333000000000048e+01 -3.500000000000000333e-01
-4.076800000000000068e+01 1.759600000000000009e+01 1.317600000000000016e+01 3.073932000000000109e+00 -3.499999999999999778e-01
-4.076400000000000290e+01 1.254899999999999949e+01 9.662000000000000810e+00 1.360355999999999987e+01 -6.623865663235786738e-02
-4.076400000000000290e+01 1.576600000000000001e+01 1.222000000000000064e+01 -8.709960999999999842e+00 -3.500000000000000333e-01
-4.076299999999999812e+01 2.391499999999999915e+01 3.432900000000000063e+00 -9.795699000000000822e+00 -7.903560453011110321e-02
-4.075900000000000034e+01 2.552799999999999869e+01 3.736899999999999888e+00 -7.139291000000000054e+00 -8.257261460277762199e-02
-4.075800000000000267e+01 1.450099999999999945e+01 1.555799999999999983e+01 1.650272000000000006e+01 -3.499999999999999223e-01
-4.075600000000000023e+01 1.241000000000000014e+01 6.209999999999999964e-01 -1.160309000000000035e+00 4.199999999999999289e-01
-4.075600000000000023e+01 1.266399999999999970e+01 -2.727399999999999824e-01 2.910942000000000252e-01 4.200000000000000400e-01
-4.075600000000000023e+01 1.410999999999999943e+01 -1.078999999999999959e+00 2.135769999999999946e+00 1.932471423592150850e-01
-4.075600000000000023e+01 1.555599999999999916e+01 -2.727399999999999824e-01 -1.055828999999999906e+00 1.606052677276458840e-01
-4.074699999999999989e+01 1.438299999999999912e+01 1.294599999999999973e+01 -9.802614000000000161e+00 -3.499999999999999778e-01
-4.074300000000000210e+01 2.520799999999999841e+01 1.121299999999999919e+01 -1.011063000000000045e+00 -3.802315006174848411e-01
-4.074199999999999733e+01 3.614600000000000080e+01 5.178700000000000081e+00 -1.456555999999999962e+00 -2.102913708058541664e-01
-4.074099999999999966e+01 3.590100000000000335e+01 1.472499999999999964e+01 -5.679279000000000188e+00 -1.910255649834168290e-01
-4.073100000000000165e+01 1.751899999999999835e+01 1.750199999999999889e+01 -1.033891000000000027e+01 -3.499999999999999778e-01
-4.073100000000000165e+01 1.410299999999999976e+01 8.159299999999999997e+00 -1.219208000000000069e+01 -7.037150281578075095e-02
-4.072899999999999920e+01 2.251599999999999824e+01 2.278999999999999915e+01 -9.525493999999999906e-01 -3.819160788655545646e-01
-4.072899999999999920e+01 3.876100000000000279e+01 1.536400000000000077e+01 -7.233308999999999855e+01 -8.181508367853626562e-02
-4.072899999999999920e+01 4.005400000000000205e+01 1.304499999999999993e+01 -9.821543000000000134e+00 -9.756746268574720271e-02
-4.072899999999999920e+01 4.005400000000000205e+01 1.464300000000000068e+01 -2.476165999999999912e+01 -8.431219061179875962e-02
-4.072899999999999920e+01 4.028099999999999881e+01 1.384399999999999942e+01 -3.473335000000000150e+01 -9.659344196456956522e-02
-4.072500000000000142e+01 2.417699999999999960e+01 2.922000000000000153e+00 -1.712295999999999907e+01 -8.534682924650607849e-02
-4.072500000000000142e+01 2.587099999999999866e+01 2.922000000000000153e+00 -1.017636000000000074e+01 -8.971164055779404234e-02
-4.072399999999999665e+01 1.476999999999999957e+01 9.855999999999999872e+00 4.649987999999999566e+00 -4.709528101357617069e-02
-4.071399999999999864e+01 1.433399999999999963e+01 6.237300000000000288e+00 1.470173999999999914e+01 -7.782793932441370299e-02
-4.071399999999999864e+01 1.580499999999999972e+01 9.385899999999999466e+00 2.249124999999999819e+00 -4.357656248275218469e-02
-4.071300000000000097e+01 3.368699999999999761e+01 1.094100000000000072e+01 2.719564999999999788e+00 -9.327401481199520950e-02
-4.070600000000000307e+01 1.285200000000000031e+01 8.961999999999999744e+00 -1.220634000000000086e+01 -7.097173934233304282e-02
-4.070499999999999829e+01 1.606899999999999906e+01 1.291999999999999993e+01 -2.773861000000000132e+01 -3.499999999999999778e-01
-4.069899999999999807e+01 1.591300000000000026e+01 5.654500000000000082e-01 -5.407956999999999681e+00 2.006257672258340841e-01
-4.069299999999999784e+01 3.741100000000000136e+01 1.473700000000000010e+01 -1.203562999999999938e+01 -8.048722901595420365e-02
-4.069100000000000250e+01 2.791100000000000136e+01 1.026100000000000012e+00 -1.982197999999999993e+01 1.015748267622817586e-01
-4.068599999999999994e+01 2.775900000000000034e+01 5.150000000000000133e-01 -1.468948999999999927e+01 1.024473131111285629e-01
-4.067300000000000182e+01 2.531099999999999994e+01 4.181700000000000195e+00 9.814477999999999369e+00 -2.524246254018855384e-01
-4.067300000000000182e+01 3.044900000000000162e+01 2.034900000000000020e+01 -8.793242000000000003e-01 -2.690448524701379296e-01
-4.067300000000000182e+01 3.184900000000000020e+01 2.034900000000000020e+01 8.417631999999999337e+00 -2.695023851156453931e-01
-4.067199999999999704e+01 1.268599999999999994e+01 1.562599999999999945e+01 -8.756131999999999493e+01 -3.500000000000000333e-01
-4.066799999999999926e+01 2.597599999999999909e+01 1.889000000000000012e+00 -6.535779999999999923e+00 -9.942584751685361322e-02
-4.066700000000000159e+01 2.138299999999999912e+01 2.119999999999999929e+01 -3.402941000000000216e+00 -3.824670308018525700e-01
-4.066499999999999915e+01 1.525799999999999912e+01 4.769499999999999851e+00 1.392222000000000071e+00 -4.953820363985224351e-02
-4.066299999999999670e+01 1.479100000000000037e+01 1.217999999999999972e+01 -6.955345000000000333e+00 -3.500000000000000333e-01
-4.066299999999999670e+01 1.235100000000000087e+01 1.026600000000000001e+01 1.836861000000000033e+01 -3.870469224936397001e-01
-4.066199999999999903e+01 3.744899999999999807e+01 9.162000000000000810e+00 6.096250999999999642e+00 -2.033501316981795592e-01
-4.065899999999999892e+01 2.670200000000000173e+01 2.983999999999999986e+00 -5.150879999999999903e+00 -9.011471825685253567e-02
-4.065899999999999892e+01 2.833200000000000074e+01 1.354200000000000070e+00 -1.442440000000000033e+01 1.011643255438784694e-01
-4.065699999999999648e+01 2.655999999999999872e+01 1.840999999999999970e+00 -7.820416999999999952e+00 -9.959531730171426733e-02
-4.065599999999999881e+01 1.094599999999999973e+01 1.126099999999999923e+01 1.240618000000000087e+01 -3.826234220336911518e-01
-4.065500000000000114e+01 3.399000000000000199e+01 1.024099999999999966e+01 3.200501000000000040e+00 -9.594305135262069795e-02
-4.065500000000000114e+01 3.399000000000000199e+01 1.164100000000000001e+01 1.313018999999999936e+00 -9.171724876465400800e-02
-4.065500000000000114e+01 3.485600000000000165e+01 1.024099999999999966e+01 -4.114588999999999608e+00 -9.723578624923068237e-02
-4.065400000000000347e+01 1.899299999999999855e+01 1.364199999999999946e+01 3.357994000000000145e+00 -3.499999999999999778e-01
-4.065299999999999869e+01 3.486699999999999733e+01 1.166999999999999993e+01 -3.506944999999999979e+00 -9.320524926730813786e-02
-4.064399999999999835e+01 1.666499999999999915e+01 1.314600000000000080e+01 -1.080709000000000053e+01 -3.499999999999999778e-01
-4.063100000000000023e+01 8.813299999999999912e+00 1.434399999999999942e+01 -1.814781999999999940e+01 -1.908613977782022686e-01
-4.063100000000000023e+01 8.813299999999999912e+00 1.528400000000000070e+01 -2.686562999999999946e+01 -1.993109586009806367e-01
-4.062599999999999767e+01 3.870300000000000296e+01 7.709299999999999820e+00 -2.867792000000000119e-01 -2.060255306940382558e-01
-4.062199999999999989e+01 2.698699999999999832e+01 3.789699999999999847e+00 2.028605999999999909e+00 -8.516262678769717653e-02
-4.061899999999999977e+01 1.427800000000000047e+01 1.083699999999999974e+01 1.263614000000000015e+00 -4.448199583854326594e-02
-4.061899999999999977e+01 1.606599999999999895e+01 1.083699999999999974e+01 3.882003000000000270e+01 -3.591615171372284504e-02
-4.061500000000000199e+01 3.883299999999999841e+01 6.645400000000000418e+00 -2.805511999999999784e+00 -2.076636419851801418e-01
-4.060900000000000176e+01 3.457300000000000040e+01 4.651600000000000179e+00 -4.323096999999999746e+00 -2.119449551811699028e-01
-4.060699999999999932e+01 2.502400000000000091e+01 2.922000000000000153e+00 -2.281196999999999875e+01 -8.702912340623722431e-02
-4.060699999999999932e+01 1.452299999999999969e+01 1.168299999999999983e+01 4.011398999999999937e+00 -4.099195196993894730e-02
-4.060000000000000142e+01 1.145700000000000074e+01 5.963700000000000223e+00 -1.559935999999999989e+00 1.432429862388942265e-01
-4.059199999999999875e+01 1.004299999999999926e+01 1.352100000000000080e+01 -2.008922000000000097e+01 -3.821010666399060618e-01
-4.059199999999999875e+01 1.004299999999999926e+01 1.610699999999999932e+01 -3.942163000000000039e+01 -2.033186010485409645e-01
-4.058400000000000318e+01 3.611699999999999733e+01 1.102100000000000080e+01 -3.331430000000000113e+00 -9.674653186203112376e-02
-4.057500000000000284e+01 3.349799999999999756e+01 4.308799999999999741e+00 -3.930486000000000146e+00 9.577721472639061373e-02
-4.056900000000000261e+01 1.174399999999999977e+01 1.405300000000000082e+01 -7.374763999999999875e+00 -3.863114154869910499e-01
-4.056900000000000261e+01 1.174399999999999977e+01 1.567900000000000027e+01 -1.886354000000000042e+01 -1.579547454685808205e-01
-4.056900000000000261e+01 1.268800000000000061e+01 1.405300000000000082e+01 -7.900104999999999933e+00 -3.499999999999999778e-01
-4.056099999999999994e+01 2.395400000000000063e+01 1.224200000000000088e+01 -2.162606999999999946e+00 -3.802883099474286821e-01
-4.056000000000000227e+01 1.571100000000000030e+01 9.997999999999999332e+00 1.932822000000000040e+00 -3.905303863179348384e-02
-4.055100000000000193e+01 3.735300000000000153e+01 5.182000000000000384e+00 -2.924583000000000155e+00 -2.102631179055382549e-01
-4.054999999999999716e+01 2.626399999999999935e+01 3.736899999999999888e+00 -4.506604000000000165e-01 -8.338737222336763122e-02
-4.054599999999999937e+01 1.016200000000000081e+01 8.392599999999999838e+00 -4.819791999999999965e-01 -8.280581104503680068e-02
-4.053900000000000148e+01 2.740700000000000003e+01 1.840999999999999970e+00 -6.225380999999999609e+00 -9.852279863381799285e-02
-4.053699999999999903e+01 3.317900000000000205e+01 2.225700000000000145e+01 2.590990000000000038e+01 -2.715162075379869977e-01
-4.053699999999999903e+01 3.413700000000000045e+01 2.225700000000000145e+01 3.434902999999999818e+00 -2.717412820505942794e-01
-4.053499999999999659e+01 3.675000000000000000e+01 5.256400000000000183e+00 -2.759383000000000141e+00 -2.102796985734462221e-01
-4.052600000000000335e+01 1.574300000000000033e+01 1.578800000000000026e+01 -1.447185999999999950e+01 -3.500000000000000333e-01
-4.052600000000000335e+01 3.581400000000000006e+01 1.032099999999999973e+01 -3.411297999999999941e+00 -2.005078542390051621e-01
-4.052600000000000335e+01 3.581400000000000006e+01 1.172100000000000009e+01 -3.696747999999999923e+00 -9.449397903880510374e-02
-4.052100000000000080e+01 2.885699999999999932e+01 2.133999999999999897e+00 -2.639133000000000173e+00 1.003459860881884547e-01
-4.050399999999999778e+01 1.303200000000000003e+01 1.489499999999999957e+01 -2.258495999999999881e+01 -3.500000000000000333e-01
-4.050200000000000244e+01 3.841499999999999915e+01 1.190600000000000058e+01 -3.597627000000000130e+00 -9.762319361650526051e-02
-4.049900000000000233e+01 2.519900000000000162e+01 4.904600000000000293e+00 2.897765000000000146e+00 -2.552320059392418350e-01
-4.049799999999999756e+01 2.160500000000000043e+01 2.190299999999999869e+01 -1.854200000000000070e+00 -3.822831868892070384e-01
-4.049699999999999989e+01 2.436799999999999855e+01 2.543199999999999861e+01 3.098568000000000211e+00 -2.740182246203273775e-01
-4.049600000000000222e+01 1.427399999999999913e+01 7.142999999999999794e+00 -4.119796000000000014e+00 -8.152431256732023401e-02
-4.049399999999999977e+01 3.458700000000000330e+01 1.784299999999999997e+01 -6.638686999999999783e-01 -2.686570048703934011e-01
-4.049099999999999966e+01 2.596000000000000085e+01 4.436899999999999622e+00 4.656704999999999650e+00 -2.534730665772690905e-01
-4.048299999999999699e+01 1.792099999999999937e+01 1.639900000000000091e+01 -1.133877999999999986e+01 -3.499999999999999778e-01
-4.048199999999999932e+01 3.434199999999999875e+01 1.868900000000000006e+01 4.215558999999999834e+00 -2.691836772016366619e-01
-4.047699999999999676e+01 2.421699999999999875e+01 1.150200000000000067e+01 -1.496760000000000090e+00 -3.804464391566909631e-01
-4.047299999999999898e+01 2.846099999999999852e+01 2.169999999999999929e+01 -8.386397000000000546e+00 -2.701433888256666860e-01
-4.047200000000000131e+01 3.284300000000000352e+01 2.148199999999999932e+01 3.974466000000000321e+01 -2.708543643157330649e-01
-4.047200000000000131e+01 3.447299999999999898e+01 2.148199999999999932e+01 9.818958999999999548e+00 -2.713122268468342035e-01
-4.046399999999999864e+01 3.471099999999999852e+01 1.691199999999999903e+01 -1.350934999999999953e+01 -7.330105331339209496e-02
-4.046300000000000097e+01 1.711899999999999977e+01 1.668700000000000117e+01 -4.258248000000000033e+00 -3.499999999999999778e-01
-4.046200000000000330e+01 2.294900000000000162e+01 2.348999999999999844e+01 4.396433000000000035e+00 -2.725949306499714231e-01
-4.045600000000000307e+01 3.048300000000000054e+01 4.672799999999999621e+00 1.960012000000000043e+01 9.619674232117100821e-02
-4.045499999999999829e+01 1.396000000000000085e+01 1.370400000000000063e+01 -3.999331000000000191e+00 -3.499999999999999778e-01
-4.045000000000000284e+01 2.743799999999999883e+01 2.983999999999999986e+00 -1.135995000000000088e+00 -8.995998124183890443e-02
-4.045000000000000284e+01 2.922599999999999909e+01 2.983999999999999986e+00 3.322486000000000050e+00 9.902572912828645768e-02
-4.044899999999999807e+01 2.060200000000000031e+01 1.357199999999999918e+01 -2.210932000000000119e+00 -3.846503772687108746e-01
-4.044200000000000017e+01 2.585800000000000054e+01 2.581400000000000006e+01 6.148433999999999955e+00 -2.740951407618458235e-01
-4.043699999999999761e+01 3.420199999999999818e+01 2.071499999999999986e+01 4.963757000000000197e+00 -2.706861386141689030e-01
-4.043200000000000216e+01 2.441600000000000037e+01 5.733900000000000219e+00 1.750788000000000011e+00 -2.545201642095008543e-01
-4.042499999999999716e+01 2.811899999999999977e+01 2.238100000000000023e+01 4.088489000000000040e+00 -2.708616895715237893e-01
-4.041899999999999693e+01 2.401899999999999835e+01 8.889300000000000423e+00 9.200669000000000208e-01 -3.840285667323121155e-01
-4.041799999999999926e+01 1.380599999999999916e+01 1.465499999999999936e+01 -1.435623000000000093e+00 -3.500000000000000333e-01
-4.041400000000000148e+01 3.294400000000000261e+01 2.070400000000000063e+01 2.283134000000000086e+01 -2.702671277062503319e-01
-4.040599999999999881e+01 2.816600000000000037e+01 9.311500000000000554e+00 -5.563070999999999877e+00 -2.799614216575530001e-01
-4.040599999999999881e+01 2.816600000000000037e+01 1.169299999999999962e+01 1.050938999999999979e+01 -2.740578743637888115e-01
-4.040599999999999881e+01 2.574399999999999977e+01 4.881700000000000372e+00 5.403054000000000023e+00 -2.550778582137205319e-01
-4.040400000000000347e+01 3.248199999999999932e+01 4.543700000000000294e+00 -2.354481999999999964e+00 -2.132241949871992726e-01
-4.039699999999999847e+01 2.430600000000000094e+01 9.500299999999999301e+00 -6.813434000000000434e-01 -3.825780658797661160e-01
-4.039699999999999847e+01 1.670100000000000051e+01 1.586800000000000033e+01 -6.033195000000000086e+00 -3.499999999999999778e-01
-4.039600000000000080e+01 1.525999999999999979e+01 1.288000000000000078e+01 -1.651314999999999955e+01 -3.499999999999999778e-01
-4.039000000000000057e+01 2.429500000000000171e+01 1.093699999999999939e+01 -1.505573999999999968e+00 -3.807665449048552864e-01
-4.038400000000000034e+01 3.240599999999999881e+01 2.000100000000000122e+01 1.477945000000000064e+01 -2.694759315913049513e-01
-4.038400000000000034e+01 3.444500000000000028e+01 1.239899999999999913e+01 1.023052000000000072e+00 -9.028465648659303455e-02
-4.038400000000000034e+01 3.531099999999999994e+01 1.239899999999999913e+01 -3.596470000000000056e+00 -9.190087195143460674e-02
-4.038199999999999790e+01 1.221599999999999930e+01 1.486599999999999966e+01 -3.473183999999999827e+01 -3.499999999999999778e-01
-4.038199999999999790e+01 2.307799999999999940e+01 2.444800000000000040e+01 3.325757999999999992e+00 -2.735398549780582167e-01
-4.038000000000000256e+01 2.777599999999999980e+01 3.794299999999999784e+00 9.634216999999999587e+00 -1.669240253781282823e-01
-4.038000000000000256e+01 2.888800000000000168e+01 3.794299999999999784e+00 8.904980000000000118e+00 9.784061337911446887e-02
-4.037800000000000011e+01 2.494999999999999929e+01 2.571600000000000108e+01 5.723933999999999855e+00 -2.742028430472001066e-01
-4.036999999999999744e+01 2.703399999999999892e+01 1.007000000000000028e+01 5.729179000000000244e+00 -3.792379194377385465e-01
-4.036999999999999744e+01 2.703399999999999892e+01 1.093500000000000050e+01 1.117702000000000062e+01 -2.749829480106186219e-01
-4.036800000000000210e+01 8.936700000000000088e+00 9.047000000000000597e+00 8.817460000000000298e-01 -6.114444224716467785e-02
-4.036800000000000210e+01 8.936700000000000088e+00 1.074699999999999989e+01 9.007438999999999751e+00 -6.018173881302166933e-02
-4.036500000000000199e+01 1.517200000000000060e+01 1.083699999999999974e+01 2.375118000000000062e+00 -3.698306681181240396e-02
-4.036200000000000188e+01 1.218399999999999928e+01 2.995999999999999996e+00 -7.090478999999999532e-01 1.292189583763053984e-01
-4.036200000000000188e+01 1.546599999999999930e+01 2.148899999999999810e+00 -2.553320000000000078e+01 2.323241103672145924e-01
-4.035399999999999920e+01 2.655399999999999849e+01 4.489700000000000024e+00 5.386693000000000175e+00 -2.537108256997546163e-01
-4.035399999999999920e+01 2.742000000000000171e+01 4.489700000000000024e+00 8.455439999999999401e+00 -1.671003039957983105e-01
-4.035399999999999920e+01 2.924399999999999977e+01 4.489700000000000024e+00 1.030554000000000059e+01 -1.742217561144003557e-01
-4.034400000000000119e+01 2.206200000000000117e+01 1.312599999999999945e+01 -1.593618999999999897e+00 -3.824432387122775889e-01
-4.034100000000000108e+01 3.096900000000000119e+01 1.967599999999999838e+01 3.044423000000000101e+00 -2.686223489007723009e-01
-4.034100000000000108e+01 3.183500000000000085e+01 1.967599999999999838e+01 8.795007000000000019e+00 -2.689622858520749338e-01
-4.033800000000000097e+01 2.460900000000000176e+01 1.019999999999999929e+01 -1.861907999999999896e+00 -3.811317448827052923e-01
-4.033100000000000307e+01 1.071400000000000041e+01 8.217999999999999972e+00 -1.376573000000000047e+00 -9.586782640620776508e-02
-4.032900000000000063e+01 1.840299999999999869e+01 1.963899999999999935e+01 -1.250996999999999915e+01 -3.499999999999999778e-01
-4.031799999999999784e+01 2.678900000000000148e+01 2.578399999999999892e+01 7.495879999999999654e+00 -2.740218464039569923e-01
-4.031600000000000250e+01 1.100600000000000023e+01 1.409800000000000075e+01 -1.193735000000000035e+01 -3.848619857766710783e-01
-4.031300000000000239e+01 3.382500000000000284e+01 1.915099999999999980e+01 1.177142000000000088e+01 -2.693575737810941506e-01
-4.031000000000000227e+01 3.544599999999999795e+01 4.911299999999999777e+00 -1.516056000000000070e+00 -2.115849201050617745e-01
