3.748400000000000176e+01 -2.282499999999999929e+01 -1.302500000000000036e+01 8.880521999999999139e+00 -2.862897539263816737e-01
3.748499999999999943e+01 9.743900000000000006e+00 -2.798999999999999844e+01 -4.182551000000000130e+00 -1.118412906573529320e-01
3.748499999999999943e+01 1.060899999999999999e+01 -2.798999999999999844e+01 -7.403908000000000378e+00 -1.268184707095142971e-01
3.748599999999999710e+01 -1.948100000000000165e+01 -1.864000000000000057e+01 -1.761721000000000092e+00 -2.867319940109142040e-01
3.749000000000000199e+01 -1.965800000000000125e+01 8.541600000000000747e+00 -4.150695999999999941e+01 -2.870439702924231229e-01
3.749499999999999744e+01 -8.016400000000000858e+00 -8.863899999999999224e+00 8.278777999999999970e-01 -2.897541840365394639e-01
3.749499999999999744e+01 -8.051000000000000156e+00 7.848300000000000054e+00 -4.817277999999999838e-01 -2.878611314965056622e-01
3.749499999999999744e+01 -6.530999999999999694e+00 7.848300000000000054e+00 -6.762718999999999703e+00 -2.878006729735960723e-01
3.749900000000000233e+01 -1.923600000000000065e+01 1.588299999999999912e+01 1.894139000000000017e+00 -2.870241708741488873e-01
3.750200000000000244e+01 -3.093999999999999861e+00 3.774799999999999756e+01 2.256167999999999907e+01 -2.869736724107690984e-01
3.750200000000000244e+01 -2.228800000000000114e+00 3.774799999999999756e+01 2.309156000000000120e+01 -2.869525907954236232e-01
3.750300000000000011e+01 1.559399999999999942e+01 -2.118599999999999994e+01 8.896660000000000679e+00 -1.742591118016562635e-01
3.750500000000000256e+01 -1.312500000000000000e+01 3.581300000000000239e+01 7.243030000000000257e+01 -2.870731935366673260e-01
3.750500000000000256e+01 -1.756800000000000139e+01 -5.714999999999999858e+00 2.783053000000000221e+00 -2.874485565503510087e-01
3.750500000000000256e+01 -1.616799999999999926e+01 -5.714999999999999858e+00 5.772513000000000005e+00 -2.876942284458695598e-01
3.750600000000000023e+01 1.965099999999999980e+01 -1.185899999999999999e+01 7.105249999999999844e+00 -1.873813721505415697e-01
3.750800000000000267e+01 -1.652400000000000091e+01 -2.190700000000000003e+01 3.899070000000000036e-01 -2.883375435750973326e-01
3.750999999999999801e+01 3.672000000000000153e+00 3.604600000000000026e+00 5.141615999999999964e+00 -3.001234500706339015e-01
3.750999999999999801e+01 1.842500000000000071e+01 -7.089199999999999946e-01 -2.853169000000000111e+01 -1.847222314966597001e-01
3.750999999999999801e+01 -2.289000000000000057e+01 -9.396799999999999597e-01 -3.565491000000000188e+00 -2.867476828216626861e-01
3.751200000000000045e+01 -2.401599999999999824e+01 -1.033500000000000085e+01 1.819439000000000028e+00 -2.862728709220996870e-01
3.751299999999999812e+01 -2.229400000000000048e+01 -1.223999999999999977e+00 -7.648575000000000124e+00 -2.868034223581912290e-01
3.751400000000000290e+01 -1.932999999999999829e+01 2.257600000000000051e+01 -3.137897000000000158e+00 -2.869843022426518675e-01
3.751599999999999824e+01 -1.291099999999999959e+01 3.750000000000000000e+01 5.303829999999999600e+00 -2.870647146102000002e-01
3.751700000000000301e+01 5.083000000000000185e+00 3.710199999999999676e+01 2.022224999999999895e+01 -2.867757732546390437e-01
3.751700000000000301e+01 -1.224000000000000021e+01 -7.102400000000000269e+00 1.085368000000000066e+01 -2.885679045382555374e-01
3.751700000000000301e+01 -3.135600000000000165e+00 3.585499999999999687e+01 1.909227999999999925e+00 -2.869893834103217078e-01
3.751700000000000301e+01 -2.270399999999999974e+00 3.585499999999999687e+01 -4.519839000000000162e+00 -2.869670409680460943e-01
3.751800000000000068e+01 -1.314100000000000001e+01 4.122699999999999676e+01 -2.628012000000000015e+00 -2.870340694723617636e-01
3.751899999999999835e+01 -1.804700000000000060e+01 -1.181799999999999962e+01 1.323653000000000013e+01 -2.874776992192535907e-01
3.752300000000000324e+01 -3.802000000000000046e+00 4.157999999999999829e+01 -1.347203999999999979e+01 -2.869606300339599958e-01
3.752300000000000324e+01 -2.843999999999999861e+00 4.157999999999999829e+01 4.574741999999999820e+01 -2.869398141186937923e-01
3.752300000000000324e+01 3.698199999999999932e+00 2.601300000000000168e+01 1.836371000000000109e+01 -2.868485742345748268e-01
3.752300000000000324e+01 -1.325099999999999945e+01 -1.397300000000000075e+01 1.140498999999999974e+01 -2.894526837780841411e-01
3.752499999999999858e+01 -2.400400000000000134e+01 5.508000000000000007e+00 1.362967000000000040e+00 -2.867390938432597958e-01
3.752799999999999869e+01 -1.199600000000000044e+01 -2.371000000000000085e+01 8.176381000000000343e-01 -2.964750536547406945e-01
3.752900000000000347e+01 4.026399999999999757e+00 -2.913599999999999923e+01 -8.587680999999999898e+00 -7.370782243491115493e-02
3.753000000000000114e+01 7.311300000000000132e+00 2.711599999999999966e+01 4.701450999999999603e+00 -2.998590729509917341e-01
3.753000000000000114e+01 -2.831399999999999917e+00 2.508800000000000097e+01 -5.752908999999999828e+00 -2.870948440152116810e-01
3.753300000000000125e+01 -2.350799999999999912e+01 8.253999999999999559e+00 -1.609690000000000065e+00 -2.867938686283681426e-01
3.753300000000000125e+01 -2.328099999999999881e+01 9.053100000000000591e+00 -1.599485999999999919e+01 -2.868123039771159899e-01
3.753300000000000125e+01 -1.283799999999999919e+01 -8.028399999999999537e+00 -3.566516000000000020e+01 -2.885517248486805242e-01
3.753499999999999659e+01 2.145599999999999952e+01 -8.313900000000000290e+00 3.099756000000000178e+00 -1.871373910531252682e-01
3.753799999999999670e+01 3.857000000000000206e+00 3.793900000000000006e+01 -2.635317999999999827e+01 -2.868025386827881551e-01
3.753900000000000148e+01 -1.268399999999999928e+01 -2.411799999999999855e+01 -5.680549999999999766e-01 -2.951118628884144002e-01
3.753999999999999915e+01 -1.285399999999999920e+01 3.657999999999999829e+01 2.640810000000000102e+01 -2.870723569284918675e-01
3.754099999999999682e+01 -2.371099999999999852e+01 6.576299999999999812e+00 4.168596999999999997e-01 -2.867677096913316959e-01
3.754200000000000159e+01 -1.414600000000000080e+01 -7.337100000000000399e+00 1.481616000000000044e+00 -2.881893668869738301e-01
3.754299999999999926e+01 -2.388500000000000156e+01 -9.428000000000000824e+00 7.842751000000000028e-01 -2.863406005384540598e-01
3.754399999999999693e+01 -1.919000000000000128e+01 1.489400000000000013e+01 -3.242578999999999878e-01 -2.870298009102105197e-01
3.754500000000000171e+01 -2.346900000000000119e+01 7.365099999999999980e+00 -6.767216000000000342e-01 -2.867893120647621030e-01
3.754800000000000182e+01 1.911899999999999977e+01 -1.393999999999999950e+01 1.864720000000000155e+01 -1.879792011235248972e-01
3.754999999999999716e+01 2.095299999999999940e+00 5.097000000000000419e+00 1.985921000000000047e+00 -2.871515890850949715e-01
3.755100000000000193e+01 -2.320699999999999985e+00 3.859499999999999886e+01 1.694232000000000085e+02 -2.869467207548742071e-01
3.755400000000000205e+01 -1.684700000000000131e+01 -2.114900000000000091e+01 3.607418000000000013e+00 -2.880639846626289469e-01
3.755400000000000205e+01 2.154400000000000048e+01 -6.734099999999999753e+00 -1.911151999999999873e+01 -1.867695181276398109e-01
3.755599999999999739e+01 -9.006099999999999994e+00 -2.571999999999999886e+01 -2.326103000000000165e+01 -2.942990636239268265e-01
3.755599999999999739e+01 -7.534099999999999575e+00 -2.571999999999999886e+01 -3.584546000000000010e+00 -2.959500500557418756e-01
3.755700000000000216e+01 -1.322400000000000020e+01 3.490699999999999648e+01 2.231454000000000093e+01 -2.870766624598116712e-01
3.756099999999999994e+01 2.305799999999999864e-02 3.959799999999999898e+01 2.706682999999999950e+00 -2.868853981881568926e-01
3.756099999999999994e+01 -1.031499999999999950e+01 -2.761100000000000065e+01 -9.120766999999999625e-01 -2.892984267678478938e-01
3.756499999999999773e+01 9.140399999999999636e+00 1.972100000000000009e+01 -7.392644999999999911e+00 -3.631928929826441221e-01
3.756499999999999773e+01 1.832600000000000051e+01 -1.710900000000000176e+01 1.606810000000000072e+00 -1.776540239252789033e-01
3.756600000000000250e+01 -2.156599999999999895e+01 2.539499999999999957e+01 1.723274999999999935e+01 -2.868977168050234616e-01
3.756600000000000250e+01 -2.156599999999999895e+01 2.694500000000000028e+01 2.521565000000000012e+01 -2.868949740903848911e-01
3.756600000000000250e+01 -2.060800000000000054e+01 2.539499999999999957e+01 1.110536000000000030e+02 -2.869283055013110428e-01
3.756600000000000250e+01 -2.060800000000000054e+01 2.694500000000000028e+01 7.037293999999999983e+01 -2.869239345395577234e-01
3.756600000000000250e+01 8.444000000000000838e+00 2.787399999999999878e+01 1.550494000000000039e+00 -3.632730352842748478e-01
3.756799999999999784e+01 -1.536100000000000065e+01 2.545499999999999829e+01 3.149577000000000027e+01 -2.870982292519924095e-01
3.756799999999999784e+01 -2.262199999999999989e+01 -8.617100000000000648e+00 -5.613790999999999976e+00 -2.865644247836297565e-01
3.756799999999999784e+01 -1.433399999999999963e+01 2.877499999999999858e+01 -2.120617000000000196e+00 -2.870995850619247336e-01
3.756799999999999784e+01 -1.328400000000000070e+01 2.877499999999999858e+01 1.353440999999999894e+00 -2.871297583915127793e-01
3.756799999999999784e+01 -1.241799999999999926e+01 2.877499999999999858e+01 1.131160999999999994e+01 -2.871545095143610560e-01
3.756900000000000261e+01 -1.384999999999999964e+01 9.014300000000000423e+00 2.600449000000000233e-01 -2.874238617222245606e-01
3.757200000000000273e+01 1.707799999999999940e+01 -1.812099999999999866e+01 -8.208629000000000175e+00 -1.764653421165275626e-01
3.757800000000000296e+01 -1.438700000000000045e+01 4.035799999999999699e+01 -4.740701999999999749e+00 -2.870136401553708971e-01
3.758200000000000074e+01 1.183699999999999974e+01 -3.064799999999999969e+01 -4.745612000000000386e+00 -1.431289317370209313e-01
3.758200000000000074e+01 1.335699999999999932e+01 -3.064799999999999969e+01 -1.539476999999999940e+01 -1.651557057142762908e-01
3.758500000000000085e+01 -2.414099999999999824e+01 -8.672599999999999199e+00 -1.819959000000000104e+00 -2.863393364957778076e-01
3.758800000000000097e+01 -4.137900000000000134e+00 4.080499999999999972e+01 -4.502006000000000063e-01 -2.869710174917664558e-01
3.758800000000000097e+01 -2.508100000000000218e+00 4.080499999999999972e+01 2.645398999999999887e+02 -2.869348096995258390e-01
3.759000000000000341e+01 -2.162399999999999878e+01 1.026999999999999957e+01 -3.684402000000000044e+01 -2.869098135795651872e-01
3.759100000000000108e+01 -9.377399999999999736e+00 8.510999999999999233e+00 1.168247000000000035e+00 -2.877373597491345580e-01
3.759499999999999886e+01 -9.385999999999999233e+00 -2.277600000000000069e+00 2.761452999999999847e+01 -2.884604393931136102e-01
3.759700000000000131e+01 1.177200000000000024e+01 1.917800000000000082e+01 5.729040999999999606e+00 -1.836232334186373438e-01
3.759799999999999898e+01 -2.510300000000000153e+01 -1.865800000000000125e+01 -2.800419000000000214e+00 -2.851989052728246543e-01
3.759799999999999898e+01 -2.510300000000000153e+01 -1.771799999999999997e+01 -6.597381999999999636e+00 -2.853369200266843153e-01
3.759899999999999665e+01 2.008700000000000152e+00 6.105299999999999727e+00 1.200595000000000079e+00 -2.871313618197640638e-01
3.760099999999999909e+01 1.027299999999999969e+01 1.896199999999999974e+01 -8.642226000000000852e+00 -3.631654518483214966e-01
3.760099999999999909e+01 1.803800000000000026e+01 1.235999999999999943e+01 2.799943999999999988e+01 -1.844092567068525146e-01
3.760099999999999909e+01 1.803800000000000026e+01 1.406000000000000050e+01 2.411386999999999858e+01 -1.844242998630622465e-01
3.760199999999999676e+01 -3.029100000000000126e+00 3.928999999999999915e+01 7.812158999999999764e+01 -2.869563196544648864e-01
3.760600000000000165e+01 1.617000000000000171e+01 6.813299999999999912e+00 2.748798999999999992e+00 -1.839503110159076416e-01
3.760799999999999699e+01 1.723600000000000065e+01 4.294100000000000250e+00 -1.228994999999999926e+01 -1.842094608105243059e-01
3.760799999999999699e+01 1.746300000000000097e+01 3.495000000000000107e+00 -2.084120000000000061e+01 -1.842797518441580684e-01
3.760799999999999699e+01 9.246999999999999886e+00 2.814300000000000068e+01 2.982751000000000152e-01 -3.632580040288079237e-01
3.760799999999999699e+01 9.246999999999999886e+00 3.060300000000000153e+01 -1.480774000000000079e+01 -3.632729289051451760e-01
3.760799999999999699e+01 -2.260999999999999943e+01 7.059400000000000119e-01 -1.029702999999999946e+01 -2.867865584740739715e-01
3.760900000000000176e+01 -1.670400000000000063e+01 -1.298499999999999943e+01 1.840108000000000033e+01 -2.879122290468812406e-01
3.761500000000000199e+01 -8.702700000000000102e+00 -2.642000000000000171e+01 -5.896784000000000248e+00 -2.955783867075032489e-01
3.761500000000000199e+01 -8.702700000000000102e+00 -2.501999999999999957e+01 -5.087286999999999892e+00 -3.067890473314288102e-01
3.761500000000000199e+01 -7.837500000000000355e+00 -2.642000000000000171e+01 3.531975000000000087e+00 -2.966611500200976859e-01
3.761500000000000199e+01 -7.837500000000000355e+00 -2.501999999999999957e+01 -1.136500999999999983e+01 -2.951751608087838652e-01
3.761500000000000199e+01 -6.173000000000000043e+00 -3.052100000000000080e+01 -2.259382000000000001e+00 -9.780085051788704395e-03
3.761800000000000210e+01 -1.946699999999999875e+01 9.321999999999999176e+00 -3.047125000000000128e+01 -2.870426500075484721e-01
3.762100000000000222e+01 2.463699999999999779e+00 4.246999999999999886e+00 3.330909000000000120e+00 -2.871230089655361084e-01
3.762199999999999989e+01 -1.190399999999999991e+01 -9.157600000000000406e+00 -1.937749000000000166e+01 -2.889162760426667864e-01
3.762299999999999756e+01 -2.779100000000000126e+00 4.003799999999999670e+01 3.916429999999999723e+01 -2.869445088955346335e-01
3.762400000000000233e+01 -1.516099999999999959e+01 8.924899999999999167e+00 -9.161557000000000173e+00 -2.873330676134340789e-01
3.762500000000000000e+01 -1.243800000000000017e+00 3.660000000000000142e+01 3.621958000000000122e-02 -2.869304833601368787e-01
3.762599999999999767e+01 -2.378999999999999915e+01 -7.917099999999999582e+00 -5.047310000000000407e+00 -2.864177476664216959e-01
3.762599999999999767e+01 -2.292500000000000071e+01 -9.317099999999999937e+00 -2.299300999999999817e+00 -2.864736366990541794e-01
3.762599999999999767e+01 -2.292500000000000071e+01 -7.917099999999999582e+00 -5.814918999999999727e+00 -2.865379518717874330e-01
3.762800000000000011e+01 5.342999999999999972e+00 2.239000000000000057e+01 -1.972703999999999880e+01 -3.000918438055212856e-01
3.763000000000000256e+01 1.322400000000000020e+01 1.835000000000000142e+01 5.463732000000000255e+00 -1.837866171059281961e-01
3.763100000000000023e+01 -2.190200000000000102e+01 2.617000000000000171e+01 3.285246000000000066e+01 -2.868836523305475783e-01
3.763100000000000023e+01 -2.027199999999999847e+01 2.617000000000000171e+01 1.389430000000000121e+02 -2.869342596520086941e-01
3.763100000000000023e+01 2.182599999999999874e+00 -2.917800000000000082e+01 6.756933000000000078e+00 -1.204157193200338788e-01
3.763100000000000023e+01 -5.583099999999999952e+00 4.004800000000000182e+01 1.023316999999999943e+01 -2.870075813879428561e-01
3.763199999999999790e+01 -2.044299999999999784e+00 -1.927699999999999969e+00 -1.994679000000000091e+00 -2.879479955640826261e-01
3.763199999999999790e+01 -2.044299999999999784e+00 -9.882900000000000018e-01 -1.504572000000000020e+00 -2.878758553798879127e-01
3.763199999999999790e+01 -8.336000000000000076e-01 -2.997700000000000031e+01 2.272027999999999892e+01 -1.112041471711674168e-01
3.763300000000000267e+01 -1.930999999999999872e+01 -1.040000000000000036e+01 1.100911999999999935e+01 -2.871245370612652281e-01
3.763300000000000267e+01 -1.910099999999999909e+01 -1.113599999999999923e+01 1.396767999999999965e+01 -2.871670659650694679e-01
3.763300000000000267e+01 -2.154999999999999805e+00 -2.725000000000000089e+00 -1.693111999999999950e+00 -2.880323091752957643e-01
3.763300000000000267e+01 -1.945899999999999963e+00 -3.460999999999999854e+00 2.214846000000000092e+00 -2.880634457149880423e-01
3.763300000000000267e+01 -7.550099999999999589e-01 -4.125000000000000000e+00 1.117212999999999923e+01 -2.879101888141322729e-01
3.763700000000000045e+01 -2.387300000000000111e+01 -1.689499999999999957e+01 -4.895212000000000074e+01 -2.856366614250867020e-01
3.763799999999999812e+01 8.585000000000000853e+00 3.270099999999999785e+00 -1.000320999999999927e+01 -1.817273686441046310e-01
3.763900000000000290e+01 -7.993999999999999773e+00 1.016699999999999937e+00 -1.782514000000000109e+01 -2.882970731006084808e-01
3.763900000000000290e+01 -1.229899999999999949e+01 9.133499999999999730e+00 5.902760999999999925e+00 -2.875189439163893246e-01
3.763900000000000290e+01 -1.470299999999999940e+01 2.792500000000000071e+01 6.280056000000000083e+00 -2.870939721312643078e-01
3.763900000000000290e+01 -1.595700000000000074e+01 3.329400000000000137e+00 3.999324000000000012e+01 -2.873962721453595104e-01
3.763900000000000290e+01 -1.595700000000000074e+01 4.194700000000000095e+00 3.706190000000000140e+01 -2.873752641393588769e-01
3.764099999999999824e+01 1.731700000000000017e+01 2.640299999999999869e+00 -1.041904000000000075e+01 -1.842497535594444513e-01
3.764600000000000080e+01 -4.441300000000000026e+00 4.010499999999999687e+01 1.074695000000000000e+01 -2.869807617365496832e-01
3.764999999999999858e+01 -1.256400000000000006e+01 4.192999999999999972e+01 -1.684968000000000021e+00 -2.870375144120241862e-01
3.765400000000000347e+01 5.901299999999999990e+00 2.684499999999999886e+01 1.034783000000000008e+01 -3.000615394923566992e-01
3.765400000000000347e+01 -4.052299999999999791e+00 3.929800000000000182e+01 9.623378000000000654e+00 -2.869778080425555156e-01
3.765699999999999648e+01 -1.059999999999999970e-01 -4.127900000000000347e+00 1.612306999999999935e+00 -2.877871181960444114e-01
3.765899999999999892e+01 -1.333500000000000085e+01 3.128600000000000136e+01 -2.605411000000000143e+00 -2.871015609480794817e-01
3.765999999999999659e+01 -2.414199999999999946e+01 4.633000000000000007e+00 1.216452000000000089e+00 -2.867080073506256821e-01
3.765999999999999659e+01 -2.388800000000000168e+01 3.739300000000000068e+00 -3.399049000000000098e-01 -2.867148185291656937e-01
3.766100000000000136e+01 1.588100000000000023e+01 6.192099999999999937e+00 3.582702999999999971e+00 -1.838695542204781541e-01
3.766199999999999903e+01 1.635099999999999909e+01 6.797100000000000364e-01 -1.065693000000000001e+00 -1.839670939848188636e-01
3.766199999999999903e+01 1.635099999999999909e+01 1.544999999999999929e+00 -3.650349999999999984e+00 -1.839617320921805577e-01
3.766799999999999926e+01 -1.941000000000000014e+01 2.350100000000000122e+01 6.754082999999999615e-01 -2.869710635803973120e-01
3.767199999999999704e+01 6.970900000000000318e+00 3.455400000000000205e+01 3.760864000000000118e+01 -3.000137725535699240e-01
3.767199999999999704e+01 1.840700000000000003e+01 1.321000000000000085e+01 1.054926999999999992e+01 -1.844832976802042723e-01
3.767199999999999704e+01 -7.701299999999999812e+00 -2.275900000000000034e+01 3.304657999999999873e+01 -3.019702255759746934e-01
3.767300000000000182e+01 -2.984599999999999920e+00 5.712699999999999445e-01 5.504934000000000438e+00 -2.878809113035795120e-01
3.767300000000000182e+01 1.110400000000000054e+00 -3.454099999999999948e+00 -9.970510000000000206e-01 -2.875329205872443894e-01
3.767399999999999949e+01 4.467500000000000249e+00 2.685800000000000054e+01 1.345130999999999943e+01 -2.868094155968533565e-01
3.767499999999999716e+01 -3.802299999999999791e+00 4.003000000000000114e+01 7.479661000000000115e+00 -2.869656658465054577e-01
3.767900000000000205e+01 -6.782099999999999795e+00 -2.207700000000000173e+01 1.923450000000000060e+01 -3.008090186988201520e-01
3.767999999999999972e+01 1.438499999999999979e+01 1.040899999999999936e+00 -1.598710999999999993e+00 -1.833096200239037743e-01
3.768099999999999739e+01 -4.269199999999999662e+00 2.518599999999999994e+01 -2.485570999999999842e+01 -2.871367563799183675e-01
3.768200000000000216e+01 -1.151399999999999935e+01 -2.694999999999999929e+01 2.205955000000000069e-02 -2.860057881441667726e-01
3.768200000000000216e+01 -1.628800000000000026e+01 -2.251000000000000156e+01 3.952209999999999890e-01 -2.883943745368896527e-01
3.768299999999999983e+01 -1.547199999999999909e+00 3.589999999999999858e+01 1.912915000000000032e-01 -2.869402766879564082e-01
3.768399999999999750e+01 -2.335800000000000054e+01 -1.812000000000000055e+00 -3.006168000000000173e+00 -2.866635737905677273e-01
3.769100000000000250e+01 3.599099999999999966e+00 2.305799999999999983e+01 2.727221000000000117e+01 -2.868545485320801447e-01
3.769200000000000017e+01 -1.947599999999999909e+01 -8.934100000000000819e+00 6.220004999999999740e+01 -2.870888031565718146e-01
3.769200000000000017e+01 -1.924500000000000099e+01 -9.749000000000000554e+00 9.551937000000000344e-01 -2.871307639644397613e-01
3.769400000000000261e+01 8.350400000000000489e+00 3.196099999999999852e+01 6.454349999999999810e+00 -2.998097865427647446e-01
3.770000000000000284e+01 -6.475100000000000300e+00 1.115099999999999980e+00 -7.526712999999999987e+00 -2.882558768043418929e-01
3.770199999999999818e+01 -2.392099999999999937e+01 -1.955600000000000094e+01 6.582462000000000035e-01 -2.851971044925435406e-01
3.770400000000000063e+01 -1.366499999999999915e+01 -2.397800000000000153e+01 -3.815847000000000211e+00 -2.926254671320939194e-01
3.771000000000000085e+01 2.299300000000000122e+00 7.022599999999999731e+00 6.939060999999999702e+00 -2.870741541301268240e-01
3.771399999999999864e+01 -5.315999999999999837e+00 9.019700000000000273e+00 -3.031953000000000120e+00 -2.876200752313468612e-01
3.771500000000000341e+01 -1.440099999999999980e+01 -6.849400000000000155e+00 6.743591000000000335e+00 -2.880615174328198247e-01
3.771500000000000341e+01 -1.262899999999999956e+01 -6.849400000000000155e+00 1.361006000000000071e+01 -2.884206190985513785e-01
3.771500000000000341e+01 -1.972200000000000131e+01 -7.840300000000000047e+00 1.027003999999999984e+01 -2.870462737971816169e-01
3.771600000000000108e+01 2.202799999999999869e+01 -5.272000000000000242e+00 9.056354000000000681e+00 -1.866537277110603132e-01
3.771600000000000108e+01 2.202799999999999869e+01 -3.572000000000000064e+00 2.600749000000000066e+01 -1.863356232086985365e-01
3.771699999999999875e+01 -1.824899999999999878e+01 -1.891600000000000037e+01 -9.420666000000000651e+00 -2.871850020019296457e-01
3.772099999999999653e+01 -4.442999999999999616e+00 1.368100000000000094e+00 3.323476000000000141e+01 -2.879914143636759238e-01
3.772200000000000131e+01 1.216699999999999893e+00 3.960099999999999909e+01 4.384345999999999854e+00 -2.868511499843561796e-01
3.772200000000000131e+01 -2.014199999999999946e+01 2.051999999999999957e+01 1.144247000000000014e+01 -2.869535400143264914e-01
3.772200000000000131e+01 -1.566000000000000059e+00 3.745000000000000284e+01 -3.157309999999999839e-01 -2.869286194647351351e-01
3.772200000000000131e+01 -2.155799999999999983e+01 -1.223999999999999977e+00 -1.228373999999999988e+01 -2.868553234460656243e-01
3.772299999999999898e+01 1.646900000000000119e+01 -1.901000000000000156e+01 -5.431229000000000084e+00 -1.761554460045501869e-01
3.772500000000000142e+01 -1.696799999999999997e+01 -1.985399999999999920e+01 -1.592103999999999964e+00 -2.879259744447175140e-01
3.772599999999999909e+01 -8.336999999999999744e+00 4.092099999999999937e+01 -4.376189000000000107e+01 -2.870562345992898612e-01
3.772599999999999909e+01 -6.987000000000000099e+00 4.029399999999999693e+01 -3.554775000000000063e+01 -2.870327971702241188e-01
3.772599999999999909e+01 1.603200000000000003e+01 9.140399999999999636e+00 9.792863999999999791e+00 -1.839658637760612503e-01
3.772599999999999909e+01 1.624099999999999966e+01 9.876400000000000290e+00 2.123601999999999990e+01 -1.840255213677495782e-01
3.772699999999999676e+01 -9.898999999999999133e+00 4.100200000000000244e+01 -8.456701999999999941e+00 -2.870886261768345049e-01
3.773499999999999943e+01 -1.947200000000000131e+01 -7.040499999999999758e+00 -1.321523000000000003e+01 -2.870916879448373593e-01
3.773700000000000188e+01 6.853299999999999947e+00 3.554599999999999937e+01 2.947201000000000093e+01 -3.000372045121461606e-01
3.773700000000000188e+01 -1.125999999999999979e+01 -2.371000000000000085e+01 1.734286000000000172e+01 -2.982891355321287130e-01
3.773899999999999721e+01 2.041400000000000148e+01 -1.567299999999999915e+00 -3.245548000000000144e+01 -1.854980392171748649e-01
3.774000000000000199e+01 -4.432999999999999829e+00 2.282100000000000151e+01 1.597355000000000080e+00 -2.871772896319349511e-01
3.774000000000000199e+01 -3.032999999999999918e+00 2.282100000000000151e+01 2.608830999999999900e+00 -2.871205843027812010e-01
3.774199999999999733e+01 -2.670400000000000063e+01 -7.464000000000000412e+00 -3.304288000000000114e+00 -2.860874715551504632e-01
3.774199999999999733e+01 -2.670400000000000063e+01 -6.506000000000000227e+00 -9.527362000000000108e+00 -2.861427028398518813e-01
3.774199999999999733e+01 8.596999999999999531e+00 -2.861899999999999977e+01 1.830211999999999950e+00 -8.246637445478162409e-02
3.774199999999999733e+01 1.626899999999999835e+01 5.314000000000000057e+00 -7.933086000000000304e+00 -1.839577115870391077e-01
3.774199999999999733e+01 -7.306000000000000050e+00 -2.212199999999999989e+01 2.158407000000000053e+01 -3.007780572904760197e-01
3.774300000000000210e+01 2.342999999999999972e+00 8.598000000000000753e+00 5.942205999999999655e+00 -2.870419008497150370e-01
3.774300000000000210e+01 2.552099999999999813e+00 7.862000000000000099e+00 6.170137000000000427e+00 -2.870363898636736910e-01
3.774300000000000210e+01 9.443399999999999572e-01 -2.872400000000000020e+01 6.733840999999999966e+00 -1.213949727021153419e-01
3.774300000000000210e+01 1.955099999999999838e+01 -1.645499999999999829e+01 1.512488999999999972e+00 -2.246008531944302944e-01
3.774300000000000210e+01 1.955099999999999838e+01 -1.475500000000000078e+01 5.120356000000000130e+00 -1.887766166750753927e-01
3.774399999999999977e+01 -2.321399999999999864e+01 -1.966499999999999915e+01 6.606986000000000248e-01 -2.852922768919471386e-01
3.774399999999999977e+01 -2.216400000000000148e+01 -1.966499999999999915e+01 8.787352999999999525e+00 -2.855313241640493049e-01
3.774699999999999989e+01 -6.680500000000000327e+00 -1.241600000000000037e+01 3.681980000000000075e+01 -2.911105202231722977e-01
3.774699999999999989e+01 -5.815199999999999925e+00 -1.241600000000000037e+01 3.380107999999999890e+00 -2.909641778209927088e-01
3.774900000000000233e+01 -8.981899999999999551e+00 -2.716700000000000159e+01 3.586190999999999907e+00 -2.955731814434260363e-01
3.775099999999999767e+01 8.724399999999999267e+00 1.999599999999999866e+01 -1.367286999999999964e+01 -3.632070181449715274e-01
3.775300000000000011e+01 2.930000000000000160e+00 3.945900000000000318e+01 -7.388590999999999553e+01 -2.868109528540291886e-01
3.775300000000000011e+01 1.817500000000000071e+01 -1.430400000000000027e+01 8.730408999999999864e+00 -1.875134196399794173e-01
3.775399999999999778e+01 1.509699999999999953e+01 -2.713700000000000045e+01 4.683366000000000362e+00 -1.762403512784500581e-01
3.775900000000000034e+01 -1.343900000000000006e+01 3.824699999999999989e+01 -1.288948999999999900e+00 -2.870420180383820297e-01
3.775900000000000034e+01 -1.624800000000000111e+01 -1.356099999999999994e+01 1.708433000000000135e+01 -2.880650320071845294e-01
3.775900000000000034e+01 -1.505700000000000038e+01 -1.422499999999999964e+01 1.305315000000000047e+01 -2.886172149554247501e-01
3.775999999999999801e+01 1.781800000000000139e+01 -1.744500000000000028e+01 4.240241000000000149e-01 -1.775884790278365322e-01
3.775999999999999801e+01 -1.584699999999999998e+00 3.859499999999999886e+01 1.185798999999999914e+01 -2.869202160812339142e-01
3.776100000000000279e+01 1.443200000000000038e+01 1.379700000000000060e+01 4.626778999999999975e+00 -1.837966679043839535e-01
3.776299999999999812e+01 -1.103200000000000003e+01 4.175999999999999801e+01 -5.406729999999999592e+00 -2.870649354259704467e-01
3.777000000000000313e+01 1.602700000000000102e+01 -2.188599999999999923e+01 -1.647618999999999889e-01 -1.763216536475989416e-01
3.777300000000000324e+01 1.672800000000000153e+01 1.054299999999999926e+01 3.429307000000000016e+01 -1.841385800172557485e-01
3.777300000000000324e+01 6.936700000000000088e+00 -2.876000000000000156e+01 1.295444000000000040e+00 5.930489801562024293e-02
3.777499999999999858e+01 -1.692299999999999827e+01 7.457300000000000040e+00 -3.442108999999999952e+01 -2.872236786197991387e-01
3.777700000000000102e+01 4.104700000000000237e+00 2.904599999999999849e+00 5.192808999999999564e+00 -2.998478136853928167e-01
3.777799999999999869e+01 1.918400000000000105e+01 -7.440099999999999492e-01 -3.024481000000000108e+01 -1.850010269561675191e-01
3.778000000000000114e+01 -2.272599999999999909e+01 -1.923999999999999932e+00 -6.036908999999999637e+00 -2.867141210822900521e-01
3.778000000000000114e+01 -2.186100000000000065e+01 -1.923999999999999932e+00 -1.389681999999999995e+01 -2.868066602869955295e-01
3.778000000000000114e+01 -2.186100000000000065e+01 -5.240200000000000413e-01 -1.258882999999999974e+01 -2.868245867011177674e-01
3.778099999999999881e+01 -2.205600000000000094e+01 9.838800000000000878e+00 -1.605680999999999869e+01 -2.868707971987922711e-01
3.778199999999999648e+01 -2.544999999999999929e+01 -8.303499999999999659e+00 -8.579818000000000167e-02 -2.861631323213306155e-01
3.778199999999999648e+01 -2.544999999999999929e+01 -5.666500000000000092e+00 -3.709136999999999773e+01 -2.863046031565400495e-01
3.778399999999999892e+01 -1.180700000000000038e+01 -6.402400000000000091e+00 2.335012000000000043e+01 -2.885170660417538113e-01
3.778699999999999903e+01 2.239699999999999847e+01 -4.421999999999999709e+00 1.467170999999999914e+01 -1.866253692314804868e-01
3.778999999999999915e+01 2.354999999999999982e+00 -2.982600000000000140e+00 2.582033000000000023e+00 -3.004972035835975497e-01
3.779399999999999693e+01 -8.334099999999999397e+00 -2.421900000000000119e+01 3.827675000000000161e+00 -3.053653369594993006e-01
3.779399999999999693e+01 -6.799000000000000377e+00 -2.575400000000000134e+01 3.632216999999999807e+00 -2.968117455568662910e-01
3.779399999999999693e+01 -6.799000000000000377e+00 -2.268400000000000105e+01 2.944963999999999871e+01 -3.021591153853050438e-01
3.779500000000000171e+01 -1.762399999999999878e+01 2.386400000000000077e+01 -1.762375000000000114e+01 -2.870258954994716616e-01
3.779599999999999937e+01 -1.242900000000000027e+01 -2.301000000000000156e+01 -5.690668999999999755e+00 -2.947447177116940820e-01
3.779599999999999937e+01 -1.156300000000000061e+01 -2.441000000000000014e+01 9.893556999999999491e+00 -2.984457620184702842e-01
3.779599999999999937e+01 -1.156300000000000061e+01 -2.301000000000000156e+01 1.171771000000000029e+01 -2.966210354436675800e-01
3.779800000000000182e+01 -3.572999999999999954e+00 3.852300000000000324e+01 1.437421999999999933e+01 -2.869663342480388568e-01
3.779999999999999716e+01 -1.331199999999999939e+01 -8.728400000000000603e+00 -6.843811999999999784e+00 -2.884682349007628988e-01
3.779999999999999716e+01 -1.331199999999999939e+01 -7.328400000000000247e+00 3.837477999999999945e+00 -2.883136707564984413e-01
3.779999999999999716e+01 -1.240499999999999936e+01 -8.728400000000000603e+00 -1.290836999999999968e+01 -2.886879124828828913e-01
3.780199999999999960e+01 -1.836799999999999855e+01 2.382199999999999918e+01 -1.733699000000000012e+01 -2.870002073879097670e-01
3.780199999999999960e+01 1.628300000000000125e+01 8.324799999999999756e+00 8.348162000000000305e+00 -1.840070539916270342e-01
3.780299999999999727e+01 3.113999999999999879e+00 -2.914499999999999957e+01 3.908268000000000075e+00 -1.126644057192873333e-01
3.780299999999999727e+01 -1.376699999999999946e+01 -9.372999999999999332e+00 5.860686000000000284e+00 -2.884289849342571710e-01
3.780599999999999739e+01 7.041999999999999815e+00 3.382000000000000028e+01 2.159368999999999872e+01 -2.999954108309655920e-01
3.780599999999999739e+01 -2.445200000000000173e+01 -8.239699999999999136e+00 -2.399532000000000054e-01 -2.862829871428043127e-01
3.780799999999999983e+01 -1.530000000000000071e+01 -2.373999999999999844e+01 5.165357000000000420e-01 -2.894453586698826353e-01
3.780799999999999983e+01 -2.094599999999999795e+00 2.497800000000000153e+01 -4.836461000000000232e-01 -2.870501511907795900e-01
3.780899999999999750e+01 -2.053800000000000026e+01 -1.812199999999999989e+01 2.456662999999999819e+00 -2.862412944954364491e-01
3.781099999999999994e+01 -1.962199999999999989e+01 1.419400000000000084e+01 1.782726000000000033e+00 -2.869966847965751411e-01
3.781300000000000239e+01 2.112600000000000122e+01 -5.615800000000000125e+00 1.516341000000000072e+01 -1.863789111509889795e-01
3.781300000000000239e+01 1.772500000000000142e+01 -6.506300000000000416e-01 -1.170077000000000034e+01 -1.844860813877230721e-01
3.781400000000000006e+01 -1.560599999999999987e+01 5.573500000000000121e+00 -7.837030999999999636e+00 -2.873571534995295607e-01
3.781400000000000006e+01 1.992000000000000171e+01 -1.560500000000000043e+01 4.189589999999999925e+00 -2.244362971903343384e-01
3.781499999999999773e+01 1.543399999999999928e+01 6.813299999999999912e+00 1.451130999999999993e+01 -1.837766723643042832e-01
3.781799999999999784e+01 -2.199899999999999878e+01 -1.468099999999999916e+01 1.044148000000000032e+01 -2.862246772541904849e-01
3.781799999999999784e+01 -2.431700000000000017e+01 -4.908199999999999896e+00 -1.794641000000000020e+01 -2.864526921019196481e-01
3.781799999999999784e+01 4.257900000000000240e+00 -1.536000000000000032e+00 1.272761000000000031e+01 -2.992948778286932954e-01
3.781799999999999784e+01 4.466999999999999638e+00 -8.000000000000000444e-01 3.985568999999999917e+00 -2.992584082396568257e-01
3.781900000000000261e+01 -3.322999999999999954e+00 4.080499999999999972e+01 3.886306999999999956e+00 -2.869435848188000016e-01
3.782200000000000273e+01 -9.037699999999999179e+00 -2.447800000000000153e+01 2.906747000000000192e+00 -3.051314713552064628e-01
3.782500000000000284e+01 -7.732700000000000351e+00 -5.110400000000000276e+00 1.200500000000000078e+01 -2.890095004334630180e-01
3.782600000000000051e+01 -3.701099999999999834e+00 9.653000000000000469e+00 -3.738722000000000101e+00 -2.874603462824544819e-01
3.782600000000000051e+01 -1.055199999999999960e+01 8.878299999999999415e+00 1.258014000000000010e+01 -2.876285461897560292e-01
3.782800000000000296e+01 -1.691199999999999903e+01 8.937599999999999767e+00 -1.124985999999999997e+01 -2.871990555147465596e-01
3.782800000000000296e+01 -1.604700000000000060e+01 8.937599999999999767e+00 -9.785631000000000412e+00 -2.872574529469401616e-01
3.782900000000000063e+01 -8.066000000000000725e+00 -2.346000000000000085e+01 2.032486000000000104e+01 -3.035752961554923357e-01
3.782900000000000063e+01 -2.420899999999999963e+01 -4.420099999999999696e+00 -1.115052999999999983e+01 -2.864810316857065997e-01
3.782999999999999829e+01 -2.262699999999999889e+01 -1.628800000000000026e+01 8.241889000000000465e+00 -2.859013618319657390e-01
3.783100000000000307e+01 -2.248499999999999943e+01 1.714199999999999946e+01 -3.221582000000000168e+00 -2.868575577379539054e-01
3.783100000000000307e+01 -2.248499999999999943e+01 1.866199999999999903e+01 -1.007113000000000014e+01 -2.868586905719174296e-01
3.783100000000000307e+01 -2.154500000000000171e+01 1.714199999999999946e+01 -1.409934999999999938e+01 -2.868980824535010687e-01
3.783100000000000307e+01 1.639600000000000080e+01 -2.330999999999999872e+01 -3.702920999999999907e+00 -1.781066697378763108e-01
3.783200000000000074e+01 -6.233299999999999841e+00 -1.492099999999999937e+01 1.357027000000000072e+01 -2.924457619376816253e-01
3.783599999999999852e+01 1.375500000000000078e+01 1.540900000000000070e+01 1.501258999999999899e+00 -1.837476818585677685e-01
3.783700000000000330e+01 -1.292399999999999949e+01 -2.366900000000000048e+01 -1.191513999999999962e+00 -2.941022483851361002e-01
3.783800000000000097e+01 2.047400000000000020e+01 -2.505999999999999783e+00 -1.147794000000000025e+01 -1.856340124693736660e-01
3.784100000000000108e+01 -3.013399999999999967e-01 -2.951200000000000045e+01 1.154912000000000027e+01 -1.250971352021587046e-01
3.784499999999999886e+01 -2.104700000000000060e+01 1.325699999999999967e+01 2.530930999999999820e+00 -2.869243334169939708e-01
3.784700000000000131e+01 7.849000000000000199e+00 3.270099999999999785e+00 -1.005677999999999983e+01 -3.630123806227932848e-01
3.784700000000000131e+01 9.320999999999999730e+00 3.270099999999999785e+00 -6.257462000000000302e+00 -1.819301607593456216e-01
3.784799999999999898e+01 1.708200000000000074e+01 1.131099999999999994e+01 7.781287000000000376e+01 -1.842219352072403393e-01
3.785099999999999909e+01 4.591999999999999638e+00 2.674199999999999841e-02 2.884069999999999911e+00 -2.992866261077881118e-01
3.785300000000000153e+01 -1.949699999999999989e+01 2.146099999999999852e+01 -5.829793999999999699e+00 -2.869688254257574123e-01
3.785399999999999920e+01 -1.557399999999999984e+01 4.960300000000000153e+00 1.300499000000000072e+00 -2.873702779148914477e-01
3.785499999999999687e+01 -1.574000000000000021e+01 6.496699999999999697e+00 -4.984523000000000081e+01 -2.873230203495760748e-01
3.785699999999999932e+01 -2.034400000000000119e+01 1.768599999999999994e+01 1.854498999999999898e+00 -2.869478523828443706e-01
3.786200000000000188e+01 -2.108699999999999974e+01 2.617000000000000171e+01 2.054183000000000092e+01 -2.869005461116241884e-01
3.786299999999999955e+01 -4.788299999999999557e+00 3.929800000000000182e+01 1.018145999999999951e+01 -2.869859951661963837e-01
3.786299999999999955e+01 -1.244899999999999984e+01 3.127299999999999969e+01 -1.555064999999999920e+00 -2.871186150017311367e-01
3.786500000000000199e+01 -2.414900000000000091e+01 -7.539699999999999847e+00 -1.173523999999999923e+01 -2.863483647357973894e-01
3.786500000000000199e+01 -2.328300000000000125e+01 -7.539699999999999847e+00 -7.501604999999999634e+00 -2.864615861473431280e-01
3.786699999999999733e+01 -3.263300000000000090e+00 2.567800000000000082e+01 -2.134354000000000084e+01 -2.870806981538011060e-01
3.786699999999999733e+01 -2.398000000000000131e+00 2.567800000000000082e+01 -9.922767000000000337e+00 -2.870491457540765290e-01
3.786699999999999733e+01 2.103500000000000014e+01 -3.549700000000000077e+00 2.091457000000000122e+01 -1.859850861592369786e-01
3.786800000000000210e+01 -5.100699999999999790e+00 -1.416300000000000026e+01 1.263626999999999967e+01 -2.914227906718803163e-01
3.786999999999999744e+01 -3.893400000000000194e+00 3.767900000000000205e+01 9.142652999999999253e+00 -2.869773855987116651e-01
3.787100000000000222e+01 1.608699999999999974e+01 -2.408299999999999841e+01 4.882564000000000348e+00 -1.780402560731146333e-01
3.787199999999999989e+01 1.136700000000000088e+01 -2.988800000000000168e+01 -3.338457000000000008e+00 -1.373943159539872672e-01
3.787199999999999989e+01 1.382699999999999996e+01 -2.988800000000000168e+01 -1.212368000000000023e+01 -1.721865041232220617e-01
3.787199999999999989e+01 1.859299999999999997e+01 -1.653500000000000014e+01 4.315877999999999659e+00 -1.783041862434356362e-01
3.787299999999999756e+01 1.573799999999999955e+01 7.513300000000000090e+00 1.347512000000000043e+01 -1.838673605987727888e-01
3.787599999999999767e+01 -1.881099999999999994e+01 7.270400000000000418e+00 -2.781388000000000105e+01 -2.870808741406705167e-01
3.787700000000000244e+01 -3.956900000000000084e+00 3.599799999999999756e+01 5.553950999999999638e+00 -2.869924766274117856e-01
3.787800000000000011e+01 6.115300000000000402e+00 2.233099999999999952e+01 -4.664198999999999984e+01 -2.999511916730633332e-01
3.787800000000000011e+01 7.054700000000000415e+00 2.233099999999999952e+01 -4.061702999999999975e+01 -2.997876071726911507e-01
3.788000000000000256e+01 1.418299999999999983e+01 -2.820799999999999841e+01 -2.460212999999999894e+01 -1.731821468000992459e-01
3.788100000000000023e+01 -8.437400000000000233e+00 -2.275900000000000034e+01 6.649528000000000105e+00 -3.015157267272522978e-01
3.788199999999999790e+01 4.722900000000000098e+00 9.339699999999999669e-01 7.420326000000000199e+00 -2.993193241096336887e-01
3.788199999999999790e+01 -9.743000000000000327e+00 -2.968599999999999994e+01 -2.221330000000000027e+00 -2.852624137136924309e-01
3.788199999999999790e+01 -9.516000000000000014e+00 -3.048499999999999943e+01 1.063817999999999930e+00 -2.814528479607255607e-01
3.788199999999999790e+01 -8.223000000000000753e+00 -3.120599999999999952e+01 -8.572570999999999941e+00 1.681179009991672427e-02
3.788400000000000034e+01 1.669600000000000151e+01 1.388400000000000034e+01 1.827021999999999835e+01 -1.841952012101914227e-01
3.788400000000000034e+01 -2.126999999999999957e+01 -1.823699999999999832e+01 5.611542000000000030e+00 -2.859581821414543534e-01
3.788700000000000045e+01 -1.784199999999999875e+01 9.357100000000000861e+00 -1.827841000000000093e+01 -2.871280380700879653e-01
3.788799999999999812e+01 -2.173999999999999844e+01 -1.887399999999999878e+01 1.372382999999999953e+01 -2.857190728808227664e-01
3.788799999999999812e+01 -1.577299999999999969e+01 2.472200000000000131e+01 2.486142999999999859e+01 -2.870788471280590892e-01
3.788900000000000290e+01 1.364899999999999913e+01 1.040899999999999936e+00 8.839152999999999594e-01 -1.830687011491447524e-01
3.788900000000000290e+01 1.512100000000000044e+01 1.040899999999999936e+00 -1.672295000000000087e+00 -1.835627568377582175e-01
3.788900000000000290e+01 -2.147400000000000020e+01 1.954500000000000171e+01 -1.759396000000000015e-01 -2.868961165991574802e-01
3.789000000000000057e+01 -5.088700000000000223e+00 -1.322000000000000064e+01 4.704378000000000171e+00 -2.909520172809395011e-01
3.789300000000000068e+01 -1.004599999999999937e+01 -9.484700000000000131e+00 1.380000000000000071e+01 -2.893713319689061314e-01
3.789300000000000068e+01 -1.921099999999999852e+01 1.692699999999999960e+01 5.739996999999999794e+00 -2.869990044562539255e-01
3.789399999999999835e+01 -2.281400000000000006e+01 1.790200000000000102e+01 -1.313162999999999947e+01 -2.868415306080242533e-01
3.789900000000000091e+01 -1.395299999999999940e+01 3.315200000000000102e+01 -2.561478000000000144e+00 -2.870631312113224309e-01
3.789900000000000091e+01 -1.131600000000000072e+01 2.964900000000000091e+01 3.103133999999999837e+00 -2.871646611716988096e-01
3.789900000000000091e+01 -1.131600000000000072e+01 3.051500000000000057e+01 -3.272279000000000160e+00 -2.871551057644775029e-01
3.790100000000000335e+01 -2.226000000000000156e+01 -1.382499999999999929e+01 1.010350000000000037e+01 -2.862225997341134032e-01
3.790299999999999869e+01 -8.759299999999999642e+00 -1.497899999999999920e+01 1.429024000000000072e+00 -2.916866441355016049e-01
3.790299999999999869e+01 -1.079299999999999926e+01 -2.885400000000000187e+00 2.801122000000000156e+01 -2.882906379165886546e-01
3.790400000000000347e+01 1.266600000000000037e+01 1.914799999999999969e+01 7.570539000000000129e+00 -1.837469249331364352e-01
3.790500000000000114e+01 8.152400000000000091e+00 2.570100000000000051e+00 -1.439431000000000083e+01 -3.629855401491425826e-01
3.790500000000000114e+01 8.152400000000000091e+00 3.970099999999999962e+00 -1.752901999999999916e+01 -3.630188573496158644e-01
3.790500000000000114e+01 9.017599999999999838e+00 2.570100000000000051e+00 -2.021381999999999834e+01 -1.817589910950588028e-01
3.790500000000000114e+01 9.017599999999999838e+00 3.970099999999999962e+00 -6.383926999999999907e+00 -1.819333866853572457e-01
3.790800000000000125e+01 -9.237500000000000711e+00 -5.165499999999999758e+00 1.557802000000000042e+01 -2.887799421045311177e-01
3.790899999999999892e+01 -1.435500000000000043e+01 8.887600000000000833e+00 -2.968074000000000101e+00 -2.873671982239183742e-01
3.790899999999999892e+01 -6.369299999999999962e+00 -2.640500000000000114e+01 1.447577000000000069e+01 -2.974335561943172168e-01
3.791100000000000136e+01 1.259699999999999953e+01 -3.071099999999999852e+01 -1.973658000000000001e+01 -1.603620395252204345e-01
3.791100000000000136e+01 -9.620599999999999596e+00 -2.887000000000000099e+01 1.159195999999999893e+00 -2.899738081621349162e-01
3.791199999999999903e+01 1.200399999999999939e-01 9.835499999999999687e+00 -2.656543999999999794e+00 -2.871637148299728826e-01
3.791199999999999903e+01 1.520000000000000018e+00 9.835499999999999687e+00 -1.237489999999999979e+00 -2.870625630270374762e-01
3.791199999999999903e+01 -1.767800000000000082e+01 8.028700000000000614e+00 -1.397081000000000017e+01 -2.871513978038554016e-01
3.791299999999999670e+01 1.396100000000000030e+01 -2.896399999999999864e+01 -3.529939000000000249e+01 -1.726612049033290908e-01
3.791400000000000148e+01 -2.702999999999999847e+00 3.536399999999999721e+01 -8.020635000000000403e-01 -2.869633923539622322e-01
3.791499999999999915e+01 -1.565799999999999947e+01 2.519000000000000128e+00 3.897977000000000203e+01 -2.874173404079994332e-01
3.791700000000000159e+01 1.130899999999999928e+01 -2.912300000000000111e+01 -8.597963999999999274e+00 -1.382910944844583934e-01
3.791700000000000159e+01 1.130899999999999928e+01 -2.825799999999999912e+01 -8.159197000000000699e+00 -1.413527746466836099e-01
3.791799999999999926e+01 -6.873000000000000220e+00 -3.057900000000000063e+01 -6.720115999999999978e+00 -8.669550929294448510e-03
3.791899999999999693e+01 -1.303700000000000081e+01 9.060800000000000409e+00 8.544356000000000506e+00 -2.874510342329366086e-01
3.792099999999999937e+01 -4.484899999999999665e+00 3.859799999999999898e+01 7.530446999999999669e+00 -2.869820284645810959e-01
3.792099999999999937e+01 -2.222500000000000142e+01 2.503900000000000015e-01 -8.050273999999999930e+00 -2.867822595089971616e-01
3.792300000000000182e+01 -2.414899999999999824e+00 -1.681799999999999962e-01 -9.256693000000000282e+00 -2.878050257987582738e-01
3.792300000000000182e+01 2.065599999999999881e+01 -4.421999999999999709e+00 2.119845000000000113e+01 -1.859831669126959242e-01
3.792499999999999716e+01 -1.298099999999999987e+01 4.176899999999999835e+01 -2.384904999999999831e+00 -2.870244562579353231e-01
3.792699999999999960e+01 -1.897400000000000020e+01 -6.480699999999999683e+00 -8.099213999999999913e+00 -2.871424982291196915e-01
3.792900000000000205e+01 -8.463699999999999335e+00 2.567099999999999937e-01 -5.078776999999999875e-01 -2.882824282125536208e-01
3.792999999999999972e+01 -1.731200000000000117e+01 -1.225900000000000034e+01 1.230082999999999949e+01 -2.875869000469334913e-01
3.793200000000000216e+01 4.642999999999999794e+00 2.244800000000000040e+01 1.744486999999999899e+00 -3.002113014023050641e-01
3.793299999999999983e+01 -7.131400000000000183e+00 -2.638700000000000045e+01 1.837846000000000046e+01 -2.982645262627710570e-01
3.793299999999999983e+01 6.421299999999999564e+00 3.643200000000000216e+01 2.236501000000000161e+01 -3.000915853533628885e-01
3.793299999999999983e+01 -9.496499999999999275e+00 -2.796999999999999886e+01 2.498613000000000195e+00 -2.936908275141922875e-01
3.793399999999999750e+01 1.829299999999999926e+01 -1.341600000000000037e+01 6.034403000000000183e+00 -1.872144980514959811e-01
3.793399999999999750e+01 -1.389600000000000080e+01 3.219299999999999784e+01 -4.016925999999999775e+00 -2.870709773420542232e-01
3.793800000000000239e+01 -1.686799999999999855e+01 -5.447700000000000209e+00 6.505289000000000321e+00 -2.874856708499547997e-01
3.793900000000000006e+01 1.632199999999999918e+01 -2.229400000000000048e+01 -9.082409999999999650e-01 -1.777736976511102296e-01
3.793999999999999773e+01 -8.134000000000000341e+00 -2.205900000000000105e+01 1.068912000000000084e+01 -3.002198510603159010e-01
3.793999999999999773e+01 -7.268699999999999939e+00 -2.497899999999999920e+01 -9.003997999999999280e+00 -3.084399595536100325e-01
3.793999999999999773e+01 -7.268699999999999939e+00 -2.345899999999999963e+01 1.229786000000000001e+02 -3.040900276239394406e-01
3.794100000000000250e+01 -1.364100000000000001e+01 3.418099999999999739e+01 5.395887000000000100e+00 -2.870617260500336054e-01
