1.730000000000000071e+01 -4.146999999999999886e+01 8.149900000000000588e+00 -1.348319000000000045e+01 -6.836310506835650835e-02
1.730999999999999872e+01 -2.868599999999999994e+01 4.308200000000000252e+00 4.698256999999999906e+00 -2.152575903188907736e-01
1.731400000000000006e+01 -4.801599999999999824e+01 -2.676800000000000068e+00 -3.832303000000000237e-01 -2.260407386222159087e-01
1.731800000000000139e+01 -5.864099999999999824e+01 -7.093599999999999905e-01 8.678263999999999978e-01 -2.748151299602678010e-01
1.733699999999999974e+01 -5.797200000000000131e+01 -9.111399999999999499e-01 9.478343000000000185e-01 -1.872843596180724934e-01
1.733699999999999974e+01 -5.293999999999999773e+01 4.509800000000000253e+00 -3.139100000000000001e+00 -4.553056441217893935e-02
1.733999999999999986e+01 -5.423499999999999943e+01 1.469200000000000017e+01 -3.144238000000000088e+00 9.920232595594229152e-02
1.735500000000000043e+01 -4.184000000000000341e+01 1.277800000000000047e+01 -9.904579000000000022e+00 -1.323822075671006182e-01
1.737000000000000099e+01 -4.400900000000000034e+01 2.382900000000000063e+01 -1.068230999999999931e+01 -4.132871674094976688e-01
1.737699999999999889e+01 -4.088499999999999801e+01 -3.455999999999999961e+00 -4.048962999999999646e+00 -2.210849734218491014e-01
1.739399999999999835e+01 -3.154500000000000171e+01 9.773899999999999366e+00 -2.613385999999999854e+01 -1.150381534337110156e-01
1.739399999999999835e+01 -3.131800000000000139e+01 1.057300000000000040e+01 -1.289597999999999978e+01 -1.127389254687426456e-01
1.740099999999999980e+01 -5.628399999999999892e+01 -8.083299999999999930e-01 5.864413000000000542e-01 -1.805639229627957754e-01
1.740099999999999980e+01 -5.628399999999999892e+01 1.942299999999999915e+00 1.000319999999999965e+01 -1.636151178345782164e-01
1.740299999999999869e+01 -4.458100000000000307e+01 8.621299999999999741e+00 -1.978340000000000032e+01 -8.180386955141241700e-02
1.740299999999999869e+01 -4.339000000000000057e+01 7.957300000000000040e+00 -2.307087999999999894e+01 -7.885225131674722387e-02
1.740899999999999892e+01 -3.866199999999999903e+01 8.384000000000000341e+00 5.616771999999999876e-01 -6.784277825488582714e-02
1.741700000000000159e+01 -4.987899999999999778e+01 2.282700000000000173e+01 3.941178999999999988e+00 -2.146589948926530891e-02
1.741799999999999926e+01 -3.616400000000000148e+01 -3.617799999999999905e+00 6.027441999999999522e-01 -2.191469957773575783e-01
1.741900000000000048e+01 -3.293500000000000227e+01 1.749099999999999966e+01 -3.789339000000000013e+00 -1.293885005717779202e-01
1.742599999999999838e+01 -5.444100000000000250e+01 4.821799999999999642e+00 1.220953000000000088e+01 -4.866054610597572022e-02
1.742899999999999849e+01 -4.977000000000000313e+01 5.297399999999999887e-01 -9.836759000000000697e+00 -2.143266639149838115e-01
1.742999999999999972e+01 -5.533299999999999841e+01 7.443999999999999950e+00 -2.329083000000000125e-01 -6.290625510487377059e-02
1.742999999999999972e+01 -5.533299999999999841e+01 8.380200000000000315e+00 1.698234000000000021e+00 -7.035245060270464701e-02
1.742999999999999972e+01 -5.597899999999999920e+01 1.018299999999999983e+01 1.829211000000000098e+01 -7.512489098321026293e-02
1.744699999999999918e+01 -3.149800000000000111e+01 -2.867900000000000116e+00 4.153137000000000079e+00 -2.176993918815378903e-01
1.745700000000000074e+01 -5.184899999999999665e+01 2.198699999999999832e+01 -3.526270999999999933e+00 -3.746809521635348361e-02
1.745799999999999841e+01 -5.135799999999999699e+01 3.114700000000000024e+00 1.425667000000000018e+00 -2.011530502708458457e-01
1.746199999999999974e+01 -5.565200000000000102e+01 9.407500000000000639e+00 7.481015000000000192e+00 -8.558379420737730059e-02
1.747200000000000131e+01 -4.288300000000000267e+01 2.287099999999999866e+01 1.178868999999999945e+00 -4.146619043623422374e-01
1.748199999999999932e+01 -4.006700000000000017e+01 7.663000000000000256e+00 1.207886000000000060e+01 -6.642659565783211317e-02
1.748499999999999943e+01 -3.488199999999999790e+01 2.294999999999999929e+01 -9.583085999999999771e+00 -1.380787425985357808e-01
1.749899999999999878e+01 -3.239399999999999835e+01 1.364300000000000068e+01 -4.456687999999999761e+00 -1.236247833316671263e-01
1.749899999999999878e+01 -3.239399999999999835e+01 1.525399999999999956e+01 -5.685642999999999780e+00 -1.263914631021397783e-01
1.749899999999999878e+01 -3.239399999999999835e+01 1.611899999999999977e+01 -5.076114999999999711e+00 -1.281320237025525832e-01
1.751000000000000156e+01 -4.821399999999999864e+01 2.230699999999999861e+01 6.573783999999999850e+00 -5.421849410832792204e-02
1.751099999999999923e+01 -3.462100000000000222e+01 2.026099999999999923e+01 -9.320297000000000054e+00 -1.294274615355651137e-01
1.751500000000000057e+01 -3.075400000000000134e+01 6.392299999999999649e+00 -1.509052999999999933e+01 -2.145650796115775305e-01
1.751999999999999957e+01 -3.231300000000000239e+01 1.473700000000000010e+01 -4.612339999999999662e+00 -1.256854729615688726e-01
1.752100000000000080e+01 -3.922200000000000131e+01 -4.452300000000000146e+00 -2.940602999999999856e+00 -2.207386751662941404e-01
1.752100000000000080e+01 -3.752199999999999847e+01 -4.452300000000000146e+00 -2.622858000000000134e-01 -2.199731895735327902e-01
1.752899999999999991e+01 -5.446099999999999852e+01 1.399300000000000033e+01 6.486105000000000231e+00 1.175536024866011553e-01
1.752899999999999991e+01 -5.565100000000000335e+01 1.317699999999999960e+01 -1.528038999999999925e+00 -8.090474128274580123e-02
1.753200000000000003e+01 -4.968699999999999761e+01 -4.174900000000000277e-01 -9.559204999999999508e-01 -2.183359742316728913e-01
1.753200000000000003e+01 -4.947800000000000153e+01 -1.153499999999999970e+00 -6.212202000000000002e-01 -2.215173565794340826e-01
1.753300000000000125e+01 -5.382300000000000040e+01 1.836599999999999966e+01 -6.961263999999999896e+00 1.379422573712366373e-01
1.753300000000000125e+01 -5.382300000000000040e+01 1.930600000000000094e+01 -7.616407999999999845e+00 1.682893326292604907e-01
1.755600000000000094e+01 -4.526400000000000290e+01 1.111899999999999977e+01 -1.413907000000000025e+01 3.942691534279600396e-01
1.755600000000000094e+01 -4.526400000000000290e+01 1.198499999999999943e+01 -7.290992000000000139e+00 3.923734490052355750e-01
1.756099999999999994e+01 -5.329999999999999716e+01 1.586299999999999955e+01 -6.858896999999999800e+00 1.006304486705307671e-01
1.756099999999999994e+01 -5.309100000000000108e+01 1.659900000000000020e+01 -2.977370000000000072e+00 1.093477448813160724e-01
1.756099999999999994e+01 -5.404200000000000159e+01 1.513199999999999967e+01 -4.736044999999999838e+00 8.537093664964606754e-02
1.757700000000000173e+01 -2.859600000000000009e+01 -3.387399999999999967e+00 -9.358410999999999813e-02 -2.173126449618195122e-01
1.758699999999999974e+01 -3.857900000000000063e+01 2.379599999999999937e+01 -8.257092000000000320e-01 -4.200999940554214218e-01
1.758699999999999974e+01 -3.687899999999999778e+01 2.379599999999999937e+01 6.526740000000000208e+00 -1.279401016669910462e-01
1.759100000000000108e+01 -3.914800000000000324e+01 1.265199999999999925e+01 -9.695268999999999693e-01 -1.600015195600222873e-01
1.760000000000000142e+01 -2.821699999999999875e+01 1.880700000000000038e+00 5.251221999999999834e-01 -2.159057773619475762e-01
1.760699999999999932e+01 -5.688600000000000279e+01 3.249200000000000088e+00 4.080472000000000321e+00 -2.527951775987691274e-01
1.760800000000000054e+01 -4.591299999999999670e+01 2.372899999999999920e+01 -1.982131000000000043e+01 -4.134804953662984950e-01
1.761100000000000065e+01 -6.030599999999999739e+01 -3.273300000000000098e-01 4.132066999999999823e-01 -2.680965437172753707e-01
1.762500000000000000e+01 -4.737599999999999767e+01 2.216400000000000148e+01 2.892326000000000175e+00 -6.314333011283213004e-02
1.762800000000000011e+01 -6.043500000000000227e+01 2.472500000000000142e+00 3.013211999999999779e+00 -2.530897774022312641e-01
1.763100000000000023e+01 -4.659700000000000131e+01 -2.875100000000000211e+00 1.560284999999999922e+00 -2.244800039676067005e-01
1.763299999999999912e+01 -2.842299999999999827e+01 1.052999999999999936e+00 3.633840000000000181e+00 -2.161440268448018842e-01
1.763299999999999912e+01 -2.821399999999999864e+01 3.169899999999999940e-01 7.569904000000000188e+00 -2.163263873006573967e-01
1.763299999999999912e+01 -2.720700000000000074e+01 -2.477700000000000014e+00 -3.182265000000000121e+00 -2.168994715629584125e-01
1.763299999999999912e+01 -2.720700000000000074e+01 -6.902599999999999847e-01 1.570848999999999995e-01 -2.164856168428501149e-01
1.763299999999999912e+01 -2.695299999999999940e+01 -1.584000000000000075e+00 -1.137786999999999971e+01 -2.166671731820819513e-01
1.763599999999999923e+01 -4.529500000000000171e+01 2.399500000000000099e+01 -3.320763999999999783e+01 -4.128937612515681255e-01
1.764000000000000057e+01 -4.103399999999999892e+01 1.274099999999999966e+01 -9.418238000000000554e+00 -1.298806313864581674e-01
1.764199999999999946e+01 -5.530100000000000193e+01 5.029499999999999638e+00 -4.317095000000000238e-01 -3.806276479130528412e-02
1.765599999999999881e+01 -3.915200000000000102e+01 2.346099999999999852e+01 -1.167858000000000063e+00 -4.194112295301999360e-01
1.765599999999999881e+01 -5.338499999999999801e+01 1.744399999999999906e+01 -5.042182000000000386e+00 1.212904440624560376e-01
1.766100000000000136e+01 -4.624300000000000210e+01 2.292200000000000060e+01 -2.684133999999999887e+01 -4.147589227443689852e-01
1.766799999999999926e+01 -5.671699999999999875e+01 2.642300000000000093e+00 3.490438000000000152e+00 -2.549091079082875244e-01
1.767200000000000060e+01 -5.542699999999999960e+01 6.618599999999999817e+00 -4.677991000000000232e-01 -5.395768488407801794e-02
1.767599999999999838e+01 -3.475800000000000267e+01 1.957700000000000173e+01 1.014603999999999928e+01 -1.263409420613476331e-01
1.767599999999999838e+01 -3.454899999999999949e+01 1.884100000000000108e+01 1.881994999999999862e+01 -1.253736684407718849e-01
1.767999999999999972e+01 -2.799800000000000111e+01 2.510200000000000209e+00 1.505447999999999897e+00 -2.157180040212081096e-01
1.769200000000000017e+01 -4.033200000000000074e+01 2.287199999999999989e+01 -2.558148999999999784e+00 -4.179168589968372816e-01
1.770599999999999952e+01 -5.828799999999999670e+01 4.137100000000000222e+00 1.366657999999999928e+00 -2.500281979618096395e-01
1.770799999999999841e+01 -2.770899999999999963e+01 3.233000000000000096e+00 -9.207480999999999582e-01 -2.155120843913854445e-01
1.771399999999999864e+01 -3.449799999999999756e+01 -3.490000000000000213e+00 -1.067987999999999993e-01 -2.185484196530080858e-01
1.771499999999999986e+01 -4.341100000000000136e+01 -1.753300000000000081e+00 -1.448873999999999995e+00 -2.206714321277792323e-01
1.771499999999999986e+01 -4.221999999999999886e+01 -2.417300000000000004e+00 -2.875156000000000045e+00 -2.207963784013352027e-01
1.771699999999999875e+01 -3.192500000000000071e+01 1.262400000000000055e+01 -2.108756000000000075e+00 -1.233811523413362171e-01
1.772299999999999898e+01 -4.199199999999999733e+01 2.279700000000000060e+01 -4.256752999999999787e+00 -4.158524950672293774e-01
1.772299999999999898e+01 -2.983399999999999963e+01 -3.661200000000000010e+00 7.116114999999999524e-01 -2.175751284193296331e-01
1.772400000000000020e+01 -4.409000000000000341e+01 1.284900000000000020e+01 -1.222347000000000072e+01 1.771539070707264241e-01
1.772400000000000020e+01 -4.268999999999999773e+01 1.284900000000000020e+01 -1.205447000000000024e+01 -1.332722062760328119e-01
1.773499999999999943e+01 -2.908299999999999841e+01 4.947899999999999743e+00 1.133891000000000027e+01 -2.150464433249265339e-01
1.774699999999999989e+01 -5.650999999999999801e+01 1.100500000000000078e+01 2.238537999999999917e-01 -7.977694585637477853e-02
1.774800000000000111e+01 -5.182600000000000051e+01 3.872100000000000097e+00 -1.863995999999999986e+00 -1.990465290397135933e-01
1.775100000000000122e+01 -3.219800000000000040e+01 -2.809600000000000097e+00 5.756524999999999892e+00 -2.177810171120643512e-01
1.775400000000000134e+01 -5.974600000000000222e+01 3.340300000000000047e+00 1.202175000000000049e-01 -2.510544971434154893e-01
1.775499999999999901e+01 -3.811399999999999721e+01 1.177699999999999925e+01 -1.280959999999999965e+01 -1.593157132422619027e-01
1.775600000000000023e+01 -3.336800000000000210e+01 1.808099999999999952e+01 7.146296999999999677e+00 -1.285969634405808582e-01
1.775799999999999912e+01 -5.672399999999999665e+01 1.018299999999999983e+01 8.744796000000000236e-01 -7.346717794821817915e-02
1.776200000000000045e+01 -4.161299999999999955e+01 -3.266700000000000159e+00 -3.570101000000000191e+00 -2.211694531270306519e-01
1.776999999999999957e+01 -5.364000000000000057e+01 4.777099999999999902e+00 6.355171999999999599e+00 -4.852690544364936243e-02
1.777299999999999969e+01 -3.090099999999999980e+01 -3.532000000000000028e+00 1.284222999999999892e+00 -2.177355141162795049e-01
1.778200000000000003e+01 -3.032100000000000151e+01 5.692300000000000360e+00 -4.849114000000000146e+00 -2.147891879723572983e-01
1.779400000000000048e+01 -2.810800000000000054e+01 4.233799999999999564e+00 7.149349999999999872e-01 -2.152450061592988406e-01
1.780999999999999872e+01 -4.018500000000000227e+01 -3.723399999999999821e+00 -4.823941999999999730e+00 -2.207110372210461247e-01
1.781200000000000117e+01 -3.118199999999999861e+01 6.803300000000000125e+00 -1.150451999999999941e+01 -2.143883924753127168e-01
1.782300000000000040e+01 -5.638799999999999812e+01 9.407999999999999474e+00 3.225672999999999746e+01 -7.497905002766661053e-02
1.782300000000000040e+01 -5.335300000000000153e+01 2.006599999999999895e+01 -2.662979999999999947e+01 1.979101387631340692e-01
1.782400000000000162e+01 -4.858200000000000074e+01 -2.115800000000000125e+00 -9.213139000000000189e-01 -2.240202111551646280e-01
1.783200000000000074e+01 -3.772899999999999920e+01 9.336999999999999744e+00 -1.148029000000000011e+01 1.278446947137878986e-01
1.783200000000000074e+01 -3.772899999999999920e+01 1.080899999999999928e+01 -2.343072000000000088e+01 8.511400174407744712e-02
1.783200000000000074e+01 -3.752000000000000313e+01 1.007300000000000040e+01 -2.019714000000000098e+01 1.235361781086639771e-01
1.783599999999999852e+01 -4.409000000000000341e+01 8.224700000000000344e+00 -2.572439999999999927e+01 -7.926378420269443448e-02
1.783599999999999852e+01 -4.268999999999999773e+01 8.224700000000000344e+00 -1.602323000000000164e+01 -6.808962808894550300e-02
1.784100000000000108e+01 -3.817099999999999937e+01 8.780599999999999739e+00 -2.620174000000000114e-02 -6.797381914166508721e-02
1.786299999999999955e+01 -3.218800000000000239e+01 8.547200000000000131e+00 -1.118845999999999918e+01 -6.661290639173904349e-02
1.786299999999999955e+01 -3.197899999999999920e+01 7.811099999999999710e+00 -2.231810000000000116e+01 -2.139893823288576136e-01
1.786299999999999955e+01 -3.197899999999999920e+01 9.283200000000000784e+00 -2.458652000000000015e+01 2.009170356423365666e-01
1.786700000000000088e+01 -5.752100000000000080e+01 4.120000000000000107e+00 1.126304000000000016e+01 -2.505942326530294917e-01
1.786899999999999977e+01 -5.083200000000000074e+01 2.660600000000000076e+00 -1.747014000000000067e+00 -2.044656515929694773e-01
1.788899999999999935e+01 -5.051400000000000290e+01 8.503800000000000248e-01 -4.039947999999999873e+00 -2.112652886713051736e-01
1.788899999999999935e+01 -3.427700000000000102e+01 2.069500000000000028e+01 -1.555094000000000065e+01 -1.317697387262911635e-01
1.788899999999999935e+01 -3.427700000000000102e+01 2.229299999999999926e+01 -3.084061000000000163e+01 -1.374335909271602874e-01
1.788899999999999935e+01 -3.404999999999999716e+01 2.149399999999999977e+01 -3.247742999999999824e+01 -1.355991629751208127e-01
1.789799999999999969e+01 -5.052900000000000347e+01 1.757600000000000051e+00 -8.106156000000000361e+00 -2.079391758901945053e-01
1.791199999999999903e+01 -4.672099999999999653e+01 2.195700000000000074e+01 3.785204000000000235e+01 -6.947398746481918408e-02
1.791499999999999915e+01 -4.076700000000000301e+01 7.930399999999999672e+00 -9.418822000000000472e+00 -6.659579467656520646e-02
1.791499999999999915e+01 -3.936699999999999733e+01 7.930399999999999672e+00 1.632860999999999896e+00 -6.636503573983179582e-02
1.792099999999999937e+01 -5.572899999999999920e+01 6.940400000000000347e+00 -7.144146999999999581e-01 -5.547300886163734207e-02
1.792599999999999838e+01 -5.713400000000000034e+01 -1.133000000000000007e+00 9.778441000000000827e+00 -1.858976665690859342e-01
1.792599999999999838e+01 -5.568800000000000239e+01 -3.267399999999999749e-01 -1.295732000000000106e+00 -1.764480667051679108e-01
1.792599999999999838e+01 -5.568800000000000239e+01 1.460700000000000109e+00 -7.470717999999999748e+00 -1.665731416275298138e-01
1.792599999999999838e+01 -5.543399999999999750e+01 5.669999999999999485e-01 -3.772616000000000192e+00 -1.702632566796173641e-01
1.793100000000000094e+01 -3.550200000000000244e+01 2.313800000000000168e+01 -1.458871000000000073e+01 -1.338904588247442073e-01
1.793599999999999994e+01 -6.083100000000000307e+01 5.226699999999999680e-01 -5.435451000000000032e-01 -2.613654732195382913e-01
1.793599999999999994e+01 -6.083100000000000307e+01 1.573299999999999921e+00 1.070593000000000039e+01 -2.562853782402592095e-01
1.794200000000000017e+01 -5.017199999999999704e+01 3.811099999999999904e-02 -4.324537000000000297e+00 -2.152744204887522272e-01
1.794200000000000017e+01 -4.902900000000000347e+01 2.250199999999999889e+01 5.820575000000000188e+01 -4.002429647120703954e-02
1.796000000000000085e+01 -4.352799999999999869e+01 2.348199999999999932e+01 -4.194162999999999641e+00 -4.137390787931603531e-01
1.796900000000000119e+01 -4.740699999999999648e+01 -2.944799999999999862e+00 3.451022000000000256e-01 -2.247911235861569101e-01
1.797100000000000009e+01 -3.527300000000000324e+01 -3.554699999999999971e+00 -1.655671999999999977e-01 -2.187380274702573624e-01
1.797200000000000131e+01 -5.079699999999999704e+01 2.258500000000000085e+01 -3.578698000000000157e+00 -3.654296396415172565e-01
1.797700000000000031e+01 -5.943399999999999750e+01 -5.270099999999999785e-01 1.032129000000000074e+00 -2.695960648432534912e-01
1.798100000000000165e+01 -3.984799999999999898e+01 -4.095100000000000406e+00 -4.103998999999999953e+00 -2.206924157570651912e-01
1.798100000000000165e+01 -3.689600000000000080e+01 -4.095100000000000406e+00 4.315475000000000172e+00 -2.194668534029306506e-01
1.798199999999999932e+01 -5.278999999999999915e+01 2.072299999999999898e+01 -7.710837999999999859e+00 -8.705173731115958824e-02
1.798199999999999932e+01 -5.244500000000000028e+01 2.150600000000000023e+01 -4.488997000000000348e+00 -5.369590644574264576e-02
1.798199999999999932e+01 -5.588000000000000256e+01 7.833899999999999864e+00 1.413700999999999985e-01 -6.230006868763019595e-02
1.798400000000000176e+01 -4.928000000000000114e+01 -1.336899999999999977e+00 -1.005848999999999993e+00 -2.213811472138033642e-01
1.798499999999999943e+01 -5.638300000000000267e+01 3.967299999999999827e+00 -2.750091000000000063e-01 -2.515014709415027139e-01
1.799500000000000099e+01 -4.103199999999999648e+01 2.281400000000000006e+01 -3.504380999999999746e-01 -4.169310625012540017e-01
1.799699999999999989e+01 -4.490299999999999869e+01 9.847300000000000608e+00 -1.382643000000000022e+01 1.289351320188149574e-01
1.799699999999999989e+01 -4.490299999999999869e+01 1.071299999999999919e+01 -1.278966999999999921e+01 3.948979912292450711e-01
1.799899999999999878e+01 -3.224399999999999977e+01 1.626200000000000045e+01 -1.365892999999999979e+01 -1.283007543903101344e-01
1.799899999999999878e+01 -3.224399999999999977e+01 1.716400000000000148e+01 -2.081531000000000020e+01 -1.302846978233463959e-01
1.799899999999999878e+01 -4.774600000000000222e+01 2.175799999999999912e+01 4.371439999999999770e+00 -6.643428427442370221e-02
1.800000000000000000e+01 -4.574699999999999989e+01 -2.804300000000000015e+00 3.193314999999999904e-01 -2.232016127608275613e-01
1.800799999999999912e+01 -5.652300000000000324e+01 1.199300000000000033e+01 -2.291600999999999999e+00 -9.201029689744530393e-02
1.800799999999999912e+01 -5.619500000000000028e+01 1.273799999999999955e+01 -4.917766000000000304e+00 -7.753363620210630691e-02
1.800799999999999912e+01 -5.495100000000000051e+01 1.359600000000000009e+01 1.103584999999999994e+01 1.320847767319488775e-01
1.801500000000000057e+01 -3.195700000000000074e+01 1.403500000000000014e+01 -5.294005000000000294e+00 -1.251171940510397984e-01
1.801500000000000057e+01 -3.195700000000000074e+01 1.572700000000000031e+01 -7.319365000000000343e+00 -1.281504640815764873e-01
1.802400000000000091e+01 -3.984799999999999898e+01 1.291999999999999993e+01 -3.749073999999999796e+00 -1.263515677886082877e-01
1.802400000000000091e+01 -3.985999999999999943e+01 2.330300000000000082e+01 7.308615999999999779e+00 -4.184592985633572293e-01
1.802499999999999858e+01 -5.912599999999999767e+01 9.691000000000000725e+00 -3.183149999999999924e+00 -2.020911875785796341e-01
1.802700000000000102e+01 -3.171199999999999974e+01 1.488100000000000023e+01 -4.280381000000000213e+00 -1.273101879897945432e-01
1.803600000000000136e+01 -5.614699999999999847e+01 4.831000000000000405e+00 -3.097226000000000035e+00 -1.582552420248526520e-02
1.803999999999999915e+01 -3.191600000000000037e+01 1.313000000000000078e+01 -1.232203999999999944e+01 -1.238397945045756898e-01
1.803999999999999915e+01 -5.417699999999999960e+01 1.438899999999999935e+01 -6.265704000000000384e+00 1.031636892811893802e-01
1.804299999999999926e+01 -5.603099999999999881e+01 8.585499999999999687e+00 2.714196999999999971e+00 -9.082157608470575738e-02
1.806200000000000117e+01 -2.905699999999999861e+01 -3.624499999999999833e+00 -7.084551999999999516e-01 -2.173977419221621576e-01
1.806800000000000139e+01 -5.582300000000000040e+01 5.598600000000000243e+00 -2.544544000000000139e+00 -4.263751318459584050e-02
1.807400000000000162e+01 -4.482200000000000273e+01 1.151900000000000013e+01 -8.368657000000000679e+00 3.932593935608448832e-01
1.807499999999999929e+01 -5.913799999999999812e+01 4.066300000000000026e+00 2.138030000000000097e+00 -2.500226788860911986e-01
1.808699999999999974e+01 -4.426599999999999824e+01 -2.100200000000000067e+00 -2.410356999999999861e+00 -2.212506713709590789e-01
1.810300000000000153e+01 -4.452300000000000324e+01 8.924699999999999633e+00 -1.481673999999999936e+01 -8.129648635563095638e-02
1.810699999999999932e+01 -5.378600000000000136e+01 1.536500000000000021e+01 -1.037540000000000084e+01 7.682734018289755218e-02
1.810800000000000054e+01 -3.405799999999999983e+01 1.844399999999999906e+01 7.090406000000000120e+01 -1.259927828372304492e-01
1.811199999999999832e+01 -3.772899999999999920e+01 2.412099999999999866e+01 6.941751000000000005e+00 -1.184882956159041961e-01
1.811199999999999832e+01 -3.625300000000000011e+01 2.343900000000000006e+01 1.207016999999999918e+01 -1.287610103535326567e-01
1.811899999999999977e+01 -3.266700000000000159e+01 1.792399999999999949e+01 -6.526533999999999835e+00 -1.303873563723094708e-01
1.813700000000000045e+01 -5.866299999999999670e+01 -6.373299999999999521e-01 1.667653000000000052e+00 -2.703016302822868755e-01
1.813899999999999935e+01 -4.339000000000000057e+01 8.166399999999999437e+00 -1.976319000000000159e+01 -6.757309823711418750e-02
1.814699999999999847e+01 -3.364699999999999847e+01 -3.316800000000000193e+00 2.846756999999999849e+01 -2.182026434346291399e-01
1.814799999999999969e+01 -4.271099999999999852e+01 -2.020700000000000163e+00 -1.790018000000000109e+00 -2.203958776826020483e-01
1.814799999999999969e+01 -5.832500000000000284e+01 9.727999999999999758e+00 -3.555760999999999949e+00 -2.004813544619727106e-01
1.815399999999999991e+01 -3.160800000000000054e+01 1.010299999999999976e+01 -2.013601999999999848e+01 -1.151845328895964304e-01
1.815599999999999881e+01 -4.443200000000000216e+01 1.212700000000000067e+01 -6.831864999999999633e+00 3.920342822201893229e-01
1.815800000000000125e+01 -4.189699999999999847e+01 1.242099999999999937e+01 -9.139063999999999410e+00 -1.310367318567479122e-01
1.815800000000000125e+01 -2.780300000000000082e+01 -2.959299999999999820e+00 -2.648353000000000179e+00 -2.170447910362908739e-01
1.815899999999999892e+01 -5.632000000000000028e+01 3.075000000000000178e+00 2.299176000000000109e+00 -2.538410763982733576e-01
1.815899999999999892e+01 -5.736699999999999733e+01 9.792600000000000193e+00 -1.124327999999999994e+00 -7.230400952672906556e-02
1.816300000000000026e+01 -5.582399999999999807e+01 6.185999999999999943e+00 -7.914503000000000510e-01 -4.790138287695709651e-02
1.817500000000000071e+01 -2.767399999999999949e+01 -1.594700000000000006e-01 2.340012999999999954e-01 -2.163597158546499699e-01
1.817500000000000071e+01 -4.325000000000000000e+01 1.278599999999999959e+01 -1.083412000000000042e+01 -1.334213692093615122e-01
1.818199999999999861e+01 -4.119899999999999807e+01 8.630399999999999849e+00 -1.298784000000000027e+01 -6.809096552045894313e-02
1.820499999999999829e+01 -3.178699999999999903e+01 -3.335999999999999854e+00 2.877162000000000219e+00 -2.178005644743948310e-01
1.821499999999999986e+01 -5.255299999999999727e+01 4.231300000000000061e+00 -9.621176000000000172e-01 -1.977388263533512436e-01
1.821799999999999997e+01 -4.272200000000000131e+01 2.336400000000000077e+01 -2.813439999999999830e-01 -4.149146526460890660e-01
1.821799999999999997e+01 -4.006700000000000017e+01 7.872099999999999653e+00 3.113618000000000219e+00 -6.591681217633602041e-02
1.822599999999999909e+01 -5.722899999999999920e+01 1.072100000000000009e+01 -1.001543999999999990e+00 -7.866999878019435843e-02
1.824500000000000099e+01 -3.167299999999999827e+01 7.199900000000000411e+00 -1.766413999999999973e+01 -2.141947616119332931e-01
1.824500000000000099e+01 -5.688300000000000267e+01 4.831000000000000405e+00 -1.215024000000000104e+00 -2.500945873070149483e-01
1.825199999999999889e+01 -5.992499999999999716e+01 9.691000000000000725e+00 -2.648646999999999974e+00 -2.048779175577457035e-01
1.825400000000000134e+01 -3.037600000000000122e+01 -4.128099999999999881e+00 2.306884999999999852e+00 -2.177335877754596749e-01
1.825600000000000023e+01 -4.809100000000000108e+01 -2.512399999999999967e+00 -7.068195999999999923e-01 -2.238956269058039461e-01
1.826099999999999923e+01 -5.335799999999999699e+01 1.616600000000000037e+01 -4.853017000000000358e+00 1.105172454758863027e-01
1.826099999999999923e+01 -5.335799999999999699e+01 1.703200000000000003e+01 -2.992291999999999952e+00 1.216057941623790856e-01
1.826099999999999923e+01 -5.398400000000000176e+01 1.482900000000000063e+01 -6.052088999999999608e+00 9.111657861356765864e-02
1.826399999999999935e+01 -4.406700000000000017e+01 2.421499999999999986e+01 -7.479808000000000234e+00 -4.131356714560100452e-01
1.827400000000000091e+01 -3.866199999999999903e+01 8.384000000000000341e+00 -1.459478999999999915e-01 -6.678451737494074669e-02
1.828399999999999892e+01 -3.619599999999999795e+01 -4.036800000000000388e+00 -3.758059000000000260e-01 -2.191360307080073289e-01
1.828600000000000136e+01 -4.972399999999999665e+01 -7.546800000000000175e-01 -1.559787000000000035e+00 -2.185479332722863044e-01
1.829299999999999926e+01 -5.411299999999999955e+01 1.883599999999999852e+01 -5.129673000000000371e+00 1.585087398233780698e-01
1.829299999999999926e+01 -5.388600000000000279e+01 1.803699999999999903e+01 -3.347462999999999855e+00 1.382690925689417372e-01
1.829299999999999926e+01 -5.388600000000000279e+01 1.963500000000000156e+01 -4.091725000000000279e+00 1.850652170654882855e-01
1.829299999999999926e+01 -4.174900000000000233e+01 9.204200000000000159e+00 -1.251753000000000071e+01 1.321400270143609501e-01
1.830399999999999849e+01 -3.121399999999999864e+01 6.236399999999999721e+00 -1.067440999999999995e+01 -2.145376629879053587e-01
1.831099999999999994e+01 -4.987899999999999778e+01 2.257300000000000040e+01 8.310366999999999393e+00 -3.654001252870592853e-01
1.831500000000000128e+01 -5.959599999999999653e+01 8.930999999999999162e+00 -2.358049999999999979e+00 -2.070573911914411203e-01
1.831500000000000128e+01 -5.959599999999999653e+01 1.045100000000000051e+01 -2.937787999999999844e+00 -2.004568327846151798e-01
1.831500000000000128e+01 -5.865599999999999881e+01 8.930999999999999162e+00 -1.979533999999999905e+00 -2.048960896390966957e-01
1.831500000000000128e+01 -5.865599999999999881e+01 1.045100000000000051e+01 -3.233797000000000033e+00 -1.979434836664327735e-01
1.831700000000000017e+01 -4.164800000000000324e+01 2.330900000000000105e+01 -1.211063999999999918e+00 -4.163500184183736019e-01
1.832100000000000151e+01 -4.587500000000000000e+01 2.339199999999999946e+01 -1.609934000000000154e+01 -4.148922366159231712e-01
1.833099999999999952e+01 -2.828200000000000003e+01 4.823999999999999844e+00 6.169181000000000026e+00 -2.150522857995801618e-01
1.833299999999999841e+01 -2.815599999999999881e+01 6.203899999999999970e-01 1.236283999999999939e+00 -2.161870258315938820e-01
1.833299999999999841e+01 -2.815599999999999881e+01 1.485600000000000032e+00 3.941292999999999935e+00 -2.159563820627508068e-01
1.833399999999999963e+01 -2.735200000000000031e+01 2.707699999999999996e+00 2.499387999999999888e-01 -2.155974925864926894e-01
1.833399999999999963e+01 -2.735200000000000031e+01 3.758300000000000196e+00 4.502271000000000356e+00 -2.153282914462175124e-01
1.835500000000000043e+01 -4.077400000000000091e+01 -3.681599999999999984e+00 -4.725979999999999848e+00 -2.207390955500793672e-01
1.835900000000000176e+01 -3.481000000000000227e+01 2.272400000000000020e+01 -2.536469999999999914e+01 -1.348027126061539516e-01
1.836499999999999844e+01 -4.723799999999999955e+01 2.112800000000000011e+01 1.207216000000000022e+01 -7.791635526792056732e-02
1.837600000000000122e+01 -3.449099999999999966e+01 1.914399999999999835e+01 2.646602000000000032e+01 -1.253419838798437713e-01
1.837900000000000134e+01 -2.989699999999999847e+01 5.415399999999999991e+00 8.501811999999999259e+00 -2.148506660384828792e-01
1.838599999999999923e+01 -3.860999999999999943e+01 -5.017000000000000348e+00 -2.484465999999999841e+00 -2.204150332907993393e-01
1.838800000000000168e+01 -5.866100000000000136e+01 4.665300000000000225e+00 4.664604999999999890e+00 -2.495640736763339029e-01
1.839199999999999946e+01 -3.154400000000000048e+01 1.114700000000000024e+01 -1.716986999999999952e+01 -1.128735147639466085e-01
1.839999999999999858e+01 -5.378499999999999659e+01 4.894000000000000128e+00 6.071423000000000236e+00 -3.839788889416627382e-02
1.841600000000000037e+01 -3.159199999999999875e+01 1.199600000000000044e+01 1.113261000000000056e+00 -1.229393188171249846e-01
1.841600000000000037e+01 -3.159199999999999875e+01 1.293200000000000038e+01 9.118870000000000031e-01 -1.241725261221306581e-01
1.842399999999999949e+01 -5.742000000000000171e+01 5.591000000000000192e+00 3.914346999999999965e-02 -2.732962146655454339e-01
1.842399999999999949e+01 -5.655499999999999972e+01 5.591000000000000192e+00 -6.071317999999999770e+00 -4.163057020525082891e-02
1.842399999999999949e+01 -5.561500000000000199e+01 4.070999999999999730e+00 -7.028645000000000032e+00 -6.566652278642423450e-03
1.842899999999999849e+01 -5.785999999999999943e+01 5.283500000000000085e+00 -8.992681999999999620e-01 -2.713711205554049100e-01
1.843400000000000105e+01 -5.124300000000000210e+01 3.415099999999999802e+00 -2.757506999999999930e+00 -2.025653059010392165e-01
1.845100000000000051e+01 -4.341100000000000136e+01 -1.962399999999999922e+00 -8.345021000000000244e-01 -2.204387299573804526e-01
1.845100000000000051e+01 -5.798400000000000176e+01 -8.083299999999999930e-01 9.922627000000000530e-01 -1.861282001915364748e-01
1.845100000000000051e+01 -5.628399999999999892e+01 -8.083299999999999930e-01 3.707884000000000180e-01 -1.819810287726247866e-01
1.845599999999999952e+01 -4.054800000000000182e+01 1.265199999999999925e+01 -3.512267000000000028e+00 -1.271373874022297124e-01
1.845599999999999952e+01 -3.914800000000000324e+01 1.265199999999999925e+01 -1.738936000000000037e+00 -1.249032562818375991e-01
1.846099999999999852e+01 -4.816100000000000136e+01 2.092500000000000071e+01 -1.184884000000000048e+00 -7.789112576708415170e-02
1.846099999999999852e+01 -5.761999999999999744e+01 8.890599999999999170e+00 -1.802206999999999892e+00 -7.148947488401029282e-02
1.846300000000000097e+01 -6.014800000000000324e+01 8.886600000000000055e-02 1.266918999999999962e-01 -2.639141883520957910e-01
1.847200000000000131e+01 -5.629599999999999937e+01 6.536500000000000199e+00 -5.399829999999999686e+00 -4.970916650700448608e-02
1.847599999999999909e+01 -5.673100000000000165e+01 8.852800000000000225e+00 6.076850000000000307e+00 -7.762672046770061063e-02
1.847899999999999920e+01 -3.744200000000000017e+01 -4.581400000000000361e+00 -1.544386999999999954e+00 -2.197331937789093192e-01
1.848100000000000165e+01 -3.324699999999999989e+01 1.842099999999999937e+01 -1.440657999999999994e+01 -1.287995845956887986e-01
1.848300000000000054e+01 -2.727799999999999869e+01 -2.109300000000000175e+00 3.580134999999999845e+00 -2.167580129903072250e-01
1.848300000000000054e+01 -2.727799999999999869e+01 -1.058699999999999974e+00 7.332418999999999742e-02 -2.165158364400676660e-01
1.848499999999999943e+01 -4.022699999999999676e+01 -4.078599999999999781e+00 -3.860028999999999932e+00 -2.206584198333513547e-01
1.848699999999999832e+01 -5.565100000000000335e+01 1.317699999999999960e+01 -6.197184000000000026e+00 -9.017974188682434389e-02
1.848799999999999955e+01 -4.450600000000000023e+01 1.027999999999999936e+01 -1.101834999999999987e+01 1.245361783361294411e-01
1.848799999999999955e+01 -5.086599999999999966e+01 3.862900000000000222e-01 -1.570537000000000072e+00 -2.122294196370590469e-01
1.848799999999999955e+01 -5.086599999999999966e+01 1.325700000000000101e+00 -2.390813000000000077e+00 -2.088181460602195616e-01
1.848900000000000077e+01 -5.770700000000000074e+01 6.129100000000000215e+00 -1.597752000000000061e-01 -2.766990627883028075e-01
1.848900000000000077e+01 -5.096399999999999864e+01 2.858999999999999986e+00 -3.521513999999999811e+00 -2.044071071096867642e-01
1.848900000000000077e+01 -5.075500000000000256e+01 2.123000000000000220e+00 -3.894569000000000170e+00 -2.067036561200081279e-01
1.848999999999999844e+01 -3.184700000000000131e+01 1.669500000000000028e+01 -2.137391999999999825e+01 -1.298929994285249190e-01
1.850100000000000122e+01 -4.529500000000000171e+01 2.399500000000000099e+01 -8.109837999999999880e+00 -4.141498113326497199e-01
1.850700000000000145e+01 -5.184899999999999665e+01 2.198699999999999832e+01 5.982760999999999996e+00 -3.719555289421520583e-01
1.850799999999999912e+01 -3.272800000000000153e+01 -3.285899999999999821e+00 1.045623999999999931e+01 -2.179339308522524610e-01
1.851300000000000168e+01 -3.430100000000000193e+01 -3.644800000000000040e+00 2.436192000000000135e+00 -2.184103759857552451e-01
1.852199999999999847e+01 -5.680700000000000216e+01 1.148399999999999999e+01 -4.276904000000000039e+00 -9.092185851892722881e-02
1.852499999999999858e+01 -4.659700000000000131e+01 -3.129000000000000004e+00 9.379191999999999529e-01 -2.236156053508745745e-01
1.852499999999999858e+01 -4.512100000000000222e+01 -2.447099999999999831e+00 1.931411000000000100e-01 -2.217640291207977621e-01
1.853099999999999881e+01 -3.151999999999999957e+01 1.356199999999999939e+01 -1.436360999999999999e+00 -1.251905406243473962e-01
1.853200000000000003e+01 -3.778699999999999903e+01 9.640399999999999636e+00 -6.925984999999999836e+00 1.265738631804087522e-01
1.853200000000000003e+01 -3.778699999999999903e+01 1.050600000000000023e+01 -1.276542000000000066e+01 1.216138476380999034e-01
1.853399999999999892e+01 -5.642799999999999727e+01 8.152799999999999159e+00 7.903879000000000321e-01 -3.127799377430929284e-01
1.853600000000000136e+01 -4.382300000000000040e+01 8.657299999999999329e+00 -1.527213000000000065e+01 -6.853051926211387035e-02
1.853600000000000136e+01 -4.295700000000000074e+01 8.657299999999999329e+00 -1.459632000000000041e+01 -6.818531105824980620e-02
1.854100000000000037e+01 -3.804500000000000171e+01 1.129800000000000004e+01 -1.152467000000000041e+01 8.793673687448402831e-02
1.855300000000000082e+01 -5.792300000000000182e+01 6.782000000000000028e+00 7.758173000000000430e-01 -3.161082413628069077e-01
1.855799999999999983e+01 -5.793900000000000006e+01 1.072600000000000087e+01 -8.886383000000000365e+00 -7.848344930281800358e-02
1.857100000000000151e+01 -3.078099999999999881e+01 5.536400000000000432e+00 -3.462498999999999993e-01 -2.147677626230551362e-01
1.857999999999999829e+01 -3.860099999999999909e+01 2.394699999999999918e+01 -3.035807999999999840e+00 -4.194707899053025102e-01
1.858299999999999841e+01 -5.822399999999999665e+01 8.230999999999999872e+00 -5.532017999999999658e-01 -3.135643117364040888e-01
1.858800000000000097e+01 -4.227199999999999847e+01 -2.812399999999999789e+00 -3.477288999999999852e+00 -2.206893885057577553e-01
1.858899999999999864e+01 -3.190700000000000003e+01 1.763400000000000034e+01 -2.625591999999999970e+01 -1.316530315927978423e-01
1.859400000000000119e+01 -4.412599999999999767e+01 9.357300000000000395e+00 -1.082512999999999970e+01 1.338782531522889063e-01
1.859799999999999898e+01 -3.542600000000000193e+01 -3.837899999999999867e+00 4.359318999999999833e-01 -2.187602955422977280e-01
1.860000000000000142e+01 -5.973400000000000176e+01 3.584700000000000220e+00 6.109459000000000195e+00 -2.511778373552205346e-01
1.860099999999999909e+01 -6.044299999999999784e+01 1.105099999999999971e+00 2.201560000000000183e+00 -2.587252058520334019e-01
1.861499999999999844e+01 -4.049900000000000233e+01 8.362999999999999545e+00 -9.878505000000000535e+00 -6.661641007819071869e-02
1.862300000000000111e+01 -3.122599999999999909e+01 -4.057299999999999685e+00 1.521509999999999918e+00 -2.178352427020643634e-01
1.862300000000000111e+01 -2.952599999999999980e+01 -4.057299999999999685e+00 -2.188831000000000110e-02 -2.175204134407683898e-01
1.862300000000000111e+01 -3.123100000000000165e+01 1.435599999999999987e+01 -3.074056000000000122e+00 -1.271915679892995366e-01
1.862300000000000111e+01 -3.123100000000000165e+01 1.540600000000000058e+01 -3.881224000000000007e+00 -1.290533788671023585e-01
1.862600000000000122e+01 -2.773400000000000176e+01 1.830899999999999972e+00 2.085409999999999986e+00 -2.158203179766935431e-01
1.862900000000000134e+01 -4.119400000000000261e+01 1.194699999999999918e+01 -9.141256999999999522e+00 1.204043570706686828e-01
1.863599999999999923e+01 -3.201899999999999835e+01 8.120599999999999596e+00 -1.844926999999999850e+01 -2.138447965901381642e-01
1.863700000000000045e+01 -3.687899999999999778e+01 2.379599999999999937e+01 1.460105000000000075e+01 -1.223542449875731630e-01
1.863800000000000168e+01 -5.597599999999999909e+01 3.254100000000000215e+00 4.236338000000000048e-01 -1.665964426666402542e-01
1.864300000000000068e+01 -5.446399999999999864e+01 1.395599999999999952e+01 4.860763000000000389e+00 1.139733040074015491e-01
1.864900000000000091e+01 -3.434000000000000341e+01 2.102400000000000091e+01 -1.262658000000000058e+01 -1.305813385646466818e-01
1.864900000000000091e+01 -3.434000000000000341e+01 2.196399999999999864e+01 -2.289593999999999951e+01 -1.335716015102296761e-01
1.865899999999999892e+01 -2.787699999999999889e+01 4.608299999999999841e+00 5.926359999999999850e+00 -2.150917820393026536e-01
1.865899999999999892e+01 -5.612800000000000011e+01 1.274499999999999922e+01 -4.955447000000000379e+00 -8.455161418093992687e-02
1.866000000000000014e+01 -4.326100000000000279e+01 2.391499999999999915e+01 -1.639267000000000030e+00 -4.142393594224021980e-01
1.867000000000000171e+01 -3.224099999999999966e+01 8.877499999999999503e+00 -1.755993000000000137e+01 -6.645880399284934126e-02
1.867299999999999827e+01 -4.080299999999999727e+01 9.063000000000000611e+00 -1.500453000000000081e+01 -6.826673051599575770e-02
1.868100000000000094e+01 -5.703199999999999648e+01 6.536500000000000199e+00 -5.129420000000000091e-01 -4.868987750381555818e-02
1.868400000000000105e+01 -4.229699999999999704e+01 2.383299999999999841e+01 1.412700999999999985e+00 -4.156508670680844619e-01
1.868599999999999994e+01 -6.009799999999999898e+01 2.736499999999999932e+00 4.008056999999999981e+00 -2.531946584066586126e-01
1.868900000000000006e+01 -4.858200000000000074e+01 -2.115800000000000125e+00 -7.467249000000000247e-01 -2.223549246837131788e-01
1.869600000000000151e+01 -4.571500000000000341e+01 2.203099999999999881e+01 -1.537687999999999944e+00 -4.164443842082558023e-01
1.869600000000000151e+01 -4.571500000000000341e+01 2.289699999999999847e+01 -9.129984999999999573e+00 -4.157000814183325899e-01
1.870400000000000063e+01 -3.225399999999999778e+01 9.763700000000000045e+00 -3.919397000000000020e+01 1.264617270872719357e-01
1.870400000000000063e+01 -4.792999999999999972e+01 -2.736899999999999888e+00 -7.972270000000000190e-01 -2.234687584470941846e-01
1.870499999999999829e+01 -5.741899999999999693e+01 7.596899999999999764e+00 4.471822000000000408e+00 -3.139632905585109102e-01
1.870700000000000074e+01 -5.864300000000000068e+01 7.618999999999999773e+00 -6.316370999999999514e-01 -3.146478260639497537e-01
1.871499999999999986e+01 -6.010399999999999920e+01 1.754799999999999915e+00 7.700200999999999851e+00 -2.565407418820592200e-01
1.871499999999999986e+01 -2.843900000000000006e+01 -3.179100000000000037e+00 -2.389206999999999859e+00 -2.171343122907384571e-01
1.871600000000000108e+01 -5.937800000000000011e+01 8.299500000000000099e+00 -2.022486999999999924e+00 -2.089964249912390493e-01
1.873699999999999832e+01 -5.847899999999999920e+01 5.971700000000000230e+00 -1.056675999999999949e+00 -2.755316975546560632e-01
1.874099999999999966e+01 -5.558599999999999852e+01 6.337399999999999978e-02 -5.267313000000000134e-01 -1.762551448012826816e-01
1.874200000000000088e+01 -4.151800000000000068e+01 -3.515299999999999869e+00 -3.493580000000000130e+00 -2.207953427594969154e-01
1.874299999999999855e+01 -5.716400000000000148e+01 8.152799999999999159e+00 1.829682000000000031e+00 -3.125991747165386969e-01
1.874399999999999977e+01 -3.194500000000000028e+01 1.053700000000000081e+01 -4.240630999999999773e+01 -1.154938604586148443e-01
1.874599999999999866e+01 -5.912599999999999767e+01 1.098399999999999999e+01 -9.114494999999999791e+00 -5.276324770111332635e-02
1.874800000000000111e+01 -4.230499999999999972e+01 9.962999999999999190e+00 -1.268815999999999988e+01 1.266335056261155556e-01
1.874800000000000111e+01 -4.119299999999999784e+01 9.962999999999999190e+00 -1.334046999999999983e+01 1.260509956211047777e-01
1.874800000000000111e+01 -4.119299999999999784e+01 1.136299999999999955e+01 -1.067572999999999972e+01 1.187496411446528066e-01
1.875199999999999889e+01 -5.602499999999999858e+01 2.468700000000000117e+00 1.348136000000000001e+00 -1.683624422261797149e-01
1.875300000000000011e+01 -3.941299999999999670e+01 8.419999999999999929e+00 -2.801219000000000126e+00 -6.639468737628889672e-02
1.875600000000000023e+01 -4.381000000000000227e+01 1.013299999999999912e+01 -1.108222999999999914e+01 1.259805134771706248e-01
1.875600000000000023e+01 -4.381000000000000227e+01 1.239799999999999969e+01 -6.917648999999999937e+00 1.208012632993629987e-01
1.875600000000000023e+01 -4.240999999999999659e+01 1.239799999999999969e+01 -9.075326999999999700e+00 -1.305233479802806462e-01
1.876000000000000156e+01 -3.984799999999999898e+01 1.271100000000000030e+01 -3.426304000000000016e+00 -1.251791718612690896e-01
1.876300000000000168e+01 -5.335300000000000153e+01 2.006599999999999895e+01 -3.563486000000000331e+01 1.973756743943634040e-01
1.876899999999999835e+01 -4.130700000000000216e+01 2.372500000000000142e+01 4.526824000000000403e+00 -4.168006738074982453e-01
1.877400000000000091e+01 -4.921300000000000097e+01 -1.185100000000000042e+00 -4.111637000000000208e-01 -2.195878623636464133e-01
1.877499999999999858e+01 -4.473899999999999721e+01 2.477599999999999980e+01 -3.398709999999999898e+00 -4.136051549379719527e-01
1.877799999999999869e+01 -5.039600000000000080e+01 -3.737099999999999866e-01 -1.277981000000000034e+00 -2.157722647337874944e-01
1.878500000000000014e+01 -6.035600000000000165e+01 9.221299999999999386e+00 -2.611432000000000198e+00 -2.087175859615854612e-01
1.878500000000000014e+01 -6.035600000000000165e+01 1.016099999999999959e+01 -4.510387999999999842e+00 -2.055763382079712209e-01
1.878800000000000026e+01 -3.460000000000000142e+01 1.995899999999999963e+01 1.646810999999999936e+01 -1.256046098461565397e-01
1.879200000000000159e+01 -4.935399999999999920e+01 2.197700000000000031e+01 1.887966000000000122e+01 -3.673958036934161231e-01
1.879500000000000171e+01 -3.946200000000000330e+01 -4.845299999999999940e+00 -2.826915000000000067e+00 -2.205696402336604911e-01
1.879500000000000171e+01 -3.776200000000000045e+01 -4.845299999999999940e+00 -1.609958999999999918e+00 -2.198668959210844098e-01
1.879599999999999937e+01 -3.560000000000000142e+01 2.283699999999999974e+01 -3.235969999999999658e+01 -1.279787978483434285e-01
1.880199999999999960e+01 -5.929699999999999704e+01 -1.643300000000000038e-01 1.264202000000000048e+00 -2.654151861703636373e-01
1.880300000000000082e+01 -4.339000000000000057e+01 9.357300000000000395e+00 -1.258172000000000068e+01 1.330813430905379291e-01
1.880699999999999861e+01 -5.881700000000000017e+01 6.782000000000000028e+00 -8.964404999999999735e-01 -2.802251436543167773e-01
1.880699999999999861e+01 -5.384400000000000119e+01 1.566799999999999926e+01 -3.442657000000000078e+00 -2.306931852043654918e-01
1.880799999999999983e+01 -5.381099999999999994e+01 1.658399999999999963e+01 -2.978467000000000198e+00 1.181575624329410379e-01
1.882000000000000028e+01 -5.713400000000000034e+01 -8.791099999999999470e-01 3.107333000000000123e+00 -1.845519521192536538e-01
1.882400000000000162e+01 -3.968900000000000006e+01 2.367899999999999849e+01 -1.750491999999999937e+00 -4.183378477545854901e-01
1.882700000000000173e+01 -4.364800000000000324e+01 2.465899999999999892e+01 1.304240999999999984e+00 -4.140586340217354833e-01
1.883200000000000074e+01 -5.237400000000000233e+01 2.113700000000000045e+01 2.631410999999999945e+00 -6.248438555172505099e-02
1.883299999999999841e+01 -5.448499999999999943e+01 4.626599999999999824e+00 -9.882530999999999954e-01 -3.480585620701981409e-02
1.883299999999999841e+01 -5.308500000000000085e+01 4.626599999999999824e+00 -3.888404999999999778e-01 -3.545388912965099365e-02
1.883299999999999841e+01 -2.798499999999999943e+01 8.889000000000000234e-01 2.373438999999999854e+00 -2.160648605398832189e-01
1.883399999999999963e+01 -3.824799999999999756e+01 9.242399999999999949e+00 -3.254789000000000154e+00 -6.771869407874334112e-02
1.884799999999999898e+01 -3.872999999999999687e+01 1.175900000000000034e+01 -6.293496000000000201e+00 -1.252581421763157010e-01
1.885399999999999920e+01 -5.931600000000000250e+01 4.527000000000000135e+00 4.888207999999999664e+00 -2.499177288339107239e-01
1.885399999999999920e+01 -3.160500000000000043e+01 1.627100000000000080e+01 -5.434681000000000317e+00 -1.293153236956823826e-01
1.885699999999999932e+01 -4.772800000000000153e+01 2.043400000000000105e+01 3.102128000000000085e+01 -8.510676013674850493e-02
1.886599999999999966e+01 -5.173400000000000176e+01 3.811700000000000088e+00 -2.954273000000000149e+00 -2.014841588100389491e-01
1.887600000000000122e+01 -5.099900000000000233e+01 2.205799999999999983e+01 8.828858000000000317e+00 -3.706557707474824603e-01
1.887699999999999889e+01 -5.034400000000000119e+01 2.208500000000000085e+01 -5.877173999999999454e-01 -3.690774419164337683e-01
1.887900000000000134e+01 -3.237700000000000244e+01 1.839399999999999835e+01 -2.846491999999999933e+01 -1.313939692197877152e-01
1.890099999999999980e+01 -4.299799999999999756e+01 -2.486000000000000210e+00 -3.285873000000000044e+00 -2.205215954157969949e-01
1.892599999999999838e+01 -3.628099999999999881e+01 -4.163000000000000256e+00 -1.858045000000000113e-01 -2.190582079451535991e-01
1.894999999999999929e+01 -2.843100000000000094e+01 -3.400000000000000244e-02 1.722807999999999895e+00 -2.163310566377608379e-01
