-1.423499999999999943e+01 1.585100000000000087e+01 1.191799999999999926e+01 -2.433586999999999989e+01 8.765755891324585047e-02
-1.423399999999999999e+01 -2.430900000000000105e+01 3.135399999999999920e+01 3.395192000000000210e+00 9.155983955047528045e-02
-1.421799999999999997e+01 -1.419200000000000017e+01 3.481900000000000261e+01 -1.952301000000000064e+00 8.864918119207007563e-02
-1.421599999999999930e+01 -7.472599999999999909e+00 2.807900000000000063e+01 6.874399000000000370e+00 8.722717940408246384e-02
-1.421400000000000041e+01 2.531099999999999905e+00 3.671099999999999852e+01 -2.413013000000000119e+01 -1.902063073238758617e-01
-1.420899999999999963e+01 -4.294999999999999929e+00 2.699500000000000099e+01 -2.408299999999999841e+01 8.551598367435452042e-02
-1.420899999999999963e+01 -3.429699999999999971e+00 2.699500000000000099e+01 -1.930096000000000034e+00 8.165424095634674084e-02
-1.420899999999999963e+01 2.326700000000000212e+00 2.787800000000000011e+01 4.165439000000000114e+00 -2.615345820123248302e-02
-1.420899999999999963e+01 3.377299999999999969e+00 2.787800000000000011e+01 1.190576000000000079e+01 -2.192644959660466561e-02
-1.420700000000000074e+01 6.423000000000000043e+00 3.103999999999999915e+01 -5.263149999999999773e-01 -1.894569810949512101e-01
-1.420700000000000074e+01 7.381000000000000227e+00 3.103999999999999915e+01 9.473346999999999696e+01 -1.891183131735293677e-01
-1.420599999999999952e+01 -2.471199999999999974e+01 3.425300000000000011e+01 -3.524548000000000125e-01 9.102668514416786816e-02
-1.420299999999999940e+01 -2.036299999999999955e+01 9.208000000000000185e+00 -1.431856999999999935e+00 -2.046528689692981295e-01
-1.420199999999999996e+01 1.392600000000000016e+01 1.810300000000000153e+01 -3.559725000000000250e+01 -1.902954009740640828e-01
-1.418999999999999950e+01 5.246800000000000352e+00 7.503599999999999604e+00 -2.486474999999999935e-01 7.151358289878867458e-02
-1.418599999999999994e+01 1.567300000000000004e+01 1.639600000000000080e+01 -9.649888999999999939e+00 -1.937942366253248283e-01
-1.417999999999999972e+01 1.233000000000000007e+01 2.584299999999999997e+01 -2.648008000000000095e+01 -1.868552544249685865e-01
-1.417999999999999972e+01 1.326999999999999957e+01 2.432300000000000040e+01 -1.604787999999999926e+01 -1.862470431149532424e-01
-1.417999999999999972e+01 1.326999999999999957e+01 2.584299999999999997e+01 -3.894982000000000255e+01 -1.860653326823768772e-01
-1.417200000000000060e+01 3.582399999999999807e+00 6.366699999999999804e+00 -4.908214000000000188e-01 1.030637426175508436e-01
-1.416999999999999993e+01 1.435599999999999987e+01 1.715700000000000003e+01 -4.186413999999999902e+01 -2.203958368441150811e-02
-1.416999999999999993e+01 -2.243599999999999994e+01 1.396799999999999997e+01 2.239206000000000074e+01 -2.054502844157401198e-01
-1.416999999999999993e+01 -2.243599999999999994e+01 1.544100000000000072e+01 4.210700000000000109e+00 9.678670674703468424e-02
-1.416999999999999993e+01 -2.222700000000000031e+01 1.470500000000000007e+01 1.659510999999999825e+01 9.713663866881330766e-02
-1.416900000000000048e+01 -2.331800000000000139e+01 2.383500000000000085e+01 2.142475000000000129e+00 9.349297355067445747e-02
-1.416600000000000037e+01 -2.373999999999999844e+01 1.853500000000000014e+01 8.999722000000000222e+00 9.546109488932241760e-02
-1.416200000000000081e+01 3.012000000000000011e+00 3.245700000000000074e+01 -1.556667000000000023e+00 -1.903308317672646466e-01
-1.416099999999999959e+01 1.724599999999999866e+01 1.284099999999999930e+01 1.994232000000000005e+00 -9.144135476671330642e-02
-1.415700000000000003e+01 4.463400000000000034e+00 3.314600000000000080e+01 1.086351999999999940e+01 -1.899082478089583748e-01
-1.415099999999999980e+01 -2.363700000000000045e+01 1.326200000000000045e+01 1.298352000000000039e+01 -2.048891464533105500e-01
-1.415000000000000036e+01 8.014099999999999113e+00 1.082300000000000040e+01 -5.378741000000000216e-01 2.621491548624549361e-01
-1.415000000000000036e+01 9.205099999999999838e+00 1.015900000000000070e+01 -5.959211999999999954e+00 2.695275740577139922e-01
-1.415000000000000036e+01 9.529999999999999361e+00 9.421900000000000830e+00 -5.508377000000000301e+00 2.698286427987609537e-01
-1.415000000000000036e+01 1.082300000000000040e+01 8.701000000000000512e+00 -1.091606999999999950e+01 2.855636819982577679e-01
-1.414600000000000080e+01 5.603399999999999714e+00 2.725799999999999912e+01 1.046659000000000006e+01 -1.902524092202919626e-01
-1.414600000000000080e+01 7.075400000000000134e+00 2.725799999999999912e+01 1.079945000000000022e+01 -1.896882409407189274e-01
-1.414499999999999957e+01 6.633499999999999730e+00 2.806400000000000006e+01 7.208578000000000152e+00 -1.897248234857164539e-01
-1.414199999999999946e+01 6.087100000000000399e+00 3.026500000000000057e+01 -3.759402000000000132e+00 -1.896399785948511552e-01
-1.413899999999999935e+01 -6.092800000000000438e+00 8.449600000000000222e+00 -5.302185999999999844e+00 1.052873377640204805e-01
-1.413799999999999990e+01 1.958299999999999930e+00 2.702799999999999869e+01 1.149830000000000041e+01 -3.032900314091133143e-02
-1.413499999999999979e+01 -1.082600000000000051e+01 1.074399999999999977e+01 3.923843000000000103e+01 1.009196880055200640e-01
-1.412599999999999945e+01 -1.587899999999999956e+01 9.133399999999999963e+00 1.294369000000000103e+00 -2.067458082963419819e-01
-1.412599999999999945e+01 1.507600000000000051e+00 3.433599999999999852e+01 -1.410660999999999987e+01 -1.905309971185870366e-01
-1.412400000000000055e+01 6.714000000000000412e+00 2.639399999999999835e+01 1.059074999999999989e+01 -1.900165280627960640e-01
-1.411700000000000088e+01 1.359900000000000020e+01 2.508299999999999841e+01 -2.815858000000000061e+01 -1.858235013675582359e-01
-1.411500000000000021e+01 1.040600000000000058e+01 2.581500000000000128e+01 -2.176957000000000164e+01 -1.882499439811279318e-01
-1.411200000000000010e+01 -2.480099999999999838e+01 2.124699999999999989e+01 -2.373338000000000114e-01 9.449873879564311963e-02
-1.411200000000000010e+01 -2.480099999999999838e+01 2.229700000000000060e+01 -7.934902000000000344e-01 9.414129289957165470e-02
-1.410699999999999932e+01 6.358100000000000307e+00 2.949800000000000111e+01 1.523508000000000084e+00 -1.896285345031910041e-01
-1.410699999999999932e+01 -1.584699999999999998e+00 3.045700000000000074e+01 4.195539000000000129e+01 -3.137865665496052808e-02
-1.410699999999999932e+01 -1.584699999999999998e+00 3.139699999999999847e+01 7.209805000000000241e+00 -2.921553685945187800e-02
-1.410699999999999932e+01 8.747099999999999875e-01 3.045700000000000074e+01 -3.064170000000000016e+01 -2.440296834958729372e-02
-1.410200000000000031e+01 1.191499999999999915e+01 8.425000000000000711e+00 -2.912364999999999871e+00 3.031852123053959680e-01
-1.410200000000000031e+01 1.354499999999999993e+01 7.961999999999999744e+00 6.056266000000000149e-01 1.975107819255784158e-01
-1.410100000000000087e+01 2.242999999999999883e+00 2.622200000000000131e+01 1.015302999999999933e+01 -3.213858853361645923e-02
-1.409900000000000020e+01 -2.497800000000000153e+01 3.147599999999999909e+01 8.870903999999999456e-01 9.163162592749569957e-02
-1.409800000000000075e+01 1.328700000000000081e+01 2.171000000000000085e+01 2.387372999999999834e+01 -1.872501744939781276e-01
-1.409099999999999930e+01 -2.584499999999999886e+01 1.025500000000000078e+01 1.519823999999999915e-03 -2.034880016354028154e-01
-1.408799999999999919e+01 5.906799999999999606e+00 2.655799999999999983e+01 9.354435000000000500e+00 -1.902902876205516125e-01
-1.408300000000000018e+01 1.908999999999999986e+01 1.652400000000000091e+01 1.117132999999999932e+01 -1.967612499820251548e-01
-1.407900000000000063e+01 -1.809900000000000020e+01 3.251100000000000279e+01 -1.767210000000000036e+01 9.011614664010006437e-02
-1.407900000000000063e+01 -1.669900000000000162e+01 3.251100000000000279e+01 4.004414000000000029e-01 8.976584899569713116e-02
-1.407900000000000063e+01 -6.539299999999999891e+00 6.749299999999999855e+00 -3.565874999999999773e+01 1.087527939282348505e-01
-1.407699999999999996e+01 -1.050600000000000023e+01 3.707399999999999807e+01 -2.041901000000000010e+01 -7.155951252702801198e-03
-1.407699999999999996e+01 1.587499999999999911e+00 3.336099999999999710e+01 -1.149576000000000064e+01 -1.905843506028412904e-01
-1.407600000000000051e+01 2.003699999999999815e+00 3.250600000000000023e+01 -1.203342999999999918e+01 -1.905644084063003452e-01
-1.407600000000000051e+01 1.622200000000000131e+01 1.286700000000000088e+01 -3.906007000000000318e+01 8.273063743090060262e-02
-1.407399999999999984e+01 6.923399999999999554e-01 2.620700000000000074e+01 1.035973000000000077e+01 -1.012053115492969960e-02
-1.407099999999999973e+01 -6.182800000000000296e+00 7.480599999999999916e+00 -2.152628999999999948e+01 1.074039400389058541e-01
-1.407099999999999973e+01 1.190099999999999980e+01 2.556599999999999895e+01 -1.665421999999999869e+01 -1.872436179597178341e-01
-1.406799999999999962e+01 -3.549999999999999822e-01 2.963400000000000034e+01 1.089298999999999928e+01 -3.017044775008636409e-02
-1.406799999999999962e+01 -3.549999999999999822e-01 3.221999999999999886e+01 -3.148573000000000022e+01 -2.427303702060311721e-02
-1.406499999999999950e+01 -2.467299999999999827e+01 2.051899999999999835e+01 1.215293999999999919e+01 9.474941176497012063e-02
-1.406499999999999950e+01 -2.434499999999999886e+01 1.977400000000000091e+01 6.306405999999999956e+00 9.500681951645442713e-02
-1.406499999999999950e+01 -2.314799999999999969e+01 3.062500000000000000e+01 -6.372308999999999557e+00 9.154965698158568088e-02
-1.406000000000000050e+01 -2.123000000000000220e+00 2.730799999999999983e+01 1.899174999999999969e+01 8.139452487280718351e-02
-1.405700000000000038e+01 -3.903700000000000170e+00 1.018999999999999950e+01 1.109295000000000009e+01 1.007082560297369589e-01
-1.405400000000000027e+01 -2.320200000000000173e+01 2.477100000000000080e+01 -5.990781000000000134e+00 9.317701217668425406e-02
-1.405199999999999960e+01 1.233099999999999952e+01 2.426000000000000156e+01 -1.544074999999999953e+01 -1.871657079790141620e-01
-1.405100000000000016e+01 -1.795599999999999952e+01 8.859700000000000131e+00 -2.056989000000000178e+00 -2.056007659132093046e-01
-1.405100000000000016e+01 1.496699999999999975e-01 2.080000000000000071e+00 -2.577478000000000158e+00 -1.840405225125318345e-01
-1.405100000000000016e+01 1.200299999999999923e+00 2.080000000000000071e+00 4.139873999999999832e+00 -1.885279351215781163e-01
-1.404899999999999949e+01 1.733699999999999974e+01 1.665500000000000114e+01 7.003525999999999918e-01 -1.943852922015601448e-01
-1.404899999999999949e+01 1.706900000000000084e+00 3.588900000000000290e+01 -2.385727999999999938e+01 -1.904035263392284960e-01
-1.404700000000000060e+01 -2.231099999999999994e+01 1.082099999999999973e+01 4.340163000000000437e+00 -2.046628775707453607e-01
-1.404599999999999937e+01 -4.934499999999999886e+00 1.028500000000000014e+01 1.409603000000000073e+01 1.010590239861140216e-01
-1.404599999999999937e+01 7.745400000000000063e+00 3.029200000000000159e+01 2.664761000000000024e+01 -1.890309758699535991e-01
-1.404599999999999937e+01 -1.007600000000000051e+01 7.668999999999999595e+00 -4.803861000000000381e+00 -2.107732558716499116e-01
-1.404499999999999993e+01 -2.510200000000000209e+00 9.836000000000000298e+00 5.575732000000000355e+00 1.004953949455404116e-01
-1.403999999999999915e+01 -7.769000000000000128e+00 5.926000000000000156e+00 -2.569567000000000156e+00 -2.123832174517312210e-01
-1.403599999999999959e+01 -1.993400000000000105e+01 8.424400000000000333e+00 -1.018842999999999943e+00 -2.046007397257350868e-01
-1.403400000000000070e+01 -2.651999999999999957e+01 3.157600000000000051e+01 1.067671999999999954e+00 9.181503589951620081e-02
-1.403400000000000070e+01 -9.027699999999999392e+00 3.664999999999999858e+01 -1.456513999999999953e+01 -6.307955575963529113e-03
-1.402699999999999925e+01 1.365600000000000058e+01 2.085999999999999943e+01 -5.076018000000000363e+00 -1.874377304694462842e-01
-1.402200000000000024e+01 1.113100000000000023e+01 2.260399999999999920e+01 2.591826000000000185e+00 -1.888004101604022766e-01
-1.402200000000000024e+01 1.113100000000000023e+01 2.346900000000000119e+01 -7.574436000000000391e+00 -1.884233335428003031e-01
-1.401299999999999990e+01 1.229700000000000060e+01 2.181800000000000139e+01 5.042436000000000362e+00 -1.882247276570488403e-01
-1.400799999999999912e+01 9.348199999999999843e-01 3.139600000000000080e+01 -4.948277000000000214e+01 -2.220572525544250650e-02
-1.400699999999999967e+01 -7.562299999999999578e-01 2.704799999999999827e+01 1.428109000000000073e+01 8.102077629460047170e-02
-1.400399999999999956e+01 1.957499999999999929e+01 1.368999999999999950e+01 1.412092999999999954e+01 -9.733207333649043086e-03
-1.399600000000000044e+01 -9.065599999999999881e+00 6.656200000000000117e+00 -2.901534999999999975e+00 -2.113011720815623773e-01
-1.399000000000000021e+01 1.337100000000000044e+01 2.005399999999999849e+01 -1.415635999999999939e+01 -1.885013179828054219e-01
-1.398799999999999955e+01 6.868999999999999773e+00 2.913100000000000023e+01 1.959707999999999828e+01 -1.894839880585457992e-01
-1.398600000000000065e+01 -6.117099999999999760e-01 8.849700000000000344e+00 -4.963106999999999935e+00 1.014510402788138810e-01
-1.398199999999999932e+01 3.346000000000000085e+00 3.665400000000000347e+01 -1.700010999999999939e+01 -1.900377067498762729e-01
-1.398199999999999932e+01 4.792099999999999582e+00 3.584799999999999898e+01 -2.476910999999999863e+00 -1.897269569614590812e-01
-1.398099999999999987e+01 -1.041200000000000081e+01 8.444000000000000838e+00 -4.836981999999999893e+00 1.039261976818754152e-01
-1.398099999999999987e+01 -1.328599999999999959e+01 1.038499999999999979e+01 -1.216257000000000055e+01 1.009815510007141259e-01
-1.398000000000000043e+01 -1.333699999999999974e+01 9.425599999999999312e+00 -3.328648999999999969e+00 -2.087755114034751391e-01
-1.398000000000000043e+01 -2.187399999999999900e-01 2.930000000000000160e+00 1.606104999999999894e+00 -1.862583604848854213e-01
-1.398000000000000043e+01 1.568699999999999983e+00 2.930000000000000160e+00 8.918731999999999971e+01 1.556272794935951997e-01
-1.397300000000000075e+01 -8.877700000000000813e+00 3.299799999999999756e+01 -2.450080000000000169e+01 8.709160642676805342e-02
-1.397300000000000075e+01 -8.668599999999999639e+00 3.373400000000000176e+01 -3.048532000000000153e+01 8.692513437671964271e-02
-1.394999999999999929e+01 1.693100000000000049e+00 3.860599999999999810e+00 1.310895000000000010e+01 1.390833622202196362e-01
-1.394699999999999918e+01 1.980900000000000105e+01 1.433799999999999919e+01 1.230646999999999913e+01 5.862525452806620699e-03
-1.394599999999999973e+01 -1.014100000000000001e+01 9.210699999999999221e+00 2.151263000000000147e+01 1.030020883713433089e-01
-1.394500000000000028e+01 1.421299999999999919e+01 8.002700000000000813e+00 -3.064978999999999898e-01 2.046762670110327531e-01
-1.394500000000000028e+01 -1.463700000000000045e+01 8.659000000000000696e+00 -1.642269999999999897e+00 -2.074594465543907751e-01
-1.394500000000000028e+01 -1.215300000000000047e+01 1.114300000000000068e+01 2.766958999999999946e+00 1.003735596747614284e-01
-1.393699999999999939e+01 -1.482499999999999929e+01 3.405299999999999727e+01 -2.137194000000000038e+00 8.896071821114490130e-02
-1.393699999999999939e+01 -2.653699999999999903e+01 3.426899999999999835e+01 3.501158000000000214e+00 9.128415414435223085e-02
-1.393599999999999994e+01 -2.416799999999999926e+01 1.142800000000000082e+01 4.071820999999999913e+00 -2.043402751965502362e-01
-1.393500000000000050e+01 7.390999999999999792e-01 1.521000000000000085e+01 1.743841000000000108e+01 8.320596663296683793e-02
-1.393500000000000050e+01 7.390999999999999792e-01 1.660999999999999943e+01 1.782792999999999850e+01 8.233050661095174527e-02
-1.393500000000000050e+01 1.604300000000000059e+00 1.521000000000000085e+01 1.774625999999999948e+01 8.105603543867953564e-02
-1.393500000000000050e+01 1.604300000000000059e+00 1.660999999999999943e+01 1.697184000000000026e+01 8.048277562017600029e-02
-1.393299999999999983e+01 -2.380000000000000071e+01 3.441799999999999926e+01 1.254434000000000005e+01 9.085737568819637899e-02
-1.392999999999999972e+01 1.803900000000000148e+01 1.273700000000000010e+01 4.211305000000000298e+00 -8.755454656756844756e-02
-1.392900000000000027e+01 -8.046300000000000452e+00 2.858999999999999986e+01 2.339457000000000164e+01 8.742456850010096869e-02
-1.392699999999999960e+01 -1.702499999999999858e+01 8.889900000000000801e+00 1.935141999999999918e+00 -2.061747175832608359e-01
-1.392500000000000071e+01 5.149399999999999977e+00 3.500999999999999801e+01 6.387502000000000457e-01 -1.896548984773007429e-01
-1.392399999999999949e+01 1.587800000000000011e+01 8.175700000000000855e+00 7.596039000000000208e+00 9.084218925900031105e-02
-1.392099999999999937e+01 -8.307000000000000384e+00 2.939099999999999824e+01 1.668834000000000017e+01 8.739445685558291932e-02
-1.391999999999999993e+01 -5.951499999999999568e-01 7.907199999999999562e+00 -1.211092999999999975e+00 1.058406454731288110e-01
-1.391699999999999982e+01 1.975899999999999990e+00 2.532900000000000063e+01 1.008332000000000050e+01 -9.467830774123964580e-03
-1.391399999999999970e+01 -2.291900000000000048e+01 2.873499999999999943e+01 -8.286612999999999118e+00 9.198608224647089604e-02
-1.391399999999999970e+01 -2.280799999999999983e+01 2.953300000000000125e+01 -5.583693000000000239e+00 9.176311504011777642e-02
-1.391399999999999970e+01 -2.269200000000000017e+01 2.793599999999999994e+01 -1.460862999999999978e+01 9.216585677043299951e-02
-1.391399999999999970e+01 -2.248300000000000054e+01 2.719999999999999929e+01 -7.147655999999999565e+00 9.234114272455509753e-02
-1.391099999999999959e+01 6.902000000000000135e+00 3.026500000000000057e+01 -1.042351999999999990e+01 -1.893542818714009368e-01
-1.390300000000000047e+01 -8.631700000000000372e+00 3.597399999999999665e+01 -2.092256000000000071e+01 -6.743681884147490098e-03
-1.390000000000000036e+01 -1.971999999999999886e+01 3.305899999999999750e+01 -1.662032999999999916e+01 9.036980446088872798e-02
-1.389799999999999969e+01 -1.953999999999999915e+01 7.711999999999999744e+00 -1.221008000000000093e+00 -2.045311719380309423e-01
-1.389799999999999969e+01 -1.860000000000000142e+01 7.711999999999999744e+00 -1.595933000000000046e+00 -2.049012463341792767e-01
-1.389199999999999946e+01 8.296499999999999986e-01 2.534799999999999898e+01 1.135352999999999923e+01 8.019236845222556254e-02
-1.389000000000000057e+01 1.280000000000000071e+01 2.508299999999999841e+01 -5.945745000000000147e+01 -1.866014351035453767e-01
-1.388899999999999935e+01 6.028999999999999915e+00 9.170799999999999841e+00 5.311557999999999780e+00 5.807778530036485781e-02
-1.388000000000000078e+01 -6.391300000000000203e+00 2.745599999999999952e+01 -2.481164000000000058e+01 8.675771972227203088e-02
-1.387899999999999956e+01 8.628000000000000114e+00 2.913899999999999935e+01 3.227703000000000344e+01 -1.887566738067406880e-01
-1.387800000000000011e+01 1.713699999999999946e-01 3.744899999999999896e+00 1.094144000000000005e+01 1.444224295565796623e-01
-1.387800000000000011e+01 1.178600000000000092e+00 3.744899999999999896e+00 4.264034000000000191e+01 1.503594099990688826e-01
-1.387700000000000067e+01 4.031600000000000072e+00 2.736599999999999966e+01 6.664539000000000435e+00 -2.102732382264644109e-02
-1.387599999999999945e+01 4.356999999999999762e-01 1.591000000000000014e+01 1.840886000000000067e+01 8.337887320051701190e-02
-1.387599999999999945e+01 1.907699999999999951e+00 1.591000000000000014e+01 1.786965000000000003e+01 7.998863033489971019e-02
-1.387599999999999945e+01 4.887599999999999945e+00 3.404200000000000159e+01 1.047631999999999941e+01 -1.897526012306087473e-01
-1.387599999999999945e+01 -2.379799999999999827e+01 1.097199999999999953e+01 2.620308000000000082e+00 -2.043444777112549404e-01
-1.386700000000000088e+01 1.530299999999999994e+00 3.495400000000000063e+01 -1.782313999999999865e+01 -1.904868673120209688e-01
-1.386599999999999966e+01 7.575300000000000367e+00 2.694800000000000040e+01 1.841016000000000119e+01 -1.895367575358134493e-01
-1.385999999999999943e+01 -2.666000000000000014e+01 1.025500000000000078e+01 1.859518000000000004e+00 -2.034112772748374598e-01
-1.385999999999999943e+01 -2.503000000000000114e+01 1.025500000000000078e+01 2.072487999999999886e+01 -2.037996538308955441e-01
-1.385800000000000054e+01 -9.455099999999999838e+00 6.970500000000000362e+00 -1.154871999999999899e+00 -2.113005704038984633e-01
-1.385399999999999920e+01 -2.288500000000000156e+01 2.579100000000000037e+01 1.404988000000000070e-01 9.282025853024730710e-02
-1.384600000000000009e+01 -5.209299999999999820e+00 9.703400000000000247e+00 1.416036000000000072e+01 1.025078063506111442e-01
-1.384099999999999930e+01 -1.571199999999999974e+01 3.325399999999999778e+01 -2.183748000000000078e-01 8.935607220715800769e-02
-1.383999999999999986e+01 1.281000000000000021e-03 2.639300000000000068e+01 2.770611999999999853e+00 -1.147410870287108968e-02
-1.383999999999999986e+01 -8.974099999999999966e+00 3.092299999999999827e+01 5.835843999999999809e+00 8.742986685641142286e-02
-1.383999999999999986e+01 -8.974099999999999966e+00 3.178800000000000026e+01 -2.653716999999999882e+00 8.729530975606487886e-02
-1.383300000000000018e+01 -2.557100000000000151e+01 1.116499999999999915e+01 -6.297471999999999959e+00 -2.039373910069349483e-01
-1.383300000000000018e+01 -1.307600000000000051e+01 3.553000000000000114e+01 -1.289360999999999979e+00 8.822177924640672853e-02
-1.383300000000000018e+01 -1.274799999999999933e+01 3.627499999999999858e+01 5.377362999999999715e+01 8.802785368743740180e-02
-1.383300000000000018e+01 -1.142900000000000027e+01 3.700999999999999801e+01 9.911179000000000627e+00 8.754777564761398456e-02
-1.383200000000000074e+01 6.191399999999999793e+00 1.000699999999999967e+01 1.262473999999999918e+01 5.786696111026932293e-02
-1.382900000000000063e+01 7.860000000000000320e+00 2.614199999999999946e+01 6.160339999999999705e-01 -1.895802183660609541e-01
-1.381400000000000006e+01 7.334100000000000286e+00 2.836400000000000077e+01 -2.389909999999999979e+00 -1.894031572982865230e-01
-1.381400000000000006e+01 8.963900000000000645e+00 2.836400000000000077e+01 6.061816000000000315e+00 -1.886791857324739141e-01
-1.381300000000000061e+01 6.486299999999999955e+00 2.556800000000000139e+01 1.813887000000000027e+00 -1.940445999229390220e-02
-1.381199999999999939e+01 -3.862299999999999844e+00 2.650400000000000134e+01 -4.931004999999999860e+00 8.529705996210076857e-02
-1.380799999999999983e+01 -2.115200000000000102e+01 3.471900000000000119e+01 -3.510232999999999937e+00 9.033702547558715434e-02
-1.380400000000000027e+01 1.146799999999999997e+01 2.486599999999999966e+01 -2.236392000000000024e+01 -1.877447035972271971e-01
-1.380300000000000082e+01 9.434300000000000352e+00 2.703300000000000125e+01 2.810356000000000076e+00 -1.886166913913278342e-01
-1.379599999999999937e+01 9.025299999999999656e+00 2.775799999999999912e+01 2.772448000000000135e-01 -1.887230723929773368e-01
-1.379499999999999993e+01 -2.632400000000000162e+01 9.480000000000000426e+00 2.438684999999999992e+00 -2.032925684691043178e-01
-1.379499999999999993e+01 -2.632400000000000162e+01 1.102999999999999936e+01 -2.606733999999999885e+00 -2.037323997279129328e-01
-1.379499999999999993e+01 -2.536599999999999966e+01 9.480000000000000426e+00 2.409774999999999778e+00 -2.035128915119134574e-01
-1.379299999999999926e+01 2.740899999999999892e+00 2.702799999999999869e+01 3.054292999999999925e+00 -2.766427941052031908e-02
-1.378899999999999970e+01 3.031600000000000072e+00 5.278599999999999959e+00 -2.524852999999999792e+00 1.222549037625552393e-01
-1.378700000000000081e+01 -2.427599999999999980e+01 2.314699999999999847e+01 9.912544000000000466e+00 9.382370131700946969e-02
-1.378500000000000014e+01 1.152299999999999969e+01 8.544800000000000395e+00 -3.560842000000000063e+00 3.032462102002322912e-01
-1.377899999999999991e+01 7.605100000000000193e+00 2.759700000000000131e+01 1.158636999999999917e+00 -1.894077141980851919e-01
-1.377599999999999980e+01 -1.739900000000000091e+01 3.245199999999999818e+01 2.479719999999999924e+00 8.996223673931254272e-02
-1.377599999999999980e+01 -3.653299999999999881e-01 4.607999999999999652e+00 8.955082000000000320e-02 1.255343545164541996e-01
-1.377399999999999913e+01 -2.541199999999999903e+01 3.452000000000000313e+01 -2.991746000000000016e+00 9.108497870571868882e-02
-1.377100000000000080e+01 -2.085399999999999920e+01 9.604599999999999582e+00 -3.494747000000000270e-01 -2.049139922571359684e-01
-1.376999999999999957e+01 7.556600000000000428e+00 2.544200000000000017e+01 -5.984386999999999901e+00 -1.730915930279966833e-02
-1.376999999999999957e+01 3.718999999999999861e+00 3.297999999999999687e+01 4.964806000000000274e+00 -1.901132593156089068e-01
-1.376800000000000068e+01 7.660700000000000287e+00 2.917299999999999827e+01 2.532678000000000207e+00 -1.891699372885443931e-01
-1.376500000000000057e+01 -2.743700000000000117e+01 3.377100000000000080e+01 7.796331000000000344e+00 9.149322567182004151e-02
-1.375999999999999979e+01 -1.009500000000000064e+01 1.032300000000000040e+01 2.325419000000000125e+01 1.015523290861416045e-01
-1.375799999999999912e+01 -5.488999999999999879e+00 2.753099999999999881e+01 -2.357081000000000159e+01 8.620628080909507884e-02
-1.375699999999999967e+01 5.763099999999999667e+00 8.114300000000000068e+00 -1.451360999999999901e+00 6.132369378732205334e-02
-1.375500000000000078e+01 1.156400000000000006e+01 2.190399999999999991e+01 1.031733999999999973e+01 -1.286615376720205185e-02
-1.375200000000000067e+01 -1.915099999999999980e+01 3.284199999999999875e+01 -1.284634999999999927e+01 9.029340767942697910e-02
-1.374699999999999989e+01 -5.452799999999999869e+00 8.860200000000000742e+00 9.073202000000000211e-01 1.045076872806134649e-01
-1.374399999999999977e+01 1.545500000000000007e+01 1.148499999999999943e+01 -3.944707999999999881e+00 8.647561677039397598e-02
-1.374399999999999977e+01 -2.301099999999999923e+01 1.088000000000000078e+01 1.298304000000000080e+01 -2.046274330426589572e-01
-1.374300000000000033e+01 1.801600000000000090e+00 4.534399999999999764e+00 4.155562999999999896e+00 1.323000600993476383e-01
-1.373900000000000077e+01 4.073299999999999699e+00 6.763300000000000090e+00 -5.335592000000000112e+00 9.366982185268557526e-02
-1.373799999999999955e+01 -1.125900000000000034e+01 1.123499999999999943e+01 6.879878999999999678e+01 1.003499117120788542e-01
-1.373700000000000010e+01 1.505599999999999916e+01 1.689000000000000057e+01 -1.968074999999999974e+01 -2.629460516523560859e-02
-1.373700000000000010e+01 -2.292699999999999960e+01 1.357199999999999918e+01 1.408296999999999954e+01 -2.054104264972068106e-01
-1.372600000000000087e+01 6.750000000000000444e-01 2.930000000000000160e+00 1.527654000000000067e+01 -1.903355239051801595e-01
-1.372499999999999964e+01 -9.625999999999999446e+00 9.506999999999999673e+00 8.653819999999999624e+00 1.027366860805584842e-01
-1.372199999999999953e+01 1.373199999999999932e+01 1.874699999999999989e+01 -3.088654000000000011e+01 -1.790917179340322657e-02
-1.371899999999999942e+01 -1.044300000000000006e+00 9.549699999999999633e+00 -1.021933999999999898e+00 9.949482563707121030e-02
-1.371899999999999942e+01 -2.297599999999999909e+01 3.459799999999999898e+01 1.342808000000000002e+00 9.069029285904027515e-02
-1.371899999999999942e+01 -2.412800000000000011e+01 1.286599999999999966e+01 2.831536999999999971e+00 -2.048525250518931640e-01
-1.371100000000000030e+01 -2.162499999999999978e-01 7.017400000000000304e+00 -9.796610000000000040e-01 1.104154324883751120e-01
-1.370899999999999963e+01 -8.763500000000000512e+00 3.014799999999999969e+01 9.870381000000000071e+00 8.747224199147865531e-02
-1.370500000000000007e+01 -7.337399999999999478e-01 5.458000000000000185e+00 4.737633999999999901e+00 1.196404324957541371e-01
-1.370199999999999996e+01 -2.453099999999999881e+01 1.204100000000000037e+01 4.723901999999999823e+00 -2.045238552614087324e-01
-1.369299999999999962e+01 -4.892699999999999827e-01 6.303799999999999848e+00 2.186933999999999934e+00 1.147922992847263818e-01
-1.369100000000000072e+01 -9.755100000000000549e+00 3.684400000000000119e+01 -1.517450000000000010e+01 -6.905145089621017758e-03
-1.368399999999999928e+01 -8.449500000000000455e+00 3.480700000000000216e+01 -4.579337999999999909e+01 -8.070174566931594823e-03
-1.368099999999999916e+01 2.486699999999999910e+00 3.305299999999999727e+01 -3.347548999999999886e+00 -1.904064424899945818e-01
-1.367999999999999972e+01 1.006300000000000061e+01 8.991300000000000736e+00 -4.169507000000000296e+00 2.817788184595209633e-01
-1.367699999999999960e+01 -1.539600000000000080e+01 8.623900000000000787e+00 -1.403887000000000107e+00 -2.072088760000469487e-01
-1.367099999999999937e+01 -4.170700000000000074e+00 9.605000000000000426e+00 1.646724000000000032e+01 1.024260143234369813e-01
-1.366999999999999993e+01 1.285299999999999976e+01 2.091700000000000159e+01 -5.786864999999999926e-01 -1.084239501981302395e-02
-1.366699999999999982e+01 1.171699999999999964e+00 1.591000000000000014e+01 1.979747000000000057e+01 8.174986161842763555e-02
-1.365700000000000003e+01 1.547600000000000087e+01 1.253700000000000081e+01 -2.921001000000000047e+01 7.994293390946181910e-02
-1.365399999999999991e+01 -2.261199999999999832e+01 2.665299999999999869e+01 1.590186000000000099e+00 9.252501119947006969e-02
-1.365300000000000047e+01 -9.667099999999999582e+00 8.444000000000000838e+00 -8.628558999999999202e+00 1.042373405028862721e-01
-1.364300000000000068e+01 -5.693999999999999950e+00 7.947099999999999831e+00 -3.589322000000000124e+00 1.066288851740101878e-01
-1.364199999999999946e+01 -3.257800000000000029e+00 9.586800000000000210e+00 1.509107999999999983e+01 1.019683937302872934e-01
-1.364000000000000057e+01 5.129299999999999748e+00 2.685999999999999943e+01 3.453880000000000194e+01 -2.047218137017964984e-02
-1.363700000000000045e+01 -8.247100000000000541e-01 3.016700000000000159e+01 1.162203000000000053e+01 -3.042791907896829143e-02
-1.363700000000000045e+01 -8.247100000000000541e-01 3.168700000000000117e+01 6.479674000000000156e+00 -2.692883260613025340e-02
-1.363700000000000045e+01 1.147100000000000064e-01 3.016700000000000159e+01 -3.598727999999999927e+00 -2.777941433379341185e-02
-1.363700000000000045e+01 1.147100000000000064e-01 3.168700000000000117e+01 -4.470105999999999824e+01 -2.432561614134284497e-02
-1.363199999999999967e+01 -2.363899999999999935e+01 3.102199999999999847e+01 -1.265441999999999956e+00 9.154154168159883698e-02
-1.361800000000000033e+01 -2.186700000000000088e+01 9.934100000000000819e+00 1.827144000000000101e+00 -2.047676737663267077e-01
-1.361599999999999966e+01 -1.387700000000000067e+01 8.722300000000000608e+00 -5.352015999999999885e+00 -2.083843921676541977e-01
-1.361200000000000010e+01 8.468999999999999417e+00 2.694800000000000040e+01 2.086177000000000170e+00 -1.891306965561029840e-01
-1.360999999999999943e+01 6.750000000000000444e-01 4.444899999999999629e+00 5.089152000000000342e+00 1.298763678473596195e-01
-1.360899999999999999e+01 -8.238699999999999690e+00 6.458999999999999631e+00 -1.332998000000000083e+01 -2.130385195557062405e-01
-1.360899999999999999e+01 -7.299299999999999677e+00 6.458999999999999631e+00 -2.558391999999999911e+01 1.088220491143165047e-01
-1.360599999999999987e+01 1.662900000000000134e+01 1.348199999999999932e+01 -8.283768000000000242e+00 7.824467998377113154e-02
-1.359900000000000020e+01 1.640299999999999869e+01 9.025700000000000500e+00 9.548156000000000532e+00 1.337010486833110304e-03
-1.359900000000000020e+01 1.640299999999999869e+01 1.007600000000000051e+01 -2.015038000000000107e+00 9.576389087174263723e-03
-1.359099999999999930e+01 -2.390599999999999881e+01 1.927799999999999869e+01 2.797229000000000099e+01 9.518955162441261608e-02
-1.358900000000000041e+01 -1.621499999999999986e+01 8.820199999999999818e+00 4.264993999999999730e+00 -2.068858471784466579e-01
-1.358500000000000085e+01 -2.368299999999999983e+01 1.837699999999999889e+01 1.962440000000000140e+01 9.553714006314441287e-02
-1.358399999999999963e+01 3.320100000000000051e+00 2.686899999999999977e+01 2.078810999999999964e+00 -2.603325584101519666e-02
-1.358300000000000018e+01 8.148999999999999133e+00 2.836400000000000077e+01 -8.006776000000000337e+00 -1.890621995066941730e-01
-1.358000000000000007e+01 1.469299999999999962e+01 1.759100000000000108e+01 -2.587821999999999889e+01 -2.348091415143773592e-02
-1.358000000000000007e+01 1.993900000000000006e+00 3.383800000000000097e+01 -6.372719000000000023e+00 -1.904592379520060885e-01
-1.357799999999999940e+01 -2.378699999999999903e+01 1.736499999999999844e+01 5.341783999999999644e+00 9.594623342727390258e-02
-1.357799999999999940e+01 -2.353300000000000125e+01 1.647100000000000009e+01 9.930350999999999484e-01 9.631975429990316528e-02
-1.357799999999999940e+01 -2.252599999999999980e+01 1.399200000000000088e+01 1.178856000000000037e+01 9.746729423410106785e-02
-1.357799999999999940e+01 -2.252599999999999980e+01 1.546400000000000041e+01 1.346853999999999996e+00 9.679045653345443034e-02
-1.357799999999999940e+01 -2.231700000000000017e+01 1.472799999999999976e+01 5.632590999999999681e+00 9.713919456805596153e-02
-1.357799999999999940e+01 7.837100000000000399e+00 1.091699999999999982e+01 1.302917000000000103e+00 5.808800335440102852e-02
-1.357799999999999940e+01 9.028000000000000469e+00 1.025300000000000011e+01 -8.146943999999999519e+00 2.736770570956769122e-01
-1.357699999999999996e+01 1.269500000000000028e+01 8.286699999999999733e+00 5.823116999999999877e+00 1.931546589254772572e-01
-1.357600000000000051e+01 -7.091300000000000381e+00 2.751399999999999935e+01 9.592527000000000470e+00 8.715370233694672009e-02
-1.357399999999999984e+01 -1.154099999999999904e+00 3.092699999999999960e+01 5.787089999999999890e+01 -2.952360669023922773e-02
-1.357399999999999984e+01 4.441100000000000048e-01 3.092699999999999960e+01 -4.165603000000000122e+01 -2.505225959976253164e-02
-1.356900000000000084e+01 1.277299999999999969e+01 2.020499999999999829e+01 -2.498207999999999984e+01 -1.572542608447876147e-02
-1.355799999999999983e+01 -1.620100000000000051e+01 3.297099999999999653e+01 -8.613239000000000312e-01 8.954855903869948786e-02
-1.355799999999999983e+01 1.660999999999999943e+01 1.638599999999999923e+01 2.675215999999999816e+00 -1.971521084320230210e-01
-1.355799999999999983e+01 1.823999999999999844e+01 1.684900000000000020e+01 1.078509000000000029e+01 -1.975427776053288453e-01
-1.355799999999999983e+01 1.968599999999999994e+01 1.604299999999999926e+01 5.443195999999999657e+01 -2.072389673312899916e-01
-1.355799999999999983e+01 1.994000000000000128e+01 1.514899999999999913e+01 1.128954000000000057e+01 -2.161891137574503685e-01
-1.355499999999999972e+01 1.502800000000000047e+01 8.104900000000000659e+00 4.884098999999999968e+00 1.092397000263828633e-01
-1.355499999999999972e+01 -2.706400000000000006e+01 3.201500000000000057e+01 5.944144999999999790e+00 9.179586649951490540e-02
-1.355499999999999972e+01 -2.574500000000000099e+01 3.128000000000000114e+01 -2.635644999999999794e+00 9.178615141896159790e-02
-1.354899999999999949e+01 -1.258600000000000030e+01 1.065199999999999925e+01 -3.723294000000000104e+00 1.008609081421854708e-01
-1.353299999999999947e+01 4.510100000000000442e+00 6.958999999999999631e+00 -3.573948000000000125e+00 8.625021729082626987e-02
-1.352999999999999936e+01 -1.745799999999999841e+01 8.398999999999999133e+00 -1.857413999999999898e+00 -2.060537896854492124e-01
-1.352899999999999991e+01 -2.050499999999999901e+01 3.393299999999999983e+01 -9.219585000000000363e+00 9.036258730312941856e-02
-1.351500000000000057e+01 -4.535999999999999588e+00 8.904999999999999361e+00 1.063250999999999946e+00 1.043903851788277326e-01
-1.350900000000000034e+01 -3.162300000000000111e+00 2.656200000000000117e+01 -2.453819000000000194e+00 8.153600321067534795e-02
-1.350500000000000078e+01 -1.531600000000000072e+01 3.365599999999999881e+01 -2.376475000000000115e+00 8.917640436505631929e-02
-1.350300000000000011e+01 -2.042099999999999937e+01 8.904600000000000293e+00 -6.641976000000000546e-01 -2.049840615831786950e-01
-1.350300000000000011e+01 -1.685999999999999943e+00 2.735999999999999943e+01 1.617078000000000060e+01 8.131686525311813962e-02
-1.349300000000000033e+01 1.435100000000000087e+01 8.178599999999999426e+00 6.213578000000000046e+00 2.095054727647862047e-01
-1.348900000000000077e+01 9.811700000000000088e+00 2.616499999999999915e+01 -1.667693999999999832e+01 -1.885772268826167164e-01
-1.348499999999999943e+01 -7.839599999999999902e+00 2.826200000000000045e+01 1.006818999999999953e+01 8.739775076492592443e-02
-1.347899999999999920e+01 -2.423100000000000165e+01 1.048099999999999987e+01 2.135454999999999970e+01 -2.042780301386881159e-01
-1.347199999999999953e+01 3.640699999999999825e+00 6.063299999999999912e+00 -7.762664000000000009e+00 1.070557780655004565e-01
-1.347000000000000064e+01 -2.471199999999999974e+01 3.446200000000000330e+01 -2.249979000000000173e+00 9.099657000150218611e-02
-1.346700000000000053e+01 -1.907000000000000028e+01 7.179000000000000270e+00 -1.590505999999999975e+00 -2.047878312265893896e-01
-1.346400000000000041e+01 -4.742200000000000415e+00 2.668799999999999883e+01 -1.913588999999999984e+01 8.588118937685142174e-02
-1.345899999999999963e+01 1.296499999999999875e-01 2.561499999999999844e+01 4.254878999999999856e+00 8.047120486320542831e-02
-1.345700000000000074e+01 2.495999999999999996e+00 3.632900000000000063e+01 -1.401885000000000048e+01 -1.902255976129378079e-01
-1.345700000000000074e+01 4.195999999999999730e+00 3.357900000000000063e+01 7.710414000000000101e+00 -1.899562671950300596e-01
-1.345700000000000074e+01 4.195999999999999730e+00 3.632900000000000063e+01 -4.311783000000000143e+00 -1.898601385161331201e-01
-1.345400000000000063e+01 2.753299999999999859e+00 2.577899999999999991e+01 7.553499999999999659e+00 -3.249146644611834722e-02
-1.344299999999999962e+01 2.483000000000000096e+00 5.020599999999999952e+00 2.110469999999999846e+00 1.271700210778447526e-01
-1.344100000000000072e+01 -6.952899999999999636e+00 7.189600000000000435e+00 -2.879300999999999888e+01 1.076776486005557310e-01
-1.344100000000000072e+01 -9.428499999999999659e+00 3.634899999999999665e+01 -2.454316999999999993e+01 -7.260423239890683063e-03
-1.344100000000000072e+01 -8.479699999999999349e+00 3.540100000000000335e+01 -3.466640999999999906e+01 -7.476710401187787111e-03
-1.343900000000000006e+01 -2.200199999999999889e+01 3.478999999999999915e+01 -1.220654000000000039e+01 9.048723198271356460e-02
-1.343900000000000006e+01 -8.748799999999999244e+00 7.299599999999999866e+00 -8.009437999999999391e+00 1.064024763326037598e-01
-1.343500000000000050e+01 -1.195899999999999963e+01 1.117699999999999960e+01 5.117930999999999564e+00 1.003879020349491558e-01
-1.343500000000000050e+01 -1.055899999999999928e+01 1.117699999999999960e+01 5.040156000000000347e+01 1.004649371413857406e-01
-1.342800000000000082e+01 -2.030000000000000071e+01 8.002299999999999969e+00 -1.146490000000000009e+00 -2.047108564441696976e-01
-1.342699999999999960e+01 -1.774200000000000088e+01 7.941099999999999604e+00 -1.675691999999999959e+00 -2.057776760547107009e-01
-1.342399999999999949e+01 5.581299999999999706e+00 2.596099999999999852e+01 -4.872576999999999714e+00 -2.167705387425445523e-02
-1.342200000000000060e+01 -5.835600000000000342e+00 2.729799999999999827e+01 -2.016422999999999988e+01 8.646849030866234076e-02
-1.341999999999999993e+01 -2.793900000000000006e+01 3.286399999999999721e+01 -1.545446000000000042e-01 9.173008065946845757e-02
-1.341499999999999915e+01 -2.482799999999999940e+01 1.280700000000000038e+01 5.389182999999999613e-01 -2.047735819835829751e-01
-1.341099999999999959e+01 -2.820499999999999829e+01 3.369599999999999795e+01 5.558653000000000066e-01 9.160213075423492834e-02
-1.340300000000000047e+01 -2.691600000000000037e+01 3.457600000000000051e+01 -1.253530000000000033e+00 9.128335096915891900e-02
-1.340000000000000036e+01 -1.356700000000000017e+01 3.513400000000000034e+01 -2.195072000000000134e+00 8.843045831091550513e-02
-1.339799999999999969e+01 -2.542999999999999972e+01 1.227500000000000036e+01 1.087733000000000061e+00 -2.044746040081684146e-01
-1.339400000000000013e+01 1.579700000000000104e+00 2.464499999999999957e+01 1.057948999999999984e+01 -1.346592458190115638e-02
-1.339199999999999946e+01 -2.452499999999999858e+01 9.717399999999999594e+00 1.088433999999999990e+01 -2.040061988554818517e-01
-1.339100000000000001e+01 9.494899999999999451e+00 9.690099999999999270e+00 -1.170073999999999970e+01 2.794605779562788772e-01
-1.338199999999999967e+01 1.075000000000000000e+01 2.516300000000000026e+01 -3.592448999999999870e+01 -1.882225100763061376e-01
-1.338000000000000078e+01 4.206000000000000405e+00 2.688200000000000145e+01 -4.347800999999999583e+00 -2.263151019490878754e-02
-1.338000000000000078e+01 -2.684299999999999997e+01 1.150999999999999979e+01 1.602674000000000043e-01 -2.039195940783202210e-01
-1.337800000000000011e+01 -3.696000000000000174e+00 8.866500000000000270e+00 2.026556999999999942e+00 1.043385130129456939e-01
-1.337500000000000000e+01 6.565299999999999692e+00 1.064400000000000013e+01 6.874830000000000219e+00 5.901264885379211428e-02
-1.337400000000000055e+01 7.123899999999999899e+00 2.495100000000000051e+01 -2.816701000000000121e+00 -2.063149508428175835e-02
-1.336800000000000033e+01 -2.496799999999999997e+01 2.085999999999999943e+01 3.995374999999999899e-01 9.465703678061179738e-02
-1.336200000000000010e+01 1.102599999999999980e+01 2.425700000000000145e+01 -4.224416000000000082e+01 -1.064269805221135408e-02
-1.336100000000000065e+01 1.740099999999999980e+01 1.336100000000000065e+01 2.018439000000000050e+01 1.753648057357147239e-01
-1.335999999999999943e+01 4.889700000000000296e-02 5.458000000000000185e+00 1.550605999999999973e+01 1.208582117834362812e-01
-1.335599999999999987e+01 -2.584499999999999886e+01 8.936500000000000554e+00 8.586222999999999494e-01 -2.034477784609901863e-01
-1.335399999999999920e+01 -1.220400000000000063e+01 3.671399999999999864e+01 4.069069999999999965e+01 8.782094992491373819e-02
-1.335399999999999920e+01 -9.262700000000000600e+00 8.288999999999999702e+00 1.172013999999999889e+00 1.046429188810250877e-01
-1.335399999999999920e+01 -1.065399999999999991e+01 3.686599999999999966e+01 -1.162876999999999938e+01 8.732634720860524280e-02
-1.335200000000000031e+01 -1.419200000000000017e+01 3.481900000000000261e+01 -5.643819999999999837e+00 8.866191469315318208e-02
-1.335100000000000087e+01 1.082300000000000040e+01 8.928000000000000824e+00 -4.666301999999999950e+00 2.988368213113775096e-01
-1.334699999999999953e+01 -2.344399999999999906e+01 1.038899999999999935e+01 1.847939999999999827e+01 -2.045551070720543763e-01
-1.334699999999999953e+01 -2.257799999999999940e+01 1.038899999999999935e+01 1.058906999999999954e+01 -2.048355780981510887e-01
-1.334699999999999953e+01 -3.549999999999999822e-01 3.092699999999999960e+01 3.578834000000000182e-02 -2.752820089660711414e-02
-1.334600000000000009e+01 -4.968600000000000350e+00 8.069900000000000517e+00 -4.967178999999999789e+00 1.065785143192460732e-01
-1.334600000000000009e+01 -2.786899999999999977e+01 3.447099999999999653e+01 3.161270000000000024e+01 9.142126841644708513e-02
-1.334600000000000009e+01 -1.998199999999999932e+01 3.309100000000000108e+01 -6.242544999999999789e+00 9.042638241660110043e-02
-1.333799999999999919e+01 8.256600000000000605e+00 2.571000000000000085e+01 -8.093265000000000597e+00 -1.658087850318906015e-02
-1.332699999999999996e+01 1.521400000000000041e+01 1.125200000000000067e+01 -3.579318999999999917e+00 8.489373149731839485e-02
-1.332699999999999996e+01 1.521400000000000041e+01 1.211700000000000088e+01 -1.344172000000000011e+01 7.974951002797707467e-02
-1.331900000000000084e+01 -7.769000000000000128e+00 7.219000000000000306e+00 -1.026520999999999972e+01 1.071309491558674887e-01
-1.331900000000000084e+01 -1.845100000000000051e+01 3.257500000000000284e+01 -5.365845000000000198e-01 9.019712641235695660e-02
-1.331600000000000072e+01 -2.709900000000000020e+01 9.775999999999999801e+00 2.733718999999999788e+00 -2.034260616641674901e-01
-1.331600000000000072e+01 -2.709900000000000020e+01 1.073399999999999999e+01 1.186515999999999904e+00 -2.036855938349718120e-01
-1.331099999999999994e+01 1.882100000000000151e+01 1.291200000000000081e+01 1.166871000000000080e+01 -7.431969288890886982e-02
-1.330199999999999960e+01 1.592900000000000027e+01 1.342399999999999949e+01 -1.535262999999999955e+01 7.488785837838793369e-02
-1.329599999999999937e+01 9.055699999999999861e+00 2.611799999999999855e+01 -1.239762999999999948e+01 -1.386507593307644871e-02
-1.329199999999999982e+01 2.460100000000000176e+00 3.352100000000000080e+01 -3.845400999999999847e+00 -1.903781450882883752e-01
-1.328999999999999915e+01 1.422300000000000075e+01 1.835099999999999909e+01 -5.877702000000000027e+01 -2.312861329020091811e-02
-1.328899999999999970e+01 -8.447800000000000864e+00 3.144699999999999918e+01 2.160734000000000066e+01 8.713048744563980930e-02
-1.328599999999999959e+01 -1.744299999999999962e+00 9.817099999999999937e+00 6.013592000000000048e+00 9.974025943564751584e-02
-1.328599999999999959e+01 -5.534200000000000230e-01 9.153100000000000236e+00 -1.210271000000000097e+00 1.002115884436923510e-01
-1.327299999999999969e+01 -8.610300000000000509e+00 3.256499999999999773e+01 -1.018970999999999982e+01 8.704909066129074002e-02
-1.327299999999999969e+01 -8.610300000000000509e+00 3.343099999999999739e+01 -2.825852000000000075e+01 8.694703096247674567e-02
-1.326999999999999957e+01 -2.479799999999999827e+01 2.028200000000000003e+01 2.882550999999999863e+00 9.485574001702376523e-02
-1.326200000000000045e+01 -2.487199999999999989e+01 2.266600000000000037e+01 4.262077999999999811e+00 9.404010088276303081e-02
-1.326200000000000045e+01 -2.386499999999999844e+01 2.367299999999999827e+01 3.335360000000000102e+00 9.362119109115085713e-02
-1.325500000000000078e+01 -2.606400000000000006e+01 3.481499999999999773e+01 6.498192000000000412e+00 9.112845492783354373e-02
-1.325500000000000078e+01 -1.690099999999999980e+01 3.291299999999999670e+01 1.070598999999999990e+01 8.974884863719559402e-02
-1.324699999999999989e+01 -2.642299999999999827e+01 1.225300000000000011e+01 2.795116000000000156e+00 -2.042695194700827055e-01
-1.324699999999999989e+01 1.209800000000000075e+01 2.130000000000000071e+01 1.748437000000000126e+02 -1.631669021531653371e-02
-1.323900000000000077e+01 -2.325900000000000034e+01 2.453900000000000148e+01 -3.082986000000000004e+00 9.327329459863183125e-02
-1.323900000000000077e+01 -2.305000000000000071e+01 2.527499999999999858e+01 -2.762436000000000114e+00 9.301311763898877094e-02
-1.323700000000000010e+01 -1.488400000000000034e+01 3.435600000000000165e+01 -4.878444000000000003e+00 8.893663397998109732e-02
-1.323399999999999999e+01 -9.229400000000000048e+00 9.939600000000000435e+00 1.573718000000000039e+01 1.022201672759740221e-01
-1.323099999999999987e+01 1.340700000000000003e+01 1.892200000000000060e+01 -4.453213000000000221e+01 -2.378830334328712812e-02
-1.322499999999999964e+01 -4.066300000000000026e+00 8.144999999999999574e+00 -1.149790000000000090e+00 1.065292211760564822e-01
-1.322199999999999953e+01 1.359800000000000075e+01 8.100199999999999179e+00 5.221754999999999924e+00 2.077616664688340387e-01
-1.322100000000000009e+01 -8.248799999999999244e+00 2.969399999999999906e+01 -1.871618000000000137e+01 8.732580521195941470e-02
-1.322000000000000064e+01 1.803500000000000103e-01 6.584800000000000431e+00 -5.420848000000000333e-01 1.130514396554390955e-01
-1.322000000000000064e+01 1.803500000000000103e-01 7.450000000000000178e+00 1.101969999999999894e+00 1.074838407029537340e-01
-1.321799999999999997e+01 -8.366899999999999338e+00 3.058099999999999952e+01 3.726107999999999976e+00 8.722861321697680803e-02
