4.987700000000000244e+00 1.777599999999999980e+01 1.778999999999999915e+01 7.811321000000000403e+00 -2.576560236702689077e-01
4.988800000000000345e+00 1.363599999999999923e+01 -3.836499999999999910e-01 -1.815016000000000129e-01 -1.445045619843117191e-01
4.991100000000000314e+00 -9.848100000000000520e+00 -1.232300000000000040e+01 6.300624000000000002e+00 -4.226305865342336321e-01
4.993299999999999628e+00 -1.900700000000000145e+01 -1.227999999999999936e+01 -3.863936999999999955e+01 -4.194207039511446133e-01
4.993999999999999773e+00 -1.411100000000000065e+01 -1.307000000000000028e+01 1.681465999999999905e+00 -4.210205626894362174e-01
4.995499999999999829e+00 -7.861700000000000355e-01 -1.011100000000000065e+01 1.178890999999999956e+01 -3.820386539579070373e-01
4.995599999999999596e+00 1.615500000000000114e+01 3.236600000000000144e+00 7.316710999999999743e+00 -1.471553085904389602e-01
4.995700000000000252e+00 -6.206900000000000084e+00 -1.515199999999999925e+01 8.525546999999999542e+00 -4.254717664161809521e-01
4.996999999999999886e+00 -2.589399999999999835e+01 -8.675000000000000711e+00 -1.976210999999999984e+01 -3.839355295939077539e-01
4.996999999999999886e+00 -2.460099999999999909e+01 -6.355900000000000105e+00 -4.076420000000000243e+01 -3.835103123225926947e-01
4.998199999999999754e+00 1.695599999999999952e+01 1.519999999999999929e+01 1.554626999999999981e+00 -2.575991176301818952e-01
4.998400000000000176e+00 -6.584999999999999964e+00 -1.244400000000000084e+01 1.606936999999999927e+01 -4.226237978405602003e-01
5.012800000000000367e+00 1.734299999999999997e+01 1.333699999999999974e+01 4.666676999999999964e+00 -2.573673192384887676e-01
5.023299999999999876e+00 1.672200000000000131e+01 2.072899999999999920e+01 2.019690999999999903e+00 -2.580392325728669833e-01
5.024799999999999933e+00 -6.204200000000000159e+00 7.518500000000000405e+00 1.443483999999999945e+01 -1.739485869142798347e-01
5.028100000000000236e+00 -1.184500000000000064e+01 3.001500000000000057e+00 1.022851999999999961e+01 -2.853259814560945018e-01
5.040000000000000036e+00 5.714100000000000179e+00 -1.034299999999999997e+01 1.177380999999999922e+01 -2.577580142960655962e-01
5.040000000000000036e+00 5.714100000000000179e+00 -8.555300000000000793e+00 2.479497999999999891e+01 -2.646317610482812333e-01
5.040000000000000036e+00 5.967999999999999972e+00 -9.448999999999999844e+00 2.131625000000000014e+01 -2.612520929750261622e-01
5.044599999999999973e+00 -2.726200000000000045e+01 -8.018800000000000594e+00 -2.263675999999999799e+00 -3.839114501131021262e-01
5.044599999999999973e+00 -2.452599999999999980e+01 -8.018800000000000594e+00 -2.412856999999999985e+01 -3.837493213023518979e-01
5.049400000000000333e+00 -1.049300000000000033e+01 -1.257199999999999918e+01 -1.289152000000000076e+00 -4.224678258439488188e-01
5.059499999999999886e+00 -1.525900000000000034e+01 8.010199999999999321e+00 -9.753213000000000577e+00 -1.763280860367068270e-01
5.060900000000000176e+00 5.094400000000000261e+00 1.640700000000000003e+01 -8.268931000000000253e+00 -1.724262898438507219e-01
5.062599999999999767e+00 -1.599900000000000055e+01 3.556699999999999862e-01 6.304587999999999859e+00 -2.802037522116256341e-01
5.064600000000000435e+00 -2.753800000000000026e+01 -7.196799999999999642e+00 -1.391787000000000107e+00 -3.838175538251369923e-01
5.064600000000000435e+00 -2.425000000000000000e+01 -7.155000000000000249e+00 -2.057132000000000005e+01 -3.835963181451967352e-01
5.067000000000000171e+00 1.809700000000000131e+01 1.875799999999999912e+01 1.258923000000000059e+01 -2.576927830151628518e-01
5.067000000000000171e+00 1.809700000000000131e+01 1.980799999999999983e+01 2.509519999999999840e+01 -2.577705287103707610e-01
5.068399999999999572e+00 1.270100000000000051e+01 -1.478399999999999936e+00 6.962144999999999584e-01 -1.433356885303170292e-01
5.069899999999999629e+00 -7.788299999999999557e+00 -7.852299999999999613e+00 1.000491000000000064e+01 -4.191709965570229457e-01
5.070899999999999963e+00 -9.759000000000000341e+00 3.077100000000000168e+00 2.273116999999999877e+01 -1.741717831342463607e-01
5.071200000000000152e+00 1.526399999999999935e+01 1.993199999999999861e+01 4.460066000000000308e+00 -2.582497925170548769e-01
5.082399999999999807e+00 1.132499999999999929e+01 -9.009399999999999631e-01 4.829584999999999795e+00 -1.425226793923129731e-01
5.086700000000000443e+00 5.722500000000000142e+00 1.647500000000000142e+01 -4.626237999999999850e+00 -1.722801981373454638e-01
5.088000000000000078e+00 7.778500000000000192e+00 1.721099999999999852e+01 -2.245661999999999825e+00 -1.719913526549363136e-01
5.091700000000000337e+00 -3.776899999999999924e+00 9.164400000000000546e+00 -9.837755000000000249e-01 -1.733803022712470943e-01
5.094000000000000306e+00 -1.912000000000000099e+01 -8.733700000000000685e+00 7.791408999999999807e+00 -3.833118561346412489e-01
5.097999999999999865e+00 -2.164799999999999969e+01 -1.707999999999999963e+00 3.244193999999999800e+00 -2.751817727215962739e-01
5.097999999999999865e+00 -2.139399999999999835e+01 -2.601700000000000124e+00 2.643682999999999783e+00 -2.741769833368304377e-01
5.100999999999999979e+00 -2.149899999999999878e+01 -7.893900000000000361e-01 2.795865000000000045e+00 -2.762465210599592824e-01
5.103100000000000414e+00 -1.038700000000000045e+01 -1.082900000000000063e+01 -1.892452000000000112e+01 -4.214977119505697312e-01
5.104800000000000004e+00 1.762900000000000134e+01 3.560799999999999965e+00 2.143159999999999954e+00 -2.714517746264618614e-01
5.107000000000000206e+00 -1.280799999999999983e+01 4.700599999999999667e+00 1.295987000000000045e+01 -1.754808341717660480e-01
5.107000000000000206e+00 -8.626400000000000290e+00 3.835399999999999920e+00 -6.583042999999999978e+00 -1.738864259589508743e-01
5.109899999999999665e+00 4.089100000000000179e+00 1.641600000000000037e+01 -5.974027999999999672e+00 -1.726671704375274397e-01
5.110199999999999854e+00 9.851599999999999469e+00 1.088600000000000012e+00 6.869631000000000043e+00 -1.427670892599793295e-01
5.111699999999999910e+00 -1.197199999999999953e+01 6.159099999999999575e+00 -1.784075000000000077e+00 -1.755006699144131266e-01
5.113699999999999690e+00 -1.518699999999999939e+01 6.918199999999999683e+00 -5.036092000000000013e+00 -1.762039769980080217e-01
5.123700000000000365e+00 -3.350999999999999979e+00 1.398799999999999955e+01 -3.122400999999999982e+01 -1.742539296423372130e-01
5.123999999999999666e+00 6.645800000000000374e+00 1.645299999999999940e+01 -2.280780000000000030e+00 -1.720423983954552927e-01
5.126000000000000334e+00 3.915700000000000180e+00 1.486500000000000021e+01 -8.443733999999999185e+00 -1.723187817805884314e-01
5.129299999999999748e+00 5.183399999999999785e+00 -7.729000000000000092e+00 1.655434999999999945e+01 -2.678369892102771543e-01
5.131099999999999994e+00 4.325400000000000134e+00 -1.125200000000000067e+01 1.683894000000000091e+01 -3.796611866689723613e-01
5.131300000000000416e+00 -2.621999999999999886e+01 -5.336000000000000298e+00 -7.906515999999999877e+00 -3.835012629345094792e-01
5.131300000000000416e+00 -2.556800000000000139e+01 -5.336000000000000298e+00 -1.470402999999999949e+01 -3.834518378922927573e-01
5.143500000000000405e+00 -2.003399999999999892e+01 -3.517500000000000071e+00 1.995536999999999894e+00 -2.732037624355316829e-01
5.144999999999999574e+00 3.820899999999999963e+00 1.717500000000000071e+01 -1.514696999999999960e+00 -1.728892584385956499e-01
5.144999999999999574e+00 5.419100000000000250e+00 1.717500000000000071e+01 -1.774299999999999855e+01 -1.725030862745958182e-01
5.145299999999999763e+00 1.928600000000000136e+01 4.031299999999999883e+00 6.599644999999999539e-01 -2.720093646725453285e-01
5.145699999999999719e+00 2.726399999999999935e+00 -1.036100000000000065e+01 1.080504999999999960e+01 -3.806104212977413082e-01
5.146099999999999675e+00 -8.644899999999999807e+00 5.199200000000000266e+00 6.419468000000000174e+00 -1.742461190000962890e-01
5.151399999999999757e+00 -1.947700000000000031e+01 -7.895599999999999952e+00 5.133291999999999966e+00 -3.831937099514629574e-01
5.151600000000000179e+00 4.272000000000000242e+00 1.558600000000000030e+01 -8.832935000000000869e+00 -1.724040340950251660e-01
5.151699999999999946e+00 -1.709299999999999997e+01 -1.485999999999999943e+01 4.927704999999999558e+00 -4.201795806554694535e-01
5.152599999999999625e+00 -1.565799999999999947e+01 -1.406600000000000072e+01 8.171044999999999447e+00 -4.206002018127306674e-01
5.153699999999999726e+00 7.233399999999999608e+00 1.710399999999999976e-01 1.121704000000000034e+00 4.260314673381868089e-02
5.153699999999999726e+00 7.233399999999999608e+00 1.036299999999999999e+00 3.499826999999999799e+00 4.137132473122627496e-02
5.161999999999999922e+00 -1.944000000000000128e+01 -1.311500000000000021e+01 -1.469519999999999982e+01 -4.194100741527863052e-01
5.168000000000000149e+00 8.542500000000000426e+00 1.820699999999999985e+00 6.835840000000000138e+00 -1.426096771707811295e-01
5.169699999999999740e+00 -2.660000000000000142e-01 -9.357699999999999463e+00 2.439267000000000074e+00 -3.822753289326593640e-01
5.182999999999999829e+00 1.430000000000000071e+01 -2.000999999999999890e+00 -2.694359000000000037e+01 2.125921633108577430e-02
5.184899999999999842e+00 -1.832100000000000062e+00 1.408600000000000030e+01 -2.049327999999999861e+01 -1.738058784585546079e-01
5.188900000000000290e+00 7.579900000000000304e+00 -8.822299999999999587e-01 4.519930999999999699e+00 4.330003677751654428e-02
5.190000000000000391e+00 9.980700000000000571e+00 1.306700000000000084e-01 1.589609999999999967e+00 -1.422151661874489492e-01
5.206000000000000405e+00 -7.703999999999999737e+00 -1.373199999999999932e+01 6.546357000000000426e+00 -4.239467253084307496e-01
5.208300000000000374e+00 4.150299999999999656e+00 1.793499999999999872e+01 -5.996667999999999665e+00 -1.729437962078677338e-01
5.208300000000000374e+00 5.089699999999999669e+00 1.793499999999999872e+01 -8.894811999999999941e+00 -1.727263995477979486e-01
5.209600000000000009e+00 1.317099999999999937e+01 1.822299999999999898e+01 -1.544086000000000070e+00 -2.586186636715159248e-01
5.209999999999999964e+00 1.650700000000000145e+01 1.088799999999999990e+01 -1.414114999999999966e+01 -2.676990751797059809e-01
5.209999999999999964e+00 1.671600000000000108e+01 1.162400000000000055e+01 -7.059290999999999761e-01 -2.573986649594272036e-01
5.210399999999999920e+00 6.016300000000000203e+00 -4.125700000000000145e+00 -7.806187999999999683e+00 -2.790279790441426155e-01
5.210399999999999920e+00 6.881599999999999717e+00 -4.125700000000000145e+00 -1.896352999999999955e+00 -2.785747334718242096e-01
5.213599999999999568e+00 1.712900000000000134e+01 1.238499999999999979e+01 1.049762999999999913e+01 -2.573752008680807446e-01
5.213799999999999990e+00 -9.212899999999999423e+00 8.606500000000000483e+00 -2.731263999999999914e+00 -1.750802412479032233e-01
5.214000000000000412e+00 -1.833399999999999963e+01 -5.616900000000000226e+00 1.289030999999999949e+01 -3.826063057699135017e-01
5.224099999999999966e+00 -6.506099999999999994e+00 -1.477599999999999980e+01 8.872628000000000625e+00 -4.249317496278235962e-01
5.225999999999999979e+00 -5.394199999999999662e+00 8.143299999999999983e+00 9.734652000000000527e+00 -1.736746708803275918e-01
5.226099999999999746e+00 1.357099999999999973e+01 2.142999999999999794e+00 2.056791000000000125e+01 -1.454649783437854116e-01
5.226099999999999746e+00 1.476200000000000045e+01 2.806999999999999940e+00 1.413565000000000005e+01 -1.463292434311750934e-01
5.228399999999999714e+00 1.324200000000000088e+01 1.123499999999999943e+00 1.170393999999999934e+01 -1.448538288833652321e-01
5.228399999999999714e+00 1.345100000000000051e+01 3.874900000000000011e-01 3.863666999999999963e+00 -1.446803079783141877e-01
5.229000000000000092e+00 -2.047800000000000153e+01 7.583199999999999941e-01 -1.819825999999999944e+00 -2.782038546078610119e-01
5.229000000000000092e+00 -1.894699999999999918e+01 1.612000000000000099e+00 -5.982015999999999778e+00 -2.797845829628126113e-01
5.233999999999999986e+00 -1.350600000000000023e+01 8.106499999999999817e-01 -2.332516000000000034e+00 -2.826287604772514395e-01
5.244200000000000195e+00 -1.765299999999999869e+01 -1.132900000000000063e+01 1.070452000000000048e+01 -4.196639473283415578e-01
5.246999999999999886e+00 -6.965600000000000236e+00 -1.435399999999999920e+01 9.002428000000000097e+00 -4.245240099602105022e-01
5.246999999999999886e+00 -6.965600000000000236e+00 -1.306400000000000006e+01 1.564522999999999975e+01 -4.232446050428625428e-01
5.249200000000000088e+00 1.403800000000000026e+01 -1.233400000000000052e+00 -2.275703000000000031e+01 2.127003818205299573e-02
5.250000000000000000e+00 -1.720100000000000051e+01 -4.858600000000000030e+00 7.130081999999999809e+00 -2.715387772780068487e-01
5.250000000000000000e+00 -1.720100000000000051e+01 -3.993399999999999839e+00 7.142748000000000097e+00 -2.730418517283934587e-01
5.251500000000000057e+00 -1.806800000000000139e+01 -1.206199999999999939e+01 3.658094000000000179e+00 -4.196498113739982050e-01
5.252100000000000435e+00 -1.054800000000000004e+01 6.733999999999999986e+00 -6.510200000000000209e+00 -1.751366891701677808e-01
5.252100000000000435e+00 -1.054800000000000004e+01 9.320000000000000284e+00 -2.459119000000000099e+01 -1.754960425607168806e-01
5.258700000000000152e+00 -1.030300000000000082e+01 -1.013899999999999935e+01 -6.538816999999999879e+00 -4.210309425704886754e-01
5.258799999999999919e+00 -1.848300000000000054e+01 -1.403299999999999947e+01 1.683850000000000069e+00 -4.197219463157996766e-01
5.266000000000000014e+00 -6.911999999999999922e+00 -7.746800000000000352e+00 1.223584999999999923e+01 -4.188736196763600539e-01
5.266000000000000014e+00 -5.721099999999999852e+00 -8.410700000000000287e+00 1.037120999999999960e+01 -4.188373967435564671e-01
5.266000000000000014e+00 -5.511999999999999567e+00 -9.146800000000000708e+00 8.100680999999999798e+00 -4.192438764146323993e-01
5.267000000000000348e+00 -1.801399999999999935e+01 -1.060699999999999932e+01 1.066996999999999929e+01 -4.194952025653932992e-01
5.268500000000000405e+00 2.086700000000000088e+01 6.613199999999999967e+00 3.739784000000000219e+00 -2.713136758264108606e-01
5.268600000000000172e+00 5.712900000000000311e+00 -4.825700000000000323e+00 -1.244191999999999965e+00 -2.772232376629800155e-01
5.268699999999999939e+00 1.802999999999999881e-01 1.428400000000000070e+01 -1.822829000000000121e+01 -1.732134481664344139e-01
5.279899999999999594e+00 -1.937500000000000000e+01 -6.717900000000000205e+00 5.967767000000000266e+00 -3.829629174047570750e-01
5.286900000000000155e+00 -1.377500000000000036e+01 8.585499999999999687e+00 -7.391688999999999510e+01 -1.760439167644408109e-01
5.299000000000000377e+00 1.685500000000000043e+01 3.294900000000000162e+00 3.391055000000000152e+00 -1.474372378139792716e-01
5.302299999999999791e+00 1.425799999999999912e+01 1.910099999999999909e+01 7.649054999999999715e+00 -2.584387522547830773e-01
5.305900000000000283e+00 8.687699999999999534e+00 -4.019999999999999574e+00 5.171730000000000160e+00 -1.383783969759687371e-01
5.306000000000000050e+00 1.840399999999999991e+01 1.410500000000000043e+01 -2.347663999999999973e+00 -2.678338551230798337e-01
5.314899999999999736e+00 -1.859299999999999997e+01 -1.295500000000000007e+01 -1.279673999999999978e+01 -4.196149703357835437e-01
5.319700000000000095e+00 1.358999999999999986e+01 -2.192899999999999849e+00 -3.000164999999999971e+00 2.239979061428045565e-02
5.319899999999999629e+00 -1.839799999999999969e+01 -3.024999999999999911e+00 9.338964999999999961e+00 -2.742231445568745762e-01
5.328100000000000058e+00 1.728600000000000136e+01 8.749800000000000466e+00 2.318984999999999985e+01 -2.687611763230380868e-01
5.336999999999999744e+00 1.207000000000000028e+01 1.797899999999999920e+01 1.213940999999999981e+01 -2.588882408374884592e-01
5.338499999999999801e+00 -1.876999999999999957e+01 -6.043700000000000294e+00 1.137371000000000087e+01 -3.827531804310855268e-01
5.343799999999999883e+00 2.165500000000000114e+01 9.407500000000000639e+00 3.276152000000000175e+00 -2.704450508407099663e-01
5.346199999999999619e+00 -1.144999999999999929e+01 6.676999999999999602e+00 -9.227878999999999721e+00 -1.753164215306487472e-01
5.348300000000000054e+00 -1.714499999999999957e+01 1.143299999999999983e+00 -4.150236999999999954e-01 -2.802527769617370046e-01
5.349599999999999689e+00 8.847200000000000841e+00 -2.087600000000000122e+00 4.994162000000000212e+00 -1.398862560404397493e-01
5.352100000000000080e+00 -1.047400000000000020e+01 2.923099999999999810e+00 2.503462000000000032e+01 -2.859296506512002400e-01
5.353399999999999714e+00 8.853500000000000369e+00 -3.048299999999999788e+00 6.002563000000000315e+00 -1.392067142787450640e-01
5.360199999999999854e+00 2.168199999999999861e+01 7.605199999999999960e+00 5.848383000000000109e+00 -2.711773644279518169e-01
5.362000000000000099e+00 -1.839599999999999902e+00 -1.217300000000000004e+01 2.049146999999999963e+01 -4.193778546903402793e-01
5.364099999999999646e+00 1.615299999999999869e+01 1.037299999999999933e+01 -1.526956000000000024e+01 -2.574693144114502119e-01
5.368199999999999861e+00 -3.336800000000000210e+00 9.900399999999999423e+00 -3.346128999999999770e-02 -1.732714412010141758e-01
5.369299999999999962e+00 1.807499999999999929e+01 1.334500000000000064e+01 -4.391733999999999916e-01 -2.678604239234573248e-01
5.369299999999999962e+00 1.807499999999999929e+01 1.486500000000000021e+01 -3.274024999999999963e+00 -2.574409087559091924e-01
5.372099999999999653e+00 -2.350499999999999812e+00 -1.355700000000000038e+01 2.162930000000000064e+01 -4.212085149731097933e-01
5.373400000000000176e+00 1.352899999999999991e+01 1.853600000000000136e+01 1.625439999999999996e+00 -2.585790147109049975e-01
5.374299999999999855e+00 -9.058999999999999275e+00 3.135400000000000187e+00 -1.391141000000000005e+01 -1.736946740468082451e-01
5.376699999999999591e+00 7.268699999999999939e+00 -4.870000000000000107e+00 5.630697000000000063e-01 -2.762963524930898696e-01
5.376699999999999591e+00 8.319300000000000139e+00 -4.870000000000000107e+00 3.552639999999999798e+00 -2.759685443610823130e-01
5.377399999999999736e+00 -3.329299999999999926e+00 1.140799999999999947e+01 -9.019555000000000433e+00 -1.736436084017802250e-01
5.377399999999999736e+00 -3.120299999999999851e+00 1.067200000000000060e+01 1.361218999999999957e+00 -1.733918819343677753e-01
5.380099999999999660e+00 -4.362000000000000099e+00 -1.632400000000000162e+01 1.140390999999999977e+01 -4.256243323288743663e-01
5.391700000000000159e+00 1.587199999999999989e+01 2.065800000000000125e+01 7.259782000000000401e+00 -2.582312088751829715e-01
5.391700000000000159e+00 1.757199999999999918e+01 2.065800000000000125e+01 1.871310999999999947e+00 -2.579581489434686903e-01
5.393900000000000361e+00 1.108000000000000096e+00 -8.871999999999999886e+00 5.323224999999999874e+00 -3.821219285716805913e-01
5.395800000000000374e+00 -2.653500000000000192e+00 -1.451999999999999957e+01 3.133238000000000056e+01 -4.225124274175821593e-01
5.399300000000000210e+00 -7.933699999999999974e+00 7.750000000000000000e+00 4.733312999999999704e+01 -1.744272915224395204e-01
5.400400000000000311e+00 -1.138599999999999923e+01 -1.282900000000000063e+01 1.275856000000000101e+00 -4.221381423729820281e-01
5.402000000000000135e+00 8.310900000000000176e+00 1.787699999999999889e+01 -7.289936000000000194e-01 -1.719618371699548898e-01
5.402000000000000135e+00 9.756999999999999673e+00 1.868299999999999983e+01 3.876170000000000115e+00 -2.594745426164775659e-01
5.403900000000000148e+00 -2.027000000000000135e+00 -1.278899999999999970e+01 2.033973999999999904e+01 -4.201274202308051819e-01
5.409299999999999997e+00 -8.403300000000000214e-01 1.405400000000000027e+01 -3.555203999999999809e+00 -1.734137483414797121e-01
5.413000000000000256e+00 2.012000000000000099e+01 1.018500000000000050e+01 2.619066000000000116e+00 -2.695757213939591335e-01
5.413000000000000256e+00 2.182000000000000028e+01 8.484999999999999432e+00 3.498752999999999780e+00 -2.708618136581932845e-01
5.413000000000000256e+00 2.293699999999999850e+00 -9.661400000000000432e+00 9.616433000000000675e+00 -3.812971324724976352e-01
5.413999999999999702e+00 -3.820699999999999985e+00 1.228800000000000026e+01 -5.817843000000000320e-01 -1.739712457743190777e-01
5.413999999999999702e+00 -3.820699999999999985e+00 1.322799999999999976e+01 -1.130377000000000010e+01 -1.741403886176240701e-01
5.414399999999999658e+00 -1.021899999999999942e+01 -1.126200000000000045e+01 -4.646926999999999808e+00 -4.217674056243949643e-01
5.414399999999999658e+00 -1.000999999999999979e+01 -9.577600000000000335e+00 2.698949999999999960e+00 -4.206547226951699581e-01
5.415099999999999802e+00 -6.967999999999999972e+00 -1.373199999999999932e+01 9.176700999999999553e+00 -4.238239347913774213e-01
5.421400000000000219e+00 -6.636899999999999800e+00 7.027599999999999625e+00 1.554748000000000019e+01 -1.737623472093587362e-01
5.428300000000000125e+00 -5.716000000000000192e+00 -1.554899999999999949e+01 7.296835999999999878e+00 -4.253842339766388814e-01
5.428300000000000125e+00 -3.008000000000000007e+00 -1.554899999999999949e+01 1.661260000000000048e+01 -4.238805989382464778e-01
5.431000000000000050e+00 -5.884999999999999787e+00 -1.131099999999999994e+01 6.838448999999999778e+00 -4.211930230562101474e-01
5.431000000000000050e+00 -5.631099999999999994e+00 -1.041699999999999982e+01 7.312274000000000385e+00 -4.202988141932120780e-01
5.431000000000000050e+00 -5.421999999999999709e+00 -9.681200000000000472e+00 6.301337000000000188e+00 -4.196186850054012263e-01
5.431400000000000006e+00 1.507100000000000106e+00 1.333200000000000074e+01 6.878235000000000321e-01 -1.725008427245350862e-01
5.443299999999999805e+00 -1.421499999999999986e+01 5.107000000000000206e+00 7.338665999999999912e+00 -1.756654322299412985e-01
5.443299999999999805e+00 -1.316499999999999915e+01 5.107000000000000206e+00 3.384418999999999755e+01 -1.754402135403787810e-01
5.452700000000000102e+00 5.214500000000000135e+00 -5.169699999999999740e+00 2.810830000000000162e+00 -2.762527067758251409e-01
5.453100000000000058e+00 -2.591000000000000192e+00 1.405100000000000016e+01 -3.244294000000000011e+01 -1.739096075094961058e-01
5.455000000000000071e+00 -1.431499999999999950e+01 4.031100000000000239e-01 -9.266389999999999350e-02 -2.812857407155749945e-01
5.456000000000000405e+00 -1.673699999999999966e+00 -1.130700000000000038e+01 2.660160000000000124e+01 -4.185364362908701175e-01
5.456299999999999706e+00 -4.477999999999999758e+00 9.007699999999999818e+00 1.595861000000000018e+01 -1.734228246358195114e-01
5.463000000000000078e+00 -1.844600000000000151e+01 -9.721299999999999386e+00 8.235136999999999929e+00 -4.193221354335675555e-01
5.463599999999999568e+00 1.052599999999999980e+01 -8.473300000000000276e-01 3.804171000000000191e+00 -1.420257855123579771e-01
5.464699999999999669e+00 -9.189500000000000668e+00 -8.631700000000000372e+00 -2.134628000000000192e+00 -4.199772663305073594e-01
5.466700000000000337e+00 -2.665399999999999991e+01 -8.384700000000000486e+00 -2.232366999999999990e+00 -3.839221954775808854e-01
5.466700000000000337e+00 -2.513400000000000034e+01 -8.384700000000000486e+00 -7.723686999999999969e+00 -3.838373922166903318e-01
5.466700000000000337e+00 -2.513400000000000034e+01 -5.925300000000000011e+00 -5.422326999999999941e+01 -3.834904424513569943e-01
5.470399999999999707e+00 -8.776799999999999713e+00 6.059999999999999609e+00 1.498330999999999946e+01 -1.743099146708932956e-01
5.473300000000000054e+00 -1.273799999999999955e+01 1.735899999999999999e+00 2.629267000000000110e+01 -2.836735227665677095e-01
5.478100000000000414e+00 1.609199999999999875e+01 9.320600000000000662e+00 1.229815999999999931e+01 -2.679606807687763270e-01
5.478299999999999947e+00 1.864399999999999835e+01 9.503099999999999881e+00 -4.067802999999999836e-01 -2.691711451927235599e-01
5.478600000000000136e+00 1.817299999999999827e+01 1.735699999999999932e+01 1.713123999999999825e+01 -2.576460925076327069e-01
5.482000000000000206e+00 -1.024499999999999922e+01 -1.189100000000000001e+01 -8.101478000000000179e+00 -4.221874244021152078e-01
5.483100000000000307e+00 -8.265900000000000247e+00 5.370000000000000107e+00 1.419816999999999929e+01 -1.739355183469157573e-01
5.487599999999999589e+00 1.212899999999999956e+01 -1.194600000000000106e+00 4.997779999999999667e+00 -1.430537123542853783e-01
5.501000000000000334e+00 1.319200000000000017e+01 -1.875000000000000000e+00 -3.000164999999999971e+00 -1.436075626872472533e-01
5.502600000000000158e+00 -8.488300000000000622e+00 -8.119600000000000151e+00 5.290661000000000058e+00 -4.195451478276689405e-01
5.503400000000000070e+00 -1.230199999999999960e+01 8.066599999999999326e+00 -3.859937999999999647e+01 -1.756126164810576373e-01
5.514100000000000001e+00 -1.458399999999999963e+01 5.956999999999999851e+00 -6.316938999999999638e+00 -1.758063095175904089e-01
5.514100000000000001e+00 -1.279599999999999937e+01 5.956999999999999851e+00 6.021049999999999791e+00 -1.754435646870197152e-01
5.517400000000000304e+00 -1.763400000000000034e+01 -5.558600000000000207e+00 7.423653999999999975e+00 -2.702010810117841388e-01
5.518299999999999983e+00 4.741299999999999848e+00 -6.841700000000000337e+00 9.938933000000000462e+00 -2.710223722610625718e-01
5.520599999999999952e+00 6.213199999999999612e+00 1.694399999999999906e+01 -4.590326000000000128e+00 -1.721546485585129793e-01
5.520599999999999952e+00 7.078500000000000014e+00 1.694399999999999906e+01 -2.696673999999999793e+00 -1.719596719534177143e-01
5.520800000000000374e+00 1.795200000000000173e+01 1.551699999999999946e+01 -2.576793000000000000e-01 -2.575474167844204465e-01
5.527899999999999814e+00 -2.665299999999999869e+01 -5.826900000000000190e+00 -1.021707999999999927e+01 -3.835872392237105188e-01
5.530400000000000205e+00 -1.220800000000000018e+01 -1.296299999999999919e+01 3.258083000000000062e+00 -4.218105632399111182e-01
5.533900000000000041e+00 -1.696300000000000097e+01 -1.157799999999999940e+01 9.387498000000000786e+00 -4.198989643611223954e-01
5.535899999999999821e+00 2.043400000000000105e+01 5.913199999999999790e+00 1.604473999999999956e+00 -2.714725094517020931e-01
5.542900000000000382e+00 9.151600000000000179e+00 1.356000000000000094e+00 3.034917000000000087e+00 -1.426342267894162019e-01
5.545899999999999608e+00 -6.000700000000000145e+00 -1.224699999999999989e+01 2.020185000000000031e+01 -4.221068308363441490e-01
5.550300000000000011e+00 -8.927099999999999369e+00 7.772300000000000431e+00 1.015504999999999924e+01 -1.746716220864352187e-01
5.553099999999999703e+00 1.852599999999999980e+01 3.643100000000000005e+00 8.749658000000000158e-01 -2.718551918407293155e-01
5.563600000000000101e+00 -1.589499999999999913e+00 -1.031700000000000017e+01 1.544505999999999979e+01 -4.178088222342822844e-01
5.565299999999999692e+00 3.418000000000000149e+00 -1.082399999999999984e+01 9.395991999999999678e+00 -3.803030560167557916e-01
5.565299999999999692e+00 5.118000000000000327e+00 -1.082399999999999984e+01 1.117107999999999990e+01 -3.800957807974917335e-01
5.565599999999999881e+00 -7.546599999999999753e+00 7.005700000000000038e+00 1.511937999999999960e+01 -1.740276423653949189e-01
5.571799999999999642e+00 6.462200000000000166e+00 -4.894099999999999895e+00 -1.317204000000000086e+01 -2.763252896769023415e-01
5.572400000000000020e+00 -1.249300000000000033e+01 6.657000000000000028e+00 -9.542182999999999637e+00 -1.754419951050695814e-01
5.575800000000000090e+00 -1.519500000000000028e+01 -1.358399999999999963e+01 3.484828999999999954e+00 -4.207360148286983237e-01
5.576699999999999768e+00 -1.201999999999999957e+01 7.267599999999999838e+00 -1.044358000000000075e+01 -1.754142892543246179e-01
5.585799999999999876e+00 -9.338800000000000878e+00 6.847199999999999953e+00 1.797228000000000048e+00 -1.746045156072396909e-01
5.586400000000000254e+00 7.933399999999999785e+00 1.303700000000000081e+00 -1.445046000000000053e+00 3.950972496523310479e-02
5.599499999999999922e+00 9.180600000000000094e+00 -1.207000000000000073e+00 3.563649999999999984e+00 -1.408714878225241218e-01
5.601099999999999746e+00 9.455000000000000071e+00 6.560000000000000275e-01 -3.677465999999999902e+00 -1.423316438980402054e-01
5.602100000000000080e+00 -1.439600000000000080e+01 8.196999999999999176e+00 -4.738902999999999643e+00 -1.759598110500801282e-01
5.603799999999999670e+00 5.919699999999999740e+00 1.770100000000000051e+01 -4.357891999999999655e+01 -1.723764112227922363e-01
5.613999999999999879e+00 1.813299999999999912e+01 1.633399999999999963e+01 2.642735000000000056e+01 -2.575989831818045195e-01
5.615000000000000213e+00 1.517099999999999937e+01 8.523999999999999133e+00 2.422129999999999939e+01 -2.576732006402507325e-01
5.615000000000000213e+00 1.981899999999999906e+01 4.461899999999999977e+00 -4.538082000000000171e+00 -2.719751434398345880e-01
5.615000000000000213e+00 2.014399999999999835e+01 5.199099999999999611e+00 -1.970598000000000027e+01 -2.717142223964128522e-01
5.618599999999999817e+00 1.557699999999999996e+01 2.631600000000000161e+00 1.139025999999999961e+01 -1.466304910194715094e-01
5.621500000000000163e+00 -1.160300000000000109e+00 -9.531000000000000583e+00 9.088373999999999953e+00 -3.825951358122942070e-01
5.621500000000000163e+00 8.279899999999999594e+00 -1.149599999999999955e+00 4.890126000000000417e+00 -1.403290981842529317e-01
5.623300000000000409e+00 -2.079799999999999827e+01 -3.083299999999999930e+00 2.107908000000000115e+00 -2.735558188486668652e-01
5.623300000000000409e+00 -1.909799999999999898e+01 -3.083299999999999930e+00 6.312060999999999922e+00 -2.738780505631124296e-01
5.623300000000000409e+00 -1.769800000000000040e+01 -3.083299999999999930e+00 3.938597999999999821e+00 -2.742570706054127117e-01
5.623800000000000132e+00 -1.344699999999999918e+01 -1.343200000000000038e+01 4.639558000000000071e+00 -4.213953658243567157e-01
5.631099999999999994e+00 -1.713599999999999923e+01 -1.067200000000000060e+01 1.306587999999999994e+01 -4.197403010688449676e-01
5.631499999999999950e+00 1.798600000000000065e+01 8.808099999999999596e+00 3.836912000000000234e+01 -2.691162516253042258e-01
5.633300000000000196e+00 -1.761799999999999855e+01 -1.426399999999999935e+01 3.816120000000000179e+00 -4.200191630109431640e-01
5.633300000000000196e+00 -1.761799999999999855e+01 -1.256400000000000006e+01 1.023822999999999972e+01 -4.198585929558339425e-01
5.633300000000000196e+00 -1.656800000000000139e+01 -1.426399999999999935e+01 4.892528000000000432e+00 -4.203457541608135450e-01
5.638899999999999579e+00 4.620000000000000107e+00 1.846799999999999997e+01 -1.540940999999999939e+01 -1.728158297439751356e-01
5.639499999999999957e+00 1.474799999999999933e+01 1.949699999999999989e+01 6.186746000000000301e+00 -2.584146043621419198e-01
5.644599999999999618e+00 7.629999999999999893e+00 6.036700000000000399e-01 -4.093778000000000361e+00 4.084768384198152191e-02
5.656200000000000117e+00 -2.094099999999999895e+01 -3.059000000000000052e-01 7.421879000000000115e-01 -2.767813910881589679e-01
5.656699999999999839e+00 -6.015200000000000102e+00 -1.517200000000000060e+01 1.789331999999999923e+01 -4.248998862873245019e-01
5.658800000000000274e+00 1.406199999999999939e+01 2.539600000000000080e+00 1.805131000000000085e+01 -1.458453342606199077e-01
5.666599999999999859e+00 -1.301500000000000057e+01 1.207300000000000040e+00 2.043067999999999884e+01 -2.830164568831396998e-01
5.677999999999999936e+00 3.390299999999999869e+00 1.670499999999999829e+01 -4.809749999999999859e-01 -1.727292327681896333e-01
5.677999999999999936e+00 3.390299999999999869e+00 1.764499999999999957e+01 -1.276790000000000092e+00 -1.729245736748530327e-01
5.679700000000000415e+00 -6.265600000000000058e+00 -1.462100000000000044e+01 1.069846000000000075e+01 -4.244232298390263614e-01
5.679700000000000415e+00 -6.265600000000000058e+00 -1.279700000000000060e+01 1.775156000000000134e+01 -4.226772418978405055e-01
5.680900000000000283e+00 9.584099999999999397e+00 -3.019499999999999962e-01 -1.363375999999999921e+00 -1.417849327569958018e-01
5.681899999999999729e+00 7.914699999999999847e+00 -2.020000000000000129e-01 8.153385000000000105e+00 4.127868776761368930e-02
5.682699999999999640e+00 -1.101800000000000068e+01 7.267000000000000348e+00 -5.908064999999999678e+00 -1.751123167369532108e-01
5.682699999999999640e+00 -1.101800000000000068e+01 8.787000000000000810e+00 -1.595409000000000077e+01 -1.753229874203742766e-01
5.682699999999999640e+00 -1.007799999999999940e+01 8.787000000000000810e+00 -2.090856000000000137e+01 -1.750923241636039573e-01
5.688799999999999635e+00 3.119799999999999796e-01 -8.938499999999999446e+00 1.117893000000000026e+00 -3.823708468686168316e-01
5.688799999999999635e+00 1.336899999999999977e+01 4.897599999999999870e-02 4.784765000000000157e+00 -1.444899027556367233e-01
5.695599999999999774e+00 1.642200000000000060e+01 2.803999999999999826e+00 5.220481000000000371e+00 -1.470665045354087319e-01
5.696399999999999686e+00 -1.679100000000000037e+01 1.008499999999999952e-01 -1.966868000000000061e+00 -2.790775694016635056e-01
5.697300000000000253e+00 1.808000000000000052e+00 -8.930300000000000793e+00 6.941867000000000232e+00 -3.819384202321295385e-01
5.698599999999999888e+00 -6.211999999999999744e+00 -8.014099999999999113e+00 1.415935999999999950e+01 -4.188554035212744830e-01
5.704100000000000392e+00 -1.798699999999999832e+01 -1.341399999999999970e+01 2.955403000000000002e+00 -4.198511869108166872e-01
5.704100000000000392e+00 -1.635699999999999932e+01 -1.178400000000000070e+01 4.783833999999999698e+00 -4.201067144464909475e-01
5.705700000000000216e+00 3.143299999999999983e+00 1.456300000000000061e+01 -4.406201000000000256e+00 -1.722575391128291222e-01
5.712500000000000355e+00 -1.867500000000000071e+01 -6.450499999999999901e+00 5.936170999999999864e+00 -3.828140283970133950e-01
5.714500000000000135e+00 1.360999999999999943e+01 -7.439299999999999802e-01 1.563123999999999958e+00 -1.443515037759737218e-01
5.716000000000000192e+00 -5.136999999999999567e+00 -1.625900000000000034e+01 2.602359999999999829e+01 -4.255371505428117151e-01
5.716000000000000192e+00 -3.587000000000000188e+00 -1.625900000000000034e+01 1.956927999999999912e+01 -4.247360814023526387e-01
5.719999999999999751e+00 4.781900000000000261e+00 -5.869699999999999918e+00 -9.500064999999999760e-01 -2.740485115623376156e-01
5.724000000000000199e+00 -8.458999999999999631e+00 6.900000000000000355e+00 8.238675000000000637e+00 -1.742439053139947513e-01
5.724800000000000111e+00 -5.936899999999999622e+00 7.085899999999999643e+00 1.132033000000000023e+01 -1.733216328412258145e-01
5.725999999999999979e+00 -1.329599999999999937e+01 8.041999999999999815e+00 -6.085094000000000136e+01 -1.756958468896891445e-01
5.734799999999999898e+00 8.071300000000000141e-01 1.339000000000000057e+01 -3.052057000000000242e-01 -1.726222104432752480e-01
5.734799999999999898e+00 2.207100000000000062e+00 1.339000000000000057e+01 -6.522839000000000276e+00 -1.721867736143837813e-01
5.745400000000000063e+00 1.652499999999999858e+01 8.620599999999999596e+00 3.464039999999999964e+01 -2.684509668028757789e-01
5.745499999999999829e+00 -1.552399999999999913e+01 -3.737800000000000011e-01 -3.567523000000000222e-02 -2.792197245812505502e-01
5.746000000000000441e+00 -1.134699999999999953e+01 8.026999999999999247e+00 -1.274180999999999919e+01 -1.752703630317300476e-01
5.746000000000000441e+00 -9.748900000000000787e+00 8.026999999999999247e+00 -2.059710000000000107e+01 -1.748547291128095538e-01
5.749399999999999622e+00 -1.076099999999999923e+01 -1.213899999999999935e+01 -7.901582999999999579e+00 -4.221337893405319730e-01
5.756099999999999994e+00 5.914500000000000313e+00 -5.111399999999999721e+00 -8.112845999999999336e+00 -2.757545826826105495e-01
5.756999999999999673e+00 -2.712399999999999878e+01 -7.624699999999999811e+00 -2.309098999999999791e+00 -3.838381361401222436e-01
5.756999999999999673e+00 -2.712399999999999878e+01 -6.685299999999999798e+00 -4.328649000000000413e+00 -3.837189727528406147e-01
5.756999999999999673e+00 -2.466400000000000148e+01 -7.624699999999999811e+00 -4.294299000000000177e+01 -3.836873393874867255e-01
5.756999999999999673e+00 -2.466400000000000148e+01 -6.685299999999999798e+00 -6.955428999999999462e+01 -3.835530957776485117e-01
5.762400000000000411e+00 -1.666000000000000014e+01 -1.248399999999999999e+01 5.578873999999999889e+00 -4.201240154312285147e-01
5.764700000000000379e+00 1.766400000000000148e+01 1.271899999999999942e+01 5.401025999999999883e+00 -2.678636507140534917e-01
5.766200000000000436e+00 -1.226399999999999935e+01 2.502600000000000158e+00 3.142626999999999882e+01 -2.843007878442507241e-01
5.767999999999999794e+00 -1.368999999999999950e+01 5.956999999999999851e+00 -3.508741000000000110e+00 -1.755044744210696173e-01
5.785000000000000142e+00 3.505700000000000038e+00 1.530499999999999972e+01 -6.084560999999999886e+00 -1.723308715841191385e-01
5.785000000000000142e+00 3.505700000000000038e+00 1.617099999999999937e+01 -4.143870999999999860e+00 -1.725454434263135606e-01
5.785199999999999676e+00 -1.984700000000000131e+01 1.268199999999999994e+00 -1.113244000000000078e+01 -2.787971918399407834e-01
5.785199999999999676e+00 -1.804700000000000060e+01 1.268199999999999994e+00 -1.863853999999999900e+01 -2.796765688574576192e-01
5.787899999999999601e+00 1.280000000000000071e+01 1.825799999999999912e+01 -9.475350000000000605e+00 -2.587995776838932782e-01
5.790499999999999758e+00 -1.458999999999999986e+01 7.267000000000000348e+00 -1.526512999999999920e+01 -1.758143660518802220e-01
5.790499999999999758e+00 -1.296000000000000085e+01 7.267000000000000348e+00 -4.283276999999999646e+01 -1.755099281787552701e-01
5.796100000000000030e+00 -2.589399999999999835e+01 -8.448000000000000398e+00 -4.770627000000000173e+00 -3.838839166147023363e-01
5.796100000000000030e+00 -2.589399999999999835e+01 -5.862000000000000099e+00 -4.046941999999999950e+01 -3.835363333129104824e-01
5.799599999999999866e+00 -1.618100000000000094e+01 -1.351999999999999957e+01 2.512703000000000131e+00 -4.204039981618067356e-01
5.802100000000000257e+00 1.853800000000000026e+01 1.834700000000000131e+01 7.818201000000000178e+00 -2.577188316087985487e-01
5.805900000000000283e+00 -1.272999999999999909e+00 1.356300000000000061e+01 -2.106990000000000052e+01 -1.732802804990660472e-01
5.806000000000000050e+00 -7.788299999999999557e+00 -8.061400000000000787e+00 1.218492999999999959e+01 -4.193733776779901556e-01
5.807000000000000384e+00 -9.759000000000000341e+00 2.867999999999999883e+00 9.963041000000000480e+00 -2.860221305034754691e-01
5.807000000000000384e+00 -8.568099999999999383e+00 3.532000000000000028e+00 -9.488483000000000445e+00 -1.733322129424345326e-01
5.807999999999999829e+00 2.162300000000000111e+01 7.088700000000000223e+00 8.749008999999999148e+00 -2.713768599536437454e-01
5.809999999999999609e+00 -3.820300000000000029e+00 9.539799999999999613e+00 -8.611273000000000621e+00 -1.731383956590222539e-01
5.813600000000000101e+00 1.726999999999999957e+01 2.803999999999999826e+00 1.876400000000000068e+00 -1.474320706921627144e-01
5.817199999999999704e+00 -1.009399999999999942e+01 7.225600000000000023e+00 -5.358823000000000114e+00 -1.747792087402909589e-01
5.824099999999999611e+00 1.443500000000000050e+01 8.523999999999999133e+00 2.464201999999999870e+01 -2.579670021559279935e-01
5.828500000000000014e+00 1.627100000000000080e+01 1.112800000000000011e+01 -1.596277000000000079e+01 -2.576226008268967527e-01
5.828999999999999737e+00 2.568100000000000094e+01 1.209600000000000009e+01 -2.129043999999999937e+00 -2.708077371159485214e-01
5.830799999999999983e+00 1.853200000000000003e+01 1.932900000000000063e+01 5.571089999999999876e+00 -2.577939492018174739e-01
5.831999999999999851e+00 8.542500000000000426e+00 6.298300000000000010e-01 -8.430578000000000571e+00 -1.418790431480914660e-01
5.834600000000000009e+00 6.419999999999999929e+00 1.748000000000000043e+01 -1.754594000000000165e+01 -1.721521615717696296e-01
5.834600000000000009e+00 7.820000000000000284e+00 1.748000000000000043e+01 -3.878280000000000172e+00 -1.718547798264017379e-01
5.839000000000000412e+00 1.883500000000000085e+01 1.363499999999999979e+01 -3.574018000000000139e+00 -2.681526248132485857e-01
5.839000000000000412e+00 1.883500000000000085e+01 1.457499999999999929e+01 -4.304921000000000220e+00 -2.679628578296976982e-01
5.843099999999999739e+00 2.179599999999999937e+01 8.117599999999999483e+00 -3.767829999999999790e-01 -2.710025988527852148e-01
5.845699999999999896e+00 2.784600000000000186e+00 -1.005799999999999983e+01 7.208057000000000158e+00 -3.810446118651257263e-01
5.858299999999999841e+00 7.793999999999999595e+00 -5.466099999999999959e+00 -3.045550000000000201e-01 -2.741367669097283244e-01
5.859300000000000175e+00 1.559900000000000020e+01 9.833199999999999719e+00 -1.858883999999999981e+00 -2.577112714956580897e-01
5.879800000000000360e+00 -3.642300000000000093e+00 1.276399999999999935e+01 -1.627049999999999885e-01 -1.738029264282084652e-01
5.882399999999999629e+00 1.473799999999999955e+01 7.823999999999999844e+00 2.571283000000000030e+01 -1.477975022623680412e-01
5.882399999999999629e+00 1.473799999999999955e+01 9.224000000000000199e+00 1.631803999999999988e+01 -2.579281739317575428e-01
5.887599999999999945e+00 -1.655799999999999983e+01 -1.076999999999999957e+01 9.357858999999999483e+00 -4.199174714284263921e-01
5.889999999999999680e+00 5.643299999999999983e+00 -9.974299999999999500e+00 9.394085999999999714e+00 -2.599479759381158606e-01
5.889999999999999680e+00 5.643299999999999983e+00 -8.923700000000000188e+00 1.770110999999999990e+01 -2.635418479642205880e-01
5.890200000000000102e+00 8.715500000000000469e+00 -2.888899999999999801e-01 -1.286267999999999967e+00 -1.413324828363719532e-01
5.902000000000000135e+00 9.169299999999999784e+00 -4.545300000000000118e+00 4.419181000000000026e+00 -1.389676070705805344e-01
5.902000000000000135e+00 9.169299999999999784e+00 -3.494699999999999918e+00 4.319183999999999912e+00 -1.395283471518572460e-01
5.908299999999999663e+00 1.293399999999999928e+01 -1.523400000000000087e+00 3.904609999999999914e+00 -1.435783692608307294e-01
5.916999999999999815e+00 1.527599999999999980e+01 2.017699999999999960e+01 9.499710000000000321e+00 -2.583907622000184423e-01
5.916999999999999815e+00 1.672200000000000131e+01 2.098300000000000054e+01 2.392066999999999943e+00 -2.581873093923298668e-01
5.916999999999999815e+00 1.816799999999999926e+01 2.017699999999999960e+01 1.950032999999999905e-01 -2.579178833467089538e-01
5.925200000000000244e+00 2.096099999999999852e+01 1.000600000000000023e+01 -5.498463000000000100e+00 -2.699897642178553103e-01
5.926000000000000156e+00 -5.011000000000000121e+00 8.577099999999999724e+00 2.483324999999999960e+01 -1.732706702031931445e-01
5.927299999999999791e+00 1.356900000000000084e+01 1.697899999999999965e+00 1.684114999999999895e+01 -1.452570683003041041e-01
5.927299999999999791e+00 8.907000000000000028e+00 1.835800000000000054e+01 -8.058182999999999874e-01 -2.597772782192607766e-01
5.927299999999999791e+00 1.060699999999999932e+01 1.835800000000000054e+01 2.866599000000000075e+01 -2.593432515510228908e-01
5.929700000000000415e+00 -5.562899999999999512e-01 -8.887999999999999901e+00 -4.073074000000000083e+00 -3.827029207414683332e-01
5.933699999999999974e+00 4.267999999999999794e+00 -1.089499999999999957e+01 2.599505999999999872e+01 -3.802792297086628470e-01
5.934999999999999609e+00 5.491100000000000314e+00 -8.226900000000000546e+00 1.342530999999999963e+01 -2.659424951025747830e-01
5.938299999999999912e+00 1.926999999999999957e+01 9.860300000000000509e+00 1.016300000000000026e+01 -2.693584928784334975e-01
5.943800000000000416e+00 -2.121999999999999886e+00 1.361700000000000088e+01 -5.763045999999999935e+01 -1.734915697037416049e-01
5.943999999999999950e+00 -1.904899999999999949e+01 -8.365299999999999514e+00 5.835168999999999606e+00 -3.832273552197693056e-01
5.943999999999999950e+00 -1.904899999999999949e+01 -7.314700000000000202e+00 7.049248000000000403e+00 -3.830282482115242026e-01
5.948000000000000398e+00 -2.132300000000000040e+01 -2.233299999999999841e+00 4.512255999999999823e+00 -2.744364477617328713e-01
5.948000000000000398e+00 -2.132300000000000040e+01 -1.182700000000000085e+00 5.755525999999999698e+00 -2.756353083688316552e-01
5.948900000000000077e+00 1.129899999999999949e+01 -1.147399999999999975e+00 5.788619999999999877e+00 -1.425336451228617629e-01
5.957399999999999807e+00 -1.449900000000000055e+01 -1.349300000000000033e+01 4.008542000000000272e+00 -4.209970941000183986e-01
5.958000000000000185e+00 -1.709299999999999997e+01 -1.341399999999999970e+01 2.782487000000000155e+00 -4.201236218134927758e-01
5.962200000000000166e+00 1.476200000000000045e+01 2.597900000000000098e+00 1.281925000000000026e+01 -1.461918718530746397e-01
5.962200000000000166e+00 -7.113900000000000112e+00 6.514800000000000146e+00 1.432826000000000022e+01 -1.735109635448728871e-01
5.963000000000000078e+00 1.685500000000000043e+01 2.104000000000000092e+00 4.663332999999999728e+00 1.640868964465827876e-02
5.968300000000000161e+00 3.859999999999999876e+00 1.840500000000000114e+01 -1.148206000000000060e+00 -1.728795145510059750e-01
5.968300000000000161e+00 5.379999999999999893e+00 1.840500000000000114e+01 -1.223343999999999987e+01 -1.725472464023435903e-01
5.968700000000000117e+00 -8.707199999999999662e-02 1.385200000000000031e+01 -8.048916999999999433e+00 -1.729260691904652147e-01
5.969000000000000306e+00 9.841100000000000847e+00 -1.159699999999999953e+00 2.275037999999999894e+00 -1.414921123587111751e-01
5.970299999999999940e+00 -1.690399999999999991e+01 -4.256599999999999717e+00 5.746540999999999677e+00 -2.724917754960980432e-01
5.972999999999999865e+00 -1.054800000000000004e+01 8.026999999999999247e+00 -2.885482000000000014e+01 -1.749545195821627652e-01
5.974000000000000199e+00 -7.869299999999999962e+00 5.802599999999999980e+00 9.158485000000000653e+00 -1.736106849083496606e-01
5.976499999999999702e+00 -7.905000000000000249e+00 4.856700000000000017e+00 5.494787999999999784e+00 -1.733506454380431550e-01
5.982199999999999740e+00 5.216800000000000104e+00 -7.297299999999999898e+00 9.502686999999999884e+00 -2.691120375420614774e-01
5.988299999999999734e+00 -1.759600000000000009e+01 -1.004599999999999937e+01 2.253945999999999827e+01 -4.195876987597702557e-01
5.991699999999999804e+00 -1.994800000000000040e+01 -3.154100000000000126e+00 4.096531999999999840e+00 -2.735238239161398299e-01
5.994299999999999962e+00 -1.276900000000000013e+01 -1.343800000000000061e+01 5.596288999999999625e+00 -4.216796655554335693e-01
6.001999999999999780e+00 -6.911999999999999922e+00 -7.955899999999999750e+00 1.288011000000000017e+01 -4.190901164897798958e-01
6.016099999999999781e+00 1.886799999999999855e+01 1.740800000000000125e+01 1.474077999999999999e+00 -2.576365008714603944e-01
6.019000000000000128e+00 1.579400000000000048e+01 7.740800000000000125e+00 2.153358000000000061e+01 -1.480645596519147289e-01
6.022000000000000242e+00 -1.377500000000000036e+01 7.267000000000000348e+00 -5.646822999999999837e+01 -1.755576279920652571e-01
6.025999999999999801e+00 -2.278900000000000148e+00 -9.271000000000000796e+00 1.564983999999999931e+01 -3.831482487873146825e-01
6.035499999999999865e+00 -1.821300000000000097e+01 -6.097699999999999676e+00 7.915540000000000020e+00 -3.826875020551422368e-01
6.048899999999999721e+00 -1.717699999999999960e+01 -3.387100000000000222e+00 5.246463000000000321e+00 -2.738262747875424563e-01
6.052100000000000257e+00 -2.155299999999999994e+00 -1.078200000000000003e+01 2.025414999999999921e+01 -4.186594385151449771e-01
6.054100000000000037e+00 1.807300000000000040e+01 2.978099999999999969e+00 1.905958000000000041e+00 1.497533553053348454e-02
6.055799999999999628e+00 1.672800000000000153e+01 1.186899999999999977e+01 7.793614999999999959e+00 -2.576272486376189885e-01
6.056000000000000050e+00 2.488200000000000145e+01 1.209600000000000009e+01 -1.792961999999999945e+00 -2.705971028194114614e-01
