2.618900000000000006e+01 -7.919499999999999318e+01 8.025100000000000122e+00 1.302592999999999890e+00 -1.255967540097820481e-02
2.618900000000000006e+01 -7.886700000000000443e+01 8.769899999999999807e+00 1.617620000000000147e+01 -2.579013916015989172e-01
2.618900000000000006e+01 -7.762300000000000466e+01 9.628000000000000114e+00 1.113597000000000037e+01 -2.344957906868282149e-01
2.619200000000000017e+01 -8.986100000000000421e+01 -5.293099999999999739e+01 2.664677999999999969e+01 3.163268951528037665e-01
2.619300000000000139e+01 -7.499599999999999511e+01 -3.890200000000000102e+01 -1.170465000000000089e+01 3.158690270785352583e-01
2.619399999999999906e+01 -6.700799999999999557e+01 2.255999999999999783e+00 1.991390000000000171e+01 -7.653699181695494680e-02
2.619399999999999906e+01 -6.700799999999999557e+01 3.656000000000000139e+00 1.413873000000000069e+01 -7.175728908501149972e-02
2.619399999999999906e+01 -6.614199999999999591e+01 3.656000000000000139e+00 1.408783000000000030e+01 -7.382417118340989237e-02
2.619699999999999918e+01 -9.055599999999999739e+01 -3.232500000000000284e+01 -4.424883999999999595e+00 3.166994470396561345e-01
2.619699999999999918e+01 -9.055599999999999739e+01 -3.138500000000000156e+01 -1.376380999999999943e+01 3.167409545943984939e-01
2.619800000000000040e+01 -8.991100000000000136e+01 -2.665200000000000102e+01 5.746101999999999599e+00 3.170102172637123683e-01
2.620599999999999952e+01 -9.211400000000000432e+01 -4.008299999999999841e+01 -9.105539000000000271e-01 3.165026596798467540e-01
2.620799999999999841e+01 -7.068000000000000682e+01 -8.210399999999999920e+00 -1.564021000000000106e+00 2.262843031480507583e-01
2.620899999999999963e+01 -9.432500000000000284e+01 -5.558599999999999852e+01 -1.196204000000000045e+00 3.163659791086870787e-01
2.621099999999999852e+01 -6.731699999999999307e+01 7.725900000000000212e+00 3.261108999999999813e+00 -1.277916341005157497e-01
2.621300000000000097e+01 -8.841400000000000148e+01 -2.630000000000000071e+01 -1.883584000000000103e+01 3.170021236785135477e-01
2.621399999999999864e+01 -7.202700000000000102e+01 8.802300000000000679e+00 -4.170340000000000380e+00 -2.246337456228386653e-01
2.621900000000000119e+01 -6.470900000000000318e+01 7.660999999999999588e+00 4.924963999999999942e+01 -1.437405455103241136e-01
2.621999999999999886e+01 -6.564199999999999591e+01 2.489999999999999991e-01 1.440418999999999983e+01 -8.188661486385175048e-02
2.622100000000000009e+01 -7.534099999999999397e+01 -1.161400000000000077e+01 2.398514000000000124e+01 3.171634344147152840e-01
2.622100000000000009e+01 -7.534099999999999397e+01 -1.044599999999999973e+01 1.571000000000000085e+01 3.175186044649299100e-01
2.622299999999999898e+01 -7.529300000000000637e+01 -2.118599999999999994e+01 1.361730999999999980e+01 3.160029441232358738e-01
2.622599999999999909e+01 -6.869899999999999807e+01 -6.253300000000000125e+01 -1.374657999999999980e+01 2.283541161054804258e-01
2.622599999999999909e+01 -6.717900000000000205e+01 -6.253300000000000125e+01 -3.266989999999999839e+01 2.284426954713082714e-01
2.622599999999999909e+01 -8.626099999999999568e+01 -5.123799999999999955e+01 1.740375000000000005e+00 3.162935616091084312e-01
2.622599999999999909e+01 -7.595499999999999829e+01 -4.148499999999999943e+01 -1.141371000000000002e+01 3.159988767093450113e-01
2.622800000000000153e+01 -7.896200000000000330e+01 -3.152100000000000080e+01 -1.801915999999999940e+01 3.164328498913777099e-01
2.622800000000000153e+01 -7.809600000000000364e+01 -3.152100000000000080e+01 -2.756053999999999959e+01 3.163923194206920142e-01
2.622800000000000153e+01 -8.709600000000000364e+01 -2.905000000000000071e+01 -3.408549999999999969e+00 3.167799050015929763e-01
2.622800000000000153e+01 -8.604600000000000648e+01 -2.905000000000000071e+01 -2.799084999999999823e+00 3.167498933197385180e-01
2.622899999999999920e+01 -6.904699999999999704e+01 -1.423899999999999944e+00 -4.611393999999999771e+00 1.726848687691474871e-01
2.623100000000000165e+01 -7.366100000000000136e+01 -3.278399999999999892e+01 1.515535000000000032e+01 3.156105969435830660e-01
2.623300000000000054e+01 -7.623499999999999943e+01 1.050600000000000023e+01 -3.813480999999999899e+00 -2.090985995675711528e-01
2.623400000000000176e+01 -9.781600000000000250e+01 -9.723200000000000287e+00 1.863533999999999935e+01 1.434107833133912713e-01
2.623600000000000065e+01 -8.932599999999999341e+01 -3.314800000000000324e+01 -1.555442999999999998e+01 3.166443283020007327e-01
2.623600000000000065e+01 -8.932599999999999341e+01 -3.056200000000000117e+01 -2.380279000000000167e+01 3.167580263546609931e-01
2.623999999999999844e+01 -7.738599999999999568e+01 -2.427499999999999858e+01 -1.154556000000000004e+01 3.165377674457529600e-01
2.624099999999999966e+01 -7.856399999999999295e+01 -2.633299999999999841e+01 -8.424372999999999223e+00 3.166608988280870673e-01
2.624099999999999966e+01 -7.835500000000000398e+01 -2.885699999999999932e+01 -6.676978000000000080e+00 3.165189166727980785e-01
2.624099999999999966e+01 -7.835500000000000398e+01 -2.706899999999999906e+01 3.652806000000000353e+01 3.166089523829310748e-01
2.624099999999999966e+01 -7.810099999999999909e+01 -2.796300000000000097e+01 1.417164999999999964e+01 3.165266612026276238e-01
2.624500000000000099e+01 -9.910999999999999943e+01 3.033299999999999885e-01 3.904310999999999865e+00 -2.919716358562690628e-01
2.624800000000000111e+01 -8.143300000000000693e+01 2.354499999999999815e+00 1.410954000000000086e+01 -1.144818375615048456e-01
2.624899999999999878e+01 -9.553300000000000125e+01 -1.814199999999999946e+01 3.574837000000000042e+00 1.317780442659702844e-01
2.625199999999999889e+01 -6.965800000000000125e+01 -3.558899999999999864e+01 4.367714000000000141e+01 3.151296552200710810e-01
2.625199999999999889e+01 -6.965800000000000125e+01 -3.403900000000000148e+01 3.598100999999999772e+01 3.150611987395932623e-01
2.625199999999999889e+01 -6.870000000000000284e+01 -3.558899999999999864e+01 1.885532999999999859e+01 2.264664977982765726e-01
2.625199999999999889e+01 -6.870000000000000284e+01 -3.403900000000000148e+01 3.421549999999999869e+01 2.262511745364270133e-01
2.625300000000000011e+01 -6.731100000000000705e+01 2.955999999999999961e+00 1.171200999999999937e+01 -7.348408991393787226e-02
2.625300000000000011e+01 -6.583899999999999864e+01 2.955999999999999961e+00 1.179092999999999947e+01 -7.633021977356871379e-02
2.625499999999999901e+01 -9.140399999999999636e+01 -3.657600000000000051e+01 -9.409487000000000378e+00 3.165785470898124787e-01
2.625700000000000145e+01 -6.457200000000000273e+01 6.726099999999999746e+00 2.509094999999999853e+00 -1.516662959680243339e-01
2.625900000000000034e+01 -6.596299999999999386e+01 8.500500000000000611e+00 8.240473000000000070e+01 -2.377905034324701850e-01
2.626000000000000156e+01 -8.451900000000000546e+01 -2.857799999999999940e+01 1.207243000000000066e+00 3.167374444071255346e-01
2.626200000000000045e+01 -9.932699999999999818e+01 -1.388000000000000078e+01 2.856043999999999805e+00 1.390999003777325105e-01
2.626200000000000045e+01 -9.932699999999999818e+01 -1.283000000000000007e+01 3.006359999999999921e+00 1.403072966029934587e-01
2.626300000000000168e+01 -9.236799999999999500e+01 -3.684499999999999886e+01 -3.097001999999999811e+00 3.165906435014572695e-01
2.626800000000000068e+01 -8.659000000000000341e+01 -2.585300000000000153e+01 1.019461000000000084e+01 3.169978450432752726e-01
2.626800000000000068e+01 -1.009099999999999966e+02 -3.971400000000000041e+00 1.387709000000000081e+00 -2.914703457276451859e-01
2.626899999999999835e+01 -7.818000000000000682e+01 -4.407300000000000040e+01 -2.177373999999999976e-01 3.162264487454357620e-01
2.627100000000000080e+01 -9.584499999999999886e+01 -5.396800000000000352e+01 -1.455613999999999963e+00 3.163959202008262972e-01
2.627100000000000080e+01 -9.561799999999999500e+01 -5.476700000000000301e+01 -5.697132999999999781e-01 3.163883883145292009e-01
2.627100000000000080e+01 -9.561799999999999500e+01 -5.316899999999999693e+01 -1.408927000000000040e+00 3.163986455934784670e-01
2.627199999999999847e+01 -7.546999999999999886e+01 -1.104700000000000060e+01 1.952457000000000065e+01 3.174938341342933290e-01
2.627299999999999969e+01 -6.025900000000000034e+01 -9.672900000000000276e+00 1.318740000000000023e+01 -1.413244188297862157e-02
2.627499999999999858e+01 -8.769100000000000250e+01 -5.211099999999999710e+01 1.335534999999999917e+00 3.163103468247324690e-01
2.627599999999999980e+01 -7.851900000000000546e+01 -2.503300000000000125e+01 -4.007818999999999932e+01 3.167578698865073927e-01
2.627899999999999991e+01 -6.938500000000000512e+01 -8.366899999999999338e+00 -6.349734999999999407e-02 2.306556211217624663e-01
2.628099999999999881e+01 -8.315399999999999636e+01 -2.462699999999999889e+01 -2.858976999999999880e+00 3.169893974137775738e-01
2.628200000000000003e+01 -9.939600000000000080e+01 -3.207499999999999796e-01 -4.070566999999999602e+00 -2.919008515099262846e-01
2.628399999999999892e+01 -6.529800000000000182e+01 -1.436700000000000088e+01 -5.894423999999999886e+00 2.319632218907553833e-01
2.628800000000000026e+01 -7.629699999999999704e+01 -4.343900000000000006e+01 -8.916711999999999971e-01 3.160471645584053690e-01
2.628900000000000148e+01 -9.393300000000000693e+01 -5.151299999999999812e+01 -2.169366000000000128e+00 3.163914478625163840e-01
2.628900000000000148e+01 -9.380899999999999750e+01 -5.060600000000000165e+01 -2.546667999999999932e+00 3.163969501025550857e-01
2.628900000000000148e+01 -9.358199999999999363e+01 -4.980700000000000216e+01 -2.291700000000000070e+00 3.164007143861594651e-01
2.629100000000000037e+01 -8.104000000000000625e+01 3.050699999999999967e+00 2.223929000000000045e+01 -1.074980367515236124e-01
2.629299999999999926e+01 -6.171800000000000352e+01 -1.338599999999999923e+01 -2.180347999999999953e+00 -2.186849164820867455e-02
2.629299999999999926e+01 -8.872199999999999420e+01 -3.059299999999999997e+01 -2.926442000000000121e+01 3.167512719012967604e-01
2.629500000000000171e+01 -7.459199999999999875e+01 -1.313000000000000078e+01 1.030677000000000021e+01 3.162938479811420178e-01
2.629700000000000060e+01 -6.701399999999999579e+01 -2.868100000000000094e+00 -6.334554000000000018e-01 1.742963452432204907e-01
2.629899999999999949e+01 -8.746500000000000341e+01 -2.989999999999999858e+01 1.715058999999999889e-01 3.167558913138203702e-01
2.630099999999999838e+01 -6.609499999999999886e+01 -5.961099999999999710e+01 2.238072000000000017e+01 2.284043039418700849e-01
2.630199999999999960e+01 -9.241200000000000614e+01 4.666000000000000369e+00 2.343006000000000100e+01 -2.962695168766055764e-01
2.630199999999999960e+01 -9.136199999999999477e+01 4.666000000000000369e+00 1.293974000000000046e+01 -2.979568384885720733e-01
2.630600000000000094e+01 -6.612999999999999545e+01 2.239100000000000090e+00 1.341351000000000049e+01 -7.748448490356467377e-02
2.631099999999999994e+01 -7.132599999999999341e+01 6.085399999999999920e+00 -1.136738000000000071e+01 -1.488374942648700572e-01
2.631200000000000117e+01 -6.706199999999999761e+01 -2.208000000000000185e+00 4.583761000000000085e-01 1.760136170514864096e-01
2.631200000000000117e+01 -7.494599999999999795e+01 -3.053000000000000114e+01 1.108130000000000059e+01 3.158270498722329789e-01
2.631200000000000117e+01 -7.389600000000000080e+01 -3.053000000000000114e+01 1.184051000000000009e+01 3.156298322008291857e-01
2.631500000000000128e+01 -9.568000000000000682e+01 -2.130600000000000094e+01 5.801688999999999652e+00 5.158115719643101282e-02
2.631500000000000128e+01 -9.544899999999999807e+01 -2.212099999999999866e+01 2.105914999999999893e+01 3.175467734054465141e-01
2.631500000000000128e+01 -9.448999999999999488e+01 -2.307900000000000063e+01 2.755773999999999901e+01 3.174395084394107669e-01
2.631599999999999895e+01 -7.207399999999999807e+01 -8.766700000000000159e+00 -8.983079999999999288e+00 3.145619919370953865e-01
2.631700000000000017e+01 -6.999399999999999977e+01 -3.481400000000000006e+01 1.757806000000000068e+01 3.151494030819562697e-01
2.631700000000000017e+01 -6.836400000000000432e+01 -3.481400000000000006e+01 2.787609000000000137e+01 2.264089180033529158e-01
2.631800000000000139e+01 -8.482299999999999329e+01 -2.927799999999999869e+01 -1.166245999999999949e-01 3.167185233804326594e-01
2.632300000000000040e+01 -7.573600000000000421e+01 -3.907699999999999818e+01 -2.901842999999999861e+01 3.159760806998782035e-01
2.632300000000000040e+01 -6.263900000000000290e+01 -7.434899999999999842e-01 2.278208000000000055e+01 1.400800778784094466e-02
2.632300000000000040e+01 -6.263900000000000290e+01 1.217599999999999932e-01 1.623580000000000112e+01 1.345833445832695340e-02
2.632400000000000162e+01 -9.006499999999999773e+01 3.943599999999999994e+00 -5.792218000000000089e+00 -2.999291767641172335e-01
2.632999999999999829e+01 -8.842400000000000659e+01 -3.320499999999999829e+01 -2.764853000000000094e+01 3.166353635480041451e-01
2.633099999999999952e+01 -9.784999999999999432e+01 1.593699999999999894e+00 5.670207999999999693e+00 -2.923512594725498071e-01
2.633399999999999963e+01 -8.190699999999999648e+01 -4.762500000000000000e+01 -4.659735000000000404e+00 3.162636269767228892e-01
2.633599999999999852e+01 -6.626800000000000068e+01 -6.064000000000000057e+01 -1.770943000000000112e+01 2.284248084208530261e-01
2.634100000000000108e+01 -7.285500000000000398e+01 -9.328200000000000713e+00 -2.516357999999999873e+00 3.153077548020756238e-01
2.634199999999999875e+01 -6.851200000000000045e+01 6.435100000000000264e+00 1.056626999999999938e+01 -1.412192088552814140e-01
2.634400000000000119e+01 -8.947599999999999909e+01 -5.252799999999999869e+01 2.261659999999999826e+01 3.163342960075113952e-01
2.634799999999999898e+01 -6.819499999999999318e+01 -1.449799999999999978e+00 -1.352938999999999892e+00 1.752727539512161370e-01
2.634799999999999898e+01 -7.460899999999999466e+01 -3.460399999999999920e+01 -2.203607999999999834e+01 3.158009331612462445e-01
2.634799999999999898e+01 -7.460899999999999466e+01 -3.373899999999999721e+01 2.359404999999999930e+01 3.157935813475362119e-01
2.634900000000000020e+01 -6.580100000000000193e+01 1.418500000000000094e+00 1.169548999999999950e+01 -7.948856391312621172e-02
2.634900000000000020e+01 -8.415900000000000603e+01 -2.463100000000000023e+01 -8.408884999999999721e+00 3.170453871853134431e-01
2.635000000000000142e+01 -7.429999999999999716e+01 -1.498399999999999999e+01 1.321086000000000027e+01 3.159325223801163762e-01
2.635900000000000176e+01 -9.553799999999999670e+01 -2.045200000000000173e+01 2.076413000000000153e+01 1.308850321796564686e-01
2.635999999999999943e+01 -8.670099999999999341e+01 -5.200300000000000011e+01 1.840157000000000043e+00 3.163047901435059872e-01
2.636899999999999977e+01 -5.985999999999999943e+01 -5.625300000000000189e+00 4.901703999999999617e+00 -1.710275112996263447e-01
2.636899999999999977e+01 -5.985999999999999943e+01 -4.574699999999999989e+00 1.835189000000000092e+01 -1.712776652837854074e-01
2.637000000000000099e+01 -6.049399999999999977e+01 -7.144700000000000273e+00 -3.982397999999999882e+00 -1.707295895066421598e-01
2.637000000000000099e+01 -9.346299999999999386e+01 -4.697399999999999665e+01 -6.995917999999999859e-01 3.164333387867435676e-01
2.637300000000000111e+01 -9.882399999999999807e+01 -1.098900000000000077e+01 2.513971000000000178e+00 1.424343388762364104e-01
2.637399999999999878e+01 -7.647899999999999920e+01 -3.152100000000000080e+01 -8.100744000000000611e+00 3.161194563996814200e-01
2.637399999999999878e+01 -7.716299999999999670e+01 -1.735300000000000153e+01 -3.852437999999999807e+00 3.172491148411514805e-01
2.637399999999999878e+01 -6.945799999999999841e+01 -6.045400000000000063e+01 -1.460188999999999959e+00 2.282158383878064023e-01
2.637699999999999889e+01 -8.774399999999999977e+01 -3.081800000000000139e+01 -2.849476000000000120e+00 3.167297985985331188e-01
2.637800000000000011e+01 -7.314900000000000091e+01 -3.199299999999999855e+01 -9.023974000000000828e+00 3.155360967455643206e-01
2.637999999999999901e+01 -7.912600000000000477e+01 -3.064600000000000080e+01 -1.614168000000000092e+01 3.164957438910872001e-01
2.638200000000000145e+01 -9.266299999999999670e+01 -5.595300000000000296e+01 1.591906000000000043e+00 3.163560096850259185e-01
2.638299999999999912e+01 -6.768800000000000239e+01 -4.246099999999999852e+01 -3.609974000000000238e-01 2.273182970485595755e-01
2.638400000000000034e+01 -6.421599999999999397e+01 5.747700000000000031e+00 8.747832999999999970e+00 -1.580088560793399544e-01
2.638400000000000034e+01 -8.583499999999999375e+01 -3.056599999999999895e+01 -5.927306999999999881e+00 3.166929430021202529e-01
2.638400000000000034e+01 -8.436299999999999955e+01 -3.056599999999999895e+01 -1.125103999999999971e+01 3.166519424355064283e-01
2.638899999999999935e+01 -6.392499999999999716e+01 -1.498099999999999987e+01 -2.864459999999999784e+00 2.334273690113716770e-01
2.639300000000000068e+01 -7.084600000000000364e+01 -3.972700000000000120e+00 -2.519165999999999883e+01 1.642959621237297108e-01
2.639300000000000068e+01 -7.084600000000000364e+01 -1.707400000000000029e+00 -2.306005000000000038e+01 6.675419028563928103e-02
2.639900000000000091e+01 -6.292999999999999972e+01 -1.495599999999999952e+01 -6.071227999999999625e+00 2.347826954456459225e-01
2.640099999999999980e+01 -8.707500000000000284e+01 -3.071499999999999986e+01 -1.214665000000000106e+00 3.167217550160275064e-01
2.640399999999999991e+01 -8.312199999999999989e+01 -2.732499999999999929e+01 -1.651482000000000028e+01 3.168014509504354370e-01
2.640700000000000003e+01 -7.475000000000000000e+01 -1.580199999999999960e+01 7.305312999999999946e+00 3.161593964005431912e-01
2.640899999999999892e+01 -8.267100000000000648e+01 1.582200000000000051e+00 1.654261999999999944e+01 -1.077332196224019267e-01
2.641199999999999903e+01 -9.960200000000000387e+01 -8.870999999999999996e-01 -2.581477999999999895e+01 -2.918050353840360156e-01
2.642000000000000171e+01 -6.720499999999999829e+01 -9.707399999999999807e+00 -3.330678999999999945e+00 2.346274053543910831e-01
2.642099999999999937e+01 -7.869199999999999307e+01 -2.582300000000000040e+01 -2.437764999999999915e+01 3.167439001467254323e-01
2.642099999999999937e+01 -6.036899999999999977e+01 -8.044900000000000162e+00 -1.447127000000000052e+01 8.218701357521814022e-02
2.642099999999999937e+01 -6.024699999999999989e+01 -8.861000000000000654e+00 -1.369669999999999987e+01 8.104709154009701044e-02
2.642200000000000060e+01 -6.891800000000000637e+01 -4.163799999999999812e+01 -4.954424000000000050e-01 2.270790277248388167e-01
2.642200000000000060e+01 -6.891800000000000637e+01 -4.069800000000000040e+01 -8.519008999999999610e-01 2.269869290673410256e-01
2.642200000000000060e+01 -6.645799999999999841e+01 -4.163799999999999812e+01 -1.230231000000000074e+00 2.274037039214026890e-01
2.642200000000000060e+01 -8.988800000000000523e+01 -3.678799999999999670e+01 4.620228000000000002e+00 3.165631522385942143e-01
2.642399999999999949e+01 -6.975100000000000477e+01 6.129900000000000126e+00 -2.392761999999999833e+00 -1.437483653837708375e-01
2.642599999999999838e+01 -9.849399999999999977e+01 -1.018200000000000038e+01 8.116329000000000349e+00 1.434498480095171002e-01
2.642699999999999960e+01 -6.963400000000000034e+01 -5.902100000000000080e+01 1.298495999999999895e-03 2.281393255303549028e-01
2.642699999999999960e+01 -6.963400000000000034e+01 -5.808500000000000085e+01 -2.557916000000000079e+00 2.280978273367788023e-01
2.642800000000000082e+01 -6.684900000000000375e+01 -1.043900000000000006e+01 -2.935004000000000168e+00 2.342128246828608096e-01
2.643900000000000006e+01 -8.562800000000000011e+01 -2.988299999999999912e+01 -1.656595000000000040e+00 3.167320471946989402e-01
2.644000000000000128e+01 -8.414600000000000080e+01 -4.920000000000000284e+01 2.092003000000000057e+00 3.162928057799374026e-01
2.644099999999999895e+01 -1.001200000000000045e+02 -5.504699999999999704e+00 9.203125000000000000e+00 -2.915956893483361290e-01
2.644099999999999895e+01 -7.372799999999999443e+01 -3.685099999999999909e+01 -4.639032999999999873e+01 3.157164926977265584e-01
2.644200000000000017e+01 -9.205800000000000693e+01 -4.288199999999999790e+01 9.411462000000000216e+00 3.164742899982316837e-01
2.644300000000000139e+01 -8.553199999999999648e+01 -3.126599999999999824e+01 -1.267600000000000016e+01 3.166621074754293330e-01
2.644300000000000139e+01 -8.466700000000000159e+01 -3.126599999999999824e+01 -7.046126000000000111e+00 3.166388136146998655e-01
2.644300000000000139e+01 -8.466700000000000159e+01 -2.986599999999999966e+01 -5.065487000000000073e+00 3.167062693390726436e-01
2.644300000000000139e+01 -7.875700000000000500e+01 -2.968100000000000094e+01 -1.209693000000000040e+01 3.165358843101251374e-01
2.644800000000000040e+01 -8.233100000000000307e+01 -2.472700000000000031e+01 1.249961000000000100e+00 3.169905516717895222e-01
2.644900000000000162e+01 -7.387500000000000000e+01 -3.779500000000000171e+01 -1.136796999999999969e+01 3.157496260778840935e-01
2.645299999999999940e+01 -7.455200000000000671e+01 -3.278600000000000136e+01 3.311236000000000246e+01 3.157938724655267038e-01
2.645400000000000063e+01 -6.943099999999999739e+01 -4.283699999999999619e+00 -1.323677999999999955e+01 6.925730244006148006e-02
2.646000000000000085e+01 -6.305599999999999739e+01 4.854000000000000092e+00 -3.603056000000000036e+00 -2.526499876752520413e-01
2.646199999999999974e+01 -6.657500000000000284e+01 2.955999999999999961e+00 1.121906000000000070e+01 -7.404113232021332369e-02
2.646900000000000119e+01 -9.279900000000000659e+01 3.921699999999999964e+00 1.004198000000000057e+01 -2.959203445234840912e-01
2.646900000000000119e+01 -7.951699999999999591e+01 -2.480499999999999972e+01 -3.273622999999999905e+01 3.168700303025641096e-01
2.646999999999999886e+01 -1.004899999999999949e+02 -4.692000000000000171e+00 1.889960000000000084e+00 -2.915188024099890085e-01
2.647100000000000009e+01 -7.980100000000000193e+01 -2.532600000000000051e+01 -2.641562000000000054e+01 3.168396466297909719e-01
2.647400000000000020e+01 -6.822400000000000375e+01 -8.946099999999999497e+00 -1.445186999999999999e+00 2.333391926903296554e-01
2.647500000000000142e+01 -6.595600000000000307e+01 -4.029299999999999926e+01 2.921089000000000047e-01 2.273532259386309984e-01
2.647700000000000031e+01 -9.114199999999999591e+01 4.193299999999999805e+00 -1.161063000000000045e+01 -2.979873921854502283e-01
2.647800000000000153e+01 -9.092499999999999716e+01 -4.212400000000000233e+01 4.421802999999999706e+00 3.164718183186690514e-01
2.647800000000000153e+01 -9.092499999999999716e+01 -4.125900000000000034e+01 3.857728999999999964e+00 3.164871545555233423e-01
2.647899999999999920e+01 -1.007999999999999972e+02 -1.441300000000000026e+00 -2.777431999999999945e+01 -2.913425623378079754e-01
2.647899999999999920e+01 -7.762500000000000000e+01 -3.130499999999999972e+01 -2.156550000000000011e+01 3.163542820822701218e-01
2.648300000000000054e+01 -7.543999999999999773e+01 -3.144999999999999929e+01 5.970554000000000139e-01 3.159498199190182710e-01
2.648400000000000176e+01 -7.575300000000000011e+01 -4.267199999999999704e+01 -6.092247000000000412e+00 3.160084767585775167e-01
2.648699999999999832e+01 -9.876200000000000045e+01 -6.420499999999999652e+00 5.025974999999999859e+00 -2.918742160828456389e-01
2.648799999999999955e+01 -6.615999999999999659e+01 -4.117900000000000205e+01 -4.420149999999999579e+00 2.273948506896981137e-01
2.648999999999999844e+01 -8.310999999999999943e+01 -4.837800000000000011e+01 -4.241209999999999702e+00 3.162878992283578716e-01
2.649099999999999966e+01 -6.218699999999999761e+01 1.211200000000000054e+00 1.617217000000000127e+01 -8.083271739374739417e-02
2.649299999999999855e+01 -8.063800000000000523e+01 3.875100000000000211e+00 1.094715000000000060e+01 -9.398527662246600189e-02
2.649399999999999977e+01 -9.690999999999999659e+01 -8.898699999999999832e+00 5.842279999999999696e-01 1.442392501090367374e-01
2.649399999999999977e+01 -9.690999999999999659e+01 -7.426599999999999646e+00 4.317504999999999704e+00 1.474571411191322734e-01
2.649399999999999977e+01 -9.670099999999999341e+01 -8.162699999999999179e+00 6.187424999999999869e-02 1.455523095814293122e-01
2.649899999999999878e+01 -7.354099999999999682e+01 -3.132700000000000173e+01 -1.459407000000000032e+01 3.156125405517423710e-01
2.650400000000000134e+01 -7.531799999999999784e+01 -1.615599999999999881e+01 2.142139999999999933e+00 3.164945957841854285e-01
2.650900000000000034e+01 -7.375400000000000489e+01 -3.622200000000000131e+01 -6.107169999999999987e+01 3.157203044391548863e-01
2.651099999999999923e+01 -7.424899999999999523e+01 -3.208599999999999852e+01 1.263503000000000043e+01 3.157469026904561882e-01
2.651200000000000045e+01 -8.021099999999999852e+01 4.303300000000000125e+00 7.240553000000000239e+00 2.030157232653268251e-01
2.651300000000000168e+01 -7.186400000000000432e+01 7.931799999999999962e+00 -2.126701999999999870e+00 -2.206501794482166878e-01
2.651599999999999824e+01 -6.916899999999999693e+01 -6.177300000000000324e+01 -1.293887999999999927e+01 2.282717573472659023e-01
2.651599999999999824e+01 -6.670900000000000318e+01 -6.177300000000000324e+01 -5.354084000000000287e+01 2.284186653274677958e-01
2.651699999999999946e+01 -8.911400000000000432e+01 -2.635800000000000054e+01 -1.056663999999999959e+01 3.170808396332944756e-01
2.651699999999999946e+01 -9.581199999999999761e+01 3.123000000000000220e+00 -7.000666999999999973e+00 -2.930775929288289006e-01
2.651899999999999835e+01 -7.548199999999999932e+01 -4.343900000000000006e+01 -1.695176000000000016e+00 3.159877959661489544e-01
2.651999999999999957e+01 -9.262399999999999523e+01 -2.758500000000000085e+01 -9.420026999999999706e-01 3.170615819191331952e-01
2.651999999999999957e+01 -8.787699999999999534e+01 4.541000000000000369e+00 -1.184911999999999921e+01 -2.982012751166543962e-01
2.651999999999999957e+01 -8.658400000000000318e+01 3.820100000000000051e+00 -4.745956999999999937e+01 -5.211000642364140012e-02
2.651999999999999957e+01 -8.625900000000000034e+01 3.082899999999999974e+00 -1.732476000000000127e+01 -7.129857412211110246e-02
2.653200000000000003e+01 -8.165800000000000125e+01 -4.673400000000000176e+01 -4.382113999999999976e+01 3.162819305962665806e-01
2.653200000000000003e+01 -8.144899999999999807e+01 -4.599799999999999756e+01 -1.026552000000000042e+01 3.162838798900451387e-01
2.653500000000000014e+01 -8.417700000000000671e+01 1.568200000000000038e+00 -1.919600000000000151e+01 -9.010845853893206803e-02
2.653999999999999915e+01 -8.545900000000000318e+01 2.319500000000000117e+00 -1.303428000000000075e+01 -9.401179348646820921e-02
2.654100000000000037e+01 -9.304800000000000182e+01 -4.333500000000000085e+01 1.133167000000000080e+01 3.164915286452344989e-01
2.654200000000000159e+01 -6.737900000000000489e+01 -5.711999999999999744e+01 -8.118194000000000798e+00 2.281981652057032961e-01
2.654200000000000159e+01 -6.637199999999999989e+01 -5.812700000000000244e+01 -7.590084000000000053e+00 2.283079090269439781e-01
2.654200000000000159e+01 -6.611799999999999500e+01 -5.902100000000000080e+01 9.513806000000000651e+00 2.283579226063528478e-01
2.654200000000000159e+01 -7.136299999999999955e+01 -8.671699999999999520e+00 -1.846481000000000039e+00 3.141669031630512365e-01
2.654599999999999937e+01 -6.737500000000000000e+01 -3.944299999999999784e+01 -5.710528000000000132e-02 2.270580721939883806e-01
2.654599999999999937e+01 -6.632500000000000284e+01 -3.944299999999999784e+01 1.916765000000000052e+00 2.272128950858209040e-01
2.654700000000000060e+01 -9.264000000000000057e+01 -3.792799999999999727e+01 -2.452447999999999961e+00 3.165990963892341692e-01
2.654799999999999827e+01 -6.917900000000000205e+01 -3.481400000000000006e+01 3.626357000000000141e+01 3.150791804686720043e-01
2.655300000000000082e+01 -8.657099999999999795e+01 -2.989999999999999858e+01 -8.106442000000000370e-01 3.167780100219167450e-01
2.655499999999999972e+01 -7.029399999999999693e+01 -5.619299999999999784e+01 -7.707084000000000046e+00 2.279478095501989987e-01
2.655499999999999972e+01 -6.793899999999999295e+01 -6.259599999999999653e+01 -2.452280000000000015e+00 2.283704520907468560e-01
2.655600000000000094e+01 -8.507800000000000296e+01 -2.538299999999999912e+01 5.689530999999999672e+00 3.170583267465761357e-01
2.655900000000000105e+01 -9.734300000000000352e+01 2.014100000000000001e+00 2.214837999999999862e+00 -2.923737106364083793e-01
2.655900000000000105e+01 -9.385399999999999920e+01 -2.676200000000000045e+01 -2.787316000000000127e+00 3.171502636391834717e-01
2.655999999999999872e+01 -9.395199999999999818e+01 -2.576099999999999923e+01 -7.961392000000000468e-01 3.172321078105000414e-01
2.655999999999999872e+01 -9.374299999999999500e+01 -2.502499999999999858e+01 5.908832000000000306e+00 3.172936342987547897e-01
2.656099999999999994e+01 -7.135500000000000398e+01 -5.092099999999999937e+01 -7.225776000000000421e-01 3.157351833355564463e-01
2.656700000000000017e+01 -7.956600000000000250e+01 -4.470900000000000318e+01 -1.425505000000000067e+01 3.162697829876979783e-01
2.656800000000000139e+01 -9.104399999999999693e+01 -5.596699999999999875e+01 4.128936999999999635e+00 3.163492742902859201e-01
2.657000000000000028e+01 -7.407500000000000284e+01 -1.445599999999999952e+01 -1.018644999999999967e-01 3.159708553564424260e-01
2.657100000000000151e+01 -8.589000000000000057e+01 -2.591199999999999903e+01 4.592108999999999774e+00 3.170406978007445642e-01
2.657400000000000162e+01 -9.743999999999999773e+01 -1.527699999999999925e+01 1.681912000000000074e+00 1.360905788915336978e-01
2.657900000000000063e+01 -8.845099999999999341e+01 -3.657200000000000273e+01 3.450421000000000049e+01 3.165598171080048484e-01
2.657900000000000063e+01 -8.726000000000000512e+01 -3.590800000000000125e+01 1.327876000000000012e+01 3.165540179576908919e-01
2.657900000000000063e+01 -8.726000000000000512e+01 -3.443599999999999994e+01 -6.321260999999999797e+00 3.166006637318949934e-01
2.657900000000000063e+01 -8.705100000000000193e+01 -3.517199999999999704e+01 -2.022222000000000186e+00 3.165718413328711400e-01
2.658200000000000074e+01 -9.426999999999999602e+01 3.222999999999999865e+00 2.109983000000000004e+02 -2.943783261029378484e-01
2.658399999999999963e+01 -7.677599999999999625e+01 -4.421399999999999864e+01 2.334386999999999901e+01 3.161237779759500377e-01
2.658399999999999963e+01 -7.581799999999999784e+01 -4.421399999999999864e+01 3.364041999999999888e+01 3.160304593674552187e-01
2.658699999999999974e+01 -9.880200000000000671e+01 -1.473000000000000043e+01 1.687117999999999896e+00 1.379700527775307717e-01
2.658699999999999974e+01 -8.743999999999999773e+01 -2.598000000000000043e+01 -5.428878000000000315e-01 3.170843799386238726e-01
2.658800000000000097e+01 -9.310500000000000398e+01 -3.684499999999999886e+01 -5.294214000000000198e+00 3.166426905410493209e-01
2.659100000000000108e+01 -7.320799999999999841e+01 1.052399999999999913e+01 3.579983999999999944e-01 -2.346107306997006481e-01
2.659199999999999875e+01 -8.526999999999999602e+01 -5.036299999999999955e+01 1.868799000000000099e+00 3.163119976839681713e-01
2.659799999999999898e+01 -6.817499999999999716e+01 -3.712000000000000188e+00 -4.548471000000000153e+00 1.694123166208298115e-01
2.660200000000000031e+01 -7.538500000000000512e+01 1.057699999999999996e+01 -1.036546000000000056e+01 -2.164008862257539856e-01
2.660200000000000031e+01 -8.118200000000000216e+01 -2.549500000000000099e+01 -3.261092000000000102e+00 3.169150506328409778e-01
2.660399999999999920e+01 -9.053700000000000614e+01 -2.700900000000000034e+01 1.220806999999999976e+00 3.170789417043781144e-01
2.660399999999999920e+01 -9.084199999999999875e+01 -5.480299999999999727e+01 2.706555000000000177e+01 3.163547163639172100e-01
2.660399999999999920e+01 -9.063299999999999557e+01 -5.406700000000000017e+01 1.858353999999999928e+01 3.163562048588368647e-01
2.660500000000000043e+01 -7.753900000000000148e+01 -1.814699999999999847e+01 1.154818000000000033e+01 3.173935691663830050e-01
2.660500000000000043e+01 -6.118699999999999761e+01 -1.252699999999999925e+01 -2.045974999999999877e+00 -1.996884708890833693e-02
2.660699999999999932e+01 -7.470799999999999841e+01 -2.168199999999999861e+01 1.359455999999999953e+01 3.159139419400647797e-01
2.660900000000000176e+01 -8.138400000000000034e+01 -2.639999999999999858e+01 -6.913522000000000389e+00 3.168522444831751717e-01
2.661100000000000065e+01 -9.598000000000000398e+01 -1.764000000000000057e+01 7.725883000000000056e-01 1.328136254620024270e-01
2.661499999999999844e+01 -6.900400000000000489e+01 -5.536899999999999977e+01 -2.506385999999999825e+01 2.279930067475645361e-01
2.661499999999999844e+01 -7.417600000000000193e+01 -3.530400000000000205e+01 -2.257808999999999955e+01 3.157832359416617440e-01
2.662000000000000099e+01 -6.170400000000000063e+01 -2.138999999999999790e+00 6.491507999999999612e+00 -1.721822596875673406e-01
2.662000000000000099e+01 -6.069700000000000273e+01 -3.146300000000000097e+00 3.941599000000000075e+01 -1.717615457378730004e-01
2.662199999999999989e+01 -7.486799999999999500e+01 1.066499999999999915e+01 -1.630017000000000138e+01 -2.235873049198060514e-01
2.662500000000000000e+01 -6.945900000000000318e+01 -6.112800000000000011e+01 -1.946490000000000054e+00 2.282189195170292728e-01
2.662800000000000011e+01 -8.936499999999999488e+01 4.001900000000000013e+00 -3.272905999999999871e+00 -2.988939312496762257e-01
2.663700000000000045e+01 -7.442100000000000648e+01 -3.137999999999999901e+01 9.393539999999999779e+00 3.157938154956115850e-01
2.664199999999999946e+01 -9.354099999999999682e+01 -4.411999999999999744e+01 2.511960000000000193e+00 3.164953124153658259e-01
2.664399999999999835e+01 -6.104399999999999693e+01 -1.155799999999999983e+01 -1.098279999999999923e+00 -1.868079584822533029e-02
2.664399999999999835e+01 -6.083500000000000085e+01 -1.082199999999999918e+01 1.777077999999999935e+00 -1.731435456355552224e-02
2.664799999999999969e+01 -6.627599999999999625e+01 -5.993299999999999983e+01 1.033358999999999916e+01 2.283696387336423828e-01
2.664900000000000091e+01 -8.380500000000000682e+01 -2.797599999999999909e+01 -1.777551000000000103e+00 3.168327183160438154e-01
2.665099999999999980e+01 -9.277599999999999625e+01 -3.608500000000000085e+01 -1.592910000000000004e+01 3.166677977248968379e-01
2.665099999999999980e+01 -9.183599999999999852e+01 -3.608500000000000085e+01 -2.933251999999999882e+01 3.166503165052568791e-01
2.665200000000000102e+01 -9.393200000000000216e+01 -2.422700000000000031e+01 1.923481999999999914e+01 3.173898352079895235e-01
2.665299999999999869e+01 -7.436599999999999966e+01 -1.352899999999999991e+01 -8.240773000000000792e+00 3.163185726456160252e-01
2.665399999999999991e+01 -9.332599999999999341e+01 3.161399999999999988e+00 1.169824000000000019e+01 -2.952907904469795897e-01
2.665399999999999991e+01 -7.023399999999999466e+01 -5.713199999999999790e+01 -3.349234000000000044e+00 2.279884091335777629e-01
2.665399999999999991e+01 -6.777400000000000091e+01 -5.619200000000000017e+01 -2.930685000000000073e+01 2.281176178081937567e-01
2.666100000000000136e+01 -6.024199999999999733e+01 -6.502100000000000435e+00 6.875252999999999837e+00 -1.708827657830514768e-01
2.666100000000000136e+01 -6.024199999999999733e+01 -3.697900000000000187e+00 3.015881999999999863e+01 -1.715586677088014322e-01
2.666199999999999903e+01 -9.384499999999999886e+01 -4.609700000000000131e+01 7.062775000000000247e+00 3.164726147481433105e-01
2.666199999999999903e+01 -9.384499999999999886e+01 -4.504699999999999704e+01 5.461064999999999614e+00 3.164873604578384847e-01
2.666400000000000148e+01 -8.728799999999999670e+01 -3.173499999999999943e+01 -2.567611000000000132e+01 3.167224688247325948e-01
2.666700000000000159e+01 -8.979600000000000648e+01 -3.261500000000000199e+01 -7.823320999999999970e+00 3.167411586316913885e-01
2.666700000000000159e+01 -8.979600000000000648e+01 -3.109499999999999886e+01 -8.272202000000000055e+00 3.168133579278289425e-01
2.666700000000000159e+01 -8.885599999999999454e+01 -3.109499999999999886e+01 -2.897589999999999932e+01 3.167917928461664867e-01
2.666799999999999926e+01 -7.832299999999999329e+01 9.208999999999999631e+00 3.579448000000000185e+00 -2.440231171402411081e-01
2.666900000000000048e+01 -8.664199999999999591e+01 -3.141499999999999915e+01 -1.378589999999999982e+01 3.167223022955961143e-01
2.667699999999999960e+01 -7.717900000000000205e+01 -3.146300000000000097e+01 -1.767566000000000059e+01 3.163020581408448884e-01
2.667800000000000082e+01 -8.358700000000000330e+01 -2.413599999999999923e+01 -6.655149999999999899e+00 3.171600338357127291e-01
2.667999999999999972e+01 -9.037600000000000477e+01 -5.338499999999999801e+01 2.770296000000000092e+01 3.163618608658921860e-01
2.668100000000000094e+01 -7.911799999999999500e+01 -2.410500000000000043e+01 -1.432892999999999972e+01 3.169718473616651711e-01
2.668299999999999983e+01 -7.591899999999999693e+01 -2.082900000000000063e+01 1.468457000000000079e+01 3.164149886937975276e-01
2.668599999999999994e+01 -9.336299999999999955e+01 -5.589500000000000313e+01 6.455596999999999586e-01 3.163812258828067603e-01
2.669800000000000040e+01 -6.548399999999999466e+01 7.956999999999999851e+00 9.160469999999999402e+01 -2.375563986831668861e-01
2.669999999999999929e+01 -8.035899999999999466e+01 -2.461299999999999955e+01 -5.258988999999999692e+00 3.169843783193578290e-01
2.670400000000000063e+01 -7.476999999999999602e+01 -9.913999999999999702e+00 8.192555999999999727e+00 3.175130636099877668e-01
2.670599999999999952e+01 -6.987399999999999523e+01 -8.518100000000000449e+00 1.510671000000000097e+00 2.292005598188560644e-01
2.670700000000000074e+01 -8.242199999999999704e+01 -2.726599999999999824e+01 -1.651032000000000011e+01 3.168482511304617222e-01
2.671199999999999974e+01 -6.844799999999999329e+01 -4.239800000000000324e+01 -1.739410999999999874e-01 2.271590032490125588e-01
2.671199999999999974e+01 -6.844799999999999329e+01 -3.993800000000000239e+01 -3.413361999999999785e+00 2.269203905913212971e-01
2.671199999999999974e+01 -6.692799999999999727e+01 -4.239800000000000324e+01 -2.200155000000000083e+00 2.273525573679754941e-01
2.672400000000000020e+01 -7.653799999999999670e+01 -2.404299999999999926e+01 2.202497999999999845e+00 3.164334734381067382e-01
2.672599999999999909e+01 -7.693600000000000705e+01 9.692399999999999238e+00 -2.479767999999999972e+00 -2.261650722790885804e-01
2.673000000000000043e+01 -9.012500000000000000e+01 -3.185500000000000043e+01 -1.908988000000000085e+01 3.167928374601049479e-01
2.673100000000000165e+01 -9.915200000000000102e+01 -1.191799999999999926e+01 2.718687000000000076e+00 1.416746977746824732e-01
2.673100000000000165e+01 -7.514499999999999602e+01 -2.144300000000000139e+01 1.359455999999999953e+01 3.161156354309643257e-01
2.673300000000000054e+01 -9.255200000000000671e+01 3.522699999999999942e+00 4.266259999999999941e+00 -2.958302494630096202e-01
2.673499999999999943e+01 -6.217300000000000182e+01 -1.381300000000000061e+01 -2.303690000000000015e+00 -2.318548733453038371e-02
2.673600000000000065e+01 -6.935800000000000409e+01 -1.393000000000000016e+00 -1.291990000000000016e+01 -2.523342438304013169e-02
2.673799999999999955e+01 -7.936799999999999500e+01 -2.602599999999999980e+01 -1.164882000000000062e+01 3.168332595835848808e-01
2.673900000000000077e+01 -7.434499999999999886e+01 -3.855499999999999972e+01 -6.753883000000000081e+00 3.158527631276928371e-01
2.674099999999999966e+01 -9.508499999999999375e+01 -5.519800000000000040e+01 -2.089536999999999978e+00 3.164070296869964660e-01
2.674099999999999966e+01 -9.508499999999999375e+01 -5.273799999999999955e+01 -7.276436999999999600e+00 3.164246955393510974e-01
2.674399999999999977e+01 -7.202599999999999625e+01 7.217999999999999972e+00 -8.953701000000000576e+00 -3.390688153637494984e-01
2.674399999999999977e+01 -7.181699999999999307e+01 6.482000000000000206e+00 -8.478369999999999962e+00 -3.388905797342369186e-01
2.674399999999999977e+01 -7.062600000000000477e+01 5.817999999999999616e+00 -1.303816999999999915e+01 -1.441391487003623739e-01
2.674399999999999977e+01 -6.776200000000000045e+01 -3.340700000000000003e+00 -3.328141000000000016e+00 1.712179418099037398e-01
2.674399999999999977e+01 -6.776200000000000045e+01 -1.940700000000000092e+00 -2.157353000000000076e+00 1.747269863799579548e-01
2.674599999999999866e+01 -9.135800000000000409e+01 -4.282399999999999807e+01 1.004669999999999952e+01 3.164923528284898646e-01
2.674599999999999866e+01 -9.135800000000000409e+01 -4.055899999999999750e+01 1.408066000000000040e+00 3.165355224589064820e-01
2.675000000000000000e+01 -7.490800000000000125e+01 -1.215799999999999947e+01 8.391636000000000095e+00 3.170465543341315362e-01
2.675000000000000000e+01 -7.870499999999999829e+01 -4.466899999999999693e+01 -1.159899999999999931e+00 3.162751646673618300e-01
2.675100000000000122e+01 -8.412300000000000466e+01 -2.901099999999999923e+01 3.264953000000000216e+00 3.167973574837668060e-01
2.675400000000000134e+01 -6.615600000000000591e+01 -1.160299999999999976e+01 -3.946559999999999846e+00 2.340312498507395866e-01
2.675400000000000134e+01 -6.605800000000000693e+01 -1.313700000000000045e+01 -3.130081000000000113e+00 2.322209904971590522e-01
2.675400000000000134e+01 -6.594700000000000273e+01 -1.233900000000000041e+01 -2.108073999999999870e+01 2.334138066499867603e-01
2.675400000000000134e+01 -6.583100000000000307e+01 -1.393599999999999994e+01 -2.845902000000000154e+00 2.317339317480841543e-01
2.675499999999999901e+01 -6.643699999999999761e+01 8.062099999999999156e+00 1.440695000000000014e+01 -2.340611547487848332e-01
2.675799999999999912e+01 -9.314799999999999613e+01 -4.931600000000000250e+01 -8.471484000000000236e+00 3.164329176713041036e-01
2.675799999999999912e+01 -9.293899999999999295e+01 -4.857999999999999829e+01 -2.686602999999999852e+00 3.164378308582215249e-01
2.675900000000000034e+01 -8.005500000000000682e+01 -2.391300000000000026e+01 2.795393999999999934e+00 3.170554994425500150e-01
2.676300000000000168e+01 -8.772400000000000375e+01 -3.347200000000000131e+01 -1.127476000000000056e+01 3.166734604363964922e-01
2.676399999999999935e+01 -8.370399999999999352e+01 -3.090399999999999991e+01 -1.803579999999999828e+01 3.166853589635675315e-01
2.676699999999999946e+01 -9.234099999999999397e+01 -4.334799999999999898e+01 1.308179999999999943e+01 3.165007386557601166e-01
2.676899999999999835e+01 -1.012600000000000051e+02 -3.140699999999999825e+00 -9.413546999999999887e-01 -2.911821874953776090e-01
2.676899999999999835e+01 -1.012600000000000051e+02 -2.201299999999999812e+00 -6.004620000000000068e+00 -2.911323708158049528e-01
2.676999999999999957e+01 -7.326399999999999579e+01 -9.338900000000000645e+00 -4.736595999999999584e+00 3.161465949841253398e-01
2.676999999999999957e+01 -8.885399999999999920e+01 -3.266799999999999926e+01 -2.625996999999999915e+01 3.167335689955520506e-01
2.677100000000000080e+01 -7.501699999999999591e+01 -2.368400000000000105e+01 6.611950000000000216e+00 3.160107723903044508e-01
2.677299999999999969e+01 -7.749500000000000455e+01 -1.892500000000000071e+01 1.894751000000000118e+01 3.173078947742747902e-01
2.677599999999999980e+01 -8.151000000000000512e+01 -2.476999999999999957e+01 -2.680371000000000059e+00 3.170377459953483412e-01
2.677700000000000102e+01 -8.996699999999999875e+01 -5.292499999999999716e+01 1.321758999999999951e+01 3.163661165075608017e-01
2.677700000000000102e+01 -8.877599999999999625e+01 -5.226100000000000279e+01 6.086870000000000225e+00 3.163562600585964057e-01
2.677899999999999991e+01 -7.977899999999999636e+01 5.003300000000000303e+00 -1.870111000000000079e+00 -8.730627605010461353e-03
2.678099999999999881e+01 -6.192699999999999960e+01 3.767999999999999794e+00 -2.906258000000000052e+01 -2.562385677410240481e-01
2.678200000000000003e+01 -6.181600000000000250e+01 2.031299999999999883e+00 4.584653000000000311e+00 -7.672178440475593830e-02
2.678600000000000136e+01 -7.483599999999999852e+01 -3.207999999999999829e+01 9.851174000000000319e+00 3.158950897508582267e-01
2.678900000000000148e+01 -9.501000000000000512e+01 -2.261700000000000088e+01 1.809597000000000122e+01 3.175939885871587598e-01
2.678900000000000148e+01 -9.501000000000000512e+01 -1.999500000000000099e+01 1.120068000000000019e+01 1.308305798157856636e-01
2.678900000000000148e+01 -9.501000000000000512e+01 -1.852299999999999969e+01 5.336375000000000313e+00 1.314425270218315955e-01
2.678900000000000148e+01 -9.480100000000000193e+01 -1.925900000000000034e+01 9.059371000000000507e+00 1.309008340223217215e-01
2.678900000000000148e+01 -8.841599999999999682e+01 -3.179599999999999937e+01 -2.895961000000000141e+01 3.167666187921120424e-01
2.679299999999999926e+01 -8.086799999999999500e+01 -4.550399999999999778e+01 -4.696515999999999913e+00 3.163026036811199537e-01
2.680099999999999838e+01 -8.039000000000000057e+01 -2.608999999999999986e+01 -1.384323999999999977e+01 3.168836000821417254e-01
2.680300000000000082e+01 -6.745900000000000318e+01 -2.640699999999999825e+00 -2.414346999999999799e+00 1.735863097098497565e-01
2.680300000000000082e+01 -8.208599999999999852e+01 2.011000000000000121e+00 3.267656999999999812e+01 -1.028520734478332727e-01
2.680600000000000094e+01 -8.548799999999999955e+01 -5.093599999999999994e+01 6.377656000000000436e-01 3.163268836320662913e-01
2.680699999999999861e+01 -7.667199999999999704e+01 -1.695700000000000074e+01 -3.629042000000000101e+00 3.172588514638117752e-01
2.680799999999999983e+01 -1.000400000000000063e+02 -1.377999999999999892e+00 -4.546858000000000288e+01 -2.914894081663162995e-01
2.681500000000000128e+01 -7.587300000000000466e+01 -3.204599999999999937e+01 -7.408217999999999748e+00 3.160809872968164402e-01
2.681500000000000128e+01 -7.224899999999999523e+01 -5.092099999999999937e+01 1.595126999999999962e+00 3.158164629473963481e-01
2.681500000000000128e+01 -7.046099999999999852e+01 -5.092099999999999937e+01 -3.827919000000000183e-01 3.156916897356714102e-01
2.681500000000000128e+01 -6.504900000000000659e+01 7.223200000000000287e+00 2.096526000000000067e+01 -1.371642188763296244e-01
2.681700000000000017e+01 -6.351599999999999824e+01 5.480299999999999727e+00 6.584882000000000346e+00 -1.564794839073041233e-01
2.681899999999999906e+01 -6.170600000000000307e+01 2.982800000000000118e+00 -1.308121000000000045e+01 -2.588236700125160494e-01
2.682499999999999929e+01 -7.154600000000000648e+01 -2.840100000000000069e+00 -3.380228000000000321e+01 1.639270597048061995e-01
2.682499999999999929e+01 -7.133700000000000330e+01 -3.576099999999999834e+00 -3.153103000000000122e+01 1.635201717708026636e-01
2.682499999999999929e+01 -7.133700000000000330e+01 -2.104000000000000092e+00 -2.979906000000000077e+01 1.662257301369265972e-01
2.682499999999999929e+01 -7.014600000000000080e+01 -4.240000000000000213e+00 -1.805398999999999887e+01 1.666582329749689562e-01
2.683599999999999852e+01 -6.209799999999999898e+01 -1.220599999999999907e+00 1.387127000000000088e+01 1.407384234335937179e-02
2.683699999999999974e+01 -7.257200000000000273e+01 -9.227399999999999380e+00 -2.084747000000000128e+00 3.155463560095779774e-01
2.683800000000000097e+01 -8.347700000000000387e+01 1.509900000000000020e+00 3.296126000000000111e+00 -9.434711418428651242e-02
2.683899999999999864e+01 -8.509900000000000375e+01 -3.175700000000000145e+01 4.210470000000000113e+01 3.166953011859640621e-01
2.683999999999999986e+01 -8.914400000000000546e+01 -3.665999999999999659e+01 1.031991999999999976e+01 3.166039926300399099e-01
2.684100000000000108e+01 -9.862900000000000489e+01 -2.220000000000000029e-01 9.720273999999999859e+00 -2.919531991938906779e-01
2.684100000000000108e+01 -8.722599999999999909e+01 -5.259899999999999665e+01 1.081231999999999971e+00 3.163404428165293991e-01
2.684199999999999875e+01 -9.416299999999999670e+01 -2.335699999999999932e+01 1.000079000000000029e+01 3.175211589064996787e-01
2.684299999999999997e+01 -8.475900000000000034e+01 2.261200000000000099e+00 -9.837372000000000227e+00 -1.003018824879119697e-01
2.684400000000000119e+01 -8.276399999999999579e+01 -2.423600000000000065e+01 -2.895120999999999944e-01 3.171606809794405568e-01
