-2.605099999999999838e+01 -1.012500000000000000e+01 8.178000000000000824e+00 -1.558211999999999930e+00 -2.005822179845070108e-01
-2.602899999999999991e+01 -3.103400000000000158e+00 5.354400000000000048e+00 -2.919144999999999879e+00 -2.211142269723928577e-01
-2.602299999999999969e+01 -8.189899999999999736e+00 1.018200000000000038e+01 -5.949188999999999616e+00 -2.060839033541322640e-01
-2.601800000000000068e+01 -6.613100000000000200e+00 1.020400000000000063e+01 -1.446181999999999945e+01 -2.045608029303725706e-01
-2.600400000000000134e+01 -1.377200000000000024e+01 1.013100000000000023e+01 -7.023662999999999990e+00 -4.401955909472786421e-02
-2.599500000000000099e+01 -1.050399999999999956e+01 7.305699999999999861e+00 -2.718795000000000073e+00 -1.991074455675915789e-01
-2.598300000000000054e+01 -5.627900000000000347e+00 8.837300000000000821e+00 -5.151530000000000165e+00 -2.002272272379140572e-01
-2.598000000000000043e+01 -1.141000000000000014e+01 1.268999999999999950e+01 2.066170000000000062e+00 5.039948558006168873e-03
-2.596399999999999864e+01 -8.698600000000000776e+00 4.290799999999999947e+00 -3.598869000000000096e+00 -2.161237465863052321e-01
-2.594900000000000162e+01 -1.193800000000000061e+01 1.749800000000000111e+01 -6.089674999999999727e+01 2.556522933874183501e-01
-2.594500000000000028e+01 -1.645100000000000051e+01 1.016600000000000037e+01 -4.055768999999999735e+00 -2.952854275325417915e-02
-2.594500000000000028e+01 -1.515799999999999947e+01 9.445000000000000284e+00 -3.699774999999999814e+00 -4.629243930683393099e-02
-2.593400000000000105e+01 -1.855900000000000105e+01 1.216099999999999959e+01 1.416990999999999890e+00 5.499089869506140760e-02
-2.593400000000000105e+01 -1.855900000000000105e+01 1.321100000000000030e+01 9.971567000000000069e-01 3.343728895059451534e-02
-2.592299999999999827e+01 -7.282000000000000028e+00 4.212200000000000166e+00 -9.126493999999999218e+00 -2.179065521492444812e-01
-2.592299999999999827e+01 -6.091099999999999959e+00 3.548299999999999788e+00 -7.168938999999999950e+00 -2.188554667737420689e-01
-2.592099999999999937e+01 -1.171400000000000041e+01 1.339000000000000057e+01 5.461215000000000153e+00 1.999486727986230731e-03
-2.591499999999999915e+01 -1.186599999999999966e+01 8.178000000000000824e+00 4.309567999999999732e-01 -5.661943494339348459e-02
-2.591000000000000014e+01 -1.316799999999999926e+01 1.832100000000000151e+01 -3.514226000000000028e+01 2.485203046366065149e-01
-2.591000000000000014e+01 -1.765800000000000125e+01 2.044200000000000017e+01 5.631958000000000020e+00 4.200000000000000400e-01
-2.590800000000000125e+01 -1.180400000000000027e+01 1.657400000000000162e+01 -9.172767000000000337e+00 2.606712417525980929e-01
-2.589900000000000091e+01 -1.178700000000000081e+01 1.584900000000000020e+01 -2.890331000000000206e+00 2.645057501294501567e-01
-2.587999999999999901e+01 -1.898000000000000043e+01 1.940500000000000114e+01 -7.693978999999999679e-01 4.200000000000000400e-01
-2.587199999999999989e+01 -1.728999999999999915e+01 1.114400000000000013e+01 2.938209000000000071e+00 4.604326287111770027e-02
-2.587099999999999866e+01 -1.912600000000000122e+01 1.836799999999999855e+01 -3.042009999999999992e-01 4.200000000000000955e-01
-2.586400000000000077e+01 -1.532000000000000028e+01 1.929799999999999827e+01 1.075428999999999924e+01 2.328804621794889340e-01
-2.586400000000000077e+01 -1.047400000000000020e+01 1.257499999999999929e+01 -7.334237000000000117e-01 3.950089124054644539e-03
-2.584400000000000119e+01 -1.149699999999999989e+01 7.328000000000000291e+00 -2.025009999999999977e+00 -2.040637328896104385e-01
-2.584400000000000119e+01 -1.149699999999999989e+01 9.028000000000000469e+00 -2.078089999999999993e+00 -5.799159498828139470e-02
-2.584400000000000119e+01 -1.044699999999999918e+01 9.028000000000000469e+00 1.904657999999999962e+00 -2.051069546415845990e-01
-2.582100000000000151e+01 -6.007600000000000051e+00 1.022400000000000020e+01 -5.450383000000000422e+00 -2.044376473394596272e-01
-2.581400000000000006e+01 -9.301700000000000301e+00 9.078300000000000480e+00 -3.715094999999999814e+00 -2.037978857427579782e-01
-2.578800000000000026e+01 -1.175799999999999912e+01 1.490799999999999947e+01 3.868066999999999922e+00 -5.645648320450951871e-03
-2.575600000000000023e+01 -5.745700000000000252e+00 9.778299999999999770e+00 -1.049914000000000058e+01 -2.031659447778537131e-01
-2.575499999999999901e+01 -2.390899999999999803e+00 1.968699999999999894e+00 -2.724671999999999983e+01 -2.216567708481794463e-01
-2.575400000000000134e+01 -3.416700000000000070e+00 6.108299999999999841e+00 -3.959927999999999781e-01 -2.215643646343389561e-01
-2.573499999999999943e+01 -1.399900000000000055e+01 1.850700000000000145e+01 2.631358000000000086e+00 2.450169013450241573e-01
-2.572700000000000031e+01 -1.283600000000000030e+01 1.091699999999999982e+01 -7.662183999999999884e+00 -4.282670611453052306e-02
-2.571900000000000119e+01 -1.030199999999999960e+01 5.929000000000000270e+00 -2.939238000000000017e+00 -1.958023922188058263e-01
-2.571000000000000085e+01 -1.151099999999999923e+01 1.177399999999999913e+01 2.244680999999999926e+00 8.062691474831431421e-03
-2.569000000000000128e+01 -1.094200000000000017e+01 1.344699999999999918e+01 5.242168000000000383e+00 2.975236629013980577e-04
-2.569000000000000128e+01 -1.811700000000000088e+01 1.660000000000000142e+01 -3.930479000000000056e-01 2.384401720221155929e-01
-2.569000000000000128e+01 -1.790800000000000125e+01 1.586400000000000077e+01 -2.954629000000000172e+00 2.535601016564772991e-01
-2.568700000000000117e+01 -2.601100000000000190e+00 4.981399999999999828e+00 -2.566816999999999993e+01 -2.218621333493624448e-01
-2.565200000000000102e+01 -5.252699999999999925e+00 8.548099999999999810e+00 -8.066857000000000610e+00 -2.215916748806610603e-01
-2.564999999999999858e+01 -5.805100000000000371e+00 2.857000000000000206e+00 -7.683524000000000242e+00 -2.197070668636450785e-01
-2.564999999999999858e+01 -5.596000000000000085e+00 2.120999999999999996e+00 -1.475357999999999947e+01 -2.197993391898222237e-01
-2.564999999999999858e+01 -5.368999999999999773e+00 1.321900000000000075e+00 -2.725236000000000214e+00 -2.199639474732101030e-01
-2.564999999999999858e+01 -4.075999999999999623e+00 6.009999999999999787e-01 -4.457380999999999815e+00 -2.209494884586041541e-01
-2.564999999999999858e+01 -2.782999999999999918e+00 1.321900000000000075e+00 -5.723720000000000141e+00 -2.216597229818356996e-01
-2.562099999999999866e+01 -6.180500000000000327e+00 1.069500000000000028e+01 -7.215014000000000038e+00 -2.061123978079281438e-01
-2.561299999999999955e+01 -1.430299999999999905e+00 3.125300000000000189e+00 -2.408082999999999885e+01 -2.223331455230172504e-01
-2.561299999999999955e+01 -1.430299999999999905e+00 4.064700000000000202e+00 -4.877582000000000306e+01 -2.223721500553152985e-01
-2.560999999999999943e+01 -1.121000000000000085e+01 1.420500000000000007e+01 4.073826000000000391e+00 -3.140338036229823292e-03
-2.560999999999999943e+01 -9.580299999999999372e+00 1.257499999999999929e+01 2.019375999999999838e+00 2.353753073548780442e-03
-2.559600000000000009e+01 -8.948900000000000077e+00 9.892300000000000537e+00 -1.118881999999999977e+01 -2.069627566852296763e-01
-2.557100000000000151e+01 -1.307199999999999918e+01 1.039799999999999969e+01 -5.455646999999999913e+00 -4.691609540476412293e-02
-2.555499999999999972e+01 -1.845499999999999829e+01 2.025499999999999901e+01 3.352450000000000152e+00 4.200000000000000400e-01
-2.555499999999999972e+01 -1.675499999999999901e+01 2.025499999999999901e+01 5.150634000000000157e+00 4.200000000000000400e-01
-2.555399999999999849e+01 -5.575000000000000178e+00 1.092399999999999949e+01 3.073980999999999852e+00 -2.062247078343893703e-01
-2.554899999999999949e+01 -7.371999999999999886e+00 1.049399999999999977e+01 -1.229766000000000048e+01 -2.069329390301712090e-01
-2.554299999999999926e+01 -8.801899999999999835e+00 3.921300000000000008e+00 -2.693923999999999763e-01 -2.173900605385066798e-01
-2.553900000000000148e+01 -9.948700000000000543e+00 1.172499999999999964e+01 -1.640749000000000013e+00 -4.565429828795568995e-02
-2.553900000000000148e+01 -9.948700000000000543e+00 1.342500000000000071e+01 6.178244000000000291e+00 -5.508015772739281637e-04
-2.552299999999999969e+01 -3.791199999999999903e+00 6.972500000000000142e+00 3.997650000000000148e+00 -2.219689377971564570e-01
-2.551699999999999946e+01 -9.887900000000000134e+00 9.716300000000000381e+00 3.665022000000000002e+00 -5.771890384353271786e-02
-2.551300000000000168e+01 -1.337500000000000000e+01 9.698000000000000398e+00 -5.695647000000000126e+00 4.568223861026364518e-02
-2.551000000000000156e+01 -8.712799999999999656e+00 1.080899999999999928e+01 -3.053628999999999927e+00 -5.893747914219989864e-02
-2.549899999999999878e+01 -1.231900000000000084e+01 8.820700000000000429e+00 1.662479999999999958e+00 4.360666476551506437e-02
-2.549200000000000088e+01 -5.231300000000000061e+00 9.269899999999999807e+00 -4.173173000000000243e+00 -2.019339127925917909e-01
-2.548999999999999844e+01 -6.581999999999999851e+00 3.944900000000000073e+00 -3.997726000000000113e+00 -2.197575724217294690e-01
-2.548999999999999844e+01 -7.931000000000000050e+00 4.147899999999999920e+00 -3.012662999999999869e+00 -2.186445213707799984e-01
-2.548699999999999832e+01 -1.190300000000000047e+01 9.654299999999999216e+00 -1.061344999999999983e+00 4.472590934908184102e-02
-2.548699999999999832e+01 -1.190300000000000047e+01 1.105400000000000027e+01 1.433761999999999981e+00 -4.569412590825155246e-02
-2.548699999999999832e+01 -1.097199999999999953e+01 9.654299999999999216e+00 5.534006999999999898e+00 -6.170219018150045753e-02
-2.547899999999999920e+01 -1.269800000000000040e+01 1.778800000000000026e+01 -3.294203000000000259e+01 2.540433679627354668e-01
-2.547500000000000142e+01 -1.591799999999999926e+01 9.735300000000000509e+00 -3.753687999999999914e+00 -4.458473051682525223e-02
-2.547100000000000009e+01 -1.439000000000000057e+01 9.587899999999999423e+00 -1.398418999999999990e+01 4.612123042438040499e-02
-2.546300000000000097e+01 -1.566799999999999926e+01 1.937699999999999889e+01 1.331311000000000000e+01 2.316200867088912818e-01
-2.544200000000000017e+01 -1.107900000000000063e+01 1.107399999999999984e+01 3.982018999999999975e-01 -4.734483869401603234e-02
-2.543199999999999861e+01 -1.138799999999999990e+01 6.628999999999999559e+00 -2.316790000000000127e+00 -2.029701505425878238e-01
-2.542899999999999849e+01 -1.220599999999999952e+01 1.035399999999999920e+01 -1.288175000000000070e+00 -4.980826695851047620e-02
-2.542000000000000171e+01 -3.033700000000000063e+00 5.681400000000000006e+00 -3.857277999999999984e+00 -2.222179341266610764e-01
-2.540899999999999892e+01 -1.770899999999999963e+01 1.183600000000000030e+01 4.484314999999999607e+00 3.953903088151548145e-02
-2.540800000000000125e+01 -1.789499999999999957e+01 1.447300000000000075e+01 3.296715999999999980e+00 -9.038071345506385607e-03
-2.539600000000000080e+01 -6.487400000000000055e+00 1.102999999999999936e+01 -1.959329000000000098e+00 -2.076184448249773773e-01
-2.538200000000000145e+01 -1.861499999999999844e+01 1.740599999999999881e+01 5.286182999999999854e-01 2.218305953787598206e-01
-2.537500000000000000e+01 -5.062800000000000189e+00 1.176500000000000057e+01 1.687159000000000075e+00 -2.078569627292058686e-01
-2.537399999999999878e+01 -1.108500000000000085e+01 5.929000000000000270e+00 -3.169953000000000021e+00 -2.005763800641998107e-01
-2.536700000000000088e+01 -9.916399999999999437e+00 4.859300000000000175e+00 -1.307252000000000081e+00 -2.176100297350972157e-01
-2.536100000000000065e+01 -4.045700000000000074e+00 7.429199999999999804e+00 1.115536000000000083e+00 -2.222434406461814282e-01
-2.535099999999999909e+01 -1.787399999999999878e+01 1.357199999999999918e+01 5.397803999999999824e+00 8.715603940257998783e-03
-2.534100000000000108e+01 -1.230400000000000027e+01 1.707600000000000051e+01 -2.422211000000000070e+01 2.591317826306581695e-01
-2.533899999999999864e+01 -1.490900000000000070e+01 1.877199999999999847e+01 4.547021000000000157e+01 2.405385740036479481e-01
-2.533800000000000097e+01 -1.807799999999999940e+01 1.268599999999999994e+01 2.534377000000000102e+00 2.874756768218906730e-02
-2.532300000000000040e+01 -1.100500000000000078e+01 1.461999999999999922e+01 3.568302999999999781e+00 -5.952736903502666051e-03
-2.532300000000000040e+01 -1.899999999999999911e+00 2.365299999999999958e+00 -2.603096000000000032e+01 -2.226104826960397243e-01
-2.532300000000000040e+01 -1.899999999999999911e+00 4.824699999999999989e+00 -2.435387000000000057e+01 -2.226940496793450852e-01
-2.531899999999999906e+01 -1.234699999999999953e+01 7.652700000000000280e+00 3.157782000000000089e+00 -8.661729244956120621e-02
-2.531200000000000117e+01 -4.925699999999999967e+00 1.007799999999999940e+01 -1.238396000000000052e+00 -2.040532599574733652e-01
-2.530399999999999849e+01 -1.263899999999999935e+01 9.698000000000000398e+00 -2.570543999999999940e+00 4.474130080885489053e-02
-2.530000000000000071e+01 -9.448800000000000310e+00 1.080899999999999928e+01 -2.226166999999999785e+00 -6.216522224765808069e-02
-2.530000000000000071e+01 -4.681300000000000239e+00 1.092399999999999949e+01 -5.723437999999999581e-01 -2.058341561127826902e-01
-2.528200000000000003e+01 -1.214600000000000080e+01 6.748599999999999710e+00 -2.945148000000000099e+00 -2.051610513953205372e-01
-2.527199999999999847e+01 -1.132099999999999973e+01 1.538100000000000023e+01 3.297738999999999976e+00 2.685864191148377156e-01
-2.524299999999999855e+01 -4.711400000000000254e+00 1.232199999999999918e+01 1.142765000000000031e+00 -2.738947835753816618e-01
-2.522899999999999920e+01 -6.100299999999999834e+00 1.177399999999999913e+01 7.935261999999999816e+00 -5.738307510228394387e-02
-2.522299999999999898e+01 -6.149399999999999977e+00 3.244899999999999896e+00 -8.870818999999999122e+00 -2.207130352764460901e-01
-2.521999999999999886e+01 -1.147000000000000064e+01 1.035399999999999920e+01 6.337581000000000131e+00 4.502056986210388467e-02
-2.521999999999999886e+01 -1.047400000000000020e+01 1.035399999999999920e+01 1.249239000000000033e+01 -6.457308121721208605e-02
-2.521000000000000085e+01 -1.799299999999999855e+01 1.523600000000000065e+01 -6.454063999999999801e+00 -2.785108749873634743e-02
-2.520799999999999841e+01 -8.755900000000000460e+00 1.137700000000000067e+01 -2.140979000000000187e+00 -6.245571273013474783e-02
-2.519999999999999929e+01 -9.529299999999999216e+00 4.115000000000000213e+00 1.337685999999999931e+00 -2.182181052799128107e-01
-2.518700000000000117e+01 -7.282000000000000028e+00 4.003099999999999881e+00 -2.570965000000000167e+00 -2.201805752766923807e-01
-2.518599999999999994e+01 -4.479000000000000092e+00 1.313700000000000045e+01 3.125804000000000027e+00 -2.745855362800233013e-01
-2.518499999999999872e+01 -1.638800000000000168e+01 1.049499999999999922e+01 -5.253580000000000361e+00 -3.439316599595208801e-02
-2.517999999999999972e+01 -4.836000000000000298e+00 8.912900000000000267e-01 -5.784976000000000340e+00 -2.216026835889506885e-01
-2.517999999999999972e+01 -3.315999999999999837e+00 8.912900000000000267e-01 -2.919791999999999987e+01 -2.223590988850407402e-01
-2.517399999999999949e+01 -1.187500000000000000e+01 1.629200000000000159e+01 -1.642020999999999953e+00 2.642755775316944500e-01
-2.516799999999999926e+01 -1.080700000000000038e+01 4.892400000000000304e+00 -2.828428000000000164e+00 -2.177588283416086734e-01
-2.516499999999999915e+01 -1.182099999999999973e+01 5.929000000000000270e+00 -6.780380000000000074e+00 -2.022951075852885694e-01
-2.516100000000000136e+01 -4.856099999999999639e+00 8.980700000000000571e+00 -8.313072000000000017e+00 -2.015098326601744427e-01
-2.515700000000000003e+01 -9.071899999999999409e+00 1.313299999999999912e+01 3.950868999999999964e+00 -9.677828897991583301e-04
-2.515200000000000102e+01 -7.804599999999999760e+00 1.098499999999999943e+01 -3.660276999999999781e+00 -5.872969185973585249e-02
-2.515200000000000102e+01 -6.939400000000000013e+00 1.098499999999999943e+01 -2.932853999999999850e+00 -2.084190430656715221e-01
-2.514900000000000091e+01 -9.059300000000000352e+00 1.207699999999999996e+01 -3.461559999999999970e+00 2.228556700569318816e-01
-2.512900000000000134e+01 -1.518699999999999939e+01 9.567399999999999238e+00 -8.795958000000000609e+00 4.562167742849852076e-02
-2.511599999999999966e+01 -1.339899999999999913e+01 1.794500000000000028e+01 -9.398520999999999681e-01 2.526223973387754507e-01
-2.509700000000000131e+01 -4.599999999999999645e+00 8.205000000000000071e+00 -9.491737999999999786e+00 -2.226802122955469088e-01
-2.507999999999999829e+01 -5.678300000000000125e+00 1.222100000000000009e+01 6.067847999999999686e+00 -5.830495011629630714e-02
-2.507400000000000162e+01 -1.331499999999999950e+01 9.178699999999999193e+00 -4.163562999999999903e+00 4.342648045717248384e-02
-2.504599999999999937e+01 -5.354599999999999582e+00 1.310899999999999999e+01 8.738831000000000238e-01 4.003494902148851085e-03
-2.504100000000000037e+01 -6.680799999999999628e+00 1.189499999999999957e+01 -9.406940000000000301e-01 -5.945326722841665079e-02
-2.503000000000000114e+01 -1.930499999999999972e+01 1.887999999999999901e+01 1.307744999999999880e-01 4.200000000000000400e-01
-2.503000000000000114e+01 -1.905099999999999838e+01 1.798600000000000065e+01 -3.226598999999999995e-01 2.106669125413702659e-01
-2.503000000000000114e+01 -1.905099999999999838e+01 1.977400000000000091e+01 -8.960521999999999654e-01 4.200000000000000400e-01
-2.503000000000000114e+01 -1.760500000000000043e+01 2.057999999999999829e+01 7.387972999999999679e+00 4.200000000000000400e-01
-2.503000000000000114e+01 -1.615899999999999892e+01 1.977400000000000091e+01 2.463893000000000111e+00 4.200000000000000400e-01
-2.501999999999999957e+01 -1.033000000000000007e+01 1.419200000000000017e+01 2.896088000000000218e+00 -5.084773514397701415e-03
-2.498999999999999844e+01 -1.817599999999999838e+01 1.629700000000000060e+01 -1.541168000000000093e+00 2.498484278041102624e-01
-2.497500000000000142e+01 -1.212899999999999956e+01 5.541000000000000369e+00 -3.753083000000000169e+00 -2.021878668070778429e-01
-2.495700000000000074e+01 -3.230199999999999960e+00 6.462799999999999656e+00 -5.787371000000000265e+00 -2.230290939343374246e-01
-2.495599999999999952e+01 -3.861400000000000166e+00 1.228400000000000070e+01 -5.380112999999999701e-01 -2.082460861819984133e-01
-2.494999999999999929e+01 -5.863400000000000389e+00 2.553599999999999870e+00 -8.673486999999999725e+00 -2.216256580534551601e-01
-2.494999999999999929e+01 -5.752200000000000202e+00 1.755700000000000038e+00 -2.528951999999999867e+00 -2.216791570062031647e-01
-2.494699999999999918e+01 -1.691499999999999915e+01 1.138199999999999967e+01 -5.342267000000000543e-01 3.041926293784787474e-02
-2.494000000000000128e+01 -8.323299999999999699e+00 1.207699999999999996e+01 -2.257868999999999904e+00 2.219760602811982619e-01
-2.493199999999999861e+01 -3.585300000000000153e+00 1.313700000000000045e+01 -2.393282999999999938e-01 -2.738361807239041434e-01
-2.493100000000000094e+01 -6.958000000000000185e+00 1.292099999999999937e+01 1.314867999999999926e+00 2.200048992451992258e-01
-2.491199999999999903e+01 -1.180000000000000071e+01 4.780999999999999694e+00 -3.428415999999999908e+00 -1.989961187046866420e-01
-2.490399999999999991e+01 -3.000900000000000123e+00 5.694099999999999717e+00 -7.515763999999999889e+00 -2.231062001917300530e-01
-2.490299999999999869e+01 -1.433500000000000085e+01 1.835399999999999920e+01 4.042511999999999972e+01 2.476969543833860699e-01
-2.489000000000000057e+01 -1.303400000000000070e+01 1.735399999999999920e+01 -1.765140999999999849e+01 2.578968310893402505e-01
-2.487000000000000099e+01 -8.912699999999999179e+00 3.410299999999999887e+00 3.649090000000000167e+00 -2.199913771025091280e-01
-2.486799999999999855e+01 -1.749099999999999966e+01 1.248700000000000010e+01 -7.777275999999999634e-01 1.927306034179596811e-02
-2.486100000000000065e+01 -5.004299999999999748e+00 1.398700000000000010e+01 1.752483000000000013e+00 3.950567298824198340e-03
-2.486100000000000065e+01 -3.953699999999999992e+00 1.398700000000000010e+01 3.566111999999999949e+00 5.857482417768233862e-03
-2.485300000000000153e+01 -1.366999999999999993e+00 2.795900000000000052e+00 -1.309237000000000073e+01 -2.235359957448140589e-01
-2.485300000000000153e+01 -1.366999999999999993e+00 4.394099999999999895e+00 -1.879598999999999975e+01 -2.235435004344281662e-01
-2.485300000000000153e+01 -1.139999999999999902e+00 3.595000000000000195e+00 -2.779646999999999935e+01 -2.235870941906245579e-01
-2.485099999999999909e+01 -4.075999999999999623e+00 8.280100000000000238e-01 -3.846782000000000146e+00 -2.227809856001470856e-01
-2.483200000000000074e+01 -2.770099999999999785e+00 1.584600000000000009e+00 -1.588550000000000040e+01 -2.232195492424350891e-01
-2.482600000000000051e+01 -1.039400000000000013e+01 4.346499999999999808e+00 -1.049944999999999906e+00 -2.194950209731974800e-01
-2.481299999999999883e+01 -7.805100000000000371e+00 1.292099999999999937e+01 -1.112794999999999979e+00 2.208225079510096889e-01
-2.481299999999999883e+01 -6.110899999999999999e+00 1.292099999999999937e+01 3.993870999999999949e-01 2.193135628077328703e-01
-2.481200000000000117e+01 -4.115499999999999936e+00 1.138899999999999935e+01 -4.529260999999999981e-01 -2.069511896499521553e-01
-2.480699999999999861e+01 -1.288199999999999967e+01 8.478699999999999903e+00 -3.559431000000000012e+00 4.121783816518868881e-02
-2.479599999999999937e+01 -4.488900000000000112e+00 9.605499999999999261e+00 -1.440647000000000011e+00 -2.033802725788621257e-01
-2.478099999999999881e+01 -8.826999999999999957e+00 1.816999999999999948e+00 1.336026999999999987e+01 -2.201985476354698101e-01
-2.477899999999999991e+01 -7.461599999999999788e+00 1.210599999999999987e+01 -1.633852000000000082e+00 2.210242529767979247e-01
-2.476000000000000156e+01 -1.760699999999999932e+01 1.318500000000000050e+01 -1.125037000000000065e+00 5.024882221048605248e-03
-2.474800000000000111e+01 -5.426000000000000156e+00 1.227800000000000002e+00 -2.084366999999999859e+00 -2.224607388744497261e-01
-2.473499999999999943e+01 -1.439000000000000057e+01 9.378800000000000026e+00 -3.822658000000000111e+00 4.316584458704079974e-02
-2.472400000000000020e+01 -6.491299999999999848e+00 1.383600000000000030e+01 1.558286999999999978e+00 -6.002855965840043009e-04
-2.470700000000000074e+01 -6.949399999999999800e+00 3.417400000000000215e+00 -2.585440000000000182e+00 -2.218790976345648147e-01
-2.470400000000000063e+01 -4.199699999999999989e+00 1.039899999999999913e+01 -9.899037000000000530e-01 -2.051086326252230807e-01
-2.469000000000000128e+01 -3.089700000000000113e+00 7.294500000000000206e+00 -5.926635000000000097e+00 -2.235852103528935264e-01
-2.468900000000000006e+01 -9.624000000000000554e+00 1.394999999999999929e+01 -3.660705000000000098e+00 -5.037241976665520621e-03
-2.467399999999999949e+01 -8.823000000000000398e+00 -7.039999999999999591e-01 1.393136999999999937e+01 -2.212254216314275546e-01
-2.467299999999999827e+01 -1.753300000000000125e+01 1.411700000000000088e+01 1.056480000000000058e-01 -1.533409768859937163e-02
-2.466600000000000037e+01 -5.810800000000000409e+00 1.401099999999999923e+01 -3.372506000000000115e-01 9.222755308548569956e-04
-2.466400000000000148e+01 -1.059500000000000064e+01 1.506000000000000050e+01 1.478045000000000053e+00 -9.795571120992930397e-03
-2.466100000000000136e+01 -3.778300000000000214e+00 7.861799999999999677e+00 -7.181174000000000390e+00 -2.235545921931912372e-01
-2.466100000000000136e+01 -1.569999999999999929e+01 1.008799999999999919e+01 -3.559016000000000179e+00 -5.054397292681257758e-02
-2.466000000000000014e+01 -8.810000000000000497e+00 5.320000000000000284e-01 4.109455999999999776e+00 -2.209501239680179141e-01
-2.465700000000000003e+01 -1.563100000000000023e+01 1.909199999999999875e+01 1.170081000000000060e+01 2.371686620810523893e-01
-2.462300000000000111e+01 -7.914600000000000080e+00 3.322700000000000209e+00 2.186700000000000088e+00 -2.216845516971290286e-01
-2.460600000000000165e+01 -7.483299999999999841e+00 1.377100000000000080e+01 5.737420000000000186e+00 -4.061092187908265858e-03
-2.460600000000000165e+01 -4.203400000000000247e+00 8.637600000000000833e+00 -5.798210000000000086e+00 -2.236607500588805308e-01
-2.459700000000000131e+01 -8.270699999999999719e+00 2.627299999999999969e+00 1.100840999999999958e+01 -2.215280590964253116e-01
-2.457499999999999929e+01 -1.251399999999999935e+01 7.265600000000000058e+00 -3.360577000000000147e+00 -9.085393725462169445e-02
-2.456800000000000139e+01 -9.429800000000000182e+00 9.889799999999999702e-01 1.576036999999999910e+00 -2.209625726691214209e-01
-2.454599999999999937e+01 -1.786199999999999832e+01 1.482600000000000051e+01 -4.196146999999999849e+00 -3.331314519794369849e-02
-2.453999999999999915e+01 -1.125200000000000067e+01 1.590300000000000047e+01 3.280050000000000132e+00 2.679417154635524989e-01
-2.453699999999999903e+01 -1.664999999999999858e+01 1.153299999999999947e+01 5.900567999999999785e-02 2.182488143266215694e-02
-2.453000000000000114e+01 -8.343700000000000117e+00 7.145300000000000262e-02 6.724630999999999581e+00 -2.220284984409683082e-01
-2.452700000000000102e+01 -9.720700000000000784e+00 1.816999999999999948e+00 4.863454999999999862e-01 -2.209653764606685500e-01
-2.451699999999999946e+01 -6.563399999999999679e+00 2.821000000000000174e+00 -4.362229000000000134e+00 -2.226479039136175508e-01
-2.451500000000000057e+01 -9.889900000000000801e+00 3.531600000000000072e+00 2.075073999999999863e+00 -2.211801109874285964e-01
-2.451000000000000156e+01 -9.511300000000000310e+00 2.727100000000000080e+00 2.457719999999999905e-01 -2.212611563875349352e-01
-2.450499999999999901e+01 -1.845499999999999829e+01 2.025499999999999901e+01 -9.503789000000000264e-01 4.200000000000000400e-01
-2.450499999999999901e+01 -1.675499999999999901e+01 2.025499999999999901e+01 -3.400174999999999947e+00 4.200000000000000400e-01
-2.449299999999999855e+01 -7.832600000000000229e+00 1.969000000000000083e+00 6.802158999999999622e+00 -2.222000107195368224e-01
-2.448100000000000165e+01 -1.133000000000000007e+01 4.248000000000000220e+00 -4.619546999999999848e+00 -2.209695040454285331e-01
-2.447800000000000153e+01 -9.366899999999999338e+00 6.268100000000000060e-02 2.305442000000000213e+00 -2.217765082103015373e-01
-2.447200000000000131e+01 -1.859799999999999898e+01 1.747800000000000153e+01 -5.491013999999999617e-01 2.288165922781326689e-01
-2.447100000000000009e+01 -2.509999999999999787e+00 5.297500000000000320e+00 -3.100282999999999944e+01 -2.239291809619580464e-01
-2.447100000000000009e+01 -1.503500000000000014e+01 1.877299999999999969e+01 2.498658000000000001e+01 2.435048326203747560e-01
-2.445899999999999963e+01 -7.620899999999999785e+00 1.323099999999999943e+00 2.444033999999999818e+00 -2.224868524578088036e-01
-2.445899999999999963e+01 -6.259999999999999787e+00 2.120999999999999996e+00 -2.227462000000000053e+00 -2.229606563810322961e-01
-2.445299999999999940e+01 -1.832100000000000151e+01 1.667299999999999827e+01 -1.661972000000000005e+00 2.462409701521962868e-01
-2.445200000000000173e+01 -6.137400000000000411e+00 1.304599999999999982e+00 -1.526923000000000030e+00 -2.230838377218152535e-01
-2.445100000000000051e+01 -8.073999999999999844e+00 5.320000000000000284e-01 4.272419000000000189e+00 -2.224420299931357259e-01
-2.444300000000000139e+01 -9.637900000000000134e+00 -7.039999999999999591e-01 3.776821000000000206e-01 -2.221635650302270226e-01
-2.444300000000000139e+01 -8.008100000000000662e+00 -7.039999999999999591e-01 8.505608000000000501e+00 -2.228254249428990030e-01
-2.444200000000000017e+01 -1.813599999999999923e+01 1.571000000000000085e+01 -1.740005999999999942e+00 -5.312336082663524778e-02
-2.444200000000000017e+01 -1.256000000000000050e+01 5.071299999999999919e+00 -3.720868999999999982e+00 -2.035547324572091754e-01
-2.444200000000000017e+01 -1.256000000000000050e+01 6.010699999999999932e+00 -4.289640000000000342e+00 -7.819108327178772577e-02
-2.443499999999999872e+01 -1.263599999999999923e+01 1.657799999999999940e+01 -1.317523000000000000e+00 2.646968879348731707e-01
-2.441799999999999926e+01 -1.678099999999999881e+01 1.213899999999999935e+01 1.300480999999999998e+00 1.359808971422824843e-02
-2.440599999999999881e+01 -1.359800000000000075e+01 1.788299999999999912e+01 9.290831000000000728e+00 2.550180489512632320e-01
-2.439399999999999835e+01 -3.345699999999999896e+00 8.561799999999999855e+00 -4.523081999999999603e+00 -2.241157703665312140e-01
-2.438299999999999912e+01 -1.899999999999999911e+00 2.365299999999999958e+00 -4.423140999999999678e+01 -2.242105864579996000e-01
-2.438299999999999912e+01 -1.899999999999999911e+00 4.824699999999999989e+00 -7.229627999999999588e+01 -2.241701094358868329e-01
-2.438299999999999912e+01 -4.834900000000000198e+00 1.002000000000000002e+00 -3.315223000000000031e+00 -2.236969666857695493e-01
-2.437999999999999901e+01 -4.479000000000000092e+00 1.458300000000000018e+01 2.760555999999999788e+00 2.451318514210953838e-03
-2.437800000000000011e+01 -9.301999999999999602e+00 -1.479000000000000092e+00 9.050757999999999859e-01 -2.230596387277064829e-01
-2.437800000000000011e+01 -8.343999999999999417e+00 -1.479000000000000092e+00 7.268447000000000102e+00 -2.233086920448224544e-01
-2.437699999999999889e+01 -1.709400000000000119e+01 1.291999999999999993e+01 -3.539592999999999989e+00 2.160053442367275076e-03
-2.435600000000000165e+01 -1.376999999999999957e+01 8.817000000000000171e+00 -4.141309999999999825e+00 4.032404561394005438e-02
-2.435500000000000043e+01 -7.481900000000000439e+00 2.622700000000000031e+00 1.951627999999999918e+00 -2.228926589506363687e-01
-2.433599999999999852e+01 -3.103699999999999903e+00 1.261200000000000010e+01 -6.366083000000000158e-01 -2.087899228138301866e-01
-2.433599999999999852e+01 -3.103699999999999903e+00 1.366200000000000081e+01 -5.878826999999999803e-01 4.397960776444671815e-03
-2.431700000000000017e+01 -8.276500000000000412e+00 1.386299999999999955e+01 -1.234046999999999894e+00 -5.261485303146459964e-03
-2.431299999999999883e+01 -7.194200000000000372e+00 4.791699999999999848e-01 9.538512000000000768e+00 -2.233701462128601101e-01
-2.429400000000000048e+01 -1.328400000000000070e+01 7.987099999999999866e+00 -5.381187999999999860e+00 3.841348202477032348e-02
-2.428000000000000114e+01 -1.632000000000000028e+01 1.083300000000000018e+01 -2.171213999999999977e+00 -4.166441039308636102e-02
-2.427100000000000080e+01 -3.499699999999999811e+00 9.266000000000000014e+00 -1.319744999999999990e+01 -2.243377376946265600e-01
-2.425900000000000034e+01 -1.624299999999999855e+01 1.961700000000000088e+01 8.124268000000000711e+00 4.200000000000000955e-01
-2.425000000000000000e+01 -6.996000000000000441e+00 2.120999999999999996e+00 3.855167999999999928e+00 -2.234594370577175915e-01
-2.425000000000000000e+01 -6.884900000000000020e+00 1.323099999999999943e+00 6.446913999999999589e+00 -2.235669055124957227e-01
-2.421300000000000097e+01 -3.803100000000000147e+00 9.965999999999999304e+00 -7.814476999999999673e-01 -2.045512569823214333e-01
-2.420899999999999963e+01 -7.424699999999999633e+00 -3.137800000000000034e-01 1.056727000000000061e+01 -2.239211787334141890e-01
-2.420400000000000063e+01 -2.942600000000000104e+00 5.997499999999999609e+00 -1.125154999999999994e+01 -2.243300644289626944e-01
-2.420400000000000063e+01 -2.942600000000000104e+00 6.862800000000000011e+00 -7.272877000000000258e+00 -2.243591360768804888e-01
-2.419900000000000162e+01 -2.693099999999999827e+00 7.727100000000000080e+00 -9.112190999999999264e+00 -2.244345516980225663e-01
-2.419900000000000162e+01 -3.576099999999999834e+00 1.090300000000000047e+01 3.169552999999999954e-01 -2.063072181128896287e-01
-2.419800000000000040e+01 -1.063499999999999979e+01 3.907599999999999962e+00 -3.381559000000000204e+00 -2.228574483668804562e-01
-2.417999999999999972e+01 -1.898000000000000043e+01 1.835500000000000043e+01 5.288649000000000377e+00 2.152561002381428445e-01
-2.417999999999999972e+01 -1.898000000000000043e+01 1.940500000000000114e+01 1.311466000000000021e+00 4.199999999999999289e-01
-2.416400000000000148e+01 -8.844200000000000728e+00 1.381199999999999939e+01 -1.445240000000000080e+00 -5.777717823066711063e-03
-2.416400000000000148e+01 -2.424900000000000055e+00 8.486000000000000654e+00 -1.184895999999999994e+01 -2.245498397566009496e-01
-2.415200000000000102e+01 -1.208999999999999986e+01 4.311300000000000132e+00 -4.255111999999999561e+00 -2.231607266003288736e-01
-2.414999999999999858e+01 -3.961199999999999832e+00 1.052599999999999980e+00 -3.705820999999999810e+00 -2.244416835364661245e-01
-2.413599999999999923e+01 -1.760500000000000043e+01 2.032600000000000051e+01 -3.785995999999999917e+00 4.200000000000000400e-01
-2.412500000000000000e+01 -6.958000000000000185e+00 1.436700000000000088e+01 3.833609000000000044e-01 -6.026570525190466827e-03
-2.410500000000000043e+01 -3.478200000000000180e+00 1.174699999999999989e+01 -6.157987000000000183e-02 -2.078929586083589631e-01
-2.410099999999999909e+01 -2.754300000000000193e+00 9.246000000000000441e+00 -7.622265999999999764e+00 -2.246462747779819913e-01
-2.409299999999999997e+01 -1.430299999999999905e+00 3.125300000000000189e+00 -4.337225999999999715e+01 -2.247262065096441996e-01
-2.409299999999999997e+01 -1.430299999999999905e+00 4.064700000000000202e+00 -1.021967000000000070e+02 -2.246962126681673888e-01
-2.404299999999999926e+01 -1.691600000000000037e+01 1.348900000000000077e+01 8.261690999999999896e-01 -1.264694273314940533e-02
-2.403800000000000026e+01 -1.433500000000000085e+01 1.835399999999999920e+01 6.530593000000000359e+01 2.511107869336451914e-01
-2.403399999999999892e+01 -1.499600000000000044e+01 9.713599999999999568e+00 -3.255541000000000018e+00 4.175268055998622441e-02
-2.401899999999999835e+01 -2.601100000000000190e+00 2.208600000000000119e+00 -1.428686000000000078e+01 -2.247826721982316145e-01
-2.401099999999999923e+01 -5.328999999999999737e+00 1.451200000000000045e+01 -1.812931000000000070e+00 -1.681095507508919076e-03
-2.401099999999999923e+01 -3.629000000000000004e+00 1.451200000000000045e+01 -2.432333999999999996e+00 2.130565176790183250e-03
-2.400400000000000134e+01 -1.285699999999999932e+01 7.228100000000000414e+00 -4.591408000000000378e+00 1.001361513721961416e-02
-2.399599999999999866e+01 -3.236800000000000122e+00 1.889899999999999913e+00 -2.974542999999999893e+01 -2.247910677342847274e-01
-2.399200000000000088e+01 -1.581000000000000050e+01 1.891700000000000159e+01 2.155190999999999946e+01 2.405602256106154635e-01
-2.398900000000000077e+01 -1.010699999999999932e+01 1.456099999999999994e+01 -8.706846000000000529e+00 -9.748847005775130095e-03
-2.397299999999999898e+01 -1.747500000000000142e+01 1.441999999999999993e+01 -4.791186999999999863e+00 -3.326532841929559503e-02
-2.396099999999999852e+01 -9.994999999999999218e+00 5.693599999999999772e-01 1.313365999999999978e-01 -2.249942241548435473e-01
-2.395799999999999841e+01 -6.412300000000000111e+00 7.509200000000000319e-01 -3.417885999999999841e-02 -2.247793995459799188e-01
-2.393900000000000006e+01 -8.823000000000000398e+00 -2.022499999999999964e+00 4.535479000000000038e-01 -2.258004484004527135e-01
-2.393100000000000094e+01 -1.020199999999999996e+01 1.291700000000000070e+00 -4.291753999999999847e-01 -2.250061877648839581e-01
-2.393100000000000094e+01 -1.020199999999999996e+01 2.342299999999999827e+00 -1.596497000000000055e+00 -2.246987531952118755e-01
-2.393100000000000094e+01 -1.020199999999999996e+01 3.207599999999999785e+00 -1.863026999999999989e+00 -2.245320401625812978e-01
-2.389900000000000091e+01 -1.007699999999999996e+01 -1.183000000000000052e+00 6.116657999999999817e-02 -2.262223120494072925e-01
-2.389900000000000091e+01 -1.007699999999999996e+01 -2.250199999999999978e-01 8.155662999999999663e-01 -2.258043952444180325e-01
-2.389900000000000091e+01 -7.568999999999999950e+00 -1.183000000000000052e+00 5.931515000000000093e+00 -2.254845207192139045e-01
-2.389000000000000057e+01 -1.280799999999999983e+01 6.442700000000000315e+00 -7.105578000000000394e+00 -9.155429554385279001e-02
-2.388700000000000045e+01 -3.114700000000000024e+00 1.006300000000000061e+01 -3.435130000000000017e+00 -2.047471127451395145e-01
-2.386299999999999955e+01 -1.861899999999999977e+01 1.789099999999999824e+01 -1.117687000000000097e+00 2.282305669171441065e-01
-2.383699999999999974e+01 -1.638299999999999912e+01 1.109999999999999964e+01 8.518147000000000357e-01 -4.320571584743344851e-02
-2.381400000000000006e+01 -1.197000000000000064e+01 1.623499999999999943e+01 -1.871178000000000008e+00 2.684975825763764590e-01
-2.381400000000000006e+01 -1.052399999999999913e+01 1.542900000000000027e+01 -4.531644000000000005e+00 -1.401338213818031919e-02
-2.379599999999999937e+01 -1.569999999999999929e+01 1.008799999999999919e+01 -2.363793999999999951e+00 -6.121383838580225778e-02
-2.374800000000000111e+01 -1.397799999999999976e+01 8.335300000000000153e+00 -4.459046999999999983e+00 3.661732641277084394e-02
-2.374399999999999977e+01 -7.976099999999999746e+00 1.418800000000000061e+01 -5.017998999999999654e+00 -7.371900576765418218e-03
-2.373000000000000043e+01 -1.934199999999999919e+00 8.955000000000000071e+00 -2.036513000000000062e+01 -2.251793722188237257e-01
-2.371799999999999997e+01 -1.672299999999999898e+01 1.244200000000000017e+01 -2.942064999999999819e-01 -1.063236003743311335e-04
-2.371799999999999997e+01 -1.651399999999999935e+01 1.170599999999999952e+01 3.145522000000000151e+00 9.411426943462792780e-03
-2.370799999999999841e+01 -6.028999999999999915e+00 1.445400000000000063e+01 -4.329235999999999862e+00 -5.561526172314834940e-03
-2.370100000000000051e+01 -2.028799999999999937e+00 4.505399999999999849e+00 -6.477002000000000237e+01 -2.252664554476629388e-01
-2.368299999999999983e+01 -1.794399999999999906e+01 1.517900000000000027e+01 -2.736915999999999904e+00 -5.741728085080059774e-02
-2.368199999999999861e+01 -1.284999999999999964e+01 5.541000000000000369e+00 -4.535735999999999990e+00 -8.301554809647955502e-02
-2.368199999999999861e+01 -1.262299999999999933e+01 4.741900000000000226e+00 -6.601585000000000036e+00 -2.267550355405467677e-01
-2.367800000000000082e+01 -1.441999999999999993e+01 9.191800000000000637e+00 -3.626533999999999924e+00 3.861245700658424290e-02
-2.367399999999999949e+01 -1.820200000000000173e+01 1.692000000000000171e+01 -2.751190999999999942e+00 2.498140424201597543e-01
-2.367399999999999949e+01 -1.799299999999999855e+01 1.618400000000000105e+01 -1.177410000000000068e+01 2.658039777877524434e-01
-2.365500000000000114e+01 -1.812999999999999901e+01 1.973000000000000043e+01 -2.576092000000000048e+00 4.200000000000000400e-01
-2.365500000000000114e+01 -1.707999999999999829e+01 1.973000000000000043e+01 1.344683999999999990e+00 4.199999999999999289e-01
-2.363100000000000023e+01 -1.994299999999999962e+00 8.016299999999999315e+00 -8.347457999999999601e+00 -2.253039692003166172e-01
-2.361899999999999977e+01 -1.124499999999999922e+01 3.855300000000000171e+00 -5.849281000000000397e+00 -2.267732185977786585e-01
-2.361700000000000088e+01 -2.706500000000000128e+00 6.332600000000000229e+00 -4.733609999999999651e+00 -2.253271016717134645e-01
-2.361700000000000088e+01 -2.497399999999999842e+00 7.068599999999999994e+00 -5.827974000000000210e+00 -2.253185852784860277e-01
-2.360300000000000153e+01 -9.598000000000000753e+00 -1.957999999999999963e+00 2.374779000000000195e+00 -2.281850430774791660e-01
-2.360300000000000153e+01 -8.048000000000000043e+00 -1.957999999999999963e+00 1.465708000000000055e+01 -2.271686532214847176e-01
-2.360099999999999909e+01 -6.698699999999999655e+00 6.670999999999999847e-03 1.511082999999999998e+01 -2.262402980431904298e-01
-2.355900000000000105e+01 -1.510999999999999943e+01 1.864999999999999858e+01 1.897261999999999915e+01 2.481109484631810191e-01
-2.355900000000000105e+01 -1.379100000000000037e+01 1.791499999999999915e+01 1.033160000000000025e+02 2.574337653911398793e-01
-2.355600000000000094e+01 -2.097199999999999953e+00 2.751900000000000013e+00 -1.651245000000000118e+01 -2.256149632293183716e-01
-2.355600000000000094e+01 -9.616099999999999426e+00 1.416399999999999970e+01 -3.383535999999999877e+00 -9.210127554189866117e-03
-2.355399999999999849e+01 -1.862300000000000111e+01 1.887999999999999901e+01 1.740242999999999984e+00 4.200000000000000400e-01
-2.353900000000000148e+01 -2.917199999999999793e+00 1.225699999999999967e+01 2.728015000000000079e+00 -2.088547055503883476e-01
-2.352100000000000080e+01 -1.198199999999999932e+00 8.955000000000000071e+00 -2.107667000000000179e+00 -2.254606727486463957e-01
-2.350300000000000011e+01 -1.766799999999999926e+00 3.595000000000000195e+00 -4.233200999999999681e+01 -2.256450372006896521e-01
-2.350300000000000011e+01 -5.033900000000000041e+00 1.177699999999999969e+00 -1.451656999999999975e+00 -2.260603038744124493e-01
-2.349399999999999977e+01 -3.971400000000000041e+00 1.274599999999999955e+00 -2.325185999999999975e+00 -2.259604167467724467e-01
-2.348600000000000065e+01 -4.479000000000000092e+00 1.483699999999999974e+01 -1.618401999999999896e+00 -2.357118191141075684e-03
-2.348600000000000065e+01 -3.032900000000000151e+00 1.403100000000000058e+01 -7.083617000000000274e+00 5.569979580435441757e-04
-2.348600000000000065e+01 -2.778999999999999915e+00 1.313700000000000045e+01 2.661326999999999998e+00 1.894392293326501581e-02
-2.346399999999999864e+01 -1.329199999999999982e+01 1.700799999999999912e+01 2.724622000000000099e+00 2.647594103659728360e-01
-2.345799999999999841e+01 -1.350799999999999912e+01 7.575300000000000367e+00 -4.955083000000000126e+00 3.423486068418383349e-02
-2.345499999999999829e+01 -2.414699999999999847e+00 9.795500000000000540e+00 -1.406457999999999942e+01 -2.255301777250947881e-01
-2.343400000000000105e+01 -1.045100000000000051e+01 -1.166900000000000048e+00 9.105839999999999490e-01 -2.301605116545929752e-01
-2.343400000000000105e+01 -1.045100000000000051e+01 -4.970600000000000018e-01 1.266045000000000087e+01 -2.299006181543660765e-01
-2.342599999999999838e+01 -2.681299999999999795e+00 5.739099999999999646e+00 -8.266099999999999781e+00 -2.256644454042235348e-01
-2.342599999999999838e+01 -2.472199999999999953e+00 5.003000000000000114e+00 -4.028732000000000113e+01 -2.256988015597383712e-01
-2.342099999999999937e+01 -1.274199999999999999e+00 9.554899999999999949e+00 -1.163771000000000111e+00 -2.255766988996373568e-01
-2.337500000000000000e+01 -1.636899999999999977e+01 1.056400000000000006e+01 1.500596999999999959e+00 -5.826664306114801711e-02
-2.334600000000000009e+01 -1.700100000000000122e+01 1.398099999999999987e+01 -3.623673999999999840e+00 -3.128250607746065060e-02
-2.334299999999999997e+01 -1.664900000000000091e+01 1.305599999999999916e+01 -1.544030999999999931e+00 -1.441567106411379903e-02
-2.330900000000000105e+01 -7.080899999999999750e+00 -8.700999999999999845e-01 6.116018999999999650e+00 -2.276960949516103061e-01
-2.330499999999999972e+01 -3.380000000000000226e-01 9.439999999999999503e+00 2.027859999999999996e+00 -2.257108385538451611e-01
-2.328900000000000148e+01 -1.111999999999999922e+01 1.591000000000000014e+01 2.818896000000000068e+00 2.708328067751416546e-01
-2.327899999999999991e+01 -2.944599999999999884e+00 1.086400000000000077e+01 -4.795040000000000191e+00 -2.068006752030911444e-01
-2.327899999999999991e+01 -2.944599999999999884e+00 1.172899999999999920e+01 2.752721999999999891e+00 -2.082823838408849881e-01
-2.326599999999999824e+01 -1.580799999999999983e+01 1.862900000000000134e+01 2.616591999999999807e+00 2.465599283278238352e-01
-2.323100000000000165e+01 -6.958000000000000185e+00 1.462100000000000044e+01 -6.158501000000000225e+00 2.188000201911664833e-01
-2.321199999999999974e+01 -1.208999999999999986e+01 4.311300000000000132e+00 -8.322867999999999711e+00 -2.300632280136186147e-01
-2.320400000000000063e+01 -8.852000000000000313e+00 1.414000000000000057e+01 2.313998999999999917e+00 2.209048338213455975e-01
-2.319800000000000040e+01 -1.294300000000000006e+00 8.283699999999999619e+00 -2.230926999999999882e+00 -2.258720470114766177e-01
-2.319000000000000128e+01 -1.307499999999999929e+01 6.875300000000000189e+00 -5.533985999999999628e+00 8.350104461134245926e-03
-2.318499999999999872e+01 -2.006499999999999950e+00 7.465200000000000280e+00 -7.103182000000000329e+00 -2.259406862925096848e-01
-2.316799999999999926e+01 -1.499600000000000044e+01 9.713599999999999568e+00 -2.120843999999999951e+00 3.817826196028267782e-02
-2.316499999999999915e+01 -1.019400000000000084e+01 -1.618000000000000105e+00 1.310473000000000054e-01 -2.318752295770677707e-01
-2.316300000000000026e+01 -1.835200000000000031e+01 1.745799999999999841e+01 -6.330917000000000350e+00 2.438618087466307149e-01
-2.313700000000000045e+01 -1.664999999999999858e+01 1.153299999999999947e+01 1.580657999999999896e+00 2.554569515567742255e-01
-2.313700000000000045e+01 -2.608999999999999986e+00 2.321499999999999897e+00 -1.217584000000000088e+01 -2.264519722471707852e-01
-2.312999999999999901e+01 -3.236800000000000122e+00 1.889899999999999913e+00 -7.330592000000000219e+00 -2.266015156138090902e-01
-2.312900000000000134e+01 -1.760500000000000043e+01 1.931899999999999906e+01 -4.951738999999999891e+00 4.200000000000000400e-01
-2.312399999999999878e+01 -8.823000000000000398e+00 -2.254000000000000004e+00 3.256648000000000209e+00 -2.302149439619622096e-01
-2.312399999999999878e+01 -7.504500000000000171e+00 -1.518899999999999917e+00 1.533784999999999954e+01 -2.288525199022183598e-01
-2.310900000000000176e+01 -7.706199999999999717e-01 8.510199999999999321e+00 -1.071034999999999959e+00 -2.259609078177181318e-01
-2.308099999999999952e+01 -1.061800000000000033e+01 3.400199999999999889e+00 -3.008881999999999834e+00 -2.300843557513552184e-01
-2.308099999999999952e+01 -1.052699999999999925e+01 1.816999999999999948e+00 2.822264999999999913e-01 -2.313030995344699525e-01
-2.308099999999999952e+01 -1.040900000000000070e+01 2.664099999999999913e+00 5.173480999999999774e+00 -2.304238199313122792e-01
-2.307000000000000028e+01 -5.733900000000000219e+00 9.102799999999999780e-01 9.368817999999999202e+00 -2.275493938947041883e-01
-2.305099999999999838e+01 5.557400000000000118e-01 9.439999999999999503e+00 1.958011000000000057e-01 -2.259678960842681494e-01
-2.304400000000000048e+01 -1.075500000000000078e+01 8.983100000000000529e-01 3.866336000000000217e-01 -2.328090421550107203e-01
-2.303200000000000003e+01 -1.280100000000000016e+01 1.661100000000000065e+01 4.220842000000000205e+00 2.687871885897150648e-01
-2.302199999999999847e+01 -1.425600000000000023e+01 1.848000000000000043e+01 7.524572000000000571e+01 2.543941562226583741e-01
-2.301800000000000068e+01 -1.678099999999999881e+01 1.213899999999999935e+01 3.881820999999999744e-01 -4.326069721371923228e-03
-2.300100000000000122e+01 -1.115099999999999980e+01 -8.319999999999999618e-01 -1.036558000000000090e+00 -2.353210109200186417e-01
-2.298799999999999955e+01 -1.404100000000000037e+01 8.005900000000000460e+00 -4.815169000000000032e+00 3.253179475652070302e-02
-2.298199999999999932e+01 -1.311700000000000088e+01 5.973600000000000243e+00 -5.176548999999999623e+00 -4.243505298459811399e-03
-2.298199999999999932e+01 -1.300600000000000023e+01 5.175699999999999967e+00 -4.788719000000000392e+00 5.655461760382326196e-03
-2.298000000000000043e+01 -1.728599999999999914e+00 1.028999999999999915e+01 -5.504558999999999980e-01 -2.260887607181654990e-01
-2.298000000000000043e+01 -8.633300000000000418e-01 1.028999999999999915e+01 -1.461374000000000006e-01 -2.260564729739170942e-01
-2.298000000000000043e+01 1.873299999999999965e-01 8.589999999999999858e+00 1.360127000000000086e+00 -2.260765703875654009e-01
-2.298000000000000043e+01 1.873299999999999965e-01 1.028999999999999915e+01 -1.514823999999999893e-01 -2.260262493863311184e-01
-2.297800000000000153e+01 -1.447799999999999976e+01 8.888400000000000745e+00 -4.015258000000000216e+00 3.463960378796356737e-02
