7.303799999999999670e+01 7.213899999999999757e+00 -4.867899999999999672e+00 -1.956939999999999902e+00 -2.776895026637452579e-01
7.305100000000000193e+01 -8.944499999999999673e-01 1.766900000000000048e+01 2.300842000000000098e+01 -2.044844527303216475e-01
7.305400000000000205e+01 2.496699999999999875e+01 1.882300000000000040e+01 -5.540221999999999980e+00 -7.697594002157485960e-02
7.306000000000000227e+01 6.914900000000000269e+00 -4.233200000000000074e+00 -3.115200000000000191e+00 -1.694717439480834531e-01
7.307099999999999795e+01 2.487699999999999889e+01 2.686599999999999877e+00 -3.178017999999999788e+00 -6.966398646896440616e-02
7.307200000000000273e+01 2.249800000000000111e+01 1.526200000000000045e+01 -3.864752000000000187e+00 -2.065632241937511715e-01
7.307299999999999329e+01 2.601000000000000156e+01 1.182000000000000028e+01 -5.956446999999999825e+00 -2.071209352540093751e-01
7.307299999999999329e+01 2.601000000000000156e+01 1.275999999999999979e+01 -1.179015000000000057e+01 -2.070541770624609312e-01
7.307399999999999807e+01 1.417200000000000060e+01 4.272499999999999964e+00 -4.997691999999999801e+00 -6.711142087826175995e-02
7.307599999999999341e+01 2.740200000000000102e+01 1.954100000000000037e+01 -2.090412000000000103e-01 -7.645389509432599928e-02
7.307699999999999818e+01 -3.206700000000000106e+00 3.635400000000000187e+00 6.242987000000000286e+00 -1.692020497941975898e-01
7.308199999999999363e+01 4.313699999999999868e+00 2.108699999999999974e+01 3.064900000000000091e+01 -2.045175031211491079e-01
7.308499999999999375e+01 1.921300000000000097e+01 -1.429100000000000037e+00 1.849660000000000082e+00 -6.779686380108476684e-02
7.308700000000000330e+01 1.418200000000000038e+01 5.855299999999999727e+00 -9.325628000000000029e+00 -6.728637275292836950e-02
7.309999999999999432e+01 5.745000000000000107e+00 -3.463200000000000056e+00 -1.031891000000000069e+01 -1.694059717515399022e-01
7.310299999999999443e+01 2.366300000000000026e+01 1.415399999999999991e+01 -6.976843999999999824e+00 -2.067515220161887934e-01
7.310899999999999466e+01 1.273600000000000065e+01 -3.881899999999999906e+00 1.157640999999999920e+01 -6.614005954469100168e-02
7.311199999999999477e+01 2.820400000000000063e+01 4.440000000000000058e-01 -1.410724000000000089e+00 -7.015888477145068580e-02
7.311299999999999955e+01 9.518599999999999284e+00 -6.289500000000000313e+00 4.961014999999999731e+00 -2.781589707909562503e-01
7.311499999999999488e+01 1.001999999999999957e+01 2.332999999999999829e+01 -1.260488999999999926e+01 -2.047389509340368507e-01
7.312300000000000466e+01 2.434400000000000119e+01 2.667200000000000060e+01 1.892992999999999926e+00 -2.879126507427172132e-01
7.312999999999999545e+01 2.226800000000000068e+01 1.622200000000000131e+01 2.508974999999999955e+00 -2.064600417065106941e-01
7.313599999999999568e+01 1.565099999999999980e+01 3.449100000000000055e+00 -3.230548000000000197e+00 -6.740736594724533459e-02
7.314400000000000546e+01 2.851399999999999935e+01 2.331800000000000139e+01 -3.892569999999999908e+01 -7.505672034417013028e-02
7.314499999999999602e+01 2.243199999999999861e+01 3.117800000000000082e+01 1.355467999999999940e+01 -2.871643711395218679e-01
7.314499999999999602e+01 2.264099999999999824e+01 3.044200000000000017e+01 1.545908999999999978e+01 -2.872607845557772488e-01
7.315399999999999636e+01 -8.299999999999999600e-01 2.238200000000000145e+01 9.321585999999999483e-01 -2.041266089886402124e-01
7.315399999999999636e+01 -6.029900000000000260e-01 2.318100000000000094e+01 1.870420999999999889e-01 -2.040772216473283329e-01
7.315399999999999636e+01 6.899999999999999467e-01 2.390200000000000102e+01 -2.243005000000000138e+01 -2.040855083156174476e-01
7.315399999999999636e+01 5.501000000000000334e+00 2.015399999999999991e+01 8.476355999999999113e+00 -2.046782063294806109e-01
7.315999999999999659e+01 2.905799999999999983e+01 1.964900000000000091e+01 -5.246646000000000143e+00 -7.624722956825338849e-02
7.316500000000000625e+01 1.425099999999999945e+01 -3.949800000000000200e+00 1.596049000000000007e+01 -6.647041851140558788e-02
7.317199999999999704e+01 1.739600000000000080e+01 9.164500000000000313e+00 -1.516744000000000092e+00 -2.065731986874509707e-01
7.317300000000000182e+01 1.109399999999999942e+01 -5.216300000000000381e+00 7.023767999999999567e+00 -2.783511021431167021e-01
7.317300000000000182e+01 7.653999999999999915e+00 2.683399999999999963e+01 1.052510000000000012e+01 -4.164437642098415826e-01
7.317799999999999727e+01 -6.985200000000000298e-01 2.155099999999999838e+01 2.090720000000000134e+00 -2.041970018208575932e-01
7.318600000000000705e+01 2.364799999999999969e+01 1.796099999999999852e+01 -6.585391999999999690e+00 -7.742623468948660326e-02
7.318699999999999761e+01 2.245700000000000074e+01 1.718100000000000094e+01 -2.808666999999999803e+00 -2.063925559691485445e-01
7.318699999999999761e+01 2.919300000000000139e+01 2.243900000000000006e+01 7.777211999999999570e+00 -7.529391856078114509e-02
7.318999999999999773e+01 1.478899999999999970e+01 2.956599999999999895e+01 -1.089727000000000068e+01 -1.682775279763944198e-01
7.319299999999999784e+01 1.785300000000000153e+01 -4.197000000000000064e+00 1.116145000000000032e+01 -6.725704587876615848e-02
7.319499999999999318e+01 -5.184400000000000119e+00 7.521200000000000330e+00 3.078081000000000067e+00 -1.829882558929911140e-01
7.319799999999999329e+01 1.731599999999999895e+01 -1.222299999999999942e+00 3.167370999999999981e+01 -6.737413546869029657e-02
7.320300000000000296e+01 1.513700000000000045e+01 1.086799999999999919e-02 1.591625999999999941e+01 -6.696338543846416802e-02
7.320300000000000296e+01 1.513700000000000045e+01 2.276100000000000012e+00 -4.361067000000000249e+00 -6.716802931935191012e-02
7.320600000000000307e+01 -2.745000000000000107e+00 1.729799999999999827e+01 -1.365858999999999934e+00 -1.837175486543889680e-01
7.320699999999999363e+01 1.180199999999999999e-01 1.857600000000000051e+01 7.212896999999999892e+00 -2.044722771648375681e-01
7.321699999999999875e+01 2.538400000000000034e+01 5.424400000000000333e+00 -4.188533999999999757e+00 -7.018179064879791207e-02
7.321800000000000352e+01 -4.781100000000000350e+00 4.061899999999999622e+00 1.569274000000000058e+00 -1.690907477219246446e-01
7.322100000000000364e+01 4.708300000000000374e+00 -3.520399999999999974e+00 -2.182287000000000088e+00 -1.692546549340435413e-01
7.322400000000000375e+01 8.897500000000000853e+00 2.789199999999999946e+01 1.109595000000000020e+01 -4.165646054999269099e-01
7.322799999999999443e+01 1.612500000000000000e+01 3.040399999999999991e+01 5.475348000000000326e+00 -1.676275168523030934e-01
7.323000000000000398e+01 8.893599999999999284e+00 2.601899999999999835e+01 -1.345777999999999963e+01 -4.163779086847830269e-01
7.323499999999999943e+01 2.535399999999999920e+01 2.640400000000000080e+00 -3.178017999999999788e+00 -6.977903356469020157e-02
7.323999999999999488e+01 1.614199999999999946e+01 8.630699999999999150e+00 -5.495573000000000263e+00 -2.064985642866318527e-01
7.324299999999999500e+01 2.538100000000000023e+01 1.025699999999999967e+01 -5.020601000000000091e+00 -2.071641980497093416e-01
7.325100000000000477e+01 6.761999999999999567e+00 1.850900000000000034e+01 -7.772109999999999630e+00 -2.049112242951621199e-01
7.325100000000000477e+01 8.162000000000000810e+00 1.850900000000000034e+01 -2.006675999999999860e+01 -2.050180445027618981e-01
7.326500000000000057e+01 2.003099999999999881e+01 4.977000000000000313e+00 -1.531109999999999971e+00 -6.873246761259398097e-02
7.326500000000000057e+01 2.003099999999999881e+01 5.842299999999999827e+00 -4.125817999999999763e+00 -6.884619884158706127e-02
7.326500000000000057e+01 2.003099999999999881e+01 6.781699999999999839e+00 -4.696222999999999814e+00 -2.069495641696198207e-01
7.326500000000000057e+01 2.003099999999999881e+01 7.647000000000000242e+00 -8.183112999999999637e-01 -2.068951942892405804e-01
7.326500000000000057e+01 -1.853799999999999892e-01 1.787600000000000122e+01 1.535546000000000078e+01 -2.045126342519724694e-01
7.326699999999999591e+01 1.647899999999999920e+01 3.131400000000000006e+01 2.662050999999999945e+00 -1.670770981636183483e-01
7.326699999999999591e+01 1.673300000000000054e+01 3.220799999999999841e+01 8.754465000000000163e-01 -1.665495557803790827e-01
7.326699999999999591e+01 1.806400000000000006e+01 3.313000000000000256e+01 5.931155000000000399e+00 -1.658750062178046825e-01
7.327400000000000091e+01 -4.560699999999999754e+00 1.557799999999999940e+01 5.809612999999999694e+00 -1.832037304216221352e-01
7.327400000000000091e+01 -4.560699999999999754e+00 1.644300000000000139e+01 -2.881535000000000069e-01 -1.832201883692160527e-01
7.328100000000000591e+01 2.303699999999999903e+01 2.782000000000000028e+00 4.642533999999999828e-01 -6.922298214489615298e-02
7.328199999999999648e+01 1.263400000000000034e+01 2.221300000000000097e+01 -2.578272000000000119e+01 -2.050552117533964991e-01
7.328199999999999648e+01 1.403400000000000070e+01 2.221300000000000097e+01 -3.327477999999999980e+01 -2.051754746254485229e-01
7.328900000000000148e+01 8.590199999999999392e+00 2.694900000000000162e+01 5.878104999999999691e+00 -4.164674947786137227e-01
7.329099999999999682e+01 -6.575999999999999623e+00 4.227699999999999569e+00 1.221314000000000011e+00 -1.689055518029435876e-01
7.329099999999999682e+01 -6.575999999999999623e+00 6.978299999999999947e+00 1.554897999999999891e+00 -1.826994752633265828e-01
7.329099999999999682e+01 2.655499999999999972e+01 3.568299999999999805e+00 -3.144976999999999911e+00 -7.020293844961854324e-02
7.329099999999999682e+01 2.655499999999999972e+01 4.507699999999999818e+00 -4.065971000000000224e+00 -7.033909720041109370e-02
7.329399999999999693e+01 9.338499999999999801e+00 2.498300000000000054e+01 -3.915964000000000311e+01 -2.045468874692489281e-01
7.329699999999999704e+01 -2.376399999999999846e+00 6.860100000000000087e-01 -1.638644999999999996e+01 -1.688749403424636142e-01
7.329999999999999716e+01 2.502400000000000091e+01 9.454299999999999926e+00 -4.443509999999999849e+00 -2.071838100382172032e-01
7.329999999999999716e+01 9.829000000000000625e+00 2.047700000000000031e+01 1.975339999999999918e+01 -2.049786033497455195e-01
7.330299999999999727e+01 2.110200000000000031e+01 3.296200000000000330e+01 6.265827999999999953e+00 -2.867648749622150328e-01
7.330599999999999739e+01 8.799899999999999167e+00 1.915500000000000114e+01 -7.728627000000000358e+00 -2.050125155716446268e-01
7.330800000000000693e+01 1.954100000000000037e+01 3.369100000000000250e+01 3.284752000000000294e+01 -2.863821324378487687e-01
7.330899999999999750e+01 -7.310499999999999776e-01 -1.255199999999999927e-01 2.621656000000000208e+00 -1.689782087125993315e-01
7.331600000000000250e+01 -4.552999999999999936e+00 1.708800000000000097e+01 -3.277896999999999839e+00 -1.832436384895222425e-01
7.332800000000000296e+01 7.682000000000000384e+00 -5.625300000000000189e+00 5.801959000000000283e-02 -2.778284587818079521e-01
7.332899999999999352e+01 9.606700000000000017e+00 2.422400000000000020e+01 -5.748496000000000272e+00 -2.046333981233671717e-01
7.333100000000000307e+01 -5.519000000000000128e+00 1.333600000000000030e+01 3.592245000000000132e+00 -1.829449125024613654e-01
7.333899999999999864e+01 2.740500000000000114e+01 4.440000000000000058e-01 -1.370341000000000031e+00 -6.997626127030764920e-02
7.333899999999999864e+01 2.900300000000000011e+01 4.440000000000000058e-01 -1.145529999999999937e+01 -7.034153686414519602e-02
7.334399999999999409e+01 -5.632399999999999629e+00 1.084399999999999942e+01 3.117423000000000055e+00 -1.829059372964843000e-01
7.334399999999999409e+01 -5.423300000000000232e+00 1.010800000000000054e+01 1.657859999999999889e+00 -1.829537925318977520e-01
7.334499999999999886e+01 1.827799999999999869e+01 -3.795599999999999863e+00 3.606354000000000326e+01 -6.739824924769846626e-02
7.334499999999999886e+01 1.827799999999999869e+01 -2.930400000000000116e+00 7.331432999999999822e+01 -6.746787736577089523e-02
7.334600000000000364e+01 2.177700000000000102e+01 3.258500000000000174e+00 -4.854492000000000251e-01 -6.896815660559124650e-02
7.335200000000000387e+01 9.190300000000000580e+00 3.006899999999999906e+01 -2.061336000000000013e+01 -1.688381088821518383e-01
7.335200000000000387e+01 1.013000000000000078e+01 3.006899999999999906e+01 -3.231056000000000239e+01 -1.686941177767238842e-01
7.335200000000000387e+01 1.878000000000000114e+01 -2.129100000000000215e+00 3.002396999999999849e+01 -6.765348812736482476e-02
7.335299999999999443e+01 -5.697300000000000253e+00 1.195700000000000074e+01 6.962677000000000227e+00 -1.828964361687041573e-01
7.336299999999999955e+01 4.477999999999999758e+00 -5.413000000000000256e+00 -1.348949999999999960e+01 -1.689757468570745880e-01
7.336299999999999955e+01 2.553999999999999915e+01 1.351999999999999957e+01 -6.355261999999999745e+01 -2.069398645510804324e-01
7.336400000000000432e+01 1.166999999999999993e+01 2.962500000000000000e+01 1.548103000000000051e+01 -1.687060267188536522e-01
7.336400000000000432e+01 1.718599999999999994e+01 4.639999999999999680e+00 2.655243000000000109e+01 -6.795513351170340277e-02
7.336599999999999966e+01 5.888700000000000045e-01 -5.918799999999999617e-01 3.425028999999999879e+00 -1.691085703021240616e-01
7.337000000000000455e+01 2.399000000000000021e+00 2.291100000000000136e+01 -8.849795000000000300e+00 -2.042622111930540996e-01
7.337000000000000455e+01 1.650000000000000000e+01 -4.979199999999999626e+00 2.291528999999999883e+01 -6.692011551775059464e-02
7.337099999999999511e+01 1.122700000000000031e+01 -9.727000000000000313e+00 5.448127000000000386e+00 -2.786436138220315106e-01
7.337399999999999523e+01 1.041399999999999970e+01 -6.171400000000000219e+00 9.612152000000000029e+00 -2.783027232928563244e-01
7.337600000000000477e+01 1.993299999999999983e+01 -1.338899999999999979e+00 -2.441720000000000113e+00 -6.800063153632217305e-02
7.337699999999999534e+01 3.079699999999999882e+00 -1.127699999999999925e+00 3.020290000000000141e+00 -1.694079130585982862e-01
7.337999999999999545e+01 -3.561300000000000132e+00 1.737500000000000000e+01 -4.646109000000000044e+00 -1.835253677162266561e-01
7.338299999999999557e+01 2.564600000000000080e+01 1.085299999999999976e+01 -3.204166999999999987e+00 -2.071352132206542296e-01
7.339000000000000057e+01 2.391199999999999903e+01 2.737199999999999989e+01 1.382757000000000014e+00 -2.877734639262256033e-01
7.339900000000000091e+01 2.569000000000000128e+01 1.922100000000000009e+01 -4.051135000000000375e+00 -7.676098111290760584e-02
7.340200000000000102e+01 2.773400000000000176e+01 -3.160000000000000031e-01 -2.682922000000000029e+00 -6.995358523979709753e-02
7.340200000000000102e+01 2.773400000000000176e+01 1.203999999999999959e+00 -5.666100000000000136e+00 -7.015456567605478366e-02
7.340200000000000102e+01 2.867399999999999949e+01 -3.160000000000000031e-01 -3.716804999999999914e+00 -7.016612852678547063e-02
7.340200000000000102e+01 2.867399999999999949e+01 1.203999999999999959e+00 -8.788225999999999871e+00 -7.037085670874908272e-02
7.340500000000000114e+01 -4.853399999999999714e+00 9.494300000000000850e+00 -4.173550999999999789e+00 -1.830987602775789869e-01
7.340500000000000114e+01 -4.644300000000000317e+00 8.758300000000000196e+00 -3.165488999999999997e+00 -1.831481835754573406e-01
7.340999999999999659e+01 2.502400000000000091e+01 5.745099999999999874e+00 -1.552582999999999880e-01 -7.013910944145929083e-02
7.341400000000000148e+01 1.904500000000000171e+01 8.427799999999999514e+00 -2.881073999999999913e+00 -2.067522735150408852e-01
7.341500000000000625e+01 8.860900000000000887e+00 2.930900000000000105e+01 -6.679299999999999571e+00 -1.692989705413512347e-01
7.342300000000000182e+01 5.790499999999999758e+00 1.981899999999999906e+01 5.826740000000000030e+00 -2.047325410735482409e-01
7.343500000000000227e+01 3.383100000000000218e+00 -1.827700000000000102e+00 -3.672988000000000142e+00 -1.693547751659798262e-01
7.343800000000000239e+01 2.216700000000000159e+01 3.215800000000000125e+01 -6.344140000000000335e-01 -2.870610937844930710e-01
7.343899999999999295e+01 9.148999999999999133e+00 2.645299999999999940e+01 -4.997778000000000276e+00 -4.164270132073032427e-01
7.343899999999999295e+01 1.652599999999999980e+01 -6.076399999999999579e-01 4.583097000000000065e+01 -6.726510216186068480e-02
7.344799999999999329e+01 -1.327099999999999946e+00 1.717800000000000082e+01 2.069950000000000045e+01 -2.045116530773082864e-01
7.345000000000000284e+01 5.022000000000000242e+00 2.092899999999999849e+01 1.416422000000000025e+02 -2.045876011475424860e-01
7.345000000000000284e+01 9.129099999999999326e+00 2.855000000000000071e+01 2.207467999999999986e+00 -1.696678684302606599e-01
7.345199999999999818e+01 1.282199999999999918e+01 1.920200000000000173e+01 -2.560613000000000028e+01 -2.053414267232961943e-01
7.345199999999999818e+01 1.422199999999999953e+01 1.920200000000000173e+01 -2.665245000000000175e+01 -2.054632318964935978e-01
7.345600000000000307e+01 8.634100000000000108e+00 -6.267199999999999882e+00 8.563070999999999877e-01 -2.780261142306141853e-01
7.345600000000000307e+01 3.658799999999999830e+00 2.188899999999999935e+01 2.462454999999999927e+01 -2.044213860329823773e-01
7.345999999999999375e+01 2.384400000000000119e+01 7.141399999999999970e+00 1.396780000000000044e+01 -2.072210556706657880e-01
7.345999999999999375e+01 2.384400000000000119e+01 8.006600000000000605e+00 1.826457999999999915e+00 -2.071695286099285993e-01
7.346200000000000330e+01 -1.592000000000000082e+00 2.789599999999999858e-01 -1.016991999999999896e+00 -1.689552295772922819e-01
7.346299999999999386e+01 -4.751800000000000246e+00 8.221199999999999619e+00 -7.180670000000000108e-01 -1.831334524665727548e-01
7.346500000000000341e+01 -5.631199999999999761e+00 1.251200000000000045e+01 6.260221999999999731e+00 -1.829363795581468444e-01
7.347199999999999420e+01 2.613599999999999923e+01 2.507999999999999829e+01 -1.115326999999999913e+01 -7.473366988587137882e-02
7.347499999999999432e+01 1.218299999999999983e+01 2.029899999999999949e+01 -2.694388000000000005e+00 -2.051894002893831781e-01
7.347799999999999443e+01 2.666499999999999915e+01 1.917200000000000060e+01 8.013773000000000479e+00 -7.666869391951483537e-02
7.348300000000000409e+01 -5.015399999999999636e+00 1.415099999999999980e+01 4.834591999999999778e+00 -1.831056735148665071e-01
7.349299999999999500e+01 6.214900000000000091e+00 -3.965899999999999981e+00 -1.485241000000000078e+01 -1.694869252716762476e-01
7.349699999999999989e+01 5.312299999999999578e+00 -3.954099999999999948e+00 -9.543312000000000239e+00 -1.693435233440562793e-01
7.350199999999999534e+01 1.725700000000000145e+01 -4.897700000000000387e+00 2.127624000000000137e+01 -6.710480546527214374e-02
7.350300000000000011e+01 1.469999999999999929e+01 6.325000000000000178e+00 -1.009168999999999983e+01 -2.065199173929050391e-01
7.350400000000000489e+01 2.770299999999999940e+01 2.416199999999999903e+01 -3.012002000000000024e+01 -7.488433687630768887e-02
7.350499999999999545e+01 2.354200000000000159e+01 2.920200000000000173e+01 2.850619000000000014e+01 -2.875672082552993003e-01
7.350700000000000500e+01 1.487199999999999989e+01 4.005099999999999660e+00 -6.450882000000000005e+00 -6.730925205989124471e-02
7.350900000000000034e+01 1.594400000000000084e+01 8.172000000000000597e+00 -7.035752999999999702e+00 -2.065007811512652725e-01
7.351000000000000512e+01 -3.906699999999999839e+00 3.902699999999999836e+00 1.751659000000000077e+00 -1.692462802908051844e-01
7.351000000000000512e+01 -2.715800000000000214e+00 3.238799999999999901e+00 2.975731999999999822e+00 -1.692980723382678798e-01
7.351399999999999579e+01 1.936199999999999832e+01 -8.826699999999999546e-01 -9.694798000000000304e-02 -6.791997664572611837e-02
7.351500000000000057e+01 2.211699999999999999e+00 -1.259500000000000064e+00 5.570878000000000441e+00 -1.692798520155138209e-01
7.351500000000000057e+01 2.440800000000000125e+01 1.802400000000000091e+01 -3.534991000000000216e+00 -7.730995742415879002e-02
7.351800000000000068e+01 6.329399999999999693e+00 1.920899999999999963e+01 7.051144999999999996e+00 -2.048240796378598960e-01
7.351999999999999602e+01 1.673199999999999932e+01 3.838600000000000012e+00 -1.640876999999999919e+00 -6.776179271322854691e-02
7.351999999999999602e+01 1.764000000000000057e+01 3.838600000000000012e+00 -1.264454999999999885e-01 -6.799279026244579860e-02
7.351999999999999602e+01 2.608399999999999963e+01 2.709900000000000198e+00 -4.252390000000000114e+00 -6.997057051534223693e-02
7.351999999999999602e+01 2.307999999999999829e+01 1.470800000000000018e+01 -6.747043999999999819e+00 -2.066328780433154821e-01
7.352500000000000568e+01 1.593699999999999939e+01 2.543600000000000083e+00 -1.771362000000000103e+00 -6.742659736618678012e-02
7.353300000000000125e+01 1.608299999999999841e+01 3.939999999999999947e+00 -2.983268999999999949e+00 -6.760976675515660561e-02
7.354900000000000659e+01 1.220199999999999996e+01 2.151300000000000168e+01 -9.808087000000000444e+00 -2.050831884453704068e-01
7.354900000000000659e+01 1.446700000000000053e+01 2.151300000000000168e+01 -2.417514999999999858e+01 -2.052763979742941447e-01
7.354900000000000659e+01 -1.930099999999999927e+00 1.726399999999999935e+01 2.476985000000000170e+01 -1.840053056589389668e-01
7.355100000000000193e+01 6.518299999999999983e+00 -4.665899999999999714e+00 -4.996341000000000143e+00 -1.694415795215610532e-01
7.355100000000000193e+01 2.423699999999999832e+01 2.464999999999999858e+00 1.680290000000000117e-01 -6.948907214123976883e-02
7.355100000000000193e+01 2.577299999999999969e+01 2.582199999999999918e+01 2.787154000000000131e+00 -2.883028109806354822e-01
7.355400000000000205e+01 7.461999999999999744e+00 1.845100000000000051e+01 -5.685069000000000372e+00 -2.049723096162500702e-01
7.355500000000000682e+01 5.008899999999999686e+00 -4.654099999999999682e+00 -1.063574999999999982e+01 -1.692043944608835893e-01
7.355700000000000216e+01 4.136299999999999977e-01 1.987500000000000000e+01 4.634322000000000052e+00 -2.043973466061336786e-01
7.356499999999999773e+01 1.500399999999999956e+01 -4.237400000000000055e+00 7.584500000000000242e+00 -6.666390204847802425e-02
7.356499999999999773e+01 1.456799999999999962e+01 4.705099999999999838e+00 -9.072162000000000504e+00 -6.731301291622933392e-02
7.356799999999999784e+01 1.696300000000000097e+01 8.673600000000000421e+00 -1.273746999999999963e+00 -2.065502968675539397e-01
7.356900000000000261e+01 1.801699999999999946e+01 4.591899999999999871e+00 1.757764999999999844e+01 -6.818121733422531638e-02
7.357800000000000296e+01 1.457799999999999940e+01 5.422699999999999854e+00 -1.283614999999999995e+01 -6.739474610656936981e-02
7.358100000000000307e+01 2.608500000000000085e+01 5.267699999999999605e+00 -1.825516000000000005e+01 -7.033494577938098624e-02
7.358499999999999375e+01 1.333399999999999963e+01 2.227199999999999847e+01 -3.398113000000000028e+01 -2.051107971633730764e-01
7.359000000000000341e+01 3.678900000000000059e+00 -5.413000000000000256e+00 -1.409926000000000013e+00 -1.689060467371396590e-01
7.359000000000000341e+01 5.277099999999999902e+00 -5.413000000000000256e+00 -1.017511000000000010e+01 -1.691452834422476625e-01
7.359099999999999397e+01 1.638700000000000045e+01 4.639999999999999680e+00 -2.541232999999999964e-01 -6.777015086352707052e-02
7.359600000000000364e+01 2.408800000000000097e+01 6.637500000000000178e+00 2.784273999999999916e+01 -2.072588893321627435e-01
7.360200000000000387e+01 4.020999999999999908e+00 -2.589100000000000179e+00 -2.638224000000000125e+00 -1.693705454768697494e-01
7.360200000000000387e+01 4.230100000000000193e+00 -3.325099999999999945e+00 -2.399049999999999905e+00 -1.692898779354136407e-01
7.362000000000000455e+01 2.294800000000000040e+01 1.757799999999999940e+01 -1.308514000000000088e+01 -2.063807411484729626e-01
7.362199999999999989e+01 1.548900000000000077e+01 2.983299999999999841e+01 6.436663000000000245e+00 -1.680742043162357646e-01
7.362300000000000466e+01 -1.690599999999999881e-01 2.109199999999999875e+01 2.461622999999999895e+00 -2.042754405879759205e-01
7.362399999999999523e+01 -7.000000000000000666e-02 2.361199999999999832e+01 -1.984085000000000099e+00 -2.040909565809700954e-01
7.362500000000000000e+01 1.033300000000000018e+01 -9.727000000000000313e+00 2.365047999999999817e+00 -2.785094907198401026e-01
7.362500000000000000e+01 1.212100000000000044e+01 -9.727000000000000313e+00 5.535970999999999975e+00 -2.787845480790773767e-01
7.362600000000000477e+01 1.824899999999999878e+01 3.777000000000000135e+00 -4.226956000000000047e-01 -6.814950098168598425e-02
7.362999999999999545e+01 1.230700000000000038e+01 -4.326200000000000045e+00 9.560307999999999140e+00 -6.609548767351522414e-02
7.362999999999999545e+01 1.349799999999999933e+01 -3.662300000000000111e+00 1.148601999999999990e+01 -6.638264611828899320e-02
7.363100000000000023e+01 1.801599999999999824e+01 -1.489700000000000024e+00 2.384014000000000166e+01 -6.755654772961429411e-02
7.363100000000000023e+01 1.570700000000000074e+01 -4.536999999999999922e+00 1.083783999999999992e+01 -6.680456953482252769e-02
7.363299999999999557e+01 1.941000000000000014e+01 4.650800000000000267e+00 1.291152000000000077e+00 -6.855230655525526573e-02
7.363599999999999568e+01 1.443699999999999939e+01 1.143499999999999961e+00 9.623091000000000506e+00 -6.694485972179264888e-02
7.363599999999999568e+01 1.464600000000000080e+01 4.074699999999999989e-01 1.555854000000000070e+01 -6.693112635331005533e-02
7.363599999999999568e+01 1.464600000000000080e+01 1.879499999999999948e+00 6.181165000000000020e+00 -6.706038281314405380e-02
7.363599999999999568e+01 1.583699999999999974e+01 -2.565100000000000158e-01 2.825017000000000067e+01 -6.715397271311532301e-02
7.365300000000000580e+01 4.008300000000000196e+00 -6.173000000000000043e+00 -1.098338000000000036e+00 -1.688673140300425979e-01
7.365300000000000580e+01 4.008300000000000196e+00 -4.652999999999999581e+00 -3.126869000000000121e+00 -1.690724963881212461e-01
7.365300000000000580e+01 4.947700000000000209e+00 -6.173000000000000043e+00 -1.475116000000000094e+00 -2.774703105683901105e-01
7.365399999999999636e+01 1.671600000000000108e+01 5.400000000000000355e+00 -1.348449000000000009e+00 -6.794826893983993421e-02
7.365399999999999636e+01 1.765599999999999881e+01 5.400000000000000355e+00 2.452967999999999904e+01 -6.819173837099531954e-02
7.366400000000000148e+01 1.402100000000000080e+01 2.970899999999999963e+01 -3.091137999999999941e+00 -1.683467195476099354e-01
7.367900000000000205e+01 1.191099999999999959e+01 -8.596399999999999153e+00 9.934114000000000555e-01 -2.786907349186032445e-01
7.368500000000000227e+01 2.820799999999999841e+01 1.932400000000000162e+01 -1.922350999999999921e+00 -7.645892056716112328e-02
7.368500000000000227e+01 2.965399999999999991e+01 2.012999999999999901e+01 -5.352670999999999957e+00 -7.605153054891047870e-02
7.368500000000000227e+01 2.965399999999999991e+01 2.191799999999999926e+01 -1.738159999999999927e+00 -7.546262429222058699e-02
7.368500000000000227e+01 2.990800000000000125e+01 2.102400000000000091e+01 -2.023355000000000015e+00 -7.573417918664759885e-02
7.369199999999999307e+01 1.185699999999999976e+00 -1.256000000000000005e+00 2.013561000000000156e+00 -1.691636373182044406e-01
7.369599999999999795e+01 1.070199999999999996e+01 -1.057699999999999996e+01 1.600651000000000046e+00 -2.786146347288878111e-01
7.369599999999999795e+01 1.070199999999999996e+01 -8.877000000000000668e+00 1.876675000000000093e+00 -2.785177533888745782e-01
7.369599999999999795e+01 1.175200000000000067e+01 -1.057699999999999996e+01 2.407388000000000083e+00 -2.787734636188438642e-01
7.369799999999999329e+01 5.146199999999999664e-01 1.814300000000000068e+01 1.805941999999999936e+00 -2.045426039753555081e-01
7.370099999999999341e+01 2.380399999999999849e+01 2.827700000000000102e+01 2.755906000000000189e-01 -2.876974649755893454e-01
7.370600000000000307e+01 2.542299999999999827e+01 1.864699999999999847e+01 -3.492687000000000097e+00 -7.698600777145267471e-02
7.370699999999999363e+01 1.695899999999999963e+01 -1.307600000000000096e+00 4.901852000000000231e+01 -6.733358846534281961e-02
7.370999999999999375e+01 -2.444399999999999906e+00 2.141999999999999904e+00 3.114793000000000145e+00 -1.691930311472996107e-01
7.371200000000000330e+01 4.311700000000000088e+00 -3.952999999999999847e+00 -2.342566999999999844e+00 -1.692318671901990590e-01
7.371399999999999864e+01 2.233699999999999974e+01 3.049399999999999888e+00 -2.504057000000000088e-01 -6.909964394440668012e-02
7.371899999999999409e+01 2.692999999999999972e+01 2.442999999999999972e+01 -5.487404000000000082e+01 -7.489329065684277587e-02
7.371899999999999409e+01 1.659299999999999997e+01 2.957899999999999974e+00 -1.890438000000000063e+00 -6.765088235010828510e-02
7.371899999999999409e+01 1.054499999999999993e+01 2.176500000000000057e+01 -4.926421999999999746e-02 -2.049275096620251924e-01
7.371899999999999409e+01 1.238899999999999935e+01 1.990200000000000102e+01 -1.650221000000000160e+01 -2.052418778241082153e-01
7.371899999999999409e+01 1.465399999999999991e+01 1.990200000000000102e+01 -2.022640000000000171e+01 -2.054360133296868063e-01
7.371899999999999409e+01 1.465399999999999991e+01 2.076699999999999946e+01 -2.129317999999999955e+01 -2.053588908813045177e-01
7.372400000000000375e+01 9.977999999999999758e+00 2.391700000000000159e+01 -1.035736999999999952e+01 -2.046972040565374906e-01
7.373300000000000409e+01 1.032000000000000028e+01 2.087399999999999878e+01 4.021770000000000067e+01 -2.049873561034572800e-01
7.373799999999999955e+01 6.946500000000000341e+00 -5.300500000000000433e+00 -1.423148000000000080e+00 -2.777073906383997204e-01
7.373900000000000432e+01 8.308999999999999275e+00 1.875799999999999912e+01 -9.142476000000000269e+00 -2.050124416204122668e-01
7.373999999999999488e+01 9.598100000000000520e+00 2.930900000000000105e+01 -2.259675999999999974e+01 -1.692044807801241502e-01
7.374200000000000443e+01 -3.105000000000000121e-02 -3.928900000000000170e-01 6.640833999999999904e+00 -1.691318495499793406e-01
7.374599999999999511e+01 2.168100000000000094e+01 3.244299999999999784e+01 -1.443618000000000068e+00 -2.869574791611815834e-01
7.375100000000000477e+01 -6.270700000000000163e-01 1.723699999999999832e+01 1.664264999999999972e+01 -2.045523147033388722e-01
7.375499999999999545e+01 1.792599999999999838e+01 -4.469400000000000261e+00 1.517939999999999934e+01 -6.730695783551973732e-02
7.375499999999999545e+01 1.352200000000000024e+01 1.914399999999999835e+01 -2.654091000000000022e+01 -2.054047273784494754e-01
7.375600000000000023e+01 1.963500000000000156e+01 5.409699999999999953e+00 -2.253976999999999897e+00 -6.871391342673564828e-02
7.375799999999999557e+01 -5.157399999999999984e+00 1.327899999999999991e+01 9.407092999999999705e+00 -1.831109986867540118e-01
7.376000000000000512e+01 1.248399999999999999e+01 2.946600000000000108e+01 2.448441000000000045e+01 -1.687030981343297653e-01
7.376399999999999579e+01 5.745000000000000107e+00 -4.654099999999999682e+00 -4.064553000000000083e+00 -1.693632276781105450e-01
7.376399999999999579e+01 1.912900000000000134e+01 3.724200000000000177e+00 1.683332999999999968e+00 -6.837703824924536156e-02
7.376500000000000057e+01 1.591900000000000048e+01 5.398900000000000254e+00 -2.992053999999999991e+00 -6.775338807144397346e-02
7.376500000000000057e+01 -8.920000000000000151e-01 2.206700000000000050e-01 9.932857000000000269e+00 -1.691107795927392077e-01
7.377299999999999613e+01 2.691400000000000148e+01 9.130200000000000538e-01 -1.067892999999999981e+00 -6.992944236469443575e-02
7.377299999999999613e+01 2.949399999999999977e+01 9.130200000000000538e-01 -4.418878999999999557e+00 -7.051371842110247534e-02
7.377599999999999625e+01 2.696000000000000085e+01 2.439999999999999947e+00 -1.227907000000000082e+00 -7.014445745250399988e-02
7.377800000000000580e+01 1.875300000000000011e+01 4.591899999999999871e+00 4.595730999999999788e+00 -6.838600801078262292e-02
7.377899999999999636e+01 2.128600000000000136e+01 3.655100000000000016e+00 1.932532000000000139e-01 -6.891523929759536815e-02
7.378499999999999659e+01 1.948000000000000043e+01 -1.861699999999999910e+00 7.002718999999999472e-01 -6.787704905083487283e-02
7.378499999999999659e+01 1.252699999999999925e+01 -9.405200000000000671e+00 1.351847000000000021e+00 -2.788317750823410268e-01
7.378700000000000614e+01 1.531400000000000006e+01 5.422699999999999854e+00 -3.425221000000000071e+00 -6.760388935773278818e-02
7.378700000000000614e+01 1.547799999999999976e+01 4.672600000000000087e+00 -3.221807999999999783e+00 -6.756221363312950312e-02
7.379200000000000159e+01 1.732900000000000063e+01 3.268900000000000006e+01 6.394571000000000005e+00 -1.663027351926531505e-01
7.379399999999999693e+01 2.817299999999999827e+01 2.340200000000000102e+01 -4.459038999999999930e+01 -7.511852534963646411e-02
7.379500000000000171e+01 1.556899999999999951e+00 2.348199999999999932e+01 -9.170413999999999533e+01 -2.041890663046282695e-01
7.379800000000000182e+01 2.117699999999999960e+01 -9.919999999999999929e-01 -1.835925000000000029e+00 -6.835960544195152089e-02
7.379900000000000659e+01 6.013099999999999667e+00 -5.413000000000000256e+00 -1.822899000000000047e+00 -1.693026475613628734e-01
7.379999999999999716e+01 1.718599999999999994e+01 3.104900000000000215e+00 -1.244137000000000048e+00 -6.782146240751145416e-02
7.381000000000000227e+01 1.907799999999999940e+01 -2.612400000000000055e+00 1.579978999999999978e+01 -6.771937443119556421e-02
7.381600000000000250e+01 -7.426000000000000156e+00 5.602999999999999758e+00 1.136087999999999987e+00 -1.826322492746240145e-01
7.381600000000000250e+01 -7.172100000000000364e+00 4.709299999999999820e+00 1.307010000000000005e+00 -1.690283940632690274e-01
7.381600000000000250e+01 -7.172100000000000364e+00 6.496699999999999697e+00 1.218882000000000021e+00 -1.826728574337245781e-01
7.381600000000000250e+01 -5.725999999999999979e+00 3.903000000000000025e+00 1.417847000000000079e+00 -1.690726306505710708e-01
7.381699999999999307e+01 1.774500000000000099e+01 2.866899999999999782e+00 3.298381000000000229e-01 -6.793633418306550820e-02
7.381699999999999307e+01 2.744200000000000017e+01 1.920899999999999963e+01 1.606699000000000055e+01 -7.658012218419688044e-02
7.381900000000000261e+01 1.699299999999999855e+01 -7.937000000000000277e+00 -6.437846999999999653e+00 -2.794815580745405037e-01
7.382099999999999795e+01 9.220100000000000406e+00 1.967399999999999949e+01 -6.494693999999999967e+00 -2.050052922032563063e-01
7.382399999999999807e+01 1.178899999999999970e+01 -4.582099999999999618e+00 3.840268000000000015e+00 -6.600254879407776998e-02
7.382500000000000284e+01 2.442800000000000082e+01 8.972699999999999676e+00 -2.541894999999999794e+00 -2.071296431600594956e-01
7.382800000000000296e+01 1.037599999999999945e+01 2.283500000000000085e+01 -3.500010000000000066e+00 -2.048229658811243914e-01
7.382999999999999829e+01 2.253600000000000136e+01 1.578899999999999970e+01 4.601345000000000240e+00 -2.064827760801131173e-01
7.383299999999999841e+01 2.820400000000000063e+01 -8.489900000000000224e-01 -3.652051999999999854e+00 -6.999602278749310347e-02
7.383299999999999841e+01 2.820400000000000063e+01 1.737000000000000099e+00 -1.584553000000000011e+01 -7.033645453027111138e-02
7.383299999999999841e+01 2.478000000000000114e+01 1.381000000000000050e+01 -4.759772999999999854e+01 -2.068252690606913746e-01
7.383299999999999841e+01 2.607300000000000040e+01 1.149099999999999966e+01 -6.673696999999999768e+00 -2.070930948131002869e-01
7.383299999999999841e+01 2.607300000000000040e+01 1.308900000000000041e+01 -2.743552999999999997e+01 -2.069818912399507271e-01
7.383299999999999841e+01 2.630000000000000071e+01 1.228999999999999915e+01 -5.068216999999999928e+01 -2.070560203667418941e-01
7.383299999999999841e+01 1.869099999999999895e+01 3.336599999999999966e+01 1.534478000000000009e+01 -2.862742928460547676e-01
7.383599999999999852e+01 1.867500000000000071e+01 -3.362999999999999989e+00 2.545111999999999952e+01 -6.756697609515224801e-02
7.383599999999999852e+01 1.085800000000000054e+01 -6.622200000000000308e+00 2.086298000000000208e+00 -2.784113777818533197e-01
7.383799999999999386e+01 -5.344299999999999606e+00 7.625700000000000145e+00 1.497676999999999925e+00 -1.830636958995237595e-01
7.384600000000000364e+01 1.550999999999999979e+01 6.182000000000000384e+00 -8.699391999999999570e+00 -2.065806461673592997e-01
7.384600000000000364e+01 1.550999999999999979e+01 7.581999999999999851e+00 -1.536042999999999914e+01 -2.064888732626912748e-01
7.385800000000000409e+01 9.343500000000000583e+00 2.543599999999999994e+01 -5.330131999999999870e+00 -2.045250384362667373e-01
7.385899999999999466e+01 8.283200000000000784e+00 -6.243800000000000239e+00 1.312241999999999909e+00 -2.779822030135489785e-01
7.386100000000000421e+01 1.990800000000000125e+01 -2.320000000000000118e-01 -7.482137999999999955e+00 -6.814114908526458514e-02
7.386100000000000421e+01 2.084799999999999898e+01 -1.752000000000000002e+00 -8.669174999999999187e+00 -6.821073277812153557e-02
7.386100000000000421e+01 2.084799999999999898e+01 -2.320000000000000118e-01 -2.170308999999999955e+01 -6.836480150592599836e-02
7.386299999999999955e+01 2.451999999999999957e+01 5.937500000000000000e+00 5.173441999999999652e+00 -7.004377277191746465e-02
7.386499999999999488e+01 1.086299999999999955e+01 2.940099999999999980e+01 9.073107999999999507e+00 -1.689775585027588622e-01
7.387199999999999989e+01 2.697400000000000020e+01 -2.570599999999999968e-02 -8.507730000000000015e-01 -6.982418534654408204e-02
7.387199999999999989e+01 2.943400000000000105e+01 -2.570599999999999968e-02 -4.392374000000000223e+00 -7.037362303571666200e-02
7.387600000000000477e+01 2.524800000000000111e+01 2.667200000000000060e+01 9.580253000000000796e+00 -2.881331333996316468e-01
7.387900000000000489e+01 2.271199999999999974e+01 3.072400000000000020e+01 -6.993731000000000364e+00 -2.873003488907556191e-01
7.388700000000000045e+01 2.251500000000000057e+01 1.687800000000000011e+01 -2.869021000000000043e+00 -2.063888806752084970e-01
7.389400000000000546e+01 2.702199999999999847e+01 1.602500000000000036e+00 -4.402573000000000292e+00 -7.004669204990816855e-02
7.389499999999999602e+01 1.028899999999999954e-01 2.064199999999999946e+01 4.717177000000000398e+00 -2.043334587777415057e-01
7.389499999999999602e+01 2.995099999999999874e+00 2.242999999999999972e+01 2.473156000000000176e+01 -2.043534236249786029e-01
7.389700000000000557e+01 2.402199999999999847e+01 2.750900000000000034e+01 3.667231000000000130e+00 -2.878059422776535481e-01
7.389799999999999613e+01 5.460099999999999731e+00 2.070499999999999829e+01 1.156958999999999982e+01 -2.046467060074788069e-01
7.389799999999999613e+01 2.510099999999999909e+01 2.448799999999999866e+00 -2.201906999999999837e+00 -6.970538539570902969e-02
7.389900000000000091e+01 1.682499999999999929e+01 -5.388600000000000279e+00 8.096678999999999959e+00 -6.701857074709700879e-02
7.390300000000000580e+01 -5.567999999999999616e+00 1.090900000000000070e+01 1.984218000000000037e+00 -1.830229258498507483e-01
7.390300000000000580e+01 -5.314099999999999824e+00 1.001500000000000057e+01 3.080945999999999962e-01 -1.830794564061908325e-01
7.390399999999999636e+01 1.520700000000000074e+01 6.881999999999999673e+00 -8.007156000000000162e+00 -2.065075972040860963e-01
7.391400000000000148e+01 -5.397100000000000231e-01 2.191199999999999903e+01 -3.171533999999999853e+00 -2.042067518290492656e-01
7.391400000000000148e+01 -5.397100000000000231e-01 2.285200000000000031e+01 -1.470401000000000025e+01 -2.041373552350335685e-01
7.392000000000000171e+01 2.257799999999999940e+01 3.164799999999999969e+01 -2.169924999999999926e+01 -2.872147674640176396e-01
7.392600000000000193e+01 1.478899999999999970e+01 2.977499999999999858e+01 -2.647362999999999911e+00 -1.682293025444038803e-01
7.392700000000000671e+01 2.025799999999999912e+01 -3.362999999999999989e+00 3.775568999999999953e+00 -6.793110150062207919e-02
7.392900000000000205e+01 4.322499999999999787e+00 2.134799999999999898e+01 1.630803999999999832e+01 -2.045210292324680101e-01
7.393000000000000682e+01 1.678399999999999892e+01 8.348300000000000054e+00 1.069898000000000016e+00 -2.065399189286612480e-01
7.393000000000000682e+01 9.545600000000000307e+00 2.601999999999999957e+01 -5.859543999999999642e+00 -4.163969816766148746e-01
7.393000000000000682e+01 9.545600000000000307e+00 2.688500000000000156e+01 -4.039793999999999663e+00 -4.164807911670556639e-01
7.393000000000000682e+01 9.545600000000000307e+00 2.771499999999999986e+01 -5.035275999999999641e-01 -1.700640782242496818e-01
7.393399999999999750e+01 1.866300000000000026e+01 5.434099999999999930e+00 1.847453999999999930e+00 -6.847703314732098145e-02
7.394199999999999307e+01 -2.745000000000000107e+00 1.708899999999999864e+01 8.287625000000000242e+00 -1.838375962363722471e-01
7.394299999999999784e+01 -3.206700000000000106e+00 3.635400000000000187e+00 5.019219999999999793e+00 -1.693908818219811152e-01
7.394899999999999807e+01 2.499800000000000111e+01 1.836100000000000065e+01 -8.167125999999999664e+00 -7.712975961664590707e-02
7.395099999999999341e+01 1.877400000000000091e+01 2.927000000000000046e+00 1.706863999999999937e+00 -6.820961887894198827e-02
7.395300000000000296e+01 6.899999999999999467e-01 2.367500000000000071e+01 -1.761803000000000097e+01 -2.041372065643335953e-01
7.395699999999999363e+01 1.961700000000000088e+01 6.353799999999999670e+00 -4.553449999999999775e+00 -2.068996259122222181e-01
7.395699999999999363e+01 1.961700000000000088e+01 7.219000000000000306e+00 -2.813588999999999896e+00 -2.068465181146791065e-01
7.395799999999999841e+01 2.300799999999999912e+01 2.984499999999999886e+01 2.058049000000000106e+01 -2.874270811592124497e-01
7.396500000000000341e+01 8.200000000000000344e-02 1.744300000000000139e+01 3.159784999999999844e+00 -2.045804546116765932e-01
7.396899999999999409e+01 2.366300000000000026e+01 1.415399999999999991e+01 -1.434637999999999991e+01 -2.066989422998973536e-01
7.397400000000000375e+01 -5.848399999999999821e+00 7.385900000000000354e+00 5.285213999999999857e+00 -1.829758845360166253e-01
7.397400000000000375e+01 -4.293300000000000338e+00 1.601099999999999923e+01 1.618292999999999981e+00 -1.834074949293243439e-01
7.397499999999999432e+01 2.368199999999999861e+01 1.762300000000000111e+01 -1.840126000000000062e+01 -2.064231065535174492e-01
7.398199999999999932e+01 1.290199999999999925e+01 2.178099999999999881e+01 -2.672718000000000060e+01 -2.051198309122092556e-01
7.398199999999999932e+01 1.376699999999999946e+01 2.178099999999999881e+01 -3.632638000000000034e+01 -2.051921531963342704e-01
7.398300000000000409e+01 2.696900000000000119e+01 3.130999999999999783e+00 -1.322761000000000031e+01 -7.024283842697487401e-02
7.398799999999999955e+01 9.545999999999999375e+00 -6.591700000000000337e+00 2.001818000000000097e+00 -2.782048265347581428e-01
7.399299999999999500e+01 1.152100000000000080e+01 -7.743599999999999817e+00 -4.458338000000000356e+00 -2.785848797285223055e-01
7.399599999999999511e+01 1.121899999999999942e+01 -5.459299999999999820e+00 1.029166999999999987e+01 -2.784029579706599478e-01
7.399699999999999989e+01 -2.213600000000000012e+00 1.054000000000000048e+00 2.163400999999999907e+00 -1.691099277453288474e-01
7.400600000000000023e+01 6.476300000000000168e+00 1.945799999999999841e+01 1.639036000000000115e+01 -2.048220760166180876e-01
7.400900000000000034e+01 2.612300000000000111e+01 1.870499999999999829e+01 6.719800000000000217e+00 -7.689113081632252544e-02
7.401000000000000512e+01 -2.666499999999999981e-01 2.146499999999999986e+01 1.069919999999999982e+00 -2.042570121218525991e-01
7.402200000000000557e+01 1.749299999999999855e+01 -5.169400000000000439e+00 6.747148000000000145e+00 -6.718855464135188582e-02
7.403000000000000114e+01 2.014499999999999957e+01 -2.544399999999999995e+00 2.925867000000000218e+00 -6.798648160510703531e-02
7.403199999999999648e+01 -4.548399999999999999e+00 1.518399999999999928e+01 3.380619999999999958e+00 -1.833375388915629012e-01
7.403400000000000603e+01 1.254599999999999937e+01 -1.041499999999999915e+01 4.176982999999999890e+00 -2.788877564415964128e-01
7.404000000000000625e+01 1.259800000000000075e+01 2.108099999999999952e+01 -1.933363999999999905e+01 -2.051562048906621638e-01
7.404000000000000625e+01 5.774600000000000399e+00 -5.975799999999999557e+00 -1.305287000000000042e+01 -2.775930846211943082e-01
7.404500000000000171e+01 1.941100000000000136e+01 -3.362999999999999989e+00 1.394304999999999950e+01 -6.775001987689914518e-02
7.404600000000000648e+01 1.779200000000000159e+01 -7.937000000000000277e+00 -8.131697000000000841e+00 -2.796090944405066336e-01
7.404800000000000182e+01 -5.011499999999999844e+00 3.844100000000000072e+00 1.468115000000000059e+00 -1.692044228812789597e-01
7.404900000000000659e+01 1.366000000000000014e+01 -1.137299999999999933e+01 -5.275942000000000132e-01 -2.791032876581659439e-01
7.404999999999999716e+01 1.864499999999999957e+01 8.291600000000000747e+00 -2.422267999999999866e+00 -2.066926960249365897e-01
7.405100000000000193e+01 2.661799999999999855e+01 4.837100000000000399e+00 -2.505525000000000091e+01 -7.040120443934536065e-02
7.405100000000000193e+01 2.684499999999999886e+01 4.038000000000000256e+00 -3.909647999999999968e+01 -7.034096994932211022e-02
7.405599999999999739e+01 -4.288199999999999790e+00 1.661799999999999855e+01 4.714787999999999757e-01 -1.834359390589256622e-01
7.405899999999999750e+01 2.173900000000000077e+01 2.921300000000000008e+00 -1.709730999999999890e+00 -6.895113407781663928e-02
7.406100000000000705e+01 2.860500000000000043e+01 2.270200000000000173e+01 -1.349355000000000082e+01 -7.532981080870451707e-02
7.406300000000000239e+01 1.279800000000000004e+01 -3.929600000000000204e+00 1.193537000000000070e+01 -6.627453633416337253e-02
7.406300000000000239e+01 1.419800000000000040e+01 -3.929600000000000204e+00 1.832704000000000022e+01 -6.656837991341607585e-02
7.406399999999999295e+01 1.871600000000000108e+01 -1.222299999999999942e+00 1.374037000000000042e+01 -6.778150073572496159e-02
7.406399999999999295e+01 1.123900000000000077e+01 -7.009900000000000020e+00 2.086298000000000208e+00 -2.784990341620069421e-01
7.406399999999999295e+01 1.277399999999999913e+01 -8.544999999999999929e+00 -5.394521000000000122e+00 -2.788271019347029478e-01
7.406799999999999784e+01 1.513700000000000045e+01 1.086799999999999919e-02 1.292902999999999913e+01 -6.706087635326810070e-02
7.406799999999999784e+01 1.513700000000000045e+01 2.276100000000000012e+00 2.171016999999999975e+00 -6.726309297796424780e-02
7.406799999999999784e+01 1.653699999999999903e+01 2.276100000000000012e+00 5.759556999999999594e-01 -6.760053296491577712e-02
7.407299999999999329e+01 1.628399999999999892e+01 6.106200000000000294e+00 -3.411791000000000018e+00 -2.066380414789907860e-01
7.408199999999999363e+01 1.642200000000000060e+01 3.108200000000000074e+01 7.981815000000000104e+00 -1.673242262880325348e-01
7.408199999999999363e+01 2.058599999999999852e+01 3.713299999999999823e+00 -9.422768999999999728e-01 -6.876269441585461384e-02
7.408400000000000318e+01 4.477999999999999758e+00 -6.706000000000000405e+00 -1.187381999999999938e+00 -2.774628265603603650e-01
7.408899999999999864e+01 -4.594400000000000261e+00 1.422700000000000031e+01 7.477795999999999665e+00 -1.833207609018005779e-01
7.409600000000000364e+01 2.356700000000000017e+01 6.958300000000000374e+00 3.518683999999999656e+01 -2.071652963425321126e-01
7.409699999999999420e+01 -4.723399999999999821e+00 8.111399999999999721e+00 -2.536866999999999983e+00 -1.832487153253260781e-01
7.410699999999999932e+01 2.109799999999999898e+01 3.312800000000000011e+01 1.409647000000000006e+01 -2.868178955953993858e-01
7.410899999999999466e+01 1.652299999999999969e+01 -8.696999999999999176e+00 2.044785000000000075e+00 -2.794324774637377828e-01
7.410899999999999466e+01 1.652299999999999969e+01 -7.176999999999999602e+00 4.880067000000000155e-01 -2.793684074136160156e-01
7.410899999999999466e+01 1.746300000000000097e+01 -8.696999999999999176e+00 7.304924000000000417e-01 -2.795837891097285310e-01
